2.43783140 4.87378025 -1.74014533
2.49183679 3.44887185 -0.84527719
1.69504201 4.35954523 -1.75434518
2.52547717 3.45378113 -0.90535849
1.47122967 4.62399530 -2.36117029
2.50899792 4.41964817 -0.69640964
2.48182845 4.31685162 -0.72439015
2.56733704 4.47598314 -0.79871821
2.03129625 3.12044048 -1.67366719
1.60318387 4.20730543 -1.57652307
1.56694484 4.84728575 -2.51451492
1.84666228 4.26824379 -1.66781163
2.47243810 4.40543652 -0.57572579
2.56209564 4.57817936 -1.28258276
2.58156013 4.42988491 -1.26081073
2.43692183 5.01939440 -1.88002980
2.60922647 4.54480028 -1.04660666
2.60828638 4.35382605 -1.16079855
1.73913956 4.27337313 -1.64961421
1.49042606 4.75185680 -2.47948194
2.45340776 3.21759319 -0.81289357
1.95648122 3.21571422 -1.67379701
2.60657930 4.06319523 -1.14902854
2.58334422 4.03450441 -1.28656638
2.60657930 4.06319523 -1.14902854
2.59236956 3.93291759 -1.23848915
1.92106330 3.08107305 -1.66619098
1.83747852 3.11614251 -1.64711857
2.59907150 3.85855818 -1.09306288
2.59966993 3.83100271 -1.15856147
1.93172264 2.92592311 -1.67125905
1.67210937 4.29140568 -1.65473115
2.50643706 4.51814318 -1.40695632
2.54056859 4.49545050 -1.35201633
2.55735779 4.37061834 -1.33025157
1.73291278 3.40631032 -1.59145522
2.33692598 4.91201305 -1.91396177
1.62607944 3.33686686 -1.52162576
1.65686417 4.56510162 -2.15293741
1.71136212 4.50206280 -2.02130413
2.50265598 3.18252397 -0.88438588
2.46156573 3.06567097 -0.83381373
1.60432863 4.32936144 -1.75031281
2.56534076 3.74521780 -1.31511533
2.55116367 4.00869131 -1.36174488
1.60318387 4.20730543 -1.57652307
2.60526299 4.19421005 -1.07426131
2.60384703 4.26570606 -1.21149802
1.63283968 4.44908619 -1.98665464
1.59249508 4.57547474 -2.22112584
2.50228143 3.01711273 -0.90778565
1.75830960 3.51911664 -1.60884023
1.89241683 4.51730108 -1.89191592
2.61966419 4.58378696 -0.99876750
1.83240032 3.39061475 -1.64393258
2.56073523 4.21372700 -1.35762143
2.54565930 4.31833410 -1.37153769
1.75028157 3.24698567 -1.60778570
1.68037295 3.17999935 -1.57074797
1.89241683 4.51730108 -1.89191592
2.60828638 4.35382605 -1.16079855
2.60922647 4.54480028 -1.04660666
2.60197163 4.53169823 -0.89584982
2.59510398 4.43498659 -0.93726885
2.60092592 4.34683275 -1.01320839
2.53900027 3.00076342 -0.99842042
1.59249508 4.57547474 -2.22112584
1.76030493 3.05914998 -1.61295736
1.68907273 3.00741005 -1.56897676
2.50023818 4.37699556 -1.43858218
1.59327722 3.14898825 -1.49140763
2.25275588 3.92156482 -1.63963377
2.30048084 3.94315243 -0.61960328
1.75028157 3.24698567 -1.60778570
2.30048084 3.94315243 -0.61960328
2.24106169 4.03077650 -0.57375532
1.77377152 4.47819281 -1.92636991
1.69785583 4.41051579 -1.85723150
1.83747852 3.11614251 -1.64711857
1.69785583 4.41051579 -1.85723150
2.27072835 3.75170827 -1.62668037
1.53034914 4.37445354 -1.91751432
1.48535180 4.45332527 -2.10230565
1.37059331 7.09004593 -2.53906441
1.31955850 7.22575283 -2.52643991
1.41441345 6.85436153 -2.58071184
1.18828845 7.20774269 -2.59613276
1.29033840 6.88878202 -2.63667250
0.07760769 3.97037840 -1.10695922
0.12465731 3.95307565 -0.99511755
-0.12437863 3.96887374 -1.08534455
1.21886265 4.40216732 -2.16714668
1.32256341 4.42822886 -2.16000724
1.22397292 4.34108639 -2.03746629
1.42260385 3.49800491 -1.01895964
1.40378857 3.59058952 -1.13296270
1.42578733 3.30877972 -1.07268298
-0.69396943 4.23470545 -1.96838450
-0.58592856 4.28140879 -2.11245322
-0.40746078 4.24967813 -2.07876849
1.51447821 3.65903401 -1.41913652
1.56792951 3.53135133 -1.46505415
1.49903178 3.50427771 -1.37723815
1.31912744 4.13256884 -1.36866581
1.41131973 4.13646603 -1.39484799
1.31247461 4.08868742 -1.23813975
1.56764114 3.34665704 -1.46607506
1.34830737 4.17490625 -1.49397779
1.31912744 4.13256884 -1.36866581
1.11067581 4.10366106 -1.37974703
0.26098120 3.89940906 -0.45329195
0.15689456 3.90226722 -0.48226750
0.37757173 3.91463590 -0.58741361
1.43658829 3.36729813 -1.00173032
1.44214106 3.22824764 -0.99110579
0.45649299 4.01416016 -1.29368472
0.61639029 4.04181194 -1.35881746
0.62764901 4.01355076 -1.23497713
-0.25998896 3.95016336 -0.90052658
-0.28801709 3.99858117 -1.23079014
0.14090797 3.92431021 -0.76258051
1.08615017 4.27591133 -1.95782959
1.13513458 4.22093582 -1.78338325
1.47644043 3.43819904 -1.35207951
1.51938748 3.13824725 -1.40368068
0.42143539 4.03733969 -1.41107309
1.40553486 3.69143558 -1.19865525
1.42379308 3.70499635 -1.27490652
1.42403448 3.36734700 -1.21847653
1.42260861 3.26794696 -1.17410994
-0.05671690 3.93136835 -0.79113442
-0.27212176 3.93809462 -0.82031262
1.64566386 4.03639650 -0.55967605
0.15824623 3.89347005 -0.24198335
1.74457574 4.02451515 -0.54309982
-0.07669400 3.89836287 -0.07635797
1.05573094 3.95603514 -0.50548196
0.85280132 3.93247390 -0.49054539
1.45887280 3.28970337 -1.31017470
0.37121382 3.97838473 -1.12008524
0.21501982 3.98890042 -1.20154464
1.60986257 4.04093170 -0.45350614
-0.25947100 3.92928028 -0.71119308
-0.44742665 3.94849896 -0.82186109
1.48524308 4.01815271 -0.41201824
-0.10099589 3.89597106 -0.18868695
0.59022343 4.06195116 -1.46328616
1.75524497 3.97323227 -0.56731707
-0.57427150 3.97165895 -0.96553755
1.66885984 3.98615718 -0.60104805
0.74685508 3.91601014 -0.30044535
1.55077565 3.02294827 -1.44811594
0.11673048 3.89814401 -0.34413365
1.44924343 3.74641371 -1.33180881
1.43948281 3.44782209 -1.27807760
-0.36516976 3.97190380 -1.03976059
1.74768627 3.89912176 -0.59000480
0.97447723 4.31528091 -2.10430193
0.26877230 4.01906252 -1.35983384
1.71672392 3.84116220 -0.61198646
1.10285103 4.13113308 -1.49511576
0.93681532 4.08564043 -1.40793705
-0.08833108 3.90042996 -0.37539816
1.63620377 3.94949532 -0.63832635
0.94023544 4.36143684 -2.21829081
1.00639391 4.12726259 -1.51759291
1.04609501 3.96699333 -0.67019904
1.21137249 3.98189282 -0.62492198
1.05573094 3.95603514 -0.50548196
1.39074624 4.53992987 -2.29757190
0.78033537 4.03910923 -1.29493845
0.79535806 4.07406473 -1.43002796
0.05808022 4.01589394 -1.35638511
1.45256960 4.01983929 -0.59131789
1.50411165 4.06700993 -1.44236040
0.95423108 3.95393801 -0.64530182
1.53333378 3.99488449 -0.67765552
1.58186090 4.23571062 -1.59064770
1.49789965 4.15489531 -1.47636080
1.27437186 4.50488949 -2.31346440
1.48535180 4.45332527 -2.10230565
1.49840009 4.21220350 -1.55080199
1.50715101 4.01581097 -0.63713557
1.18571436 3.99036384 -0.75707203
1.28875172 4.01070595 -0.80843443
1.49789965 4.15489531 -1.47636080
1.27992237 4.60877752 -2.44444466
0.88895059 4.13557911 -1.63234735
0.75063509 4.10357904 -1.57141161
1.42777026 4.18830967 -1.50518703
1.43966949 4.11596251 -1.39337134
1.03060544 3.97818375 -0.82303435
-0.26115891 3.90368652 -0.31637540
-0.22026297 3.90258527 -0.18476887
1.42777026 4.18830967 -1.50518703
1.43966949 4.11596251 -1.39337134
1.66777027 3.72808623 -0.65686351
1.49840009 4.21220350 -1.55080199
0.24175552 4.07468987 -1.60259461
0.09176514 4.06090307 -1.55981362
1.44657946 3.11663890 -1.26059759
1.42942810 3.10468054 -1.15064323
1.34830737 4.17490625 -1.49397779
1.36451137 4.21070099 -1.59066367
1.42456400 2.97154117 -1.15335548
1.71547353 3.51037264 -0.64355725
0.95423108 3.95393801 -0.64530182
1.52448463 4.26510143 -1.64913058
0.05808022 4.01589394 -1.35638511
0.21501982 3.98890042 -1.20154464
0.79306245 3.94019079 -0.64889765
-0.02693192 3.90902424 -0.52250952
0.00963488 3.91751671 -0.67061031
0.44314060 4.09331465 -1.63638496
1.28111160 3.98094010 -0.38286328
0.68109018 3.92008424 -0.50145334
1.13814032 4.53184509 -2.41042876
1.28111160 3.98094010 -0.38286328
1.19849145 4.61317396 -2.48012543
1.36451137 4.21070099 -1.59066367
1.32296240 4.24311113 -1.72320211
1.52448463 4.26510143 -1.64913058
1.36451137 4.21070099 -1.59066367
0.88426006 3.96419668 -0.83410639
1.03801763 4.42602301 -2.29597259
1.50319636 2.93905687 -1.36780429
1.44179749 2.93635368 -1.23908162
-0.02888466 3.89866114 -0.42423484
0.49974477 4.12961388 -1.75515735
-0.22474186 3.90945196 -0.46956873
1.37360168 4.00000095 -0.92889506
1.43049431 3.96515870 -0.84402931
1.38526022 4.00366545 -0.83343643
0.14073059 4.09574175 -1.69696891
1.39696646 4.01232767 -0.69171840
1.30229354 4.02297640 -0.93876338
1.37046289 3.97438169 -1.03799951
1.39696646 4.01232767 -0.69171840
1.21137249 3.98189282 -0.62492198
1.41191816 3.91716385 -0.92048246
1.39808083 3.90465450 -0.98474795
1.41530728 3.81441092 -0.95657557
0.89315546 4.43790436 -2.36836600
1.18202746 4.19452381 -1.66216159
1.28875172 4.01070595 -0.80843443
1.21723533 4.01799870 -0.91705859
1.60371435 3.87968802 -0.68704522
1.21723533 4.01799870 -0.91705859
0.94547004 3.98019791 -0.88089901
1.08100760 4.61886930 -2.54236126
1.53638327 3.92662883 -0.73160160
1.33295178 4.01412296 -1.01883006
1.11260164 4.01741314 -1.01525903
0.99447882 4.50044346 -2.42766738
1.55334949 3.81705284 -0.75386792
1.37118149 3.99838281 -1.13958979
1.34702957 4.03053093 -1.12941694
-0.07183955 4.06030703 -1.55533838
-0.07990391 4.01695967 -1.35852587
-0.07183955 4.06030703 -1.55533838
1.30132031 4.04963827 -1.12639976
-0.43075535 3.91379809 -0.41970751
1.01069999 4.15456057 -1.63233674
1.38604593 3.89897847 -1.04598033
0.57057500 3.94641495 -0.83346409
0.53586400 3.93176460 -0.71088636
1.26180255 4.04251671 -1.06822741
1.11260164 4.01741314 -1.01525903
1.09371912 4.04262257 -1.13467073
1.66039395 3.60325527 -0.66852039
1.59987962 3.62733936 -0.72140771
0.42903277 4.19863176 -1.97681546
0.23921061 4.15899944 -1.88635182
1.39219439 3.80586672 -1.12712479
1.39662242 3.77692676 -1.08683980
1.40547371 3.87209296 -1.19692063
-0.04754629 4.11017609 -1.74057746
0.36284730 3.92737627 -0.73753887
0.82129157 4.22294903 -1.94200242
0.99967486 4.21993113 -1.84929466
1.53034914 4.37445354 -1.91751432
0.96049547 4.01333427 -1.08065617
0.29616880 4.23867369 -2.09558034
0.35385165 4.27856159 -2.17850137
1.63213408 3.57270527 -0.69517946
0.73142797 3.96383691 -0.90373576
0.57057500 3.94641495 -0.83346409
0.55199420 3.96476126 -0.98197520
0.67299289 3.98705482 -1.07393909
1.48268604 3.83297586 -0.81883484
1.44566071 3.75549006 -0.90215266
1.47727799 3.71999931 -0.85217088
0.88426006 3.96419668 -0.83410639
0.89724392 4.19444799 -1.82785106
0.30132928 3.95738482 -0.99591917
1.58728898 3.56501150 -0.72144550
0.30132928 3.95738482 -0.99591917
-0.15935035 3.99414682 -1.23566175
0.82959759 4.18553019 -1.81517506
1.53034914 4.37445354 -1.91751432
1.38734603 4.33487606 -1.92014718
1.50517011 3.67579412 -0.82737017
0.72345960 4.17334747 -1.82829261
1.45197141 3.63432837 -0.90915215
0.79615843 3.97953606 -0.97881365
0.73142797 3.96383691 -0.90373576
1.54724348 3.60607457 -0.77756608
0.70764840 4.22453594 -1.99295592
1.54961979 3.55431986 -0.76034117
1.41349220 3.72589850 -1.00550854
1.41079843 3.63884330 -1.03485966
1.43275106 3.59094667 -0.94915175
1.49582410 3.54765368 -0.84567797
0.31065020 3.94649243 -0.88713759
1.25028658 4.27026558 -1.83951414
-0.24343406 4.02399588 -1.35932767
1.46016264 3.99291396 -0.74669540
1.38571954 4.00690174 -0.77796650
0.81794786 4.30633926 -2.14599323
-0.36146495 3.99170756 -1.16821074
1.01236844 4.05185080 -1.23109114
1.44398332 4.02561760 -1.32919383
1.01236844 4.05185080 -1.23109114
-0.69559669 3.99117374 -1.03648007
1.24184370 4.07966471 -1.21105850
1.46679008 3.94374132 -0.80595392
1.52279484 3.96505952 -1.43956447
1.39696646 4.01232767 -0.69171840
1.48217857 3.84594584 -1.37329388
1.43524528 3.83912182 -1.28208387
0.35300317 4.36666250 -2.36273837
0.32254040 4.30261612 -2.24552846
0.28202611 4.35767174 -2.34718609
-0.36146495 3.99170756 -1.16821074
-0.46934742 4.00307560 -1.20982671
-0.49312064 4.03065395 -1.33791637
0.15079264 4.31332493 -2.26303124
0.07837706 4.26131058 -2.15590310
0.56079614 4.28620195 -2.16734385
0.10503487 4.14765215 -1.86287713
0.10357322 4.21831083 -2.05618930
0.00969219 4.13977242 -1.83878362
-0.34099752 4.05056381 -1.46730351
0.77222955 4.00820875 -1.14926612
1.70553875 3.32089710 -0.65744251
-0.13956176 4.25155592 -2.12591076
-0.07529187 4.18313408 -1.95220578
-0.19917041 4.08540010 -1.63301110
0.78086048 4.37010717 -2.28545284
0.00094046 3.94155812 -0.90630674
1.62351131 3.34200573 -0.71319109
-0.34099752 4.05056381 -1.46730351
0.77709043 4.50345898 -2.50116444
0.73502171 4.42908192 -2.40072441
-0.49312064 4.03065395 -1.33791637
-0.24343406 4.02399588 -1.35932767
1.39016259 4.02951956 -1.22029853
1.35349655 4.06420231 -1.21035838
-0.47638097 4.07310104 -1.52393913
-0.19610997 4.32012272 -2.27381992
1.49556243 3.47945619 -0.84104365
1.53762984 3.37995362 -0.79159808
-0.32699427 4.18284655 -1.91901362
0.57732612 4.37754440 -2.34928036
1.47381842 3.33985066 -0.89373988
-0.38383865 4.13060904 -1.75044894
-0.50403839 4.18315554 -1.87857103
1.69320023 3.18295932 -0.66948414
0.70426524 4.13074112 -1.69511056
1.61418974 3.21610236 -0.72375345
0.46277645 3.90836287 -0.49056822
0.38719991 3.89598036 -0.29526046
1.70516801 3.06547666 -0.67476845
1.24184370 4.07966471 -1.21105850
1.60290098 3.07631946 -0.74282759
1.67479861 2.95658803 -0.69213635
-0.48261470 3.93443203 -0.65323758
1.56872296 3.19119477 -0.76848727
1.36862278 4.69212961 -2.48865390
-0.26541272 4.27612114 -2.15477562
1.45054185 3.50181913 -0.93117082
1.51311195 3.25322127 -0.83120906
1.47583914 3.07422209 -0.90592432
1.58361602 3.00710464 -0.76586223
-0.55824512 4.11844301 -1.66301024
1.51950622 3.01261902 -0.83021921
1.43628311 3.13372922 -1.02493370
1.18503726 4.69318199 -2.58010530
-0.41129154 4.30408192 -2.20527577
1.43364966 3.01262283 -1.03963804
1.45904124 2.92929053 -0.95415431
-0.75218278 4.10495901 -1.55447865
1.63283968 4.44908619 -1.98665464
-0.76728261 4.18429089 -1.81530488
1.71166396 5.25528812 -2.64724517
1.78339899 5.31441736 -2.62340069
1.66450632 6.15104055 -2.67061043
1.42703199 6.26469612 -2.76799750
1.56638098 6.27284527 -2.69091487
1.62951255 5.88122272 -2.73976803
1.67770767 5.74469995 -2.72227120
1.47036135 5.80103254 -2.83551741
1.70363843 5.94533062 -2.68617630
1.53394210 6.04327440 -2.76777101
1.51613843 5.65390253 -2.81663394
1.63155079 5.62882614 -2.75195527
1.63629699 5.46975136 -2.73986840
1.34667981 5.44984055 -2.88730597
1.58186924 5.54788351 -2.77641416
1.70951295 5.54081726 -2.70220685
1.40169430 5.36887980 -2.84599352
1.58186924 5.54788351 -2.77641416
1.52710485 6.16261864 -2.74465609
1.58512473 5.33508205 -2.74375653
1.60199153 5.25655413 -2.71309352
1.44218040 5.23930740 -2.79564857
1.63629699 5.46975136 -2.73986840
1.82348919 5.46837664 -2.62314820
1.63629699 5.46975136 -2.73986840
1.47488189 6.49228954 -2.66698813
1.39988041 6.08542490 -2.83152723
1.58738005 5.15739393 -2.68572450
1.51613843 5.65390253 -2.81663394
1.47843301 6.37867165 -2.70913100
1.48655808 5.96744728 -2.80944419
1.31517339 5.52391815 -2.90732431
1.30741107 5.80485916 -2.91401911
1.43607318 5.08306837 -2.73939681
1.41260469 4.93727350 -2.66767073
1.36333609 5.02473736 -2.74376512
1.38922060 4.82175398 -2.59617019
0.48238593 6.65225506 -2.96264505
0.30922109 6.83128929 -2.93048215
0.44209746 6.79265308 -2.92475200
0.67353946 5.27913141 -3.07740355
0.77543038 5.38411617 -3.07363153
0.92403764 5.28670788 -3.01342893
0.14952925 6.73096037 -2.97212672
0.30274427 6.64959574 -2.98652601
0.14235999 6.59474087 -3.01242352
0.99738884 6.29984045 -2.94026470
1.09054136 6.36618328 -2.88354254
1.15015495 6.18534279 -2.91543412
1.14654994 5.60933638 -2.98083115
0.97539061 5.58374310 -3.03890014
1.07859027 5.71109390 -3.00504994
1.17639673 7.10295773 -2.63021779
-0.14260033 5.76082563 -3.17674279
-0.22251374 5.55356264 -3.17317176
-0.26025417 5.69818258 -3.16936374
-0.02604107 6.62275982 -3.00780749
0.85739720 6.61766577 -2.88645387
0.98394549 6.45799541 -2.89661264
0.86096758 6.47763586 -2.92965770
1.18676448 6.75367022 -2.72556543
1.18316734 5.51821613 -2.96297789
0.79893553 5.22578192 -3.03365922
0.84143579 5.13904715 -2.99253368
-0.08684689 5.50903034 -3.17860723
0.98644346 5.43046141 -3.02217245
1.24421799 7.02055264 -2.62028742
-0.22827156 5.41881037 -3.16094089
0.39990947 6.52359629 -3.00822282
0.26947293 6.42219114 -3.05087781
-0.65800846 6.68137121 -2.91292071
-0.56580687 6.81700182 -2.88474607
-0.49110836 6.67808771 -2.94708443
0.58070546 5.15611744 -3.05968308
0.06975865 6.46598291 -3.04893112
1.18205011 6.94353676 -2.67379999
-0.13133669 5.29274559 -3.14585185
0.04319954 5.35039616 -3.16242623
1.16523230 5.40124941 -2.95427537
1.07655394 5.29386139 -2.96638489
-0.41358694 6.58170509 -2.98982882
-0.59336859 6.51817417 -2.97578216
1.21192360 5.32545805 -2.92145777
-0.41905656 6.49552774 -3.01104331
0.71081287 6.28678989 -3.02064204
0.82205635 6.16702652 -3.02481031
0.27801818 6.24726057 -3.09847975
0.15754279 6.34576035 -3.07973838
0.57152468 5.46324682 -3.12552691
0.76314843 5.53335953 -3.09300852
-0.63858879 6.56254768 -2.94853234
1.10842562 5.15695238 -2.91665101
0.47581187 5.29828119 -3.11892557
-0.55812794 6.96108437 -2.84820008
-0.77052051 6.73137522 -2.86848831
-0.00499660 5.13895082 -3.10927868
-0.75163609 6.85958719 -2.83125615
0.96866745 5.18126249 -2.97123504
0.60419017 6.26351690 -3.04888654
0.44705516 6.37091589 -3.04569602
0.53461087 6.44372559 -3.01113749
0.09724095 6.22719812 -3.11478901
0.41919056 6.18433332 -3.09762359
1.19136846 7.39033222 -2.53899169
1.18828845 7.20774269 -2.59613276
0.04645010 6.36887836 -3.07956338
-0.42490599 5.42704535 -3.14019084
-0.31985569 5.27702856 -3.12723255
0.61249059 5.73884916 -3.12602997
0.51418138 5.58495617 -3.14299965
0.38592952 5.76364136 -3.15993118
0.37780100 5.57902241 -3.16173387
-0.17493498 5.19825459 -3.11974573
1.00352490 6.07598782 -2.99094081
0.87215394 5.93953609 -3.05189943
0.88089097 6.06810665 -3.02866602
0.73212129 5.97730446 -3.08128667
-0.00356922 6.28082132 -3.10285068
-0.77593875 6.54326391 -2.92498899
1.08696902 5.96232653 -2.98357296
0.94749266 5.82346582 -3.04094887
0.00927131 6.83067322 -2.94267440
-0.50413162 6.41737509 -3.02054000
0.38953120 5.45478630 -3.15035963
1.01336730 7.09039164 -2.70132399
0.88281161 6.99230671 -2.77170444
0.24253070 5.64586687 -3.17574501
-0.13757455 6.73880625 -2.96942377
0.74923307 5.86694670 -3.09177780
1.34070003 6.31285477 -2.79801464
-0.33898276 6.73933363 -2.95264101
-0.22762845 5.97083235 -3.15150046
-0.37125221 5.95263290 -3.14162230
-0.16382514 6.08380127 -3.14114237
0.82178217 5.75112343 -3.07996011
-0.39531121 6.06109524 -3.12230659
-0.35367322 6.19309235 -3.09998608
1.01336730 7.09039164 -2.70132399
-0.76885962 6.47465754 -2.94412374
-0.02781566 6.50135612 -3.04093432
-0.43794361 6.31534004 -3.05940032
-0.47876000 6.19015169 -3.08422923
0.71348113 7.07542372 -2.79927850
0.61879289 7.06362438 -2.82517838
-0.61662859 6.28270626 -3.03785586
-0.20494975 6.62913084 -2.99717045
1.29486024 6.20411491 -2.84938455
1.34070003 6.31285477 -2.79801464
1.39988041 6.08542490 -2.83152723
0.51918036 5.13327265 -3.06628537
-0.19761562 6.51199198 -3.03064203
-0.62379867 6.17155933 -3.06022191
0.88733995 6.82827234 -2.81118894
0.76674551 6.89337778 -2.82999015
0.81883907 5.64219761 -3.08213234
-0.55611199 5.96285200 -3.11177492
1.39174318 5.92319107 -2.85766602
0.89046931 5.50500488 -3.05769396
1.23793089 6.02216101 -2.91534472
1.02518988 6.79741144 -2.77454305
0.23501790 5.37492037 -3.15845847
-0.25550619 5.86067247 -3.16133165
-0.31785673 6.42845583 -3.04491138
-0.25305033 6.28193665 -3.08988070
1.08901203 6.85537529 -2.73608422
-0.45127854 5.85977411 -3.13847256
1.07935452 6.98366070 -2.70449519
-0.12140281 6.39021158 -3.07193089
-0.38594902 5.72339201 -3.15850139
0.61169821 6.75247049 -2.90735912
1.23793089 6.02216101 -2.91534472
0.29566696 5.22702932 -3.12184167
0.63051003 6.93835449 -2.85214114
-0.12834279 6.22314644 -3.11111093
-0.57103026 5.67534733 -3.12911463
0.25077194 5.53719187 -3.17038107
-0.59314156 5.81633472 -3.11935306
1.28615284 5.89731121 -2.91504121
-0.79529697 6.27373505 -2.99882388
1.02518988 6.79741144 -2.77454305
0.36857504 7.20747948 -2.82948565
-0.26943028 7.20563555 -2.83045745
-0.19671461 7.05582237 -2.87591481
0.22311109 7.08930588 -2.87778878
0.61540300 6.01195908 -3.10107160
0.48125723 7.16521597 -2.82497597
0.41495052 6.98239899 -2.87980008
-0.75359774 6.10989523 -3.04465795
-0.32395840 7.18613386 -2.82407260
-0.45620060 7.27643728 -2.78617573
-0.79491252 5.97196674 -3.05838132
0.10578054 7.14756393 -2.86641192
0.59803414 6.13935471 -3.08083653
-0.35502109 7.09110451 -2.84964991
1.15376461 5.84129667 -2.97126770
0.28279197 6.13329029 -3.12474084
0.14018936 6.09759998 -3.14009285
1.28615284 5.89731121 -2.91504121
-0.90530068 6.14941883 -2.99622679
1.15376461 5.84129667 -2.97126770
-0.41443521 7.02666426 -2.85629749
0.23702420 6.05002737 -3.14547944
0.39722428 5.99634647 -3.13668895
0.26094767 5.95810270 -3.15665603
-0.25394070 7.00881290 -2.87783575
-0.29554600 6.97041750 -2.88685465
-0.21088246 6.92444468 -2.91066575
1.30741107 5.80485916 -2.91401911
1.40957546 6.42526102 -2.72305346
-0.76230818 5.83772135 -3.08089590
-0.74375153 5.69633341 -3.09336805
1.05070436 6.19082069 -2.95031333
1.23759711 6.67683029 -2.73168206
-0.38616753 6.80036831 -2.92231059
0.51766950 6.91315794 -2.88327670
-0.93712980 5.75670242 -3.03996801
0.67089838 5.61420393 -3.11566639
0.07945547 5.99756575 -3.16017294
-0.37274829 5.60786772 -3.15795541
-0.00114070 6.11770487 -3.13821769
0.59663695 5.86114407 -3.12191200
1.26258159 6.52191877 -2.76775503
0.01166720 7.13832998 -2.86931300
0.41045761 5.88309050 -3.14866018
-0.08413399 7.22972059 -2.84149599
-0.56707746 5.55136299 -3.12750053
-0.60492116 7.13990545 -2.79075861
-0.65485507 7.26810503 -2.74684381
0.14332785 5.90438461 -3.17125869
0.48141220 6.08707714 -3.10919499
0.98803830 6.60336590 -2.85417342
0.21384802 5.76119804 -3.17603993
-0.33078179 5.16348505 -3.09528399
0.08909766 5.73814249 -3.17643428
-0.46725053 5.23034239 -3.09655643
1.33936691 5.63671160 -2.90224171
1.47036135 5.80103254 -2.83551741
-0.56885242 5.40401506 -3.11491942
0.11450979 6.97986746 -2.90617847
-0.04754099 5.93316031 -3.16687846
1.26258159 6.52191877 -2.76775503
1.22267818 6.39401102 -2.82296181
0.69462365 6.64655256 -2.92155480
-0.67077750 5.31015396 -3.07625318
0.16581601 6.85378504 -2.93652844
0.01422815 5.76938534 -3.18178844
-0.80153084 5.57576656 -3.07866144
-0.84471792 5.44998312 -3.05762911
-0.05730279 6.94051361 -2.91346264
1.14992654 6.28451633 -2.88792634
1.23759711 6.67683029 -2.73168206
1.10586917 6.49533701 -2.84411597
-0.65619862 5.20627069 -3.05437160
-0.90283781 5.34661484 -3.02938533
0.65238011 6.47030354 -2.98284864
1.32957649 5.20944548 -2.83927512
-0.81617916 5.23012018 -3.02426291
1.18568945 5.13022327 -2.87002254
0.03405955 5.63730288 -3.18422174
0.10762724 5.48180103 -3.17457438
0.12808236 5.25147820 -3.13985538
0.24433771 5.09302616 -3.08268356
-0.20471725 4.79087400 -2.90374756
-0.39394471 4.80814791 -2.89478111
-0.24819759 4.85877085 -2.94801402
-0.70016390 4.34841251 -2.23049736
-0.51824868 4.36661053 -2.31393576
0.95775276 5.06705904 -2.92825222
1.07218874 4.97799540 -2.84154820
0.35986289 4.77641153 -2.87525415
0.24304815 4.77969551 -2.89310360
0.24076791 4.85742569 -2.94483447
0.58562821 5.01796103 -2.99940515
0.74408215 5.09117126 -3.00010586
0.84805703 4.98439837 -2.91834235
0.60022640 4.89417219 -2.92699027
-0.81285089 4.29000187 -2.07294798
-0.38113403 4.91579008 -2.96852350
-0.11969709 4.36357069 -2.36972451
-0.20325355 4.95916271 -3.01578307
0.03496515 4.37760878 -2.40102601
0.48706901 4.67601681 -2.76891136
0.32083470 4.69453144 -2.80935264
-0.47888550 4.73878336 -2.82717466
-0.55129755 4.92645836 -2.94893575
-0.64976430 4.83307409 -2.86893678
-0.43556213 5.00190496 -3.01093793
-0.31864685 4.47027254 -2.53704262
-0.63975447 4.45419836 -2.44827890
-0.49811810 4.43196392 -2.44402051
0.31778467 4.95909405 -3.00979471
0.14861980 4.73293114 -2.86034226
0.27507508 4.48606491 -2.56786132
0.07673254 4.48498535 -2.57482839
0.23086141 4.55809212 -2.66924238
-0.67408824 4.41198111 -2.36749053
0.73857260 4.62953854 -2.66525054
0.98323685 4.57987881 -2.53473830
0.39881381 4.61512327 -2.71645808
0.42429775 4.52184296 -2.59822989
1.16127133 4.93260717 -2.78113294
1.25855184 5.05854559 -2.80780554
1.24326694 4.84661245 -2.68455410
-0.01133229 4.77211523 -2.89261055
0.01862781 4.87862349 -2.97297144
0.15444481 4.95271683 -3.01402402
0.62367082 4.46277142 -2.48016548
-0.12566099 4.51065731 -2.61346745
-0.27987191 4.56017065 -2.66283393
0.07451597 4.62482405 -2.75744748
-0.69020522 4.75172138 -2.79428411
-0.51053888 4.66825867 -2.75746870
1.05501318 4.75094843 -2.68167830
0.99955797 4.86949110 -2.79689574
1.28690898 4.73914146 -2.57554603
-0.32855928 4.40066576 -2.40517473
-0.78568900 4.68052721 -2.70747828
0.22714403 4.62762260 -2.74975991
-0.83842999 4.81336212 -2.80804086
-0.49495998 4.55454206 -2.62791300
-0.54912680 4.49103451 -2.53082228
0.60976380 4.53668976 -2.58877254
-0.80125242 4.90693521 -2.88091159
-0.73885512 5.00203753 -2.95262313
-0.16403025 4.67141485 -2.80038786
-0.42226464 4.60200739 -2.70147681
-0.05607931 4.60925436 -2.73410463
0.59553206 4.59546423 -2.66160703
0.34858528 4.84700441 -2.93288183
0.49454689 4.77051830 -2.85170364
-0.01835748 4.42947483 -2.49046516
1.13100386 4.79198074 -2.68984032
0.45680833 4.44567728 -2.48740959
-0.30508903 5.07922554 -3.06471014
-0.51702684 5.09908199 -3.04520226
0.91318321 4.70802736 -2.69766235
-0.72203553 4.51219368 -2.52252126
0.83922392 4.88414764 -2.86152673
0.21757008 4.39484644 -2.42704535
0.66613126 4.79423237 -2.83715725
-0.60948831 4.58252907 -2.64702034
-0.71246845 5.13259315 -3.01716900
-0.74372244 4.59476614 -2.62508988
0.75326604 4.72567606 -2.75551105
-0.84858286 5.13932276 -2.98484135
0.17636676 4.33996201 -2.33024240
0.15024713 5.06175947 -3.07252812
-0.39215636 4.37563181 -2.35622358
-0.08727047 5.00278950 -3.04686809
-0.89309782 5.04476452 -2.93337560
-0.33626223 4.69148970 -2.80372739
1.73683548 2.70363235 -1.59998667
1.83070588 2.67093444 -1.64230072
1.73238873 2.35024858 -1.59732938
1.73683548 2.70363235 -1.59998667
1.68145120 2.61202192 -1.56324255
1.62438488 2.76248527 -1.51617622
2.34066963 2.71291137 -0.72873574
2.36713219 2.91433859 -1.54287267
2.45757151 2.83356500 -1.44827688
2.35403442 2.78780079 -1.54574752
2.37828398 2.66950989 -1.52803493
1.83510745 2.84740782 -0.62938064
2.11964154 2.34360433 -1.65278137
1.99457145 2.53497005 -1.67033911
2.13031530 2.47640419 -1.65296602
1.98172224 2.34476638 -1.66763890
2.29359388 2.77967668 -0.69458503
2.33082891 2.48600769 -0.73046309
2.35403442 2.78780079 -1.54574752
2.27097487 2.81596375 -1.60093236
2.03144407 2.21236777 -1.66789424
1.87250185 2.71183801 -0.62613356
2.53668332 2.76749110 -1.03164458
1.99886322 1.85936892 -1.67486632
2.10271001 1.79881597 -1.66090894
2.05248809 1.69592142 -1.67194986
2.16330576 1.60729873 -1.64538085
2.04695344 2.59327102 -0.62450856
2.05657554 2.70965505 -0.61786556
2.52876639 2.61520028 -1.01596177
2.54188538 2.55725288 -1.11194420
2.37828398 2.66950989 -1.52803493
1.95644760 2.55007839 -0.62397832
1.92320776 1.73673129 -1.67496562
1.97616589 2.12467790 -1.66941869
1.82674861 2.63908529 -0.64278072
1.91374171 2.34853220 -1.66117167
2.45225120 2.66747737 -1.44348872
2.44663620 2.46222258 -1.44301856
2.36491466 2.51405525 -1.53163457
1.82984078 1.80944133 -1.65191662
1.93185544 1.96600080 -1.67134333
2.40148306 2.31644225 -1.49223065
1.86887109 2.47919035 -1.65274632
1.80914485 2.27069783 -1.63764727
2.43537617 2.84248400 -0.80768257
2.36491466 2.51405525 -1.53163457
2.29277515 2.51032925 -1.58666229
2.48291612 2.72197318 -0.88734406
1.88509727 2.11993933 -1.65956998
1.79824507 1.73796284 -1.64230192
2.41624022 2.75032449 -0.79965413
2.53249002 2.42765498 -1.06563663
2.53810430 2.37046933 -1.15775096
2.52954865 2.41477871 -1.24972725
2.54188538 2.55725288 -1.11194420
2.53810430 2.37046933 -1.15775096
2.01899123 1.56316221 -1.67758453
2.06356716 1.99551773 -1.66628313
1.84999526 2.39333797 -0.64584368
1.71879590 2.77121997 -0.67715186
1.93434703 1.42853117 -1.67904198
2.53197384 2.13345075 -1.12694800
1.73327291 2.66731787 -0.67797047
2.52349925 2.10076213 -1.23069167
2.53197384 2.13345075 -1.12694800
2.08876920 1.49578249 -1.66870010
1.99281561 1.32495403 -1.68429983
1.76909256 2.54331636 -0.66728199
1.83419144 1.44926178 -1.65993512
1.84685111 1.57426047 -1.65807724
2.25861788 2.50950456 -0.68833131
2.16539025 2.46653748 -0.64934057
2.19224715 2.32301402 -0.66643012
2.16704440 2.82197046 -1.64578784
2.29257202 2.21097112 -0.71692425
2.52613378 1.81640279 -1.16163063
2.50626659 1.89918303 -1.02029896
2.51143384 1.74409294 -1.06210470
2.19211149 2.63608956 -1.63540292
2.49037719 1.70237708 -0.98530161
1.56548893 1.94196022 -1.45067286
1.63725495 1.95537400 -1.52856588
1.59143329 1.83168149 -1.48742127
2.51330948 2.69640660 -0.95710975
1.80016792 2.08106041 -1.63149297
2.51359606 1.59868693 -1.09739172
2.51846814 1.61502349 -1.17766535
2.10441375 2.61519051 -1.65834653
2.23440361 2.17416120 -0.68582207
2.19269371 1.94766271 -0.67254537
2.24740982 2.41811681 -1.60518146
2.45248842 2.57537508 -0.84779984
2.51727462 2.01897717 -1.21337700
2.52709293 1.98520613 -1.10206819
2.52613378 1.81640279 -1.16163063
1.69800282 1.77336144 -1.58718741
1.60752809 1.71645927 -1.50950933
2.50777197 2.49725461 -1.33612752
2.51128316 2.21093082 -1.30376303
1.68155813 2.32831097 -1.55997109
1.64304817 2.17257786 -1.51689065
1.59326231 2.26950574 -1.48561513
2.51349640 2.09075475 -1.02054369
2.21504784 1.73403871 -0.68777138
2.27709365 1.89919531 -0.71310502
1.70067465 2.13317943 -1.58033812
2.52709293 1.98520613 -1.10206819
1.56427562 2.40680385 -1.44850814
2.35336924 2.34706736 -1.53911853
1.58658469 2.10296965 -1.47765553
2.13355732 1.84429479 -0.65576643
2.27912664 2.34988332 -1.58898497
2.31333351 2.10520315 -1.56518340
2.39342523 2.66715312 -0.77459192
2.10513592 2.32307339 -0.64142680
2.49301624 1.76073408 -1.33401752
2.51181746 1.88503027 -1.28601885
2.50595832 1.69720066 -1.27750134
1.98844445 2.32842541 -0.62858057
2.51846814 1.61502349 -1.17766535
2.42867208 2.49875808 -0.81798911
2.48861861 2.43771458 -0.91786015
2.49726534 2.50151920 -0.95082617
2.21733308 2.01063371 -1.62204826
2.20676327 2.37916279 -1.62683797
2.03749323 1.84700871 -0.63937533
2.09266496 2.00369930 -0.64716434
2.14983916 2.25358200 -1.64568210
1.75296712 1.91279411 -1.61614561
2.08168888 1.67205191 -0.64612269
1.73238873 2.35024858 -1.59732938
2.50498009 1.98334932 -1.30348682
2.16314435 1.52765512 -0.67161572
2.00140190 1.55856156 -0.64072996
1.69800282 1.77336144 -1.58718741
2.50988173 1.53431392 -1.26603985
2.48478889 2.24873042 -1.37356400
2.23566937 1.94625258 -1.61179149
1.80914485 2.27069783 -1.63764727
1.80016792 2.08106041 -1.63149297
2.51269698 2.37589264 -0.97732419
2.25861788 2.50950456 -0.68833131
2.29257202 2.21097112 -0.71692425
1.76289952 1.59199750 -1.62801933
2.44186163 2.30346584 -0.85051113
2.17946196 1.86182964 -1.63685226
1.70067465 2.13317943 -1.58033812
2.07935715 2.94085646 -1.66623271
1.91310549 1.93114877 -0.64047647
2.05529857 2.77478671 -1.66847003
1.83351123 1.48649848 -0.66446632
1.89866734 1.62228751 -0.64885950
2.46598291 1.95840824 -1.39922845
1.56266260 1.63529694 -1.45993745
1.68785322 1.54356885 -1.59026766
1.75296712 1.91279411 -1.61614561
2.21504784 1.73403871 -0.68777138
2.29752827 1.72277713 -0.73290581
2.27709365 1.89919531 -0.71310502
2.01204610 2.10675502 -0.63507587
1.60623431 1.45648396 -1.51276159
1.53559351 1.42988861 -1.41233003
1.54275405 1.36043596 -1.43782544
1.65349853 1.39718139 -1.55980623
2.38703251 2.12302732 -0.79432011
2.43430662 1.90475535 -0.86718476
2.23734713 1.66621315 -1.61184514
2.31126499 1.60338271 -1.56538975
2.34449410 2.15616274 -0.75428545
2.42996693 1.81502068 -1.44821024
2.48462367 1.61753964 -1.35169327
1.68785322 1.54356885 -1.59026766
1.93719971 2.66242099 -1.66640019
1.76218891 1.36763585 -1.62837362
1.81775033 1.31555641 -1.65363765
1.93286788 2.25569177 -0.63623559
1.76218891 1.36763585 -1.62837362
2.43750739 1.63944328 -1.43507290
1.96541727 2.06584668 -0.63317102
2.40148306 2.31644225 -1.49223065
2.37296414 1.65819919 -1.51288605
1.80646789 1.86746800 -0.66564053
1.83687973 2.24322820 -0.65306264
1.89891088 2.07410431 -0.63572854
2.46602392 2.05284572 -0.90807897
1.79806101 1.63599098 -0.67489737
1.74482536 1.74768329 -0.69832283
1.68823719 1.83373010 -0.71973437
2.38595843 1.95195043 -0.79723483
1.74127257 1.58373189 -0.70021421
2.35336924 2.34706736 -1.53911853
2.37174225 1.93018699 -1.51369333
2.37174225 1.93018699 -1.51369333
1.74110734 2.32151055 -0.68697685
1.90081704 1.28977597 -1.67809963
1.80964589 2.11877346 -0.66070420
2.31333351 2.10520315 -1.56518340
1.69741559 2.19120073 -0.71195787
2.37296414 1.65819919 -1.51288605
2.38768196 1.62274802 -0.81423706
2.44511247 1.75455260 -0.89324766
2.34916663 1.44467735 -1.53617728
2.35421610 1.76894343 -0.77834636
2.36200213 1.86155009 -0.79035056
1.68447793 1.96163332 -0.72471797
1.64235270 2.86018872 -1.53666234
2.54699898 2.72113776 -1.12494528
2.54699898 2.72113776 -1.12494528
2.54631591 2.78157640 -1.22407329
1.58292556 1.23099232 -1.48801303
1.78374088 2.82022452 -1.62288606
1.78374088 2.82022452 -1.62288606
2.53808260 2.55671144 -1.22052228
2.29359388 2.77967668 -0.69458503
1.61209440 2.59853840 -1.50628388
1.83070588 2.67093444 -1.64230072
2.49712777 2.81220174 -1.38180494
2.49807405 2.62120819 -1.36873257
1.61401522 2.47057533 -0.76282865
1.54691887 2.36721277 -0.83537871
1.63434398 2.31498981 -0.75157881
1.54198658 1.37990415 -0.89275670
1.59410894 1.36256969 -0.82540703
1.56207359 1.47974157 -0.86522663
1.51013255 1.47818887 -0.94811291
1.53013444 1.62011790 -0.89756441
1.45263958 2.77186227 -1.25748599
1.43595946 2.83541870 -1.16527736
1.50840449 2.15610528 -0.91094607
1.46837878 2.27118731 -0.98395264
1.47093868 2.12400746 -1.00792134
1.57633710 2.23889637 -0.81551164
1.66691756 1.75592494 -0.74458182
1.44806814 2.40536308 -1.06258166
1.45062208 2.12058353 -1.10914338
1.50369430 1.34391868 -0.96001679
1.45080948 2.01917434 -1.18191731
1.67939222 1.40637684 -0.74420196
1.49418974 1.75547171 -0.96323454
1.47042537 1.74769557 -1.03744268
1.54865205 2.70340872 -1.43611264
1.48740160 2.74748135 -1.34532440
1.57994270 2.92688775 -1.47316408
1.47594535 1.87539470 -1.00637436
1.50182104 1.91606879 -0.93291807
1.49700594 2.02075863 -0.94126660
1.47486997 1.50719416 -1.03053176
1.46042013 1.95289385 -1.06282711
1.63009095 1.52422333 -0.78059667
1.46647167 1.50384045 -1.09760022
1.45736003 1.78856158 -1.18834054
1.62606168 2.91355205 -0.72864926
1.66875803 2.80140519 -0.70222443
1.57674932 1.69333529 -0.82874238
1.63522995 2.14020514 -0.76118863
1.51403666 2.56754780 -1.38233232
1.55817914 2.55817962 -1.43339229
1.47423947 2.47144270 -1.29902303
1.45418811 2.33780313 -1.23413908
1.44639611 2.57876563 -1.22026443
1.58135200 2.85136294 -0.77708948
1.44257879 2.42789316 -1.13239658
1.46523058 1.86616063 -1.24181902
1.45504558 1.87844074 -1.13899791
1.48003423 1.93948865 -1.30350375
1.46359420 2.22120857 -1.26959860
1.52557659 2.41227698 -1.39730954
1.57076859 2.00383091 -0.82682925
1.54105437 2.20159125 -1.41539800
1.55555236 1.92873847 -0.84301311
1.43518031 2.73324585 -1.09044504
1.43898821 2.60015965 -1.16321039
1.51355290 2.88507247 -0.84932530
1.55025399 2.14006352 -0.84960508
1.48396885 2.34226203 -1.32343185
1.50240695 2.22198129 -1.34875667
1.57708418 2.71333528 -0.78313166
1.49686134 1.86509705 -1.33618128
1.51106513 2.04738641 -1.36749351
1.51831758 2.78773403 -0.85731053
1.50676632 1.77191293 -1.36380661
1.48542023 2.84078622 -0.89754009
1.46757078 2.68543100 -1.29445994
1.46851110 1.22704864 -1.23173046
1.46449661 1.40263104 -1.21121252
1.47531939 1.36724555 -1.29101050
1.49950075 1.63827455 -1.34956622
1.47908127 1.71777952 -1.29288995
1.44697678 2.85440397 -1.02113664
1.64196789 2.67157555 -0.73068225
1.69730353 2.57652307 -0.69899458
1.48078752 2.71422458 -0.92368817
1.47100842 1.58813155 -1.24246597
1.45726573 2.07689023 -1.23249936
1.48702943 1.28570068 -1.31142485
1.67709541 2.45018172 -0.71945184
1.61344850 2.60219026 -0.75955606
1.43467367 2.82806897 -1.08617949
1.54172552 2.49372506 -0.83855253
1.47281635 2.52885485 -0.95021981
1.50894177 2.42981839 -0.89080572
1.45292985 2.73069501 -0.99095041
1.58394456 2.52300096 -0.80028301
1.46738601 2.40305376 -0.98393130
1.48059213 1.47448361 -1.28421581
1.55134392 1.80939293 -0.85918003
1.52891719 2.57688808 -0.84869003
1.53889644 1.52950585 -1.42322648
1.44781494 2.56493068 -1.03541911
1.61197937 1.82121563 -0.79096389
1.52863991 1.21792448 -1.40835929
1.47332180 1.31829476 -1.07739353
-2.08758211 7.40826559 -1.83823121
-2.05239248 7.48333311 -1.86085725
-1.99983513 7.49039030 -1.90954888
-2.47859597 7.45034647 -1.26677358
-2.38762212 7.48933220 -1.41296148
-2.40067410 7.38334417 -1.43493676
-2.42582488 7.52164459 -1.38085234
-2.43051076 7.55371284 -1.40323818
-2.35374069 7.55371332 -1.52851856
-2.31859112 7.52074671 -1.54743028
-2.08646011 7.51392555 -1.83649683
-2.22098160 7.51914549 -1.68388975
-2.18107271 7.55371380 -1.76618004
-2.08564901 7.55371475 -1.87790918
-1.96642017 7.50897264 -1.95378232
-2.48593378 7.48826599 -1.24371827
-2.57767320 7.51389122 -1.05433989
-2.50668931 7.51927328 -1.22483993
-2.30213952 7.48808050 -1.55333006
-2.04939198 7.36456537 -1.89581549
-2.27051783 7.55371380 -1.64961016
-2.56027651 7.40468931 -1.11404133
-2.16129494 7.47999287 -1.72970808
-2.26698041 7.43845129 -1.60723829
-2.16213560 7.39933109 -1.76269364
-2.21294165 7.37522268 -1.70059800
-2.79184008 7.54900885 0.01308308
-2.77553606 7.54499149 0.21483150
-2.80265307 7.55370951 0.14616437
-2.80650020 7.55370855 -0.00034672
-2.74694610 7.50677347 0.22836287
-2.67990351 7.52243757 -0.77757764
-2.65073347 7.44693947 -0.84518212
-2.67592955 7.49320269 -0.73674721
-2.76005340 7.51069641 -0.17302026
-2.77239871 7.40472651 -0.18163098
-2.75291467 7.50708580 -0.10700212
-2.75181198 7.46415377 -0.31704703
-2.76008487 7.50317144 0.07757286
-2.61507893 7.49016476 -0.94436157
-2.59974742 7.45660686 -0.98774272
-2.71709108 7.47488308 -0.53727853
-2.72989726 7.50138187 -0.46365228
-2.73441744 7.52901363 -0.55064875
-2.77627754 7.55370998 0.40494126
-2.78868032 7.55370998 0.31112888
-2.75412250 7.46354103 0.16831692
-2.80265498 7.55370903 -0.14685805
-2.79710674 7.55370903 -0.21736825
-2.57767320 7.51389122 -1.05433989
-2.63988471 7.52358866 -0.91687280
-2.75291467 7.50708580 -0.10700212
-2.76008487 7.50317144 0.07757286
-2.79184008 7.54900885 0.01308308
-2.76176739 7.52593708 -0.31325212
-2.75790143 7.48071194 -0.03624192
-2.76008487 7.50317144 0.07757286
-2.80650020 7.55370855 -0.00034672
-2.80265498 7.55370903 -0.14685805
-2.59974742 7.45660686 -0.98774272
-2.76461029 7.36403227 -0.40795460
-2.73441744 7.52901363 -0.55064875
-2.76176739 7.52593708 -0.31325212
-2.77628398 7.55370951 -0.40563539
-2.76262736 7.55371046 -0.48932144
-2.50668931 7.51927328 -1.22483993
-2.56387424 7.55371237 -1.14149153
-2.50061965 7.55371284 -1.27411067
-2.71789598 7.55371094 -0.69712019
-2.70269680 7.55371094 -0.75397402
-2.68702865 7.38071394 -0.77266932
-2.62010145 7.55371189 -1.00574362
-1.30172050 7.49731350 -2.44829702
-1.23581886 7.48132324 -2.48320055
-1.34495187 7.36143255 -2.44919348
-1.25828362 7.34138155 -2.50275373
-1.70942914 7.53765392 -2.20763206
-1.66164386 7.50451899 -2.21595597
-1.75660646 7.49316692 -2.13968420
-1.88304377 7.52452993 -2.04991579
-1.58064592 7.52776289 -2.28799462
-1.42718148 7.52991962 -2.38610601
-1.51401746 7.50166750 -2.32154870
-1.27014685 7.53378916 -2.47462416
-1.08404863 7.51849031 -2.56027746
-0.87061906 7.54429293 -2.65349317
-0.88251364 7.50705051 -2.63331079
-1.98450828 7.55371523 -1.98449087
-1.87792933 7.55371523 -2.08563352
-0.99098736 7.49204636 -2.59264851
-1.41524446 7.46319151 -2.38423109
-1.56743991 7.45914268 -2.28896093
-1.73932755 7.40784502 -2.17349935
-0.84575045 7.28114176 -2.69153333
-0.88903117 7.35891199 -2.65335059
-1.46840990 7.32906151 -2.38801146
-1.03233671 7.38289642 -2.59700274
-0.89965791 7.45170689 -2.62888551
-1.12753999 7.44854116 -2.53898716
-1.88045406 7.49970341 -2.03567219
-1.83787930 7.41978025 -2.08020163
-1.92042518 7.39862871 -2.01315165
-1.67665708 7.29151678 -2.25582528
-1.64963365 7.55371571 -2.27050686
-1.52854311 7.55371618 -2.35373211
-1.14151800 7.55371666 -2.56387448
-1.00577021 7.55371666 -2.62010384
-2.30576634 7.15623236 -1.68076229
-2.42397070 7.09931278 -1.53957725
-2.36377811 7.20215893 -1.58005702
-2.38315582 6.70621920 -1.79476583
-2.47507787 6.59349585 -1.73091114
-2.49548078 6.67743826 -1.65560639
-2.41816354 6.92175961 -1.63341141
-2.49319434 7.15648365 -1.39888525
-2.57913804 6.61949968 -1.55587935
-2.56348181 7.28499126 -1.18212116
-2.52684712 7.01955795 -1.41045642
-2.53733754 6.84280491 -1.48107886
-2.62068844 6.85525417 -1.32822275
-2.53104281 6.42826271 -1.74007142
-2.39791822 6.50611591 -1.87805235
-2.41340899 7.24235868 -1.48533237
-2.51125693 7.29123545 -1.28579450
-2.46315598 6.76409912 -1.64587271
-2.57084298 5.98293734 -1.87414050
-2.66593027 5.93718481 -1.74532032
-2.71700692 5.99469328 -1.65514004
-2.55766344 7.14010525 -1.28025210
-2.40722799 6.79539013 -1.70391238
-2.31677151 6.95662594 -1.75203598
-2.55449653 6.75262165 -1.51248229
-2.66280007 6.13055277 -1.68981838
-2.74235153 5.85599422 -1.64714015
-2.63484311 6.75149679 -1.37309301
-2.31440115 7.30864954 -1.59719360
-2.67582583 5.82280350 -1.75577843
-2.73043966 5.66272354 -1.68581963
-2.66036439 5.74738407 -1.78995764
-2.14909554 7.22237301 -1.84097505
-2.68693137 6.35428953 -1.53345454
-2.61463690 6.38379240 -1.64062905
-2.64082575 6.28115273 -1.64942575
-2.66192579 6.59197092 -1.42988884
-2.21070027 7.00854492 -1.85994589
-2.03341484 7.20863867 -1.97354865
-2.66711974 5.56759691 -1.78440511
-2.75915051 5.55677605 -1.63496244
-2.15352607 7.31025600 -1.79595208
-2.64156437 6.50034666 -1.52739310
-2.75465703 6.49294043 -1.31725216
-2.14558053 6.92735243 -1.96815443
-2.57682347 6.22588968 -1.77618623
-2.25814104 6.84284496 -1.87820601
-2.29995799 6.74077988 -1.87871277
-2.67947674 5.44876099 -1.75108635
-2.77114606 5.37264967 -1.58340049
-2.61918259 6.88775444 -1.30418515
-2.65246415 6.92189026 -1.21994615
-2.69099402 5.33049631 -1.70644164
-2.35660362 4.58711529 -1.62742114
-2.28213310 4.55639935 -1.68601143
-2.36229825 4.37159014 -1.63227177
-1.63558412 3.34695292 -1.72396111
-1.71988535 3.18418145 -1.76324582
-1.70932877 3.35003448 -1.76141071
-2.09991503 4.23258305 0.05887508
-2.04683137 4.21752596 0.15741202
-2.18599582 4.27053881 0.24419142
-1.97037184 3.99940968 -1.81376433
-2.01278996 3.90125179 -1.80074120
-2.15619016 4.05924034 -1.75837553
-2.27184272 4.30599070 0.14219837
-0.45122248 3.91017103 -0.15547742
-2.03221750 4.21694374 -0.03907534
-1.89742696 4.16120911 0.09407671
-1.94156194 4.17688990 0.16142289
-2.14448595 3.93155718 -1.75662243
-1.19145715 4.00965023 -0.76114064
-1.34954917 4.03220034 -0.56727082
-1.34666348 4.02821255 -0.68860185
-1.33922255 3.31367707 -1.11507475
-1.35199714 3.16881394 -1.08830512
-1.33922720 3.08490682 -1.16462672
-1.57425821 3.20452809 -1.67803705
-1.59158134 3.05972481 -1.68643689
-2.33058476 4.62750578 -1.66841483
-2.40128517 4.64793491 -1.58851063
-1.69026470 3.05479836 -1.74482441
-1.20227063 4.01963758 -0.85647941
-2.24972034 4.31537914 -1.71552646
-2.18374300 4.39220333 -1.75842774
-1.97653604 4.19210625 -0.10588346
-1.34253526 3.58918595 -1.02663994
-1.40477324 3.69061041 -0.91766250
-1.36531770 3.53049898 -0.98820108
-1.42348003 4.04286098 -0.66807824
-1.34954917 4.03220034 -0.56727082
-1.41547215 4.04700804 -0.51680142
-2.24004626 4.00519562 -1.70737147
-1.34666348 4.02821255 -0.68860185
-0.62458551 3.91979933 -0.10179814
-2.07949042 4.23153210 -0.12344354
-1.42348003 4.04286098 -0.66807824
-1.41547215 4.04700804 -0.51680142
-1.50766015 4.05975533 -0.55372310
-1.43154585 3.52595472 -0.89072019
-1.36531770 3.53049898 -0.98820108
-1.40477324 3.69061041 -0.91766250
-2.41575837 4.39355421 -1.57850134
-2.45150805 4.49346018 -1.51454592
-2.40611410 4.57942152 -1.56753457
-1.53990626 4.05451059 -0.66118157
-0.91092420 4.22588205 -1.87016654
-2.47765326 4.61990881 -1.44882190
-1.32944798 4.02823830 -0.82177854
-1.46276152 3.33877206 -0.86153471
-1.39937770 3.38979745 -0.94915813
-2.25352454 4.28878212 -0.69297218
-2.29350305 4.33109140 -0.67333263
-2.37203360 4.38037062 -0.74719012
-0.96181965 4.26803875 -1.95799375
-1.41718900 4.03598213 -0.76891309
-1.53990626 4.05451059 -0.66118157
-0.95289844 4.31833124 -2.08724213
-2.32145619 4.32147217 -0.75566179
-1.10080802 4.24123621 -1.83706880
-0.85353774 4.16499424 -1.71050668
-2.17727280 4.22889090 -0.67906159
-1.32944798 4.02823830 -0.82177854
-2.29025221 4.23184919 -0.75974983
-2.03643489 4.21147680 -0.17060193
-1.35740006 3.35399604 -1.04522061
-1.35886514 4.02109909 -0.87183332
-1.91472876 4.17141438 -0.28418699
-2.36749077 4.30625534 -0.82432401
-1.28307748 4.02149916 -0.96842396
-2.35387301 4.17922306 -0.82666600
-2.06671381 3.75755143 -1.77922904
-1.95977974 3.71037078 -1.80050504
-1.05744982 4.30134916 -2.01379490
-1.46413231 4.05211401 -0.40089458
-1.45302379 4.04247141 -0.26729909
-1.56982744 4.07161999 -0.30550513
-2.21354198 3.83265114 -1.71748602
-1.46495509 4.03172255 -0.76360637
-2.36497331 4.75021744 -1.74329603
-2.19276571 3.70031524 -1.73031366
-2.29059625 4.65865993 -1.73426843
-1.50019717 3.43221259 -0.81837088
-1.54629815 4.02398634 -0.72006959
-2.03766465 3.59700131 -1.78274322
-1.50747275 3.96453857 -0.77116996
-2.26043272 4.79458952 -1.91403186
-2.15845251 4.65582228 -1.87383068
-2.55463004 4.55077457 -0.91795456
-2.54713392 4.50658560 -0.67786801
-2.63473797 4.55515575 -0.56846505
-0.81453329 3.93777966 -0.16463138
-0.74555922 3.92642355 -0.15716898
-1.57019186 4.07615232 -0.47539255
-1.34848440 3.49194026 -1.05231786
-1.40852511 4.00095129 -0.84550679
-1.32199383 3.61887455 -1.14354300
-1.34698629 3.64967680 -1.03100729
-1.64520276 4.09351349 -0.42691588
-1.67637157 4.10294724 -0.26138359
-1.31671488 3.48038602 -1.18374646
-1.73823833 4.12119913 -0.38610864
-1.40976214 3.95145559 -0.87654394
-1.35740006 3.35399604 -1.04522061
-2.25622654 4.47446585 -1.71170282
-2.67771673 4.62621975 -0.77731633
-2.57824826 4.60427046 -1.07921433
-1.50747275 3.96453857 -0.77116996
-1.50690758 3.87726688 -0.80038083
-1.40976214 3.95145559 -0.87654394
-1.46414602 3.79081297 -0.84463882
-1.61056459 4.07918835 -0.53185397
-1.57856619 4.07664156 -0.60576761
-2.45658016 4.44934750 -0.79272813
-2.44777489 4.43626976 -0.66579902
-2.42097354 4.41199446 -0.83859980
-2.42572665 4.37212658 -0.89108419
-2.27022004 3.73023820 -1.67950344
-1.50059521 3.82520723 -0.80025637
-1.47473264 3.69268012 -0.82842600
-1.41219258 3.21786213 -0.93611085
-1.78991032 3.55898285 -1.79205823
-1.71878529 3.67444515 -1.77711797
-1.66942096 3.51055670 -1.74972522
-1.57681811 3.83667612 -0.73983717
-1.77178693 3.77659440 -1.79527843
-2.45513701 4.26471567 -1.51066697
-0.61168838 3.92070699 -0.28287330
-1.69394648 4.11001730 -0.53540707
-1.49566448 3.14089823 -0.83587503
-1.43344367 3.06636596 -0.90864789
-1.29943871 4.21623468 -1.67318583
-1.06049764 4.16427231 -1.62271631
-1.26800644 4.16889048 -1.55658841
-1.77659500 4.13045454 -0.52231264
-2.47436380 4.43889809 -0.52532989
-1.37854147 3.05979371 -1.00758743
-1.64947867 4.09092808 -0.18754649
-1.79560328 4.13263464 -0.22792643
-1.53391206 3.59798622 -0.77749985
-1.37596130 3.15350103 -1.01979828
-1.41219258 3.21786213 -0.93611085
-1.37854147 3.05979371 -1.00758743
-1.84468794 3.39370418 -1.79315639
-1.38567269 4.18694019 -1.63040769
-1.33115542 4.16217041 -1.56350350
-1.86726987 4.16257095 -0.42655399
-2.48640370 4.47993374 -0.91242725
-1.77987468 3.35690808 -1.78267837
-2.48121977 4.45994616 -0.97798258
-0.51033020 3.92624354 -0.50675744
-1.88870037 3.55873132 -1.79859650
-0.67881602 3.93073058 -0.35765415
-1.39980400 4.25615931 -1.73546922
-1.85645509 3.72820973 -1.80410731
-2.47694206 4.39191771 -1.00670075
-2.38046098 4.19227791 -1.60404289
-1.53934109 3.34537172 -0.78776717
-2.31727052 4.13669634 -1.65976012
-1.96408331 3.51248574 -1.79242516
-1.23240244 4.25655985 -1.80772746
-1.37596130 3.15350103 -1.01979828
-2.39640021 4.15166235 -0.87684125
-1.59751272 3.14899111 -0.75313628
-2.46451139 4.17791367 -0.98840892
-2.43373799 3.98074102 -0.94111824
-1.95624697 3.32401419 -1.78862321
-1.34632325 4.31431246 -1.89200127
-1.47963572 4.31098700 -1.81668425
-0.75219285 3.93667483 -0.30437982
-1.86965430 4.16191339 -0.54339999
-1.79272211 3.21610975 -1.78000665
