2.90798450 4.70769215 2.63997841
3.03288412 4.64768124 2.58022904
3.04779601 4.64939070 2.55410528
3.01646852 4.63647842 2.60916471
3.10677028 4.77766323 2.36633539
3.07320023 4.61255074 2.56581235
3.04779601 4.64939070 2.55410528
2.78563547 4.75873423 2.70957589
2.79593158 4.74053335 2.72606683
2.83635974 4.65927601 2.88449907
2.91407633 4.47358036 2.89189887
2.80258417 4.74427080 2.77081084
2.85409284 5.29911566 2.24962044
2.70753598 4.97433758 2.81980681
2.69316626 5.00863647 2.84328628
2.69937944 4.88725901 2.66160822
2.86168885 4.85708046 2.56483126
3.04779601 4.64939070 2.55410528
3.04779601 4.64939070 2.55410528
3.07320023 4.61255074 2.56581235
3.03288412 4.64768124 2.58022904
2.90798450 4.70769215 2.63997841
3.03288412 4.64768124 2.58022904
3.01646852 4.63647842 2.60916471
2.96823859 4.58735228 2.69574785
3.01646852 4.63647842 2.60916471
3.07320023 4.61255074 2.56581235
3.07320023 4.61255074 2.56581235
3.01646852 4.63647842 2.60916471
3.03288412 4.64768124 2.58022904
3.03166008 4.48897791 2.72269368
2.99845457 4.43905735 2.79608417
2.96823859 4.58735228 2.69574785
3.24051738 4.17617750 2.76833510
3.09314728 4.10535622 2.98077083
2.99845457 4.43905735 2.79608417
3.02787662 4.19255590 3.00628734
2.96975255 4.32844305 2.95301247
3.04128337 4.23472166 2.93427944
2.93507028 4.40612268 2.95494652
2.93507028 4.40612268 2.95494652
2.67295671 4.98440027 2.58962798
2.68858790 4.90695429 2.65095687
2.63633156 4.99793863 2.62288046
2.66939712 4.94770002 2.64488363
2.65906358 4.96950674 2.64342618
2.83635974 4.65927601 2.88449907
2.91407633 4.47358036 2.89189887
2.68299150 4.92358541 2.64337945
2.47153640 5.20053577 2.56591511
2.56653810 5.09715366 2.59814906
2.57907677 5.17695379 2.51406980
2.45105624 5.22514582 2.55816960
2.43893814 5.24072981 2.55444169
2.85605526 4.21731567 3.21318269
2.68012285 4.33095694 3.32861781
2.63180947 5.17766380 2.81123900
2.64133024 5.15207291 2.82048893
2.59693122 5.27199221 2.82381511
2.58919525 5.32164240 2.79947591
2.57955313 5.36467695 2.79257131
2.76236176 5.46465826 2.27002597
2.78517771 5.62932253 2.13757706
2.68253374 5.03944063 2.84520149
2.73084712 4.92964935 2.80895925
2.74869251 4.88204575 2.80946374
3.28629947 4.10316992 2.77245569
3.48454285 4.05444527 2.58925462
3.59098935 3.95831347 2.52371192
3.49303627 4.44934416 2.21183681
3.47391033 4.42930317 2.22402954
3.48610330 4.46952534 2.18461037
3.65481329 3.78869677 2.54318309
3.61400247 3.80433726 2.59123516
3.35512114 4.20704699 2.64295888
3.35940003 4.19258451 2.65268540
3.34323668 4.22606039 2.62005901
3.53334236 4.00764513 2.55201268
3.40429401 4.55914497 2.14361262
3.36886501 4.58812761 2.16987634
3.40384555 4.63409615 2.05236721
3.29731488 4.44691467 2.42973828
3.40300536 4.31943655 2.43732500
3.40132308 4.31279325 2.45048022
3.40928388 4.34051514 2.38815165
3.36589384 4.52629423 2.24865818
3.37561989 4.47926092 2.27736974
3.33796692 4.46153688 2.35324550
3.36246467 4.17714024 2.65765572
3.36244607 4.11976385 2.66551352
3.39371777 4.11840820 2.64495850
3.36730456 4.15612698 2.65902925
3.37846971 4.13137674 2.65208745
3.28629947 4.10316992 2.77245569
3.34153581 4.23421717 2.60488558
3.34609580 4.25407171 2.58343363
3.25245810 4.38768864 2.55241418
3.24440455 4.71081305 2.22720623
3.36886501 4.58812761 2.16987634
3.36589384 4.52629423 2.24865818
3.28239393 4.43003178 2.46728849
3.44031262 4.37073994 2.34468746
3.35547590 4.26752567 2.56061745
3.42903495 4.35411835 2.36868048
3.36589384 4.52629423 2.24865818
3.46873426 4.40271235 2.27195072
3.45396256 4.39287376 2.28975892
3.46727657 4.41846514 2.24337912
3.45693350 4.38505363 2.30055022
3.48406649 4.47910213 2.16154218
3.49155998 4.48031664 2.14624739
3.49769807 4.47816801 2.12435651
3.40429401 4.55914497 2.14361262
3.40384555 4.63409615 2.05236721
3.33234262 4.74333668 2.03682971
3.29495120 4.91711998 1.86527920
3.24118114 4.96473265 1.89646685
3.33333254 4.86996508 1.87332404
3.34639454 4.78937054 1.95455348
3.24118114 4.96473265 1.89646685
3.29495120 4.91711998 1.86527920
3.34639454 4.78937054 1.95455348
3.18759775 5.01621342 1.91725564
3.33333254 4.86996508 1.87332404
3.08445859 5.14699936 1.96449447
3.40384555 4.63409615 2.05236721
3.33234262 4.74333668 2.03682971
3.34639454 4.78937054 1.95455348
3.15090728 5.06456470 1.91571367
3.02502656 5.27350569 1.91667593
2.91770148 5.41642857 2.02817774
2.99003601 5.34855986 1.87938750
3.06671572 5.26559258 1.77421141
3.13591123 5.40603018 1.52421582
3.13641596 5.40583324 1.54321051
3.12239194 5.41154242 1.52330959
3.08337450 5.25914526 1.76071978
3.18759775 5.01621342 1.91725564
3.33796692 4.46153688 2.35324550
3.23386550 4.34370089 2.62740254
3.29731488 4.44691467 2.42973828
3.07320023 4.61255074 2.56581235
3.04961777 4.95271778 2.26360726
3.02502656 5.27350569 1.91667593
3.02947402 5.28413868 1.84362185
3.01198339 5.30954266 1.85124576
3.06093240 5.18711901 1.96122444
3.08445859 5.14699936 1.96449447
3.07716155 5.19166899 1.90668833
3.15090728 5.06456470 1.91571367
2.96940684 5.38946438 1.81170559
2.98045993 5.36096764 1.82090855
2.99003601 5.34855986 1.87938750
2.99914598 5.79000664 1.47262263
2.90671396 6.20054531 1.42280495
2.93626642 6.25787544 1.18053627
2.87403154 6.42288542 1.17365026
2.88674760 6.39859343 1.18354464
2.82422304 6.51595306 1.16518533
2.86089516 6.45692301 1.16779208
3.15766263 5.57051659 1.28654385
3.12925935 5.60370350 1.32121658
3.15097260 5.40654373 1.51002347
3.14043355 5.41688681 1.49419618
3.11695457 5.40790796 1.55643106
3.16487503 5.42931318 1.42828929
3.11172247 5.26980639 1.74190259
3.10870409 5.54800892 1.42172110
3.16886473 5.53756332 1.29363537
3.12678289 5.58405495 1.34888160
3.16781831 5.51803589 1.31211627
3.10751724 5.43275118 1.54454660
3.05515862 5.53127527 1.53849220
3.02914667 5.53452635 1.58517063
3.06415606 5.56674147 1.49795210
3.08337450 5.25914526 1.76071978
3.06792116 5.31078529 1.71584439
3.08623362 5.39667702 1.62004888
2.89631486 5.84824276 1.59834456
3.03399634 6.00188208 1.11020076
3.00900292 6.05601597 1.16711009
2.87613344 6.09589291 0.89097232
2.89818358 6.04907465 0.87562144
2.83201504 6.41949368 0.62942868
2.99024224 6.10909510 1.17120242
2.58264565 6.12049294 0.82247752
2.57380700 6.13108873 0.84007066
2.55619502 6.13852596 0.83936995
2.78072095 6.14468288 0.86970735
2.89791274 6.19046450 0.96082199
2.89076519 6.23286390 0.97317374
2.89282060 6.22734213 0.96973544
2.76889253 6.12610865 0.85622507
2.72952032 6.03647947 0.80138993
2.86490321 5.95813704 0.80665946
2.86079216 5.97174072 0.77617270
2.96213746 5.94900846 0.86546546
2.72741818 6.09195948 0.82928866
2.74515152 6.10972071 0.84489179
2.58747602 6.32236195 0.57821870
2.71630931 6.42371750 0.63023221
2.67054629 6.23805857 0.68474966
2.69871593 6.04891539 0.77944279
2.76860285 6.06907797 0.73157769
2.86079216 5.97174072 0.77617270
2.58797121 6.19820070 0.66248482
2.53906918 6.17812204 0.67419189
2.67120028 6.07126427 0.80533272
2.62884760 6.09254789 0.80633247
2.67120028 6.07126427 0.80533272
2.72952032 6.03647947 0.80138993
2.83270645 6.07334805 0.73123199
2.82649326 6.02718306 0.75375837
2.76860285 6.06907797 0.73157769
2.50277090 6.24799061 0.57144487
2.51230073 6.28123379 0.50346386
2.77340531 6.58993244 0.50859332
2.76914501 6.59465981 0.40414587
2.77340531 6.58993244 0.50859332
2.73525739 6.57725334 0.38630038
2.75683069 6.55677319 0.57055724
2.77340531 6.58993244 0.50859332
2.83454704 6.46670485 0.60721987
2.67521787 6.49211836 0.53059649
2.65427041 6.46292114 0.54565769
2.72895980 6.56083727 0.51542312
2.67521787 6.49211836 0.53059649
2.65427041 6.46292114 0.54565769
2.55706406 7.35489607 0.55094588
2.80329418 6.54610348 1.15936458
2.78309441 6.58365393 0.30917239
2.73525739 6.57725334 0.38630038
2.76914501 6.59465981 0.40414587
2.38971829 6.39418364 2.09900832
2.34904742 6.37777662 2.08151793
2.83535075 5.67015171 1.92091799
2.80220103 5.71546650 2.03799725
2.74240470 5.89362240 1.98044336
2.22658634 6.23511600 1.98114419
2.61251569 6.18624115 1.97890162
2.70046329 5.88094378 2.12960720
2.60572338 6.15361500 2.07050228
2.68096375 6.03951597 1.99116945
2.52749276 6.34072161 1.97755623
2.54282498 6.32556677 1.97316515
2.54282498 6.32556677 1.97316515
2.47210622 6.37076950 2.05214286
2.52824950 6.24039459 2.12157226
2.38971829 6.39418364 2.09900832
2.68096375 6.03951597 1.99116945
2.61251569 6.18624115 1.97890162
2.55584931 6.67668343 1.37820995
2.56670618 6.68604565 1.36787641
1.85898829 6.70358324 1.12139392
1.89375412 6.69266987 1.05388010
1.86208987 6.64900875 1.18460047
1.85581148 6.64598227 1.20551980
1.84036720 6.62637091 1.26141083
1.91072142 6.53708744 1.25989723
1.93186498 6.55586720 1.21069598
1.92220414 6.55418491 1.22857881
1.91047859 6.54738331 1.24397635
1.90063083 6.52502489 1.30214715
1.90738583 6.52883720 1.29405582
1.92440903 6.55312014 1.24520969
1.93538749 6.56355667 1.16583931
1.93147254 6.56197739 1.19626081
1.87198448 6.71452379 1.08637559
2.23264050 6.37649632 1.26515734
2.24466538 6.43353701 1.19766223
2.26757503 6.24958801 1.25788844
2.29084873 6.26518202 1.17777061
2.29084873 6.26518202 1.17777061
2.23962021 6.20056486 1.43297029
2.33895683 6.31729841 1.17745304
2.35756850 6.33986187 1.19397163
2.31264639 6.27137661 1.11960936
2.32077479 6.26384592 1.08521700
2.33336043 6.25712824 1.06270003
2.35075712 6.25240040 1.04555535
2.34084415 6.25256872 1.05434716
2.30662012 6.33703089 1.07445383
2.33336043 6.25712824 1.06270003
2.38157082 6.24457121 0.99186945
2.40036964 6.29045534 0.92705572
2.42300797 6.40330219 1.13496017
2.23932123 6.43114519 1.21986175
2.23264050 6.37649632 1.26515734
2.22109246 6.41208506 1.25972903
2.23010874 6.37953329 1.31175184
2.22586679 6.39973307 1.28779590
2.24264741 6.35654879 1.42591619
2.23968554 6.36751795 1.36427927
2.34752440 6.35047626 1.32008588
2.26757503 6.24958801 1.25788844
2.34752440 6.35047626 1.32008588
2.28625202 6.11427116 1.58927238
2.28697133 6.10053682 1.61592853
2.25089717 6.16569567 1.49120629
2.26176333 6.15209246 1.51493800
2.23968554 6.36751795 1.36427927
2.23945189 6.21070194 1.44831181
2.45594263 6.54232883 1.27329528
2.46420217 6.56322002 1.30210042
2.43361259 6.42665100 1.14126682
2.47396564 6.54427195 1.23498821
2.45666218 6.45351219 1.13905251
2.41489816 6.49163246 1.33997762
2.45639110 6.53461123 1.24454641
2.46420217 6.56322002 1.30210042
2.47584367 6.57812262 1.31539571
2.49747324 6.60737610 1.34222937
2.27220893 6.13272333 1.54776990
2.24690771 6.37149763 1.53395140
2.32127953 5.99536943 1.71021986
2.41906524 6.08393383 1.77437007
2.43764877 6.09221172 1.76665270
2.65161705 5.83518076 2.22208619
2.41906524 6.08393383 1.77437007
2.81934595 5.67756128 1.86426091
2.86993909 5.55047512 1.78920698
2.78682208 5.64789677 1.78632939
2.83535075 5.67015171 1.92091799
2.80209827 5.64542103 1.81369555
2.78682208 5.64789677 1.78632939
2.83770490 5.73289156 1.70456731
2.53844309 6.15116692 0.80061448
2.51223540 6.20403099 0.77380884
2.98374820 5.50905704 1.68033099
2.98143172 5.48056936 1.70640779
3.04057336 5.28044844 1.80678165
2.97591853 5.43938494 1.74060392
2.96980810 5.39751768 1.78205025
2.97562909 5.42378187 1.76201844
2.99003601 5.34855986 1.87938750
3.01198339 5.30954266 1.85124576
2.37802982 6.24546814 1.00588405
2.36171675 6.25225115 1.02764440
2.38157082 6.24457121 0.99186945
2.47115350 6.35859537 0.81794602
2.43459344 6.22346497 0.94649881
2.42016768 6.22396040 0.95747715
2.44746852 6.21099138 0.93313813
2.38819528 6.24056292 0.98339510
2.40992761 6.23154640 0.96875441
2.35075712 6.25240040 1.04555535
2.33336043 6.25712824 1.06270003
2.36171675 6.25225115 1.02764440
2.40036964 6.29045534 0.92705572
2.49353027 6.17863655 0.88703883
2.40088344 6.23433113 0.98426402
2.47469449 6.18722296 0.90096015
2.46264172 6.20751572 0.92672867
2.60310721 6.10417128 0.81640440
2.49003601 6.21927881 0.74968475
2.42866993 6.24951315 0.72109461
2.44814134 6.23591900 0.69855887
2.41338444 6.26784515 0.71357334
2.28138399 6.43875980 0.76414800
2.26074505 6.44843912 0.77202433
2.25886703 6.43350840 0.75190848
2.25886703 6.43350840 0.75190848
2.27042460 6.42626810 0.74391997
2.22070003 6.50689888 0.70101607
2.26829433 6.45517540 0.68628186
2.22613788 6.46108055 0.77194017
2.23998427 6.45590401 0.77817208
2.31612206 6.42690325 0.74583536
2.22803473 6.47004986 0.78485245
2.17504930 6.50015402 0.79589611
2.16041803 6.50990772 0.80832249
2.10013556 6.59152985 0.79164493
2.18613982 6.55729628 0.70169812
2.12758589 6.60589981 0.74092084
2.15221477 6.58047724 0.73554844
2.14545941 6.52553892 0.83143753
2.01074958 6.70197582 0.82890552
2.05815673 6.63198614 0.82568210
2.05425143 6.57877684 0.91091067
2.09863138 6.55091476 0.87139833
2.16449165 6.51334620 0.81979591
2.05450368 6.59110069 0.94535893
2.03758287 6.58118677 0.95600080
2.05234551 6.58255100 0.93115729
1.99955630 6.59669685 1.03050351
1.99059629 6.60179853 1.04740524
1.97097540 6.59350157 1.03746414
1.99807096 6.58697081 1.02491629
1.99872494 6.57946825 1.00969613
2.00719905 6.58162594 0.99970818
1.95911908 6.59267950 1.08653450
1.95204628 6.58507347 1.10933185
2.05178475 6.58185005 0.92276716
2.02219486 6.58309317 0.96997827
2.05178475 6.58185005 0.92276716
1.97027481 6.59689331 1.06034553
1.99872494 6.57946825 1.00969613
1.95851159 6.59419298 1.06753039
1.95851159 6.59419298 1.06753039
1.95284975 6.70389128 0.92542058
2.28634524 6.46980715 1.00244582
2.25981069 6.45828676 1.02802753
2.35700774 6.47995377 0.95534676
2.37261081 6.43577003 0.94352764
2.31620622 6.45991230 0.96524119
2.26403379 6.46032381 1.09298134
2.26317430 6.45808125 1.13163400
2.26140833 6.46880722 1.03889358
2.14018059 7.17483425 0.14184535
2.43010902 6.81864405 -0.04721392
2.21076822 7.06121159 -0.05221253
2.53906918 6.17812204 0.67419189
2.50398540 6.23203230 0.59928757
2.49233437 6.28244829 0.44973126
2.49545503 6.28680229 0.42636395
2.50374222 6.26156616 0.52839142
2.46973324 6.22676277 0.67218310
2.42866993 6.24951315 0.72109461
2.41338444 6.26784515 0.71357334
2.44814134 6.23591900 0.69855887
2.48926044 6.21483135 0.64302301
2.49115729 6.22288561 0.61658180
2.48926044 6.21483135 0.64302301
2.49648285 6.26685476 0.49148589
2.49306321 6.27661800 0.47221094
2.49752903 6.26744318 0.50444490
2.49752903 6.26744318 0.50444490
2.47889900 6.28811979 0.39790460
2.49561381 6.28314877 0.34695625
2.49491310 6.27473974 0.31686187
2.49334359 6.27937412 0.28540337
2.50445247 6.27431011 0.26754856
2.53252864 6.26043558 0.19574618
2.53252864 6.26043558 0.19574618
2.50504112 6.26830244 0.25389817
2.50414419 6.26666737 0.22878368
2.50504112 6.26830244 0.25389817
2.47515225 6.29010010 0.36863244
2.49561381 6.28314877 0.34695625
2.47889900 6.28811979 0.39790460
2.48874664 6.28203678 0.33945367
2.49491310 6.27473974 0.31686187
2.51795340 6.26279020 0.19915645
2.63113666 6.25762320 0.12552284
2.62583899 6.43502235 0.30604246
1.85196197 6.90433025 0.07154725
2.29020405 6.89607096 -0.15405323
2.29536152 6.94966364 -0.09503233
2.32190537 6.82282972 -0.19822776
2.47971177 6.74167490 0.02467252
2.43010902 6.81864405 -0.04721392
2.33150077 6.78356934 -0.21848378
2.15346646 6.98859692 -0.46177092
2.21461773 6.65737104 -0.26083642
2.28286982 6.60108805 -0.28484839
2.35016870 6.70320892 -0.25380099
2.33150077 6.78356934 -0.21848378
2.35016870 6.70320892 -0.25380099
2.35319567 6.53962851 -0.31873611
2.39030695 6.62154961 -0.28792229
0.11481234 6.50906706 -3.32672668
0.04604653 6.42443657 -3.27508688
0.05300720 6.48914719 -3.26146436
0.24029125 6.05597878 -2.68107557
0.28753972 6.17690706 -2.72696900
0.06290163 6.29176331 -3.09078336
0.06460208 6.29416418 -3.10922670
0.06562983 6.20821667 -3.11767316
0.22698657 7.24906540 -2.58010364
0.24274853 7.21959734 -2.59665990
0.42396888 6.50293779 -2.15316701
0.42031571 6.49313688 -2.16882610
0.44860685 6.52580070 -2.12121344
1.62846375 7.61231947 -1.38059795
1.63703144 7.61076832 -1.36022055
1.66436970 7.61092663 -1.40582466
0.44643924 6.56301403 -2.23052835
0.16659223 6.04099226 -2.71415019
0.15200754 6.02162409 -2.67868352
0.54991490 6.04808378 -2.88439226
0.58310193 5.83639526 -3.00474167
0.57600105 5.87972927 -2.84178758
0.58605438 5.83663845 -2.79327750
0.59157616 5.86617231 -2.74621582
0.54594404 5.97180605 -2.59878063
0.80453527 6.45957565 -2.34688854
0.78910041 6.42021322 -2.32661390
0.77720654 6.32097006 -2.24184322
0.88220519 6.30637598 -2.14822435
0.85229760 6.30129290 -2.15475535
1.70235896 6.77150774 -1.53585362
1.69043696 6.60193825 -1.40499306
1.27381527 6.35319471 -1.92359579
1.24978459 6.44156265 -1.87901008
1.25841773 6.49824762 -1.97281563
1.35799730 6.61787748 -2.09082913
1.26045465 6.47573948 -2.03798437
0.47100243 6.54417849 -2.10205054
0.48963276 6.60990763 -2.14743018
0.47560859 6.55393267 -2.08288741
0.42031571 6.49313688 -2.16882610
0.48187789 6.56900358 -2.06884480
0.44009525 6.53340578 -2.20904851
0.46445286 6.53394794 -2.10641360
1.46170676 7.18148613 -1.95292389
1.46701348 7.16824722 -1.93694723
1.45649302 7.16224861 -1.94731796
0.55231613 6.67104959 -2.13486385
0.57643086 6.67212391 -2.10645103
1.51978385 7.10490036 -1.95740879
0.55217594 6.78071070 -3.07270432
0.55495095 6.76219273 -3.08836341
0.81291622 6.62162447 -2.49372602
0.47833681 6.27856159 -2.81755114
0.38147610 6.33923626 -2.84863591
0.46728387 6.28228903 -2.86709809
0.30687076 6.35648346 -2.88235569
0.30805737 6.27991629 -2.80941319
0.20489931 6.29326773 -2.86936831
0.24447700 5.94608402 -3.16207170
0.17346883 5.95172739 -3.12823081
0.18761443 5.84487867 -3.16709852
0.18241958 6.05947304 -3.08072090
0.12792082 6.10949659 -3.48012304
0.13054626 6.07664585 -3.49581027
0.10577748 6.04582262 -3.47226548
0.30805737 6.27991629 -2.80941319
0.19826563 6.18496132 -2.78652263
0.33354557 6.26618195 -2.96860242
0.30687076 6.35648346 -2.88235569
0.40966445 6.70712376 -2.68934393
0.48497048 6.73434973 -2.60022879
0.48845553 6.73071527 -2.63484526
0.49737823 6.84296417 -2.26379943
0.50848728 6.81360817 -2.30768442
0.50265712 6.82960367 -2.29006338
0.40491813 6.71672869 -2.63212633
0.41210303 6.71531773 -2.61984944
0.21604571 7.35157871 -2.53211713
0.21326146 7.37681484 -2.52287650
0.19657454 7.55235481 -2.44910288
0.18606344 7.58090687 -2.44038558
0.20992595 7.53341579 -2.45459676
0.10087232 7.73131371 -2.38324261
0.16111715 7.68514013 -2.37542248
0.15567006 7.67653465 -2.39698672
0.24447700 7.19062376 -2.61085200
0.23513383 7.20431185 -2.59984589
0.22134331 7.25855827 -2.57439494
0.22703332 7.27073240 -2.56737828
0.21725097 6.62743568 -2.90330267
0.06633991 6.35753012 -3.19257712
0.04787778 6.37267494 -3.24975753
0.06309783 6.23002386 -3.21565485
0.19882624 6.33137846 -3.41665459
0.12221213 7.70390081 -2.39715481
0.89524823 7.28689623 -2.10148048
0.81236488 7.25632524 -2.12946343
1.23998368 7.00513363 -2.01863456
1.58643806 7.21514988 -1.11936271
1.64302969 7.20849752 -1.10315239
1.63623738 7.22718382 -1.02655685
1.76092196 7.68269157 -1.39960217
1.63970363 7.61279535 -1.34770072
1.79261422 6.99409008 -1.20496488
1.66867673 7.43510675 -1.63465786
1.68051469 7.47152662 -1.56009924
1.70316243 7.44050741 -1.63524652
1.78921318 7.47200346 -1.60995448
1.77908516 7.45715666 -1.62266135
1.75455010 7.44368410 -1.63215387
1.76235151 7.65520430 -1.47558081
1.66436970 7.61092663 -1.40582466
1.74664569 7.67088175 -1.43124759
1.73944199 7.61562729 -1.50152683
1.76335132 7.63410711 -1.49248266
1.76960182 7.61035728 -1.51563513
1.77774906 7.55765200 -1.56521928
1.39942503 6.99059629 -0.96397614
1.50426495 7.17356300 -1.09922826
1.53429377 7.19199753 -1.06993723
1.72895896 6.98365402 -1.27926183
1.55506372 7.20296621 -1.07917774
1.53429377 7.19199753 -1.06993723
1.58438265 7.14260006 -0.94851333
1.54312301 6.91066504 -0.82480013
1.51208520 6.92934179 -0.82563180
1.62723994 6.89950943 -0.89638752
2.18513060 7.74597406 -0.03788946
2.12642741 7.81068468 -0.08097088
0.50483412 6.05344677 -2.69158626
0.50780523 6.07507610 -2.69904232
0.41370070 6.47821569 -2.17479658
0.82341796 6.48283148 -2.36023068
0.78291523 6.36266851 -2.27543187
0.80641329 6.53640461 -2.41599059
0.79649085 6.56687307 -2.45278430
0.81688696 6.51328993 -2.38606453
0.42001671 6.01290703 -3.10133171
0.48185921 6.15267134 -2.96253872
0.39266920 6.12227774 -3.05197167
0.46214512 5.93932867 -3.10038805
0.52243668 5.83119106 -3.12062502
0.17438444 6.06335020 -2.72368026
0.44643924 6.56301403 -2.23052835
0.44742963 6.60359192 -2.24584198
0.50149858 6.68824100 -2.20845056
0.44009525 6.53340578 -2.20904851
0.46445286 6.53394794 -2.10641360
0.43246180 6.51852226 -2.13153744
0.47117990 6.73570442 -2.51872826
0.49316442 6.72804260 -2.55399895
0.44874701 6.73018265 -2.56837797
0.21609244 6.01978302 -2.60656357
0.18359685 6.01435471 -2.62112951
0.19411725 6.01661587 -2.60409689
0.30687076 6.35648346 -2.88235569
0.38147610 6.33923626 -2.84863591
0.33299431 6.34358072 -2.85972643
0.15200754 6.02162409 -2.67868352
0.14419664 6.01897955 -2.67297482
0.16244388 6.01696157 -2.64005876
0.25583833 6.03551722 -2.58404636
0.51079506 5.98216772 -2.59554791
0.60219002 5.65629578 -3.12942648
0.63627398 5.70617914 -2.92138195
0.65639919 5.63692760 -2.99915481
0.63317204 5.74337435 -2.88075781
0.79223973 6.39527655 -2.28798914
0.83443350 6.37572098 -2.26742482
0.79985440 6.35975361 -2.26120210
0.81171083 6.36719036 -2.26293993
0.90630120 6.30053663 -2.13813376
0.78095317 6.34449625 -2.25705385
1.23143458 6.46200514 -1.87181568
1.22432446 6.48037434 -1.86844289
1.22234368 6.49965811 -1.87844014
1.23933899 6.51057148 -1.92192328
1.35968840 6.63669491 -2.08825064
1.30250823 6.58326101 -2.02133441
1.31397235 6.61315012 -2.03104234
1.25746477 6.37569332 -1.90057409
1.25695086 6.39233303 -1.89676201
1.26006210 6.37131119 -1.90779638
1.26045465 6.47573948 -2.03798437
1.26585484 6.35966015 -1.91060865
1.36596715 6.63643312 -2.11017895
0.71001029 6.79998541 -2.01119709
0.69953662 6.80632973 -2.04672956
0.70503044 6.81008577 -2.03421879
0.52440810 6.59337044 -2.05556798
0.49247304 6.57659006 -2.05833387
0.63960946 6.71267319 -2.05359674
0.61438286 6.68098164 -2.06586432
0.67545927 6.76017380 -2.05834293
0.50468463 6.67545938 -2.19296908
0.51294398 6.66430330 -2.18246722
0.44742963 6.60359192 -2.24584198
0.47017089 6.65256882 -2.29338002
0.50149858 6.68824100 -2.20845056
0.53197604 6.66362190 -2.16976047
1.31806457 7.01186991 -2.07034898
1.31828880 6.99622059 -2.07545042
1.29832244 6.99509907 -2.06036115
1.27609491 7.03977871 -2.03350878
1.27773941 7.01658869 -2.03840470
1.51940095 7.09082031 -1.94963515
0.72673458 6.74831724 -1.96192145
0.54364562 6.66646194 -2.15665197
0.69610775 6.79484701 -2.06666780
0.69953662 6.80632973 -2.04672956
0.68906295 6.77848721 -2.06905031
0.67545927 6.76017380 -2.05834293
0.72808009 6.78906298 -1.98404598
0.73857248 6.79007244 -1.97318923
0.72278243 6.73393822 -1.95155978
0.59601414 6.67435694 -2.08930635
1.14484203 6.48809147 -2.29449201
1.15748334 6.52761316 -2.32059669
0.72667855 6.71409369 -1.92676294
1.41884017 6.06614399 -2.17913151
1.41621470 6.07447815 -2.16673326
1.69043696 6.60193825 -1.40499306
1.52970636 7.29760361 0.06229749
1.46753681 7.33555555 0.09052324
1.49239898 7.31215096 0.07760162
1.52111053 7.25974512 0.09985708
1.49239898 7.31215096 0.07760162
1.52970636 7.29760361 0.06229749
1.44210458 7.41605663 0.09401759
1.38136458 7.44602919 0.11786139
1.40538597 7.43359327 0.10260397
1.61301947 7.32088709 0.01630102
1.71616817 7.15038347 -1.01060808
1.39942503 6.99059629 -0.96397614
1.52380157 7.07699203 -0.92358559
1.43468618 6.99448299 -0.90471238
1.38776469 6.98214006 -0.93576908
1.38776469 6.98214006 -0.93576908
1.21207547 7.85045862 -0.66768533
1.21070206 7.85132742 -0.65752929
1.21031904 7.84936523 -0.66702193
1.20631087 7.84080696 -0.65565127
2.23607898 7.68484068 0.09277494
2.24886060 7.69126892 0.12576571
2.24137664 7.68522406 0.06086797
2.07833815 7.11969090 -0.41606405
2.30509710 7.74610424 0.16787542
2.31437492 7.73897552 0.14583485
2.28644824 7.72708130 0.15508461
2.29649186 7.69188643 0.07035130
2.31431890 7.71624374 0.10342616
2.26512694 7.67999172 0.06045686
2.30635834 7.69875240 0.07947958
2.32187748 7.72807217 0.13381952
1.96950877 6.68345737 -1.07619715
1.69194126 6.81083345 -0.88048559
2.12153172 6.98522377 -0.71926904
1.43468618 6.99448299 -0.90471238
1.52380157 7.07699203 -0.92358559
1.46274364 6.97434807 -0.85928583
1.87251711 6.90028477 -1.08904409
1.75785744 7.08704519 -1.09716320
1.45831513 7.08495283 -1.12238979
1.55506372 7.20296621 -1.07917774
1.53429377 7.19199753 -1.06993723
1.58643806 7.21514988 -1.11936271
1.64302969 7.20849752 -1.10315239
1.75785744 7.08704519 -1.09716320
1.69482851 7.14423513 -1.13264871
1.70313454 7.10378838 -1.17760813
1.71371090 7.02147484 -1.25308228
1.70313454 7.10378838 -1.17760813
1.69482851 7.14423513 -1.13264871
1.62952900 7.60672188 -1.39875197
1.69482851 7.14423513 -1.13264871
1.66424811 7.57901955 -1.43238735
1.60545146 7.55480242 -1.45221364
1.62774432 7.46417332 -1.53395724
1.65036416 7.43031406 -1.58816612
1.61918592 7.44855165 -1.54913962
1.79495919 7.50323725 -1.59578085
1.79143679 7.52946377 -1.57872951
1.77233934 7.58380365 -1.54380465
1.78509283 7.57687044 -1.54859781
1.75898790 7.65054226 -1.48114944
1.75865161 7.66377163 -1.44722426
1.76621950 7.65664339 -1.46580791
1.61603737 7.53914309 -1.46066916
1.64168441 7.62823963 -1.32153988
1.61698091 7.63613510 -1.32206309
1.58618593 7.65787649 -1.31093526
1.61421537 7.43794727 -1.58911920
1.62952900 7.60672188 -1.39875197
1.60501242 7.57633877 -1.42612743
1.59734166 7.56532288 -1.44108582
1.61767244 7.52540874 -1.47814095
1.62758565 7.50175190 -1.49071681
1.54919624 7.49858427 -1.55386734
1.56692958 7.49588442 -1.55714679
1.55887568 7.49699640 -1.57435703
1.62728655 7.47811365 -1.51749444
1.61942887 7.48260784 -1.51172030
1.54492640 7.50476980 -1.57646859
1.43026686 7.21200132 -1.94322574
1.46645308 7.17577744 -1.93412530
1.68373811 7.44002151 -1.63656390
1.65604484 7.42889357 -1.62261438
1.63129473 7.42666054 -1.60668433
1.64835536 7.42395115 -1.61600888
1.79553866 7.48364496 -1.60354507
1.72059679 7.44624376 -1.63383555
1.74290824 7.43799400 -1.64533699
1.79443598 7.69693136 -1.35661411
1.80875897 7.70486355 -1.33953476
1.80829203 7.69943523 -1.34876585
1.84179664 8.02040100 -0.86515343
1.87468481 8.01658916 -0.83963722
1.85190606 8.01096535 -0.86931121
2.10972190 7.98035622 -0.16618069
2.01451492 8.12727833 -0.29839608
2.12649298 7.96909809 -0.19145401
2.09973407 8.01442146 -0.19404204
1.34179628 7.62486696 -0.89446300
1.57872999 7.51879358 -0.89853674
1.37217093 7.68155193 -1.02467895
1.41415918 7.63047266 -1.60485303
1.39529538 7.63978815 -1.58452237
1.41040325 7.62624979 -1.56897533
0.83910513 7.26044512 -2.12325931
0.77244151 7.22105455 -2.13829279
0.75751108 7.24146986 -2.14886928
0.78336370 7.24607563 -2.14574838
0.79584616 7.17336702 -2.11437392
0.91929764 7.30023813 -2.09775257
0.81355149 7.13630247 -2.08611107
0.93338722 7.31297302 -2.08841872
0.80394667 7.10555458 -2.06825614
0.18219537 7.60810471 -2.43007088
0.15567006 7.67653465 -2.39698672
0.18867955 7.52729607 -2.22709942
0.18834318 7.51419687 -2.24353409
0.18726873 7.53845167 -2.22111058
1.08878291 7.41121626 -2.57009721
1.06055713 7.42082071 -2.57879543
0.20608589 7.41809320 -2.50589991
0.07137588 6.56622839 -3.25855899
0.11849353 6.67296505 -3.25819421
0.13303156 6.69070768 -3.26491213
0.08655857 6.61978388 -3.24741220
0.09913448 6.63817120 -3.25158882
0.05743586 6.52672529 -3.26135254
0.15780966 6.71225309 -3.27052736
0.14813945 6.70732021 -3.26755619
0.08040140 6.59328604 -3.24938369
0.11015010 6.32787466 -3.40452719
0.04432737 6.45671749 -3.26774311
0.08916530 6.17000294 -3.26732278
0.11230837 6.27151632 -3.40634012
0.10881402 6.17751503 -3.40926433
0.12148338 6.25098991 -3.41472077
0.10314271 6.30368519 -3.39984632
0.11015010 6.32787466 -3.40452719
0.16565792 6.32626772 -3.41755176
0.13482544 6.31990480 -3.41585112
0.12885514 6.21173859 -3.44541287
0.12873368 6.22916365 -3.43639660
0.13448906 6.16217327 -3.45695162
0.12730418 6.14557028 -3.46124053
0.12342675 6.13005114 -3.46260452
0.13884300 6.18500805 -3.46138072
0.23636714 6.32054949 -3.42044783
0.52343637 6.79827595 -2.99051237
0.52357650 6.78251362 -2.98365426
0.51189756 6.79351091 -2.97257328
0.51722318 6.77520704 -2.97101307
0.21836282 7.52246571 -2.45356894
0.20211504 7.47849655 -2.47911310
0.20711364 7.50514317 -2.46592999
0.16111715 7.68514013 -2.37542248
0.16534960 7.63166904 -2.42382026
0.15120405 7.66613626 -2.41298223
0.15307267 7.58006668 -2.25340056
0.21696137 7.48179531 -2.25353146
0.23428361 7.46599531 -2.25192451
0.23102282 7.45298004 -2.27104974
0.22544494 7.43833971 -2.28143024
0.22565052 7.42361498 -2.29383802
0.22511792 7.40959072 -2.29862165
0.22764994 7.39135265 -2.29698658
0.26200482 7.30346155 -2.31836367
0.25038189 7.34399223 -2.31418753
0.22989231 7.37473106 -2.29801440
0.24383233 7.35706329 -2.30868435
0.23591867 7.38651276 -2.29404330
0.55522186 6.92036295 -2.88772798
0.54165554 6.90544224 -2.87911367
0.54176772 6.91418743 -2.87805772
0.13646048 6.49986410 -2.95443821
0.11925969 6.49280071 -2.94441319
0.12702386 6.49579000 -2.94409537
0.29479939 6.67822504 -2.86253858
0.31535441 6.69392157 -2.85802603
0.47722498 6.73930168 -2.49216557
0.50244224 6.73743296 -2.52066231
0.53065860 6.75435352 -2.48132753
0.52024096 6.73615313 -2.49167991
0.49630377 6.75361538 -2.43296719
0.47017089 6.65256882 -2.29338002
0.47017089 6.65256882 -2.29338002
0.54905534 6.75789452 -2.42446494
0.54041290 6.76300526 -2.44951415
0.50996351 6.75303650 -2.40318108
0.48106506 6.74173069 -2.46639705
0.33299431 6.34358072 -2.85972643
0.33354557 6.26618195 -2.96860242
0.44587860 6.29861212 -2.80579734
0.19826563 6.18496132 -2.78652263
0.38858625 6.23468542 -2.98254251
0.33354557 6.26618195 -2.96860242
0.06492909 6.30743122 -3.15214920
0.05876259 6.27526331 -3.03631282
0.06463946 6.28590488 -3.06774306
0.05106381 6.24753237 -3.03669548
0.05330618 6.20075130 -3.04741216
0.04904568 6.20834684 -3.03614426
0.05065271 6.19278145 -3.05456924
0.05458619 6.18493319 -3.06435132
0.05437130 6.14991522 -3.09176421
0.06289229 6.33213472 -3.17078900
0.05328749 6.11288834 -3.09660387
0.06996506 6.07618809 -3.20845127
0.35113877 6.15698767 -3.04457164
0.04725180 6.08758640 -3.11615014
0.11036497 6.06392956 -3.37176991
0.32150221 5.92141819 -3.14803815
0.34311298 5.94296360 -3.14773941
0.32614574 5.93939495 -3.12595105
0.04992395 5.99271584 -3.16917229
0.04854116 6.00689888 -3.15548468
0.05921107 5.97779465 -3.18240237
0.05897749 5.97116137 -3.19431496
0.07299226 5.98171902 -3.32062554
0.04382285 5.96079016 -3.21614981
0.04641090 5.91484022 -3.27984238
0.04468242 5.93285465 -3.25072908
0.03811416 5.94810247 -3.22571731
0.04418723 5.94138432 -3.24044251
0.04579425 6.06529379 -3.11372066
0.04598113 6.07530975 -3.11779428
0.04147771 6.03087378 -3.12621284
0.04514958 6.04235601 -3.11895299
0.05301654 6.02374458 -3.13701296
0.34311298 5.94296360 -3.14773941
0.36495733 6.08989429 -3.09265184
0.24447700 5.94608402 -3.16207170
0.25340909 6.10491848 -3.08875561
0.32614574 5.93939495 -3.12595105
0.25340909 6.10491848 -3.08875561
0.32150221 5.92141819 -3.14803815
0.18761443 5.84487867 -3.16709852
0.30859926 5.70603943 -3.26059532
0.39266920 6.12227774 -3.05197167
0.35113877 6.15698767 -3.04457164
0.36495733 6.08989429 -3.09265184
0.36495733 6.08989429 -3.09265184
0.32524884 6.10704851 -3.08453274
0.32524884 6.10704851 -3.08453274
0.25651103 6.16392994 -3.02873540
0.32524884 6.10704851 -3.08453274
0.38858625 6.23468542 -2.98254251
0.35113877 6.15698767 -3.04457164
0.90373188 6.70640421 -2.56567764
0.53584415 6.78355074 -3.05859590
0.56475192 5.74488783 -3.12990308
-0.44800219 4.45304394 -3.91511369
-0.66689432 4.57320595 -3.84686136
-0.51759964 4.39998341 -3.94646001
0.11655951 4.26445150 -4.09074640
0.08633432 4.18531466 -4.08316946
0.13689962 4.22403288 -4.11033964
-0.08597263 4.38696861 -3.97075176
-0.03889234 4.44844675 -3.94119978
-0.59965146 3.99570441 -4.14614248
-0.36080229 4.11564255 -4.11012459
-0.55562639 4.12496710 -4.08476686
-0.35790592 4.89278078 -3.72485805
-0.50544411 5.00094652 -3.71902800
-0.43210012 4.79457426 -3.77594662
0.36602247 5.11283112 -3.53692007
0.42852831 5.26963806 -3.44497371
0.28851143 5.29322004 -3.42447495
0.26449010 5.17166519 -3.49183011
0.26689133 4.10112333 -4.20051050
0.25328764 4.10341215 -4.20791960
0.27687916 4.09359312 -4.18407583
0.14239341 4.08217525 -4.13785458
0.20072292 4.13255405 -4.14542341
0.25020438 4.11880064 -4.23629475
0.21797040 4.13370275 -4.23538828
0.25303537 4.10909319 -4.21828127
0.10487119 4.06818867 -4.14814186
0.01042098 4.11043835 -4.12373734
0.09061350 4.02990961 -4.16843510
0.32609907 4.64876461 -3.82819366
0.29369691 4.65692091 -3.82385874
0.30043334 4.63522625 -3.86955595
0.53028494 4.70395470 -3.77505898
0.49877974 4.71851158 -3.76830411
-0.19855797 5.23032188 -3.50885320
-0.12592408 5.27794361 -3.43663049
-0.16250263 5.38546515 -3.36186624
-0.27335015 5.53912354 -3.38229060
-0.22514866 5.47639322 -3.34159160
-0.33305305 5.64781237 -3.39961267
-0.20199627 5.50393677 -3.22670794
-0.60264122 5.26543283 -3.62529731
-0.72383159 5.44346762 -3.52212071
-0.68067551 5.25323105 -3.60594749
-0.42537302 4.51361561 -3.89525938
-0.78867334 4.73410511 -3.75423336
-0.96546495 4.68418455 -3.70704103
-0.89775503 4.50008631 -3.83228636
-0.65502846 4.36340523 -3.95006633
-0.08597263 4.38696861 -3.97075176
-0.03889234 4.44844675 -3.94119978
-0.08556153 4.47873783 -3.92095327
-0.32216826 4.69031382 -3.81325412
-0.09258760 4.63147020 -3.84941244
-0.24603066 4.73617935 -3.78627086
-0.44770321 4.61580181 -3.84687114
0.14144042 4.76460123 -3.77708673
0.21248597 4.92280006 -3.66335177
0.01235501 4.88975334 -3.71027374
-0.17820852 5.11924982 -3.56516433
-0.12854016 4.90681410 -3.69942617
-0.08824302 5.11103725 -3.55559731
-0.24616148 5.40544081 -3.46993876
-0.19855797 5.23032188 -3.50885320
-0.16250263 5.38546515 -3.36186624
-0.17820852 5.11924982 -3.56516433
-0.08824302 5.11103725 -3.55559731
0.08668002 5.91456938 -3.42140102
0.11727894 5.97378635 -3.53356576
0.12837863 5.94294453 -3.56108165
0.14670062 5.87392616 -3.61533761
0.13561027 5.85067177 -3.62694168
-0.72743809 3.09803009 -5.09181261
-0.77507901 3.10374808 -5.07888126
-0.71085393 3.13488889 -5.07873201
-0.64616179 3.21223187 -5.04655361
-0.61828172 3.18242717 -5.07071543
-0.74221903 3.20473862 -5.03780890
-1.00359452 1.96739280 -5.16680098
-1.19016850 1.96252513 -5.13039970
-1.23835135 1.95057535 -5.13280058
0.28404540 5.40953350 -3.36686492
-0.22514866 5.47639322 -3.34159160
-0.20199627 5.50393677 -3.22670794
0.21884869 5.07227230 -3.55216813
0.16435924 5.03058290 -3.58540201
-0.07847940 4.71276522 -3.80577040
0.07245970 4.72443533 -3.80346251
0.17707528 4.77255249 -3.76899552
0.26723701 4.66566658 -3.82407355
0.22667824 4.12208939 -4.15601826
0.23856278 4.12719107 -4.25785875
0.19792929 4.14699841 -4.22178507
0.17455262 4.15789270 -4.19149399
0.18683894 4.15179157 -4.21205854
0.16201410 4.17926979 -4.12727833
0.01042098 4.11043835 -4.12373734
0.00972958 4.18488503 -4.08099222
-0.06793094 4.20690680 -4.06990194
0.01042098 4.11043835 -4.12373734
-0.06793094 4.20690680 -4.06990194
-0.02854009 4.28006411 -4.02659655
-0.02854009 4.28006411 -4.02659655
0.00972958 4.18488503 -4.08099222
0.01131792 4.00184250 -4.19308233
0.09061350 4.02990961 -4.16843510
0.21111253 4.09001398 -4.15875578
0.27018011 4.07020712 -4.16300678
0.18340063 4.14887619 -4.14171362
0.17266530 4.16333961 -4.13698578
0.23151802 4.04701662 -4.16575336
0.20072292 4.13255405 -4.14542341
0.14239341 4.08217525 -4.13785458
0.17985958 4.05946207 -4.15097237
-0.04939407 4.03271246 -4.17321873
-0.11093761 4.32158470 -4.00300503
0.15112929 4.20454311 -4.12142038
0.10453483 4.50770140 -3.93301463
0.11378459 4.51791334 -3.92842770
0.11557848 4.56395674 -3.88681269
0.14727990 4.55738831 -3.90867615
0.12097882 4.53167582 -3.91868281
0.15500671 4.56917000 -3.90705967
0.16845155 4.58111048 -3.90380836
0.14020711 4.54742861 -3.91499209
0.09569619 4.48634243 -3.94081664
0.09563079 4.49486351 -3.93656540
0.03120021 4.55854654 -3.89076543
-0.01580534 4.55831337 -3.88617778
0.15689403 4.58269930 -3.89193296
0.17786013 4.60501051 -3.89183998
0.18522258 4.60228252 -3.90464950
0.18966991 4.60663605 -3.89141941
0.17209537 4.59668589 -3.89794087
0.15689403 4.58269930 -3.89193296
0.16845155 4.58111048 -3.90380836
0.45736137 4.60309505 -3.84317112
0.33152744 4.79203272 -3.73399615
0.00110582 4.67060852 -3.83263206
0.03065831 4.69418192 -3.81754279
0.14185153 4.73514223 -3.79363370
0.14144042 4.76460123 -3.77708673
0.07245970 4.72443533 -3.80346251
0.29322040 4.76151848 -3.76285720
0.33152744 4.79203272 -3.73399615
0.17707528 4.77255249 -3.76899552
0.23650728 4.75466919 -3.76998544
0.20916915 4.62462187 -3.85935330
0.21331750 4.65210009 -3.83811641
0.24464519 4.65449190 -3.82929635
0.19589247 4.63267565 -3.85005713
0.38083139 4.63221741 -3.84348869
0.46590105 4.59478903 -3.86481929
0.45050347 4.60211372 -3.84887075
0.37571135 4.63988829 -3.83251977
0.35152185 4.64249516 -3.82816577
0.44562638 4.60679483 -3.85679340
0.45050347 4.60211372 -3.84887075
0.44554231 4.61239147 -3.84223652
0.43024752 4.62443495 -3.83879828
0.43411556 4.61514807 -3.85228062
0.46321961 4.74012232 -3.76139951
0.41049603 4.75339890 -3.75266385
0.33152744 4.79203272 -3.73399615
0.18231682 5.81001949 -3.18083286
0.22148345 3.93714094 -4.22115898
0.25914580 4.05746222 -4.16513681
0.22667824 4.12208939 -4.15601826
0.21097238 4.04402733 -4.16242790
-0.27335015 5.53912354 -3.38229060
-0.33305305 5.64781237 -3.39961267
0.21897012 5.57506657 -3.28878403
0.06737701 5.39863920 -3.30845118
0.05164308 5.51563454 -3.21074963
-0.13857473 5.50530100 -3.22392368
0.15521227 5.59529448 -3.24404883
0.18767047 5.66029501 -3.23548102
-0.46893093 5.35757589 -3.60084605
-0.51020914 5.23340464 -3.64155436
-0.60264122 5.26543283 -3.62529731
-0.63186675 5.45159626 -3.54970145
-0.50544411 5.00094652 -3.71902800
-0.64020085 4.83972979 -3.75207472
-0.66022331 5.05770636 -3.68731713
-0.78942078 5.15219402 -3.60702205
-0.36067149 5.14153337 -3.65297174
-0.33178240 5.30651522 -3.58576632
-0.43210012 4.79457426 -3.77594662
-0.10142624 4.53913164 -3.89696884
-0.55136585 4.69777918 -3.80110812
-0.73203492 3.99910498 -4.12772703
-0.29839921 4.31483936 -4.00304222
-0.11093761 4.32158470 -4.00300503
-0.08556153 4.47873783 -3.92095327
-0.08597263 4.38696861 -3.97075176
-0.08556153 4.47873783 -3.92095327
-0.10142624 4.53913164 -3.89696884
-0.01580534 4.55831337 -3.88617778
-0.04593710 4.63683319 -3.85112190
-0.04862793 4.60496378 -3.86570668
-0.04862793 4.60496378 -3.86570668
-0.09258760 4.63147020 -3.84941244
-0.04862793 4.60496378 -3.86570668
-0.32216826 4.69031382 -3.81325412
-0.02444778 4.64620447 -3.84458160
0.03689955 5.07697201 -3.56850934
0.21884869 5.07227230 -3.55216813
0.26449010 5.17166519 -3.49183011
-0.02805425 5.37409496 -3.33954525
0.03365747 5.19577980 -3.47890830
0.03689955 5.07697201 -3.56850934
0.16435924 5.03058290 -3.58540201
0.28851143 5.29322004 -3.42447495
0.06737701 5.39863920 -3.30845118
0.15760411 5.41695166 -3.31965399
0.15760411 5.41695166 -3.31965399
0.28404540 5.40953350 -3.36686492
-0.02805425 5.37409496 -3.33954525
-0.50137985 6.27798176 -3.43346310
-0.47113591 6.29010010 -3.45141125
-0.44819841 6.29734135 -3.47882414
-0.41624472 6.29629469 -3.51003957
-0.42580283 6.29527617 -3.52636242
-0.58239460 6.24935436 -3.52120519
-0.53511810 6.28039265 -3.51505733
-0.56396049 6.26120138 -3.52015853
-0.47890013 6.29020262 -3.52893186
-0.46201697 6.29237986 -3.53494859
-0.50248230 6.28758669 -3.52838039
-0.43893930 6.29014730 -3.54121804
-0.42875528 6.30019093 -3.48883104
0.12666884 6.05620289 -3.49591279
0.12517393 6.03980541 -3.50271463
0.12564109 6.01385021 -3.51980329
-0.05915770 5.81814766 -3.54630041
-0.05875594 5.82799530 -3.49636126
0.12837863 5.94294453 -3.56108165
0.13185430 5.91750336 -3.58139372
0.11727894 5.97378635 -3.53356576
0.12841602 5.97008705 -3.54868317
0.12812638 5.99806023 -3.52820301
0.04635485 5.86114550 -3.45334530
0.01276611 5.84000158 -3.47049022
0.03934746 5.85845423 -3.44898200
0.04635485 5.86114550 -3.45334530
0.04652303 5.90656233 -3.31198311
0.04867196 5.86916161 -3.42118597
-0.00536900 5.84099197 -3.48062730
0.05148426 5.90082598 -3.36680913
0.06150948 5.89844322 -3.39383888
-0.07231289 5.82323027 -3.52322316
-0.07505979 5.82907915 -3.50226617
0.04470111 5.90318060 -3.33967638
0.04391627 5.91850328 -3.25993228
-0.19372754 6.02709866 -3.49745464
-0.18950441 6.04364538 -3.48458886
-0.19550276 6.01836300 -3.48380399
-0.18950441 6.04364538 -3.48458886
-0.20272501 6.01814795 -3.45472813
-0.19550276 6.01836300 -3.48380399
-0.02100949 5.84345818 -3.48666334
-0.04449825 5.83332157 -3.49306345
-0.63186675 5.45159626 -3.54970145
-0.70990092 5.54520559 -3.81470251
-0.67563951 5.55502510 -3.82496095
-0.69432586 5.54805517 -3.81810331
-1.55955112 1.94166148 -5.04927301
-1.43311918 1.94586587 -5.08229160
-1.45604742 1.97422254 -5.01670218
-1.69774628 1.93082333 -5.00851774
-1.63287640 1.93574727 -5.04086399
-1.59741902 1.94101679 -5.02100945
-1.66427898 1.96915925 -4.95161819
-1.59741902 1.94101679 -5.02100945
-1.29145801 1.95134127 -5.12600851
-1.35662663 1.95022964 -5.08997154
-1.54791880 2.18195915 -4.92565346
-0.66673547 1.97634375 -5.23639774
-0.60944307 1.97949219 -5.24677849
-0.81347007 1.97376502 -5.21470308
-0.78262830 1.97134495 -5.22952175
-0.70560306 1.97193348 -5.25299168
-0.75279552 1.97436249 -5.24021006
-0.86739898 1.97084999 -5.19887590
-0.86739898 1.97084999 -5.19887590
-0.81347007 1.97376502 -5.21470308
-0.82446706 1.97953892 -5.18329144
-1.03846323 1.96611285 -5.14726400
-1.14633965 1.96572030 -5.12367296
-1.09768045 1.96448708 -5.14376020
-1.12421501 1.96316040 -5.13582850
-0.50801349 1.98525667 -5.25522470
-0.49618497 1.98886323 -5.24135923
-0.67588246 3.51003647 -4.87176180
-0.59870780 3.52495742 -4.87760115
-0.62902635 3.49654460 -4.88309526
-0.64990842 3.52860141 -4.86979008
-0.68132949 3.27242970 -4.99370861
-0.69046712 3.30632687 -4.95773745
-0.62919456 3.27689600 -4.99815655
-0.73402506 3.22631192 -5.02178526
-0.71480608 3.25031471 -5.00780821
-0.66832381 3.32548070 -4.95152426
-0.67176205 3.35900378 -4.93620157
-0.62732595 3.34687662 -4.94718027
-0.62622344 3.38045573 -4.93920088
-0.62850314 3.31673527 -4.96738911
-0.61912262 3.32724619 -4.95799923
-0.67725587 3.41677260 -4.91823483
-0.62572825 3.42304206 -4.92498064
-0.69644678 3.37206578 -4.92515802
-0.64378858 3.46021843 -4.90676117
-0.66545546 3.16574001 -5.07081842
-0.76769787 3.17979240 -5.04960918
-0.79152298 3.13246918 -5.06708097
2.86416507 6.12813663 0.70929420
2.75875521 6.30092907 0.69268203
2.85386872 6.27818775 0.67533171
1.48180377 7.68805504 -1.16147244
1.56219256 7.67751551 -1.28193414
1.84250677 7.56814480 0.14058399
1.34538412 7.56316471 -0.79558408
0.49671486 6.78660631 -2.21538329
0.49397728 6.71704626 -2.22820210
1.34212327 7.55494308 -0.79177207
2.45927835 6.41177654 0.83845431
2.44503903 6.48399019 0.89479363
1.56962979 7.29441786 0.04256469
1.45353150 7.35333586 0.09273757
1.45241940 7.40139723 0.09150427
0.44742963 6.60359192 -2.24584198
0.21318671 7.49893999 -2.24903750
0.50083518 6.83390141 -2.22587562
1.38136458 7.44602919 0.11786139
1.45241940 7.40139723 0.09150427
1.42898679 7.42680120 0.09357846
0.21208420 7.50362015 -2.23996520
0.21318671 7.49893999 -2.24903750
0.18834318 7.51419687 -2.24353409
0.20711364 7.50514317 -2.46592999
1.75827801 7.52944517 0.04078947
1.34538412 7.56316471 -0.79558408
0.04992395 5.91547585 -3.29722095
-0.20265028 5.99846172 -3.45957708
-0.52385950 6.26492023 -3.42567086
0.12879908 4.24618530 -4.10336924
0.18340063 4.14887619 -4.14171362
-0.07832057 5.84094572 -3.58523393
-0.07067785 5.83841324 -3.59235311
-0.07907736 5.86175251 -3.59891224
0.05951005 5.89044571 -3.40922689
0.26000541 4.11749220 -4.17519999
2.96975255 4.32844305 2.95301247
2.67771244 5.38760519 2.37428641
2.76461339 5.18498850 2.42117977
3.04779601 4.64939070 2.55410528
3.03288412 4.64768124 2.58022904
2.86168885 4.85708046 2.56483126
2.86168885 4.85708046 2.56483126
2.83543468 4.97874737 2.49874687
2.67771244 5.38760519 2.37428641
3.03288412 4.64768124 2.58022904
2.90798450 4.70769215 2.63997841
3.58599091 1.87340057 4.16946697
3.53760290 1.87426937 4.17200804
3.56858468 3.98217583 2.53819394
2.66890192 5.07047844 2.83233595
2.65938115 5.10778618 2.82045150
2.60918975 5.23717976 2.80140996
3.36589384 4.52629423 2.24865818
3.50038910 4.48578262 2.10787487
3.45574737 4.07789660 2.60999632
3.01646852 4.63647842 2.60916471
3.05083251 5.35783768 1.69901729
3.06127810 5.37939262 1.66996944
2.54282498 6.32556677 1.97316515
2.52749276 6.34072161 1.97755623
2.51475811 6.30570364 1.88555384
2.83201504 6.41949368 0.62942868
3.09553051 5.41265440 1.58477831
2.84932804 6.50749731 0.53742629
2.78038478 6.96032429 0.61069554
2.83454704 6.46670485 0.60721987
2.86416507 6.12813663 0.70929420
2.82649326 6.02718306 0.75375837
2.76860285 6.06907797 0.73157769
2.83270645 6.07334805 0.73123199
2.83201504 6.41949368 0.62942868
2.34904742 6.37777662 2.08151793
2.38971829 6.39418364 2.09900832
2.64983249 6.90779686 0.98681468
2.37261081 6.43577003 0.94352764
2.47115350 6.35859537 0.81794602
3.00873208 5.50371265 1.65147924
2.83770490 5.73289156 1.70456731
2.25455976 6.38877344 1.50650120
2.25259781 6.37795401 1.47220230
2.24364686 6.18286896 1.46782982
2.86416507 6.12813663 0.70929420
2.83270645 6.07334805 0.73123199
2.23932123 6.43114519 1.21986175
1.31397235 6.61315012 -2.03104234
0.79522014 7.08969879 -2.06016493
0.52807057 6.74947643 -2.40873098
0.33299431 6.34358072 -2.85972643
1.00701129 7.34786987 -2.49346447
1.01115978 7.37017202 -2.51171160
1.04936397 7.41921425 -2.57226467
2.22239137 7.68627119 0.10564049
1.13279867 6.44850397 -2.27276897
0.76386446 7.01341152 -2.03648019
1.25841773 6.49824762 -1.97281563
1.24451506 6.45350266 -2.06243539
1.26045465 6.47573948 -2.03798437
1.25340974 6.48981047 -2.07256341
1.33862889 7.58708382 -0.81507403
1.91513133 7.57180691 0.20901345
1.89011037 7.57564735 0.17733073
1.43816173 6.81170225 -2.11751342
1.16106188 6.54905558 -2.32979965
1.16284621 6.58171940 -2.35322309
2.27986097 7.67649746 0.04132203
2.26059556 7.70593786 0.14853504
1.64168441 7.62823963 -1.32153988
1.74664569 7.67088175 -1.43124759
0.78213036 7.04342222 -2.04292679
0.43818921 6.71379471 -2.60152769
0.77204907 6.96046400 -2.01717687
0.45280188 6.73793745 -2.54434729
0.94045991 7.21606541 -2.39956546
0.91082329 7.17260075 -2.37584281
1.14891577 6.72791243 -1.89631355
1.27144206 6.53781557 -1.98679292
-1.77237010 4.95141840 -3.21631813
-1.64834881 4.87227201 -3.34205890
-1.63296986 4.87886858 -3.33443475
-2.17763996 4.08714628 -3.53814387
-2.19845653 4.20433760 -3.45440125
-2.33466125 4.25569725 -3.33791041
-1.37677062 5.75004578 -2.58563495
-1.35477674 5.74787760 -2.58831620
-1.30433285 5.77568293 -2.60191083
-1.65823388 5.56866646 -2.61718678
-1.67294002 5.51949310 -2.64810348
-1.66258776 5.51112175 -2.65847445
-1.97713518 4.94747543 -3.09331536
-2.00694013 4.49544334 -3.38027263
-2.12104821 4.49644279 -3.30188298
-2.03091455 4.41227007 -3.41343117
-2.11003256 4.57885933 -3.25614810
-2.85771132 1.88141727 -4.35127211
-2.92545891 1.91804242 -4.27139664
-3.02746773 2.08922815 -4.15332699
-2.67571568 2.23241258 -4.35955906
-2.96064544 2.22674108 -4.16122198
-2.79058981 2.29890776 -4.25303745
-2.64502311 2.41352081 -4.30725622
-2.94029593 2.46882296 -4.07493782
-2.52444005 3.21644568 -3.89845443
-2.77805161 3.07441044 -3.81917787
-2.40522122 3.65999436 -3.66337085
-2.34378028 3.83730006 -3.58209443
-2.20579076 4.28493214 -3.39602494
-1.60108149 6.24350548 -2.48897028
-1.60897672 6.24575758 -2.49418378
-1.60892057 6.25027943 -2.48786783
-1.71424627 5.60403919 -2.63948894
-1.73108268 5.64633656 -2.62570763
-1.72760701 5.62373495 -2.62974405
-1.69001937 5.54524326 -2.63752675
-1.70910752 5.56199551 -2.63303280
-2.00463223 4.73662806 -3.20726490
-2.18148947 4.65803289 -3.16380930
-0.57795656 8.22070026 -1.22342706
-0.52406508 8.22205448 -1.23560119
-0.57584500 8.20521927 -1.23524618
-1.21882403 7.00833845 -1.82013881
-1.23217547 6.95975399 -1.83152795
-1.37475240 6.52928543 -1.94074976
-1.19646585 8.01616859 -1.90972102
-1.20727587 8.02732468 -1.90510547
-1.23308182 8.12737179 -1.86613512
-1.00433266 8.12160683 -1.94761693
-1.01646948 8.01689720 -1.97630072
-1.04432142 8.00790977 -1.96006203
