9.12252617 2.64476156 5.33184862
8.90420532 2.43465734 5.33794594
8.79709625 2.57631612 5.36887550
9.12028503 2.42312717 5.30968571
9.08884907 2.68178368 5.41382360
8.83170033 2.55527425 5.35119390
8.82699108 2.41065621 5.39766264
9.21724987 2.40759969 5.33041334
8.79709625 2.57631612 5.36887550
8.98819256 2.65194702 5.38902140
9.12382793 2.41071248 5.32673645
9.16410637 2.41089249 5.32871485
9.12150478 2.37782145 5.33411884
9.18874168 2.37191629 5.33797455
8.90809917 2.63273668 5.35607100
8.89575481 2.64194775 5.37405014
9.20486927 2.58436489 5.30112743
8.96903706 2.63731217 5.34320784
9.02168655 2.63387299 5.33055162
8.79415703 2.44534159 5.37777328
8.80426693 2.42482543 5.37909603
8.78540516 2.56216407 5.37234449
8.76213074 2.54675746 5.38373375
9.06868744 2.63486242 5.32517242
8.91828823 2.64592957 5.38964796
8.94390678 2.35451913 5.38187361
8.99762344 2.34859061 5.37263918
8.95631218 2.31433749 5.40316677
9.17033863 2.33967400 5.36451674
9.11279202 2.35257721 5.35658264
9.10311985 2.24739885 5.41552544
9.16050434 2.26021147 5.41239929
9.16942787 2.21328592 5.42000055
9.11750698 2.21187305 5.41796732
9.13128853 2.17871475 5.44658279
9.08867645 2.18762922 5.44125366
9.19646549 2.27962947 5.40308619
9.05549335 2.34203053 5.36738205
9.00767612 2.27906799 5.41266012
9.11616516 2.30116773 5.38859797
9.04818535 2.21158624 5.42348003
9.08603001 2.22363043 5.41873026
9.05909920 2.29459286 5.39669275
9.01020336 2.36581755 5.35757780
9.08626270 2.26025701 5.41244459
8.88600540 2.34378099 5.40518951
8.96116161 2.27199841 5.42761230
9.01638603 2.25013518 5.42299557
8.67539501 2.77750993 5.81635189
8.71354008 2.77998137 5.76582050
8.68023300 2.77027369 5.77399826
9.02696419 2.86953354 5.80066729
8.98116398 2.85408974 5.74264717
8.94649506 2.86336136 5.79514933
8.72407627 2.81056571 5.82533073
8.72372341 2.42391706 5.41821194
8.75477600 2.43760157 5.39809084
8.89172840 2.89548850 5.97889042
8.89184380 2.88394642 5.96067667
8.86720276 2.89344263 6.04948950
8.86816216 2.87766075 5.95998049
8.84525299 2.87759304 6.02402210
8.85463142 2.88228464 6.05588627
8.65274334 2.76848698 5.81410313
8.90395069 2.84782577 5.74737406
9.08578300 2.84729600 5.69966984
9.03347778 2.85850763 5.74791718
8.89491081 2.77875042 5.61341476
8.91700554 2.80463457 5.64533854
8.95208740 2.77982807 5.59588814
8.73696613 2.76946402 5.70087242
8.96927738 2.76732159 5.55693293
8.66924858 2.75634670 5.75694323
8.71587563 2.75865364 5.70340681
8.85615921 2.65341020 5.43033886
8.90852833 2.65326667 5.41006279
8.81760693 2.85875797 5.88073826
8.89610195 2.86979818 5.86155415
8.86603737 2.85972619 5.83487940
8.77426243 2.40893650 5.42135429
8.57310486 2.48101616 5.52604771
8.61481762 2.52697802 5.49125910
8.60830021 2.48256803 5.49468470
8.64119053 2.77556300 5.87581396
8.66218090 2.42206264 5.46277428
8.66231346 2.44136953 5.45490789
8.88042068 2.68449235 5.47061110
8.94022560 2.67111349 5.42918301
8.85025311 2.86937618 5.91440773
8.72814274 2.41110158 5.44529581
8.67469597 2.41209459 5.47640467
8.92295170 2.87484765 5.87847090
8.72016144 2.40176439 5.45711279
8.91542053 2.87971973 5.91471529
9.02312660 2.78024411 5.57723427
9.07030678 2.80604100 5.60543537
9.08529663 2.77602744 5.56199312
8.76633072 2.38490319 5.43465948
8.95693111 2.73989058 5.54100704
8.88933563 2.76307154 5.58058643
8.93471909 2.86946440 5.83760309
8.98716640 2.87209129 5.82595205
9.14438820 2.74003005 5.50952959
8.64024734 2.75734544 5.80383539
8.71333027 2.37408638 5.46885967
8.81547260 2.86722207 5.95425463
8.99335480 2.87889171 5.85345030
8.95840263 2.88328338 5.88284349
8.63673210 2.40788579 5.51043320
8.72016144 2.40176439 5.45711279
8.67359066 2.37800026 5.49576712
8.82768154 2.85264850 5.83277655
8.98075008 2.80847859 5.63070202
8.67359066 2.37800026 5.49576712
8.78296757 2.85318613 5.90870237
8.78943348 2.86090398 5.95322275
8.56081200 2.44925475 5.53717089
8.60157967 2.75922346 5.88897896
9.14823341 2.72353578 5.48950720
8.61901760 2.73748207 5.82239342
8.60731697 2.76898503 5.91392183
8.63673210 2.40788579 5.51043320
8.76831913 2.68559289 5.53934145
8.79852581 2.67736340 5.50568104
8.74232101 2.65192699 5.49049330
8.61481762 2.52697802 5.49125910
8.57310486 2.48101616 5.52604771
8.56264400 2.52625084 5.53702736
8.84741783 2.84831738 5.79324579
8.91546345 2.73262286 5.55076218
8.85348988 2.73962092 5.58424664
8.81857586 2.63912201 5.40159130
8.70888901 2.66338897 5.54197216
8.59960270 2.71838117 5.78186798
8.60009193 2.73697567 5.85426664
8.75619030 2.84151316 5.88840342
8.81916142 2.64500022 5.41990471
9.06523514 2.83541894 5.66250324
8.66831779 2.52682519 5.44911814
8.66381931 2.49289441 5.45254040
8.77376080 2.83167624 5.82196999
8.71934223 2.68993282 5.58295441
8.86816311 2.71896768 5.55027771
9.12362576 2.83607078 5.66056108
9.08923817 2.71898651 5.48199606
8.60193825 2.42429590 5.50450611
8.66218090 2.42206264 5.46277428
9.03172874 2.99406743 5.88365412
9.02397537 3.00857520 5.90505409
9.05359459 3.00651670 5.88425589
8.81982136 2.77339005 5.63921642
9.02110481 2.96361613 5.87862539
9.04970074 2.96631145 5.87377262
9.00519371 2.98955131 5.89770985
8.61948681 2.77639079 5.93347073
8.67590523 2.79924893 5.87744331
8.60830021 2.48256803 5.49468470
9.04244518 2.93061972 5.86277342
9.04703045 2.94636679 5.86321831
8.73986626 2.82761812 5.85940218
8.70520401 2.59576297 5.44475985
8.74336815 2.61811233 5.42618513
8.78045559 2.59709215 5.39977026
8.75538063 2.57571220 5.38800621
8.71240807 2.57268548 5.41434097
8.62880039 2.42720413 5.48143339
8.63026237 2.40083742 5.52179337
8.63029385 2.35977960 5.54114056
8.75388527 2.85518456 6.00191069
8.87521267 2.81276202 5.68268394
8.93630600 2.82650256 5.68127632
8.71240807 2.57268548 5.41434097
8.75538063 2.57571220 5.38800621
8.73365498 2.55743241 5.39876223
8.70643234 2.54731131 5.41391659
8.76472378 2.52694869 5.39260435
8.99953175 2.93310308 5.88803053
8.70989418 2.52923870 5.42354727
8.60396290 2.37943888 5.55201674
8.58355427 2.76772070 5.99168348
8.56581497 2.75644231 5.99831676
8.57719898 2.74048305 5.91811705
8.67407322 2.56603503 5.43372583
9.13434029 2.80727315 5.60148430
8.60193825 2.42429590 5.50450611
8.57704735 2.39940691 5.57201672
8.86426163 2.77940631 5.62942600
9.04669571 2.87888575 5.83427191
9.03807259 2.91266274 5.85006905
9.07026482 2.89174676 5.83862925
9.01370907 2.83353186 5.66805124
8.68468952 2.64988637 5.52408648
8.54477215 2.72113609 5.90576363
8.79903793 2.65922165 5.47059250
8.81976795 2.70711875 5.55015087
8.87439823 2.71193457 5.52881289
8.73149872 2.83946180 5.93432570
9.00575638 2.89480305 5.86478376
8.56081200 2.44925475 5.53717089
8.69729424 2.63466525 5.46025610
8.72848606 2.64435935 5.46165228
8.75590992 2.63619542 5.42538977
8.72072792 2.84061980 5.98651218
8.94697094 2.84353232 5.71743488
9.01178837 2.91908050 5.86392307
8.76752377 2.64637566 5.45908928
8.65292931 2.65664935 5.57261181
8.67165852 2.64348197 5.50273895
8.83245659 2.75780535 5.60778046
8.55413055 2.70528817 5.80663013
8.57277107 2.69344568 5.74160480
8.86492348 2.83882141 5.74889565
8.68408680 2.81654859 5.93425465
8.54385281 2.71092606 5.85632753
8.53771687 2.42645025 5.56680632
8.66962433 2.63170552 5.48270559
8.98764324 2.69745183 5.45645714
9.05738926 2.70968604 5.46452904
8.64435768 2.60243583 5.49479008
8.51587772 2.69041610 5.83357763
8.83517647 2.82359266 5.73522711
8.98805332 2.91570044 5.87112141
8.65599155 2.58095407 5.45580912
9.12305927 2.76652288 5.53609276
8.63644123 2.63585377 5.51107788
8.98464680 2.88950992 5.86695862
8.54700565 2.40981197 5.59299994
8.65599155 2.58095407 5.45580912
8.77791595 2.71672130 5.60045338
8.60201931 2.64171100 5.56125879
8.65074921 2.59136081 5.47902298
9.05633354 2.76914310 5.54360867
9.05167103 2.75786734 5.52819777
8.92754269 2.69699574 5.47589684
8.64110756 2.54476810 5.46045876
9.09366703 2.98605537 5.89065123
8.80866814 2.80243564 5.71273565
8.69251347 2.70429540 5.63468027
8.47429180 2.68636918 5.90913582
9.00964928 2.73056030 5.51823711
8.50460529 2.70711875 5.93871403
9.07047462 2.99492598 5.89487076
8.77783298 2.78413677 5.70149755
8.59486675 2.66869640 5.65499258
8.62923336 2.69750643 5.68269396
8.65814018 2.68832469 5.63299942
8.95265198 2.96365762 5.92892027
8.93815041 2.94029355 5.95367432
8.94549084 2.97929239 5.95372581
8.96019650 2.93150902 5.92304993
9.06103992 2.73570538 5.51316929
8.65074921 2.59136081 5.47902298
8.61516285 2.57465196 5.48064375
8.95163822 2.89411068 5.90390539
8.96112251 2.91557884 5.89470816
8.79090977 2.76088381 5.63859749
8.57253838 2.67288303 5.68864346
9.05359459 3.00651670 5.88425589
8.77951813 2.73675609 5.63085127
8.78634834 2.82528234 5.78429317
8.97325325 2.72382808 5.51767683
9.02397537 3.00857520 5.90505409
8.76400471 2.80259585 5.75568390
8.64096069 2.71911478 5.72721624
8.72895718 2.49737835 5.41138840
8.94188118 2.91784596 5.91339397
8.91756439 2.91634631 5.93859768
8.53088093 2.64413977 5.66832829
8.92808914 2.89017677 5.91904116
8.58616543 2.64570284 5.60797596
8.70512676 2.46283913 5.42484331
9.02705669 3.00422716 6.00269222
9.05381966 3.01296067 5.98558664
9.09744358 2.96053624 5.86030769
9.00220108 3.00260878 5.95426464
9.03943443 3.01774669 5.94450903
8.90368843 2.91284299 5.96154118
8.59083652 2.59788871 5.54179955
9.00716591 3.00605822 6.01924086
9.11428070 2.98681092 5.87645626
8.75006294 2.72538042 5.63862467
8.60109234 2.63448405 5.54460955
9.09366703 2.98605537 5.89065123
9.02298641 3.01759648 6.06372499
9.07678223 2.96903610 5.86806774
9.06783485 2.93791986 5.86152554
9.06479073 2.98808503 5.88149977
8.99241829 3.01111674 5.92246914
9.07047462 2.99492598 5.89487076
8.50693417 2.65084577 5.72672796
8.57438374 2.62957335 5.56590939
8.93025303 2.98482680 5.97286558
8.93127728 2.96682429 5.95743036
8.93025303 2.98482680 5.97286558
8.92456818 2.98713017 5.98680258
8.92678547 3.00469518 5.99188614
8.99241829 3.01111674 5.92246914
8.96634579 2.96116710 5.91678905
8.49649334 2.67371559 5.80725908
8.92824078 2.71567583 5.51659489
8.91903305 2.93206811 5.97294140
9.02220535 3.01188254 5.93455410
8.91700172 2.95076013 5.98123217
8.65981579 2.81102276 5.98062134
8.92456818 2.98713017 5.98680258
8.99241829 3.01111674 5.92246914
9.07967567 2.90815544 5.83894920
8.97369003 2.98096347 5.91689491
8.95335579 3.01817775 6.02823544
8.93009472 3.00701022 6.01549911
8.93348503 3.00994229 6.05170250
8.97507763 2.99314857 5.93122625
8.56401539 2.57870841 5.53322268
8.90926552 2.99830198 6.00796509
8.72094631 2.72573042 5.66382313
8.90305710 2.98781085 6.03051424
8.58612537 2.54709792 5.50609446
8.96764469 2.95426130 5.90740967
8.46901608 2.67359400 5.86533737
8.89979172 2.96243167 6.01459360
8.90208435 2.93160748 6.00176048
8.55476856 2.56497478 5.53561592
8.90926552 2.99830198 6.00796509
8.96913528 2.93160963 5.90739298
8.59083652 2.59788871 5.54179955
8.97507763 2.99314857 5.93122625
8.99950981 3.00020289 5.97112894
8.88907433 2.91421580 5.99314976
8.63001633 2.79479861 6.00727177
9.13105869 2.84654236 5.69486475
8.69422626 2.74015307 5.71142054
8.99236012 3.01859188 6.04547071
8.95922184 2.99878764 5.99193954
8.53871918 2.63105035 5.60508919
8.96074581 2.99065185 5.96650553
8.66831112 2.73352695 5.73470306
8.94549084 2.97929239 5.95372581
9.12040997 2.81955051 5.62193060
8.51356888 2.63660693 5.65147924
8.55275154 2.59715867 5.57972717
8.64412308 2.74224710 5.78329945
8.81165791 2.38318968 5.41234350
8.76037788 2.10324788 5.56164789
8.79385662 2.12704659 5.54226685
8.83309841 2.11026239 5.52029181
9.09068775 1.87805784 5.47995377
9.02975655 1.79698777 5.48863173
9.03094387 1.88106322 5.48503065
8.59431171 1.73266971 5.75428295
8.56678581 1.76707602 5.79880714
8.59608459 1.81409609 5.75790930
8.79534435 1.99706519 5.56684160
8.77000237 2.03517747 5.58135509
8.80095768 2.06306076 5.55798864
8.75498867 2.14040589 5.56845999
8.79084396 2.15562415 5.54336691
9.16063595 1.83499181 5.48373652
8.98811913 1.83496106 5.49444103
8.96965408 1.88272691 5.49467134
9.15277481 1.76867843 5.48289490
8.83483410 2.01080871 5.54352570
8.56524754 2.03660512 5.79123640
8.52703476 2.07403302 5.85289431
8.56166267 2.07680202 5.78497648
8.54971027 2.00550771 5.82773209
8.76236534 2.29885912 5.49008131
8.77029133 2.34760094 5.45260525
8.80433559 2.29670334 5.46976185
8.57947159 2.27606487 5.65863943
8.58101463 2.30525351 5.63100338
8.63238621 2.25877929 5.61178875
8.57203865 1.97115839 5.78667164
8.83818340 1.95541239 5.53961420
8.79545212 1.94970036 5.56260920
8.61671638 1.96753621 5.72052479
8.64532185 2.00672936 5.68747187
8.67965794 1.96380711 5.64984322
9.11498547 1.82717896 5.48243999
8.96570587 1.92382586 5.48707247
8.58540154 2.25582719 5.66470194
8.74752426 2.06917191 5.58912611
8.67880154 2.00487781 5.65174675
8.69715214 2.06271338 5.62982035
8.72737694 2.01101303 5.61032438
9.02246952 2.07304430 5.48303318
8.99393940 2.04604149 5.49021435
8.99281120 2.08697462 5.48370790
8.76633072 2.38490319 5.43465948
8.77029133 2.34760094 5.45260525
8.71333027 2.37408638 5.46885967
8.80630779 1.91849256 5.54667664
8.61671638 1.96753621 5.72052479
8.67965794 1.96380711 5.64984322
8.63311768 1.92597950 5.69168139
8.55064106 2.19053459 5.73725653
8.58540154 2.19088268 5.68951082
8.58950710 2.17576432 5.70767879
8.70052147 2.10266662 5.60488653
8.52192497 2.01029587 5.88827944
8.71813679 2.34073734 5.48809338
8.57456207 2.20915604 5.68696833
8.53886414 2.21614289 5.73490191
8.58697224 2.22621417 5.67006922
9.15589523 1.91835606 5.47537613
8.71278477 2.13465714 5.60038614
9.06985664 1.91480625 5.47494125
8.69480133 1.92864883 5.62771702
8.53034115 1.96291709 5.87282181
8.66388512 2.04755783 5.66290331
9.07917500 1.78415716 5.48430681
8.99149704 2.20850921 5.43278360
8.99621296 2.18169451 5.45642471
8.92092896 2.17802978 5.47343349
8.64191723 2.10238194 5.65801954
8.58781528 2.10455918 5.72224951
8.63298607 2.13825727 5.67194986
8.63904190 2.22865319 5.61271858
8.59455872 2.14937878 5.71877289
8.76236534 2.29885912 5.49008131
8.55883694 1.91810775 5.80589247
8.70052147 2.10266662 5.60488653
8.76037788 2.10324788 5.56164789
8.74752426 2.06917191 5.58912611
8.76342487 1.96108663 5.58593082
9.05109692 1.69296432 5.48206282
9.01535416 1.75197566 5.49081564
8.72868156 1.96041608 5.60960054
8.53841114 1.90593970 5.84847784
8.94058704 2.15464187 5.47852516
8.98661423 2.14953494 5.46996546
9.11207485 2.14523911 5.45710373
8.72737694 2.01101303 5.61032438
9.10553455 2.11127806 5.45994616
8.71238995 2.17957878 5.58248520
8.65733147 2.19319844 5.60891485
8.72585869 2.21200991 5.54335165
9.14089298 2.07835722 5.47525311
8.51510906 1.91929114 5.90625191
8.81619167 2.25855589 5.48333788
8.75806427 2.25594425 5.51562929
8.69327354 2.22498918 5.56442499
8.90563869 2.20519757 5.45546389
8.94510555 2.21369004 5.44153357
8.70000744 2.31868386 5.51702547
9.13008881 1.71209276 5.47947359
8.50328732 2.07483935 5.91541672
8.78955078 2.21281719 5.50098515
8.55375576 2.17150998 5.76353168
8.56443024 2.13915777 5.76388264
8.69769478 2.28561521 5.54181385
8.63311768 1.92597950 5.69168139
8.58408642 1.93132329 5.76198530
8.74349403 1.91858137 5.58737516
8.66107082 2.33974624 5.53097248
8.68815041 1.90399599 5.63626814
8.52033424 2.19970155 5.76992083
8.50690079 1.99214101 5.93893099
8.49766254 2.02056384 5.96513414
9.05329990 2.00917506 5.48188353
8.51822758 2.21773672 5.76651525
8.51950836 2.25404096 5.75692511
8.98546505 1.99778867 5.49264479
8.91570568 2.10929441 5.48901892
8.99053574 2.10978699 5.47080898
8.72856998 1.87326586 5.61036634
8.70279503 1.84606326 5.63388729
9.07334423 2.15655494 5.45752287
8.69375134 2.15361714 5.61214352
8.65865898 2.17031336 5.63476276
8.91018009 1.87401140 5.51143551
8.68815041 1.90399599 5.63626814
8.63216686 1.89540029 5.69881868
8.64497185 1.86601818 5.69188118
8.84578609 2.19673729 5.48561573
8.90563869 2.20519757 5.45546389
8.92092896 2.17802978 5.47343349
8.50345898 2.22462320 5.79315090
8.50901222 2.18239403 5.82260036
8.69715214 2.06271338 5.62982035
8.66068554 2.21005583 5.60492706
8.65934944 2.29574680 5.56352854
8.70279503 1.84606326 5.63388729
8.84884167 2.16994643 5.50676680
8.89779282 1.91788912 5.50693560
8.62426853 2.21076417 5.62821054
8.84884167 2.16994643 5.50676680
8.89668369 2.14675093 5.49338245
8.72811317 1.80204391 5.61206484
8.67563915 1.80025196 5.66009760
8.53371143 2.15223598 5.81139183
9.07903290 1.96072149 5.47787571
9.00651550 1.96331728 5.48671961
8.70553017 1.73132610 5.63085794
8.49926376 1.95104706 5.96972895
9.09182262 2.08149958 5.47414684
8.85841942 2.14586973 5.50851107
8.56062222 1.85648131 5.81526136
8.59509087 2.06765199 5.73764706
8.59703922 2.01064038 5.74558592
8.91779327 2.08398962 5.50151205
8.84761429 2.21214437 5.47776079
8.75806427 2.25594425 5.51562929
8.68756676 2.25884557 5.56310225
8.67563915 1.80025196 5.66009760
8.93000031 2.04149413 5.50661182
8.53726768 1.86029649 5.86387300
9.09517765 2.04620028 5.47873497
8.84082794 1.87986243 5.53585243
8.82577038 1.84414554 5.54667425
8.78955078 2.21281719 5.50098515
8.62314892 2.17130923 5.67180014
8.78483486 1.86536324 5.56968212
8.81479263 2.17834044 5.52058220
8.84578609 2.19673729 5.48561573
8.65378952 1.74441540 5.68103552
8.70553017 1.73132610 5.63085794
8.81416702 1.75549614 5.55537081
8.86180782 1.78262615 5.53216887
8.93472862 1.79701269 5.50682163
9.03808117 2.14066219 5.46338463
8.55780506 2.09779215 5.77299738
8.59058857 2.33482647 5.59741020
8.54693604 2.34390807 5.63782120
8.54928112 1.78209066 5.83300781
9.05660725 2.10800695 5.46408701
8.89154816 1.84096169 5.51914883
8.55447483 2.26421332 5.70016718
8.52101231 2.32655835 5.68448353
8.85674095 2.10345602 5.51184225
8.62202549 2.30791283 5.58694458
8.93630695 1.73567617 5.50677919
8.85844898 2.07878423 5.52585506
8.52358437 1.80878460 5.89254141
8.63298607 2.13825727 5.67194986
8.52481174 1.76118946 5.88372517
8.52196026 2.11009455 5.83342552
8.88812447 2.00725412 5.51979256
8.59467983 1.90644002 5.74643993
8.51770878 1.86892056 5.91010761
8.95694733 2.25371146 5.43538332
9.18783855 2.04019475 5.48207188
8.50413322 1.85178423 5.95783043
8.93194103 1.95882893 5.50337982
8.69375134 2.15361714 5.61214352
8.77182102 1.78395355 5.57884359
8.49295235 1.92027390 5.98462820
8.78264618 1.69645071 5.57203436
8.48139000 2.18081570 5.88904285
8.52110386 2.27941251 5.73318338
8.86801147 2.31845856 5.42852116
8.87482643 2.28845406 5.44419003
8.88365746 1.96443772 5.51972198
8.75750637 2.19854212 5.53064680
9.12804413 2.02217889 5.47946262
8.81479263 2.17834044 5.52058220
8.63662815 2.07494020 5.68301392
8.75750637 2.19854212 5.53064680
8.76549339 2.17642856 5.55105877
8.74518585 1.71505904 5.59696054
9.16443920 1.97707236 5.48017836
8.50031090 1.79132760 5.96494389
8.57314968 2.36681104 5.58964682
8.63315678 1.81065989 5.70847368
8.82157326 2.34594607 5.42906809
8.84153557 2.05500603 5.53770781
8.53191376 2.39771795 5.62335634
8.50293541 2.37020493 5.66939068
8.49844456 2.14522529 5.88946152
8.50598812 2.15642548 5.86360264
9.12409210 1.94449556 5.47503901
8.89264870 2.26010633 5.45159388
8.72585869 2.21200991 5.54335165
8.48438454 2.15298724 5.92771959
8.50002670 2.10064316 5.88922834
8.84761429 2.21214437 5.47776079
8.76549339 2.17642856 5.55105877
9.03848934 2.18268180 5.44859838
8.59905720 1.85837448 5.75178385
8.75498867 2.14040589 5.56845999
8.48174572 2.10180950 5.95332336
8.62201309 1.71685815 5.71752548
8.49958897 2.41189504 5.64926004
8.48456573 2.42665720 5.62940931
8.50655937 2.60177755 5.64172268
8.46887970 2.59370136 5.69489765
8.48410511 2.62292743 5.68211699
8.52771473 2.48796511 5.57249498
8.43890953 2.40552759 5.74777126
8.39490509 2.42905998 5.77622747
8.41285038 2.42790818 5.73396254
8.39489460 2.56216431 5.77738476
8.38214493 2.52347636 5.80314064
8.37925911 2.56413484 5.81573391
8.45129013 2.59780312 5.73420811
8.42819595 2.59298468 5.77712822
8.44761658 2.62884212 5.75242901
8.44488335 2.67024541 5.90948725
8.43671322 2.67901516 5.95883226
8.46890545 2.57528543 5.65373564
8.49537849 2.58911610 5.64437342
8.48966789 2.39750504 5.67680836
8.43942642 2.55654383 5.68684149
8.44065857 2.57491088 5.69433594
8.37925911 2.56413484 5.81573391
8.38214493 2.52347636 5.80314064
8.36377621 2.53797436 5.86021948
8.52700233 2.44326472 5.57295132
8.46660805 2.43286777 5.64766026
8.44161510 2.42311406 5.69149542
8.43603230 2.45967364 5.69319916
8.47174263 2.55427408 5.63601589
8.46343708 2.52134466 5.65680933
8.43942642 2.55654383 5.68684149
8.52264404 2.54516673 5.57292509
8.45289040 2.65497899 5.84142303
8.41770649 2.64157891 5.85950947
8.43922520 2.65388632 5.87429333
8.42968941 2.52950263 5.70901728
8.40579033 2.62916780 5.85266161
8.40262222 2.63932586 5.89118624
8.47570896 2.65028048 5.78000689
8.39273930 2.62984467 5.90263748
8.36377621 2.53797436 5.86021948
8.35094738 2.53470969 5.91062117
8.35399342 2.54233050 5.90617943
8.36310768 2.47646451 5.84602642
8.34930229 2.47268057 5.89036846
8.45534801 2.47725248 5.66344595
8.48651028 2.46012950 5.62003946
8.34506798 2.52000451 5.91919041
8.47174263 2.55427408 5.63601589
8.36435604 2.43879509 5.85246181
8.41210461 2.50241709 5.73614502
8.51200867 2.52667308 5.59204483
8.51200867 2.52667308 5.59204483
8.56264400 2.52625084 5.53702736
8.41169930 2.56587768 5.73752213
8.42863846 2.57707334 5.72450686
8.39154530 2.63003397 5.90984678
8.39154530 2.63003397 5.90984678
8.38888264 2.59684610 5.89656115
8.38536644 2.59506226 5.91259480
8.43595123 2.63736916 5.80342054
8.50435925 2.62484217 5.64990616
8.40551186 2.59679532 5.84006453
8.52749062 2.57629204 5.57348633
8.41557217 2.57929683 5.75494242
8.37839413 2.40611672 5.87539721
8.36280251 2.42512655 5.85552692
8.40357208 2.40296340 5.82104874
8.49345875 2.63390541 5.68394375
8.52749062 2.57629204 5.57348633
8.42182064 2.62822366 5.81614017
8.39171124 2.37362337 5.87050867
8.47302055 2.62676930 5.70715475
8.47388554 2.63615656 5.72588444
8.39302444 2.46878839 5.77185345
8.38504791 2.44619131 5.79225922
8.37932014 2.58144474 5.84553909
8.41919231 2.59525704 5.80571938
8.41169930 2.56587768 5.73752213
8.40430355 2.52687216 5.75642252
8.36875057 2.40402484 5.91792870
8.45086765 2.41284442 5.72045755
8.40875626 2.58147144 5.78455973
8.47013187 2.36093283 5.71883345
8.39095497 2.57332563 5.79904890
8.40430355 2.52687216 5.75642252
8.35655308 2.57687068 5.90383482
8.39489460 2.56216431 5.77738476
8.48967838 2.57335854 5.61671352
8.35798073 2.57772923 5.91280937
8.34718132 2.42394638 5.90722036
8.33785152 2.47424889 5.93680239
8.36629581 2.56640863 5.86016273
8.43409157 2.39054894 5.76619482
8.49935818 2.56666279 5.59980774
8.41801357 2.37749743 5.80391741
8.49935818 2.56666279 5.59980774
8.35566998 2.54750299 5.91230011
8.47174263 2.55427408 5.63601589
8.48779678 2.20018649 5.82359743
8.42416191 2.35133719 5.81799555
8.39582539 2.35184550 5.88995504
8.45655251 2.35203671 5.75103426
8.40685558 2.31642580 5.94631577
8.40534306 2.33498716 5.89720917
8.43046856 2.30374050 5.88532209
8.45877075 2.19994330 5.89166689
8.45058441 2.19495392 5.93643951
8.46856403 2.27892280 5.82773972
8.47798443 2.24857664 5.83491421
8.43924236 2.20439458 5.96061802
8.45291424 2.24850225 5.89930725
8.48781967 2.33665252 5.71927643
8.44285679 2.27903748 5.89595699
8.44775009 2.31501031 5.81948233
8.47704792 2.30612803 5.77269173
8.46780396 2.17207193 5.95335674
8.43449116 2.24516821 5.97852755
9.12186527 1.17285478 5.40769672
9.06775475 1.13366616 5.38140821
9.08222961 1.19250441 5.42814207
9.03431129 1.14824104 5.39597702
9.05916119 1.16388965 5.40429640
9.02837658 1.19627905 5.43904114
9.16146183 1.21275485 5.45068502
9.12929726 1.22358811 5.46357965
9.18003273 1.17048967 5.41009521
9.14575386 1.13404799 5.38122606
9.22684765 1.14236891 5.39789534
8.98712349 1.17329025 5.42417955
8.98063946 1.10547101 5.38169479
8.93483829 1.13142490 5.40786695
9.18760204 1.12540317 5.37924576
9.09376335 1.06455886 5.34889555
9.15856838 1.08016825 5.35495615
9.13445091 1.04405582 5.34176350
8.97051620 0.80835521 5.38412619
9.02696323 0.75294435 5.39942074
8.98840427 0.78049654 5.39798355
9.01028538 0.85257012 5.35220385
9.03379631 0.86684531 5.34357071
9.09595299 0.83834052 5.34216213
9.01124763 1.03347409 5.34995604
8.94221306 1.09027743 5.38431263
8.99407959 1.06964123 5.36435127
8.92264843 1.01794016 5.37284756
8.86343479 1.02000201 5.39889383
8.88999367 1.06081688 5.39301443
8.94718552 1.04281068 5.36863327
8.90724564 1.07927310 5.39456511
9.07446671 1.00838268 5.33668470
9.21227741 0.79987270 5.37264156
9.18323231 0.77573615 5.37302971
9.19173145 0.62243968 5.44603157
9.21164417 0.56889731 5.49410295
9.16904831 0.83330745 5.34800434
9.19884014 0.85537046 5.34673262
9.18323231 0.77573615 5.37302971
9.14570427 0.76694322 5.36838722
9.06502628 0.77216405 5.37537956
9.08090115 0.80201554 5.35690022
9.09293461 0.71730018 5.39086294
9.12514400 0.96382099 5.32989502
9.19568062 0.96058589 5.33521080
9.16525364 0.91490996 5.33357573
8.92678547 0.97061318 5.36785984
8.86117554 0.97281295 5.39532948
9.15943623 1.00219154 5.33561611
9.20741558 1.02940965 5.34582901
9.15491199 0.66729105 5.40991592
9.20612431 0.68574792 5.42625427
9.15075016 0.71824741 5.38902092
8.85136414 1.06734502 5.41515827
8.93658638 0.87943739 5.36990166
8.93711185 0.81550437 5.39433146
9.12338734 0.75744146 5.37048626
9.20734310 1.06588519 5.35522175
9.01434898 0.81110322 5.36944628
9.09581280 0.90414119 5.33138084
9.08164406 0.96130300 5.33064890
9.17988491 0.58772629 5.45416212
9.12118530 0.87913543 5.33513975
9.02100372 0.98978680 5.34073973
8.97135639 0.91401124 5.35158062
8.90972424 0.92553365 5.37388229
8.98273468 0.98441535 5.34805298
9.19884014 0.85537046 5.34673262
9.16904831 0.83330745 5.34800434
8.90972424 0.92553365 5.37388229
8.97135639 0.91401124 5.35158062
9.03134155 0.92723244 5.33604574
9.03379631 0.86684531 5.34357071
9.15491199 0.66729105 5.40991592
9.21928406 0.76120752 5.39757633
9.11503887 0.67815638 5.40177822
8.94910622 0.75517917 5.43491220
9.00963688 0.72370112 5.42323494
9.09595299 0.83834052 5.34216213
9.07559872 1.09444177 5.36134100
8.86117554 0.97281295 5.39532948
8.85746574 0.91728473 5.40125656
9.07961655 0.62725520 5.42572594
9.14788342 0.59767884 5.43567371
9.11412525 0.63717562 5.41475964
9.14788342 0.59767884 5.43567371
9.12592411 0.56485444 5.44946384
9.09145069 0.59428841 5.43399048
9.19744301 0.72631490 5.40271187
8.89856148 0.85135257 5.39840126
9.03608799 0.68624616 5.42725849
8.90161800 0.80655545 5.42108297
9.14424801 0.55959719 5.45696783
9.02688980 0.65808421 5.44387579
9.14424801 0.55959719 5.45696783
9.05360985 0.60149437 5.44736624
9.08350182 0.56953973 5.44990253
8.86315536 1.10108113 5.42179489
8.59902287 1.20224369 5.70129061
8.60315800 1.17014062 5.66118765
8.55248547 1.17493677 5.73190880
9.08124065 1.39403462 5.59203625
9.13438511 1.40262330 5.56966400
9.08124065 1.39403462 5.59203625
9.15321541 1.39869308 5.58016539
9.12765026 1.36671376 5.63489246
8.92166615 1.18749034 5.45918512
8.91358662 1.14421213 5.42356443
8.85256100 1.18088138 5.47869349
8.73753166 1.32661128 5.80810118
8.77508450 1.33036458 5.77339172
8.74489880 1.30852568 5.78828859
9.08188057 1.41166437 5.55924892
9.00352573 1.42733109 5.55475283
8.96055031 1.41378188 5.58025122
8.95183659 1.43813038 5.55822277
8.59845734 1.63361597 5.74724817
8.56812954 1.59965253 5.79632425
8.56838322 1.67603874 5.79093409
9.00013065 1.40826595 5.57875443
8.57711697 1.13883615 5.67109966
8.91946316 1.39427876 5.63410950
8.94519711 1.38040805 5.66138363
8.88630390 1.37937129 5.68460989
8.71792412 1.28272223 5.76076937
8.69952106 1.29269540 5.80745077
8.54488945 1.13499010 5.71578884
8.89945889 1.21629310 5.50027895
8.54703140 1.58312547 5.84066391
8.56979179 1.52811635 5.81907082
9.08893871 1.44760251 5.52681684
9.11732960 1.42110598 5.54741240
8.71764565 1.31590605 5.82476711
8.54540253 1.53753400 5.86123562
9.04108524 1.44907737 5.52895260
8.51455402 1.14728081 5.77163124
9.03790188 1.41221249 5.56587648
8.58016300 1.22074294 5.75446892
8.61350060 1.25842416 5.79982567
8.60866261 1.23226321 5.74152899
8.86234379 1.13812387 5.44163370
8.83340549 1.26927352 5.63104630
8.80647564 1.25305450 5.60688877
8.77400303 1.26992953 5.66550159
9.02205944 1.22779822 5.48404789
9.05549145 1.23204827 5.48553514
9.08404541 1.21659815 5.45835590
8.87220764 1.40034628 5.64599323
8.76928520 1.23246074 5.59414148
8.97803593 1.68738914 5.49424648
8.76532173 1.62642801 5.58389854
8.71830082 1.61679578 5.61892176
9.17747116 1.65466106 5.48130417
8.73228550 1.24327254 5.63896561
8.73616219 1.35130405 5.81135368
8.70648193 1.36740589 5.85240793
8.93861485 1.36179149 5.67468786
8.56707478 1.23736835 5.81756592
8.86127949 1.36172318 5.70829582
9.15439987 1.24646127 5.50601959
8.54656315 1.63329887 5.82998466
8.53334045 1.21508086 5.82064199
8.79839993 1.58956969 5.56617498
8.84838963 1.61314404 5.53695965
8.81874752 1.54474616 5.56092072
8.84993172 1.38309944 5.70397615
9.01836014 1.25251389 5.52890396
8.82333946 1.15127051 5.46876955
8.78134441 1.29061198 5.72308874
8.79855633 1.28271520 5.69121122
8.52642345 1.56186008 5.89153051
8.72270966 1.25977468 5.68445158
8.69195747 1.28220475 5.78240728
8.97078133 1.20832479 5.46705389
8.67801952 1.54315650 5.66868925
8.63878250 1.59535480 5.70187473
8.67612171 1.61597562 5.65892982
8.92439175 1.34267890 5.68298864
8.51956940 1.18881953 5.80265617
8.91746998 1.28451359 5.64083958
8.95047855 1.30546319 5.67226744
8.95675278 1.28444481 5.62663937
8.92671299 1.31226420 5.67903614
8.88941860 1.29233778 5.66806412
8.97522163 1.31971967 5.67091990
8.72493267 1.21675324 5.59928656
8.84740639 1.51385772 5.55634594
8.78564835 1.50512934 5.59456253
8.67937374 1.22544324 5.64941072
8.65959644 1.49887788 5.70737362
8.62898254 1.53915858 5.72667074
9.14839554 1.26786482 5.55069780
8.87952137 1.51272225 5.54252720
8.89538574 1.47945869 5.54989433
8.82959652 1.47514248 5.58340979
8.68147659 1.30269217 5.85793018
8.95057201 1.23152208 5.50814962
8.89909267 1.68860388 5.51575089
9.10513306 1.24405909 5.50234365
8.66444492 1.29241800 5.84644365
8.59127140 1.48576272 5.81324673
8.89081669 1.30755997 5.68744755
8.95638084 1.62575769 5.49751329
8.55295753 1.48784161 5.88544750
8.59125614 1.46023858 5.84060907
8.85421753 1.44586539 5.58986092
8.71475887 1.26779008 5.71533012
8.63273907 1.42706919 5.82100582
8.65853310 1.41966772 5.79907465
8.64307499 1.41197479 5.84818459
8.88607693 1.24779010 5.55795431
9.14814472 1.27749324 5.58951378
8.69691849 1.18094039 5.57785463
8.75816345 1.20112348 5.55412912
8.69691849 1.18094039 5.57785463
8.75816345 1.20112348 5.55412912
8.75460911 1.16476691 5.52108145
8.85229874 1.22208810 5.52825928
8.86667347 1.33449316 5.70806980
9.00982189 1.61921287 5.48718691
8.72004128 1.13492751 5.52572584
8.60504913 1.42141521 5.89948130
8.63141823 1.40621686 5.91307402
8.60738850 1.58113253 5.74443913
8.59001064 1.44384313 5.86636829
9.14814472 1.27749324 5.58951378
9.09216309 1.26781583 5.55253077
9.10091209 1.28217173 5.60131121
8.66604042 1.39225209 5.90429401
9.13213062 1.29073644 5.61639690
9.05261040 1.26424217 5.55070734
9.01836014 1.25251389 5.52890396
9.03688335 1.27205503 5.57069635
9.05261040 1.26424217 5.55070734
8.68509197 1.12703288 5.54979229
8.68344593 1.27186382 5.74763250
8.84990501 1.30040836 5.70144176
9.11186886 1.66965306 5.47788668
9.13082218 1.60571539 5.48076296
8.95795536 1.56834936 5.50087595
8.92117691 1.60152233 5.50739431
8.78564835 1.50512934 5.59456253
8.85421753 1.44586539 5.58986092
8.78020668 1.45476389 5.62670851
8.81152439 1.30771363 5.73187876
8.82597446 1.23600340 5.56670856
8.88607693 1.24779010 5.55795431
8.85229874 1.22208810 5.52825928
8.99655247 1.27807689 5.60089493
9.01459503 1.29095542 5.62784863
8.97877312 1.26672852 5.57008410
8.89239979 1.63871086 5.51559782
8.69382000 1.48804152 5.67633915
8.64535713 1.14527810 5.59589100
8.65983200 1.18343413 5.61156273
8.64535713 1.14527810 5.59589100
8.50638485 1.57600164 5.94175339
8.51091099 1.62113202 5.91626835
8.78776169 1.20510256 5.53982449
8.97206020 1.24940360 5.53581810
8.76226234 1.54069293 5.59824133
8.59606266 1.41789293 5.94612360
8.65336037 1.38475990 5.93853140
8.94292164 1.25843215 5.56152630
8.64734364 1.10929561 5.57557011
8.68428421 1.36606300 5.88674879
8.68644810 1.38905096 5.86947536
8.52669430 1.51075053 5.92656660
8.90705872 1.26844394 5.59645033
8.72153950 1.45725596 5.67281914
8.73623943 1.49133623 5.63610125
8.68816280 1.20837200 5.61797953
8.97206020 1.24940360 5.53581810
8.62304211 1.39319324 5.99749088
8.58078289 1.41745865 5.99461460
8.88217354 1.57106030 5.52627420
8.50315094 1.54514313 5.97693586
9.09216309 1.26781583 5.55253077
8.64263916 1.38346303 5.97106647
8.70320415 1.44680214 5.70010805
8.68668652 1.32612920 5.87710333
8.56738472 1.44616234 5.92485428
8.64313698 1.46068120 5.75398397
8.63377762 1.19816458 5.65524530
8.87124634 1.26095724 5.59445429
8.54368687 1.45886302 5.96332407
8.65209961 1.43992174 5.76726437
8.64125252 1.22288787 5.68637371
8.73623943 1.49133623 5.63610125
8.79014206 1.14132178 5.48051405
8.64124966 1.29380047 5.90394831
8.71276474 1.54165721 5.63582850
8.52199268 1.49787807 5.96469975
8.62963104 1.31181610 5.98581553
8.65528774 1.30931723 5.91364002
8.84849453 1.71236145 5.53681564
8.61500454 1.29506612 5.96997404
8.80037403 1.17165387 5.49802351
8.65753651 1.32627070 5.93642759
8.66146564 1.35400355 5.93245983
9.16936684 1.37088335 5.63216209
9.00873756 1.57677007 5.49132633
9.05412960 1.54882395 5.48969698
9.14092636 1.34155738 5.64818239
8.76226234 1.54069293 5.59824133
8.71276474 1.54165721 5.63582850
8.60822964 1.52322125 5.76016998
9.13603973 1.30866754 5.64721918
9.20436954 1.33857691 5.65530205
9.21284676 1.30398345 5.65341902
8.61773491 1.27489603 5.85281181
8.65076447 1.27809095 5.81914520
9.14092636 1.34155738 5.64818239
9.14815331 1.29645658 5.63700771
8.97846699 1.52443194 5.50586414
8.80218315 1.35650408 5.75012732
9.03377724 1.49055660 5.51004076
9.08747673 1.50177145 5.50123405
8.64734364 1.10929561 5.57557011
8.58814144 1.10779893 5.64338112
8.64535713 1.14527810 5.59589100
8.59073353 1.27337420 5.89141798
8.83246803 1.64465249 5.54331923
8.81177330 1.38505149 5.72699642
8.76736259 1.43342113 5.65930653
8.78776169 1.20510256 5.53982449
9.09635067 1.37041795 5.63135815
9.12765026 1.36671376 5.63489246
9.09060287 1.34483588 5.64940786
8.83190060 1.39365900 5.68539858
8.78546906 1.40162623 5.70479393
8.76747799 1.39224875 5.74352598
8.58814144 1.10779893 5.64338112
9.10718918 1.29962695 5.63957787
8.63537312 1.32654369 6.00293398
8.63651752 1.34557331 6.01270342
9.08744144 1.63666618 5.47941828
8.75732231 1.41666532 5.69707918
8.58471394 1.28082287 5.95935726
9.07520962 1.31004977 5.64983940
8.69169712 1.40990865 5.77972078
8.71228313 1.42493105 5.72252083
8.76190853 1.37660205 5.77760315
8.94292164 1.25843215 5.56152630
9.08124065 1.39403462 5.59203625
8.74626541 1.38757455 5.77714109
8.98535633 1.47695875 5.52454138
9.08246994 1.59133196 5.48275185
9.05677891 1.36700284 5.64523649
9.03462791 1.38048923 5.62847185
9.03790188 1.41221249 5.56587648
8.67011642 1.67003262 5.66406679
8.54565334 1.26956427 5.99296331
8.53898811 1.25809240 5.95041323
8.54457855 1.23367906 5.84388018
8.81330872 1.33153772 5.74337769
8.93159962 1.54382789 5.51208973
9.05920601 1.30223668 5.64377975
8.56054974 1.25518715 5.88278294
8.67761612 1.24770904 5.69986153
8.90705872 1.26844394 5.59645033
8.76383877 1.12340987 5.48828840
8.63382339 1.64711952 5.70382214
9.03142643 1.33944905 5.65795994
8.71830082 1.61679578 5.61892176
8.50320911 1.19938469 5.85124159
9.00013065 1.40826595 5.57875443
8.50859165 1.22035575 5.88513756
8.64700031 1.25016797 5.73490047
8.90312290 1.41798937 5.59629107
8.82833004 1.42925954 5.62041330
8.77595901 1.30804491 5.75832272
9.00751400 1.37071192 5.65164614
8.98219299 1.39276421 5.61681318
8.81622219 1.70464861 5.55134344
8.83326340 1.41160226 5.64526749
9.01488972 1.31202960 5.65837860
8.51395702 1.23509896 5.91951323
9.11961174 1.56675768 5.48455763
8.98219299 1.39276421 5.61681318
9.15250397 1.49733317 5.50393438
8.82994270 1.40626955 5.66332722
8.54264069 1.69232094 5.83748007
8.99353886 1.30416906 5.65972042
9.15717316 1.44753182 5.52870893
8.51922417 1.67763722 5.89076424
8.92649746 1.45605981 5.55348253
8.73214722 1.37724471 5.81023645
8.83758163 1.28116822 5.66568422
8.90312290 1.41798937 5.59629107
8.96055031 1.41378188 5.58025122
8.70710087 1.38771009 5.82713509
8.95183659 1.43813038 5.55822277
8.51077080 1.71497333 5.92003632
8.55105591 1.09406614 5.69524717
8.50002575 1.67866874 5.95276880
8.49582291 1.60281599 5.97237778
9.20130825 1.28712225 5.61331606
8.51258945 1.10537887 5.75986719
8.88385391 0.69136596 6.02380705
8.92994118 0.68951762 6.01839828
8.90072155 0.68753004 6.04523039
8.98655033 0.61114228 5.52393341
8.99225807 0.61382359 5.50101757
9.00326157 0.58161056 5.50528193
9.00285339 0.65440089 5.86942816
9.02105427 0.66086841 5.89114523
9.00005436 0.66386634 5.89534616
8.85879230 0.68156952 5.76879644
8.87774563 0.67543429 5.80569506
8.85300446 0.69224733 5.79083109
8.99964523 0.66765916 5.89946318
8.67830658 1.08274603 5.53868246
8.90050507 0.77266598 5.44739103
8.86440086 0.80610418 5.45206404
8.90050507 0.77266598 5.44739103
8.94910622 0.75517917 5.43491220
8.91586971 0.74352133 5.46227074
8.97961426 0.65888590 5.87678814
8.82257462 0.71718860 5.90121555
8.80984688 0.72093505 5.91524076
8.82855320 0.71543062 5.87836218
8.92760181 0.59720218 5.69341421
8.91390991 0.61786664 5.64066744
8.93739319 0.57585955 5.65433836
9.08350182 0.56953973 5.44990253
9.08191681 0.53082108 5.47911406
9.05207253 0.54580271 5.48127890
8.78584862 0.72672266 5.88639545
8.80736256 0.72196323 5.85875845
9.05360985 0.60149437 5.44736624
8.82110596 0.85438001 5.46357870
8.86163616 0.83721191 5.43272924
8.86440086 0.80610418 5.45206404
8.91125107 0.65873712 5.81644917
8.91519165 0.66984296 5.84345055
8.88846684 0.68315893 5.83491230
9.08226395 0.66488057 5.93827248
9.09399319 0.66913188 5.92049074
9.10108662 0.66348374 5.92481184
8.85674095 0.70652556 5.89134693
8.87274837 0.69861186 5.90910196
8.86045837 0.70594609 5.92329884
8.77866745 0.72573149 5.91597462
8.88371181 0.69616443 5.88179970
8.91388226 0.68575728 5.88725424
8.90917110 0.69031537 5.90627241
8.79250336 0.72112960 5.93756866
8.82826138 0.71481973 5.93751001
9.05063248 0.67314821 5.92579269
9.06270981 0.66964042 5.92711401
9.05113697 0.65484440 5.93701220
8.67830658 1.08274603 5.53868246
8.68350697 1.03458893 5.52764225
8.64407825 1.06962156 5.57112598
8.90184498 0.63057977 5.70613241
8.92247391 0.61315435 5.72902107
8.89048862 0.65147310 5.74787855
8.86830330 0.69051462 5.81528330
8.86057854 0.69462484 5.83319712
8.87719059 0.76518464 5.47757864
8.90329647 0.69446814 5.92628479
8.88859177 0.69607878 5.93739033
8.94350147 0.58252347 5.71545267
8.88864136 0.66911936 5.81745434
8.59249401 1.05865622 5.63609982
8.53080463 1.04146421 5.73288441
8.55105591 1.09406614 5.69524717
9.01889801 0.66605949 5.91979218
9.03475189 0.67268425 5.92029095
9.01851463 0.65725666 5.93510342
9.00101089 0.66990232 5.93043852
8.90899658 0.68239200 5.86220407
9.01246357 0.65588778 5.94868231
8.94227314 0.60007238 5.74724960
8.98922920 0.66364050 5.92971039
9.00092983 0.66916978 5.91587925
8.73937607 0.74214017 5.89424753
8.74796104 0.74104697 5.87370253
8.97298145 0.67011869 5.91800547
8.84016037 0.80483413 5.48409319
8.75910854 0.73363501 5.92134619
8.57026005 0.99989390 5.68972635
8.63743210 0.97045034 5.61281586
8.60825539 0.97059321 5.66313076
9.21555710 0.55453110 5.51852608
8.96712685 0.67968541 5.93876934
8.97342968 0.66104335 5.95210457
8.90824890 0.72119802 5.49305916
8.95848942 0.67408776 6.01581383
8.97047520 0.65518576 5.96998739
8.97022247 0.66076833 6.00080109
8.81102943 0.96536314 5.42493677
8.88906670 0.64793724 5.66494417
8.51105309 0.92038405 5.88836956
8.49704838 0.94630718 5.88933802
8.53237820 0.90690744 5.86032820
8.87879276 0.69881433 5.95969009
8.57081604 0.99064052 5.70237923
8.61150455 0.96560037 5.68927908
8.58837986 0.97943395 5.71205044
8.86253548 0.69794101 5.86026382
8.85118675 0.70750910 5.95992517
8.86174393 0.69725162 5.98755121
8.75200653 0.72428447 5.94787216
8.56378746 1.00538361 5.73890352
8.59613323 0.93675083 5.72267056
8.95292282 0.68187976 6.02827454
8.96745872 0.66325819 6.03785229
8.56266212 0.96135199 5.75689936
8.80851460 0.92512554 5.43416739
8.97191906 0.65700066 6.05724335
8.95462418 0.67928118 6.09000111
8.87505913 0.66247606 5.69630909
8.64208031 1.03536737 5.57491541
8.69963932 0.98565179 5.51946163
8.71176529 0.73961842 5.93704176
8.94471550 0.68530571 6.04758406
8.82460785 0.71103704 5.96309662
8.81961727 0.70429289 5.99501133
8.79327774 0.71246880 5.97461748
9.12061214 0.65662885 5.93531704
9.03867054 0.53186816 5.50229645
9.06832027 0.50598240 5.50136662
8.76536274 0.71758711 5.98132992
9.10897350 0.65974963 5.95724869
9.18949890 0.52364427 5.50393724
8.69055653 0.95355695 5.54796076
8.65320301 0.99622732 5.57365608
9.08898354 0.66010445 5.94308186
9.11173344 0.66670448 5.92424679
8.83882236 0.70424908 5.82563925
8.80120182 0.70299113 6.00803518
8.77559566 0.69778490 6.01421261
8.58553600 1.01811779 5.65794659
8.95696831 0.55202132 5.68111324
9.09541321 0.65968776 5.97349644
9.03735828 0.51315838 5.52586365
9.06832027 0.50598240 5.50136662
9.07326794 0.49275538 5.51586914
9.03735828 0.51315838 5.52586365
9.08536148 0.65792751 5.95892048
8.80091572 0.68302435 6.04404402
9.21555710 0.55453110 5.51852608
8.84594345 0.69801891 6.00926256
9.10319710 0.66079670 6.00654697
9.12874794 0.66535473 5.91684389
9.12427139 0.66906065 5.90790415
9.13114643 0.65833724 5.90242481
9.10862350 0.66220444 5.90911579
8.87547398 0.68719018 6.06388712
8.74012184 0.72179967 5.96691990
9.08708477 0.65389657 6.00756216
9.09868145 0.67292422 5.89975262
8.80851460 0.92512554 5.43416739
8.78004932 0.94682658 5.45151806
8.81102943 0.96536314 5.42493677
9.19812965 0.51765960 5.53204155
9.07158279 0.65398306 5.99321985
9.01840496 0.53650355 5.52797127
9.08199501 0.67003208 5.91126394
9.09144306 0.65726334 6.02426291
9.07526970 0.65781319 5.88709307
8.83203506 0.68321633 6.05056238
8.96551228 0.64349157 5.82924080
8.97631741 0.62033522 5.81159353
8.98787689 0.64108253 5.83811712
8.75299644 0.71054250 5.99612045
9.00343513 0.61804891 5.82495403
9.06458282 0.65749544 5.94457912
9.05507755 0.66900909 5.90264654
9.06613255 0.67036194 5.91253901
8.52799320 1.03033614 5.74575424
9.00693512 0.61274481 5.47995186
8.56497574 0.88427889 5.82423925
8.53675175 0.87534732 5.89392900
8.93659687 0.63347256 5.79558897
8.84961891 0.76111424 5.51936245
9.04977608 0.65573215 5.97266245
8.58717823 0.85417974 5.83053827
9.19812965 0.51765960 5.53204155
8.70193386 0.72349173 5.98377705
8.73633957 0.69437087 6.02569723
9.03653431 0.66975826 5.89848471
8.96789551 0.60140103 5.78472137
8.99907112 0.59289342 5.79785299
8.88438606 0.73250961 5.51479673
8.84406567 0.76166582 5.53500891
8.86984158 0.74527878 5.55263281
9.16629314 0.49515432 5.52291298
9.21725273 0.49450514 5.55531693
9.02430916 0.66792905 5.90163183
9.05396843 0.65168971 5.98858881
8.60320663 0.81982982 5.87521505
8.55535030 0.84198558 5.91379309
8.98935509 0.56978172 5.76638269
8.98464775 0.67191565 5.90131187
8.98428535 0.66811132 5.88576508
9.05766296 0.65648437 6.01701546
9.16656113 0.51883942 5.49080420
9.05063629 0.65584952 6.00502443
8.71527672 0.76157010 5.84543467
8.69542694 0.76417905 5.88019991
9.12812614 0.62948924 5.86399364
8.68448162 0.75232273 5.92897272
9.03959084 0.65157735 5.99351549
9.14108658 0.57407248 5.80831337
8.96015263 0.59285873 5.76486111
8.53896427 1.01721752 5.76341343
8.74351120 0.99215490 5.47502708
8.93970680 0.61819768 5.77379847
9.14329243 0.50974369 5.48995924
9.09783554 0.66070849 6.04220247
8.94227314 0.60007238 5.74724960
9.10311604 0.61135572 5.84799719
8.78841686 0.90027720 5.46352530
8.53115273 0.99177730 5.78801918
9.10779667 0.58628297 5.82190895
8.71527672 0.76157010 5.84543467
8.66067123 0.77231354 5.90374708
8.67981243 0.78681517 5.82765436
8.69542694 0.76417905 5.88019991
9.06699276 0.65163475 6.03854513
9.08961678 0.65874159 6.06241989
8.94160080 0.64251858 5.81714392
9.06708050 0.60317481 5.83590412
9.10311604 0.61135572 5.84799719
9.08028698 0.62897170 5.86305904
8.84970379 0.88222492 5.41799736
9.10779667 0.58628297 5.82190895
8.92384434 0.64061666 5.78737164
8.68448162 0.75232273 5.92897272
8.99008942 0.56200594 5.54806709
9.07679081 0.66002250 6.09016895
8.92277431 0.65304846 5.82615757
9.06965637 0.65509146 6.07275248
9.12163162 0.54419553 5.77988911
9.12030602 0.55770004 5.79589891
8.80266380 1.09622669 5.45178652
9.05488014 0.66031528 6.08924580
8.96352577 0.61063480 5.54926968
8.80611897 0.80733764 5.53599787
8.82443810 0.78686053 5.56472063
9.01801968 0.54318905 5.75478554
9.02718067 0.56700188 5.78331852
8.98948002 0.54447424 5.73537493
9.12146568 0.56669760 5.80106544
8.96468449 0.58589756 5.56114340
9.05173588 0.65346843 6.04973269
8.80634308 1.00531244 5.42946053
8.66095066 0.74532980 5.96503544
8.67432594 0.87821329 5.66342354
8.62374783 0.89904118 5.71119738
8.63756084 0.92477798 5.67564392
9.10517025 0.55809492 5.79597664
9.04022217 0.65766627 6.03781033
9.11581707 0.53710699 5.47192860
9.14329243 0.50974369 5.48995924
8.66095066 0.74532980 5.96503544
9.02505779 0.65285444 6.02924299
9.09593868 0.55246133 5.78840590
9.08302689 0.53507280 5.77105761
8.81010914 1.07076406 5.44072437
9.07436466 0.56737417 5.80244875
8.98352814 0.54109859 5.56054258
9.01047516 0.50645405 5.54702568
8.96481800 0.57450020 5.74325418
8.95607853 0.65257192 5.85030556
8.99705696 0.64842725 5.85880995
9.03747368 0.65610492 6.07889366
9.04889202 0.65525711 6.10775566
9.07436466 0.56737417 5.80244875
8.90796566 0.72102350 5.52200937
8.96444511 0.65548646 5.86081743
9.03018951 0.65553117 6.05283165
8.94500351 0.65596706 5.83879805
8.67148590 0.82885319 5.73297310
8.68272877 0.83949172 5.69485474
8.69508171 0.79928678 5.75794268
9.02161407 0.66009957 6.08358526
8.89075089 0.71671897 5.55343056
8.73579216 0.96051538 5.48884821
9.11618519 0.66260004 5.89322567
8.95235062 0.66347444 5.86313581
9.09900188 0.64718348 5.87909794
8.96017456 0.66556472 5.87850046
8.68511581 0.70375770 6.02352858
9.02388000 0.65547854 5.96967268
8.96608067 0.67125183 5.88753271
9.03150558 0.65651369 5.94868755
8.97833157 0.51820707 5.58400583
8.65449619 0.72754455 5.99953127
8.75187206 0.90190905 5.50951576
9.00180721 0.48029110 5.56575108
8.53978920 0.83311087 5.96692228
8.57504368 0.80935758 5.94436264
8.93432713 0.65850222 5.84526539
8.85329247 0.75263840 5.56733990
8.77461052 1.04768360 5.45527601
9.08191681 0.53082108 5.47911406
8.53770733 0.80780876 6.01939344
9.02030277 0.65538746 6.00620317
8.65449619 0.72754455 5.99953127
8.63132000 0.73923886 6.00087023
9.00756359 0.65192950 5.98049402
8.51053905 0.86906314 5.96673203
8.91400146 0.63595474 5.76248264
9.00355816 0.65277761 6.01194286
9.09828186 0.50188768 5.49787569
8.63831234 0.81866699 5.81596518
8.91400146 0.63595474 5.76248264
8.99186802 0.65651417 5.93343639
8.73965073 0.87998354 5.55475998
8.70402622 0.91727126 5.56556463
8.99650383 0.65615827 5.96371365
8.81102943 0.96536314 5.42493677
8.99014473 0.65167665 5.94667816
8.98013401 0.65707839 5.94424820
8.95567131 0.64559805 5.51490974
8.98081207 0.64131838 5.48581028
8.62988472 0.86806333 5.73622036
8.80332184 0.81793350 5.56971598
8.79600811 0.78364938 5.60779858
8.64830685 0.79077578 5.87054729
8.99471569 0.65475351 5.98626328
8.71501446 0.88286370 5.58688974
9.03232098 0.62222099 5.84616232
9.03445053 0.59075725 5.81252956
8.94286251 0.66906410 5.50159931
8.49859428 0.91959286 5.90932178
8.97885799 0.65168554 5.98300219
8.66812038 0.92719567 5.61108971
8.95510769 0.63843334 5.53650236
8.89541626 0.66169763 5.79220486
9.15367985 0.50841159 5.75230408
9.15642071 0.52753454 5.76226616
9.00537968 0.65245157 6.02255392
8.85879230 0.68156952 5.76879644
8.82588959 0.74024099 5.62001419
8.85731316 0.72076088 5.59459496
8.87914753 0.67229414 5.78077126
9.07077694 0.54881638 5.78283787
9.00870705 0.65506059 6.04155636
8.48045063 0.90374851 5.93056393
9.05621243 0.52795953 5.75855875
9.05749702 0.53971839 5.76971054
8.77081299 0.85698509 5.53691769
8.80947495 0.84504622 5.49082375
8.62499428 0.79011470 5.90863228
9.04716396 0.55272138 5.77881622
9.07077694 0.54881638 5.78283787
8.96142101 0.67203879 5.90051126
8.95455265 0.68028146 5.90661383
