-43.54070000 -40.77250000 -30.42940000
-2.65380000 -49.78680000 -52.43980000
-8.57360000 -48.29730000 -51.98570000
-4.77750000 -45.62090000 -51.31310000
-14.10540000 -46.92500000 -51.04360000
-18.07680000 -45.96500000 -50.13350000
-10.57290000 -45.48440000 -51.07920000
17.47330000 13.15880000 37.72250000
16.27740000 10.06680000 38.31820000
19.85790000 10.80340000 37.41820000
23.19000000 17.29430000 35.81390000
-36.25820000 -41.49270000 6.82140000
-33.50210000 -42.94790000 9.69690000
-42.54560000 -37.12520000 -28.54820000
-35.64300000 -37.04010000 -24.86640000
-46.34370000 -10.61950000 20.79650000
-43.76480000 -9.19340000 22.88960000
-42.23300000 -6.40840000 24.76120000
-23.18150000 -33.35560000 -42.22320000
-23.17560000 -33.99150000 -40.05700000
24.76200000 -56.02280000 22.38170000
-41.38930000 5.84720000 -65.98630000
-39.29090000 10.67090000 -66.54160000
11.62000000 -56.29840000 26.88010000
-48.16080000 -9.20660000 20.26180000
-48.17220000 -7.49120000 20.96200000
-45.86330000 -8.19660000 21.99820000
-40.96290000 -9.37120000 24.53390000
-38.51650000 -39.80060000 0.46260000
-74.50070000 16.65830000 -4.18870000
-73.05790000 24.25460000 -4.50240000
36.66160000 -45.41120000 2.93800000
-46.07290000 -5.52700000 22.84860000
-3.08570000 -43.95550000 19.98840000
-5.55220000 -46.79940000 20.81570000
1.98780000 -44.08150000 20.02400000
-73.83700000 31.21570000 -11.64750000
36.05500000 -59.68840000 -37.26990000
-63.00490000 23.78610000 7.15690000
-65.53810000 24.60210000 4.05090000
-49.90710000 -47.88600000 -10.54110000
-48.27520000 -45.77780000 -9.11380000
83.68860000 51.09720000 -15.80430000
83.17320000 48.21220000 -14.77730000
-24.22490000 79.36780000 11.08300000
-19.32060000 79.75700000 12.59980000
24.08640000 -33.89820000 12.46220000
18.97020000 -34.05590000 14.84820000
32.30640000 -32.40200000 9.26440000
33.70480000 -33.78960000 6.20740000
29.59800000 -33.51540000 9.48250000
37.26930000 -28.92030000 -41.29830000
40.32130000 -26.71000000 -42.68700000
43.85320000 -5.26440000 22.60330000
57.70860000 -28.35940000 -20.80690000
53.56470000 -30.29590000 -23.40290000
7.26260000 -30.96670000 -54.62120000
31.35990000 -33.26110000 -35.60310000
33.80360000 -31.68330000 -38.20630000
37.48620000 -30.18430000 -38.32570000
33.37460000 18.11590000 28.51790000
40.87090000 28.37690000 21.22780000
-45.95720000 55.02220000 -37.67860000
-47.99820000 50.81860000 -37.99140000
-42.40430000 54.59320000 -40.99910000
67.21920000 2.89170000 -37.44570000
68.27990000 4.52310000 -36.15620000
-49.62520000 54.64820000 9.28290000
-49.85830000 52.99910000 9.38750000
-45.91320000 54.15760000 12.69200000
14.16480000 -35.04830000 -47.04930000
20.32110000 -35.19620000 -44.58220000
-49.10200000 -61.52550000 -38.95270000
-53.12070000 -61.92660000 -36.33840000
-50.71460000 -61.41290000 -39.52720000
-71.41920000 -17.97890000 -18.54100000
-72.52320000 -15.76670000 -17.49390000
14.82260000 -30.78320000 13.92460000
57.15160000 36.05850000 2.15460000
-2.88490000 -35.36220000 9.51090000
-25.45750000 -60.73970000 22.82140000
-25.78420000 -60.14750000 20.30030000
-64.14790000 -18.62360000 -2.47920000
42.34000000 44.15810000 -51.15980000
45.09420000 46.21100000 -48.09280000
48.55600000 47.78340000 -44.13190000
1.45390000 -36.93310000 14.28930000
-2.04190000 -39.83930000 15.97930000
-1.90170000 -38.64060000 15.12830000
17.00960000 35.51950000 33.56100000
16.15650000 33.10600000 34.62040000
19.38200000 34.42840000 33.28270000
20.15700000 37.30820000 31.89520000
-37.76530000 -39.88060000 -35.84540000
-39.50640000 -40.76840000 -34.96650000
-38.32980000 -41.26030000 -36.14920000
-32.63530000 -37.09200000 -37.89310000
-32.28530000 -39.08990000 -39.43110000
-29.75600000 -37.42440000 -40.15210000
-64.92840000 2.31300000 11.69330000
-67.27690000 7.53390000 9.02810000
1.44400000 -37.13010000 -41.46460000
-3.17650000 -37.70850000 -40.52660000
4.87650000 -40.26960000 -21.63410000
-0.35800000 -40.46090000 -21.53960000
6.62130000 -40.02600000 -23.98990000
37.83170000 40.42250000 -55.79130000
20.02960000 31.48110000 -66.96390000
8.68450000 -48.63550000 21.34190000
6.65310000 -49.98330000 22.48750000
16.08170000 -48.79590000 19.93050000
13.60450000 -50.06840000 21.58270000
20.78640000 -50.09660000 19.18750000
41.14120000 86.54830000 -4.06560000
-2.38930000 -27.14470000 -55.02880000
-1.08510000 -28.63500000 -54.20940000
-68.51260000 -18.51120000 -27.27910000
8.86840000 47.83510000 -63.22680000
11.57760000 49.82150000 -61.85990000
28.81310000 17.80340000 30.51790000
24.29630000 25.96670000 30.50190000
27.29520000 30.84220000 27.90930000
28.50210000 27.46050000 28.21170000
22.74730000 32.54340000 28.85290000
24.05560000 35.02510000 27.66820000
-71.71750000 -9.90890000 -34.35570000
26.25500000 16.68070000 32.03940000
54.79570000 12.29710000 14.23010000
54.68480000 18.61130000 13.08360000
56.91100000 16.33140000 11.43950000
39.72130000 42.31530000 15.25120000
40.47860000 45.97750000 11.43800000
-3.79850000 -37.30710000 -9.70820000
-3.80660000 -37.52580000 -12.04500000
-73.63950000 10.20290000 -5.82170000
-70.67180000 12.32990000 0.07770000
-74.05520000 11.31660000 -1.65650000
-71.57800000 12.34850000 2.20520000
52.89050000 23.13920000 13.39040000
-70.97180000 52.24390000 -20.47750000
-43.80130000 -53.81700000 5.68140000
37.63700000 53.55590000 14.08070000
39.38440000 51.34590000 14.26380000
39.77910000 53.70210000 12.25260000
-18.92380000 56.87760000 -58.10480000
55.81070000 26.28180000 -35.94030000
62.62420000 15.19440000 -33.93950000
46.94180000 -58.44710000 -32.22730000
45.91960000 -58.69360000 -33.69750000
45.38660000 -57.56480000 -32.50740000
53.21520000 -14.01600000 9.51370000
51.01220000 -12.57900000 12.55830000
53.61750000 -11.12340000 11.14260000
51.48790000 -11.46030000 12.65870000
36.67090000 50.30850000 17.08770000
38.46270000 48.05040000 17.04000000
-31.77420000 82.80920000 -38.72250000
-50.37510000 -22.17570000 6.80670000
-35.64010000 -53.92140000 -46.15640000
-38.28450000 -54.21660000 -44.60000000
-38.65150000 -53.05360000 -43.73370000
-45.71830000 -54.15850000 -38.38350000
-30.97360000 71.25010000 -44.54720000
35.76590000 -35.21620000 -1.81810000
34.78200000 -35.27990000 -3.42280000
-58.12070000 0.49750000 18.53900000
27.12660000 78.37140000 6.11980000
-8.37870000 59.31770000 21.81060000
-7.68140000 61.49720000 21.28600000
-8.30730000 70.07710000 20.06560000
-8.29130000 65.93680000 20.50710000
40.51900000 -62.09080000 -39.04400000
42.82610000 -61.64080000 -39.04830000
-25.13830000 -20.96110000 -54.95940000
-36.89430000 -42.53510000 -37.72840000
-36.28120000 -45.05790000 -38.96560000
-33.39980000 -44.40750000 -40.89460000
-38.81040000 -44.43330000 -37.04400000
-39.23740000 -42.30310000 -35.88420000
10.72650000 -46.84520000 20.13630000
5.85260000 -43.03410000 19.79430000
27.01090000 56.77850000 12.18470000
10.49460000 -42.23200000 19.09560000
-71.95960000 -20.02380000 -21.69370000
9.52440000 -9.82130000 -71.83700000
32.58160000 -28.69930000 10.64230000
-58.62860000 -28.73840000 -17.56540000
-6.87410000 61.43070000 19.67310000
-50.94000000 -11.32080000 -57.19790000
-16.57480000 21.26060000 36.96150000
47.15640000 8.29420000 -59.09560000
28.47040000 -26.42980000 -50.28800000
43.25890000 58.03830000 -33.57380000
46.96540000 51.46740000 -33.01070000
-31.05240000 -38.29500000 -13.56290000
-32.71580000 -38.06930000 -15.69010000
62.25790000 -12.39350000 -34.73250000
59.22470000 -7.51550000 -39.31160000
45.90380000 53.13130000 7.30570000
47.05930000 53.24160000 6.07680000
46.03540000 51.57610000 8.41830000
44.18900000 -53.84750000 3.83470000
37.35750000 -53.43950000 11.31700000
23.16970000 -58.88600000 20.20550000
23.60810000 -57.89870000 18.62540000
20.67970000 -56.44330000 18.45420000
20.99320000 -54.41800000 17.42530000
23.90830000 -56.39720000 17.20930000
36.84860000 56.98100000 11.72550000
22.61890000 85.25010000 7.24040000
-0.64640000 -37.85970000 -16.65660000
-4.68850000 -37.70570000 -17.60260000
-3.16580000 -37.70680000 -14.23760000
16.07010000 -58.75930000 22.34930000
46.57580000 -50.35090000 -7.49060000
46.39590000 -47.96070000 -9.21730000
45.83390000 -46.36210000 -10.50070000
0.41640000 -38.05800000 -22.24320000
-0.59250000 -38.05800000 -21.06120000
1.24190000 -38.02710000 -20.85890000
16.43930000 -35.95310000 5.87660000
17.72860000 -37.38610000 0.44030000
16.45520000 -38.53320000 -6.53260000
-2.17590000 -37.94590000 -19.83430000
-0.02580000 -38.01320000 -19.42090000
2.27580000 -37.89320000 -18.68160000
55.65240000 -58.65560000 -16.44190000
52.79550000 -57.45120000 -19.94550000
68.22450000 23.55120000 -21.47610000
-52.13450000 -36.22430000 -17.32430000
-51.60350000 -36.42780000 -20.34340000
24.14450000 -52.43370000 -46.19920000
20.03020000 -51.36310000 -47.82440000
23.50830000 -48.94520000 -45.03090000
27.32840000 -51.50250000 -43.80260000
4.02760000 52.60670000 28.61100000
4.99150000 50.31080000 29.92150000
6.68990000 51.19880000 28.83130000
7.04940000 53.78470000 27.43380000
-10.62170000 -37.01920000 -26.80470000
-1.78790000 -38.00630000 -21.45740000
-1.06090000 -38.01770000 -22.60890000
-8.64070000 -36.72370000 -31.09750000
-7.62240000 -37.17110000 -27.43760000
-6.96190000 -37.44280000 -24.52160000
-0.85210000 -37.78590000 -27.27990000
-1.02480000 -37.86550000 -26.01460000
0.06150000 -37.88230000 -25.73520000
-5.03300000 -37.39550000 -27.91170000
2.24200000 -37.82210000 -25.23100000
2.17550000 -37.96320000 -22.73780000
5.45910000 -37.71250000 -23.37780000
24.54670000 56.63680000 -54.72740000
32.78220000 57.04140000 -50.63730000
-50.94790000 -61.55190000 -36.66750000
-55.18280000 -57.13230000 -16.68750000
15.13710000 38.32170000 28.76980000
-49.57840000 -58.80430000 -32.31860000
-43.46860000 -28.70680000 -40.20910000
-42.53430000 -29.77870000 -38.20520000
-42.14710000 -29.06920000 -40.46040000
-74.34400000 27.41910000 -16.46250000
-2.85620000 40.87120000 36.59080000
-25.69070000 -62.16710000 -55.36940000
-34.03130000 -62.02080000 -51.32410000
60.95940000 -13.36350000 -39.14420000
55.27300000 -22.62850000 -31.65410000
58.35820000 -20.71490000 -29.58110000
-50.94940000 -21.29350000 -50.72930000
-54.40520000 -18.73440000 -49.98910000
33.49280000 75.85300000 -39.33960000
-5.52140000 -17.18160000 32.17160000
37.68250000 76.55550000 -35.35380000
5.11120000 55.09740000 26.81990000
3.17390000 56.40830000 25.45460000
34.84820000 -42.46520000 -31.78710000
36.37250000 -38.83380000 -28.24070000
-13.54600000 60.19030000 -54.83510000
-18.04890000 60.78520000 -53.67970000
-24.57710000 -36.24510000 -23.11760000
-20.28600000 -36.70800000 -17.45490000
-19.99520000 -36.46230000 -26.42880000
50.19290000 -28.96430000 -15.03790000
45.39590000 -31.05230000 -13.31320000
-84.47080000 48.01800000 -20.64260000
73.62460000 -5.74390000 -22.15020000
-51.08580000 14.79260000 -59.01020000
51.05690000 -61.85390000 -26.22990000
57.68790000 -23.96580000 -22.38200000
58.49600000 -22.68580000 -24.73740000
59.00790000 -23.72050000 -18.67030000
-10.49540000 47.67400000 30.40110000
-13.87970000 44.39040000 30.71590000
-65.90180000 45.26550000 -12.95790000
-31.62810000 -47.65940000 12.26490000
-71.23550000 36.30010000 -26.01740000
-71.52620000 37.85060000 -23.94180000
-74.56100000 31.50470000 -23.14600000
-72.08440000 33.71060000 -26.31760000
-62.34130000 -61.17870000 -21.59250000
-7.10690000 42.81100000 34.34830000
-52.63160000 84.44190000 -8.95350000
-54.71770000 72.29410000 -10.83670000
-49.59090000 85.06180000 -4.72270000
-73.87200000 -10.19530000 -5.70210000
13.20190000 -2.20690000 36.22500000
35.83570000 20.54080000 26.77220000
33.39460000 -56.11020000 11.08090000
35.06280000 -54.94660000 8.92770000
62.88790000 -23.90940000 -16.67400000
64.97910000 17.10700000 -39.52400000
64.02320000 14.12900000 -42.02150000
-43.66750000 -59.86350000 6.96230000
-47.52500000 -60.12320000 2.50430000
62.75100000 -23.84760000 -18.29640000
63.22320000 -23.22060000 -19.56620000
45.31220000 -61.16990000 -36.02050000
45.89610000 -59.85120000 -35.19810000
-47.38020000 -51.81940000 -4.52470000
51.46430000 -52.97380000 -11.55320000
-4.33000000 -40.18100000 15.78830000
-6.70460000 -38.48820000 14.43580000
-9.54840000 -37.17690000 13.26090000
43.78040000 -58.79720000 -36.32030000
-66.63640000 45.75590000 -9.07340000
-66.17450000 45.32280000 -7.62710000
43.24990000 -51.95050000 3.21570000
46.41720000 -26.50350000 7.60780000
45.85440000 -28.12830000 5.25050000
48.43040000 -27.19880000 4.40080000
43.97790000 -29.83350000 3.87450000
-78.30990000 25.16160000 -15.77140000
-77.15540000 24.95550000 -13.61800000
-46.40090000 41.98540000 14.79000000
47.92870000 -11.48170000 21.13640000
-64.64530000 41.57620000 -1.67060000
-61.58090000 41.93830000 2.81340000
-3.94360000 -57.30130000 23.15300000
-3.46590000 -54.57120000 21.73420000
-5.88080000 -55.70870000 22.04960000
-5.26760000 -52.88760000 20.93940000
35.13390000 -12.90780000 24.80660000
-23.65740000 47.85870000 21.42650000
34.31890000 48.56150000 -44.56210000
34.83960000 39.71320000 -45.97280000
52.14550000 -61.74060000 -19.63540000
7.58090000 -54.95210000 -50.09200000
25.56530000 -38.42160000 -11.20070000
23.42980000 -38.61860000 -13.39750000
-23.88030000 59.49970000 16.56120000
-28.10240000 61.60290000 14.15050000
49.00240000 -58.19580000 -17.29490000
47.07760000 -56.63950000 -20.56900000
49.04580000 -1.83450000 19.28730000
-57.83210000 -55.11790000 -16.87640000
-0.46240000 -61.75760000 -55.40680000
44.04490000 -57.83650000 -26.75240000
37.65960000 10.12430000 30.79040000
19.81660000 83.86280000 -42.62470000
24.63670000 83.68220000 -40.29790000
9.97950000 83.52250000 -45.38820000
14.79530000 83.17070000 -44.56350000
14.91470000 83.77210000 -44.33350000
-27.12760000 -36.84460000 -40.92900000
-25.50160000 -38.07720000 -42.43590000
49.29570000 2.40410000 23.33200000
44.05220000 -2.80630000 26.51480000
46.69970000 -0.04050000 25.08170000
-19.40780000 -55.62790000 -50.06760000
-21.32610000 -49.93190000 -48.01520000
42.91170000 -44.69810000 -25.86380000
44.86080000 -9.31020000 24.36440000
45.38460000 -11.36150000 23.16700000
45.74910000 -3.65720000 25.28140000
-10.16550000 -12.52950000 -71.70740000
20.79850000 16.76520000 -70.34640000
67.10790000 55.75530000 -15.63330000
-39.14310000 -60.97760000 16.31860000
-36.55270000 -60.79810000 15.79180000
-28.43720000 -60.72960000 21.89450000
-36.24520000 -24.93050000 -51.26110000
56.21370000 -25.64240000 -31.86630000
50.48930000 -26.52330000 -37.39850000
-74.01200000 35.77320000 -18.95320000
-74.22290000 35.23330000 -20.72860000
-73.95750000 34.57780000 -16.21010000
-60.93980000 32.10590000 9.51580000
-56.02510000 31.68610000 14.85190000
9.43170000 -58.85570000 29.24390000
6.86940000 -59.01220000 29.15230000
-53.60630000 52.03790000 6.14000000
-45.44700000 50.02520000 14.57140000
34.84270000 84.46710000 -33.24750000
39.06720000 85.13010000 -28.87230000
40.90890000 84.87650000 -23.46320000
-32.71730000 -47.64320000 -45.07290000
83.58840000 50.39600000 -22.69050000
-27.01080000 -30.18580000 17.64820000
18.92380000 -53.13450000 -49.15070000
13.46250000 -53.44960000 -51.34910000
16.21270000 -51.89960000 -49.72190000
-90.16960000 42.43250000 -13.04210000
-62.55980000 -28.41500000 -13.07630000
-64.82960000 -27.57940000 -16.34680000
-77.54520000 47.99430000 -15.26130000
25.73150000 -38.01910000 -8.86010000
71.28300000 33.71930000 -22.89090000
-38.47230000 82.89910000 7.84890000
71.95300000 31.92210000 -23.20830000
-21.31000000 -60.59430000 22.92860000
-18.99730000 -60.17150000 22.82040000
-1.37180000 -49.58030000 20.03460000
47.62790000 -60.81390000 6.22180000
47.10190000 -60.19580000 3.52770000
16.43430000 -35.11720000 9.52940000
19.13680000 -35.58740000 10.14880000
23.29870000 -35.03630000 7.30220000
63.65970000 33.04850000 0.13510000
17.33370000 -53.95450000 18.66850000
14.06730000 -51.55940000 18.79710000
19.23440000 -51.54690000 17.09140000
23.59560000 -52.52920000 15.46980000
-29.65270000 73.54430000 14.18330000
-27.95000000 72.38810000 14.87640000
-38.50720000 -47.83600000 7.12390000
-46.07280000 72.52810000 -30.97520000
-46.22660000 70.08690000 -32.22500000
-0.98450000 34.44330000 36.35260000
-17.61120000 76.94540000 14.68880000
-25.66960000 73.94860000 15.87410000
-13.20070000 72.60390000 19.11540000
39.42820000 -30.02080000 -42.26580000
-11.48750000 -28.48190000 19.40590000
-7.14430000 -30.26120000 16.72040000
-18.59090000 84.11990000 17.02820000
38.86830000 -38.98640000 -22.60000000
37.51690000 -38.77820000 -25.69310000
-55.15160000 -58.63810000 -23.22050000
-53.98610000 -58.72400000 -26.05180000
62.13180000 39.74640000 -3.25650000
63.44990000 35.86440000 -1.61380000
-14.65580000 -19.09830000 32.55740000
38.62190000 -39.31750000 -24.23940000
38.17650000 -40.13220000 -26.22440000
8.17320000 -53.22630000 -52.66920000
3.85240000 -53.02500000 -53.44940000
-2.88940000 60.56760000 -55.69790000
-8.13890000 59.80770000 -55.67790000
-61.00230000 -8.96480000 -45.48600000
-32.00060000 -54.40110000 -48.47810000
-26.56600000 -55.00260000 -51.27450000
-47.05870000 61.23840000 3.00300000
60.46820000 -5.61500000 11.18220000
59.12050000 -6.72370000 12.59420000
61.04750000 -8.50260000 9.41400000
62.84470000 -5.85580000 8.06660000
11.76380000 -48.98630000 21.15530000
10.80790000 -36.53260000 17.04880000
74.05890000 -5.06010000 -20.08440000
-61.67420000 30.48410000 6.00560000
14.78630000 -36.01590000 16.13080000
35.91690000 -4.52300000 -49.06490000
31.60170000 -5.91310000 -50.53610000
29.04010000 -11.22960000 -51.33200000
67.24050000 -18.92720000 -19.50890000
68.17540000 -17.47030000 -20.06030000
67.44350000 -18.00930000 -21.23040000
-3.83220000 85.15720000 18.43110000
42.99500000 -50.16940000 -27.61510000
-46.34270000 -46.49230000 -33.52130000
-43.67830000 -49.63660000 -37.65080000
6.48180000 57.04730000 -59.32560000
-50.91980000 -46.28610000 -26.51050000
-48.89060000 -47.57960000 -30.59120000
18.65300000 11.85460000 35.50700000
26.46660000 -54.80490000 15.02050000
6.79350000 57.89660000 -58.02270000
42.06210000 74.72190000 -7.31740000
-55.47730000 62.79300000 -17.68290000
51.18030000 -13.64000000 11.44240000
41.48580000 84.58870000 -34.84370000
-40.09480000 -60.17740000 16.68650000
-44.82050000 -44.51070000 -34.74950000
-75.74980000 -12.82950000 -22.39140000
-47.96710000 -59.81640000 10.14000000
-53.35850000 63.09310000 -10.16050000
20.85970000 52.37930000 24.59610000
19.93540000 49.80920000 26.29480000
22.78890000 50.82890000 24.76650000
20.58050000 46.56140000 27.56990000
19.87840000 42.56240000 29.70570000
-12.02990000 60.05550000 19.60560000
-20.08040000 57.52370000 18.31010000
72.48810000 50.56830000 -16.65660000
74.55300000 50.64220000 -16.40240000
76.50430000 49.44050000 -16.56530000
-48.79680000 -34.47830000 -8.11890000
29.01570000 52.50930000 20.68310000
-0.61790000 56.66260000 25.12320000
-55.79520000 57.65280000 -11.84050000
-13.03360000 -59.95550000 29.01730000
30.88090000 50.68780000 20.63800000
2.76460000 55.02580000 27.19880000
1.48160000 54.26320000 28.03530000
-3.04640000 56.00540000 26.34380000
-3.55600000 54.96560000 27.71290000
61.15480000 -23.88950000 -6.77130000
63.17400000 -22.92650000 -8.93240000
0.32480000 55.70710000 26.76840000
64.64700000 -21.32750000 -8.88370000
65.09170000 -19.14680000 -5.93730000
65.65150000 -19.67770000 -8.03570000
-3.89500000 32.88170000 -56.39570000
-47.62230000 78.73400000 -7.96930000
-23.59480000 40.65330000 -52.85370000
-20.38460000 38.93860000 -53.79020000
-55.27310000 -17.50040000 -45.73980000
-52.82820000 -21.85100000 -44.19340000
51.10250000 -31.12150000 -7.46390000
51.89540000 -28.83800000 -2.40940000
-30.59270000 38.86570000 -50.82950000
46.97420000 -48.39990000 -12.00140000
42.81170000 -42.79450000 -19.15580000
34.80560000 -45.00720000 7.91740000
-45.18980000 -34.37900000 -2.63310000
-36.44540000 -34.33390000 6.05460000
43.62190000 -45.04700000 -19.29470000
-27.74930000 -27.43990000 15.67420000
25.09720000 -60.68010000 -46.13880000
22.55290000 -58.69290000 -46.11430000
22.95950000 -60.93390000 -47.48330000
23.30360000 -62.14440000 -49.11820000
24.90880000 -62.29570000 -51.50250000
25.44090000 -62.17620000 -48.12330000
9.35590000 -54.45540000 20.98580000
5.30370000 59.56450000 -55.54190000
24.96330000 -58.97830000 -45.01210000
-47.31260000 -53.32180000 -3.33600000
-87.34590000 36.21760000 -20.54740000
31.94610000 35.14800000 23.87190000
-48.20570000 -31.69730000 -0.01710000
35.06140000 -53.16190000 -38.91230000
-26.50170000 -59.64130000 18.75510000
-3.84820000 35.05090000 36.32430000
30.89230000 21.02330000 32.34130000
32.50750000 16.73350000 32.53810000
35.00660000 16.95740000 31.31050000
-53.94470000 84.96820000 -13.24190000
-54.23510000 85.17330000 -16.18800000
26.44430000 31.95590000 31.61780000
29.83190000 17.13950000 33.59880000
16.54860000 37.65090000 32.65160000
13.19700000 34.08480000 34.75310000
15.17760000 34.84530000 34.20210000
9.90150000 73.58940000 -52.78930000
20.15540000 39.57550000 30.73230000
-9.83650000 -51.53620000 -53.17740000
-56.29150000 -10.78880000 12.80250000
-54.32840000 -11.68910000 14.07120000
-63.93950000 -25.11870000 -28.91230000
-65.47510000 -26.00450000 -23.04010000
-45.11420000 -36.24580000 -18.89270000
49.46500000 21.12500000 20.90690000
49.32400000 17.07790000 22.06740000
-58.90250000 4.93060000 14.55430000
47.63510000 19.66630000 23.07520000
48.26920000 24.23260000 20.87590000
27.88410000 77.64830000 10.24770000
34.40690000 13.78870000 32.13760000
37.44090000 13.56630000 30.52780000
62.07980000 54.16140000 -23.04410000
21.43720000 -62.26780000 -50.00250000
20.58580000 -61.41820000 -48.94890000
67.02470000 39.59700000 -14.76780000
21.43350000 49.10380000 26.25500000
24.47910000 49.88940000 24.60570000
27.22440000 50.34090000 22.92340000
7.40160000 43.53010000 -65.27000000
25.11270000 52.08500000 23.05890000
-48.28100000 -44.01290000 -10.09290000
-46.99670000 -43.53170000 -8.28700000
-56.72610000 40.25190000 9.73670000
-59.87600000 -57.19660000 -16.97610000
29.85150000 -19.73560000 22.75090000
29.64830000 -22.75160000 20.00980000
67.11890000 40.73070000 -16.02750000
37.55390000 -44.62630000 -29.53940000
38.94940000 -46.52660000 -28.47830000
77.41680000 56.18690000 -16.70760000
-3.12220000 39.34940000 -70.62730000
-2.94010000 41.73230000 -70.13640000
-3.20640000 44.49560000 -68.80910000
-74.39580000 -9.04290000 -10.76760000
58.30640000 44.04750000 -11.04800000
61.19620000 40.89390000 -13.00740000
4.46800000 -35.64680000 13.57560000
2.20530000 -35.63900000 13.20480000
53.26640000 51.57690000 -0.76310000
52.56450000 50.05750000 1.87320000
51.37180000 50.03860000 3.43370000
52.74440000 46.81830000 4.29020000
53.82380000 52.57460000 -2.98010000
54.37150000 54.68180000 -5.75350000
51.49270000 52.58480000 1.42920000
-2.33290000 36.14360000 -69.03370000
-11.46620000 -36.67670000 -29.58510000
-11.55630000 -36.50930000 -31.23580000
51.61940000 54.16990000 -0.82200000
-42.16100000 -37.59490000 -34.92040000
-14.83070000 -36.11040000 -32.46810000
49.67890000 51.66790000 4.31640000
48.18640000 56.26540000 2.28420000
49.98690000 54.38120000 1.60080000
-54.43370000 -24.77870000 -37.96280000
-51.79240000 -25.70400000 -38.75980000
45.09660000 -19.98050000 12.13410000
46.15450000 -21.88430000 9.27570000
48.05810000 -19.34420000 10.40420000
52.65640000 -17.35230000 7.31690000
-44.83850000 2.08270000 -49.31970000
-40.54230000 -3.89510000 -50.96040000
-39.75020000 58.63490000 -41.74780000
10.41130000 -12.06980000 34.13340000
-74.50170000 -10.39380000 -24.86960000
26.51690000 49.32340000 -57.62020000
-2.09860000 -37.32360000 -9.15360000
-0.64820000 -37.32290000 -8.76530000
-1.81330000 -37.46880000 -10.16060000
2.33020000 -37.21880000 -8.72850000
38.69560000 57.31530000 -46.50380000
6.60420000 -12.07890000 34.56670000
4.51000000 -14.75400000 33.32350000
63.82930000 -14.24900000 -30.68770000
66.30060000 -11.80330000 -28.81930000
63.38980000 -16.45800000 -28.38040000
63.74210000 -17.66390000 -25.12520000
67.62860000 -12.83470000 -23.73420000
20.80810000 -36.87630000 -39.05950000
29.70480000 -36.76380000 -33.36180000
26.49410000 -36.97040000 -36.69520000
-69.30510000 -2.82560000 5.17740000
3.60910000 20.32100000 38.62070000
5.87790000 18.16650000 39.03700000
43.66750000 55.71760000 7.38460000
39.46400000 56.42120000 10.41760000
38.05020000 55.33110000 12.34020000
39.98350000 55.14560000 11.06540000
41.45840000 55.55740000 9.53800000
41.21910000 54.19740000 10.72750000
42.88260000 54.06170000 9.36220000
41.86190000 52.32700000 11.47680000
-22.32020000 -37.52550000 14.01170000
31.22020000 -34.62550000 -14.36450000
35.88870000 -33.65210000 -12.20750000
34.82020000 -34.08140000 -15.51660000
30.49470000 -34.87670000 -17.48600000
52.32460000 -24.64520000 -2.45350000
12.79100000 59.22830000 -54.41170000
-3.82030000 -6.42490000 39.13020000
42.03750000 -26.10260000 6.32350000
43.85610000 -24.91080000 7.27410000
-80.43320000 56.66650000 -14.92640000
-50.66060000 72.67370000 -24.00660000
37.98610000 -30.66660000 0.90090000
40.29770000 -28.10330000 5.07250000
41.82730000 -29.51070000 0.47150000
-70.70050000 36.76740000 -8.97200000
-23.37990000 69.45440000 14.83510000
41.95750000 -55.85090000 2.28960000
38.56190000 -56.58120000 6.25990000
48.54140000 -45.91800000 -13.93790000
37.72760000 83.87630000 -8.83350000
-41.04350000 77.79250000 6.20030000
-20.23050000 69.82450000 -49.62680000
-50.44240000 -24.18740000 -43.04300000
-46.69380000 -58.85680000 -35.83270000
-43.83570000 -27.91860000 -41.72380000
-75.98810000 -15.09140000 -18.28910000
-31.72390000 -33.89830000 -44.78120000
-36.63510000 -34.23030000 -41.33070000
57.94460000 4.13990000 15.83710000
52.79350000 2.00200000 20.46750000
-31.51000000 58.39060000 13.08420000
-26.21240000 57.95920000 15.84170000
-33.38220000 60.90250000 11.43950000
16.60920000 -36.92390000 -24.17780000
-38.23890000 85.06820000 -39.55840000
-42.12950000 83.84760000 -29.35610000
45.91820000 -13.45230000 21.42870000
44.62340000 -15.87020000 20.63720000
-30.37000000 -34.55940000 -44.51690000
8.69310000 80.30770000 -48.17130000
10.94490000 78.22310000 -48.84690000
14.06420000 81.44750000 -46.54200000
9.13240000 82.69540000 -45.80070000
-3.80490000 -38.93670000 -1.25940000
45.65390000 -26.21990000 -38.52620000
11.34140000 53.82110000 -53.12920000
-9.28210000 -39.70810000 -9.21900000
-40.03960000 -59.29380000 -42.04110000
-37.39890000 -57.91720000 -42.93700000
19.66320000 59.27220000 -52.57010000
-46.58250000 -55.93150000 -39.06070000
-49.98650000 -55.43550000 -34.80230000
-54.41760000 -55.87330000 -28.24620000
-51.95230000 -54.67010000 -31.01160000
67.45680000 -18.00250000 -9.32960000
-70.39210000 43.27430000 -17.42320000
-51.23420000 32.80430000 -53.56130000
0.78620000 33.87430000 36.17270000
51.02240000 48.18460000 5.42260000
15.40980000 -53.39860000 -47.30710000
18.85850000 -51.37210000 -45.48410000
18.97930000 -12.79960000 34.46300000
21.57350000 -12.33580000 34.06900000
51.26990000 -53.92960000 -15.97980000
47.18040000 -55.32620000 -26.04360000
49.44690000 -54.32600000 -20.77150000
-33.40440000 -61.87470000 -49.71800000
-31.92580000 -61.59860000 -49.13300000
-31.09930000 -60.67230000 -48.92210000
21.82130000 -17.88900000 31.11240000
16.09340000 -16.92300000 33.07400000
18.06560000 -15.45470000 33.45050000
46.36530000 -42.81240000 -8.52950000
-41.26300000 -38.26820000 -31.70440000
-40.09320000 -39.48510000 -33.74630000
-39.01280000 -38.13950000 -33.93710000
-41.65280000 -40.10360000 -32.49430000
-47.35880000 -28.23120000 0.71790000
57.81400000 54.69040000 -12.63620000
-55.84170000 -28.27660000 -8.00860000
63.49580000 -7.94030000 6.37860000
62.39230000 -9.91100000 6.87970000
61.82000000 -12.07930000 6.21560000
-70.03180000 46.61590000 -14.34020000
-68.71520000 48.72850000 -11.91940000
-78.21940000 24.30570000 -17.45820000
-77.65410000 23.30810000 -15.23610000
36.27940000 -58.95720000 17.90620000
-55.98290000 -21.67610000 8.33440000
53.25160000 6.88100000 16.26630000
-77.23220000 26.11830000 -20.15040000
-71.88940000 32.81040000 -7.86060000
-51.83640000 -12.86960000 15.50960000
-48.64950000 -12.71750000 18.25430000
-16.51350000 -51.50610000 -49.63190000
-15.68630000 -54.78700000 -50.58500000
70.65590000 10.28780000 -26.14520000
-52.89730000 -9.78040000 16.36750000
-16.21350000 84.08510000 -46.32650000
14.04820000 -37.80460000 -43.06560000
18.37430000 -36.74040000 -38.86330000
49.26500000 -59.90870000 -3.00250000
-33.45820000 -52.34050000 -46.52340000
-2.74500000 -37.55320000 -11.13550000
-1.58050000 -37.63310000 -11.70770000
-0.28070000 -37.55730000 -10.87110000
-0.28260000 -37.72900000 -12.81880000
-45.02240000 -39.53230000 -2.69850000
42.45610000 -33.47900000 -1.89040000
37.58010000 -33.55770000 3.11410000
-9.48140000 84.89260000 15.50480000
-1.64810000 -37.75100000 -12.97780000
-1.30540000 -37.83050000 -14.15870000
-2.25920000 -37.79720000 -13.53220000
6.08040000 61.86110000 -53.05800000
-2.61610000 -37.69170000 -12.56550000
7.12580000 76.14330000 18.72720000
6.10910000 69.86130000 19.55240000
63.63590000 0.57140000 -35.72200000
-11.55850000 -34.84650000 4.45910000
46.46290000 83.70350000 -27.53650000
-76.40790000 5.49060000 -23.53900000
51.44710000 -26.87910000 -27.31030000
-50.87070000 -45.54690000 -22.36780000
-50.79620000 55.01800000 -41.75310000
-39.27280000 -36.93840000 -32.91190000
-38.30300000 -36.34300000 -32.19540000
-36.00340000 -37.53390000 -35.41420000
64.67370000 34.00540000 -1.61600000
-34.41080000 -40.88340000 -38.80490000
-46.32770000 55.85720000 -45.17580000
-51.14460000 56.25790000 -40.20770000
46.71900000 70.77410000 -14.60260000
-67.86840000 49.30860000 -20.47410000
-34.19070000 -60.36120000 -52.65750000
-3.13850000 -37.60760000 -27.56380000
-1.39080000 -37.51930000 -29.29940000
0.83190000 -37.79480000 -26.98320000
-18.38800000 -10.99390000 -55.25500000
-8.59000000 -16.18390000 -55.57760000
-6.18990000 -11.36400000 -55.66620000
1.10630000 -37.40590000 -29.96220000
0.39390000 -37.69450000 -28.38280000
2.24620000 -37.64880000 -27.68890000
-27.33260000 83.48080000 -41.31650000
65.34970000 -11.31320000 -31.20060000
-41.92510000 -54.44540000 -41.98960000
-46.30690000 -46.05420000 -30.19560000
-43.23460000 -44.13410000 -32.73570000
-44.34970000 -47.28070000 -33.18380000
29.96990000 -48.23720000 -38.01940000
4.58670000 -37.60170000 -26.36950000
15.77040000 -36.68850000 -40.84490000
61.04940000 -15.48450000 -33.59500000
40.61410000 -7.89650000 27.59320000
8.24580000 52.14590000 28.00170000
-35.46120000 32.57380000 -63.03870000
-30.61180000 31.15380000 -65.48660000
66.55800000 33.79610000 -29.95680000
65.46730000 35.54880000 -29.82680000
67.02920000 34.08130000 -28.43810000
18.03690000 56.40580000 23.16500000
16.30010000 55.44170000 24.75750000
18.46580000 54.12170000 24.77570000
15.53640000 52.77240000 26.29470000
15.56680000 -33.82860000 1.58170000
16.53920000 -33.72620000 1.35180000
18.52100000 -33.61340000 1.73900000
59.75150000 33.46760000 -40.58260000
57.38790000 30.86800000 -44.23460000
52.09350000 29.77820000 -49.76060000
36.45980000 -57.94570000 -42.00650000
34.94680000 -56.48690000 -41.40210000
61.39190000 32.06180000 -38.88050000
60.25480000 41.33860000 -33.66400000
59.82670000 38.09560000 -36.99690000
-45.02570000 83.84240000 -25.18710000
48.50020000 -56.88630000 -26.31520000
43.51630000 -54.60720000 -30.68500000
-76.91370000 54.16600000 -12.69390000
-25.72020000 -45.09960000 12.14430000
-27.62790000 -41.30420000 9.71130000
34.60990000 83.61870000 -33.59260000
-34.06810000 -36.22980000 -2.00480000
-36.95040000 -36.09360000 -4.20080000
-37.49610000 -36.32200000 -6.72140000
25.50000000 -7.84860000 -52.26910000
21.15970000 -10.16110000 -53.15460000
33.10570000 50.20050000 13.24250000
-37.01020000 -49.29080000 6.56010000
55.99100000 -12.31210000 -45.83670000
54.05880000 -5.86190000 -51.02420000
-33.56600000 -48.37830000 9.06930000
-35.74620000 -47.31020000 6.69870000
52.95740000 -8.66340000 -51.02800000
-38.76470000 -48.06530000 4.25490000
-46.81570000 -39.51860000 -24.14310000
-47.40680000 -38.90880000 -21.92680000
-46.28360000 -37.16000000 -21.07880000
-46.33260000 -38.15070000 -23.08400000
-5.11760000 -37.51810000 -26.14910000
-1.97580000 -37.80790000 -26.18300000
27.30930000 -38.31250000 -22.80380000
30.71870000 -37.89930000 -21.11610000
11.78820000 29.38190000 36.32070000
14.49620000 30.77190000 35.62320000
17.71290000 30.15460000 34.90100000
14.05940000 27.66120000 36.29290000
16.36210000 26.23050000 35.95720000
-74.41340000 -11.68170000 -27.49260000
-33.04110000 -24.41930000 -58.52390000
-29.78130000 -24.20400000 -59.91750000
73.18610000 10.15130000 -25.66920000
48.42500000 86.84180000 -20.07920000
47.26160000 86.49930000 -13.43790000
23.24580000 10.66470000 36.51080000
21.79490000 8.22080000 37.11790000
47.80190000 53.01860000 -41.34740000
73.39230000 12.83860000 -24.26950000
74.53160000 -4.01700000 -16.59170000
74.95090000 -0.38050000 -14.73570000
-46.52780000 -6.17770000 -49.49780000
-15.99650000 32.17040000 -54.82610000
44.62210000 54.16220000 7.72050000
44.38110000 51.94720000 9.55680000
25.52800000 -37.35790000 -40.75560000
-48.20720000 84.66990000 -6.67350000
37.35530000 -7.93860000 29.31780000
38.93710000 -9.62860000 27.98600000
32.62140000 -11.40740000 30.41150000
34.80750000 -11.49840000 29.34750000
38.65970000 -11.26530000 27.55300000
36.82510000 -10.50320000 28.67330000
-1.23570000 -31.90560000 13.75180000
-54.10490000 -55.09940000 -14.60210000
23.01210000 -51.58710000 19.14050000
-51.11740000 -7.35660000 -58.72810000
-54.02740000 -5.06780000 -57.27190000
-62.81800000 -16.80370000 1.38050000
2.64480000 -38.75630000 -33.58900000
27.62040000 -48.32480000 14.65580000
27.37020000 -49.96110000 16.14970000
-41.00520000 -43.38940000 -34.75270000
12.93780000 -39.85070000 -23.15730000
0.32120000 83.14320000 12.58270000
4.21120000 -58.06410000 29.63580000
5.06560000 -59.37640000 29.64880000
-25.54760000 -11.01360000 34.32600000
-23.31410000 -13.11890000 34.00800000
-55.19970000 53.84330000 3.42890000
-56.20880000 53.47380000 1.84390000
-48.60810000 -15.27960000 -56.78330000
-24.99010000 -62.52570000 -54.80690000
11.34920000 -0.26540000 39.39250000
11.24670000 -3.09030000 39.27500000
9.05070000 -3.72280000 39.33430000
2.65710000 -56.44480000 22.46100000
42.17270000 -42.39350000 -20.40840000
41.31150000 -41.25400000 -20.88490000
5.41580000 -58.69080000 24.11130000
6.79600000 -60.32790000 26.68690000
-92.21960000 38.69580000 -17.32020000
-90.91610000 35.43650000 -17.31820000
-87.96460000 31.46400000 -15.98170000
11.13450000 -38.59000000 -33.15930000
-54.72800000 -54.39580000 -25.59100000
38.52830000 -49.50000000 -33.11090000
43.13120000 -46.60230000 -25.79870000
-17.24170000 59.64790000 -51.97390000
-22.09910000 59.55220000 -50.58760000
5.24640000 -36.88690000 -41.03410000
6.32250000 -36.62360000 -42.68840000
-13.02570000 61.55730000 18.97550000
-45.96550000 -19.07490000 19.71440000
2.84480000 -36.76440000 -43.56210000
-18.95240000 55.68090000 24.94880000
-21.58780000 53.92940000 25.32360000
36.62110000 -46.54860000 -34.22450000
40.43250000 -46.09740000 -29.34700000
36.00660000 54.97580000 14.16110000
36.42940000 55.99900000 12.99510000
-51.01250000 63.54020000 -6.29710000
-11.86700000 -19.10920000 32.92950000
55.27990000 4.72650000 18.37110000
35.22360000 53.60540000 15.90180000
36.78420000 52.16620000 15.83270000
39.19260000 -44.94530000 -31.15610000
32.59210000 -46.21430000 -37.76530000
36.82990000 -44.98140000 -33.92600000
47.09790000 24.28470000 21.97230000
43.84140000 22.52030000 24.93050000
45.66790000 22.75850000 23.43950000
-16.67210000 -60.64980000 -52.84220000
-43.13240000 -28.65900000 3.59700000
16.84640000 -7.38410000 -71.14330000
13.74430000 -9.26690000 -71.37320000
-63.57900000 -62.08420000 -16.26080000
-5.93580000 72.93010000 -52.09680000
-1.97290000 75.24890000 -51.72690000
51.17410000 -26.35060000 -30.02140000
63.76470000 48.27400000 -22.46140000
-28.84210000 -35.32500000 6.78420000
64.25560000 45.63450000 -22.29220000
37.56730000 -33.04830000 -9.31900000
31.45590000 24.67590000 31.40730000
28.00670000 24.54850000 33.07150000
8.94210000 -8.40760000 38.17420000
11.14310000 -8.00740000 38.01300000
13.04420000 -6.99790000 37.94590000
23.44830000 -32.52630000 -43.16960000
47.25130000 -53.54820000 -17.81790000
-67.89250000 -19.09890000 -27.16190000
24.64690000 -18.11490000 30.16930000
26.84800000 -17.94550000 29.52680000
26.55450000 -19.33480000 28.61920000
9.89580000 -52.51970000 20.10200000
25.76780000 -13.68270000 32.10710000
-10.15380000 -23.38950000 26.03100000
48.55810000 -27.49790000 -31.10050000
53.14290000 -24.77750000 -30.64800000
32.34670000 83.89110000 -35.52670000
62.06290000 37.66520000 -33.86450000
66.95980000 36.00210000 -26.49720000
-75.61380000 34.33760000 -20.95480000
-74.91890000 33.22920000 -22.15320000
33.20600000 -60.42660000 18.64280000
19.15950000 73.08180000 15.45460000
61.47200000 43.95790000 -29.23690000
63.03130000 41.46820000 -28.59590000
63.48940000 38.21350000 -30.95930000
62.62250000 40.57340000 -30.56000000
23.75370000 -11.38400000 33.80920000
24.76430000 -12.70430000 32.90420000
41.92490000 -31.91170000 2.08110000
6.55840000 -38.34000000 -1.95900000
25.26920000 -11.22830000 33.39910000
61.47970000 42.38000000 -30.79670000
62.13750000 40.03540000 -31.93540000
39.68090000 -32.46400000 2.95690000
39.33310000 -33.44130000 1.96750000
40.98310000 -33.34090000 0.55990000
-30.39390000 -57.81590000 -46.74550000
14.28700000 54.41950000 25.82800000
-9.02700000 -60.47010000 29.13410000
-13.75220000 -60.68930000 27.84860000
-36.31720000 -32.83180000 -34.96710000
34.16900000 -21.26400000 18.82670000
-62.37280000 12.39000000 -39.80520000
-54.79620000 11.85860000 -43.85720000
-62.25430000 20.22120000 -37.95080000
-4.75600000 52.78910000 -55.07540000
1.25200000 -42.53410000 19.97780000
-34.09470000 -34.67890000 -27.94850000
-57.75460000 61.01730000 -18.31980000
-58.31780000 -61.27160000 -3.39970000
-56.63370000 -61.89180000 -1.53280000
-52.18080000 -60.78380000 5.14170000
-53.00340000 -59.78870000 3.83830000
59.01900000 44.20890000 -2.84600000
-85.56580000 37.32750000 -20.10620000
19.63940000 71.01200000 13.25260000
8.90580000 58.55530000 21.65440000
-48.38020000 -34.46530000 -28.56590000
-10.12270000 -37.34430000 -17.58180000
-15.60410000 -36.96620000 -15.38900000
-46.81950000 83.95330000 -10.04420000
-21.55780000 67.52220000 17.82320000
87.26020000 43.87090000 -19.21500000
-26.83600000 -35.82670000 -10.77230000
65.04410000 48.88520000 -22.27220000
24.33980000 2.16630000 34.08450000
27.71400000 2.99480000 32.85900000
81.12050000 53.93730000 -16.29880000
-41.02700000 -45.14480000 -38.63390000
-29.80420000 55.95160000 14.79840000
38.37580000 -34.54200000 1.70150000
35.51300000 -34.61830000 4.06020000
35.79900000 -36.57130000 3.94540000
43.65070000 -32.03410000 -0.16070000
69.88270000 -9.25500000 -12.72420000
70.52490000 -8.91730000 -15.97920000
-44.29770000 -32.42210000 -38.68130000
-12.38090000 -15.40690000 -70.13390000
66.33660000 -20.66360000 -14.17380000
39.16510000 -21.65650000 15.17030000
29.13270000 -46.28970000 -40.46290000
80.64230000 46.44980000 -23.41080000
-27.03810000 -58.39610000 17.57150000
-31.83610000 -58.57500000 15.14530000
12.62730000 -44.62580000 -49.03730000
18.15270000 -44.74660000 -46.84840000
-55.04610000 -15.42920000 -47.69110000
25.65370000 64.24290000 10.83070000
-15.81850000 -52.85970000 -53.23330000
-28.14350000 -53.03740000 -49.57680000
-22.21540000 -52.68990000 -51.64080000
38.50710000 69.88190000 -0.48340000
34.77000000 69.45190000 3.24520000
-36.42730000 10.63360000 30.40180000
37.53950000 85.84670000 -36.23030000
38.48400000 85.43070000 -31.96670000
52.84210000 -14.18760000 15.10820000
23.96210000 -54.50010000 16.14520000
4.02030000 44.43960000 34.37930000
14.64480000 -11.21910000 36.06590000
14.72350000 -61.89740000 -56.45190000
54.35990000 -18.05020000 4.53600000
56.18610000 -18.19120000 2.31010000
54.81190000 -16.35630000 5.92360000
20.30530000 -14.09810000 33.65480000
45.83790000 -57.50120000 -23.66540000
45.65760000 -55.50450000 -22.43810000
-45.68190000 -22.37430000 10.30070000
35.77310000 71.10960000 1.81770000
-25.27960000 55.05930000 17.21510000
-60.02290000 -62.86030000 -11.93690000
-58.07580000 -62.70500000 -11.50250000
-59.01410000 -63.06770000 -13.19890000
-57.42200000 -62.37590000 -14.19950000
-29.38080000 -50.54280000 -45.19720000
-56.51170000 -61.39020000 -12.76200000
-56.26510000 -60.11400000 -15.54450000
-10.29280000 -48.19050000 20.69600000
-58.80310000 -62.07890000 -20.06880000
50.04760000 33.35840000 16.68250000
-79.04430000 18.54760000 -17.40360000
-79.71980000 13.59740000 -18.16920000
3.73650000 -1.31130000 37.09560000
-26.43270000 59.94370000 -48.88260000
41.71050000 -16.03650000 22.68140000
67.75010000 10.51320000 -36.95170000
22.22370000 -9.67380000 32.49360000
27.13930000 13.13300000 31.76150000
13.38690000 9.67510000 38.88170000
14.55250000 3.86990000 38.90360000
60.07010000 -13.40340000 7.76860000
70.13360000 -13.36390000 -23.52290000
66.44530000 -13.96130000 -31.00870000
62.44540000 -17.91520000 -33.10590000
64.95450000 -16.30080000 -30.87240000
-23.67330000 71.76150000 16.69910000
-22.30230000 74.06340000 17.00480000
-18.45380000 72.92990000 18.04790000
-18.00590000 78.19690000 17.57380000
25.46030000 3.65090000 36.30660000
29.36400000 1.75740000 34.89100000
31.48270000 2.90710000 34.09690000
65.83440000 -17.19120000 -4.85350000
66.68460000 -17.56810000 -7.04430000
65.60520000 -15.63590000 -2.93600000
23.43970000 -4.44160000 36.00350000
25.01410000 -5.46130000 35.27420000
29.62600000 34.12560000 25.57980000
22.30040000 29.64850000 30.20730000
25.67800000 33.41080000 27.58580000
65.18120000 -17.25000000 -3.56520000
62.93550000 -16.83280000 0.15060000
64.15820000 -16.48990000 -1.32810000
-42.39040000 -52.50600000 -40.66190000
-42.21500000 -51.02770000 -39.70740000
6.47740000 49.10550000 30.02290000
30.57410000 12.43520000 33.89240000
32.09460000 14.39990000 33.10060000
32.93190000 10.23530000 33.19290000
6.63740000 51.92520000 22.58130000
8.06740000 -10.51650000 37.45510000
2.72640000 -26.19610000 22.82050000
23.20140000 -36.93810000 -35.72270000
26.21270000 -36.51740000 -35.76200000
23.54660000 -36.70570000 -37.31600000
-13.04390000 42.81670000 -55.05190000
-10.36330000 39.97480000 -55.62360000
-10.03640000 43.26660000 -55.46430000
29.55060000 -36.93600000 -30.72750000
19.33980000 1.87620000 35.49340000
-8.44670000 49.00900000 31.16400000
-19.18150000 69.39370000 -51.91090000
-1.46570000 -37.90310000 -24.59650000
0.40060000 -37.97850000 -23.87630000
-3.18420000 -37.86450000 -22.42030000
0.41280000 51.42850000 -62.95350000
9.31400000 60.35410000 -52.69410000
-37.78460000 48.54640000 20.62590000
-66.32490000 43.44870000 -6.20860000
-67.31340000 44.22000000 -8.84570000
-33.62570000 51.16170000 21.65750000
-10.11820000 46.93040000 -65.51020000
4.08460000 -36.72430000 -6.70190000
15.71990000 -33.95810000 0.80930000
-16.38040000 -57.62580000 20.75650000
-28.23210000 -57.50720000 22.28870000
-17.35740000 -60.66380000 23.94310000
-17.06660000 -59.13950000 21.97100000
43.88190000 -13.83690000 22.82030000
-29.91920000 -38.84000000 -16.85320000
-45.84450000 50.13240000 -40.21440000
25.02030000 -58.71680000 19.25390000
-36.17110000 -28.99410000 -45.55930000
59.69340000 52.82570000 -23.01170000
-84.02200000 45.48730000 -13.92230000
25.35760000 17.02910000 35.29820000
25.87750000 18.94170000 34.90530000
16.76150000 -39.61230000 -22.32020000
-14.78540000 -58.64290000 28.12200000
-50.21610000 77.07180000 -10.90150000
-51.16870000 77.27350000 -15.70730000
24.68650000 18.34260000 35.36780000
27.39990000 18.05610000 34.54020000
35.10310000 -59.97350000 -38.43830000
-60.21400000 -59.67490000 -8.29720000
-55.03560000 -50.23640000 -14.76230000
17.72560000 51.16700000 26.38830000
-1.82670000 -37.03880000 -6.60010000
-2.40650000 -37.22850000 -8.25450000
0.74800000 -37.03620000 -6.85580000
1.97450000 -37.13260000 -7.74970000
-47.30660000 -48.50800000 -30.60830000
-3.83780000 -37.08500000 -7.40050000
-3.76520000 -36.78940000 -5.50590000
74.99040000 3.74540000 -14.35610000
15.21570000 57.04580000 23.29850000
16.93460000 57.52490000 21.68110000
57.71250000 52.94130000 -10.17630000
68.13970000 33.42320000 -26.72060000
-49.70640000 -36.97160000 -24.76630000
-42.05550000 -36.23540000 -26.16170000
3.41350000 -37.91000000 -20.97270000
68.72140000 2.67230000 -35.18460000
-3.47790000 -1.51990000 40.13610000
0.48290000 -37.81190000 -14.39140000
6.67670000 -3.15260000 39.77730000
-16.85710000 -53.18350000 18.27720000
-18.89620000 -52.50170000 17.42320000
1.25690000 -37.69870000 -13.47850000
-20.28320000 -51.24300000 16.65880000
11.81390000 -60.01880000 28.50670000
-55.38000000 63.32910000 -16.13270000
-47.88950000 -23.85960000 -45.19350000
-47.98270000 -24.90630000 -43.91360000
-46.08160000 -25.15730000 -44.72640000
-50.20970000 -23.05610000 -44.64430000
53.16240000 -6.88890000 18.85860000
55.08560000 -7.86900000 16.50730000
-65.59080000 54.01720000 -13.42430000
-67.20200000 4.22480000 -39.34870000
-69.40750000 2.62350000 -38.42900000
6.64730000 -22.60510000 30.41310000
-12.58000000 -62.25310000 -58.98560000
-8.80710000 -61.09000000 -59.54500000
35.57930000 57.93600000 -41.65040000
42.32350000 56.12080000 -35.99600000
58.81270000 -21.49630000 0.98470000
-36.21930000 -45.87080000 -42.20650000
-38.05700000 -44.33470000 -40.90960000
-33.49300000 -44.74520000 -44.03270000
-30.23560000 -45.95800000 -45.87310000
38.43450000 -24.94950000 16.19810000
10.36580000 40.07300000 -54.24390000
-34.04560000 -29.09630000 -46.68170000
-32.72800000 -28.58500000 -48.26420000
-2.90750000 47.36140000 34.32930000
-22.18790000 -53.72830000 -48.78720000
-19.86230000 -52.27110000 -49.15800000
-51.17620000 -61.45610000 -0.77350000
-49.98190000 -60.11610000 -1.41070000
-51.61760000 -61.73850000 1.36200000
27.13310000 -20.75360000 -52.09760000
-24.07180000 -17.62790000 -55.03810000
0.36810000 50.55430000 30.86770000
2.33230000 49.81790000 31.70160000
66.37080000 7.51800000 0.98660000
26.61130000 -34.28840000 -4.94850000
28.26470000 -34.08080000 -5.03570000
25.55880000 -34.16660000 -3.64270000
48.63870000 -0.09120000 23.88110000
50.26470000 0.43210000 22.60680000
28.22440000 -22.39140000 25.12020000
30.11380000 -23.57990000 23.12150000
27.66060000 -33.95120000 -3.94710000
26.25160000 -20.97690000 27.42440000
-39.20860000 76.44540000 3.32220000
-51.24490000 -60.23700000 6.78480000
-51.46610000 -59.50930000 5.21890000
9.11180000 15.77140000 36.35400000
11.60020000 15.39400000 36.05930000
33.92380000 -33.93880000 -25.71890000
36.42630000 -33.11900000 -27.85560000
-52.19890000 -55.30440000 -4.34260000
38.52190000 -42.29490000 0.02100000
-21.96810000 -39.22320000 -23.72330000
13.80180000 16.24670000 35.13520000
38.04760000 -44.03540000 0.86360000
39.33980000 -44.28250000 -0.18210000
38.62190000 -32.41680000 -27.91000000
39.58040000 -31.80860000 -29.62650000
50.28720000 54.97970000 -37.33790000
-49.52520000 -4.48200000 -60.47430000
51.75480000 57.02170000 -33.32510000
55.86980000 55.02320000 -28.73240000
54.38010000 -58.08680000 -18.36640000
54.99040000 -57.42070000 -15.92040000
39.58760000 -5.67500000 28.79970000
-81.98840000 35.33290000 -17.53640000
-1.96210000 -57.63980000 -56.76430000
35.16440000 -0.49010000 32.16680000
23.40240000 -36.87520000 -38.47920000
22.65810000 60.40010000 -50.92970000
-5.02000000 -33.45650000 -47.26020000
-41.88690000 -36.24590000 -11.73770000
-42.48240000 -36.25400000 -7.95710000
-41.69700000 -36.12140000 -9.27240000
38.89740000 -31.64960000 -39.56690000
-9.22060000 -34.16620000 -44.89260000
-6.92910000 -34.01370000 -45.98930000
70.93330000 -4.18130000 -4.86150000
19.73590000 -30.42100000 19.10790000
-41.92640000 -48.43600000 1.08200000
-70.61840000 32.07510000 -4.16340000
17.73810000 -49.01650000 16.79790000
-6.52010000 47.79380000 32.75650000
22.66790000 36.70730000 31.37530000
22.04610000 35.59430000 32.03050000
23.95330000 35.62410000 31.25210000
-52.69870000 7.42630000 20.10910000
23.31180000 37.93940000 30.58750000
25.10800000 26.93710000 33.49340000
-50.31520000 -4.64640000 20.33840000
-54.99420000 -4.38440000 16.50600000
-45.98540000 14.71250000 -47.82360000
22.43540000 33.84810000 32.46770000
25.02380000 33.83000000 31.55180000
-58.98590000 -4.55010000 12.69420000
-55.43180000 -6.84270000 15.35630000
-56.68400000 -8.70470000 13.45490000
6.31860000 84.14730000 -46.79640000
35.08770000 -33.92890000 -21.04350000
-57.01630000 -11.33250000 11.86130000
