9.44449200 -3.26345700 -20.69171000
3.76932900 -63.52780900 -15.42975000
4.81647900 -64.47231300 -17.14410000
3.35392400 -64.31051600 -16.27660900
1.94833400 -64.89253200 -16.96149100
5.61117600 -64.39700300 -17.38225900
3.76071200 -65.35471300 -17.95166000
5.10615200 -65.98062900 -19.04022000
2.70670300 -66.28334800 -19.16309000
-0.49037900 -66.07475300 -20.16632100
6.74942400 -66.36305200 -20.37170000
4.37948600 -66.95636700 -20.17554100
3.43647000 -67.33896600 -20.80188000
6.99243500 -67.36077900 -21.87340900
1.55486300 -67.35571300 -21.27533000
2.95989200 -68.28659800 -22.68261900
6.34814500 -69.12418400 -24.05640000
-0.46398900 -67.54918700 -23.67565900
4.26138300 -67.54910300 -21.21899000
4.43675200 -69.41754200 -24.30542000
4.76097100 -70.13839700 -25.63544100
11.54603000 59.70119100 -5.99590900
10.67997000 58.05146000 -7.08000700
9.99121600 58.27383000 -10.00843000
10.53874000 58.42379000 -8.30399300
7.93846000 57.43283800 -13.31592000
9.56115200 57.07667900 -9.65443500
10.96434000 57.19688000 -6.17746500
10.01673000 56.64576000 -8.36280300
8.84730400 56.66648900 -10.89370000
9.86359800 54.63745100 -8.49813700
10.48254000 55.71591900 -7.31644100
6.92328300 56.18343000 -13.53658000
8.94600300 55.15893200 -10.04091000
6.07158800 54.95373900 -13.79862000
7.51174000 54.85734200 -12.07052000
8.86796600 53.67966800 -9.90896300
6.64931500 52.51958800 -12.43001000
9.78718000 52.30720900 -8.88245200
10.95830000 53.84275100 -7.04719200
8.69785500 52.61088900 -10.11228000
8.00775600 52.96577800 -10.95950000
8.79016800 51.04941200 -10.14920000
9.76543100 50.50688900 -9.20229600
7.25621300 50.23205200 -11.66251000
11.03906000 49.62233000 -8.18347500
8.22892100 48.40332000 -10.94086000
9.12267000 49.36034000 -10.02665000
7.07739400 48.35239000 -11.83877000
9.62199700 47.48534000 -9.88326000
6.01093400 47.07553900 -12.47293000
9.07484100 46.26054000 -10.48186000
8.01452300 47.10837900 -11.17463000
8.46387200 45.25793800 -10.98432000
5.76181800 44.70845000 -12.41073000
7.09668900 44.64807100 -11.78851000
3.78800500 41.07730900 -12.31747000
5.23728500 42.42102100 -12.28231000
7.15091800 42.55678900 -11.62396000
8.70954800 43.15210000 -10.89946000
10.50124000 43.12702900 -9.87893300
6.22065200 41.70864900 -11.88916000
10.21247000 41.90567000 -10.12944000
9.30908600 41.53006000 -10.57528000
7.63288900 41.49276000 -11.37217000
5.69770700 41.45307200 -12.02664000
4.91537200 39.82635100 -11.88586000
5.40917400 41.09380000 -12.05101000
8.07575300 41.50565000 -11.16459000
7.25296500 41.54793900 -11.52540000
5.49716200 32.24874900 -15.25264000
3.93044900 28.81240100 -14.73734000
3.31335100 27.49364100 -14.54169000
3.75470400 25.65407900 -14.25973000
4.13381000 24.37949000 -14.00004000
1.94493100 26.24231900 -14.15357000
1.54667300 24.31558000 -13.68019000
4.02273500 22.46054100 -13.66902000
0.73804800 21.71763000 -12.93118000
2.86106800 20.85018900 -13.30320000
-1.62444900 22.10813000 -12.04218000
1.02837600 20.14761900 -12.70466000
4.56463000 20.73615100 -13.48801000
0.35816100 18.13750100 -12.21585000
2.72798600 17.58794000 -12.92601000
-0.51790800 17.18858000 -11.85211000
4.76212900 16.69411100 -13.24190000
4.54291200 18.45179900 -13.34209000
1.43161600 16.93995100 -12.55386000
0.54720000 14.90603000 -12.36585000
3.31694700 15.53901000 -13.01247000
2.16106800 15.20299000 -12.79065000
-0.71776400 13.91077000 -12.00842000
3.96539400 12.55063000 -13.46045000
-1.30670600 10.51985000 -12.04065000
-2.09598900 11.96073000 -11.52808000
1.47484500 12.94571000 -12.84595000
4.95509300 11.42711000 -13.52508000
3.21602200 12.47850000 -13.33872000
0.16196200 9.15655400 -12.57898000
3.41652100 9.59755600 -13.29987000
5.14389700 8.61459900 -13.49152000
-0.88626600 8.51770100 -12.21674000
2.60956700 8.63183100 -13.18494000
3.51549700 7.88535800 -13.31293000
4.21066500 6.50133100 -13.47211000
0.99178100 7.63660600 -12.58344000
-2.91978500 7.37814500 -11.10065000
0.16586900 7.12153200 -12.43060000
1.16762700 6.40890200 -12.86273000
4.66553800 4.65756800 -13.63153000
0.41343700 5.91961800 -12.57794000
3.20994500 5.29447200 -13.56513000
-0.83060700 4.87996800 -12.16718000
3.21111900 4.32370300 -13.45960000
0.30582800 3.97502200 -12.81513000
2.27493400 4.13660200 -13.26624000
-1.77558500 4.15116100 -12.05530000
-2.33944000 3.56154300 -12.37091000
-0.72135400 3.27312900 -12.97669000
1.17767100 3.14733700 -13.40063000
3.46140400 3.38476400 -13.70459000
3.15108900 2.59105600 -14.09216000
-0.90956200 2.82732000 -13.48444000
2.72699000 2.15081100 -14.48450000
-3.12372900 2.28263700 -14.38104000
1.71481600 1.53985000 -15.52496000
-1.79400500 1.95738100 -15.03723000
-0.15854700 1.24273300 -16.51868100
3.54287300 0.64292800 -16.47443000
-1.86828600 -61.62879900 -13.63129000
-5.16660700 -60.31113100 -13.27954000
-2.55081900 -62.60858200 -15.51874000
-4.88285800 -61.32815900 -15.07660000
-0.31838200 -61.17873000 -12.66785000
-0.47829400 -61.92429000 -13.45374000
-5.81357600 -61.56808900 -16.33507900
-3.62166600 -63.16787000 -17.24811000
0.78896300 -62.68478000 -14.25275000
-4.05855600 -60.85586900 -13.60938000
-0.84435300 -62.46204000 -14.36054000
-6.50013700 -61.40895100 -17.18396000
-4.80638100 -63.15639900 -18.68231000
1.40720400 -64.20545200 -16.09589000
1.18677500 -64.69229900 -16.90436000
-2.91092700 -64.01999700 -18.32416000
-0.94842500 -64.06300400 -17.03766100
-2.44420600 -64.68406700 -19.30756000
-1.04226700 -66.03193700 -20.57366900
-7.23919200 20.90741000 -8.65121500
-3.25948100 19.07778000 -10.78369000
-8.64125300 19.68951000 -7.10310700
-5.94797000 19.03922100 -9.17287700
-4.79767100 19.26104900 -9.94556200
-5.29309500 16.99560900 -9.44567100
-2.27377900 17.67219900 -11.07831000
-7.41570800 19.33719100 -8.09168000
-7.94002200 17.78541900 -7.38455600
-3.65434100 17.21917000 -10.43127000
-4.33064000 14.90880000 -10.10342000
-6.67948900 16.40613000 -8.37986800
-8.47092200 16.21834900 -6.63223600
-7.42582800 16.08313900 -7.70878400
-2.03398300 14.87988000 -11.35669000
-5.19570800 13.70411000 -9.59360400
-6.02480400 14.92882000 -8.88283200
-3.42655200 13.88757000 -10.78166000
-7.61759100 14.06499000 -7.50740500
-8.55046300 10.20689000 -6.75767500
-4.15996600 11.35479000 -10.39917000
-6.40279600 10.96660000 -8.86526700
-6.68594700 12.03959000 -8.50633100
-2.67872500 10.07105000 -11.38434000
-4.39720700 9.60960900 -10.33759000
-6.53990900 9.95226400 -8.72890900
-6.15820100 8.92455300 -9.19534800
-5.70282400 7.35248100 -9.61340300
-2.98055900 8.65352200 -11.21442000
-6.86986300 7.48977600 -8.67147900
-4.46476600 8.31361600 -10.36865000
-7.66850300 6.87937100 -8.03472600
-9.47138500 6.75354100 -6.07245500
-3.28246900 4.93183200 -10.98151000
-6.47211900 5.25257100 -8.83709700
-8.32783200 5.42286300 -7.03216000
-5.10208100 4.73345400 -9.94610600
-6.04284700 4.77711800 -9.21435500
-7.62994600 4.77067900 -7.88226300
-8.67032900 4.58866500 -6.85322200
-8.99599300 4.17760200 -6.85540800
-7.43857000 4.11228400 -8.56243900
-4.93329600 4.21337600 -10.40271000
-8.94866400 3.79010200 -7.59478800
-5.54448600 3.78573300 -10.54138000
-3.80610300 3.52133400 -11.81513000
-9.31457000 3.14318800 -9.57641600
-7.19057800 3.16201700 -10.97949000
-10.14429000 3.44138700 -7.75628700
-3.04811500 2.99529700 -12.98852000
-10.39433000 -54.14506900 -6.82751500
-11.06822000 -54.61370100 -8.45947300
-8.27733600 -55.35620900 -7.39740000
-12.13751000 -55.56124100 -11.28656000
-9.89091900 -56.10633900 -9.85687300
-12.28247000 -56.32957100 -13.03485000
-12.76419000 -56.27428800 -13.58069000
-8.81681100 -56.20756100 -9.03033400
-9.55648800 -57.58712000 -12.28857000
-7.73463400 -57.56021100 -10.51086000
-7.21755200 -56.75199900 -8.84735100
-8.20538700 -58.41313900 -12.30927000
-10.71980000 -57.68032100 -14.10797000
-3.31694000 -60.02885100 -11.87701000
-5.87641500 -59.17517900 -12.08508000
-8.42428200 -59.50883900 -15.53656000
-6.10044500 -60.00822100 -13.57782000
-7.10592700 -59.76752100 -13.98334000
-6.16415400 -60.64046900 -15.02918000
-8.38249200 -60.33977100 -17.07953100
-14.14646000 26.63191000 -4.16921800
-12.21235000 24.94812000 -5.21908200
-14.88705000 26.03084900 -3.77284400
-13.80564000 23.50638000 -3.65019400
-12.97887000 24.42124900 -4.33965600
-15.07476000 23.51372000 -2.55032600
-11.64300000 22.89909900 -4.95319000
-14.31281000 22.44561000 -2.77104100
-10.64378000 21.04517900 -5.24805100
-12.25907000 21.04103100 -3.89957300
-13.84484000 21.17972000 -2.67673500
-9.65743500 23.51947000 -7.59417000
-11.14989000 20.60490000 -4.56906500
-9.78547500 22.13295900 -6.83952200
-10.31937000 19.04583900 -5.02217400
-9.46892200 18.67590000 -5.94812800
-13.11553000 20.79257000 -3.16745000
-11.31509000 19.18869000 -4.11308900
-12.33472000 18.58577900 -2.95484100
-10.44530000 17.40554000 -4.55722900
-11.31111000 17.56137100 -3.67252100
-13.35076000 17.88275000 -1.47712000
-11.72732000 16.94981000 -3.03980200
-12.65047000 16.68668000 -1.78655800
-13.31183000 16.30425100 -0.85583300
-11.82559000 15.93892000 -2.71500600
-10.99272000 16.26785100 -3.78304800
-11.05554000 14.54463000 -3.53447200
-11.81034000 14.46452000 -2.54303900
-13.65303000 15.45002000 -0.08659100
-12.96561000 15.74626000 -1.04660700
-9.73879400 15.27990000 -5.03462400
-11.59885000 12.51764000 -2.48532900
-12.48680000 14.78486000 -1.29569100
-13.60023000 14.32096000 0.43030400
-8.60197200 14.20994000 -6.44094200
-11.99293000 13.62419000 -1.88178800
-9.55809800 13.82250000 -5.22284400
-10.38363000 13.05736000 -4.22316300
-12.75941000 13.45158000 -0.44780600
-9.68731700 12.22382000 -5.29803600
-12.21721000 13.01502000 -1.31955600
-12.60351000 12.08880000 -0.60246800
-10.87463000 10.54798000 -3.68161200
-12.36286000 10.80969000 -1.20913900
-9.55028200 10.73793000 -5.58693800
-13.10876000 10.82804000 0.50769400
-12.98625000 9.35685300 -0.04590100
-12.49628000 9.31310900 -1.07222300
-11.88290000 8.31944700 -2.05528500
-10.69990000 8.65026700 -3.96035700
-8.46002900 8.47265800 -6.88810300
-13.16241000 7.77964700 0.57150200
-12.66724000 8.00223100 -0.74961500
-12.26815000 7.18576300 -1.75098000
-11.09497000 7.06426800 -3.84938500
-13.02143000 6.97070600 -0.16527900
-12.68484000 6.06704000 -1.56769600
-12.10127000 5.79480700 -2.82495500
-10.75864000 6.03929900 -4.65325300
-12.82277000 4.74282500 -1.79135800
-11.94411000 4.55825700 -3.27812100
-9.50499900 4.93790600 -6.06661800
-11.23412000 4.32317100 -4.32654500
-9.74976700 4.34180800 -6.21100500
-13.58314000 4.24959200 -0.09364800
-12.17434000 3.91679400 -3.33775600
-13.18682000 3.92347300 -1.65465900
-10.52181000 3.54266300 -6.74993900
-12.74800000 3.43776200 -3.39270200
-14.10307000 3.26048400 -1.16375700
-12.29372000 3.36688900 -5.30059800
-14.94297000 2.95233700 -2.11883500
-16.33180000 2.73118600 -3.07959000
-19.71315000 -51.39400900 -9.22387700
-18.58177900 -51.96577800 -7.56683300
-17.10084900 -52.18981200 -7.90692100
-15.22386000 -52.67733000 -4.77240000
-16.95091100 -52.47742100 -6.01495400
-17.19117900 -52.58932900 -4.36834700
-19.57637000 -52.16489000 -6.53265400
-15.69841000 -52.61534900 -6.35784900
-16.11278900 -52.41093100 -9.58923300
-14.10373000 -52.96731900 -7.85400400
-17.90436000 -52.62369200 -4.31127900
-15.72007000 -52.70570000 -10.29077000
-12.42239000 -53.11930100 -4.89886500
-14.03930000 -53.03607200 -6.52941900
-11.71662000 -53.24354900 -5.93841600
-11.01701000 -53.35767000 -4.99408000
-13.08901000 -53.16899900 -7.10668900
-13.19272000 -53.27195000 -7.96655300
-12.20119000 -53.65195800 -8.29412800
-13.75307000 -54.07566100 -10.56488000
-14.60370000 -53.55028200 -10.64563000
-19.09848000 45.25569200 -0.40276400
-21.67808000 28.32300900 1.38418700
-20.49399000 27.54022000 0.58626000
-18.88031000 27.26252000 -1.01897100
-20.58688000 26.98675900 1.78647800
-19.50369100 26.97079100 0.02986900
-18.19545900 25.16649100 0.12504500
-15.86290000 25.48689100 -2.74324100
-19.51623000 24.84771000 3.80400700
-19.72030100 25.49642000 2.24330900
-15.90770000 23.97483100 -1.78987100
-18.58441000 24.86006900 1.12132100
-17.95870000 22.63235100 3.69953700
-17.97904000 23.73152900 1.33783700
-18.57924100 23.92590000 2.63553000
-17.34823000 25.18372000 -0.90032100
-17.96088000 22.67062000 6.25329600
-18.14549100 22.78019000 5.04439900
-16.75794000 22.53387100 0.40229600
-14.96738000 22.04880000 -1.76156800
-17.46203000 21.70096000 3.15655900
-13.58330000 19.72262000 -2.12213400
-14.93681000 20.13084000 -0.36603200
-17.18617100 21.25867100 6.19683800
-17.18392900 20.70717000 4.54986400
-15.49616000 19.23665000 1.41454400
-16.48341900 19.51470900 4.33086600
-15.75255000 19.09552000 2.26130900
-16.43453000 19.18460100 5.56058300
-14.79138000 17.80101000 1.11322400
-15.79132000 18.07210900 4.44087800
-14.04772000 18.41988900 -0.69144800
-14.84167000 16.25258100 3.27121500
-13.79549000 17.01230000 -0.44670200
-14.41625000 16.32839000 0.95524800
-14.97435000 17.11227000 2.38819200
-14.58109000 15.67225000 2.11970000
-14.18340000 14.87375000 1.32792600
-14.26919000 14.42439000 2.64789400
-13.29605000 12.93410000 0.64960900
-13.93778000 13.53168000 1.73153000
-13.97811000 12.99110000 2.32357700
-13.55561000 11.41264000 1.88583600
-13.37307000 9.52875500 1.48331000
-13.63460000 8.76543400 2.96666900
-13.63467000 7.43872600 2.21951400
-13.47618000 5.49241100 1.21943100
-13.48737000 6.17599400 2.48618400
-13.81780000 4.17641900 1.26257300
-13.92638000 4.07905900 3.20520000
-13.99867000 3.59120500 0.22430400
-14.20977000 3.49122300 1.62811300
-14.82157000 2.93204900 1.22705100
-15.15176000 2.72705100 3.20111100
-16.35593000 2.61077100 -0.57458500
-16.32996900 2.39842800 1.74743700
-16.72283900 2.32837600 2.42041000
-16.18291100 2.08928300 6.19665500
-17.85680000 1.99235300 4.12707500
-18.51906000 2.29970600 -1.77771000
-20.99534000 1.79808700 -0.65551800
-20.03042000 1.60462500 4.42077600
-22.66408900 1.42351000 -0.13836700
-22.50132000 -50.98637000 -9.99664300
-20.59202000 -52.06343100 -7.04126000
-17.88542900 -52.83105100 -3.58007800
-19.88224000 -52.75668000 -4.71588100
-20.80950900 -52.67001000 -5.51416000
-18.45227100 -53.30017900 -0.81854200
-19.76726900 -53.28987900 -2.70752000
-22.03704100 -52.42142100 -6.87213100
-22.85902000 -54.06237000 -4.90338100
-20.74379000 -53.23547000 -4.17010500
-23.04583900 -53.67868000 -5.83673100
-20.93238100 -54.36656200 -1.09692400
-23.88340000 -55.26269900 -3.82476800
-22.93590900 -56.39627100 0.53723100
-22.08649100 -55.31329000 -0.62207000
-24.83888100 -56.96675900 -1.63494900
-26.41962100 -56.43307100 -4.68121300
-25.72871000 -56.44028100 -3.87646500
-25.04579900 50.66550100 5.85516400
-25.25550100 50.67723100 4.67419400
-24.31315000 49.92345800 3.96484400
-23.80131900 49.56885100 7.21044900
-24.13375100 49.89323000 5.58526600
-22.69825000 48.43772900 3.03925600
-22.37711000 48.27270900 7.43405200
-21.75086000 47.99258000 9.22514700
-22.56900000 48.31979000 5.31801200
-22.13991000 47.98387100 4.57823400
-21.05359100 46.70069100 6.72526200
-20.15582100 45.55009100 6.30955900
-19.59170900 44.99158100 7.75116700
-25.39038100 45.37075000 6.62915000
-25.32007000 45.59489100 8.49163800
-22.78875000 41.79880900 4.77980100
-22.94743000 42.81127200 9.44060800
-21.97901000 42.13724900 11.28666000
-23.46104000 42.98455800 7.11991600
-24.23201900 43.83379000 4.84686800
-22.91704000 42.27153000 7.93472400
-21.89294100 40.71044900 8.00145800
-20.60450000 39.40947000 10.58023000
-21.90383000 40.08256900 6.15269000
-22.06638900 40.61291900 6.20283500
-21.59734000 39.75283100 6.61770900
-21.89415000 40.13000100 5.05734900
-21.86094100 40.15007000 3.07343200
-21.03219000 39.12105900 8.26338900
-21.75653100 39.75956000 4.01964500
-21.38225000 38.96563000 6.28878700
-21.73823900 39.49337000 5.09474600
-21.62527100 38.94437000 3.88454200
-21.38842000 38.55162000 5.98447800
-21.34205100 39.20190800 2.53466900
-21.42205000 38.73923900 3.00801600
-25.93527000 38.81686000 2.46475000
-21.85230100 38.61537200 5.11788400
-22.15535900 38.00305900 5.47599000
-21.20363000 38.66901000 1.80211900
-20.93458000 37.98197200 7.04851400
-21.48391900 37.86930100 6.30454000
-25.77692000 38.65049000 4.52630900
-25.43343000 38.41284900 7.16426600
-20.01792900 37.51244000 9.35374500
-24.70438000 38.09983100 6.06751900
-24.50238000 38.13058100 4.63152400
-21.95360000 37.49105100 6.36308700
-22.55430000 37.99630000 4.57543600
-21.93367000 38.44683100 3.92681200
-23.60774000 38.04544100 2.65248100
-21.64402000 38.10001000 2.39150200
-23.31263000 37.83848200 4.34648200
-22.57068100 37.89794900 3.51333200
-23.77965000 37.61692800 6.34331100
-22.89817000 37.86259800 2.44148200
-22.17653100 37.68206000 1.45747000
-22.66143000 37.66070900 5.65969000
-24.32725900 37.49408000 7.99341700
-21.43417000 36.99153100 7.08618800
-23.21003900 36.99107000 7.66499900
-20.81595000 36.87900900 7.39005800
-22.22893900 36.90499100 7.09771400
-23.55133100 36.77346000 8.62128400
-22.05691000 36.15443000 8.37066000
-20.36200900 37.01890900 8.09918000
-22.54657000 35.83274800 9.20485100
-21.04645900 36.09051900 8.01226500
-20.43519000 36.09088900 8.16513200
-19.40649000 35.12487000 9.41759100
-21.29916000 35.59223200 8.83804100
-20.49593000 35.45164100 8.82543700
-20.99836900 35.00264000 9.27845000
-22.18331000 34.69868100 9.82086000
-22.29340000 33.30743000 10.44938000
-24.20964100 30.63088000 8.75937600
-22.44964000 29.94766000 9.74181700
-25.16334900 30.52502100 7.72655500
-26.22842000 31.01470000 7.20754100
-22.45013000 29.43038900 9.16878100
-26.33914900 30.71410900 4.85485800
-24.34251000 30.25152000 7.65577200
-24.76205100 30.28364000 6.69403300
-25.12608900 30.32988000 4.93805100
-23.49103900 29.85457000 8.16898900
-24.05850000 29.78727900 5.58605800
-23.45874000 29.52799000 6.73720900
-22.39979900 28.95317100 8.32613900
-23.35209100 29.22471000 3.54231500
-22.27566000 28.52508900 7.44653300
-22.17491000 28.45667100 2.38692400
-22.59540900 28.58464100 5.70355200
-22.45562900 28.40593000 3.91074800
-20.92071900 27.47273100 8.65155000
-21.40617000 27.12225900 5.05534200
-21.31587000 27.10561900 3.62653400
-21.39479100 27.17231000 6.54010000
-20.17573900 25.72957000 6.64111300
-20.57201000 26.16744000 3.39683200
-20.57373000 25.93221100 4.81552900
-19.96186100 25.89184000 7.82940700
-19.18329000 24.14500000 5.78887900
-18.77813900 23.79001000 6.66577100
-21.44389900 1.21091900 4.81252600
-23.28669900 1.11394900 3.44689700
-24.34597000 1.04400800 1.22113000
-25.12507100 0.48420000 5.54205500
-23.32695000 0.55101400 8.42083400
-26.61016100 0.52244500 1.86676000
-26.93939000 0.35078300 3.48881600
-26.08433900 -0.08797700 8.95440600
-28.58445900 -0.00798700 4.27143600
-28.57377100 -0.38016400 6.79064500
-24.45926100 -57.58803200 0.73889200
-26.41427000 -58.71274900 -0.28656000
-27.47014000 -58.37942900 -2.83569300
-28.38159900 -59.69807100 -1.81402600
-29.48854100 -59.45615000 -3.80603000
-28.07865000 -60.01160000 -0.40100100
-29.75848000 -60.00877000 -3.16192600
-32.47649000 -61.03221100 -4.36267100
-26.41481000 -59.20216000 1.73962400
-29.66761000 -61.16759100 -0.13238500
-30.31703000 -61.78913900 0.92681900
-30.64925000 -61.82170900 4.66046100
-30.79291900 -62.05765200 2.43884300
-30.04759000 -61.74306100 2.32696500
-31.61570000 -61.97433100 -1.24572800
-31.70926100 -62.48706100 1.11505100
-33.00075900 -62.20824800 -2.84173600
-34.02203000 -62.72773000 -2.13226300
-33.94265000 -63.57157900 -0.35314900
-34.86491000 -63.71069000 -1.50994900
-29.22180000 53.25236100 16.66107000
-29.05500000 52.82199900 12.51538000
-30.31265100 53.05353900 13.44360000
-30.38559000 53.18838900 14.73468000
-30.26074000 52.84981900 11.46698000
-28.19747900 52.34196100 10.51550000
-25.48981100 51.68705000 10.73645000
-30.49964000 52.50159800 6.83184800
-26.23619100 51.54916000 8.76379400
-29.33649100 52.17070000 4.88024900
-23.56255900 50.38848900 11.55756000
-27.30924000 51.69463000 4.82006800
-24.13559000 50.02766000 8.48992900
-25.43676000 51.05519900 8.15710400
-29.57169900 50.24607100 14.46417000
-32.54632900 50.20930100 9.75769000
-27.44512000 49.87083800 16.26067900
-30.49621000 49.82518000 10.57965000
-28.42153900 49.29861100 12.45374000
-28.39878100 48.64654900 9.43438700
-25.71970000 48.75490200 15.87378000
-26.92143100 48.15987000 11.97974000
-27.31817100 47.65742900 8.53735400
-26.24805100 47.46080000 11.79248000
-24.77263100 45.81222200 11.41547000
-27.07900000 47.21310000 7.10980200
-23.96931100 45.71342800 13.37622000
-25.31669000 45.93215200 9.90863000
-23.26779000 44.57640100 12.67957000
-24.58543000 44.70021100 8.72174100
-28.71138000 39.73885000 7.00256300
-29.28873100 39.51591900 7.85278300
-27.80367100 39.47563900 6.50699100
-27.91171100 39.24248100 7.70030600
-29.23450100 38.97491800 8.46545400
-26.94348000 39.05442800 6.22850400
-26.61158000 38.73605000 7.59090400
-27.45706900 38.46554200 8.64222400
-29.35561900 38.62630800 8.78186000
-31.16914900 38.32244900 9.10528600
-32.57688100 38.48954000 9.01092500
-25.56662000 37.83569000 8.61477300
-30.56218000 37.24232900 9.53320300
-27.79044000 38.17451900 8.99632400
-25.16605000 37.07376100 9.21413600
-32.68476100 36.72633000 9.75476100
-27.84848000 36.60615200 9.57926800
-29.22724000 36.86745100 9.69433600
-25.46326100 35.00632100 10.06119000
-25.18506100 36.44590000 9.57282700
-26.97440900 35.66323900 9.90453800
-31.21769900 36.01514100 9.87493900
-34.38182100 35.29415900 10.05798000
-27.99628100 35.44455000 9.86714300
-28.38747000 34.11988100 9.93194600
-25.12424100 34.17635000 10.23716000
-29.45978900 34.38134000 10.01398000
-31.20082100 34.07730900 9.88269000
-24.42112900 32.99322100 10.29041000
-28.42933100 33.17958800 9.72937000
-30.52939000 32.75175900 9.44293200
-24.57932100 32.58280900 10.15816000
-26.94265000 32.76184100 9.70548200
-33.33739900 33.16748000 10.07672000
-25.29626100 32.39421800 9.86612200
-26.13009100 31.85940000 9.13084100
-32.59458900 32.68532900 9.76898200
-30.64936100 32.28778800 9.13348400
-28.35063900 32.51361800 9.34448200
-24.44516900 31.31331100 9.42460900
-27.92637100 31.66452000 8.26019300
-34.90414800 31.55306100 9.47216800
-30.78190000 31.72480000 8.45123300
-25.88385000 31.15271000 8.13254200
-26.64224100 31.46467000 8.28542000
-29.17078000 31.19652000 6.96496600
-28.11057100 31.07587100 6.24530000
-30.92316100 30.74580000 6.28436300
-29.06193000 30.80507100 4.82251000
-32.12381000 30.48961100 6.63305700
-31.44619900 31.07142100 7.56658900
-27.41297000 -0.56632900 10.46369000
-28.33452000 -0.98732100 12.27206000
-32.40176000 -1.04501900 4.33375400
-30.31605000 -0.93458300 7.98053200
-30.68038000 -0.74526700 5.86794800
-29.95292100 -1.63377300 13.95333000
-31.81216000 -1.50307600 9.89581700
-33.29106100 -1.68131000 9.07005800
-32.73378000 -1.48960100 8.24532200
-32.52859100 -1.27225700 6.93244100
-32.82450900 -2.20580600 12.67461000
-34.73648100 -2.05544200 8.26350000
-37.24527000 -3.18097500 9.33852500
-31.73818000 -62.89569900 4.10968000
-32.83866100 -63.53939800 1.82110600
-33.15987000 -64.03225700 3.71112100
-32.68801900 -63.33601000 5.46154800
-34.45954900 -64.67864200 4.50384500
-35.50127000 -64.29477700 -0.70782500
-34.86436100 -65.01683800 2.36157200
-35.13732900 -64.95410900 5.50293000
-36.67721900 -66.24741400 3.57568400
-37.74866100 -66.56398800 1.18151900
-36.79385000 -65.53148700 7.38757300
-37.16518000 -66.18312100 6.22296100
-36.95354100 -66.32087700 4.83026100
-37.99490000 -66.48467300 6.77960200
-38.15671200 -67.21443900 2.71283000
-38.81700900 -67.63939700 4.23193400
-39.68426900 -68.07277700 4.80676300
-40.31201900 -68.37489300 1.14257800
-39.75025900 -68.14614900 1.95800800
-41.03556100 -69.05111700 3.17089800
-29.83342000 52.92487000 19.40155000
-31.02413900 53.02029000 15.91681000
-31.31166100 52.70397900 16.72234900
-31.25922000 52.34301000 17.46019900
-32.66050000 52.43970900 13.54138000
-32.91647000 52.56330900 11.17548000
-33.00672900 52.44203200 11.81152000
-32.77069100 52.11753800 13.70795000
-31.25618000 51.59410100 17.23107900
-32.98527900 51.90348100 12.68835000
-33.38380100 51.78020900 11.53510000
-32.21614100 51.40179100 14.83136000
-33.63113000 51.03615200 9.96234100
-31.91840000 50.98965800 14.61774000
-30.96627000 51.19633100 17.08832000
-33.12365000 51.37847900 12.02832000
-29.42371000 50.64233000 17.08624100
-30.76103000 50.47507100 14.11780000
-29.83122100 50.92092900 17.97998000
-31.74218900 50.57949100 13.31708000
-32.53862000 50.95000100 12.60858000
-33.32387900 33.71321900 10.20618000
-35.22058100 34.16283000 10.14221000
-34.75743100 32.73120100 9.92083700
-36.67676900 31.41914000 9.81115700
-34.06354100 31.12116100 8.89941400
-35.93460800 30.31601000 8.91082800
-34.62857100 -2.61389600 11.90301000
-37.79375100 -3.22907800 7.35882600
-36.98273100 -3.76784100 12.91639000
-38.43322000 -3.71092000 8.62994400
-38.27632900 -4.19028700 11.76893000
-39.46670200 -4.34906100 8.44281000
-40.04813000 -4.92066400 8.29498300
-39.07017900 -4.75285700 11.75812000
-40.42604800 -5.56114200 10.83838000
-38.57231900 -4.80808600 13.58555000
-39.09014900 -6.14998500 16.81786900
-41.55938000 -6.60370500 12.07727000
-42.55215100 -6.87639900 10.22874000
-42.25415000 -6.60192300 9.49831500
-43.04821000 -7.37540000 10.77995000
-42.35961200 -7.59880400 13.31158000
-43.96123900 -8.50654200 11.47920000
-43.18713000 -65.46698000 12.36920000
-41.03739200 -66.47354100 9.63537600
-39.55318100 -66.50840800 8.50073200
-38.93215200 -66.71111300 7.51611300
-45.29536100 -67.46987200 10.87988000
-43.67855800 -67.08717300 10.43304000
-41.06089000 -68.44378700 6.18249500
-41.19953900 -69.08815800 3.69281000
-44.33063900 -70.47598300 4.85662800
-44.33783000 -68.76966900 8.32769800
-43.10821900 -69.09568000 6.83197000
-47.20274000 -70.25955200 8.23736600
-44.33549100 -70.72007800 1.27435300
-45.43034000 -71.27893800 2.58715800
-47.20177800 -71.10915400 6.45654300
-43.43140000 -70.24719200 3.49804700
-44.37307000 -70.20787000 5.74206500
-45.86673000 -71.30491600 3.95245400
-48.77552000 -71.32379200 7.60937500
-49.46674000 -72.17893200 6.88232400
-46.78739900 -71.57405100 4.66363500
-41.81998800 -9.01421300 17.87768900
-42.39259000 -8.35022500 15.28522000
-44.79755000 -9.50967700 12.33340000
-44.66379900 -11.60102000 17.81674000
-44.77156100 -10.46842000 14.83184000
-46.15544900 -10.75291000 12.00285000
-45.74977900 -11.24818000 14.21377000
-46.81765000 -13.36004000 16.02399100
-47.10897800 -12.20878000 13.24804000
-45.59587900 -12.66949000 17.97867000
-46.65790900 -14.16187000 18.31180000
-48.01210000 -13.85790000 14.35484000
-48.79641000 -13.98934000 13.10877000
-47.97140100 -15.45871000 17.81436000
-48.72988100 -15.64598000 16.29797900
-49.01807000 -14.74015000 14.18394000
-49.68016800 -14.86542000 13.91744000
-46.43455900 -15.45084000 20.36327900
-49.10990100 -15.79553000 15.88721000
-49.76810800 -15.72878000 15.08653000
-48.71192200 -16.64049000 18.35037000
-48.47195100 -17.31741900 19.28055000
-48.33552900 -17.97096100 20.28949000
-50.39474900 -16.93841000 16.02399100
-49.66748800 -17.22488000 16.89096100
-49.37036900 -17.74834100 18.05698000
-50.37031200 -17.87348900 16.71435900
-49.86006900 -18.49321900 18.07510000
-50.96534000 -57.28794100 17.94553000
-51.15356100 -58.74206200 17.08502000
-50.85664000 -61.99980900 15.35861000
-49.66576000 -62.04449100 15.64630000
-51.46949000 -63.54277000 14.40259000
-48.44086800 -64.01251200 14.61755000
-52.83252000 -63.84129000 13.82953000
-49.58408000 -64.86530300 14.04147000
-47.81193200 -65.18343400 13.84805000
-45.23645000 -64.71270000 13.83637000
-49.47837800 -65.67165400 13.53241000
-51.25124000 -66.82704200 12.34207000
-48.15385100 -66.31311800 12.97006000
-46.84542100 -67.03053300 12.05011000
-53.62453800 -65.80210900 12.44101000
-54.41894100 -66.90384700 11.70490000
-49.29900000 -67.15482300 12.39194000
-47.62271100 -68.34130100 11.09174000
-55.56464000 -67.92294300 10.87439000
-48.82099900 -68.56112700 11.20557000
-47.11624100 -69.08989700 9.91870100
-50.71851000 -69.60626200 10.54541000
-53.71897900 -68.50958300 10.95261000
-50.22127200 -69.91384100 10.23517000
-48.69878000 -69.85569800 9.87951700
-48.08363000 -70.08299300 9.28881800
-53.70212200 -72.11296100 8.62362700
-50.46410000 -70.59787800 9.58615100
-50.39041900 -71.41277300 8.65603600
-49.77281200 -71.77262900 7.74871800
-53.12115100 -73.25762900 7.40985100
-52.20518100 -14.73497000 14.34735000
-50.92263000 -15.36781000 14.52957000
-51.62344000 -16.77466000 15.52262000
-53.62999000 -17.42167100 15.34851000
-52.44838000 -16.90971900 15.42920000
-53.53197900 -17.88756000 15.59009000
-52.44194000 -18.63635100 16.11517000
-54.08868000 -19.71526000 16.77084000
-51.94015900 -19.86784000 17.72702000
-50.27719100 -20.08449900 18.74585000
-51.91885000 -18.82471100 16.45595900
-53.02322000 -20.03918100 17.15325900
-50.70045100 -19.35516900 17.94189100
-55.03578200 -18.95690900 16.15018100
-53.91616800 -20.97994000 17.39880000
-52.72528100 -21.08319100 17.98859000
-49.42570900 -21.67033000 21.41881900
-51.28834200 -20.55555000 18.51111000
-50.23572900 -22.11430000 20.63818000
-54.90000200 -22.13061900 16.85202000
-54.21535900 -21.77366100 17.58023100
-51.13703200 -21.95546900 19.68893100
-53.24823000 -22.80154000 18.74539000
-54.41634000 -22.65757900 17.75299100
-54.79243100 -23.77733000 15.93543000
-52.52858000 -24.19002000 19.93014900
-51.14733900 -24.00359000 21.29883000
-53.52471900 -24.30937000 18.80090000
-51.68528000 -25.07449000 21.38229000
-54.42961900 -23.07548000 17.71917900
-52.40412100 -25.13025100 20.06008900
-54.46205100 -25.26473000 15.58533000
-52.71971900 -25.29310000 19.23114000
-53.23802900 -25.98422100 17.52611900
-52.18998000 -26.24247000 19.57082900
-53.99979000 -26.32336000 15.88770000
-51.89941000 -27.16078900 19.80463000
-53.75003800 -28.53751000 16.24898900
-51.65829800 -29.14668100 19.95299900
-51.88618100 -28.45400000 19.65872000
-52.66508900 -28.74082000 18.08935900
-52.03413000 -30.16457000 19.55896000
-54.03577000 -31.09626000 16.13616900
-51.86998000 -31.28030000 19.84322900
-51.08857000 -30.11877100 21.00750900
-54.02666900 -32.76305000 16.62079000
-54.67247000 -34.68730200 16.36117900
-53.54911000 -34.89259000 18.17542100
-55.30756000 -33.90679200 14.82645000
-51.51728800 -32.21403900 20.53387100
-52.03270000 -36.24797100 20.38773000
-53.84170200 -36.08998900 17.94492000
-55.34936100 -35.87852900 15.46329000
-54.80582000 -36.44894000 16.51981000
-53.95877800 -36.98244100 17.68835100
-51.84402100 -37.52360900 20.76428000
-53.41508900 -37.56119900 18.75391000
-55.63219800 -36.44356200 15.14868000
-53.81673000 -37.57638900 18.18178900
-52.65206900 -37.74856200 19.55820100
-54.66719800 -37.83345000 17.52042000
-53.64601900 -38.70222100 19.25180100
-56.18544000 -39.62389000 15.89825000
-55.81786000 -37.62551100 15.89099000
-53.66157900 -39.66967000 19.43601000
-55.57651900 -39.98896000 16.73494900
-57.17927900 -40.48559200 14.57520000
-56.55275000 -41.87445100 16.08200100
-54.62284100 -40.08211900 18.26050000
-55.44385900 -41.29813000 17.23831000
-52.14902900 -39.92380900 21.05063100
-54.36875900 -41.93924000 18.75820900
-54.99031100 -43.29922100 18.35837000
-53.32532900 -43.39527900 20.09424000
-52.90803100 -43.90169900 20.54199000
-55.46044900 -44.01105900 18.09923900
-57.49675000 -46.10992100 15.74292000
-56.67583100 -47.98844100 16.80028900
-54.36790100 -45.80432100 19.18084900
-56.53202100 -44.34265100 16.86648900
-56.20869100 -45.05019000 17.34586000
-54.93925100 -47.21834900 18.36862000
-53.46923100 -47.26332900 19.51907000
-56.25040100 -49.56768000 17.11606000
-58.07859000 -49.45937000 15.45874000
-52.37987100 -48.33681900 20.19528000
-52.49184000 -49.84127000 19.75091900
-55.30007200 -49.95517000 17.77148100
-57.64456900 -50.18383000 15.87213000
-53.76886000 -51.07671000 18.56045900
-56.79827100 -52.27531100 16.38715000
-50.78831900 -52.51701000 19.85994900
-51.78162000 -53.18405200 19.03223000
-56.38135900 -53.79644000 16.34573000
-53.99269100 -56.50537900 16.64724900
-53.79293800 -53.60908100 17.88544100
-50.29092000 -55.85416000 18.76825000
-56.28332100 -55.96553000 15.72894000
-57.25014900 -55.47958000 15.29627000
-57.33448000 -58.42871900 14.16406000
-52.70312900 -59.65589900 15.78952000
-56.11658900 -57.66146100 15.05557000
-53.77618000 -58.19469800 15.87711000
-55.71490100 -59.99353000 14.27911000
-57.99108100 -60.55427900 12.81564000
-56.73349000 -60.46569800 13.42691000
-53.22200000 -62.09484100 14.48486000
-55.52656900 -61.75875900 13.56964000
-54.59257100 -63.89325000 13.15997000
-55.47617000 -64.51693700 12.49200000
25.15309900 -31.07461900 -25.16379900
22.28520000 -10.07160000 -17.05822900
21.70866000 -10.81731000 -19.08630000
22.86603000 -11.27152000 -17.71759000
19.50571100 -11.33438000 -22.57165900
25.77339000 -13.41008000 -13.97186000
23.91358900 -14.15914000 -19.31262000
23.74367000 -12.58468000 -17.63122900
24.68714900 -14.08098000 -17.83820000
25.13275900 -14.86291000 -17.61157000
26.01664900 -16.66494000 -17.70626100
23.32842100 -14.71021000 -21.13672100
22.76149000 -15.59035000 -22.73767100
23.59330900 -17.16799900 -22.55242900
25.22793000 -16.55048900 -19.21295000
27.09351000 -19.38532100 -16.82790900
25.63732900 -19.75206900 -20.32987000
24.77825000 -20.45298000 -22.06953000
23.73841100 -20.99126100 -23.85536000
26.41118000 -21.47419900 -19.26931000
25.54204000 -21.41877000 -20.92054000
26.06514000 -22.46669000 -20.01287100
27.36388000 -23.25816900 -17.05640000
24.65797000 -23.73876000 -22.95561000
26.54636000 -23.31115000 -18.99301900
25.79314000 -24.00614000 -20.72299000
25.14518900 -25.51281900 -22.30372000
26.45875900 -27.01796000 -19.35878900
25.82327100 -26.45284100 -20.85545000
24.86718000 -26.82688000 -22.81576900
26.06936100 -27.61467900 -20.60407100
26.94779000 -28.41099000 -19.29418000
24.49914000 -27.64908000 -23.81057900
25.19811100 -28.46563000 -23.16412900
23.50930000 -28.72406000 -26.28931000
26.47987000 -28.92984000 -20.80788000
26.22781900 -30.65961100 -22.19370100
25.49049000 -29.67378000 -23.47073900
27.39730100 -30.51724100 -19.22384100
27.81489900 -30.26124000 -17.66202900
24.47042100 -29.45049100 -25.33414100
25.61024100 -30.28216000 -23.97617000
27.51025000 -31.06637000 -18.46320000
26.74819900 -31.08482000 -20.40830000
26.30834000 -31.74834100 -19.00135000
26.55320000 -31.64101000 -17.27730000
25.65029000 -30.94099000 -24.28111100
26.16662000 -31.13552100 -21.96697000
25.45015000 -31.59025000 -23.68471000
24.92905000 -31.68676900 -24.72650900
25.76872100 -31.79387100 -21.13229900
25.82391900 -32.08049000 -20.08556000
24.55569100 -32.33200800 -23.97331000
23.97484000 -32.25272000 -24.84625100
24.68004000 -32.89719000 -22.42116000
24.03039000 -33.17528900 -23.65913000
24.62727900 -34.02307900 -21.99085000
23.74350000 -33.56306800 -24.03978900
25.15246000 -34.66727100 -19.66608000
25.78035000 -33.22649000 -19.09100000
25.71398000 -34.44131900 -17.19537000
23.97005100 -34.52201800 -23.25219900
24.78080900 -35.93819000 -19.85553000
24.07251000 -35.94945900 -21.84936000
23.69578900 -36.50668000 -22.77551100
24.30809000 -36.74269900 -20.16338900
24.29838000 -37.72174100 -18.58801100
23.96196900 -37.30376100 -21.12225000
23.37781000 -38.43224000 -23.12883900
23.37743900 -40.05258900 -21.97748000
23.70751000 -39.34563800 -19.83721900
23.57790000 -40.10081900 -18.09112900
22.91577000 -40.72868000 -24.28247100
23.37060900 -40.79906100 -20.66669100
23.01131100 -42.20076000 -18.86029100
22.97818000 -42.28736100 -20.88110000
22.61621100 -41.98376100 -24.80035000
22.87863900 -42.12192200 -16.40637000
22.78700100 -43.00138100 -23.12500000
22.78632900 -43.52547100 -18.59631000
22.64633000 -43.61140800 -17.04639100
22.65596000 -44.69691100 -20.73016000
22.53165100 -45.40329000 -19.87622100
22.38748900 -45.05540800 -24.58142100
22.32022100 -45.86394900 -19.19385000
22.06806000 -47.08063900 -23.51404000
22.49749900 -45.48296000 -21.85791000
22.04805900 -46.86039000 -20.29999000
21.75271000 -48.04011900 -24.83873900
20.78920000 -49.22145100 -19.54834000
20.62429000 -50.59194900 -21.18115000
20.15910000 -49.99713900 -18.66846100
20.51082000 -51.22877100 -22.09656000
21.08669100 -50.03625100 -23.74658000
20.03858000 -51.85987900 -21.22753900
20.42799900 -51.79912200 -25.52350000
19.99959900 -52.45298000 -22.67120000
18.47114000 -53.71303900 -19.54900900
19.92498000 -53.32365000 -25.07177900
18.44627000 -56.55846000 -24.91748000
19.17736100 -53.88201900 -22.14270000
17.70603000 -57.99800100 -24.70264100
21.24646900 48.11179000 -7.04159600
21.96159000 47.07856000 -7.27951700
23.28686900 47.28467200 -6.81998300
22.97291000 45.73074000 -7.39663000
21.67082000 44.76361100 -8.18941100
20.54682900 45.95721100 -8.17319900
19.02893100 45.87670100 -8.74733800
22.76622000 43.99494900 -7.97845200
20.14784000 43.47065000 -9.31834800
22.06884000 42.63385000 -8.72046000
18.42172100 44.02201800 -9.90290200
23.85600100 42.86922800 -7.89277800
22.84977000 40.99763900 -8.73925200
20.68771900 41.06438800 -9.74810600
18.22517000 41.67081100 -10.71111000
18.69632900 39.09214000 -10.99567000
21.33060100 39.03326000 -9.73009400
23.27249000 39.22403000 -8.75531900
22.47120100 37.01855900 -9.27787700
17.27775000 36.42918000 -11.84204000
23.89090000 35.78754000 -8.55222900
19.87752900 36.65024900 -10.59314000
21.17985000 34.12089200 -9.91750100
18.48189000 34.08419000 -11.29504000
19.33134100 31.79488000 -10.83873000
21.00856000 30.78708100 -9.83187400
22.12015000 30.14349000 -9.07810600
19.28731900 28.69337100 -10.63946000
21.39119000 27.92950100 -9.28727100
16.96876900 27.44268000 -11.66842000
18.66264000 26.76063000 -10.85045000
17.77269900 25.05270000 -11.13337000
20.17519000 25.48151000 -9.80667300
19.83303100 21.33494000 -9.26245000
18.46586000 23.40527900 -10.65268000
17.88824100 20.37385900 -10.40505000
19.62973000 18.33456000 -8.82646200
18.30137100 14.06205000 -9.17750200
18.21692100 16.65390000 -9.62056700
18.78305100 12.54840000 -8.64835800
16.53466000 -0.33453900 -10.01910000
18.08186000 -2.36204500 -10.26148000
15.51445000 -1.55994200 -12.44183000
16.48904000 -1.86409000 -11.92883000
15.95160000 -3.22991900 -14.78137000
18.77825900 -3.54699900 -11.40161000
13.64767000 -3.13217600 -16.82617000
18.01114100 -3.89927300 -13.12891000
18.92637100 -4.22000100 -12.21912000
18.23926900 -4.79513000 -14.59015000
15.93488000 -4.83986000 -17.36858900
19.00065000 -6.16652100 -15.66998000
21.22973100 -8.34823000 -15.84515000
21.28053100 -6.84297000 -12.96362000
18.11322000 -7.31707400 -18.86145000
22.05625000 -7.48926400 -12.79181000
19.49292900 -7.92151700 -17.96826000
23.00798000 -9.25791900 -14.20331000
19.46013100 -9.15899500 -19.96410900
18.92029000 -51.08438100 -16.39154100
17.63953000 -52.04797000 -14.49078000
18.21810000 -52.37973000 -17.16571000
16.28356900 -55.05622100 -15.85132000
17.09353100 -53.96775100 -16.06171000
17.36813000 -54.26421000 -17.49078000
15.79664000 -55.53307000 -15.67401000
16.17522000 -56.61797000 -18.20972100
14.79886000 -55.93339200 -14.91156000
13.67847000 -56.00833100 -13.64362000
16.61321100 -57.03821200 -19.80023000
15.72206000 -56.41013000 -17.04376000
14.79423000 -57.62735000 -17.15393100
13.65810000 -58.67873000 -17.01892100
15.50474000 -57.98387100 -18.81299000
16.07579000 -59.09275100 -21.98992900
13.71573000 -59.69908100 -18.30077900
13.17946000 -59.16370000 -16.90796100
11.34811000 -60.71350100 -17.08087000
14.14584000 -60.14476000 -19.62554900
12.06222000 -61.14231900 -18.25342000
13.06118000 -63.34890000 -22.34235000
13.05301000 -61.91146900 -20.55981100
10.62613000 -62.79649000 -19.07062000
11.03514000 -63.38859900 -20.11352000
15.13905000 62.90581100 -3.63507200
14.88484000 62.96373000 -4.87139800
14.29557000 62.97597100 -3.58323100
15.28158000 62.86526100 -2.23916400
14.75527000 62.75589000 -6.32076500
14.34228000 62.90441900 -5.39736800
14.73213000 62.21733100 -8.15338300
13.90814000 62.64493900 -5.21978600
15.36551000 62.54707000 -4.60166500
15.44479000 62.41838800 -5.85825100
14.30160000 62.60443900 -6.69407100
14.02134000 62.25201000 -8.15200100
12.58533000 61.42223000 -4.39712300
15.18695000 61.81858100 -8.06187800
15.50355000 61.72454800 -5.61730100
15.60722000 62.00508100 -5.65163800
15.32744000 61.92301200 -4.53281400
13.52369000 62.06647100 -6.52102300
15.24948000 61.36562000 -7.85418900
15.00087000 61.34611100 -4.37140200
14.87500000 60.94329800 -6.29226000
12.46193000 61.05540100 -6.17607200
14.63387000 60.88605100 -4.95285300
14.65303000 61.00663000 -9.78134400
14.70745000 60.69358800 -8.97172600
14.47660000 60.19858200 -8.42447500
15.78733000 59.94430900 -2.27580500
14.41469000 60.01647900 -4.76140000
14.21494000 59.68769100 -6.98435100
16.74102000 59.30036200 -2.02674300
13.80825000 58.06201200 -7.43613200
16.04567000 58.73928100 -2.91519800
17.93372900 58.56963000 -1.94658400
13.69155000 58.88092000 -9.39014400
14.68045000 58.82366900 -4.62807800
13.27470000 57.81832100 -9.36314500
15.47471000 56.92918000 -4.73193100
17.06150100 57.22172900 -3.13380300
13.92295000 57.17329000 -7.09749900
18.71710000 55.12244000 -3.78450300
14.45770000 56.25582900 -6.53898500
13.25395000 56.35327900 -9.16909400
16.48105000 55.79428900 -4.55243200
17.93412000 54.45930900 -4.57248400
13.79443000 55.31432000 -8.24766300
14.63092000 54.75862100 -7.26744500
18.98097000 53.89477900 -4.50532200
17.13398000 54.12096000 -5.25339300
16.12610100 53.27891200 -2.26374700
14.00765000 53.97415900 -8.70481700
13.25248000 54.63711200 -9.68458500
15.52037000 55.30167000 -5.82145800
15.70042000 53.57735800 -6.81016100
14.23702000 52.41257100 -9.18186400
14.60958000 52.91051100 -3.53203200
14.95832000 52.85976000 -8.05480700
17.18438000 51.94274100 -2.32967900
19.74556900 51.26084900 -5.78133800
16.15122000 51.34994100 -3.28987700
15.96028000 51.19751000 -7.95229800
13.70993000 50.44332100 -5.44026800
17.88005100 51.99496100 -6.14656100
15.43083000 50.58115000 -4.11111400
18.95408100 49.66927000 -6.89691500
12.72310000 50.78789900 -6.13963900
20.42493100 49.70700800 -6.45952500
12.80569000 49.63330800 -6.56368400
14.89104000 50.14836100 -4.69277300
17.39199100 49.80489000 -7.72967100
13.87422000 48.90517000 -10.96431000
15.54635000 49.77061100 -8.98954000
16.32358000 49.17414900 -4.18294900
20.10891000 48.37384000 -7.15115400
15.69434000 47.99198900 -9.70519500
12.87477000 47.45412100 -7.32977300
11.79132000 47.94609800 -8.02197300
14.93760000 47.28976100 -10.64748000
15.34937000 45.85897100 -6.11532400
17.34387000 47.14025100 -4.41283000
17.38592000 46.86904100 -9.08903600
14.40430000 48.75867800 -5.66664800
19.15785000 46.99729900 -3.25313800
18.13456000 45.06057000 -4.56734000
16.37121000 45.78033800 -10.23092000
20.20546900 45.60982900 -2.98678300
13.35843000 45.50157900 -7.56118900
22.18392000 45.51784900 -1.49513600
17.85461000 45.16947900 -9.70702100
21.19992100 43.65594900 -2.72965800
23.00369100 43.99927900 -1.31633100
23.41361000 43.16951000 -1.20448900
16.68891000 43.99107000 -5.82579600
22.73168000 41.93368900 -1.99649100
16.97584900 44.21670900 -10.49599000
20.90976900 40.77874000 -3.50228300
13.84168000 43.80295900 -7.64080400
22.98510000 40.28971100 -2.06849300
18.00370000 42.36859100 -5.29591900
16.39689100 41.83728000 -6.49311200
16.26516000 42.91939200 -11.33012000
14.09678000 41.85514800 -7.83734800
15.66794000 42.98360100 -6.69160500
19.15731000 40.30590100 -4.86503900
22.48700900 36.98223900 -2.50500800
15.53186000 41.78987100 -7.02795900
17.50909000 41.25890000 -5.83622600
16.39127000 41.29430000 -11.69277000
20.41815900 39.05973800 -4.02910800
16.94895900 41.54575000 -6.18394700
19.31741000 37.67647900 -4.82114600
12.94047000 41.44804000 -8.56342700
15.84191000 38.90498000 -12.29097000
16.22064000 33.82317000 -12.30728000
16.89946900 30.83260000 -11.89198000
14.12058000 28.29553000 -12.82768000
15.00200000 24.29690000 -12.18368000
12.80615000 25.34870000 -13.03973000
16.96645000 22.89489900 -11.28493000
15.51099000 20.38036000 -11.56481000
14.00744000 18.02153000 -11.88502000
16.07443000 16.12804000 -10.79331000
15.39171000 14.57593000 -10.96536000
13.46618000 15.89745000 -11.89778000
16.89522000 14.17453000 -10.07732000
13.13266000 13.74887000 -11.90163000
15.25905000 12.92588000 -10.96245000
17.92351000 11.10279000 -9.06579600
13.70666000 11.02225000 -11.57027000
10.74106000 12.70505000 -12.64036000
16.32856900 8.64591800 -9.92651400
10.26103000 6.98587900 -12.58820000
18.02749100 7.61944200 -8.54742400
15.59383000 10.40801000 -10.51346000
14.12603000 7.55652400 -11.18732000
12.03785000 9.85959200 -12.11612000
12.15596000 7.95223600 -12.07385000
16.42526100 6.77873700 -9.72473100
9.74444100 5.76094900 -12.84247000
16.26890000 5.19341700 -9.86120600
12.41864000 4.39471100 -12.14270000
17.30934000 2.68262900 -8.77349900
15.82836000 4.35744500 -10.22864000
14.54619000 3.91508800 -11.01660000
11.18890000 4.17598400 -12.52679000
11.74025000 2.43984000 -12.28168000
15.40865000 3.05554200 -10.39221000
9.17928100 2.85955800 -13.24353000
14.01509000 3.10500500 -11.18897000
16.09569000 1.29806300 -9.80792200
9.70769000 2.29658800 -13.17218000
13.60931000 1.70886800 -11.52075000
16.53408100 0.49962400 -9.56878700
12.03752000 1.82842100 -12.28827000
13.21847000 0.87207000 -11.99890000
15.18603000 0.28016700 -10.98468000
17.73988000 -0.21105600 -8.45910600
8.77200200 1.17729300 -13.99701000
11.41358000 0.86362600 -12.99219000
13.03368000 0.28703200 -12.54633000
14.91073000 -0.59396200 -11.97217000
11.91556000 0.25956500 -13.25934000
11.53618000 -1.66172800 -16.06995000
12.84832000 -0.49741300 -13.55469000
14.59370000 -2.28952400 -14.50317000
11.82777000 -56.17845200 -11.95685000
10.86114000 -56.32571000 -11.18897000
8.43585200 -56.13336900 -9.43585200
12.19875000 -57.89300900 -14.28253000
5.32881500 -57.47888900 -9.72699000
11.45764000 -57.28521000 -12.92401000
11.09337000 -58.91994100 -14.53857000
7.57250600 -57.36988100 -10.55365000
10.03866000 -57.86121000 -12.37268000
5.63876700 -59.21728100 -11.83923000
9.31095100 -58.77914000 -13.11420000
8.81102800 -60.35335900 -14.79523000
8.12996700 -60.05720900 -13.75775000
7.25315900 -61.03195200 -14.69171000
9.95696600 -60.67121100 -15.97797000
8.62677000 -62.78805200 -17.66186000
6.12724300 -61.07352100 -14.05090000
6.11161400 -62.71352000 -15.36920000
6.34684800 -63.44242100 -16.69696000
3.82236900 -62.30207800 -14.14655000
4.86087000 -63.13890800 -15.50446000
14.49878000 63.16206000 -2.64318100
15.14257000 63.04645200 -2.08952500
14.97229000 62.63653900 -0.66861400
14.04851000 62.54414000 -0.08578400
14.06784000 62.95380000 -1.51994300
15.07960000 62.18050000 -3.25605800
14.69318000 62.44765900 1.30287300
15.37099000 62.32566800 -0.86587400
15.14865000 62.68827100 -1.64483400
14.82427000 60.70912200 -3.32553100
15.26627000 61.83396100 -1.66991900
13.99896000 61.55907100 0.54377800
12.73386000 61.67799000 -2.67641200
15.83028000 61.21928000 -1.25519100
13.14383000 61.54378900 -0.54813800
13.07348000 61.89390200 -1.25218900
13.31550000 60.90910000 -0.35668600
15.14428000 60.25764100 -2.76892000
12.38246000 60.74200800 -2.08089200
12.69389000 60.45409000 -1.38674000
13.53459000 59.91616100 -0.49497000
12.12694000 58.96231800 -3.02374500
12.30832000 61.08700200 -2.75437600
12.94315000 58.67200900 -1.82894900
13.71732000 58.40261100 -1.00150200
12.53683000 59.41384100 -2.29140500
11.80216000 58.28282900 -4.14278300
11.49827000 59.03773900 -4.88694600
14.59222000 58.78019000 -0.15436100
12.42904000 56.81404100 -3.46471700
15.90554000 57.24665800 -0.20403100
11.65079000 57.20378900 -4.68418000
13.84339000 56.74782200 -1.70080200
13.09942000 55.78350100 -3.03584800
14.09947000 55.45193900 -2.29309500
11.09539000 55.89738800 -6.20009100
12.61458000 55.40090200 -4.00340400
15.28016000 55.27114100 -1.62383300
14.42153000 54.43874000 -2.70933400
13.39804000 54.25367000 -3.76891800
11.85693000 55.43545900 -5.23629200
12.52203000 54.22496000 -4.76514000
13.09084000 53.06705900 -4.78758800
12.03163000 53.31216000 -5.88620700
11.90110000 51.39265100 -6.74438200
14.32932000 51.50898000 -4.46061800
12.84424000 51.75976900 -5.65902700
-0.02709600 -53.75357100 -3.73651100
2.79438000 -54.23001900 -4.99578900
3.69610200 -55.37852900 -6.72570800
2.51195500 -56.58688000 -7.90258800
6.00554700 -55.98947100 -8.19311500
-0.46376400 -55.77777900 -6.68627900
1.32262800 -55.92404200 -7.07336400
0.36319700 -56.09862900 -7.43841600
-1.21421400 -56.49929800 -7.63000500
4.00418900 -57.06192000 -8.89190700
2.76966100 -57.64001800 -8.87475600
-1.47831000 -57.17029200 -8.35144000
