-5.78373800 9.04379300 1.86167800
-6.09644500 8.61757700 0.67576300
-6.09644500 8.61757700 1.33428500
-5.83977800 8.65308600 1.94268100
-6.05785400 8.22238500 0.67226900
-6.05785500 8.22238500 1.33778000
-5.80083800 8.24974900 1.95263300
-5.85919100 7.86386000 0.70517400
-5.85919100 7.86386100 1.30487400
-5.62869700 7.87954900 1.85892500
-5.55239000 7.58550800 0.76284600
-5.55239000 7.58550900 1.24720200
-5.36679800 7.59304800 1.69468900
-5.11388100 7.33758800 0.84842600
-5.11388100 7.33758800 1.16162300
-4.99402200 7.34120500 1.45097900
-4.66071200 7.17672000 0.93767900
-4.66071200 7.17672000 1.07237000
-4.60919200 7.17795300 1.19680800
-4.60919200 7.17795300 0.81324100
-4.51400100 7.18024200 0.71800000
-4.38963600 7.18325600 0.66645600
-4.25503600 7.18655300 0.66645600
-4.13069400 7.18963600 0.71800000
-4.03553500 7.19201900 0.81324100
-3.98403800 7.19331900 0.93767900
-3.98403800 7.19331900 1.07237000
-4.03553500 7.19201900 1.19680700
-4.13069400 7.18963600 1.29204800
-4.25503600 7.18655300 1.34359300
-4.38963600 7.18325600 1.34359300
-4.51400100 7.18024100 1.29204900
-5.13986700 9.77931100 1.81613200
-5.09163200 9.52172800 1.83963500
-5.20326100 9.37329200 2.03294000
-5.33687700 9.10410200 2.28709700
-5.36105900 8.71259700 2.40832600
-5.32397100 8.29563700 2.42322100
-5.20237200 7.90668600 2.28297700
-5.02394100 7.60684300 2.03717900
-4.77260500 7.34796500 1.67244300
-4.73883500 9.82022100 1.96179100
-4.69137000 9.56788200 1.98951400
-4.71845700 9.43139400 2.21753300
-4.74583300 9.17579300 2.51733200
-4.73057400 8.78209100 2.66033100
-4.69910300 8.34993000 2.67790000
-4.64530400 7.94046900 2.51247200
-4.57631800 7.62523000 2.22253400
-4.48345100 7.35708800 1.79229800
-4.30393500 9.86394100 1.96179100
-4.25762500 9.61615100 1.98951400
-4.19261300 9.49114100 2.21753300
-4.10472100 9.24836600 2.51733200
-4.04794400 8.85287200 2.66033100
-4.02382500 8.40725300 2.67790000
-4.04359700 7.97814400 2.51247100
-4.09257600 7.64664000 2.22253400
-4.17072700 7.36756800 1.79229800
-3.90558200 9.90345400 1.81613200
-3.85986100 9.65963800 1.83963400
-3.71150000 9.54503800 2.03294000
-3.51895900 9.31482500 2.28709700
-3.42329000 8.92026900 2.40832500
-3.40432300 8.46467400 2.42322000
-3.49017300 8.01722700 2.28297600
-3.64669100 7.66886700 2.03717900
-3.88211000 7.37804300 1.67244200
-3.60545100 9.93290900 1.54698900
-3.55940500 9.69247200 1.56269300
-3.34975000 9.58640700 1.69185500
-3.07956900 9.36774200 1.86167800
-2.95281600 8.97681500 1.94268000
-2.93504400 8.51498700 1.95263200
-3.06899900 8.05186000 1.85892400
-3.30629400 7.68809400 1.69468800
-3.66145100 7.38671800 1.45097800
-3.44543800 9.94850100 1.19533700
-3.39880700 9.71014900 1.20085200
-3.15726100 9.60910400 1.24620700
-2.84629900 9.39779200 1.30584100
-2.70198000 9.01022700 1.33428500
-2.68339400 8.54548200 1.33778000
-2.84214700 8.07284600 1.30487400
-3.12244000 7.69947300 1.24720200
-3.54212900 7.39168900 1.16162200
-3.44543800 9.94850100 0.81471200
-3.39880700 9.71015000 0.80919700
-3.15726100 9.60910400 0.76384100
-2.84629900 9.39779300 0.70420800
-2.70198000 9.01022600 0.67576300
-2.68339400 8.54548200 0.67226900
-2.84214700 8.07284600 0.70517500
-3.12244000 7.69947300 0.76284700
-3.54212900 7.39168900 0.84842600
-5.44379000 9.74788400 0.46306000
-5.39562300 9.48512900 0.44735600
-5.57023300 9.32598200 0.31819300
-5.78373800 9.04379300 0.14837000
-5.83977800 8.65308500 0.06736800
-5.80083800 8.24974900 0.05741600
-5.62869700 7.87954900 0.15112400
-5.36679800 7.59304800 0.31536000
-4.99402200 7.34120600 0.55906900
-5.13986700 9.77931100 0.19391700
-5.09163200 9.52172800 0.17041400
-5.20326100 9.37329200 -0.02289100
-5.33687700 9.10410200 -0.27704900
-5.36105900 8.71259700 -0.39827700
-5.32397100 8.29563700 -0.41317200
-5.20237200 7.90668600 -0.27292800
-5.02394200 7.60684300 -0.02713100
-4.77260500 7.34796500 0.33760600
-4.73883400 9.82022000 0.04825800
-4.69137000 9.56788100 0.02053400
-4.71845700 9.43139400 -0.20748400
-4.74583300 9.17579300 -0.50728300
-4.73057400 8.78209100 -0.65028200
-4.69910300 8.34992900 -0.66785200
-4.64530400 7.94047000 -0.50242300
-4.57631800 7.62523000 -0.21248600
-4.48345100 7.35708800 0.21775100
-4.30393500 9.86394100 0.04825800
-4.25762500 9.61615200 0.02053400
-4.19261300 9.49114100 -0.20748400
-4.10472100 9.24836600 -0.50728300
-4.04794400 8.85287200 -0.65028200
-4.02382500 8.40725300 -0.66785200
-4.04359700 7.97814500 -0.50242300
-4.09257600 7.64664000 -0.21248600
-4.17072700 7.36756800 0.21775100
-3.90558200 9.90345400 0.19391700
-3.85986100 9.65963800 0.17041400
-3.71150000 9.54503800 -0.02289100
-3.51895900 9.31482500 -0.27704800
-3.42328900 8.92026900 -0.39827700
-3.40432400 8.46467400 -0.41317100
-3.49017300 8.01722700 -0.27292700
-3.64669100 7.66886700 -0.02713000
-3.88211000 7.37804300 0.33760600
-3.60545100 9.93290800 0.46306000
-3.55940500 9.69247200 0.44735600
-3.34974900 9.58640700 0.31819300
-3.07956900 9.36774200 0.14837100
-2.95281600 8.97681500 0.06736900
-2.93504400 8.51498700 0.05741700
-3.06899900 8.05185900 0.15112500
-3.30629400 7.68809300 0.31536100
-3.66145100 7.38671800 0.55907000
-3.96792300 8.29401200 0.93045800
-4.11564900 8.15585200 1.00502400
-4.13342500 8.15449100 0.91605100
-3.90339000 8.94094900 1.02386200
-3.85779300 9.56129100 0.91785000
-3.94341400 8.93780400 0.83415400
-3.60296100 10.25411000 1.00502400
-3.68662800 10.19242700 0.85555900
-3.56214700 10.26860300 0.83032300
-3.67613200 10.24838200 0.68319600
-4.02770100 8.28942900 0.78815200
-4.18407700 8.15065500 0.84062400
-3.95513500 9.55350000 0.70456300
-4.05789700 8.92880800 0.67332700
-3.82017000 10.18157700 0.57485800
-3.71522700 10.25672500 0.50751800
-3.88691800 10.23156200 0.41036300
-4.13833800 8.28105800 0.67923600
-4.25995400 8.14501700 0.79022500
-4.13661400 9.53886600 0.54132000
-4.23036600 8.91528500 0.56586600
-4.07007700 10.16091800 0.36001800
-4.00285900 10.23380100 0.26045300
-4.20766500 10.20537900 0.22806200
-4.28317300 8.27029100 0.62029000
-4.34955200 8.13849300 0.77252700
-4.37599700 9.51947700 0.45297300
-4.43491500 8.89936100 0.52813100
-4.40100100 10.13319100 0.24374800
-4.38529300 10.20269900 0.12674300
-4.59097100 10.17381700 0.16404600
-4.44018100 8.25881900 0.62029000
-4.43923600 8.13206700 0.79022500
-4.63652800 9.49849800 0.45297300
-4.63985300 8.88362000 0.56586600
-4.76187600 10.10300700 0.24374800
-4.80316500 10.16883600 0.12674300
-4.97557900 10.14265100 0.22806100
-4.58533700 8.24835200 0.67923500
-4.51532200 8.12666400 0.84062400
-4.87706800 9.47947600 0.54132000
-4.81326000 8.87054100 0.67332700
-5.09482700 10.07573500 0.36001800
-5.18833000 10.13864000 0.26045300
-5.29947400 10.11742500 0.41036200
-4.69642600 8.24040700 0.78815200
-4.56618100 8.12306300 0.91605200
-5.06018200 9.46535600 0.70456300
-4.92868200 8.86198600 0.83415400
-5.34760100 10.05572700 0.57485700
-5.47982400 10.11700300 0.50751700
-5.51340700 10.10156500 0.68319600
-4.75652500 8.23612300 0.93045800
-4.58404400 8.12179800 1.00502500
-5.15868100 9.45793000 0.91785100
-4.96909300 8.85902400 1.02386200
-5.48317100 10.04533800 0.85555900
-5.63563600 10.10603400 0.83032300
-5.58788400 10.09623300 1.00502400
-4.75652500 8.23612300 1.08448900
-4.56618100 8.12306300 1.09399700
-5.15868100 9.45793100 1.14871100
-4.92868200 8.86198600 1.21357000
-5.48317100 10.04533900 1.15938700
-5.63563600 10.10603400 1.17972500
-5.51340800 10.10156500 1.32685300
-4.69642700 8.24040600 1.22679500
-4.51532100 8.12666400 1.16942500
-5.06018300 9.46535600 1.36199900
-4.81326000 8.87054100 1.37439700
-5.34760100 10.05572700 1.44008900
-5.47982400 10.11700300 1.50253100
-5.29947400 10.11742600 1.59968600
-4.58533700 8.24835200 1.33571100
-4.43923600 8.13206700 1.21982400
-4.87706900 9.47947600 1.52524200
-4.63985300 8.88362000 1.48185700
-5.09482700 10.07573500 1.65492800
-5.18833000 10.13864000 1.74959500
-4.97557900 10.14265100 1.78198600
-4.44018000 8.25881900 1.39465600
-4.34955100 8.13849200 1.23752200
-4.63652900 9.49849800 1.61358800
-4.43491500 8.89936000 1.51959300
-4.76187700 10.10300700 1.77119800
-4.80316500 10.16883600 1.88330500
-4.59097100 10.17381700 1.84600200
-4.28317200 8.27029200 1.39465600
-4.25995300 8.14501700 1.21982400
-4.37599700 9.51947600 1.61358900
-4.23036600 8.91528500 1.48185800
-4.40100200 10.13319100 1.77119800
-4.38529300 10.20269900 1.88330600
-4.20766500 10.20537900 1.78198700
-4.13833700 8.28105900 1.33571100
-4.18407700 8.15065500 1.16942500
-4.13661400 9.53886600 1.52524200
-4.05789700 8.92880800 1.37439700
-4.07007700 10.16091800 1.65492800
-4.00285900 10.23380100 1.74959500
-3.88691800 10.23156100 1.59968600
-4.02770100 8.28942900 1.22679500
-4.13342500 8.15449100 1.09399700
-3.95513500 9.55350000 1.36199900
-3.94341400 8.93780300 1.21357000
-3.82017000 10.18157700 1.44008900
-3.71522700 10.25672500 1.50253100
-3.67613200 10.24838200 1.32685300
-3.96792300 8.29401200 1.08448900
-3.85779300 9.56129100 1.14871100
-3.68662800 10.19242700 1.15938800
-3.56214700 10.26860300 1.17972500
-3.76146400 9.95192600 1.02386200
-3.82041600 9.94717500 0.76063500
-3.98972500 9.93337700 0.53748200
-4.24626300 9.91219600 0.38837700
-4.55186300 9.88685200 0.33601700
-4.85833000 9.86172200 0.38837600
-5.11696000 9.84105400 0.53748200
-5.28836300 9.82777600 0.76063500
-5.34818100 9.82324000 1.02386200
-5.28836300 9.82777600 1.28708900
-5.11696100 9.84105700 1.51024100
-4.85833000 9.86172200 1.65934700
-4.55186300 9.88685200 1.71170600
-4.24626300 9.91219700 1.65934700
-3.98972500 9.93337700 1.51024100
-3.82041600 9.94717500 1.28708900
-5.67849700 10.03254200 1.00502400
-5.66162900 9.93104700 1.19429100
-5.59666100 10.03886700 1.36347600
-5.62746500 9.72868900 1.00502400
-5.55179200 9.53556500 1.19611000
-5.54483000 9.73734500 1.37840600
-5.57978500 9.46209800 1.00502400
-5.59885700 9.40705500 1.21077200
-5.49688000 9.47255500 1.38922500
-5.79168700 9.29548300 1.00502400
-5.94023100 9.17487900 1.28349800
-5.69209200 9.30940800 1.47821100
-6.05299300 9.00370900 1.00502400
-6.08072300 8.82910100 1.32412900
-5.93194800 9.02213700 1.59520900
-6.12957600 8.61268100 1.00502400
-6.09750900 8.40550100 1.34119800
-5.99914600 8.63135100 1.65101500
-6.09115100 8.21860300 1.00502400
-5.99739100 8.04403600 1.32963000
-5.96030500 8.23300800 1.65787100
-5.88911500 7.86172600 1.00502400
-5.70693300 7.69410800 1.27689900
-5.77164300 7.86991800 1.59331200
-5.57650700 7.58451500 1.00502400
-5.38072400 7.48086500 1.21387800
-5.48187500 7.58838700 1.48016300
-5.12945800 7.33711800 1.00502400
-4.84513200 7.20562800 1.10889100
-5.06833900 7.33896100 1.31226100
-4.62333100 7.17389900 1.00502400
-4.60040900 7.17444800 1.12031600
-5.49668700 9.94563000 1.54401200
-5.36120600 10.05758900 1.66735700
-5.39148500 9.55483500 1.54919000
-5.30744400 9.76203400 1.69494400
-5.42872200 9.42889200 1.59094500
-5.25914200 9.50176400 1.71493600
-5.71680000 9.20707500 1.79805100
-5.40567500 9.34765800 1.87935900
-5.83020500 8.86640200 1.91375800
-5.58345100 9.07170600 2.09554300
-5.83700400 8.43812700 1.96236600
-5.62489700 8.68082000 2.19865900
-5.74735600 8.06567800 1.92942300
-5.58640900 8.27112100 2.21132800
-5.49837000 7.70430100 1.77925700
-5.43679400 7.89204200 2.09203800
-5.22081100 7.48629900 1.59978800
-5.21240500 7.59927100 1.88296600
-4.76566700 7.20762700 1.30081000
-4.89431500 7.34423400 1.57272400
-4.53513400 7.17601200 1.21805500
-5.18797200 9.97337600 1.81167600
-5.00395200 10.08713000 1.87040400
-5.09262400 9.58970900 1.81942600
-4.94801400 9.79896100 1.90644800
-5.11142200 9.46793500 1.88191700
-4.90005400 9.54408000 1.93256800
-5.29795900 9.26295200 2.19187300
-4.97138900 9.40162400 2.14739800
-5.36157000 8.92935100 2.36504100
-5.05425900 9.13934200 2.42985500
-5.35258200 8.49253300 2.43778800
-5.05928000 8.74686800 2.56458300
-5.28437100 8.10238300 2.38848500
-5.02453200 8.32225300 2.58113600
-5.11298500 7.72257400 2.16374600
-4.93526500 7.92299200 2.42527600
-4.92542000 7.49643700 1.89515100
-4.80928600 7.61556200 2.15210900
-4.61884500 7.21134300 1.44769900
-4.63396000 7.35228600 1.74675900
-4.43744900 7.17837000 1.28336200
-4.77987800 10.01062700 1.95653500
-4.57914000 10.12332800 1.94170400
-4.69902500 9.63400300 1.96567700
-4.52118800 9.84218400 1.98071800
-4.69340500 9.51682000 2.03939000
-4.47431500 9.59221200 2.00899000
-4.74354500 9.33048400 2.40500800
-4.45526500 9.46157500 2.24152000
-4.74257800 9.00314900 2.60927300
-4.42489000 9.21246300 2.54725000
-4.71646200 8.55603500 2.69508400
-4.38883200 8.81763700 2.69307800
-4.67884100 8.14677500 2.63692800
-4.36107100 8.37836400 2.71099500
-4.60979400 7.74641200 2.37183000
-4.34418400 7.95891900 2.54229300
-4.53973800 7.51017100 2.05500000
-4.33432000 7.63565500 2.24662100
-4.42704300 7.21626700 1.52719500
-4.32705000 7.36222900 1.80787300
-4.32223000 7.18117600 1.30629500
-4.33705700 10.05125800 1.95653500
-4.15588100 10.15971700 1.87040400
-4.27245900 9.68054900 1.96567700
-4.09581800 9.88464600 1.90644800
-4.24035900 9.56771400 2.03939000
-4.04993100 9.63889500 1.93256800
-4.14189200 9.39925700 2.40500800
-3.94114400 9.51924300 2.14739800
-4.07159500 9.07762100 2.60927300
-3.79838900 9.28274100 2.42985500
-4.02853800 8.62160800 2.69508400
-3.72155000 8.88726300 2.56458300
-4.02481800 8.19504500 2.63692700
-3.70052300 8.43616900 2.58113500
-4.06617500 7.77393300 2.37182900
-3.75508100 7.99772300 2.42527500
-4.12277000 7.52616500 2.05500000
-3.86029700 7.65783100 2.15210900
-4.21948500 7.22171800 1.52719500
-4.02043000 7.37290400 1.74675900
-4.20702200 7.18401600 1.28336200
-3.93187200 10.08812300 1.81167700
-3.80237700 10.18971800 1.66735700
-3.88131200 9.72249800 1.81942600
-3.73990200 9.91974700 1.69494400
-3.82506700 9.61357600 1.88191700
-3.69411800 9.67771800 1.71493500
-3.59218900 9.46146900 2.19187300
-3.51169700 9.56770100 1.87935900
-3.45832200 9.14681600 2.36504000
-3.27612100 9.34352500 2.09554200
-3.39822800 8.68578600 2.43778800
-3.16357400 8.95056200 2.19865800
-3.42404500 8.24462000 2.38848400
-3.14568000 8.49140200 2.21132700
-3.56548800 7.80271400 2.16374500
-3.25832700 8.03561900 2.09203700
-3.73815100 7.54249900 1.89515000
-3.45945800 7.67915400 1.88296400
-4.02778000 7.22690100 1.44769900
-3.76077900 7.38273100 1.57272300
-4.10936300 7.18645000 1.21805500
-3.62727200 10.11532500 1.54401200
-3.57067300 10.20889800 1.36347600
-3.58592000 9.75406200 1.54919000
-3.50603000 9.94260500 1.37840600
-3.51162200 9.64835100 1.59094600
-3.45965600 9.70343500 1.38922600
-3.18000800 9.50982700 1.79805100
-3.23011700 9.60044600 1.47821100
-2.99777500 9.20326200 1.91375700
-2.93454600 9.38624300 1.59520900
-2.92202500 8.74114900 1.96236600
-2.79696700 8.99728300 1.65101400
-2.96778800 8.28865600 1.92942200
-2.77881600 8.53361700 1.65787100
-3.18364400 7.82798000 1.77925700
-2.92825100 8.06468800 1.59331100
-3.44426600 7.55631900 1.59978700
-3.19226600 7.69507300 1.48016200
-3.88109700 7.23098500 1.30080900
-3.58745700 7.38977900 1.31226100
-4.04411300 7.18809000 1.12031500
-3.46523800 10.12952000 1.19429200
-3.49039100 10.21541300 1.00502400
-3.42806500 9.77098300 1.19611000
-3.42485000 9.95050000 1.00502400
-3.34421100 9.66716600 1.21077300
-3.37810800 9.71244400 1.00502400
-2.96128700 9.53670900 1.28349800
-3.13252700 9.61208800 1.00502400
-2.75297400 9.23596500 1.32412900
-2.81636900 9.40183000 1.00502400
-2.66733200 8.77445500 1.34119800
-2.66970300 9.01481700 1.00502400
-2.72251000 8.31548200 1.32963000
-2.65088500 8.54972200 1.00502400
-2.97758500 7.84311700 1.27689900
-2.81275600 8.07575800 1.00502400
-3.28541700 7.56435800 1.21387700
-3.09857800 7.70102900 1.00502400
-3.80172900 7.23324300 1.10889000
-3.52663100 7.39235700 1.00502400
-4.02120200 7.18867000 1.00502400
-5.59666100 10.03886700 0.64657200
-5.66162900 9.93104700 0.81575700
-5.54483000 9.73734500 0.63164300
-5.55179200 9.53556500 0.81393900
-5.49688000 9.47255600 0.62082300
-5.59885700 9.40705500 0.79927600
-5.69209200 9.30940800 0.53183800
-5.94023100 9.17487800 0.72655000
-5.93194800 9.02213700 0.41484000
-6.08072300 8.82910100 0.68591900
-5.99914700 8.63135100 0.35903400
-6.09750900 8.40550100 0.66885100
-5.96030500 8.23300800 0.35217800
-5.99739100 8.04403600 0.68041900
-5.77164300 7.86991800 0.41673700
-5.70693300 7.69410800 0.73315000
-5.48187500 7.58838600 0.52988600
-5.38072400 7.48086500 0.79617100
-5.06833900 7.33896100 0.69778700
-4.84513200 7.20562800 0.90115800
-4.60040900 7.17444800 0.88973300
-5.36120600 10.05758900 0.34269100
-5.49668700 9.94563000 0.46603700
-5.30744400 9.76203300 0.31510400
-5.39148500 9.55483500 0.46085900
-5.25914200 9.50176400 0.29511300
-5.42872200 9.42889200 0.41910300
-5.40567500 9.34765900 0.13068900
-5.71680000 9.20707500 0.21199700
-5.58345100 9.07170600 -0.08549500
-5.83020500 8.86640200 0.09629000
-5.62489700 8.68082000 -0.18861000
-5.83700400 8.43812700 0.04768200
-5.58640900 8.27112100 -0.20127900
-5.74735600 8.06567800 0.08062500
-5.43679400 7.89204200 -0.08198900
-5.49837000 7.70430100 0.23079100
-5.21240500 7.59927100 0.12708300
-5.22081100 7.48629900 0.41026000
-4.89431500 7.34423400 0.43732400
-4.76566700 7.20762700 0.70923900
-4.53513400 7.17601200 0.79199400
-5.00395200 10.08713000 0.13964500
-5.18797200 9.97337600 0.19837200
-4.94801400 9.79896100 0.10360000
-5.09262500 9.58970900 0.19062200
-4.90005400 9.54408000 0.07748000
-5.11142200 9.46793500 0.12813100
-4.97138900 9.40162400 -0.13734900
-5.29795900 9.26295200 -0.18182500
-5.05425900 9.13934200 -0.41980700
-5.36157000 8.92935100 -0.35499200
-5.05928000 8.74686800 -0.55453400
-5.35258200 8.49253300 -0.42773900
-5.02453200 8.32225300 -0.57108800
-5.28437100 8.10238300 -0.37843700
-4.93526500 7.92299300 -0.41522700
-5.11298600 7.72257400 -0.15369700
-4.80928600 7.61556200 -0.14206100
-4.92542000 7.49643700 0.11489800
-4.63396000 7.35228600 0.26328900
-4.61884500 7.21134300 0.56235000
-4.43744900 7.17837000 0.72668600
-4.57914000 10.12332800 0.06834400
-4.77987800 10.01062700 0.05351400
-4.52118800 9.84218200 0.02933000
-4.69902500 9.63400300 0.04437200
-4.47431500 9.59221200 0.00105800
-4.69340500 9.51682000 -0.02934100
-4.45526500 9.46157500 -0.23147200
-4.74354500 9.33048400 -0.39495900
-4.42489000 9.21246300 -0.53720100
-4.74257800 9.00314900 -0.59922400
-4.38883200 8.81763700 -0.68302900
-4.71646200 8.55603500 -0.68503500
-4.36107100 8.37836400 -0.70094600
-4.67884100 8.14677500 -0.62687900
-4.34418400 7.95892000 -0.53224500
-4.60979400 7.74641200 -0.36178100
-4.33432000 7.63565400 -0.23657200
-4.53973800 7.51017100 -0.04495200
-4.32705000 7.36222900 0.20217600
-4.42704300 7.21626700 0.48285400
-4.32223000 7.18117600 0.70375300
-4.15588100 10.15971700 0.13964400
-4.33705700 10.05125800 0.05351300
-4.09581800 9.88464700 0.10360000
-4.27245900 9.68054900 0.04437200
-4.04993100 9.63889500 0.07748100
-4.24035900 9.56771400 -0.02934100
-3.94114400 9.51924300 -0.13734900
-4.14189200 9.39925700 -0.39495900
-3.79838900 9.28274000 -0.41980700
-4.07159500 9.07762100 -0.59922400
-3.72155000 8.88726300 -0.55453400
-4.02853800 8.62160800 -0.68503500
-3.70052300 8.43616900 -0.57108700
-4.02481800 8.19504500 -0.62687900
-3.75508100 7.99772300 -0.41522700
-4.06617500 7.77393300 -0.36178100
-3.86029700 7.65783100 -0.14206000
-4.12277000 7.52616500 -0.04495200
-4.02043000 7.37290400 0.26328900
-4.21948500 7.22171800 0.48285400
-4.20702200 7.18401600 0.72668600
-3.80237700 10.18971800 0.34269100
-3.93187200 10.08812300 0.19837200
-3.73990200 9.91974700 0.31510400
-3.88131200 9.72249800 0.19062300
-3.69411800 9.67771800 0.29511300
-3.82506700 9.61357600 0.12813100
-3.51169700 9.56770100 0.13069000
-3.59218900 9.46146900 -0.18182400
-3.27612200 9.34352300 -0.08549400
-3.45832200 9.14681500 -0.35499100
-3.16357400 8.95056200 -0.18861000
-3.39822800 8.68578600 -0.42773900
-3.14568000 8.49140200 -0.20127900
-3.42404500 8.24462000 -0.37843600
-3.25832700 8.03561900 -0.08198800
-3.56548800 7.80271400 -0.15369600
-3.45945800 7.67915300 0.12708400
-3.73815100 7.54249900 0.11489800
-3.76077900 7.38273100 0.43732500
-4.02778000 7.22690100 0.56235000
-4.10936300 7.18645000 0.79199400
-3.57067300 10.20889800 0.64657200
-3.62727200 10.11532500 0.46603700
-3.50603000 9.94260500 0.63164200
-3.58592000 9.75406200 0.46085900
-3.45965600 9.70343600 0.62082300
-3.51162200 9.64835100 0.41910300
-3.23011700 9.60044600 0.53183800
-3.18000800 9.50982700 0.21199800
-2.93454600 9.38624300 0.41484000
-2.99777500 9.20326200 0.09629100
-2.79696700 8.99728300 0.35903400
-2.92202500 8.74114900 0.04768300
-2.77881600 8.53361700 0.35217800
-2.96778800 8.28865600 0.08062600
-2.92825100 8.06468800 0.41673700
-3.18364400 7.82798000 0.23079200
-3.19226600 7.69507200 0.52988600
-3.44426600 7.55631900 0.41026100
-3.58745700 7.38977900 0.69778800
-3.88109700 7.23098500 0.70923900
-4.04411300 7.18809000 0.88973300
-3.46523800 10.12952000 0.81575700
-3.42806500 9.77098300 0.81393900
-3.34421100 9.66716700 0.79927600
-2.96128700 9.53670900 0.72655000
-2.75297400 9.23596500 0.68592000
-2.66733200 8.77445500 0.66885100
-2.72251000 8.31548200 0.68041900
-2.97758500 7.84311700 0.73315000
-3.28541700 7.56435800 0.79617100
-3.80172900 7.23324300 0.90115800
-5.12131100 9.46073400 1.25974800
-5.17142600 9.45698400 1.03328100
-5.12131100 9.46073400 0.80681400
-4.97789900 9.47165300 0.61482300
-4.76188100 9.48852600 0.48654000
-4.50617800 9.50896100 0.44149300
-4.25110400 9.52959500 0.48654000
-4.03660000 9.54694600 0.61482400
-3.89470400 9.55834300 0.80681400
-3.89470400 9.55834200 1.25974800
-4.03660000 9.54694500 1.45173800
-4.25110300 9.52959500 1.58002100
-4.50617800 9.50896000 1.62506900
-4.76188200 9.48852500 1.58002100
-4.97790000 9.47165400 1.45173800
-3.84521600 9.56229100 1.03328100
-4.34806700 8.09779300 1.00502400
-4.32163300 7.15977800 1.00502500
-3.96456900 8.29335900 1.00747300
-3.99469600 8.29104300 0.85806300
-3.66941900 10.19380700 1.00747300
-3.54247400 10.27009800 1.00502400
-3.62009000 10.26413800 0.66227100
-3.73722200 10.18833500 0.70942600
-4.08059700 8.28449200 0.73139900
-3.84400200 10.24655100 0.37170000
-3.93221000 10.17236800 0.45675400
-4.20940300 8.27482900 0.64676400
-4.18541700 10.21900600 0.17754500
-4.22819900 10.14770300 0.28792500
-4.36161900 8.26361200 0.61704500
-4.59402900 10.18570000 0.10936800
-4.58129000 10.11806600 0.22863900
-4.51400900 8.25255700 0.64676400
-5.00412400 10.15288800 0.17754500
-4.93548100 10.08867700 0.28792400
-4.64323100 8.24328300 0.73139900
-5.34911700 10.12653400 0.37169900
-5.23412800 10.06460900 0.45675400
-4.72954700 8.23712200 0.85806300
-5.57660900 10.11013900 0.66227100
-5.43177300 10.04924900 0.70942600
-4.75984600 8.23496200 1.00747400
-5.65570800 10.10467100 1.00502400
-5.50067700 10.04402500 1.00747300
-4.72954600 8.23712100 1.15688400
-5.57660900 10.11013800 1.34777700
-5.43177300 10.04924900 1.30552000
-4.64323000 8.24328200 1.28354800
-5.34911800 10.12653400 1.63834900
-5.23412800 10.06461000 1.55819200
-4.51400800 8.25255800 1.36818200
-5.00412400 10.15288800 1.83250200
-4.93548100 10.08867600 1.72702100
-4.36161900 8.26361200 1.39790200
-4.59403000 10.18570000 1.90068000
-4.58129100 10.11806600 1.78630700
-4.20940200 8.27483100 1.36818300
-4.18541700 10.21900600 1.83250300
-4.22819900 10.14770300 1.72702200
-4.08059600 8.28449300 1.28354800
-3.84400200 10.24655100 1.63834900
-3.93221000 10.17236800 1.55819200
-3.99469600 8.29104300 1.15688400
-3.62009000 10.26413900 1.34777700
-3.73722300 10.18833500 1.30552000
-5.68287200 9.92919000 1.00502400
-5.59915100 9.93654900 1.37635500
-5.57249300 9.53303100 1.00502400
-5.49101400 9.54291600 1.37992300
-5.62082200 9.40416200 1.00502400
-5.53435800 9.41540900 1.40869000
-5.85563000 9.18727200 1.55137400
-6.11299700 8.82398000 1.00502400
-5.98582100 8.84354500 1.63108900
-6.13120500 8.40098400 1.00502400
-5.99868700 8.41817500 1.66457700
-6.02982600 8.04105800 1.00502400
-5.90244600 8.05242400 1.64188100
-5.73403000 7.69274700 1.00502400
-5.62769600 7.69801600 1.53842600
-5.40150600 7.48015800 1.00502400
-5.31996400 7.48293100 1.41478200
-4.84972900 7.20502200 1.00502400
-4.80964400 7.20603000 1.20661500
-5.35828000 9.95800000 1.69115400
-5.25731700 9.57065200 1.69774700
-5.28629500 9.44667900 1.75090100
-5.52911700 9.23279900 2.01454600
-5.62006000 8.89567200 2.16184100
-5.61934200 8.46352400 2.22371900
-5.53902800 8.08269900 2.18178300
-5.32483900 7.71260500 1.99062100
-5.08779000 7.49084500 1.76215800
-4.69550000 7.20891000 1.37751500
-4.99282000 9.99112800 1.90149600
-4.90424600 9.61112100 1.91010900
-4.91137100 9.49165300 1.97955900
-5.03290700 9.29601800 2.32402800
-5.06549100 8.96574200 2.51647800
-5.04789800 8.52381500 2.59732600
-4.99407800 8.12398700 2.54253300
-4.87168000 7.73393400 2.29276900
-4.74047800 7.50292900 1.99426600
-4.52468900 7.21326100 1.49170600
-4.55825400 10.03097000 1.97535900
-4.48556300 9.65744800 1.98468100
-4.46668300 9.54248900 2.05985300
-4.44237400 9.36526000 2.43270400
-4.40666800 9.04072300 2.64101000
-4.37207500 8.58877200 2.72851800
-4.35148100 8.17053100 2.66921100
-4.33780100 7.75981100 2.39886900
-4.33117600 7.51797700 2.07577200
-4.32324300 7.21849000 1.53180500
-4.12526800 10.07060400 1.90149700
-4.06821100 9.70250100 1.91010900
-4.02347400 9.59168200 1.97955900
-3.85439700 9.43161200 2.32402800
-3.75095000 9.11319900 2.51647800
-3.69940500 8.65409500 2.59732500
-3.71146700 8.21988600 2.54253200
-3.80528200 7.78837000 2.29276800
-3.92245100 7.53443700 1.99426600
-4.12185000 7.22385900 1.49170600
-3.76362100 10.10322600 1.69115500
-3.71835300 9.73989900 1.69774600
-3.65212200 9.63269900 1.75090100
-3.36436100 9.48786200 2.01454600
-3.20387600 9.17724400 2.16184000
-3.13557800 8.71527400 2.22371800
-3.17275200 8.26797000 2.18178100
-3.35540500 7.81618000 1.99062100
-3.57653500 7.54993400 1.76215700
-3.95116600 7.22854800 1.37751400
-3.52656300 10.12417100 1.37635500
-3.48787200 9.76456400 1.37992300
-3.40763000 9.66001200 1.40869000
-3.04402100 9.52642300 1.55137300
-2.84561000 9.22334400 1.63108900
-2.76385000 8.76151100 1.66457700
-2.81556800 8.30504000 1.64188100
-3.05582900 7.83724700 1.53842500
-3.34575600 7.56125900 1.41478100
-3.83714900 7.23176600 1.20661400
-3.44442200 10.13131900 1.00502400
-3.40772200 9.77317300 1.00502400
-3.32264400 9.66961700 1.00502400
-2.93323400 9.54027200 1.00502400
-2.72153800 9.24041100 1.00502400
-2.63448800 8.77907300 1.00502400
-2.69077100 8.31921800 1.00502400
-2.95085500 7.84520000 1.00502400
-3.26479100 7.56544700 1.00502400
-3.79711800 7.23291500 1.00502400
-5.59915100 9.93654900 0.63369400
-5.49101400 9.54291600 0.63012600
-5.53435800 9.41540900 0.60135900
-5.85563000 9.18727200 0.45867500
-5.98582100 8.84354500 0.37896000
-5.99868700 8.41817500 0.34547200
-5.90244600 8.05242300 0.36816700
-5.62769600 7.69801600 0.47162300
-5.31996400 7.48293100 0.59526700
-4.80964400 7.20603000 0.80343400
-5.35828000 9.95800000 0.31889400
-5.25731700 9.57065200 0.31230200
-5.28629500 9.44667900 0.25914800
-5.52911700 9.23279900 -0.00449800
-5.62006000 8.89567200 -0.15179300
-5.61934200 8.46352400 -0.21367000
-5.53902800 8.08269900 -0.17173400
-5.32483900 7.71260500 0.01942700
-5.08779000 7.49084500 0.24789100
-4.69550000 7.20891100 0.63253400
-4.99282000 9.99112800 0.10855200
-4.90424600 9.61112100 0.09993900
-4.91137100 9.49165300 0.03049000
-5.03290700 9.29601800 -0.31398000
-5.06549100 8.96574200 -0.50642900
-5.04789800 8.52381500 -0.58727700
-4.99407800 8.12398700 -0.53248400
-4.87168000 7.73393500 -0.28272000
-4.74047800 7.50292900 0.01578300
-4.52468900 7.21326100 0.51834200
-4.55825400 10.03097000 0.03469000
-4.48556300 9.65744800 0.02536700
-4.46668300 9.54249000 -0.04980400
-4.44237400 9.36526000 -0.42265500
-4.40666800 9.04072300 -0.63096000
-4.37207500 8.58877200 -0.71846900
-4.35148100 8.17053200 -0.65916300
-4.33780100 7.75981100 -0.38882100
-4.33117600 7.51797700 -0.06572400
-4.32324300 7.21849000 0.47824300
-4.12526800 10.07060400 0.10855200
-4.06821100 9.70250100 0.09993900
-4.02347400 9.59168200 0.03049000
-3.85439700 9.43161200 -0.31397900
-3.75095000 9.11319900 -0.50642900
-3.69940500 8.65409500 -0.58727600
-3.71146800 8.21988600 -0.53248400
-3.80528200 7.78837000 -0.28272000
-3.92245100 7.53443700 0.01578300
-4.12185000 7.22385900 0.51834200
-3.76362100 10.10322600 0.31889400
-3.71835200 9.73989900 0.31230200
-3.65212200 9.63269900 0.25914800
-3.36436100 9.48786200 -0.00449700
-3.20387600 9.17724400 -0.15179100
-3.13557800 8.71527400 -0.21367000
-3.17275300 8.26796900 -0.17173300
-5.96897300 9.17053400 1.00502400
-3.57653500 7.54993400 0.24789200
-3.95116600 7.22854800 0.63253400
-3.52656400 10.12417100 0.63369300
-3.48787200 9.76456400 0.63012600
-3.40763000 9.66001200 0.60135900
-3.04402100 9.52642300 0.45867500
-2.84561000 9.22334400 0.37896000
-2.76385000 8.76151100 0.34547200
-2.81556800 8.30504000 0.36816800
-3.05582900 7.83724700 0.47162300
-3.34575600 7.56125900 0.59526800
-3.83714900 7.23176600 0.80343400
-3.35540500 7.81618000 0.01942800
2.23807700 11.60357400 -0.07373000
2.23807700 11.60357400 0.43328600
3.48244700 13.17511400 0.68044600
3.48244700 13.17511400 -0.32089100
3.09876000 13.16528000 -1.24600600
2.04361800 11.60332300 -0.54215200
1.68409300 11.60275300 -0.90066700
1.21387800 11.60176600 -1.09469400
0.70422400 11.60034400 -1.09469400
0.23262900 11.59866000 -0.90066700
-0.12884900 11.59709900 -0.54215200
-0.32468700 11.59614900 -0.07373000
-0.32468700 11.59614900 0.43328600
-0.12884800 11.59709900 0.90170800
0.23262900 11.59866000 1.26022200
0.70422500 11.60034400 1.45425000
1.21387800 11.60176600 1.45424900
1.68409300 11.60275300 1.26022200
2.04361800 11.60332300 0.90170800
4.34774500 14.75411500 0.85261400
4.34774500 14.75411500 -0.49305800
3.83254900 14.73366400 -1.73629700
4.12618100 13.69720000 0.80862200
4.12618100 13.69719800 -0.44906700
3.64403300 13.68533800 -1.61102000
2.38909700 13.14571200 -1.95405800
2.87958400 14.69271700 -2.68783000
2.75123300 13.66080200 -2.50034100
1.45991800 13.11757200 -2.33725300
1.63122100 14.63358300 -3.20279600
1.57924100 13.62347400 -2.98163800
0.45070000 13.08408800 -2.33725300
0.27370400 14.56328000 -3.20279600
0.30073100 13.57612900 -2.98163900
-0.48589600 13.05061800 -1.95405800
-0.98844200 14.49341000 -2.68783100
-0.89259600 13.52574500 -2.50034200
-1.20605000 13.02352000 -1.24600500
-1.96090100 14.43728900 -1.73629700
-1.81557000 13.48274500 -1.61102000
-1.59715500 13.00835700 -0.32089100
-2.48988200 14.40610700 -0.49305800
-2.31905300 13.45782600 -0.44906700
-1.59715500 13.00835900 0.68044700
-2.48988100 14.40610800 0.85261300
-2.31905300 13.45782800 0.80862200
-1.20604900 13.02352000 1.60556100
-1.96090000 14.43729100 2.09585200
-1.81556900 13.48274700 1.97057500
-0.48589600 13.05062000 2.31361300
-0.98844100 14.49341000 3.04738600
-0.89259600 13.52574600 2.85989700
0.45070000 13.08408800 2.69680800
0.27370400 14.56328000 3.56235200
0.30073100 13.57613100 3.34119400
1.45991800 13.11757400 2.69680800
1.63122000 14.63358300 3.56235100
1.57924000 13.62347600 3.34119300
2.38909600 13.14571400 2.31361200
2.87958300 14.69271900 3.04738400
2.75123300 13.66080200 2.85989600
3.09876000 13.16528000 1.60556000
3.83254900 14.73366500 2.09585100
3.64403300 13.68533900 1.97057500
-1.50009600 12.07349300 -0.29097600
-1.50009600 12.07349300 0.65053200
-1.12312900 12.08269300 1.52037200
-0.90838000 11.42859400 -0.19007300
-0.90838000 11.42859400 0.54962900
-0.62322100 11.42968100 1.23302500
-0.14658400 11.16444800 -0.04108000
-0.14658400 11.16444800 0.40063500
0.02264300 11.16454400 0.80872700
0.02264300 11.16454400 -0.44917200
0.33529100 11.16470100 -0.76151200
0.74370600 11.16486400 -0.93054900
1.18568000 11.16500000 -0.93054900
1.59394100 11.16508900 -0.76151100
1.90637100 11.16513300 -0.44917100
2.07544500 11.16515400 -0.04108000
2.07544500 11.16515400 0.40063500
1.90637100 11.16513400 0.80872600
1.59394100 11.16508900 1.12106600
1.18568000 11.16500000 1.29010400
0.74370600 11.16486500 1.29010400
0.33529100 11.16470000 1.12106800
-0.43170000 12.09711500 2.18611900
-0.09686600 11.43141100 1.75607300
0.46281000 12.11148100 2.54641900
0.58987400 11.43317800 2.03914500
1.42154600 12.12221500 2.54641800
1.33212000 11.43455000 2.03914500
2.30041900 12.12858600 2.18611800
2.01704100 11.43539700 1.75607200
2.96973200 12.13170500 1.52037100
2.54082300 11.43582400 1.23302300
3.33106100 12.13291200 0.65053200
2.82416200 11.43599000 0.54962900
3.33106100 12.13291100 -0.29097600
2.82416200 11.43599000 -0.19007300
-1.12312900 12.08269300 -1.16081600
-0.62322100 11.42968200 -0.87346900
-0.43170000 12.09711500 -1.82656300
-0.09686600 11.43141100 -1.39651800
0.46281000 12.11148100 -2.18686300
0.58987400 11.43317800 -1.67958900
1.42154600 12.12221400 -2.18686300
1.33212000 11.43455000 -1.67958900
2.30041900 12.12858700 -1.82656300
2.01704100 11.43539700 -1.39651600
2.96973200 12.13170600 -1.16081600
2.54082200 11.43582300 -0.87346800
2.87294600 11.81765800 -0.19965900
2.09719200 11.60028900 0.17977800
2.01068400 11.60018300 -0.25421300
3.53228700 13.17633400 0.17977800
4.04266900 14.53353600 -0.43237300
3.33668600 13.17143400 -0.80250400
4.41467200 14.75664500 0.17977800
4.51153000 14.63202400 -0.52564200
4.15201900 14.74647200 -1.14028600
2.58193800 11.81606900 -0.90076700
1.76423700 11.59983300 -0.62213200
3.57380600 14.51532400 -1.56348100
2.77934100 13.15669300 -1.63524200
3.97139300 14.61183000 -1.82908900
3.40363700 14.71573300 -2.25938100
2.04387100 11.81281700 -1.43737300
1.39510900 11.59916200 -0.86796900
2.70643600 14.47913500 -2.42919300
1.94397500 13.13258800 -2.19166000
2.97228300 14.57104000 -2.82670300
2.28168100 14.66515500 -3.00713700
1.34001100 11.80793700 -1.72778200
0.95917300 11.59810300 -0.95429500
1.57011000 14.42723700 -2.89771300
0.95585200 13.10122200 -2.38704800
1.66330500 14.51153300 -3.36660800
0.95347200 14.59922000 -3.26971400
0.57684200 11.80182100 -1.72778100
0.52258900 11.59671700 -0.86796800
0.33450600 14.36576400 -2.89771300
-0.03629700 13.06695700 -2.19165900
0.23942500 14.44017000 -3.36660800
-0.38222000 14.52744800 -3.00713700
-0.12969400 11.79538000 -1.43737200
0.15189600 11.59525100 -0.62213200
-0.81402100 14.30466500 -2.42919300
-0.88138500 13.03587000 -1.63524200
-1.08507100 14.36879400 -2.82670400
-1.52224100 14.46281100 -2.25938200
-0.67154600 11.78992400 -0.90076700
-0.09611600 11.59410800 -0.25421300
-1.69864800 14.25547000 -1.56348100
-1.44845300 13.01414900 -0.80250300
-2.10612900 14.31122900 -1.82908900
-2.28869100 14.41800200 -1.14028600
-0.96522900 11.78677400 -0.19965900
-0.18327100 11.59367300 0.17977800
-2.17971400 14.22805900 -0.43237300
-1.64808100 13.00635500 0.17977800
-2.66178600 14.27916900 -0.52564300
-2.55882700 14.40200700 0.17977700
-0.96522800 11.78677400 0.55921500
-0.09611500 11.59410800 0.61376900
-2.17971400 14.22806200 0.79192900
-1.44845200 13.01415100 1.16205900
-2.66178600 14.27917000 0.88519700
-2.28869000 14.41800500 1.49984100
-0.67154500 11.78992400 1.26032300
0.15189700 11.59525100 0.98168800
-1.69864800 14.25547200 1.92303600
-0.88138500 13.03587200 1.99479700
-2.10612900 14.31123000 2.18864400
-1.52224100 14.46281100 2.61893600
-0.12969300 11.79538000 1.79692800
0.52259000 11.59671700 1.22752400
-0.81402100 14.30466600 2.78874800
-0.03629600 13.06695900 2.55121600
-1.08507100 14.36879600 3.18625900
-0.38222000 14.52744900 3.36669300
0.57684300 11.80182100 2.08733700
0.95917400 11.59810300 1.31385000
0.33450700 14.36576500 3.25726800
0.95585300 13.10122400 2.74660200
0.23942500 14.44017000 3.72616400
0.95347200 14.59922000 3.62926900
1.34001100 11.80793700 2.08733700
1.39510900 11.59916200 1.22752400
1.57011000 14.42723800 3.25726700
1.94397400 13.13259000 2.55121400
1.66330500 14.51153300 3.72616300
2.28168100 14.66515700 3.36669200
2.04387100 11.81281700 1.79692700
1.76423700 11.59983300 0.98168800
2.70643600 14.47913700 2.78874700
2.77934000 13.15669400 1.99479600
2.97228300 14.57104000 3.18625800
3.40363600 14.71573500 2.61893600
2.58193800 11.81606900 1.26032300
2.01068500 11.60018300 0.61376800
3.57380500 14.51532600 1.92303500
3.33668600 13.17143400 1.16205900
3.97139300 14.61183200 2.18864400
4.15201900 14.74647400 1.49984100
2.87294700 11.81765800 0.55921500
4.04266900 14.53353600 0.79192900
4.51153000 14.63202500 0.88519800
-2.38478200 13.45447100 0.17977800
-1.89774300 12.64007800 0.72122400
-2.12745300 13.46741300 1.41353300
-1.54929200 12.07219200 0.17977800
-1.15926000 11.69176900 0.59413700
-1.35665900 12.07709400 1.10336900
-0.94545800 11.42844200 0.17977800
-0.61498100 11.26060900 0.49309800
-0.80001300 11.42901800 0.90540300
-0.02410500 11.14937500 0.17977800
0.05119000 11.14941900 0.55787300
-1.45890100 12.65679100 1.72168500
-1.39881400 13.50260000 2.45946000
-0.83548900 11.69535400 1.35977300
-0.81098300 12.08959700 1.88635200
-0.37446300 11.26097500 1.07203900
-0.38613000 11.43050400 1.52055900
0.26559200 11.14953500 0.87840700
-0.65574100 12.68395800 2.48740600
-0.31879000 13.55074000 3.15832800
-0.23917500 11.70100600 1.94576500
-0.00164700 12.10462000 2.40952500
0.06977300 11.26156500 1.51514100
0.23249400 11.43232800 1.93159300
0.58641100 11.14968000 1.09258000
0.38029900 12.71286500 2.90181100
0.94154700 13.60076100 3.40373600
0.53656600 11.70668400 2.26290200
0.94332300 12.11743200 2.59323800
0.64987300 11.26217100 1.75494600
0.96113000 11.43393100 2.07592900
0.96476500 11.14981400 1.16778800
1.48758200 12.73684700 2.90181000
2.19030400 13.64368700 3.15832700
1.37257700 11.71097900 2.26290100
1.87980400 12.12590400 2.40952400
1.27740900 11.26265000 1.75494600
1.68877800 11.43503900 1.93159200
1.34304800 11.14991300 1.09258000
2.50044600 12.75336400 2.48740500
3.24236400 13.67472100 2.45945900
2.14225100 11.71356500 1.94576400
2.66864500 12.13045400 1.88635100
1.85690000 11.26294900 1.51514000
2.30501900 11.43565100 1.52055800
1.66369300 11.14996900 0.87840500
3.27082800 12.76300800 1.72168500
3.94303900 13.69279000 1.41353300
2.72998400 11.71484500 1.35977200
3.19382300 12.13248000 1.10336800
2.30027600 11.26310100 1.07203800
2.71651600 11.43593100 0.90540300
1.87791900 11.14999600 0.55787200
3.68649200 12.76732800 0.72122400
4.18878600 13.69864300 0.17977800
3.04768500 11.71533700 0.59413700
3.37796600 12.13304100 0.17977800
2.54018400 11.26316400 0.49309800
2.86097300 11.43600800 0.17977800
1.95314200 11.15000500 0.17977800
-2.12745300 13.46741200 -1.05397700
-1.89774300 12.64007800 -0.36166800
-1.35665900 12.07709400 -0.74381300
-1.15926000 11.69176900 -0.23458100
-0.80001300 11.42901800 -0.54584800
-0.61498100 11.26060900 -0.13354300
0.05119000 11.14941900 -0.19831700
-1.39881400 13.50259900 -2.09990500
-1.45890100 12.65678900 -1.36213000
-0.81098300 12.08959700 -1.52679600
-0.83548900 11.69535400 -1.00021700
-0.38613000 11.43050400 -1.16100400
-0.37446300 11.26097600 -0.71248400
0.26559200 11.14953500 -0.51885100
-0.31879000 13.55073900 -2.79877200
-0.65574100 12.68395800 -2.12785100
-0.00164700 12.10462000 -2.04996900
-0.23917500 11.70100600 -1.58620900
0.23249400 11.43232800 -1.57203700
0.06977300 11.26156500 -1.15558600
0.58641100 11.14968000 -0.73302500
0.94154800 13.60076100 -3.04418100
0.38029900 12.71286500 -2.54225500
0.94332300 12.11743200 -2.23368200
0.53656600 11.70668400 -1.90334600
0.96113000 11.43393100 -1.71637300
0.64987300 11.26217100 -1.39539100
0.96476500 11.14981300 -0.80823300
2.19030400 13.64368700 -2.79877100
1.48758200 12.73684700 -2.54225500
1.87980400 12.12590400 -2.04996900
1.37257700 11.71097900 -1.90334600
1.68877800 11.43503900 -1.57203700
1.27740900 11.26265000 -1.39539100
1.34304800 11.14991300 -0.73302400
3.24236400 13.67472100 -2.09990400
2.50044600 12.75336400 -2.12785000
2.66864500 12.13045500 -1.52679600
2.14225100 11.71356600 -1.58620900
2.30501900 11.43565100 -1.16100200
1.85690000 11.26294900 -1.15558400
1.66369300 11.14996900 -0.51885000
3.94303900 13.69279000 -1.05397700
3.27082800 12.76300800 -1.36212900
3.19382300 12.13248000 -0.74381300
2.72998400 11.71484500 -1.00021600
2.71651600 11.43593100 -0.54584700
2.30027600 11.26310100 -0.71248200
1.87791900 11.14999600 -0.19831700
3.68649200 12.76732600 -0.36166800
3.04768500 11.71533700 -0.23458100
2.54018400 11.26316400 -0.13354200
0.95918200 11.58077400 0.17977800
2.41571300 11.25935400 -0.42113400
-1.95508600 12.63775600 0.17977800
-1.73068900 12.64657800 1.24206200
-1.20141200 11.69126100 0.17977800
-1.03616500 11.69316900 0.99272600
-0.61012400 11.25679200 0.17977800
-0.49022100 11.25698500 0.78069000
0.96510500 11.06284600 0.17977800
-1.09603300 12.66961700 2.14262300
-0.56667800 11.69805200 1.68190900
-0.14886600 11.25748400 1.29012000
-0.15722800 12.69873500 2.74436000
0.13318400 11.70396400 2.14240700
0.36174800 11.25810200 1.63050800
0.93563800 12.72576400 2.95566100
0.95501600 11.70905700 2.30411200
0.96370100 11.25865200 1.75003700
2.01592300 12.74606400 2.74435900
1.77355400 11.71247400 2.14240600
1.56532600 11.25903900 1.63050800
2.92435000 12.75894500 2.14262300
2.46546300 11.71433000 1.68190800
2.07514900 11.25925200 1.29011800
3.52862700 12.76573900 1.24206200
2.92699700 11.71516100 0.99272500
2.41571300 11.25935400 0.78068900
3.74044100 12.76783600 0.17977800
3.08894800 11.71539100 0.17977800
2.53528900 11.25938300 0.17977800
-1.73068900 12.64657700 -0.88250600
-1.03616500 11.69316900 -0.63317000
-0.49022100 11.25698400 -0.42113400
-1.09603300 12.66961600 -1.78306800
-0.56667800 11.69805200 -1.32235400
-0.14886600 11.25748500 -0.93056400
-0.15722800 12.69873500 -2.38480500
0.13318400 11.70396400 -1.78285100
0.36174800 11.25810300 -1.27095300
0.93563800 12.72576400 -2.59610500
0.95501600 11.70905800 -1.94455700
0.96370100 11.25865200 -1.39048200
2.01592200 12.74606400 -2.38480400
1.77355400 11.71247300 -1.78285100
1.56532600 11.25903800 -1.27095200
2.92435000 12.75894500 -1.78306700
2.46546300 11.71433000 -1.32235300
2.07514900 11.25925200 -0.93056200
3.52862700 12.76573900 -0.88250600
2.92699700 11.71516200 -0.63316900
2.88915100 11.81742200 0.17977800
2.74243300 11.81663900 -0.55641600
4.10357100 14.53580200 0.17977800
3.86455000 14.52671800 -1.02122600
4.58169900 14.63450600 0.17977800
4.30632600 14.62449000 -1.20421400
2.32444200 11.81423200 -1.18053100
3.18343500 14.49943800 -2.03938700
3.52171500 14.59402000 -2.37750500
1.69829900 11.81016200 -1.59755200
2.16219900 14.45490400 -2.71970100
2.34538300 14.54338100 -3.16147300
0.95862500 11.80460200 -1.74398900
0.95320200 14.39717600 -2.95859500
0.95250100 14.47672400 -3.43676700
0.21751100 11.79820400 -1.59755000
-0.26242000 14.33444400 -2.71970100
-0.44880500 14.40361300 -3.16147400
-0.41210700 11.79210300 -1.18053000
-1.29964800 14.27786300 -2.03938700
-1.64547700 14.33743000 -2.37750600
-0.83357400 11.78767200 -0.55641500
-1.99675900 14.23852400 -1.02122600
-2.45043100 14.29140500 -1.20421400
-0.98173000 11.78604700 0.17977800
-2.24240300 14.22444900 0.17977800
-2.73422700 14.27495000 0.17977700
-0.83357300 11.78767200 0.91597200
-1.99675800 14.23852500 1.38078100
-2.45043000 14.29140600 1.56376900
-0.41210700 11.79210300 1.54008600
-1.29964700 14.27786400 2.39894200
-1.64547700 14.33743100 2.73706100
0.21751200 11.79820500 1.95710700
-0.26241900 14.33444700 3.07925700
-0.44880500 14.40361500 3.52103000
0.95862600 11.80460200 2.10354500
0.95320200 14.39717900 3.31815000
0.95250100 14.47672400 3.79632300
1.69830000 11.81016200 1.95710600
2.16219800 14.45490600 3.07925500
2.34538300 14.54338100 3.52102900
2.32444200 11.81423200 1.54008600
3.18343400 14.49944000 2.39894100
3.52171500 14.59402000 2.73706100
2.74243400 11.81663900 0.91597100
3.86455000 14.52671800 1.38078100
4.30632700 14.62449200 1.56376900
6.20888900 8.65043200 -3.42889300
8.69969800 8.09332600 -1.98881000
8.63347400 7.48494800 -3.43063300
6.16072700 7.78545800 -5.33251600
2.32397000 7.72814900 -5.36177300
1.69793800 8.64762000 -3.72720500
3.11851300 8.75646600 -3.03694000
3.37103500 8.87773100 -1.98394900
3.73162600 8.92049200 -1.35945300
3.97405900 9.00985400 -0.12176700
4.50172200 8.99685600 -0.42195200
4.89416100 8.88920600 -1.77050300
6.32588200 8.81203000 -2.10831400
7.73183500 8.78206000 -1.74182600
8.15238500 8.80750400 -1.07455300
8.40463100 8.84849100 -0.24881400
8.80766200 8.31955400 0.10398800
8.68753800 6.40794600 -4.00774700
6.21883700 6.50283800 -6.04687300
2.32396600 6.28849200 -6.05024700
8.78472500 4.43384500 -3.92725100
6.32669000 4.15625100 -5.68867000
2.32396000 3.97553900 -5.68368700
8.86648000 2.45316600 -3.41557200
6.41393200 1.69263800 -4.77384200
2.32395400 1.41960100 -4.77437300
8.95358500 1.66939100 -2.50697900
6.49486000 0.85576500 -3.29239700
2.32395200 0.40430900 -3.29906600
9.01271000 1.45256900 -1.50021700
6.53924800 0.63592200 -1.70723500
2.32395100 0.18065600 -1.71349000
9.08269800 1.55940900 -0.55934200
9.15929400 1.56827200 0.56712100
9.23076800 1.34230000 1.92375700
6.65120400 0.74974000 1.71278500
2.32395200 0.29644700 1.71427700
9.33985100 1.78889400 3.70399200
6.73072900 1.08741800 4.83404500
2.32395300 0.63997800 4.87417700
6.39012600 8.41690300 5.21722900
9.00198800 7.80961300 3.85876800
8.91588200 8.32133100 2.33431600
8.09622200 8.94947300 2.20291100
7.44802400 8.97347600 2.78824600
6.18482600 9.02184000 3.17981600
4.77365700 9.08483000 2.12165300
3.89456400 9.08574800 2.23666300
3.44014400 9.07249500 3.12594200
2.86247800 9.06948900 3.55521600
2.11539200 9.07902100 4.19946100
2.32397200 8.46103400 5.29974000
2.32397000 7.39258000 6.01557200
6.42734500 7.47236600 5.93265000
9.06521200 6.88020100 4.40911200
2.32396400 4.90294100 6.09205900
6.52780300 4.95571000 6.02600300
9.16454200 5.01208700 4.45491000
2.32395600 1.82376100 5.71068800
6.65900900 2.01814700 5.63784700
9.28136600 2.50992900 4.22969200
9.27693700 3.50420000 3.91933100
-0.95504400 7.75072600 -5.07845700
-0.56958200 8.60243000 -3.47953300
-0.16429300 8.16889600 -2.46542800
1.06833400 8.18238800 -2.69388700
2.10395300 8.23398100 -2.39140100
2.96211100 8.30931200 -1.68318000
3.49292100 8.37225800 -0.78582300
-0.95504800 6.38867000 -5.74197200
-0.95505300 4.01756300 -5.38870100
-0.95506000 1.33577700 -4.51235200
-0.95506200 0.23118800 -3.09052800
-0.95506300 0.00753500 -1.60354300
-0.95506200 0.12332700 1.65884900
-0.95506100 0.46685700 4.70419500
0.93106900 9.06793400 3.77780400
0.22621100 9.05243200 3.60291400
-0.77547600 9.01243200 3.91711000
-0.95504200 8.42272300 5.10529800
-0.95504400 7.45347500 5.78614900
-0.95505000 5.04317800 5.85986300
-0.95505800 1.81654600 5.50134900
-3.42581100 6.55965900 -5.14795500
-3.42580800 7.70110500 -4.54183000
-3.42580600 8.34191400 -2.92749000
-1.72854100 8.65179700 -2.65297600
-3.42581600 4.22589100 -4.82524000
-3.42582200 1.57613700 -4.02469100
-3.42582500 0.44368500 -2.76651400
-3.42582600 0.22003200 -1.44881200
-3.42582500 0.33582400 1.53139600
-3.42582400 0.67935400 4.31333200
-1.43280700 8.97079900 2.97078300
-2.00610300 8.95502000 2.06151000
-2.64988000 8.90857200 2.12188500
-2.95097100 8.83469200 3.02374000
-3.69347800 8.66623100 3.44431600
-3.42580500 8.33599700 4.66592000
-3.42580700 7.60991200 5.27406000
-3.42581300 5.25987600 5.34139800
-3.42582100 2.04272300 5.02771500
-5.10548600 7.37154600 -3.83127700
-5.10548500 7.81109900 -2.49019200
-5.19176000 7.99250400 -1.12042200
-4.62755800 8.25136800 -1.11502700
-4.32621900 8.36972200 -1.10313200
-3.60848500 8.52006100 -1.25637400
-2.92718200 8.71752700 -0.70858900
-2.60640100 8.82749800 -0.21749100
-2.13580000 8.85072500 -0.33873100
-1.75894400 8.76790300 -1.63263700
-4.24630100 8.05600500 -0.64706300
-3.73837000 8.16990100 -0.48533100
-3.16450800 8.33679400 0.00108500
-5.10548900 6.49551000 -4.35760400
-5.10549300 4.41228900 -4.07280600
-5.10549900 1.99379000 -3.37489800
-5.10550100 0.90620200 -2.34813000
-5.10550200 0.68254900 -1.26024700
-5.10550200 0.79834000 1.31385400
-5.10550000 1.14187000 3.76893500
-4.97343100 8.25347400 3.10315200
-5.10548300 7.97292100 4.11845800
-5.10548400 7.44809200 4.74946200
-5.10549000 5.26822300 4.80888800
-5.10549700 2.34647800 4.49370000
-6.29467500 7.01105800 -3.07398000
-6.24803700 7.36446900 -2.02184600
-6.06624400 7.66958200 -0.53697200
-5.69844500 7.81129900 -0.55448500
-5.08911800 7.68810400 -0.42484400
-4.65547700 7.89286600 -0.62464000
-6.37247500 6.35354900 -3.51635300
-6.42915700 4.53007200 -3.27238200
-6.41897700 2.42945400 -2.68302400
-6.38512300 1.54190800 -1.90014900
-6.35650000 1.32499800 -1.05641900
