-9.17516994 16.99769974 -27.29742050
-8.42010021 17.44334984 -27.61968040
22.15563011 -10.49847031 -20.54751015
22.57530022 -8.35554028 -20.04818916
21.68198967 -8.15970039 -21.10032082
21.95915985 -7.62938976 -20.81925011
-23.10042000 -0.84411001 17.43255043
-23.32679939 0.48453000 17.15003967
-22.48533058 -0.15219000 18.22961998
-23.46585083 -0.43338001 16.91628075
30.78750038 6.67146015 -0.89336997
30.94220924 5.70483017 -1.68608999
30.75470924 5.78316021 -1.11096001
30.90711021 6.52113008 0.43950000
0.51744002 -13.57985973 -30.28010941
1.58141994 -13.69727993 -30.27125931
-1.57527006 -15.27632999 -30.17153931
-0.57353997 -14.67755985 -30.24546051
-5.73518991 3.31908011 29.77461052
-6.56699991 3.12399006 29.32073975
-5.01332998 3.06867003 29.60214043
-5.94305992 2.31722999 29.37977982
-18.73031998 -15.87438011 -7.39916992
-18.77754021 -15.89507961 -8.24771976
-18.19499969 -15.86880016 -7.19178009
-17.09075928 -15.89910030 -8.82056999
-16.75499916 -15.91709995 -8.40812969
-17.44890022 -16.06175995 -8.23095036
29.40567017 -5.26853991 -5.60574007
29.61096001 -3.63194990 -4.65080976
29.04311943 -1.15727997 -7.81854010
29.37186050 -0.79746002 -6.28386021
23.14184952 22.92170906 -20.85491943
23.73572922 22.74362946 -20.11005020
21.99426079 21.98060989 -22.47356987
22.06389046 22.59734917 -22.17104912
22.36947060 22.24596024 -22.09992027
-22.71837044 1.29668999 19.17465019
-21.77294922 2.50400996 20.36198997
-22.55978966 2.75778008 19.38566971
-22.13690948 3.25448990 20.05595970
-31.05209923 -11.60352039 6.47067022
-30.98390961 -12.28649998 6.82695007
-30.69222069 -11.92041016 7.07310009
-30.85235977 -13.20576000 7.20500994
12.93933010 2.94171000 -27.20223045
13.10550022 4.55595016 -27.16643906
12.29609966 -3.02091002 -27.30032921
11.56017017 1.81155002 -27.74168968
11.20016956 -1.40348995 -27.79515076
-23.65361977 4.50111008 -15.92385006
-23.23118973 5.24556017 -16.49184036
-24.79050064 11.85330009 -14.17115974
-23.85222054 16.02887917 -15.38603973
-23.00243950 16.32155991 -16.62693024
-32.07360077 -12.85569000 5.53728008
-31.82522964 -12.36258030 6.00476980
-32.07632828 -12.33411026 5.38958979
-31.27758026 -12.06497955 4.02147007
10.90682983 -16.43594933 -22.65138054
10.41117001 -16.42289925 -22.91196060
10.33248043 -16.31064034 -23.73789024
9.54986954 -16.46553040 -19.99181938
9.06735039 -16.44507027 -20.32505989
10.19246960 -16.50494957 -20.09837914
31.74414062 10.77128983 3.90906000
31.50317955 10.57674026 4.37544012
32.40684128 10.26996040 4.11227989
30.26033974 12.02873993 5.85996008
31.02951050 11.88794994 4.94621992
30.82854080 12.34158039 5.13204002
-23.54265022 -9.89175034 -17.88233948
-23.41172981 -9.39449978 -17.74407005
-22.88586044 -9.88838959 -18.68898010
-20.58881950 -9.59961033 -21.07368088
-20.93115044 -9.92687988 -20.94918060
-21.49644089 -9.49343967 -20.10777092
14.17269039 -23.50808907 -27.68091011
14.30871010 -23.03664017 -27.27392960
14.39628029 -23.34048080 -27.21809959
13.74899960 -23.90349007 -26.02577972
14.22498035 -23.87990952 -26.30928040
14.53125000 -23.83433914 -25.91019058
30.39686966 11.47251034 5.64242983
30.55179024 11.26622963 5.18990993
31.27910995 11.85284996 4.53779984
30.38640022 11.10935974 5.45802021
30.59951973 11.01762009 4.77233982
15.95018959 -14.69666958 25.87319946
15.56105995 -15.01523972 25.67724037
16.39661980 -14.73713970 26.18960953
14.44095039 -14.98338032 26.13611984
13.06095028 -14.65139961 26.84120941
14.55035973 -15.68618965 26.01855087
13.89968967 -23.61071968 -27.72126007
13.41158962 -23.70446968 -27.66227913
13.34724045 -23.31818962 -27.87368965
13.27752018 -23.92485046 -27.43322945
12.46922970 -23.98203087 -27.08765984
12.61209011 -23.84580040 -27.57230949
31.14969063 12.34259987 3.93620992
30.96099091 12.90837002 4.34648991
31.24356079 12.17969990 4.56239986
30.83436012 11.25636005 4.50770998
-26.74341011 1.02719998 11.95413017
-27.71147919 1.41972005 9.73880959
-27.48947906 1.04838002 10.02416992
-27.21320915 1.41153002 11.16230965
9.34706974 -15.46380043 -30.39530945
9.04446030 -14.64564037 -30.53351974
9.54071999 -14.18922043 -30.96894073
8.39834976 -15.94013977 -29.95388985
8.29314041 -15.46185017 -30.01131058
8.98556995 -15.91884041 -30.09708023
31.06439972 12.71751022 4.00313997
31.32221985 12.61995029 3.63189006
31.02486038 13.46549988 4.19490004
28.52835083 -14.06040001 -10.07306957
28.26050949 -12.44357967 -10.53590965
28.73135948 -12.84179974 -9.21617985
29.52371979 -13.27394962 -6.07019997
29.34345055 -13.63136959 -6.95613003
-28.42679977 12.33137989 -7.90544987
-28.37499046 13.75965023 -7.84344006
-28.75407028 12.70781994 -7.06320000
-28.99599075 11.62254047 -6.36522007
-28.89627075 12.34335041 -6.45027018
26.99324989 13.00751972 11.88000011
27.45929909 12.64832973 10.97099972
27.56442070 13.79852962 10.70207977
28.90205956 14.00454044 7.94247007
29.35763931 13.81517982 7.49741983
6.76266003 18.96603012 -30.21557999
7.01852989 20.39753914 -30.18803978
9.50405979 18.66692924 -29.61870003
-28.71608925 13.81914043 -6.87497997
-28.63118935 13.85733032 -7.35504007
-28.99346924 14.13068962 -6.19796991
-28.97628021 14.56379986 -6.10988998
-28.83572960 14.58917999 -6.76394987
-18.38475037 -10.79022026 -22.49691010
-18.66848946 -11.09486961 -22.32188988
-18.07196999 -11.94600010 -22.80695915
-19.58024979 -9.76875019 -21.41802025
-19.65084076 -10.30142975 -21.41142082
-19.10891914 -10.10499001 -21.83727074
-29.31384087 14.05020046 -5.46003008
-29.67140961 14.00856018 -4.82658005
-29.41539001 14.33181000 -5.05820990
-29.83058929 14.26677036 -3.54239988
-29.90937042 14.17992020 -4.06385994
-7.45101023 -13.36623001 27.87639046
-8.18616009 -14.74400997 27.57279015
-4.70597982 -15.11460018 28.38681030
-4.73648977 -14.78934002 28.47986984
-3.91553998 -15.16625977 28.55978966
-5.35280991 4.90937996 -29.54063988
-6.57732010 5.19741011 -29.21315956
-5.57691002 6.30572987 -29.47302055
-5.09708977 4.55927992 -29.90394020
-6.10089016 4.81464005 -29.45153999
-4.17768002 4.72958994 -29.88872910
-28.64411926 14.95409966 -6.55416012
-28.21005058 15.51669025 -7.71009016
-28.46471977 15.01049995 -7.54608011
27.68870926 13.81661987 -12.73073959
28.10613060 15.50592041 -11.70777035
28.03010941 12.88230038 -11.85455990
28.31640053 17.01489067 -11.43591022
-26.67536926 7.98413992 10.28979015
-26.73308945 8.49693012 9.79808998
-26.64587975 8.81867981 10.38558006
-26.19465065 6.96822023 11.32374001
-26.26398087 7.70708990 11.28678036
-26.10654068 7.81238985 11.69258976
27.75864029 22.52532005 -10.54043961
27.85997963 22.28424072 -10.07441998
27.96207047 22.72271919 -10.31805038
28.48661995 22.77626991 -8.54883003
28.85754013 22.83171082 -8.66709042
12.87047958 -15.32448006 -28.35498047
12.98526001 -14.90060997 -29.21381950
13.32291031 -14.85762024 -27.75303078
13.34012985 -14.35529995 -28.00185013
13.67249966 -14.52680969 -27.91311073
-26.55327034 12.43871975 10.60214996
-27.30773926 10.74005985 7.52751017
-27.44355011 11.21570969 7.55592012
-27.30563927 11.18033981 8.16543007
24.99438095 18.10346985 -16.93164062
25.96920013 18.28635025 -15.26922035
25.40109062 19.63986015 -16.28325081
8.52567005 10.93509007 28.44552040
9.76307964 13.65345001 28.02750015
8.76101971 14.32985973 28.38068962
9.28524017 17.88849068 28.58576965
7.42812014 17.67248917 28.95719910
9.21158981 17.62428093 28.36119080
20.77709961 -10.49660969 20.90501976
20.17794037 -8.25737953 21.43322945
22.79435921 19.68404961 -20.02796936
22.38863945 18.52539062 -20.41391945
22.90226936 18.31917000 -19.87965012
23.84040070 17.48874092 -18.53634071
24.52173042 17.24061012 -17.59712982
24.14031029 18.37553978 -18.24221992
-10.83749962 0.60183001 27.65253067
-14.94171047 0.75164998 25.71287918
-14.13689995 0.74268001 26.10963058
-14.09123993 1.09641004 26.36691093
20.47590065 -24.27873039 24.29310036
20.93910027 -24.41984940 22.19112015
21.34938049 -24.41996956 22.75103951
23.62484932 16.45685959 -18.86537933
23.99531937 15.97455025 -18.42840004
24.49535942 15.76305008 -17.70363045
22.56410980 11.91621017 -20.19857979
22.93244934 11.01482964 -19.73900986
23.30904007 12.16806030 -19.30880928
-12.71238041 -16.09221077 18.68708992
-12.41547012 -16.15181923 18.21431923
-11.55926991 -16.14155960 19.02633095
-10.67514038 -16.04060936 22.87742996
-9.96434975 -16.14594078 22.07678986
-9.32802010 -16.10106087 22.80690002
20.81756973 -22.35009003 25.57052994
21.04019928 -22.45248032 25.12248039
20.23851013 -23.84004021 25.19405937
20.25548935 -24.32637024 24.33869934
20.58666039 -23.60028076 25.00938034
-27.76251030 -17.23170090 9.45705032
-27.59646034 -17.78330994 9.13461018
-27.55826950 -17.34605980 9.18609047
-27.86153984 -17.75946045 8.52789021
-27.73566055 -17.49737930 8.20028973
-27.55446053 -17.43581963 8.67866993
1.14291000 -16.25550079 24.46239090
-8.97710991 -16.14141083 21.74481010
-8.64221954 -16.15158081 20.75396919
-7.75760984 -16.10688019 21.96762085
-7.76471996 -15.50531960 -28.86179924
-7.12752008 -15.53211021 -28.97409058
-12.77960968 -15.09753036 -27.20174980
-25.42277908 -5.29194021 14.69246960
-25.19396973 -2.90100002 15.14418030
-26.70101929 -1.07043004 12.03353977
-26.21891975 -0.86519998 13.07798958
-26.06024933 0.70731002 13.35620975
0.31718999 -16.24320030 24.21113968
0.65433002 -16.29125977 23.43954086
-1.49064004 -16.34627914 17.60618973
-3.25763988 -16.30521011 17.65224075
-2.86052990 -16.32827950 16.31741905
-22.51950073 -11.88879013 -18.30941963
-23.55509949 -13.89626980 -16.88846970
-23.56229973 -14.42339993 -16.51403999
-23.34683990 -14.07219028 -17.17284012
12.40956020 -17.83863068 -29.63319016
12.17568016 -17.40296936 -29.74221039
12.82833004 -17.52776909 -29.07188988
13.38803959 -18.19248009 -28.01099968
12.88224030 -18.17864990 -29.10375023
13.06964970 -17.62031937 -28.69020081
-27.24497986 4.79922009 -11.37180042
-26.81907082 4.69770002 -12.40767002
-27.61256981 3.73143005 -9.63681030
-28.03038025 4.25333977 -9.20168972
-27.73679924 4.36038017 -10.17311954
24.29129982 -16.58996964 -12.30272961
24.97073936 -16.59324074 -9.15192032
25.79141998 -16.56114006 -9.74184036
26.53487968 -16.55810928 -8.84718037
30.46239090 16.96989059 -1.00823998
30.40563011 16.93857002 -0.50805002
30.71516991 16.63725090 -0.72825003
-28.62804031 2.89206004 -8.73816013
-28.97826004 3.27480006 -8.98851013
14.44851017 -19.83758926 -28.01781082
14.94042015 -19.51211929 -27.80121040
-27.30297089 23.85939026 -2.26835990
-27.36977959 23.62742996 1.26003003
-27.36861038 23.67027092 0.30590999
-27.40422058 23.81640053 1.14150000
28.91861916 -5.94335985 4.22387981
28.97954941 -4.29039001 4.06067991
29.07069016 -5.55270004 3.16563010
29.41080093 -0.82292998 -0.71349001
29.39543915 0.23982000 0.51533997
29.46582031 2.49474001 -1.05692995
-20.41971016 -11.93616009 21.79437065
-20.32946968 -12.77717972 21.91190910
-20.48088074 -10.33862972 21.51678085
-26.75097084 23.74788094 6.86181021
-27.26195908 23.69636917 3.13629007
-27.37656021 23.88719940 2.21214008
-27.29813957 23.96208000 3.68454003
29.39553070 6.42003012 1.03517997
29.28177071 7.94054985 2.17353010
29.40402031 8.21177959 0.51651001
29.15897942 5.16483021 3.49958992
28.92543030 4.92921019 5.02064991
29.08827019 6.48518991 4.08963013
-31.15439987 -1.82946002 -3.14354992
-31.12722015 -1.99791002 -2.58476996
-31.25889015 -1.49705994 -2.66567993
-31.30824089 -1.50747001 -1.64760005
-29.17679977 -3.56012988 0.29877001
-29.12228966 -0.96384001 0.52736998
-28.91531944 0.43548000 3.00741005
-28.95288086 -0.33597001 3.20823002
-28.81545067 0.43329000 4.00317001
30.54174042 4.68294001 7.21766996
30.25107002 4.60241985 7.22945976
30.41144943 5.43225002 6.82104015
31.10705948 5.35706997 7.28373003
-24.90063095 21.78359985 -12.14612961
-24.45387077 21.68045998 -13.10046005
-25.05632973 12.69141006 -12.70899010
-25.35156059 12.18257999 -12.08024979
-25.06401062 11.78853035 -12.74333954
14.93931007 -7.30463982 -26.24057961
15.89778042 -6.53189993 -25.75190926
15.99897003 -7.52978992 -25.60530090
17.71970940 -5.49660015 -24.62412071
16.62828064 -4.82786989 -25.37006950
17.40693092 -4.04345989 -24.90410995
-6.34419012 23.87108994 -29.10576057
-7.38746977 23.80200005 -28.78647041
-5.12538004 23.84057999 -29.01449966
30.35703087 5.93804979 -3.23016000
29.88363075 6.04884005 -5.84054995
29.60453987 6.57851982 -6.41610003
30.01338005 6.32150984 -4.97630978
-18.49710083 1.10750997 23.45495987
-18.00968933 0.81852001 23.57970047
-17.63088036 1.08557999 24.11271095
-15.97554016 1.11336005 25.30842018
-15.67026043 0.64848000 25.22649002
-15.52515030 1.11966002 25.53866959
-7.53309011 23.38109970 -27.39200974
-7.69248009 22.23438072 -27.69170952
-7.02054024 22.63265991 -27.79277992
-10.80218983 24.05822945 -26.94389915
-11.27898026 24.00305939 -26.04509926
-10.56239986 24.02186966 -26.70476913
18.99119949 -18.22406960 19.89888000
18.90555000 -17.73575974 19.84749031
19.60674095 -18.19881058 19.73130035
19.02569962 -19.20309067 19.81448936
19.59395981 -18.78710938 19.71863937
-14.95149040 3.49643993 -24.60533905
-13.98126030 3.77591991 -25.18020058
-14.26716042 4.79112005 -24.96533966
-16.05384064 -1.74210000 -24.08250046
-16.21536064 -1.81716001 -23.90534973
-15.66629982 -2.01762009 -24.29532051
33.54986954 8.60258961 2.92589998
33.60842896 7.45745993 2.98115993
33.15932846 7.59024000 4.33230019
33.44292068 7.06566000 3.74157000
33.29991150 7.92603016 3.82134008
-22.67045975 4.37096977 -19.14009094
-20.18540955 4.48868990 -21.75822067
-20.28936005 5.14697981 -21.47123909
-19.72913933 5.05383015 -21.97913933
-27.51272964 -22.80960083 8.03300953
-27.35918999 -23.44496918 7.37652016
-27.08654976 -22.85849953 7.50999022
-26.77425003 -23.12207985 6.25893021
-26.40357018 -22.46678925 5.62653017
19.33382988 -14.69598007 25.36994934
19.59720039 -14.82419968 25.17251968
19.83485985 -14.65526962 25.56098938
19.72866058 -15.67206001 25.14749908
19.67174911 -16.02774048 25.42235947
19.97298050 -16.16918945 25.26716995
22.94396973 -10.40303993 18.40118980
23.47314072 -10.92984009 18.02424049
23.41467094 -10.43309975 17.89644051
25.05084038 -10.32668972 15.49248028
-24.93047905 0.93843001 15.60587978
-25.09532928 1.19168997 15.57252026
-25.93223953 0.92733002 13.68554974
16.94643021 -17.60766029 21.71114922
17.55237007 -17.29286957 20.81492996
18.00996017 -16.78602028 20.37752914
17.74122047 -16.58993912 20.68530083
17.85909081 -16.45491028 20.18328094
-29.87055016 12.00273037 -4.65257978
-29.55467987 11.57009983 -5.11833000
-29.93976021 10.44165039 -5.06129980
-29.62347031 10.57911015 -5.21424007
-29.12594986 10.26000023 -5.16327000
16.17668915 -1.12496996 24.23031044
16.83107948 -0.62742001 23.76234055
17.10576057 -1.29341996 23.56901932
18.28751945 -4.79055023 22.60043907
18.80267906 -1.91313004 22.21503067
19.50338936 -4.10099983 21.54561043
29.60247040 -0.91512001 6.09705019
30.01190948 -1.19828999 6.49667978
30.86705971 -1.34276998 6.20718002
31.22400093 -1.59141004 5.31813002
31.10417938 -1.14987004 6.08834982
-22.43811035 23.53800011 -15.42558002
-23.45157051 24.40953064 -14.70108032
-23.75621986 24.12788963 -13.45718956
-23.24238014 24.18479919 -14.31587982
27.49436951 -15.70575047 9.05169010
27.04656029 -15.78032970 9.95199013
26.99711990 -15.59523010 10.48361969
27.49334908 -15.91364956 7.42940998
27.64155006 -15.84290981 7.92537022
27.91329002 -15.93282032 6.62483978
-24.36212921 1.15458000 16.75761032
-23.09094048 1.21095002 18.67419052
-20.72727013 1.17281997 21.40998077
-21.10103989 0.81414002 20.76276016
-19.89048004 0.87453002 21.99485970
-27.88116074 8.67360020 -3.85452008
-27.80192947 9.44694042 -3.81852007
-27.86886024 9.59391022 -3.34026003
-27.51000023 8.31822014 -6.14685011
-27.39986992 7.53486013 -6.18408012
-27.30216026 7.97721004 -6.47354984
28.37334061 -15.87275982 5.49350977
28.07906914 -15.64379978 7.30518007
28.42268944 -15.63377953 5.90430021
28.80021095 -15.82322979 3.81048012
28.83666039 -15.59480953 4.05456018
28.92411041 -15.28137016 3.81411004
-18.34506035 21.23043060 -21.27158928
-18.65850067 20.04113960 -21.00923920
-17.79420090 19.49189949 -21.86204910
-19.78916931 20.60847092 -19.82817078
-19.65858078 19.38426018 -20.00634003
-19.01318932 19.74291039 -20.71404076
-27.86934090 9.88286972 -3.78050995
-27.90357018 10.48548031 -3.73112988
-27.86528969 9.95748043 -4.19700003
-27.83135986 11.00238037 -4.08816004
-27.95955086 -19.40477943 0.47793001
-28.15427971 -18.49851036 0.57795000
-27.34742928 -19.69383049 0.98970002
-27.94235992 -21.25662041 0.85926002
-27.62718010 -20.79438019 0.82392001
-27.21528053 -20.72499084 1.05873001
21.85256958 -14.10081005 25.73777962
22.20212936 -14.10921001 25.04121017
21.91488075 -13.52748013 25.43009949
21.74444962 -14.68772984 24.78807068
21.35099983 -14.87576962 24.33336067
21.94650078 -14.63315964 24.57836914
-28.27149010 6.67976999 2.02379990
-28.09896088 7.31093979 1.86233997
-28.12118912 7.17633009 2.38137007
-27.95832062 9.32888985 3.83076000
-28.12619972 9.44598007 3.46535993
-27.96278954 9.76181984 3.78842998
-28.49925041 -22.56804085 1.11210001
-28.27629089 -22.23339081 0.80883002
-28.14023972 -22.23716927 1.11414003
-28.14476967 -21.68894958 0.60960001
-28.20719910 -21.34560013 0.57950997
-31.57740021 -18.36083984 0.46833000
-31.69506073 -18.33569908 0.71046001
-31.22352028 -17.19486046 1.07510996
7.17009020 -10.21842003 -29.18670082
7.47395992 -11.03544044 -29.67248917
7.48520994 -10.66184998 -29.49747086
7.69121981 -11.22107983 -30.03944969
-14.87045956 16.91109085 25.24023056
-14.67663002 18.01041031 25.39226913
-14.03643036 17.17476082 25.76330948
-11.19431973 16.64324951 27.06620979
-11.12183952 17.39841080 27.17943001
-10.44293976 16.78638077 27.41552925
-24.59099960 5.18751001 16.52178001
-24.31707001 4.89303017 17.04183006
-23.92671013 4.53614998 18.12392998
-23.78082085 4.89524984 17.86676979
-29.15909958 -10.23114014 5.51619005
-28.85231972 -9.87057018 5.40653992
-29.05484962 -9.79671001 3.45800996
-28.98648071 -9.59270954 4.08435011
-29.09330940 -9.20555973 3.07139993
-13.93733978 18.99350929 25.86510086
-13.13523006 17.33732986 26.21801949
-12.87407970 21.40776062 26.29602051
-13.47387028 22.08069038 25.78239059
-12.27336025 22.06224060 26.38746071
3.94506001 22.65032959 -29.42781067
4.59578991 21.82934952 -29.56464005
5.55489016 22.66700935 -29.29680061
4.72775984 22.81167030 -29.38397980
-7.71404982 -1.78749001 28.03352928
-7.47356987 3.23811007 28.17569923
-8.91771030 16.06347084 27.96179962
-9.00533962 16.68746948 27.90575981
-8.24048996 15.88055992 28.14065933
12.22202969 -12.19575024 -26.82638931
13.04393959 -12.89628029 -26.39192963
13.66874981 -11.94410992 -26.15999985
11.48418045 -13.14993000 -27.05640030
11.36606979 -15.26093960 -26.96282959
11.84951973 -14.07075024 -26.84948921
-7.26884985 17.09616089 28.46574020
-7.01769018 19.15823936 28.57563019
-5.58599997 17.97159004 28.85585976
-8.67731953 18.31929016 28.07420921
-7.85088015 16.76247025 28.28297997
33.08454132 7.17207003 4.32630014
33.03855133 6.70667982 4.11657000
33.31055832 6.89489985 3.90981007
-7.70711994 -16.17293930 -7.65794992
-7.83095980 -16.12277985 -8.76356983
-7.19007015 -16.15644073 -8.77791023
-7.62482977 -16.16213989 -9.61907959
-6.90219021 -16.15103912 -9.97980022
-6.46572018 -16.16403008 -8.81165981
-27.32309914 18.71306992 10.32740974
-26.83481979 18.63755989 11.75333977
-26.87541008 20.99078941 11.53563023
-27.58877945 18.44325066 9.16676998
-29.96714973 0.21219000 -5.97179985
-29.58105087 -0.02748000 -5.55249023
-30.40962029 0.32249999 -6.43275023
-30.21669006 0.15290999 -6.00255013
-30.17436028 0.65369999 -6.59601021
-6.40472984 21.73323059 -29.20458031
-7.39338017 22.34313011 -28.91111946
-7.56648016 23.42831993 -28.94034004
-8.85027027 21.92849922 -28.34370041
-9.89774990 22.24950027 -27.90329933
-9.55578041 22.96272087 -28.10910034
-24.34971046 4.26303005 15.44762993
-24.07191086 5.13774014 15.69672012
-23.93948936 4.78272009 15.95079041
-22.59071922 7.04555988 17.68782043
-23.08110046 7.31864977 17.12225914
-22.76634026 7.55589008 17.85507011
-28.60640907 1.44348001 -5.06762981
-28.57259941 1.77578998 -6.06806993
-28.36055946 1.50834000 -6.27617979
-28.87982941 1.75979996 -6.86222982
-29.00937080 1.42421997 -6.79959011
-28.49588966 1.28729999 -6.83829021
-26.97990036 1.42173004 -10.72527027
-27.36278915 1.52456999 -9.77696991
-25.72479057 1.31349003 -13.39433956
-29.83584023 5.72399998 0.40230000
-29.84604073 6.05733013 0.08985000
-29.46767998 5.08080006 0.53052002
-29.63256073 4.76741982 0.07878000
-28.56468010 17.27835083 -3.77061009
-28.74534035 17.45867920 -3.11687994
-29.03582954 16.98329926 -2.76324010
-28.76844025 17.05010986 -2.26820993
30.45023918 22.11930084 -4.34244013
30.27734947 20.80656052 -5.51445007
30.30228043 21.74651909 -5.46282005
30.30632973 19.92102051 -5.17022991
24.54221916 22.81068039 -17.47875023
24.87812996 22.67526054 -16.78817940
25.40607071 22.78187943 -16.26458931
24.47064018 22.89789009 -18.12911987
25.54706955 22.83336067 -16.34462929
25.99733925 22.84902000 -16.42881012
-12.64352989 18.66824913 -26.47257042
-12.77412033 18.50732994 -26.33864975
-28.38665962 10.36038017 -7.15218019
-28.69560051 10.80278969 -7.26635981
-28.21578026 10.60709953 -7.61396980
-27.73113060 9.84045029 -8.27223015
-28.11132050 9.79491043 -7.36958981
-27.77528954 10.29969025 -8.04864025
7.17627001 6.73506021 28.97150993
8.29259968 6.60966015 28.73081970
8.00294971 6.92742014 28.53977966
11.12277031 -23.40534019 -29.90180969
12.08675957 -22.71861076 -30.05657959
11.81243992 -23.28377914 -29.76914978
-28.43745041 1.43069994 6.95921993
-28.21128082 1.10942996 7.24001980
25.89263916 14.04074955 13.42385960
26.91218948 15.10754967 11.30922031
26.32920074 16.12892914 12.60540009
27.52478981 16.88862038 9.97235966
19.13598061 -2.75790000 22.57925987
18.62013054 -0.90140998 22.96623039
16.54595947 -3.24587989 24.56940079
17.28894043 -2.96280003 24.01752090
16.68201065 -2.70876002 24.43263054
-28.88820076 -1.34130001 3.97563004
-28.72118950 -1.65864003 5.15490007
-28.80096054 -0.62076002 4.51952982
-28.53380966 1.11141002 5.62277985
-28.38669014 -2.08034992 6.82682991
-28.08558083 0.83427000 7.67346001
-3.68298006 0.86031002 -29.68586922
-5.05143023 0.79284000 -29.39447975
-4.81061983 1.18754995 -29.60252953
-3.92834997 -1.14546001 -29.64723015
-5.15936995 -3.08687997 -29.39208031
6.46851015 18.14361000 28.71002960
5.96027994 19.14011955 28.83192062
7.48539019 19.10700035 28.44257927
7.43291998 18.42860985 28.39899063
7.92368984 18.27680969 28.30467033
8.00061035 -22.88055038 -30.57107925
7.60752010 -22.44566917 -30.73644066
8.55440998 -22.86963081 -31.05006027
7.40634012 -23.79710960 -30.52947044
-4.42314005 -0.48686999 29.36622047
-4.50263977 -1.81077003 29.37210083
-4.12548018 0.68202001 29.48558998
-2.89176011 0.56648999 29.58669090
30.77924919 -0.19482000 5.21886015
8.73849010 -23.86544991 -30.14373016
8.76867008 -23.67956924 -30.35700035
9.13160992 -23.43737984 -30.89871025
10.49444962 -23.85515976 -29.80080032
10.26774025 -23.85927010 -30.22554016
10.76385021 -23.49621010 -30.36059952
2.88602996 0.53030998 29.54060936
-17.34555054 -14.51441956 -23.27592087
-16.98084068 -14.58279037 -23.43135071
-17.09309959 -14.26589966 -23.60955048
-18.58056068 -14.70905972 -21.78462029
-18.73118973 -14.92782021 -20.83818054
-18.30504036 -14.86250973 -21.46376991
8.25189018 -21.78786087 -31.26557922
7.80536985 -21.21993065 -31.08242989
8.63844013 -21.39941978 -31.33016968
9.44979000 -23.07074928 -31.21545029
-27.60333061 17.81267929 5.36162996
-27.81615067 17.56908035 3.70373988
-27.77870941 18.35754013 4.16807985
-27.89114952 18.40691948 3.50786996
-27.96006012 19.21583939 2.43671989
-27.81888008 18.87294006 3.82370996
3.45725989 5.35569000 -30.32972908
4.37898016 5.61680984 -30.23933983
5.24534988 5.24100018 -30.15650940
3.65643001 4.29827976 -30.55170059
2.57538009 4.61780977 -30.40766907
3.66863990 4.59260988 -30.35936928
9.29078960 -22.51016998 -31.45527077
9.58646965 -21.89222908 -31.49855995
10.00514984 -22.34285927 -31.38866997
10.69931984 -22.12050056 -31.01276970
10.58666992 -21.50214005 -30.82613945
17.67404938 16.35909081 -24.65699959
18.31982994 15.84492016 -24.16053009
18.23522949 16.59959984 -24.23480988
20.85734940 19.40085030 -22.05474091
20.67668915 18.30764961 -22.24953079
21.45566940 19.22744942 -21.49061966
30.53622055 -0.26181000 7.09356022
30.71595001 -0.55632001 7.11285019
30.74354935 -0.03531000 7.00074005
29.85812950 -0.56471997 7.18451977
30.25820923 -1.12574995 6.72156000
30.31880951 -0.74954998 7.17188978
-31.41147041 -13.54461002 4.92570019
-31.54394913 -13.45893002 4.19958019
-31.12295914 -13.67877007 4.00595999
-31.39130974 -14.88959980 4.07103014
-31.11411095 -14.11730957 4.17686987
17.77596092 15.69954014 -24.60824966
18.04196930 15.33335972 -24.47747993
17.73296928 10.56527996 -24.55385971
-28.60530090 10.22651958 4.76636982
-28.55883026 12.62915993 4.91732979
-28.88369942 11.36837959 3.57440996
-28.68227959 13.84547997 4.28783989
-28.33167076 14.50772953 5.59427977
-28.37100029 16.57785034 5.00712013
-26.66076088 -14.84891987 -7.58160019
-25.78631973 -14.92049980 -6.71106005
-24.64722061 -14.98799992 -7.50645018
-27.12747002 -14.88770962 -4.70241022
-26.91279030 -14.71710014 -3.85692000
-26.67048073 -14.87969971 -4.42839003
30.30648041 2.37551999 8.76620960
30.36125946 3.23909998 8.84480953
29.49681091 3.41349006 8.74227047
30.07403946 3.25172997 8.87687969
25.29188919 0.67883998 15.69266987
24.19803047 1.93728006 17.38092041
-26.41875076 -14.96189976 -5.01105022
-25.06179047 -15.04391956 -4.32624006
-25.82442093 -14.94381046 -5.58143997
-22.21692085 -15.19005013 -0.27948001
-23.38970947 -15.13094997 -0.91115999
0.97437000 2.19564009 -29.68568993
1.07658005 1.58181000 -29.68470001
1.49784005 2.00967002 -29.72076035
2.25183010 10.88420963 -29.68926048
1.78770006 9.76461029 -29.69631004
2.30645990 9.63269997 -29.67749977
-30.38570976 -23.55792046 3.76812005
-31.62450027 -23.41547966 5.69096994
-32.14136887 -23.14793968 5.16621017
-31.52256012 -23.34173965 5.26104021
22.95080948 -21.70026016 21.28706932
22.63401031 -21.52430916 21.80423927
23.13950920 -22.07205009 21.85098076
22.63283920 -21.01122093 22.19841003
22.34264946 -20.53512001 21.32420921
-29.00472069 1.35011995 -1.13708997
-29.17490959 1.79141998 -1.30146003
-28.95354080 1.32594001 -2.05925989
-29.02010918 1.81377006 -3.50837994
-28.75827026 1.85352004 -5.36468983
-22.51601982 24.15836906 -15.43988991
-22.68054008 23.81888962 -15.02729988
-22.21734047 23.76354027 -15.81159019
-19.34799004 23.86916924 -19.25489998
-19.34481049 23.10453033 -19.50491905
-18.84017944 23.56413078 -19.88838005
18.30719948 3.82971001 24.02580070
18.18987083 3.30237007 24.11367035
19.32473946 3.35067010 23.22471046
13.90007973 3.53730011 26.90154076
15.24987030 3.45015001 26.14274979
14.39474964 3.84824991 26.62562943
-21.24869919 13.64463043 20.62538910
-20.98802948 12.07586956 20.92004967
-20.63385010 13.34309959 21.28650093
-22.58217049 14.54769039 18.96627045
-21.86747932 12.76259995 19.95134926
-21.77832031 14.19227982 19.99617004
29.72364044 -1.74765003 3.56961012
29.80901909 -1.77696002 4.86080980
29.83106995 -2.04222012 3.85565996
29.91032982 -1.97412002 4.46060991
-8.14523983 -15.63197994 -27.21386909
-7.33359003 -15.60741043 -28.48698044
-6.92076015 -15.72206974 -26.64957047
2.79485989 -15.98898029 -28.16262054
4.07822990 -16.03149033 -27.72153091
3.95949006 -16.06401062 -26.75000954
-28.52507973 -15.30669022 -0.62751001
-29.45166016 -15.71193027 1.05125999
-29.65535927 -15.34385967 0.67206001
-28.76375961 -15.42780018 0.80598003
12.14148045 -21.66525078 -30.31937981
12.12656975 -20.52633095 -30.29466057
12.40874958 -21.07047081 -30.15162086
12.50117970 -22.14396095 -29.99979019
12.74403000 -21.54512978 -29.89398003
-14.53658962 3.64499998 26.71958923
-18.13781929 3.69239998 24.39587975
-31.76667023 1.11173999 1.39530003
-31.67300987 1.37913001 1.80594003
-31.57880974 0.26016000 0.07812000
-31.63248062 1.61513996 0.91097999
-31.50942039 0.95135999 0.38892001
22.50720024 -21.65493011 23.66333961
22.71684074 -22.10828972 23.70420074
22.58396912 -21.84378052 23.12643051
22.36097908 -21.88842010 24.25761032
-5.67227983 7.05431986 29.25732040
-5.94186020 6.81894016 29.41962051
-4.85850000 12.57816029 29.44605064
-3.98793006 10.70678997 29.54126930
-31.67189980 0.20715000 0.62322003
-31.49304008 -0.68655002 -0.23727000
-31.60638046 -0.00135000 0.16671000
-31.42353058 -1.01813996 -1.10345995
22.57023048 -21.68514061 22.54034996
22.55985069 -21.23171997 22.69206047
22.21166992 -20.96711922 23.34744072
22.32386971 -21.23354912 23.62434006
22.47381020 -21.31547928 23.33901024
-1.24941003 23.24706078 -30.36974907
-1.61180997 23.54759979 -30.17462921
-0.95295000 23.52531052 -30.18540001
-1.56782997 23.72253036 -29.59527016
-1.19988000 23.66172028 -29.43623924
-0.59328002 23.63402939 -29.70084000
19.07366943 -7.01595020 -22.87494087
20.28318024 -6.54639006 -21.86660957
16.68309021 -3.54239988 -24.81212997
17.18898010 -5.36015987 -24.36236954
18.00374985 -4.00403976 -23.85333061
-24.26030922 -14.66411972 -15.26021957
-24.24143982 -14.75907040 -14.80566025
-23.80080032 -14.78934002 -14.90874004
-24.47940063 -14.72241020 -14.53248024
-23.52942085 -14.84957981 -13.93803024
-23.14529991 -14.84160042 -14.75438976
-3.74175000 22.20549011 -28.86063004
-3.89226007 22.68012047 -28.70490074
-1.07975996 23.55242920 -29.33922005
-0.75255001 23.33271027 -29.27096939
-0.59112000 23.54994011 -29.52059937
-0.70251000 15.24728966 29.84880066
-2.01741004 15.23657990 29.79446983
-1.08927000 13.46453953 29.79804039
-0.10461000 17.66637039 29.98490906
-26.66640091 -17.81621933 3.33740997
-26.96553040 -17.77971077 2.79063010
-26.75729942 -17.24205017 3.14705992
-26.66394043 -19.06545067 2.80743003
-18.98078918 0.65745002 22.79702950
-19.58958054 1.07922006 22.44984055
-27.93026924 18.20568085 1.67091000
-27.96344948 18.19749069 0.35231999
-27.97359085 18.94029045 0.85097998
-27.89364052 19.49489975 -0.66930002
-27.90867043 18.92781067 -0.98597997
-27.85770035 20.21678925 -1.39427996
-31.09952927 4.67093992 2.57286000
-30.90912056 3.90081000 2.62232995
-30.63542938 4.47411013 2.52795005
-31.29030037 6.95733023 1.38953996
-31.18037987 6.50228977 1.84422004
-21.10433960 0.63818997 20.70960045
-20.10173988 -2.94659996 21.73967934
-20.09382057 -0.95709002 21.73070908
-18.46068001 -1.47063005 23.19807053
-17.92686081 -2.04365993 23.67180061
-17.61885071 -1.19816995 23.87360954
-10.19256020 -15.82460976 27.57624054
-11.89523983 -15.84060001 26.12405968
-10.12584019 -15.91139984 26.00448036
-18.16922951 -15.70734024 23.20755005
-17.09760094 -15.78456020 23.11685944
-17.14569092 -15.72414017 23.87940025
-29.47901917 6.77544022 1.45802999
-29.84049034 6.12258005 1.72319996
-29.67189026 6.39848995 1.62021005
-30.18519020 6.30492020 1.91538000
-29.84849930 6.79110003 1.50969005
10.81134033 -12.72815990 26.88408089
10.07606983 -11.35538960 27.17172050
11.65941048 -11.21564960 26.53248024
12.27762032 -8.42831993 26.28510094
-20.19984055 -14.85492039 -22.15094948
-20.59518051 -14.12150955 -21.80565071
-19.76759911 -14.18502045 -22.58432961
-18.75758934 -14.95116043 -23.34668922
-18.52227020 -14.93673038 -23.58468056
-28.25531960 -13.84358978 -5.66459990
-28.10054970 -14.19816017 -6.35738993
-28.12394905 -13.45668030 -6.15023994
-27.92346001 -14.54880047 -6.76217985
-28.00839043 -14.52632999 -6.15572977
-27.72006035 -14.75831985 -6.26370001
6.73119020 4.85240984 29.22792053
7.34471989 4.49835014 29.10647964
7.23473978 4.78685999 29.06739044
3.77999997 4.24230003 30.00447083
4.28415012 4.45040989 29.76005936
-29.64983940 12.08720970 -4.77869987
-29.62760925 12.42236996 -5.45666981
-29.26917076 11.94254971 -5.59986019
-29.80151939 12.57285023 -4.97862005
-29.90814018 13.11320972 -4.39617014
-29.89899063 13.26875973 -4.77111006
-29.18445015 3.05091000 -1.84164000
-29.20590019 2.38004994 -1.17299998
-29.19012070 3.23478007 -1.11921000
-29.37927055 3.68864989 -1.67063999
-12.27282047 -14.99954987 -26.17067909
-11.77490997 -15.01755047 -26.28375053
-11.93130016 -14.82746983 -26.48730087
-14.97216034 -13.71152973 -25.05525017
-14.54498959 -14.47323036 -25.25828934
-14.38920021 -14.11256981 -25.40024948
-32.33729935 9.27420044 -2.02038002
-32.32815170 9.93509960 -2.40222001
-31.84626007 10.79792976 -2.13935995
-31.69043922 10.73841000 -1.79784000
-31.10984993 11.41658974 -2.01831007
21.90008926 11.04957008 19.15368080
21.33897018 12.02507973 19.77642059
22.17095947 13.23377991 18.82998085
20.59785080 20.74047089 20.48144913
21.03792000 21.35573959 19.93409920
21.75227928 20.96541023 19.21751976
22.78107071 2.39787006 -20.77490997
22.31217003 2.60379004 -21.68745041
23.65316963 2.54466009 -20.27540970
22.43684959 1.56807005 -21.04590034
18.56307030 17.56545067 23.07600021
19.09848022 9.65567970 22.51662064
-29.76177025 10.88757038 -0.31731001
-30.40760994 10.91825962 -1.09764004
-30.17514038 10.38045025 -0.87807000
-29.89463997 10.82369995 -0.72242999
-0.06486000 -13.65149975 28.94309998
-0.04938000 -12.38448048 28.99823952
1.52610004 -12.87438011 28.97100067
1.06877995 -11.74631977 28.98789024
0.23006999 -10.90215015 29.03211021
1.30629003 -10.91942978 29.01008987
23.82990074 19.88994026 -18.70121956
22.02029991 20.19944954 -20.83008003
23.08848000 21.29043007 -19.38429070
8.68749046 -18.26642990 -25.83111000
8.78882980 -17.85887909 -25.76786995
7.76213980 -16.50662994 -26.43486023
-21.04635048 -2.50658989 -19.60379982
-21.03179932 -2.88063002 -19.65863991
-20.24019051 -2.22072005 -20.44832993
-22.19664001 -4.58541012 -18.34431076
-22.91802025 -6.49443007 -17.54178047
-22.00737000 -5.67363024 -18.62652016
7.50009012 -16.21166992 -25.88112068
7.46256018 -16.26999092 -26.48682022
6.74586010 -16.14570045 -25.57110023
6.39350986 -16.13279915 -26.42901039
-21.46548080 4.65954018 -18.83094025
-20.73822021 -1.61415005 -19.90469933
29.23604965 16.72772980 3.74355006
29.09025002 21.83208084 3.02942991
29.25723076 20.59709930 3.33165002
28.18577957 19.54956055 -12.94911003
27.95553017 20.31900024 -13.54308033
28.43538094 20.70609093 -12.50172043
26.80809021 22.82748032 -14.55743980
27.54849052 22.78194046 -14.46918011
-30.39452934 -10.71065998 1.20284998
-30.26759911 -11.69126987 1.96509004
-30.02556038 -11.92175961 2.63418007
-4.60653019 3.94968009 -30.13668060
-2.35593009 4.00116014 -30.55194092
-7.56935978 3.90381002 -29.36070061
-8.73122978 4.01993990 -28.98147011
-7.63641024 4.29344988 -29.36792946
-27.55895996 18.21075058 -7.48500013
-27.99011993 18.06414032 -6.79619980
-28.31069946 17.85744095 -6.28004980
-28.02725983 18.24081039 -5.98733997
18.42270088 -22.50822067 26.38784981
19.63104057 -23.27537918 26.06735992
20.35412979 -23.19819069 25.70858955
-27.10994911 -9.52713013 -11.01171017
-27.41859055 -9.37592983 -10.12940979
-26.70542908 -9.51146984 -12.03297043
-26.87364006 -7.23332977 -11.39474964
-26.79903030 -5.07185984 -11.59677029
-26.30912971 -8.13144016 -12.74726963
13.88726997 22.85549927 -26.68841934
14.34047985 22.42337990 -26.42108917
14.71833038 22.96578026 -26.41509056
14.79878998 23.12013054 -26.62611008
-31.76807976 -20.02053070 6.03342009
-32.10821915 -20.35707092 6.52793980
-31.81455040 -20.13738060 6.54120016
-31.50720024 -19.73736000 6.10424995
-28.70285988 20.67201042 -1.65522003
-28.85795975 19.22489929 1.46331000
-28.75875092 20.35796928 1.45884001
-10.34199047 -9.91530037 27.60104942
-8.86439991 -10.33458042 28.26114082
-8.54168987 -10.00868988 28.23884964
-5.67374992 23.21730042 -29.52930069
-6.73511982 23.67692947 -29.24364090
-5.92011023 23.65269089 -29.40900040
-2.48291993 23.03573990 -30.17613029
29.05958939 16.68543053 7.14206982
28.97001076 16.07876968 7.67120981
29.33568001 16.06736946 7.40642977
29.87759972 15.59840965 5.95725012
29.92235947 14.77548027 6.25287008
-9.48011971 -14.02001953 28.34361076
-8.39783955 -14.13714027 28.67682076
-8.24466038 -13.23900032 28.73199081
-9.68480968 -12.16289997 28.23686981
-7.85462999 -12.30902958 28.78926086
-8.32736969 -11.65622997 28.59645081
-14.99592018 -1.35845995 25.60650063
-13.86938953 -1.15781999 26.22773933
-17.03646088 -1.45232999 24.29636955
-16.96083069 -2.39421010 24.38421059
29.70642090 16.99349976 4.63065004
29.85573006 16.59156036 4.02869987
30.02049065 16.91921997 3.05655003
29.76876068 16.30142975 5.18373013
29.65778923 16.66893005 5.27555990
29.81682014 16.56591034 5.74974012
18.14168930 0.05949000 -24.51975060
18.49370956 0.50880003 -24.56154060
19.58621979 0.14346001 -23.45999908
16.71153069 0.45519000 -25.72052956
16.71854973 -23.79087067 22.25148010
17.09618950 -23.75363922 21.33900070
17.38371086 -24.04302025 21.40037918
18.67443085 -23.99901009 20.15555954
18.20355034 -23.90288925 20.39822960
18.67907906 -23.57033920 19.87697983
-25.22475052 13.88195992 14.68391991
-25.46081924 11.80914021 14.31116962
-24.81714058 11.87160015 15.54881954
-25.84065056 7.10889006 14.20565987
-25.22331047 7.43940020 14.82153034
-25.74752998 7.52775002 13.75856972
-10.32155991 -11.16438007 -27.31599045
-11.02919960 -11.69904041 -27.02375984
-10.49958038 -11.69847012 -27.23378944
-6.87743998 -7.92785978 -28.42197037
-7.33208990 -8.53835964 -28.27503014
-7.05188990 -9.14931011 -28.34292030
-25.30347061 11.63451004 -12.32184029
-25.23810005 6.99533987 -12.79224014
-24.89826012 7.10229015 -13.40639973
-25.20540047 7.43186998 -12.72422981
23.80187988 -5.35481977 16.64850044
23.33717918 -4.40007019 17.31417084
23.77272034 -2.04168010 16.73829079
25.55489922 -1.92491996 13.91643047
24.88619995 -3.23783994 14.99874020
24.82908058 -0.94709998 15.15207005
23.97129059 14.20223999 -19.19292068
23.06156921 13.99526978 -20.34926987
23.64903069 16.68984032 -19.68281937
22.03034973 14.83829975 -21.54077911
21.37520981 16.22294998 -22.17791939
22.24650002 16.18584061 -21.29003906
-24.38102913 6.47639990 -14.31276035
-24.27821922 6.40068007 -14.84136009
-24.36491966 6.72749996 -14.51957989
-24.95195961 7.55792999 -13.23530960
-6.63345003 4.05624008 29.72307014
-7.37945986 3.74460006 29.56922913
-5.88335991 3.73892999 29.88344955
-9.37965012 4.04978991 28.96581078
-9.00842953 3.74970007 29.08497047
6.01020002 -15.15977955 -29.66094017
5.51445007 -14.47154999 -29.81472015
6.41591978 -13.84848022 -29.65299034
6.25890017 -13.37654972 -29.70198059
7.11362982 -13.08813000 -29.52989960
30.63582039 3.05102992 0.21216001
30.69507027 3.26438999 -0.60075003
30.67782021 3.37091994 0.63840002
30.09168053 3.43601990 5.28956985
30.43379974 3.24593997 3.62763000
30.36326981 3.55388999 4.02551985
25.24193954 -16.38924026 9.07964993
26.67801094 -16.37768936 8.60741997
23.45096970 -16.43238068 5.48388004
23.58690071 -16.41333008 2.79186010
6.85584021 -14.74034977 -29.97242928
6.34422016 -14.68188000 -29.67128944
7.27215004 -14.63514042 -30.05051994
-16.44824982 10.95845985 -23.26223946
-16.12815094 10.47891045 -23.48432922
-15.93447018 11.13821983 -23.66153908
-18.69321060 10.43078995 -21.39291000
-18.08432961 9.70403957 -21.98081970
-17.89932060 10.35348034 -22.13088036
-17.78183937 4.26575994 -23.98146057
-17.55896950 4.75953007 -24.16556931
-16.92465019 4.39965010 -24.66629982
-17.06897926 4.85414982 -24.47537994
-16.50741005 4.63605022 -24.94182014
22.90967941 -16.47308922 11.51220036
23.67279053 -16.45937920 9.51945019
24.78368950 -16.39788055 9.30150032
19.09506035 -16.37718010 16.05561066
19.60733986 -16.41345024 14.77842045
9.14933968 -18.20502090 -30.57312012
9.60027027 -17.18894958 -30.60102081
9.56637001 -17.99028015 -30.67691994
9.57036018 -18.77936935 -30.67521095
10.27334976 -18.69083977 -30.82662010
28.73789978 5.02316999 5.84694004
28.90163994 6.00681019 5.07348013
28.52601051 2.84763002 6.49584007
28.31003952 3.28853989 7.42760992
28.54364967 4.36898994 6.72665977
19.14530945 0.75656998 22.71557999
18.60029984 0.44508001 23.02596092
20.30442047 0.32835001 21.47879982
16.06719017 0.78015000 25.03470039
16.36871910 0.34136999 24.60267067
16.81427956 0.80343002 24.52716064
32.22507095 3.94245005 -2.57807994
32.56703949 3.64908004 -2.34222007
32.50386047 2.12139010 -2.17289996
32.36840820 2.94095993 -2.53782010
-31.30271912 7.94015980 -0.66525000
-31.17008972 7.53998995 -0.52335000
-30.86178017 7.46087980 -1.08594000
-30.70227051 7.26972008 -0.68747997
-21.13718987 -16.02161980 14.98136997
-20.22108078 -16.06917000 14.83860016
-20.02490997 -16.07099915 10.06941032
-20.88834000 -16.07585907 9.67545033
-20.07365990 -16.03911018 9.34521008
32.96282959 9.67712975 3.96702003
33.25038147 9.00273037 3.97502995
33.26345825 9.29076004 3.25164008
32.26551056 10.08362961 4.37682009
-19.52268028 -16.10514069 8.63978958
-18.93213081 -16.19108963 8.41127968
-18.64712906 -16.14365959 8.96337032
-21.17613029 -15.97401047 6.63354015
-20.50617027 -16.03071022 6.45566988
-20.30763054 -16.10519981 6.83549976
-28.54557037 -3.99032998 2.22098994
-28.49711990 -3.64701009 2.45744991
-28.43427086 -3.68241000 3.10562992
-28.67556000 -5.53527021 1.18893003
-28.70573997 -5.78448009 -0.64635003
-28.66920090 -4.57911015 0.71349001
31.96961975 9.09840012 4.51499987
32.38827133 8.81118011 4.53896999
32.52030182 9.32417965 4.52217007
32.37902832 8.43402004 3.70683002
1.05683994 -15.82859993 29.65835953
0.20328000 -15.90639019 29.53982925
2.06643009 -15.90219021 29.45115089
3.57650995 -15.72972012 29.55750084
4.27946997 -15.87152958 29.34638977
5.28011990 -15.73095036 29.27747917
26.53454971 -5.04098988 -13.23740959
26.44565964 5.27702999 -13.92671967
26.61479950 4.49150991 -13.59698963
26.65139961 6.56898022 -13.50918007
22.21158028 -24.01943970 23.14182091
22.94082069 -23.25918007 22.60341072
-1.05809999 -15.18546009 29.83122063
-1.80534005 -15.63582039 29.71739960
0.26594999 -15.65036964 29.77635002
-4.52837992 -14.81966972 29.53763962
-3.59858990 -15.58170033 29.54553032
-2.75717998 -15.16355991 29.68787956
31.01984978 9.51047993 4.58906984
30.49941063 9.65102959 4.76838017
30.40806007 9.45149994 4.61133003
30.29433060 10.12983036 5.59527016
30.20051956 9.91794014 5.26859999
-15.00234032 5.24174976 24.98189926
-16.03461075 6.11523008 24.35493088
-14.86250973 7.57793999 25.13270950
-14.11437035 5.10042000 25.50893974
7.58826017 -17.18852997 -26.93073082
8.11536026 -18.10598946 -26.23934937
8.10848999 -17.45697021 -26.35131073
30.68802071 0.19193999 7.39985991
30.97047043 0.72782999 7.47579002
30.68438911 1.63740003 8.33129978
30.97439957 1.23848999 7.90091991
30.86973000 1.83362997 8.15312958
-16.48113060 3.30137992 23.92893028
-17.50218010 3.58067989 23.21537971
-16.90257072 4.04105997 23.69421005
-18.31245041 12.32357979 22.76832008
1.05317998 14.17251015 -30.11672974
1.37279999 16.69067955 -30.11679077
1.94240999 9.40536022 -30.08354950
2.74725008 11.80757999 -30.12816048
3.47153997 9.95534992 -30.05829048
-14.35217953 19.15467072 26.64957047
-13.42926025 19.23303032 27.14607048
-14.03405952 20.55693054 26.79995918
-14.27145004 18.09362984 26.57711983
-14.27768993 17.77605057 26.24031067
-12.78798008 18.08670044 27.33683968
-29.14934921 -6.75111008 1.51038003
-29.61278915 -9.54329967 1.30128002
-30.15006065 -9.80648994 1.66407001
-29.79068947 -9.56669998 1.92963004
-30.60713959 8.21805000 -5.71365023
-30.47282982 8.86952972 -5.67260981
-30.58379936 8.92782021 -5.32721996
29.94510078 -14.28302956 -3.34127998
-32.33927917 -19.52700043 4.23000002
-32.13899994 -19.08296967 4.50131989
-32.04423141 -18.70371056 3.95196009
-32.25777054 -20.07881927 4.91213989
-31.97289085 -20.17485046 5.34224987
30.43881035 17.40291023 -3.93449998
30.40179062 18.82559967 -3.85613990
30.55026054 17.78330994 0.67076999
30.59030914 17.54211044 -1.55508006
30.56847000 18.18017960 -1.00134003
21.69257927 -24.03104973 19.40324974
21.64170074 -23.73959923 19.28705978
21.94931984 -23.87487030 19.12722015
22.32254982 -22.74119949 19.02597046
22.07357979 -22.41039085 19.12824059
22.45836067 -22.24014091 19.20908928
15.67763996 -20.33526039 23.24297905
15.82767010 -22.61610031 24.08663940
15.78258038 -21.89123917 24.20768929
4.76028013 -15.45872974 28.08234024
-0.34485000 -15.33104992 28.77272987
-0.09414000 -15.07905006 28.92126083
0.91505998 -15.32876968 28.76439095
-17.79224968 -15.94668007 -3.86162996
-17.76168060 -16.12380028 -4.46450996
-17.22204018 -16.13871002 -4.34510994
-18.17943001 -16.08852005 -4.75050020
-17.77463913 -16.05644989 -5.39787006
-17.34387016 -16.13792992 -4.89867020
18.13364983 -14.44896030 25.07123947
18.03200912 -14.09426975 24.80831909
17.72204971 -14.99969959 25.43283081
17.66720963 -14.09043026 25.02500916
17.37120056 -13.89035988 25.61901093
32.21529007 -0.62550002 0.17406000
32.09024811 -1.15866005 0.30978000
32.29508972 -0.31362000 -0.54764998
31.15776062 5.67344999 1.10490000
30.53285980 5.67600012 0.27405000
30.45495033 5.22710991 -0.18321000
-16.18725014 -2.60244012 -23.98479080
-15.05163002 -2.44742990 -24.72945023
-18.65958023 -5.67843008 -22.14245987
-18.38072968 -5.78031015 -22.29693031
-18.66116905 -5.12190008 -22.13805008
20.77659035 3.28899002 -23.45502090
20.88828087 3.56205010 -23.28380966
22.33641052 3.32648993 -22.00178909
24.69776917 3.11613011 -19.25847054
24.10067940 3.35730004 -20.04644966
31.04544067 6.41741991 0.82595998
31.28240967 6.38786983 2.54138994
31.38908958 6.46019983 2.94300008
31.78463936 6.52025986 1.70258999
-24.94491005 -11.75946045 14.52906036
-24.98279953 -10.73283005 14.44521046
-24.44828987 -10.04364014 15.35418034
-23.76317978 -14.98752022 16.09341049
-24.00128937 -14.58971977 15.91514969
10.75895977 4.43033981 27.93494987
11.41211987 4.15461016 27.83666992
10.91864967 5.88870001 27.81870079
10.01673031 4.98839998 28.19955063
11.93286037 4.48664999 27.43086052
-23.91996002 -13.06776047 16.17873001
-23.99526024 -12.13605022 16.08135033
-23.46953964 -12.56447983 16.83614922
-24.34188080 -12.73116016 15.45771027
30.83937073 6.46130991 2.59841990
30.42218971 6.72228003 3.06491995
30.23312950 6.80091000 3.55797005
17.26230049 -14.10869980 26.05868912
17.19515991 -14.70666027 26.34963036
16.91226006 -15.78102016 26.50539017
17.03181076 -16.26357079 26.30792999
17.28342056 -15.71916008 26.37335968
-22.80867004 -15.22710037 10.06713009
-22.72797012 -15.21638966 11.32110023
-21.64151955 -15.28287029 10.89725971
-24.92910004 -13.97078991 13.18412971
-24.70727921 -14.16090012 13.56315041
-27.31418991 7.62300014 -9.76443005
-26.97540092 8.07147026 -10.13136005
-28.29653931 7.60496998 -7.43730021
-18.84017944 19.92404938 23.49261093
-19.82868004 18.23111916 22.49675941
-19.22343063 17.97356987 22.80323982
-18.83783913 18.26085091 23.35095024
-24.74427032 -12.42288017 14.81849957
-24.87953949 -14.69915962 14.15727043
-24.66596985 -14.39237976 13.72593021
-24.73274994 -14.01249027 13.92416954
27.39221954 17.88500977 12.11340046
27.88614082 17.79684067 10.98950958
27.94010925 18.35547066 10.97183990
29.19684029 19.08683968 7.56612015
28.86045074 17.93106079 8.75253010
-27.94527054 -14.60241032 10.22729969
-27.21948051 -15.24020958 11.87187004
-16.47570038 -1.35492003 -24.33143997
-16.68767929 1.09844995 -24.06698990
-19.32221985 -4.26771021 -22.08105087
-19.04693985 -1.42586994 -22.23981094
27.93317986 20.02662086 11.11730957
28.15379906 20.47958946 10.52400017
28.45899010 19.70261955 9.67640972
28.88253021 19.22355080 8.54090977
-23.85873032 -2.29208994 -16.85931015
-23.46516037 0.19689000 -17.21903992
-22.41098976 1.23038995 -18.54351044
30.45038986 -2.10540009 1.57524002
30.44792938 -1.75874996 0.83508003
30.86627960 -1.92495000 0.67862999
31.27850914 -2.15321994 1.36695004
31.53441048 -1.77551997 0.51530999
29.39850044 4.36875010 7.76802015
29.17428017 4.23855019 8.33277035
29.33045959 5.04045010 7.78905010
29.69910049 5.02260017 7.25247002
30.18359947 5.44226980 6.83591986
29.95602036 4.66224003 7.25646019
29.01651001 11.90882969 -6.21606016
29.01375008 13.64721012 -6.33756018
29.31827927 21.19728088 -3.94517994
29.18184090 21.83042908 -4.02951002
-4.35858011 4.44731998 -29.05557060
-3.32361007 4.49108982 -29.23365021
-4.08828020 4.87493992 -29.11008072
-6.28844976 6.44510984 -28.53986931
-5.96693993 5.66249990 -28.65756035
-5.71569014 6.14594984 -28.68876076
16.78367996 -16.46735954 11.77731037
18.01926041 -16.46640015 9.77225971
19.55097008 -16.47575951 11.46815968
8.32406998 -16.45421982 11.59521008
10.00347042 -16.46175003 9.89859009
10.48958969 -16.47936058 10.76745033
19.40069962 6.62597990 22.51596069
19.60143089 8.69915962 22.04948997
20.44857025 10.38747025 21.30360031
-9.07479000 4.30449009 -27.61833000
