2.08698000 -0.09250600 -3.48368000
2.27650000 -0.14418200 -3.73924000
2.36470000 -0.14686500 -3.68971000
2.26932000 -0.12120900 -3.56267000
2.45981000 -0.17169200 -3.80860000
2.55073000 -0.16626400 -3.75153000
2.45513000 -0.14355300 -3.63823000
2.64696000 -0.18710800 -3.86681000
2.73722000 -0.18035200 -3.80763000
2.64266000 -0.15673300 -3.69633000
2.82734000 -0.20259700 -3.91339000
2.54881000 -0.12886700 -3.58892000
2.53440000 -0.10172900 -3.41713000
2.44191000 -0.11505300 -3.46755000
2.35139000 -0.12532500 -3.51811000
2.33820000 -0.09628300 -3.34641000
2.24895000 -0.10437300 -3.39606000
2.16796000 -0.09844100 -3.43987000
2.14862000 -0.08218300 -3.27154000
2.06897000 -0.07700000 -3.31311000
1.98931000 -0.07181800 -3.35469000
1.97382000 -0.05772600 -3.17992000
1.89622000 -0.05133800 -3.22031000
1.82572000 -0.04079500 -3.25658000
1.81012000 -0.02789800 -3.08402000
1.73941000 -0.01705400 -3.11962000
1.66871000 -0.00621300 -3.15522000
1.65718000 0.00396400 -2.98935000
1.59104000 0.01378100 -3.02815000
1.52772000 0.03244900 -3.06337000
1.51559000 0.03615100 -2.90095000
1.45236000 0.05510000 -2.93606000
1.39259000 0.07627500 -2.97417000
1.46021000 0.05325900 -3.09676000
1.34073000 0.11625400 -3.01020000
1.40509000 0.09543900 -3.12193000
1.31129000 0.16911600 -3.02808000
1.27648000 0.13648400 -2.89934000
1.23889000 0.18499600 -2.93165000
1.28399000 0.21922900 -2.91919000
1.17181000 0.19541600 -2.83546000
1.22365000 0.23355000 -2.82061000
1.28934000 0.24765100 -2.78144000
1.22953000 0.26104500 -2.68039000
1.29534000 0.26958800 -2.62986000
1.16848000 0.27231200 -2.58184000
1.23337000 0.27988600 -2.53375000
1.29825000 0.28746000 -2.48567000
1.16359000 0.29239800 -2.44390000
1.23416000 0.29619400 -2.39583000
1.30994000 0.30185200 -2.34111000
1.16290000 0.31160500 -2.30607000
1.25040000 0.31218600 -2.25240000
1.33967000 0.31498300 -2.18865000
1.18995000 0.32385400 -2.16618000
1.27718000 0.32362700 -2.10720000
1.12657000 0.33117700 -2.08682000
1.21139000 0.33002400 -2.02892000
1.27365000 0.32170900 -1.97865000
1.34562000 0.29592800 -1.91039000
1.13628000 0.33346500 -1.95379000
1.19854000 0.32515000 -1.90351000
1.25977000 0.30720700 -1.85264000
1.27209000 0.24402300 -1.85346000
1.33679000 0.21798700 -1.93264000
1.12140000 0.33164100 -1.82059000
1.17831000 0.31794100 -1.77226000
1.19445000 0.25193400 -1.76387000
1.16100000 0.20481800 -1.81927000
1.23659000 0.19405900 -1.90437000
1.09591000 0.32222300 -1.68611000
1.11390000 0.26339400 -1.67843000
1.08254000 0.21323000 -1.72384000
1.04252000 0.17701900 -1.77166000
1.12280000 0.16557800 -1.87016000
1.03298000 0.27536500 -1.59361000
1.00288000 0.22626100 -1.62461000
0.96238200 0.18960200 -1.67088000
0.91786800 0.16381800 -1.72023000
0.99737200 0.14965600 -1.82749000
0.95024700 0.12412400 -1.88469000
1.02050000 0.12196400 -1.99014000
1.07328000 0.14225800 -1.92902000
0.87308100 0.13849300 -1.77038000
0.81978900 0.12885800 -1.82179000
0.89631700 0.11319400 -1.93753000
0.74206000 0.14673400 -1.69851000
0.69177800 0.13581600 -1.73817000
0.76649700 0.11922400 -1.87320000
0.62019800 0.15127100 -1.59332000
0.57000600 0.14010600 -1.63015000
0.64149400 0.12489500 -1.77782000
0.49789100 0.15703800 -1.50390000
0.44974800 0.14108200 -1.53505000
0.51972400 0.12918700 -1.66981000
0.45895100 0.12803700 -1.69593000
0.52872800 0.11442000 -1.84140000
0.59121200 0.11397800 -1.81747000
0.59390700 0.10274600 -1.98548000
0.66217900 0.09925400 -1.96447000
0.71320500 0.10959000 -1.92462000
0.71492200 0.09550700 -2.09353000
0.78780500 0.09594800 -2.03921000
0.84210800 0.10452600 -1.98837000
0.84431400 0.09975200 -2.15108000
0.90917000 0.09837800 -2.10065000
0.96753900 0.10312300 -2.04997000
0.96918700 0.10103300 -2.20632000
1.03679000 0.09899800 -2.14776000
1.08766000 0.11024700 -2.08333000
1.10574000 0.09852300 -2.24029000
1.15560000 0.10521700 -2.17381000
1.20568000 0.11285100 -2.10775000
1.14074000 0.13147000 -2.02340000
1.25733000 0.13613800 -2.04873000
1.19383000 0.15269600 -1.96347000
1.30293000 0.16833500 -1.98584000
1.32368000 0.11653800 -2.14524000
1.36984000 0.14338800 -2.07664000
1.39255000 0.09356800 -2.25303000
1.43845000 0.12077000 -2.18399000
1.46407000 0.07461800 -2.37657000
1.51196000 0.07554700 -2.30781000
1.54379000 0.04925600 -2.51373000
1.59548000 0.04618600 -2.45320000
1.64577000 0.04364500 -2.38858000
1.70015000 0.04835500 -2.32244000
1.68183000 0.02207100 -2.59679000
1.74240000 0.01753300 -2.54317000
1.81798000 0.01097800 -2.49607000
1.87760000 0.00712300 -2.44220000
1.76097000 0.03839800 -2.28719000
1.84717000 0.00370700 -2.70411000
1.91888000 0.00489800 -2.66269000
1.98775000 0.01932100 -2.61689000
2.01392000 -0.00285800 -2.82061000
2.08389000 0.02790800 -2.78544000
2.11063000 -0.01910800 -2.94815000
2.18614000 0.00723800 -2.92023000
2.25598000 0.05078100 -2.89714000
2.31700000 0.08766500 -2.88402000
2.28210000 -0.01068200 -3.03534000
2.36353000 0.03424800 -3.00707000
2.42738000 0.09651000 -2.99512000
2.41463000 0.13668800 -3.03733000
2.31235000 0.14405600 -2.92290000
2.48085000 0.01598000 -3.11656000
2.54260000 0.08628200 -3.10642000
2.52383000 0.13150700 -3.15619000
2.45917000 0.13711300 -3.23101000
2.35508000 0.14932900 -3.11063000
2.66242000 0.07448100 -3.21286000
2.62792000 0.11869300 -3.27750000
2.56331000 0.11956000 -3.35960000
2.49671000 0.11963700 -3.43678000
2.39480000 0.14265700 -3.30556000
2.59826000 0.09451200 -3.56892000
2.52729000 0.09664000 -3.64482000
2.42722000 0.11855600 -3.50680000
2.63183000 0.07600600 -3.78690000
2.55560000 0.07788200 -3.85855000
2.45525000 0.09721400 -3.71551000
2.73659000 0.05248200 -3.92835000
2.65673000 0.05147700 -3.99969000
2.57450000 0.05117900 -4.06908000
2.48026000 0.07490100 -3.92794000
2.75925000 0.02650500 -4.13954000
2.67206000 0.02768300 -4.20484000
2.58487000 0.02886300 -4.27015000
2.48813000 0.05017500 -4.13068000
2.85343000 0.01225200 -4.26804000
2.76874000 0.01278800 -4.34472000
2.67890000 0.01347300 -4.40619000
2.58734000 0.01401200 -4.46527000
2.49784000 0.02905700 -4.33352000
2.40762000 0.02632400 -4.38649000
2.31587000 0.04710100 -4.25223000
2.40196000 0.04863800 -4.19137000
2.49718000 0.00969300 -4.51936000
2.40759000 0.00336900 -4.57139000
2.31723000 0.02316000 -4.43935000
2.49261000 -0.01504100 -4.70488000
2.39809000 -0.01882400 -4.74922000
2.31687000 -0.00337200 -4.62229000
2.47793000 -0.03641700 -4.87564000
2.38341000 -0.04020100 -4.91998000
2.30720000 -0.02557100 -4.79366000
2.55390000 -0.05452800 -5.00652000
2.46062000 -0.05925700 -5.04924000
2.36820000 -0.06491000 -5.08951000
2.29110000 -0.04512400 -4.96096000
2.44566000 -0.08716800 -5.21907000
2.19633000 -0.04722900 -4.99763000
2.12857000 -0.03656800 -4.87572000
2.21756000 -0.03308600 -4.83685000
2.10947000 -0.05122100 -5.03731000
2.05422000 -0.04354800 -4.92017000
2.00954000 -0.04098800 -5.07954000
1.96140000 -0.03248100 -4.96033000
1.89761000 -0.03517500 -5.12672000
1.86777000 -0.01840500 -4.99818000
1.78806000 -0.03266100 -5.16351000
1.75903000 -0.01629200 -5.02842000
1.67771000 -0.03264200 -5.19748000
1.65091000 -0.01556400 -5.05938000
1.63201000 0.00710900 -4.91906000
1.53494000 -0.01606500 -5.08920000
1.51819000 0.00694600 -4.94919000
1.41619000 -0.01672500 -5.11870000
1.39397000 0.00786100 -4.97943000
1.36529000 0.03598500 -4.84112000
1.26815000 0.01036400 -5.00894000
1.23813000 0.03886500 -4.87279000
1.32149000 0.06370800 -4.68851000
1.15140000 0.01139400 -5.03284000
1.29778000 -0.01644200 -5.14587000
1.18059000 -0.01348700 -5.17067000
1.06448000 -0.00918000 -5.19444000
1.20919000 -0.03453400 -5.31025000
1.09265000 -0.02949100 -5.33306000
0.97448600 -0.02069700 -5.35249000
1.12165000 -0.04732700 -5.47670000
1.00020000 -0.03969900 -5.49187000
0.88053400 -0.03121600 -5.50901000
1.03267000 -0.05630800 -5.64070000
0.90667100 -0.04722600 -5.65231000
0.78364600 -0.03981300 -5.66351000
0.93680200 -0.05959100 -5.80011000
0.80778100 -0.05220600 -5.80873000
0.68194600 -0.05450700 -5.79794000
0.83521400 -0.06513500 -5.97513000
0.70397300 -0.06603400 -5.96596000
0.57762900 -0.06873800 -5.95224000
0.72879100 -0.07841800 -6.13507000
0.60143100 -0.07944000 -6.12399000
0.74482700 -0.09309400 -6.32919000
0.61503500 -0.09776600 -6.31816000
0.75954800 -0.11101800 -6.52614000
0.62692100 -0.11277300 -6.51795000
0.49289700 -0.11397300 -6.51230000
0.63074900 -0.10725400 -6.72826000
0.49444500 -0.11476700 -6.72351000
0.36487800 -0.12726500 -6.71458000
0.50563400 -0.09340600 -6.93070000
0.36569700 -0.12698800 -6.92112000
0.25079500 -0.16212000 -6.70171000
0.51781400 -0.12752500 -7.12773000
0.37133000 -0.14200000 -7.12144000
0.52609800 -0.15469900 -7.32670000
0.37336300 -0.16724100 -7.31728000
0.53687000 -0.17502300 -7.53011000
0.37569500 -0.16560300 -7.52693000
0.22115300 -0.17486800 -7.51810000
0.38842200 -0.19780700 -7.74616000
0.21998900 -0.18593900 -7.74071000
0.05080000 -0.19230800 -7.73170000
0.06123200 -0.18845000 -7.50676000
0.22729000 -0.19526900 -7.97631000
0.05276300 -0.19582200 -7.97058000
-0.12399000 -0.18263500 -7.96058000
0.06466700 -0.18969400 -8.21959000
-0.11742100 -0.18165400 -8.21108000
-0.29537400 -0.16485000 -8.19729000
-0.10185900 -0.17170800 -8.47123000
-0.28522200 -0.14639900 -8.45710000
-0.46262000 -0.14327300 -8.44179000
-0.26700400 -0.09421500 -8.71294000
-0.45343200 -0.09584600 -8.70144000
-0.64106300 -0.10194300 -8.68385000
-0.44047300 -0.05052200 -8.95755000
-0.63651800 -0.05530600 -8.94517000
-0.82952400 -0.06316100 -8.91523000
-0.62910600 -0.00720700 -9.19510000
-0.83029500 -0.02167000 -9.17750000
-1.02427000 -0.01583000 -9.14515000
-0.81907100 0.09003100 -9.41555000
-1.02333000 0.07784400 -9.39091000
-1.22525000 0.05233900 -9.36985000
-1.02305000 0.22797000 -9.60660000
-1.22809000 0.21030900 -9.58380000
-1.43053000 0.20265000 -9.54563000
-1.23270000 0.41354400 -9.75995000
-1.43883000 0.40480200 -9.72370000
-1.64204000 0.38817600 -9.68627000
-1.45337000 0.59686100 -9.90966000
-1.65969000 0.58453600 -9.87061000
-1.86568000 0.56831500 -9.83117000
-1.67809000 0.78039600 -10.05330000
-1.88713000 0.76674700 -10.01160000
-2.09566000 0.75314900 -9.96569000
-1.90614000 0.96953200 -10.18570000
-2.11824000 0.95378900 -10.14100000
-2.32878000 0.94451600 -10.08840000
-2.14480000 1.14194000 -10.33130000
-2.35487000 1.14459000 -10.26630000
-2.56438000 1.14148000 -10.20440000
-2.38348000 1.34208000 -10.44520000
-2.59709000 1.33813000 -10.38570000
-2.80919000 1.33652000 -10.31960000
-2.62933000 1.53965000 -10.56190000
-2.84576000 1.53203000 -10.50120000
-3.06134000 1.52028000 -10.44140000
-2.88226000 1.72676000 -10.68280000
-3.10114000 1.72208000 -10.61540000
-3.31579000 1.72079000 -10.54060000
-3.13413000 1.93676000 -10.77420000
-3.35753000 1.92551000 -10.71030000
-3.57867000 1.91216000 -10.64550000
-3.39619000 2.13410000 -10.87490000
-3.62155000 2.12408000 -10.80590000
-3.83955000 2.12194000 -10.72190000
-3.66181000 2.34097000 -10.95890000
-3.88890000 2.33060000 -10.88180000
-4.11186000 2.32186000 -10.79880000
-3.93139000 2.55168000 -11.02600000
-4.16098000 2.53774000 -10.94950000
-4.38667000 2.53048000 -10.86140000
-4.20968000 2.75550000 -11.09840000
-4.44260000 2.73921000 -11.01920000
-4.66755000 2.73708000 -10.91890000
-4.48975000 2.96280000 -11.15670000
-4.71510000 2.96411000 -11.05210000
-4.93601000 2.96792000 -10.93930000
-4.76464000 3.18861000 -11.19000000
-4.98564000 3.19600000 -11.07190000
-5.20954000 3.19537000 -10.95870000
-5.03820000 3.42308000 -11.20400000
-5.26367000 3.42363000 -11.08830000
-5.48506000 3.42716000 -10.96370000
-5.31455000 3.65707000 -11.20980000
-5.54268000 3.65490000 -11.09390000
-5.76454000 3.65867000 -10.96390000
-5.59389000 3.88977000 -11.21220000
-5.81940000 3.89180000 -11.08460000
-6.04118000 3.89621000 -10.95010000
-5.87718000 4.12239000 -11.20900000
-6.09850000 4.12955000 -11.06920000
-6.31918000 4.13362000 -10.93080000
-6.15473000 4.36340000 -11.18710000
-6.37559000 4.37121000 -11.04120000
-6.60612000 4.36414000 -10.91290000
-6.44500000 4.59299000 -11.17400000
-6.67521000 4.58943000 -11.04090000
-6.90075000 4.58849000 -10.89650000
-6.73529000 4.82527000 -11.15200000
-6.96665000 4.82051000 -11.01210000
-7.18328000 4.82528000 -10.85260000
-7.02257000 5.06179000 -11.11230000
-7.25148000 5.05903000 -10.96460000
-7.47947000 5.05454000 -10.81590000
-7.31217000 5.29824000 -11.06550000
-7.54384000 5.29364000 -10.91790000
-7.77241000 5.28944000 -10.76660000
-7.61186000 5.52901000 -11.02600000
-7.84123000 5.52617000 -10.87210000
-8.07500000 5.51797000 -10.72080000
-7.91226000 5.76021000 -10.97990000
-8.14277000 5.75745000 -10.81980000
-8.34557000 5.77123000 -10.62870000
-8.19611000 6.00831000 -10.89920000
-8.40571000 6.01895000 -10.71310000
-8.61254000 6.02695000 -10.52360000
-8.47350000 6.26115000 -10.80530000
-8.68835000 6.26523000 -10.62050000
-8.89286000 6.27364000 -10.42520000
-8.75661000 6.50774000 -10.70910000
-8.96674000 6.51315000 -10.51590000
-9.16405000 6.52393000 -10.31050000
-9.01232000 6.76936000 -10.57640000
-9.23839000 6.76444000 -10.39900000
-9.43968000 6.77274000 -10.19410000
-9.30444000 7.01003000 -10.47980000
-9.52187000 7.01010000 -10.28830000
-9.72602000 7.01619000 -10.08430000
-9.57473000 7.26502000 -10.35160000
-9.78687000 7.26808000 -10.15300000
-9.98711000 7.27555000 -9.94312000
-9.84801000 7.51976000 -10.22270000
-10.04760000 7.52800000 -10.00920000
-10.25030000 7.53275000 -9.79822000
-10.10980000 7.77983000 -10.07630000
-10.31550000 7.78355000 -9.86673000
-10.51890000 7.78720000 -9.65492000
-10.37330000 8.03898000 -9.92665000
-10.57780000 8.04304000 -9.71328000
-10.77700000 8.04657000 -9.49547000
-10.62880000 8.30197000 -9.76405000
-10.84040000 8.30037000 -9.55473000
-11.04720000 8.29980000 -9.34090000
-10.90100000 8.55470000 -9.61192000
-11.10880000 8.55548000 -9.39531000
-11.29430000 8.56195000 -9.16152000
-11.15400000 8.81649000 -9.43811000
-11.34880000 8.82035000 -9.20918000
-11.52970000 8.82700000 -8.97033000
-11.40400000 9.07798000 -9.25784000
-11.60130000 9.08045000 -9.02957000
-11.77460000 9.09015000 -8.78292000
-11.65330000 9.34034000 -9.07413000
-11.83170000 9.34842000 -8.82945000
-11.99260000 9.36043000 -8.57275000
-11.87680000 9.61039000 -8.86555000
-12.04070000 9.62212000 -8.61005000
-12.18770000 9.63590000 -8.34394000
-12.07990000 9.88589000 -8.64071000
-12.23410000 9.89723000 -8.37772000
-12.38680000 9.90868000 -8.11409000
-12.27030000 10.16240000 -8.40469000
-12.43130000 10.17150000 -8.14479000
-12.58790000 10.18120000 -7.88199000
-12.48200000 10.43290000 -8.17865000
-12.63280000 10.44400000 -7.91127000
-12.77870000 10.45500000 -7.64145000
-12.67090000 10.70800000 -7.93672000
-12.82370000 10.71780000 -7.66946000
-12.97500000 10.72650000 -7.40128000
-12.86130000 10.98220000 -7.69324000
-13.01320000 10.99120000 -7.42468000
-13.15830000 11.00060000 -7.15205000
-13.04680000 11.25670000 -7.44544000
-13.19250000 11.26600000 -7.17245000
-13.33250000 11.27560000 -6.89681000
-13.22490000 11.53140000 -7.19170000
-13.36050000 11.54240000 -6.91312000
-13.48600000 11.55350000 -6.63028000
-13.37690000 11.81050000 -6.92356000
-13.51580000 11.82080000 -6.64613000
-13.62500000 11.83270000 -6.35636000
-13.52670000 12.08950000 -6.65302000
-13.63180000 12.10120000 -6.36114000
-13.75320000 12.11180000 -6.07581000
-13.64970000 12.36940000 -6.36950000
-13.76420000 12.38060000 -6.08084000
-13.87630000 12.39130000 -5.79197000
-13.77110000 12.64940000 -6.08417000
-13.88210000 12.66070000 -5.79424000
-13.98390000 12.67160000 -5.50151000
-13.88420000 12.92990000 -5.79503000
-13.98610000 12.94130000 -5.50197000
-14.07980000 12.95220000 -5.20689000
-13.98010000 13.21060000 -5.49925000
-14.07280000 13.22190000 -5.20367000
-14.15890000 13.23280000 -4.90667000
-14.06100000 13.49150000 -5.19858000
-14.15560000 13.50280000 -4.90405000
-14.23910000 13.51370000 -4.60660000
-14.14900000 13.77290000 -4.89979000
-14.23050000 13.78400000 -4.60186000
-14.31140000 13.79490000 -4.30460000
-14.21080000 14.05380000 -4.59327000
-14.29280000 14.06540000 -4.29646000
-14.36260000 14.07590000 -3.99724000
-14.26920000 14.33540000 -4.28683000
-14.34460000 14.34680000 -3.98909000
-14.41110000 14.35730000 -3.69031000
-14.32290000 14.61810000 -3.97924000
-14.38820000 14.62850000 -3.68069000
-14.45020000 14.63880000 -3.38212000
-14.36620000 14.90050000 -3.67058000
-14.43280000 14.91150000 -3.37332000
-14.48950000 14.92100000 -3.07474000
-14.40350000 15.18340000 -3.36105000
-14.46340000 15.19380000 -3.06416000
-14.51630000 15.20260000 -2.76701000
-14.42640000 15.46590000 -3.05088000
-14.47630000 15.47480000 -2.75387000
-14.52700000 15.48270000 -2.45810000
-14.43890000 15.74740000 -2.74063000
-14.48850000 15.75520000 -2.44585000
-14.53100000 15.76130000 -2.15063000
-14.45210000 16.02820000 -2.43227000
-14.48550000 16.03210000 -2.13797000
-14.52340000 16.03650000 -1.84401000
-14.44510000 16.30350000 -2.12444000
-14.48050000 16.30650000 -1.83170000
-14.51130000 16.30750000 -1.53926000
-14.43800000 16.57230000 -1.81767000
-14.47210000 16.57100000 -1.52713000
-14.49580000 16.56840000 -1.23547000
-14.42480000 16.83210000 -1.51333000
-14.44410000 16.82530000 -1.22340000
-14.46860000 16.82080000 -0.93377300
-14.39120000 17.07910000 -1.20985000
-14.41580000 17.07130000 -0.92223400
-14.42810000 17.06350000 -0.63353900
-14.35490000 17.31360000 -0.90873900
-14.37140000 17.30500000 -0.62180500
-14.38200000 17.29750000 -0.33537300
-14.30940000 17.53870000 -0.60931300
-14.31900000 17.52500000 -0.32370900
-14.31920000 17.51840000 -0.04061800
-14.25300000 17.73180000 -0.31157600
-14.25440000 17.72670000 -0.03056000
-14.24950000 17.72190000 0.24746400
-14.19730000 17.89600000 -0.02207700
-14.19030000 17.89980000 0.25489600
-14.18030000 17.90320000 0.52967500
-14.13570000 18.05280000 0.26090600
-14.12690000 18.04670000 0.53332900
-14.11840000 18.04480000 0.80705100
-14.07340000 18.19240000 0.53813300
-14.06480000 18.18650000 0.80939200
-14.04910000 18.18420000 1.08001000
-14.01570000 18.32600000 0.81256900
-14.00090000 18.31990000 1.08052000
-13.98280000 18.31890000 1.34973000
-13.95730000 18.45790000 1.08455000
-13.94390000 18.45250000 1.34854000
-13.91760000 18.44970000 1.61332000
-13.92860000 18.58930000 1.35173000
-13.90400000 18.58790000 1.61295000
-13.87950000 18.59390000 1.86993000
-13.95440000 18.71490000 1.61930000
-13.91740000 18.72650000 1.87481000
-13.88790000 18.72170000 2.13330000
-14.03820000 18.79220000 1.89703000
-14.00170000 18.79550000 2.15699000
-13.96100000 18.79700000 2.41815000
-14.13820000 18.82990000 2.18812000
-14.09980000 18.83030000 2.44997000
-14.06400000 18.83000000 2.71240000
-14.24310000 18.85770000 2.48211000
-14.20810000 18.85670000 2.74446000
-14.16960000 18.85430000 3.01150000
-14.35590000 18.86630000 2.77908000
-14.31920000 18.85890000 3.04687000
-14.27630000 18.85470000 3.31479000
-14.44940000 18.78890000 3.08061000
-14.39870000 18.77190000 3.35226000
-14.34800000 18.78340000 3.61124000
-14.45990000 18.62520000 3.38333000
-14.40130000 18.62380000 3.63472000
-14.33370000 18.64990000 3.88480000
-14.44360000 18.45900000 3.67744000
-14.36540000 18.49490000 3.92066000
-14.28970000 18.53340000 4.17003000
-14.31670000 18.37850000 4.20857000
-14.23310000 18.40260000 4.46472000
-14.33750000 18.22840000 4.25160000
-14.25270000 18.24500000 4.49701000
-14.16240000 18.25070000 4.75530000
-14.23220000 18.08600000 4.52118000
-14.13910000 18.08360000 4.77231000
-14.04060000 18.06790000 5.03253000
-14.04070000 17.91780000 4.77313000
-13.92280000 17.90600000 5.00322000
-13.79170000 17.89700000 5.25074000
-13.82300000 17.66490000 5.01326000
-13.75190000 17.65620000 5.26095000
-13.65930000 17.63860000 5.51933000
-13.77760000 17.38700000 5.28579000
-13.68840000 17.37590000 5.53718000
-13.59840000 17.35860000 5.79777000
-13.73530000 17.10910000 5.54059000
-13.65340000 17.09410000 5.80764000
-13.56290000 17.07510000 6.07653000
-13.70460000 16.82590000 5.80195000
-13.60500000 16.80700000 6.07006000
-13.51000000 16.78640000 6.34538000
-13.67560000 16.54660000 6.06694000
-13.55600000 16.52300000 6.33640000
-13.44630000 16.50180000 6.61541000
-13.59970000 16.26110000 6.32456000
-13.49630000 16.24170000 6.61139000
-13.37510000 16.22060000 6.88912000
-13.55120000 15.98390000 6.60630000
-13.42540000 15.96110000 6.88724000
-13.29610000 15.93950000 7.16578000
-13.47630000 15.70230000 6.88440000
-13.35090000 15.68100000 7.16767000
-13.20710000 15.65770000 7.44193000
-13.38850000 15.41990000 7.15982000
-13.24840000 15.39510000 7.43915000
-13.11190000 15.37380000 7.71787000
-13.30730000 15.13680000 7.44519000
-13.16430000 15.11340000 7.72323000
-13.02060000 15.09370000 7.99893000
-13.20440000 14.85020000 7.72275000
-13.05990000 14.82900000 7.99927000
-12.90640000 14.81050000 8.27114000
-13.09610000 14.56450000 8.00080000
-12.95360000 14.54880000 8.28220000
-12.78630000 14.53500000 8.55213000
-12.97990000 14.28570000 8.28411000
-12.81580000 14.27310000 8.55987000
-12.62880000 14.26090000 8.81739000
-12.85360000 14.01360000 8.57279000
-12.67380000 14.00210000 8.83866000
-12.49050000 13.99530000 9.10276000
-12.76390000 13.76300000 8.89684000
-12.56910000 13.75270000 9.15788000
-12.38310000 13.73940000 9.41782000
-12.57610000 13.49180000 9.14867000
-12.38440000 13.47600000 9.40152000
-12.19250000 13.45990000 9.65426000
-12.32480000 13.22190000 9.34246000
-12.13100000 13.20440000 9.59035000
-11.92920000 13.18870000 9.83022000
-12.12180000 12.93600000 9.56744000
-11.91810000 12.91880000 9.80478000
-11.73600000 12.90130000 10.05970000
-11.93490000 12.64650000 9.80212000
-11.74320000 12.62970000 10.04980000
-11.54110000 12.61230000 10.28910000
-11.74600000 12.35760000 10.03730000
-11.54180000 12.34010000 10.27450000
-11.33630000 12.32230000 10.51040000
-11.54450000 12.06750000 10.26200000
-11.34230000 12.04940000 10.50080000
-11.14020000 12.03130000 10.73930000
-11.33860000 11.77660000 10.48140000
-11.12870000 11.75910000 10.71360000
-10.91020000 11.74220000 10.93720000
-11.10580000 11.48900000 10.67660000
-10.88270000 11.47370000 10.89630000
-10.65690000 11.45950000 11.11390000
-10.85250000 11.20620000 10.85340000
-10.63630000 11.19030000 11.08110000
-10.41620000 11.17730000 11.30610000
-10.60830000 10.92340000 11.04170000
-10.39000000 10.91070000 11.26960000
-10.15360000 10.90560000 11.48190000
-10.35670000 10.64670000 11.22870000
-10.11700000 10.64420000 11.44000000
-9.86933000 10.64360000 11.64370000
-10.07280000 10.38620000 11.39210000
-9.83512000 10.38190000 11.60620000
-9.59322000 10.37770000 11.81360000
-9.79973000 10.12020000 11.56720000
-9.55874000 10.11460000 11.77180000
-9.31350000 10.11070000 11.96970000
-9.51822000 9.85518000 11.71960000
-9.28522000 9.84415000 11.93010000
-9.03484000 9.84289000 12.11510000
-9.24463000 9.58460000 11.86980000
-8.99982000 9.57977000 12.05960000
-8.75165000 9.58060000 12.24520000
-8.95879000 9.32007000 11.99530000
-8.72194000 9.31502000 12.19340000
-8.46333000 9.32372000 12.36220000
-8.67654000 9.05755000 12.11760000
-8.42692000 9.06086000 12.29640000
-8.17467000 9.06675000 12.46920000
-8.39141000 8.79778000 12.22780000
-8.14239000 8.80218000 12.40190000
-7.89125000 8.80846000 12.57090000
-8.11185000 8.53688000 12.33220000
-7.86533000 8.54073000 12.50450000
-7.60723000 8.54942000 12.65750000
-7.82764000 8.28125000 12.41170000
-7.56988000 8.29109000 12.56220000
-7.32559000 8.28948000 12.73510000
-7.53946000 8.02806000 12.47490000
-7.29505000 8.02895000 12.64280000
-7.03773000 8.03353000 12.79100000
-7.26593000 7.76701000 12.55280000
-7.01017000 7.77242000 12.69970000
-6.74459000 7.77904000 12.82800000
-6.98951000 7.50679000 12.61800000
-6.72355000 7.51656000 12.74140000
-6.45371000 7.52244000 12.85910000
-6.70017000 7.25410000 12.65200000
-6.43338000 7.26077000 12.77020000
-6.16511000 7.26253000 12.88460000
-6.41114000 6.99949000 12.67880000
-6.14701000 7.00094000 12.79250000
-5.88012000 6.99725000 12.90400000
-6.12412000 6.73974000 12.69540000
-5.86415000 6.73503000 12.81210000
-5.59855000 6.72835000 12.91890000
-5.83877000 6.47836000 12.70530000
-5.58215000 6.46825000 12.82170000
-5.31179000 6.46164000 12.91150000
-5.55841000 6.21330000 12.71340000
-5.29332000 6.20419000 12.80540000
-5.02315000 6.19446000 12.88520000
-5.27216000 5.94752000 12.69980000
-5.00403000 5.93889000 12.77940000
-4.73223000 5.93265000 12.84710000
-4.98051000 5.68860000 12.66640000
-4.70901000 5.68266000 12.73330000
-4.43685000 5.67666000 12.79730000
-4.68361000 5.43673000 12.61700000
-4.41212000 5.43043000 12.68210000
-4.14014000 5.42153000 12.74650000
-4.38744000 5.18581000 12.56680000
-4.11716000 5.17897000 12.63190000
-3.84299000 5.16988000 12.69250000
-4.09116000 4.93611000 12.51620000
-3.81994000 4.93057000 12.57700000
-3.54511000 4.92384000 12.63510000
-3.79445000 4.69073000 12.46090000
-3.52221000 4.68806000 12.51700000
-3.24647000 4.68431000 12.57080000
-3.49727000 4.44912000 12.40230000
-3.22518000 4.45093000 12.45230000
-2.94822000 4.45323000 12.49520000
-3.20070000 4.21441000 12.33600000
-2.92701000 4.21878000 12.37970000
-2.65045000 4.22397000 12.41760000
-2.90516000 3.98459000 12.26380000
-2.63155000 3.99102000 12.30180000
-2.35545000 3.99620000 12.33750000
-2.61210000 3.75854000 12.18460000
-2.33966000 3.76392000 12.22120000
-2.06575000 3.76860000 12.25500000
-2.32334000 3.53663000 12.09590000
-2.05220000 3.54054000 12.12970000
-1.78325000 3.53780000 12.16610000
-2.04105000 3.31715000 11.99410000
-1.77530000 3.31360000 12.03030000
-1.51008000 3.30920000 12.06130000
-1.76393000 3.09628000 11.88410000
-1.50462000 3.09330000 11.90840000
-1.24385000 3.08484000 11.93220000
-1.49504000 2.89130000 11.73710000
-1.24066000 2.87648000 11.77010000
-0.98411700 2.85968000 11.79510000
-1.23658000 2.66339000 11.61100000
-0.98372200 2.65100000 11.63180000
-0.73127600 2.63866000 11.64390000
-0.98146600 2.45507000 11.45230000
-0.73166200 2.43534000 11.47430000
-0.48072000 2.41814000 11.48920000
-0.73154200 2.23605000 11.30040000
-0.48394400 2.21745000 11.31900000
-0.23494200 2.19326000 11.33650000
-0.48721800 2.00962000 11.15730000
-0.24225200 1.99916000 11.15920000
0.00256200 1.98227000 11.16660000
-0.24961100 1.78380000 11.00740000
-0.00901400 1.76059000 11.02200000
0.23434100 1.75352000 11.01040000
-0.01806400 1.56522000 10.84290000
0.22142700 1.55539000 10.83570000
0.46044200 1.54606000 10.82520000
0.20845900 1.35044000 10.66940000
0.44552200 1.33784000 10.66420000
0.68115300 1.32864000 10.64930000
0.42884600 1.13001000 10.50100000
0.66199200 1.12286000 10.48430000
0.89264600 1.12293000 10.45240000
0.64249900 0.92236300 10.31230000
0.86900800 0.92144300 10.28060000
1.09528000 0.91651700 10.25080000
0.84854200 0.71801500 10.11320000
1.06941000 0.72392900 10.07050000
1.28958000 0.72030300 10.03540000
1.04627000 0.52643600 9.89819000
1.26325000 0.52759200 9.85837000
1.47713000 0.52492200 9.81847000
1.23475000 0.33190000 9.68960000
1.44779000 0.32881900 9.64943000
1.65767000 0.32893800 9.60265000
1.41609000 0.14759800 9.47557000
1.62354000 0.15175700 9.42438000
1.83174000 0.14680800 9.38761000
1.59147000 -0.02378500 9.27976000
1.79433000 -0.02400200 9.23137000
1.99772000 -0.02199700 9.18316000
1.75825000 -0.17225500 9.08499000
1.96092000 -0.17685200 9.04073000
2.16244000 -0.17100600 8.99018000
1.92192000 -0.30944500 8.88659000
2.12160000 -0.30452900 8.83595000
2.31951000 -0.29717600 8.78275000
2.07413000 -0.37738700 8.66412000
2.27137000 -0.37718000 8.61293000
2.46870000 -0.37559300 8.56349000
2.21763000 -0.39744600 8.43897000
2.41262000 -0.39670200 8.38798000
2.60685000 -0.39663300 8.33694000
2.36096000 -0.42591400 8.21874000
2.55250000 -0.42599500 8.16571000
2.74107000 -0.42803500 8.11132000
2.50854000 -0.51656900 8.02761000
2.69590000 -0.52223700 7.97406000
2.87986000 -0.52777300 7.91663000
2.67789000 -0.68877700 7.93759000
2.86168000 -0.69229300 7.87834000
3.04443000 -0.69473600 7.81564000
2.85421000 -0.86811000 7.86822000
3.03520000 -0.86665600 7.80005000
3.21232000 -0.86637800 7.72532000
3.02889000 -1.03642000 7.78942000
3.20610000 -1.03792000 7.71456000
3.38353000 -1.04162000 7.63960000
3.20458000 -1.19811000 7.70849000
3.38354000 -1.19600000 7.63462000
3.55662000 -1.19885000 7.55087000
3.38486000 -1.34323000 7.62963000
3.55676000 -1.35180000 7.54442000
3.72641000 -1.35825000 7.45404000
3.55758000 -1.49825000 7.53673000
3.72548000 -1.50578000 7.44393000
3.89200000 -1.51900000 7.35030000
3.72498000 -1.64893000 7.43387000
3.89139000 -1.65688000 7.34048000
4.05799000 -1.65488000 7.24821000
3.88786000 -1.77752000 7.32515000
4.05532000 -1.77783000 7.23454000
4.21976000 -1.78485000 7.13983000
4.04987000 -1.89351000 7.21561000
4.21317000 -1.90140000 7.11922000
4.37181000 -1.90438000 7.01752000
4.20177000 -2.01262000 7.09318000
4.35988000 -2.01480000 6.99093000
4.51641000 -2.01923000 6.88586000
4.34631000 -2.12050000 6.96145000
4.49838000 -2.12100000 6.85339000
4.64915000 -2.12390000 6.74478000
4.46897000 -2.20694000 6.80386000
4.61842000 -2.20837000 6.69466000
4.76346000 -2.20425000 6.58106000
4.57096000 -2.26103000 6.62261000
4.71536000 -2.26139000 6.51218000
4.85697000 -2.25833000 6.39992000
4.65772000 -2.27894000 6.42937000
4.79702000 -2.27404000 6.31716000
4.93312000 -2.26888000 6.20405000
4.74375000 -2.23646000 6.24220000
4.87584000 -2.23999000 6.12686000
5.00617000 -2.24462000 6.01052000
4.88771000 -2.13811000 6.13265000
5.01480000 -2.14525000 6.01259000
5.14215000 -2.14976000 5.90151000
5.03978000 -2.03007000 6.03966000
5.16610000 -2.03579000 5.92904000
5.29344000 -2.03984000 5.81986000
5.19700000 -1.91219000 5.95898000
5.31695000 -1.92209000 5.84772000
5.43648000 -1.93224000 5.73642000
5.34878000 -1.79435000 5.87919000
5.47041000 -1.80185000 5.76748000
5.59058000 -1.81156000 5.64836000
5.50081000 -1.66167000 5.78941000
5.62572000 -1.67995000 5.67195000
5.73997000 -1.70659000 5.54651000
5.65378000 -1.52980000 5.67151000
5.76855000 -1.56162000 5.53685000
5.87689000 -1.59476000 5.40308000
5.75743000 -1.40717000 5.49434000
5.84796000 -1.43686000 5.35167000
5.93043000 -1.45234000 5.21284000
5.75929000 -1.28607000 5.26159000
5.85420000 -1.29183000 5.13228000
5.94658000 -1.29755000 5.00174000
5.80594000 -1.10559000 5.07296000
5.91535000 -1.10250000 4.96105000
6.01880000 -1.10114000 4.84498000
5.85834000 -0.92616000 4.89911000
5.97070000 -0.91673100 4.79387000
6.08082000 -0.90724800 4.68835000
5.89591000 -0.75809700 4.72694000
6.00246000 -0.74624000 4.62255000
6.09051000 -0.73477100 4.51210000
5.90959000 -0.60730800 4.55059000
5.99317000 -0.59404300 4.44522000
5.81392000 -0.49731300 4.49260000
5.73278000 -0.50453100 4.59593000
5.62421000 -0.45728800 4.51275000
5.70305000 -0.43863000 4.42012000
5.81438000 -0.61675300 4.65825000
5.72140000 -0.62777900 4.76546000
5.65150000 -0.51214900 4.69910000
5.79181000 -0.76823500 4.83231000
5.68655000 -0.77801800 4.93818000
5.62840000 -0.63702800 4.87350000
5.74640000 -0.93354100 5.00656000
5.63677000 -0.93265400 5.12265000
5.58195000 -0.77114900 5.05707000
5.69740000 -1.10339000 5.18990000
5.59403000 -1.09702000 5.31254000
5.53281000 -0.92132200 5.23926000
5.67350000 -1.26218000 5.39986000
5.58636000 -1.23542000 5.53959000
5.50066000 -1.07634000 5.43942000
5.65843000 -1.37582000 5.63416000
5.54642000 -1.34337000 5.77933000
5.48735000 -1.19727000 5.68433000
5.52758000 -1.50756000 5.80033000
5.39809000 -1.48835000 5.92589000
5.40699000 -1.32581000 5.89941000
5.37557000 -1.64432000 5.90455000
5.24846000 -1.63626000 6.01130000
5.26856000 -1.49390000 6.03164000
5.22649000 -1.78658000 5.98931000
5.09369000 -1.78968000 6.09435000
5.11924000 -1.64668000 6.11760000
5.06926000 -1.90799000 6.06870000
4.92973000 -1.91653000 6.17104000
4.95408000 -1.80000000 6.19686000
4.90513000 -2.03180000 6.14638000
4.76462000 -2.03519000 6.25350000
4.78971000 -1.92253000 6.27573000
4.74732000 -2.14145000 6.23970000
4.60348000 -2.14841000 6.34299000
4.62384000 -2.03891000 6.36044000
4.60218000 -2.24942000 6.34962000
4.46248000 -2.25793000 6.45901000
4.45423000 -2.16279000 6.44228000
4.51570000 -2.28113000 6.54040000
4.37375000 -2.28340000 6.65164000
4.31975000 -2.26943000 6.56896000
4.42449000 -2.25626000 6.73211000
4.27850000 -2.26733000 6.84557000
4.22922000 -2.29162000 6.76382000
4.32023000 -2.21044000 6.91622000
4.16933000 -2.21082000 7.02492000
4.13060000 -2.27447000 6.95658000
4.18773000 -2.11685000 7.06287000
4.02791000 -2.11090000 7.16179000
4.00796000 -2.20146000 7.12003000
4.04330000 -2.01003000 7.19502000
3.87916000 -2.00875000 7.29077000
3.86880000 -2.11107000 7.26305000
3.88365000 -1.89640000 7.30845000
3.72025000 -1.89621000 7.40550000
3.71574000 -2.00789000 7.38773000
3.72357000 -1.78037000 7.42156000
3.55243000 -1.76322000 7.50657000
3.54991000 -1.88361000 7.49149000
3.55668000 -1.64196000 7.52543000
3.38816000 -1.63223000 7.61728000
3.38142000 -1.75991000 7.59325000
3.38611000 -1.49117000 7.62437000
3.21060000 -1.48667000 7.70342000
3.21250000 -1.62321000 7.69642000
3.20795000 -1.34388000 7.70725000
3.02882000 -1.33932000 7.77789000
3.03236000 -1.48050000 7.77496000
3.02527000 -1.19813000 7.78082000
2.84507000 -1.20238000 7.85274000
2.84641000 -1.34261000 7.84531000
2.84923000 -1.04045000 7.86197000
2.66945000 -1.03749000 7.93128000
2.66548000 -1.20661000 7.92579000
2.67364000 -0.86330100 7.93535000
2.49001000 -0.85995400 7.99649000
2.48771000 -1.03497000 7.99744000
2.49232000 -0.68453700 7.99162000
2.30745000 -0.68054400 8.04731000
2.30508000 -0.85651800 8.05007000
2.31838000 -0.51344700 8.07900000
2.12826000 -0.51382300 8.13391000
2.11771000 -0.68183000 8.10258000
2.16776000 -0.42440700 8.27065000
1.97396000 -0.42330100 8.32180000
1.93789000 -0.51908200 8.19340000
2.02205000 -0.39832200 8.49010000
1.82705000 -0.39772400 8.54124000
1.77967000 -0.42390200 8.37033000
1.87592000 -0.38155100 8.71565000
1.67867000 -0.38445200 8.76574000
1.63216000 -0.39776400 8.58799000
1.72157000 -0.30968000 8.93458000
1.52148000 -0.31192800 8.98503000
1.48224000 -0.38325900 8.81101000
1.55935000 -0.18025400 9.14047000
1.35609000 -0.17600600 9.18361000
1.32147000 -0.30424200 9.02525000
1.38682000 -0.02368200 9.32628000
1.17933000 -0.01822200 9.36771000
1.15133000 -0.17072500 9.22037000
1.20691000 0.15254900 9.51740000
0.99657600 0.15681000 9.55556000
0.97051800 -0.00892300 9.40349000
1.02166000 0.33837800 9.72388000
0.80522100 0.34186200 9.75644000
0.78457000 0.15975800 9.58993000
0.82667800 0.52618000 9.93573000
0.60889800 0.53292000 9.96012000
0.59122600 0.34389100 9.78666000
0.62416100 0.72617700 10.13480000
0.40099300 0.72903900 10.15990000
0.38802500 0.53825800 9.98358000
0.41550900 0.93013700 10.32970000
0.18494000 0.93973700 10.34060000
0.17600800 0.73645700 10.17460000
0.19687700 1.14181000 10.50860000
-0.03585700 1.15257000 10.51570000
-0.04219800 0.94929500 10.34920000
-0.02705200 1.36361000 10.67250000
-0.26261900 1.37039000 10.67880000
-0.26715700 1.16204000 10.51650000
-0.25582000 1.58086000 10.83790000
-0.49339600 1.59392000 10.83270000
-0.49735100 1.38017000 10.67690000
-0.49058000 1.80490000 10.99130000
-0.73202800 1.81090000 10.98890000
-0.73211100 1.59731000 10.83360000
-0.73241500 2.02207000 11.14550000
-0.97664600 2.03426000 11.12980000
-0.97320900 1.81810000 10.97830000
-0.97891200 2.24395000 11.29180000
-1.22615000 2.24556000 11.28300000
-1.22084000 2.03549000 11.12190000
-1.23153000 2.45636000 11.44440000
-1.48019000 2.46503000 11.41840000
-1.47267000 2.25105000 11.26110000
-1.48791000 2.67679000 11.58010000
-1.74070000 2.67713000 11.55770000
-1.72864000 2.46974000 11.39160000
-1.75095000 2.89139000 11.71440000
-2.00751000 2.88772000 11.69230000
-1.99366000 2.67308000 11.53570000
-2.02380000 3.10232000 11.84360000
-2.28520000 3.10015000 11.80900000
-2.26410000 2.88678000 11.65610000
-2.30401000 3.31566000 11.95790000
-2.56916000 3.31146000 11.91670000
-2.54408000 3.09886000 11.76510000
-2.59194000 3.53155000 12.05740000
-2.85616000 3.52871000 12.00740000
-2.82970000 3.31227000 11.86140000
-2.88163000 3.75342000 12.14150000
-3.14879000 3.74900000 12.09180000
-3.12028000 3.52635000 11.95350000
-3.17631000 3.97953000 12.21870000
-3.44267000 3.97765000 12.16250000
-3.41299000 3.74736000 12.03370000
-3.47177000 4.21207000 12.28590000
-3.73706000 4.21154000 12.22560000
-3.70653000 3.97580000 12.10220000
-3.76627000 4.45064000 12.34420000
-4.03066000 4.45291000 12.27930000
-3.99895000 4.21336000 12.15830000
-4.06198000 4.69338000 12.39970000
-4.32703000 4.69577000 12.33430000
-4.29295000 4.45345000 12.21390000
-4.35718000 4.93874000 12.45160000
-4.62282000 4.94258000 12.38430000
-4.58825000 4.69648000 12.26570000
-4.65265000 5.19008000 12.49770000
-4.91466000 5.19558000 12.42040000
-4.88225000 4.94373000 12.30880000
-4.94879000 5.44310000 12.54150000
-5.20899000 5.44785000 12.45950000
-5.17379000 5.19839000 12.33990000
-5.24646000 5.69307000 12.58990000
-5.49951000 5.70479000 12.48530000
-5.46403000 5.45269000 12.36690000
-5.53099000 5.95892000 12.60120000
-5.78149000 5.96561000 12.48430000
-5.74649000 5.71368000 12.36590000
-5.81704000 6.21720000 12.60580000
-6.07320000 6.21740000 12.49330000
-6.03388000 5.96876000 12.36900000
-6.09616000 6.48065000 12.58880000
-6.35761000 6.47756000 12.48140000
-6.32733000 6.21753000 12.37830000
-6.38440000 6.73873000 12.58050000
-6.63700000 6.73903000 12.44710000
-6.59937000 6.48514000 12.33540000
-6.67175000 6.99386000 12.55540000
-6.93145000 6.98593000 12.42760000
-6.89341000 6.72975000 12.32050000
-6.96463000 7.24301000 12.52940000
-7.22669000 7.23077000 12.40140000
-7.18579000 6.97581000 12.29100000
-7.24960000 7.49695000 12.48330000
-7.49909000 7.49134000 12.32670000
-7.46138000 7.23318000 12.22870000
-7.51308000 7.76328000 12.39100000
-7.77083000 7.75324000 12.24580000
-7.74536000 7.48671000 12.16740000
-7.79237000 8.02120000 12.31950000
-8.04859000 8.01175000 12.16980000
-8.01753000 7.74873000 12.08460000
-8.08707000 8.27018000 12.26450000
-8.32028000 8.27526000 12.07440000
-8.28999000 8.01235000 11.99640000
-8.34892000 8.53904000 12.14580000
-8.60061000 8.53643000 11.97470000
-8.56988000 8.27296000 11.90520000
-8.64204000 8.79400000 12.05510000
-8.89310000 8.79294000 11.87900000
-8.84905000 8.53632000 11.79970000
-8.92289000 9.05757000 11.93480000
-9.17614000 9.05785000 11.75900000
-9.14148000 8.79483000 11.69900000
-9.21179000 9.32104000 11.81630000
-9.45078000 9.32970000 11.62010000
-9.41214000 9.06757000 11.56130000
-9.48491000 9.59281000 11.67220000
-9.72022000 9.60012000 11.46470000
-9.68333000 9.33837000 11.41510000
-9.75995000 9.86007000 11.51680000
-9.99738000 9.86566000 11.30810000
-9.96034000 9.60441000 11.26150000
-10.03930000 10.12420000 11.35690000
-10.27360000 10.12800000 11.13830000
-10.22940000 9.87166000 11.09020000
-10.31770000 10.38630000 11.18470000
-10.54370000 10.39460000 10.95970000
-10.50570000 10.13390000 10.91720000
-10.56810000 10.66040000 10.99320000
-10.79640000 10.67190000 10.77460000
-10.76220000 10.40780000 10.73060000
-10.82920000 10.93760000 10.81850000
-11.04430000 10.95370000 10.58950000
-11.01340000 10.68730000 10.54680000
-11.07670000 11.22070000 10.63430000
-11.29010000 11.23770000 10.40500000
-11.25780000 10.97030000 10.35990000
-11.32260000 11.50540000 10.45040000
-11.53170000 11.52260000 10.21700000
-11.50020000 11.25430000 10.17250000
-11.53980000 11.79490000 10.24100000
-11.72960000 11.81400000 9.99224000
-11.72520000 11.54120000 9.97024000
-11.73950000 12.08580000 10.01630000
-11.92760000 12.10460000 9.76559000
-11.92420000 11.83170000 9.74600000
-11.94870000 12.37390000 9.79702000
-12.13510000 12.39260000 9.54502000
-12.12470000 12.12150000 9.52074000
-12.13190000 12.66410000 9.55909000
-12.32350000 12.68210000 9.30997000
-12.32760000 12.41040000 9.29572000
-12.31270000 12.95330000 9.31825000
-12.50080000 12.97120000 9.06483000
-12.51310000 12.70050000 9.05797000
-12.51190000 13.23850000 9.08799000
-12.69730000 13.25640000 8.82973000
-12.68580000 12.98920000 8.80729000
-12.77300000 13.50440000 8.89676000
-12.96390000 13.51750000 8.63511000
-12.88780000 13.27080000 8.57271000
-12.94580000 13.77570000 8.62507000
-13.11910000 13.79200000 8.35033000
-13.14200000 13.53360000 8.35974000
-13.02480000 14.02940000 8.29997000
-13.18260000 14.04460000 8.01814000
-13.27270000 13.80660000 8.05982000
-13.13730000 14.30370000 8.00697000
-13.27860000 14.32570000 7.72233000
-13.32780000 14.06740000 7.73238000
-13.23540000 14.58620000 7.71869000
-13.39890000 14.61690000 7.44663000
-13.44100000 14.35800000 7.44809000
-13.35040000 14.87650000 7.44304000
-13.49280000 14.90340000 7.16074000
-13.54290000 14.64740000 7.15930000
-13.43890000 15.16140000 7.15876000
-13.57210000 15.18730000 6.87348000
-13.62350000 14.93350000 6.86752000
-13.52550000 15.44500000 6.87906000
-13.64330000 15.46940000 6.58601000
-13.68770000 15.21530000 6.57352000
-13.60160000 15.72670000 6.59801000
-13.71390000 15.75070000 6.30583000
-13.75900000 15.49690000 6.28995000
-13.67110000 16.00700000 6.32363000
-13.77840000 16.02970000 6.03350000
-13.82670000 15.77700000 6.01238000
-13.73850000 16.28830000 6.05620000
-13.82610000 16.30720000 5.76802000
-13.87330000 16.05370000 5.74034000
-13.77280000 16.56580000 5.79186000
-13.84980000 16.58250000 5.51068000
-13.90750000 16.32820000 5.48109000
-13.79560000 16.84270000 5.53690000
-13.87870000 16.85920000 5.27191000
-13.93090000 16.60190000 5.24283000
-13.82310000 17.12100000 5.28511000
-13.89720000 17.13460000 5.03332000
-13.94240000 16.87560000 5.01300000
-13.84990000 17.39530000 5.03917000
-13.93140000 17.40810000 4.81412000
-13.96320000 17.15200000 4.80571000
-13.91960000 17.67650000 4.78605000
-14.02060000 17.64870000 4.59383000
-14.03050000 17.41120000 4.60725000
-14.14240000 17.90150000 4.54912000
-14.25700000 17.85940000 4.35743000
-14.17870000 17.62690000 4.41559000
-14.33600000 18.07320000 4.29071000
-14.39950000 17.80970000 4.23691000
-14.55500000 17.76900000 4.17781000
-14.56150000 17.57480000 4.23015000
-14.36730000 17.59830000 4.28996000
-14.57270000 17.37230000 4.22891000
-14.36280000 17.38940000 4.28705000
-14.17720000 17.40630000 4.41968000
-14.36600000 17.18540000 4.27945000
-14.17980000 17.18400000 4.42367000
-14.05250000 17.17640000 4.60566000
-14.21470000 16.96920000 4.38191000
-14.09120000 16.94530000 4.57170000
-13.99280000 16.90370000 4.77493000
-14.13880000 16.71190000 4.53626000
-14.05140000 16.66310000 4.74130000
-13.99840000 16.62740000 4.97965000
-14.11770000 16.43280000 4.69326000
-14.05800000 16.38460000 4.92882000
-13.99690000 16.35600000 5.20289000
-14.12130000 16.15300000 4.87389000
-14.05120000 16.11130000 5.15940000
-13.95990000 16.07930000 5.44533000
-14.11250000 15.87670000 5.10658000
-14.02600000 15.83800000 5.41140000
-13.93100000 15.80660000 5.71251000
-14.07160000 15.59790000 5.36719000
-13.98020000 15.56170000 5.68328000
-13.87160000 15.52730000 5.98909000
-14.02130000 15.31790000 5.65136000
-13.91550000 15.27860000 5.96574000
-13.80240000 15.24530000 6.27191000
-13.96030000 15.03180000 5.94708000
-13.85320000 14.99690000 6.25858000
-13.74450000 14.96350000 6.56841000
-13.90390000 14.74710000 6.25093000
-13.79290000 14.71180000 6.56123000
-13.67530000 14.67890000 6.86487000
-13.81640000 14.45660000 6.54694000
-13.70120000 14.42140000 6.85518000
-13.58020000 14.38900000 7.15729000
-13.75200000 14.16870000 6.85889000
-13.62600000 14.13200000 7.16136000
-13.47930000 14.09840000 7.44879000
-13.71730000 13.89610000 7.18906000
-13.57910000 13.86270000 7.48672000
-13.43270000 13.83220000 7.77624000
-13.64090000 13.61240000 7.50842000
-13.47220000 13.58030000 7.79140000
-13.30340000 13.55640000 8.07426000
-13.41970000 13.33490000 7.74876000
-13.24400000 13.30900000 8.02888000
-13.06640000 13.29010000 8.30224000
-13.22650000 13.05020000 8.00529000
-13.05520000 13.02780000 8.28199000
-12.87470000 13.00790000 8.55000000
-13.05860000 12.76120000 8.27001000
-12.88130000 12.73950000 8.53870000
-12.69840000 12.71970000 8.80060000
-12.88180000 12.47000000 8.52285000
-12.69920000 12.44890000 8.78466000
-12.51640000 12.42860000 9.04330000
-12.69710000 12.17700000 8.76582000
-12.51520000 12.15660000 9.02495000
-12.32150000 12.13870000 9.27441000
-12.50660000 11.88470000 9.00131000
-12.31450000 11.86640000 9.25188000
-12.11860000 11.84890000 9.49876000
-12.30960000 11.59280000 9.23009000
-12.10640000 11.57690000 9.47127000
-11.91080000 11.55980000 9.71725000
-12.08870000 11.30550000 9.43757000
-11.89690000 11.28810000 9.68663000
-11.69990000 11.27140000 9.93099000
-11.87050000 11.01860000 9.64542000
-11.67220000 11.00230000 9.88911000
-11.46570000 10.98710000 10.12530000
-11.64270000 10.73430000 9.84572000
-11.43180000 10.72050000 10.07860000
-11.22620000 10.70350000 10.31570000
-11.39980000 10.45380000 10.03430000
-11.19350000 10.43760000 10.27170000
-10.97890000 10.42250000 10.50150000
-11.15730000 10.17320000 10.22640000
-10.93740000 10.16030000 10.45200000
-10.73060000 10.14360000 10.69040000
-10.89960000 9.89805000 10.40920000
-10.68190000 9.88634000 10.63990000
-10.45540000 9.87824000 10.86470000
-10.64360000 9.62649000 10.59860000
-10.41930000 9.61776000 10.82500000
-10.18700000 9.61327000 11.04190000
-10.37000000 9.36243000 10.77020000
-10.14350000 9.35434000 10.99020000
-9.91533000 9.34580000 11.20570000
-10.09590000 9.09713000 10.93010000
-9.86912000 9.08773000 11.14530000
-9.64709000 9.07529000 11.36160000
-9.82265000 8.82984000 11.07950000
-9.59883000 8.81780000 11.29190000
-9.37614000 8.80404000 11.50300000
-9.55796000 8.55797000 11.22570000
-9.34170000 8.54097000 11.44190000
-9.10171000 8.53506000 11.62880000
-9.28498000 8.28950000 11.34990000
-9.05304000 8.28040000 11.54220000
-8.81895000 8.27222000 11.73460000
-9.01768000 8.01920000 11.46750000
-8.78219000 8.01212000 11.65490000
-8.53469000 8.01278000 11.82460000
-8.73995000 7.75486000 11.56720000
-8.49774000 7.75273000 11.74010000
-8.25789000 7.74992000 11.91370000
-8.46652000 7.48933000 11.66140000
-8.22813000 7.48544000 11.83380000
-7.99657000 7.47929000 12.01400000
-8.18426000 7.22989000 11.73400000
-7.94853000 7.22687000 11.90620000
-7.71362000 7.22368000 12.07990000
-7.90830000 6.96980000 11.80710000
-7.66602000 6.97265000 11.96830000
-7.42850000 6.97336000 12.13360000
-7.62628000 6.71617000 11.86720000
-7.39311000 6.71282000 12.03680000
-7.14635000 6.71936000 12.18500000
-7.34201000 6.46846000 11.91350000
-7.09744000 6.47340000 12.06170000
-6.85345000 6.47575000 12.20830000
-7.06288000 6.21500000 11.96180000
-6.81319000 6.22249000 12.09560000
-6.56740000 6.22489000 12.23240000
-6.77999000 5.96405000 11.99490000
-6.53370000 5.96726000 12.12880000
-6.28676000 5.96672000 12.25560000
-6.49096000 5.71845000 12.00680000
-6.24687000 5.71646000 12.13600000
-5.99643000 5.71705000 12.25070000
-6.20850000 5.46377000 12.02210000
-5.95754000 5.46568000 12.13270000
-5.71101000 5.46117000 12.25090000
-5.91725000 5.21660000 12.01410000
-5.67003000 5.21336000 12.12860000
-5.42616000 5.20254000 12.24420000
-5.62898000 4.96622000 12.00740000
-5.38706000 4.95341000 12.12510000
-5.13818000 4.94647000 12.22460000
-5.34465000 4.70969000 11.99870000
-5.09743000 4.70157000 12.09930000
-4.84553000 4.69652000 12.18890000
-5.05561000 4.46042000 11.97070000
-4.80528000 4.45692000 12.06060000
-4.55153000 4.45282000 12.14370000
-4.76181000 4.22211000 11.92440000
-4.51117000 4.21660000 12.01050000
-4.25728000 4.21347000 12.08910000
-4.46707000 3.99030000 11.86470000
-4.21663000 3.98441000 11.94850000
-3.96282000 3.98091000 12.02550000
-4.17667000 3.75717000 11.80690000
-3.92257000 3.76020000 11.87650000
-3.66971000 3.75148000 11.95980000
-3.88594000 3.53260000 11.73910000
-3.63398000 3.52734000 11.81910000
-3.37894000 3.52567000 11.88970000
-3.59892000 3.30814000 11.67240000
-3.34589000 3.30913000 11.74130000
-3.08829000 3.31087000 11.80210000
-3.31147000 3.09401000 11.58980000
-3.05636000 3.10191000 11.64540000
-2.80092000 3.10104000 11.70660000
-3.02358000 2.89484000 11.48610000
-2.77189000 2.89299000 11.54870000
-2.52006000 2.88699000 11.61120000
-2.74638000 2.68248000 11.39480000
-2.49597000 2.67617000 11.45680000
-2.24376000 2.68262000 11.49130000
-2.47415000 2.46994000 11.29460000
-2.22384000 2.48432000 11.31710000
-1.97855000 2.46890000 11.36690000
-2.20606000 2.27650000 11.15400000
-1.96356000 2.26865000 11.19350000
-1.71772000 2.25919000 11.23130000
-1.94706000 2.06175000 11.02810000
-1.70592000 2.05404000 11.06570000
-1.46274000 2.04289000 11.10000000
-1.69170000 1.83624000 10.91540000
-1.45434000 1.83253000 10.94170000
