-6.86671000 -1.20974000 -7.04978000
-6.28425000 -1.22970000 -7.51671000
-6.71401000 -0.71331600 -6.92435000
-6.14896000 -0.72947300 -7.38474000
-5.54421000 -0.73941400 -7.80514000
-5.97410000 -0.26941100 -7.19165000
-5.38518000 -0.27914600 -7.59543000
-4.75409000 -0.28762500 -7.94316000
-5.20503000 0.14461200 -7.34485000
-4.59741000 0.13675700 -7.67308000
-3.95869000 0.12697400 -7.93811000
-4.42992000 0.52297500 -7.36002000
-3.82366000 0.51687100 -7.60874000
-3.19656000 0.51019100 -7.80499000
-3.68312000 0.88875900 -7.25835000
-3.08952000 0.87911500 -7.44329000
-2.48076000 0.86699000 -7.58283000
-3.08952000 0.87911500 -7.44329000
-3.00581000 1.31792000 -7.15984000
-2.42697000 1.29467000 -7.29674000
-2.48076000 0.86699000 -7.58283000
-1.83733000 1.29332000 -7.36913000
-1.86139000 0.85544600 -7.65657000
5.33146000 1.23857000 -1.45142000
5.36927000 1.26822000 -0.87868500
5.62328000 0.79666800 -0.88922400
5.59823000 0.77932000 -1.48808000
5.35740000 1.30607000 -0.30597200
5.60109000 0.82376000 -0.29230000
5.62328000 0.79666800 -0.88922400
5.60109000 0.82376000 -0.29230000
5.97935000 0.43707400 -0.27449900
5.51660000 0.84635300 0.29879300
5.89449000 0.45343200 0.34980500
6.28591000 0.07160190 0.40310400
5.75809000 0.47008100 0.96164300
6.15330000 0.09213050 1.05073000
6.51459000 -0.31872900 1.13283000
5.96108000 0.11379200 1.67945000
6.32002000 -0.29846300 1.79483000
6.61791000 -0.75778400 1.89572000
6.07312000 -0.27530900 2.43423000
6.36717000 -0.73505500 2.56676000
6.56831000 -1.24679000 2.66669000
6.82939000 -1.26490000 1.97281000
6.70857000 -1.77795000 2.74829000
6.97298000 -1.79145000 2.03336000
6.75462000 -2.32661000 2.79446000
7.03705000 -2.33347000 2.07519000
6.71238000 -2.87547000 2.80481000
6.98257000 -2.87914000 2.07698000
6.59303000 -3.40922000 2.78460000
6.87310000 -3.41334000 2.06181000
6.40868000 -3.91884000 2.73989000
6.25311000 -3.40410000 3.47560000
6.07226000 -3.91540000 3.42416000
5.82725000 -4.39058000 3.34102000
5.67881000 -3.91684000 4.07468000
5.43163000 -4.38770000 3.97293000
5.11513000 -4.79555000 3.82184000
4.97039000 -4.38852000 4.55484000
4.66282000 -4.78829000 4.37240000
5.22096000 -3.92285000 4.67735000
5.86891000 -3.40690000 4.13867000
5.41759000 -3.41077000 4.75046000
5.99065000 -2.86640000 4.16116000
5.55762000 -2.86728000 4.78272000
5.07205000 -2.86953000 5.34619000
5.61344000 -2.30379000 4.75781000
5.14418000 -2.29849000 5.32613000
4.64073000 -2.29098000 5.83863000
5.12489000 -1.72992000 5.23890000
4.62482000 -1.71579000 5.74363000
4.10017000 -1.69469000 6.19611000
4.11272000 -2.27438000 6.29183000
3.55455000 -1.66169000 6.60229000
3.57096000 -2.24023000 6.69844000
2.98123000 -1.61699000 6.96550000
3.00020000 -2.18691000 7.06026000
2.36763000 -1.56816000 7.27464000
2.39021000 -2.12156000 7.37946000
1.72412000 -1.51380000 7.54853000
1.74092000 -2.05205000 7.65618000
1.69472000 -2.59519000 7.65614000
1.74092000 -2.05205000 7.65618000
1.06200000 -1.99107000 7.88691000
1.69472000 -2.59519000 7.65614000
1.72412000 -1.51380000 7.54853000
1.05074000 -1.46337000 7.77269000
0.35599800 -1.42041000 7.94811000
0.36405900 -1.94489000 8.06287000
-0.35664400 -1.38423000 8.07342000
-0.34753000 -1.90754000 8.19327000
-1.09318000 -1.35538000 8.12802000
-1.08727000 -1.87158000 8.26049000
-1.85209000 -1.32773000 8.12495000
-1.85639000 -1.83913000 8.25284000
-2.62215000 -1.31505000 8.04443000
-2.63696000 -1.82044000 8.17325000
-2.64064000 -2.34258000 8.13434000
-3.41837000 -1.81744000 8.03439000
-3.42294000 -2.33590000 7.99852000
-4.19270000 -1.81982000 7.81919000
-4.19967000 -2.33587000 7.78950000
-4.94701000 -1.81547000 7.52404000
-4.95399000 -2.33137000 7.49196000
-5.66589000 -1.80736000 7.14754000
-5.66606000 -2.32229000 7.10632000
-6.34198000 -1.80579000 6.70242000
-6.34848000 -2.32520000 6.67247000
-6.96549000 -1.81473000 6.20028000
-6.97880000 -2.33820000 6.16976000
-7.53631000 -1.82259000 5.65759000
-7.55490000 -2.35039000 5.61880000
-8.05540000 -1.82813000 5.07956000
-7.43368000 -1.30303000 5.62209000
-7.95174000 -1.30383000 5.06270000
-8.41072000 -1.30747000 4.46519000
-7.76972000 -0.81114300 4.97565000
-8.22957000 -0.80978100 4.40060000
-8.62597000 -0.81045300 3.79449000
-8.80766000 -1.31134000 3.84183000
-8.95857000 -0.81108800 3.16737000
-9.13868000 -1.31336000 3.20187000
-9.22948000 -0.81233800 2.52541000
-9.41108000 -1.31180000 2.55288000
-9.45221000 -0.80790900 1.87586000
-9.62563000 -1.30580000 1.89681000
-9.60621000 -0.80736300 1.20908000
-9.77965000 -1.29449000 1.22745000
-9.71138000 -0.80731400 0.52737000
-9.88150000 -1.28319000 0.54020500
-9.76417000 -0.81201900 -0.16732200
-9.93018000 -1.28036000 -0.16374600
-10.00000000 -1.76719000 -0.15992300
-9.99107000 -1.77138000 -0.87386300
-9.92172000 -1.29056000 -0.87568600
-9.98876000 -2.24965000 -0.86530100
-9.92768000 -1.80180000 -1.58463000
-9.92480000 -2.28232000 -1.56807000
-9.86320000 -1.31785000 -1.58525000
-9.92768000 -1.80180000 -1.58463000
-9.86320000 -1.31785000 -1.58525000
-9.75111000 -1.36396000 -2.28198000
-9.71087000 -0.84721400 -1.56802000
-9.60319000 -0.88481900 -2.25655000
-9.43860000 -0.93393900 -2.92606000
-9.58702000 -1.42246000 -2.95681000
-9.23931000 -0.98085400 -3.58129000
-9.37695000 -1.48412000 -3.60976000
-8.98018000 -1.03136000 -4.21411000
-9.11195000 -1.54420000 -4.24081000
-8.79899000 -1.59541000 -4.85799000
-8.66936000 -1.07613000 -4.82886000
-8.30512000 -1.11669000 -5.42533000
-8.42488000 -1.64080000 -5.45539000
-7.87931000 -1.15457000 -5.99630000
-8.10312000 -0.63415600 -5.32504000
-7.68950000 -0.66959700 -5.88454000
-7.23025000 -0.69222500 -6.42348000
-7.46634000 -0.21446500 -5.73876000
-7.02205000 -0.23368600 -6.26241000
-6.52368000 -0.25222400 -6.74931000
-6.79245000 0.19869400 -6.07856000
-6.30884000 0.18079800 -6.54528000
-5.77952000 0.16386600 -6.97010000
-6.06456000 0.56834700 -6.29950000
-5.55541000 0.54812500 -6.69971000
-5.00953000 0.53271300 -7.05603000
-5.32570000 0.90593600 -6.41065000
-4.80694000 0.89699900 -6.74536000
-4.25676000 0.89188800 -7.02608000
-4.25676000 0.89188800 -7.02608000
-4.80694000 0.89699900 -6.74536000
-4.64586000 1.32416000 -6.49575000
-4.11874000 1.32818000 -6.75713000
-3.57153000 1.33005000 -6.98121000
-3.68312000 0.88875900 -7.25835000
5.29373000 1.34280000 0.26577000
5.18950000 1.38060000 0.83026700
5.39193000 0.87599900 0.88018300
5.51660000 0.84635300 0.29879300
5.03991000 1.44252000 1.37924000
5.21589000 0.91813400 1.44210000
5.39193000 0.87599900 0.88018300
5.21589000 0.91813400 1.44210000
5.57366000 0.50030400 1.55530000
4.99289000 0.96244900 1.98045000
5.33964000 0.53039500 2.12407000
5.71906000 0.13840600 2.28285000
5.06825000 0.56094300 2.66969000
5.43410000 0.16308900 2.86050000
5.77566000 -0.25434000 3.04399000
5.10840000 0.18404900 3.41139000
5.43999000 -0.23135900 3.62682000
6.06256000 -0.71569200 3.20729000
5.71117000 -0.69696100 3.81456000
5.90081000 -1.21083000 3.96412000
6.26237000 -1.22806000 3.33379000
6.01444000 -1.75255000 4.07726000
6.38874000 -1.76524000 3.43112000
6.04384000 -2.31013000 4.14332000
6.43038000 -2.31793000 3.48913000
6.38020000 -2.86991000 3.50145000
5.59393000 -1.74035000 4.68405000
5.49066000 -1.19471000 4.55555000
5.03883000 -1.17824000 5.10508000
5.31230000 -0.68071500 4.38458000
4.87493000 -0.66206500 4.91748000
4.39800000 -0.64105400 5.40334000
4.54763000 -1.15953000 5.60308000
3.89103000 -0.61499500 5.84254000
4.02823000 -1.13573000 6.05136000
3.35395000 -0.58803100 6.23334000
3.47902000 -1.10784000 6.44626000
2.78915000 -0.55844700 6.57825000
2.90628000 -1.07144000 6.80095000
2.19664000 -0.52785100 6.88025000
2.30361000 -1.03071000 7.11368000
1.57753000 -0.49764700 7.13600000
1.66857000 -0.99066600 7.37702000
1.57753000 -0.49764700 7.13600000
0.93080400 -0.47084300 7.34008000
1.00626000 -0.95046800 7.59397000
1.66857000 -0.99066600 7.37702000
0.26483700 -0.44684000 7.49864000
0.32161100 -0.91632200 7.76058000
-0.42054100 -0.42586300 7.60682000
-0.38259800 -0.88713300 7.87544000
-1.12307000 -0.40836700 7.65842000
-1.10663000 -0.86482400 7.92724000
-1.83736000 -0.39669300 7.64546000
-1.84729000 -0.84514800 7.91867000
-2.55759000 -0.39026500 7.57116000
-2.59748000 -0.83540500 7.84170000
-3.27201000 -0.39036300 7.43522000
-3.34299000 -0.83495200 7.70250000
-3.38845000 -1.31627000 7.89704000
-4.06870000 -0.83923300 7.49512000
-4.14331000 -1.31919000 7.68940000
-4.77058000 -0.83941700 7.21815000
-4.87551000 -1.31501000 7.40789000
-5.45209000 -0.83178200 6.87936000
-5.58194000 -1.30532000 7.05204000
-6.10271000 -0.81831300 6.48110000
-6.24908000 -1.29913000 6.62632000
-6.70607000 -0.81382000 6.02213000
-6.86743000 -1.30042000 6.14582000
-7.26091000 -0.81289300 5.51685000
-6.50327000 -0.36218200 5.84102000
-7.03886000 -0.36142800 5.35573000
-7.53628000 -0.35778000 4.83600000
-6.79695000 0.06289540 5.15935000
-7.27867000 0.06915650 4.66551000
-7.70849000 0.07182170 4.13410000
-7.98045000 -0.35846700 4.27831000
-8.08295000 0.07275130 3.57312000
-8.37237000 -0.35338300 3.69697000
-8.40936000 0.07558900 2.99105000
-8.70078000 -0.35328900 3.08975000
-8.68631000 0.07939840 2.39028000
-8.97308000 -0.35468500 2.46569000
-8.90139000 0.07442080 1.76999000
-9.19333000 -0.35385000 1.82873000
-9.06562000 0.06708560 1.13576000
-9.35427000 -0.35840400 1.17620000
-9.17480000 0.05383120 0.48925900
-9.45908000 -0.36821200 0.50916800
-9.23114000 0.03990500 -0.16709700
-9.51260000 -0.37858800 -0.16842800
-9.23987000 0.02760670 -0.82948600
-9.51516000 -0.39152600 -0.85154100
-9.76074000 -0.82496300 -0.86812800
-9.46354000 -0.41397100 -1.53272000
-9.71087000 -0.84721400 -1.56802000
-9.19098000 0.00719940 -1.49096000
-9.46354000 -0.41397100 -1.53272000
-9.19098000 0.00719940 -1.49096000
-9.09420000 -0.01910110 -2.14402000
-9.36213000 -0.44458200 -2.20533000
-8.94872000 -0.05066520 -2.78584000
-9.21065000 -0.48234000 -2.86436000
-8.75165000 -0.08572150 -3.41163000
-9.00479000 -0.52551700 -3.50488000
-8.51110000 -0.11762000 -4.02516000
-8.76006000 -0.56176700 -4.13152000
-8.21287000 -0.15229800 -4.61830000
-8.45846000 -0.59872800 -4.73839000
-7.86197000 -0.18653000 -5.18872000
-7.94919000 0.27084100 -4.48485000
-7.61211000 0.24290600 -5.04232000
-7.22662000 0.21791400 -5.57493000
-7.32366000 0.62633800 -4.86846000
-6.95249000 0.60736700 -5.37933000
-6.53001000 0.58500800 -5.85586000
-6.65878000 0.96188200 -5.16091000
-6.25442000 0.94599500 -5.61167000
-5.80935000 0.92329000 -6.02915000
-6.02586000 1.37042000 -5.41097000
-5.60280000 1.34408000 -5.81435000
-5.80935000 0.92329000 -6.02915000
-6.25442000 0.94599500 -5.61167000
-5.32570000 0.90593600 -6.41065000
-5.13810000 1.32359000 -6.17401000
4.84282000 1.50739000 1.90960000
4.61601000 1.56384000 2.42113000
4.73885000 1.00558000 2.49780000
4.99289000 0.96244900 1.98045000
4.34580000 1.60933000 2.90616000
4.44924000 1.04270000 2.98890000
4.73885000 1.00558000 2.49780000
4.44924000 1.04270000 2.98890000
4.74987000 0.57770500 3.18241000
4.12571000 1.07272000 3.45166000
4.40769000 0.60344900 3.67034000
4.74375000 0.20222500 3.92749000
4.03037000 0.62632200 4.12373000
4.34351000 0.22329700 4.40908000
4.63839000 -0.19316900 4.68363000
5.05680000 -0.21558100 4.17237000
3.90972000 0.24691800 4.85198000
4.18027000 -0.17229800 5.14841000
3.44420000 0.27047200 5.25465000
3.68866000 -0.15030100 5.56798000
2.94892000 0.29508700 5.61737000
3.17005000 -0.12479800 5.94663000
2.42666000 0.31565500 5.93747000
2.62318000 -0.10104300 6.27939000
1.88081000 0.33246600 6.21705000
2.05045000 -0.08060600 6.56773000
1.31185000 0.34992200 6.45746000
1.45405000 -0.05781680 6.81583000
1.31185000 0.34992200 6.45746000
0.72326500 0.36716800 6.65644000
0.83280000 -0.03791040 7.01572000
1.45405000 -0.05781680 6.81583000
0.11273800 0.37769200 6.80901000
0.19287500 -0.01998330 7.17161000
-0.51512400 0.38903700 6.91628000
-0.46546800 -0.00463248 7.27827000
-1.15595000 0.39695700 6.96700000
-1.13934000 0.00895694 7.33055000
-1.80618000 0.40443200 6.96443000
-1.82276000 0.01577960 7.31877000
-2.46008000 0.40881200 6.90301000
-2.51072000 0.02529770 7.25555000
-3.19159000 0.02450830 7.12425000
-3.10792000 0.41373400 6.78348000
-3.85814000 0.03171890 6.94260000
-3.74365000 0.42445500 6.61188000
-3.96821000 -0.38944200 7.24035000
-4.50479000 0.03306940 6.69745000
-4.64470000 -0.38746800 6.98238000
-5.12934000 0.03925380 6.39595000
-5.29688000 -0.38514900 6.65620000
-5.72105000 0.04776260 6.02953000
-5.91858000 -0.37342500 6.27324000
-6.27964000 0.05923400 5.61732000
-5.51560000 0.44873700 5.75698000
-6.04678000 0.45967700 5.36630000
-6.53992000 0.46280700 4.93169000
-5.79525000 0.83167300 5.08596000
-6.26352000 0.83819600 4.67846000
-6.69390000 0.84076900 4.23625000
-6.99785000 0.46785600 4.46423000
-7.08314000 0.84318100 3.76231000
-7.40633000 0.46973800 3.95943000
-7.43324000 0.84725400 3.26223000
-7.77023000 0.47341700 3.42843000
-7.73433000 0.83818700 2.73290000
-8.08409000 0.47047400 2.87149000
-7.99220000 0.82981800 2.18153000
-8.35305000 0.47175900 2.29374000
-8.20426000 0.82393900 1.61124000
-8.57323000 0.47089600 1.69822000
-8.36487000 0.81201700 1.02588000
-8.72935000 0.45360700 1.08508000
-8.48235000 0.80365600 0.43090900
-8.84567000 0.44428200 0.46407500
-8.55017000 0.79118000 -0.17205300
-8.90861000 0.43052000 -0.16617700
-8.56399000 0.77488500 -0.78070400
-8.92356000 0.42015800 -0.80405800
-8.53284000 0.76254600 -1.39181000
-8.88296000 0.40385700 -1.44271000
-8.88296000 0.40385700 -1.44271000
-8.53284000 0.76254600 -1.39181000
-8.45027000 0.74678800 -2.00155000
-8.79255000 0.38250100 -2.07575000
-8.32035000 0.72510000 -2.60227000
-8.65433000 0.35675000 -2.69833000
-8.14636000 0.70135200 -3.19401000
-8.46844000 0.32786400 -3.30825000
-7.92554000 0.67800200 -3.77345000
-8.23655000 0.29982400 -3.90591000
-7.64859000 0.65021400 -4.33109000
-7.59403000 1.02693000 -3.62895000
-7.33122000 0.99954200 -4.16378000
-7.01792000 0.97524800 -4.67575000
-7.33122000 0.99954200 -4.16378000
-7.07762000 1.41246000 -4.03064000
-6.76846000 1.38619000 -4.51911000
-7.01792000 0.97524800 -4.67575000
-6.42515000 1.38356000 -4.98725000
-6.65878000 0.96188200 -5.16091000
4.04619000 1.64411000 3.37163000
3.70394000 1.66826000 3.80697000
3.77231000 1.09936000 3.88737000
4.12571000 1.07272000 3.45166000
3.33362000 1.69607000 4.21799000
3.38869000 1.12827000 4.29487000
3.77231000 1.09936000 3.88737000
3.38869000 1.12827000 4.29487000
3.61790000 0.64773300 4.54095000
2.96794000 1.15335000 4.66159000
3.17649000 0.67006900 4.92271000
2.52454000 1.17838000 4.99896000
2.70736000 0.69248000 5.26744000
2.05470000 1.19683000 5.30070000
2.21540000 0.71522100 5.57838000
1.55896000 1.21139000 5.56030000
1.69811000 0.72983000 5.84682000
1.04686000 1.22251000 5.78527000
1.16334000 0.74672500 6.08205000
0.60624300 0.75354700 6.27166000
1.16334000 0.74672500 6.08205000
1.04686000 1.22251000 5.78527000
0.51800500 1.22337000 5.97303000
-0.03125340 1.21233000 6.11374000
0.03041620 0.75793300 6.42327000
-0.59514700 1.20258000 6.21875000
-0.56196500 0.76245200 6.52967000
-1.17345000 1.19295000 6.27610000
-1.16769000 0.76581000 6.58458000
-1.76115000 1.18531000 6.27808000
-1.78427000 0.76997400 6.58867000
-2.35310000 1.18322000 6.23002000
-2.40372000 0.77314000 6.53452000
-2.94271000 1.18994000 6.12655000
-3.01962000 0.78120900 6.42488000
-3.51770000 1.20839000 5.96692000
-3.62209000 0.79248500 6.25926000
-4.20525000 0.80262100 6.04110000
-4.06965000 1.22410000 5.75504000
-4.35942000 0.42790700 6.38008000
-4.76458000 0.81311000 5.77672000
-4.95206000 0.43572100 6.09826000
-5.29304000 0.82055300 5.45209000
-4.60066000 1.23556000 5.50354000
-5.10367000 1.24492000 5.19685000
-5.58035000 1.25538000 4.84927000
-5.10367000 1.24492000 5.19685000
-5.01465000 1.75695000 5.09337000
-5.48121000 1.77210000 4.75541000
-5.58035000 1.25538000 4.84927000
-5.91224000 1.77624000 4.37404000
-6.02242000 1.26006000 4.46042000
-6.02242000 1.26006000 4.46042000
-6.30842000 1.77663000 3.95837000
-6.42933000 1.26078000 4.03768000
-6.42933000 1.26078000 4.03768000
-6.66906000 1.77643000 3.51361000
-6.80226000 1.26279000 3.58839000
-6.80226000 1.26279000 3.58839000
-6.99341000 1.77089000 3.04427000
-7.13086000 1.25710000 3.10909000
-7.13086000 1.25710000 3.10909000
-7.26719000 1.74494000 2.54371000
-7.42281000 1.24303000 2.60612000
-7.42281000 1.24303000 2.60612000
-7.50184000 1.71142000 2.02441000
-7.67135000 1.22411000 2.07862000
-7.67135000 1.22411000 2.07862000
-7.68712000 1.69531000 1.48987000
-7.87182000 1.21089000 1.53206000
-7.87182000 1.21089000 1.53206000
-7.83024000 1.67078000 0.94197900
-8.03028000 1.19687000 0.97257600
-8.03028000 1.19687000 0.97257600
-7.92764000 1.64463000 0.38271400
-8.13413000 1.17561000 0.39917700
-8.13413000 1.17561000 0.39917700
-7.97292000 1.62075000 -0.18327900
-8.19981000 1.16008000 -0.17990300
-8.19981000 1.16008000 -0.17990300
-7.98145000 1.59109000 -0.75089800
-8.21635000 1.14005000 -0.76252600
-8.21635000 1.14005000 -0.76252600
-7.93839000 1.57298000 -1.31635000
-8.17964000 1.12071000 -1.34589000
-8.17964000 1.12071000 -1.34589000
-7.84743000 1.54209000 -1.87810000
-8.10200000 1.10250000 -1.92826000
-8.10200000 1.10250000 -1.92826000
-8.17964000 1.12071000 -1.34589000
-7.72183000 1.51311000 -2.43580000
-7.97702000 1.07930000 -2.50573000
-7.97702000 1.07930000 -2.50573000
-7.55027000 1.47525000 -2.98331000
-7.80919000 1.05158000 -3.07466000
-7.80919000 1.05158000 -3.07466000
-7.33163000 1.44696000 -3.51388000
-7.59403000 1.02693000 -3.62895000
2.91692000 1.72221000 4.58109000
2.47871000 1.74636000 4.91842000
2.52454000 1.17838000 4.99896000
2.96794000 1.15335000 4.66159000
2.01522000 1.75967000 5.22282000
2.05470000 1.19683000 5.30070000
1.52356000 1.77484000 5.47948000
1.55896000 1.21139000 5.56030000
1.01659000 1.78734000 5.70596000
1.04686000 1.22251000 5.78527000
0.49114400 1.78089000 5.88839000
0.51800500 1.22337000 5.97303000
1.04686000 1.22251000 5.78527000
1.01659000 1.78734000 5.70596000
-0.05100280 1.75767000 6.02344000
-0.03125340 1.21233000 6.11374000
-0.60776800 1.73002000 6.11702000
-0.59514700 1.20258000 6.21875000
-1.17772000 1.70424000 6.15934000
-1.17345000 1.19295000 6.27610000
-1.75331000 1.68933000 6.15676000
-1.76115000 1.18531000 6.27808000
-2.32982000 1.67723000 6.10365000
-2.35310000 1.18322000 6.23002000
-2.90209000 1.68201000 6.00257000
-2.94271000 1.18994000 6.12655000
-3.46042000 1.70969000 5.84043000
-3.51770000 1.20839000 5.96692000
-4.00040000 1.73623000 5.63567000
-4.06965000 1.22410000 5.75504000
-4.51864000 1.74396000 5.38654000
-4.60066000 1.23556000 5.50354000
-8.05984000 -5.30952000 0.90408400
2.22169000 -6.21440000 -3.49947000
2.19887000 -6.28195000 -3.59383000
1.68103000 -6.27578000 -3.60726000
1.69715000 -6.27456000 -3.67968000
1.19932000 -6.30790000 -3.87063000
1.20360000 -6.38693000 -3.87043000
3.14638000 -4.63704000 -7.27613000
-0.04191910 -6.24927000 2.78212000
-7.98172000 -5.31555000 -2.52032000
4.28782000 -4.82642000 -6.34620000
2.10550000 -5.49842000 -6.98529000
1.98981000 -4.83404000 6.30364000
-0.44356000 -4.03184000 7.52130000
-2.40747000 1.91773000 -7.20728000
-1.82924000 1.91332000 -7.28080000
-1.24680000 1.91105000 -7.30749000
-1.25299000 2.86140000 -7.25620000
-1.82725000 2.86365000 -7.23629000
-0.68081800 2.86013000 -7.22677000
-0.66575800 1.90646000 -7.27988000
-0.11532900 2.85766000 -7.14975000
-0.09368020 1.90475000 -7.19345000
0.43935300 2.85475000 -7.02280000
0.46921900 1.90810000 -7.07502000
0.97901500 2.84825000 -6.85192000
1.01243000 1.90500000 -6.89890000
1.49725000 2.83866000 -6.63508000
1.53384000 1.89463000 -6.67917000
1.98948000 2.83129000 -6.37262000
2.03142000 1.87505000 -6.41958000
2.45521000 2.82244000 -6.06944000
2.49734000 1.85184000 -6.11296000
2.90094000 2.81527000 -5.73870000
2.93884000 1.83319000 -5.77709000
3.31089000 2.80819000 -5.36429000
3.34609000 1.81790000 -5.40082000
3.68578000 2.80304000 -4.95446000
3.72613000 1.80790000 -4.99642000
4.02880000 2.80398000 -4.51730000
4.06744000 1.80518000 -4.55737000
4.33449000 2.81030000 -4.05237000
4.37171000 1.80809000 -4.08979000
4.60031000 2.82203000 -3.56249000
4.63919000 1.81812000 -3.59800000
4.81831000 2.83487000 -3.04881000
4.86234000 1.83563000 -3.08246000
4.99967000 2.85159000 -2.51986000
5.04505000 1.86173000 -2.54739000
5.13056000 2.87130000 -1.97569000
5.18108000 1.87991000 -1.99692000
5.21848000 2.89445000 -1.42358000
5.27558000 1.89853000 -1.43806000
5.31918000 1.92546000 -0.87349100
-4.06994000 1.94779000 -6.68465000
-3.53072000 1.94286000 -6.90128000
-2.97694000 1.93184000 -7.08228000
-3.50833000 2.89052000 -6.87264000
-2.95908000 2.87860000 -7.04074000
-2.39816000 2.87002000 -7.16625000
-2.38989000 3.67883000 -7.11850000
-1.82807000 3.66760000 -7.19117000
-1.26122000 3.66163000 -7.21256000
-0.69527700 3.66216000 -7.17912000
-0.13495200 3.65982000 -7.09920000
0.41577100 3.65207000 -6.97468000
0.95131000 3.64768000 -6.80686000
1.46365000 3.64634000 -6.59055000
1.95100000 3.64452000 -6.32850000
2.41522000 3.64011000 -6.02741000
2.85778000 3.63753000 -5.69500000
3.26614000 3.63993000 -5.32186000
3.64078000 3.64083000 -4.91493000
3.97970000 3.64466000 -4.47771000
4.28743000 3.65130000 -4.01754000
4.54954000 3.66073000 -3.53005000
4.76950000 3.67361000 -3.02265000
4.95148000 3.69191000 -2.50061000
5.08557000 3.71339000 -1.96446000
5.17764000 3.73734000 -1.41972000
5.22443000 3.76364000 -0.86978200
5.26840000 2.92050000 -0.86803000
5.26521000 2.94841000 -0.31221400
5.31732000 1.95708000 -0.30803900
5.21537000 2.97600000 0.23853000
5.27801000 1.99051000 0.25556700
5.18678000 2.02862000 0.81062300
-5.06915000 1.95497000 -6.10493000
-5.52204000 1.97043000 -5.74852000
-4.58200000 1.94834000 -6.41472000
-5.02926000 2.91769000 -6.08008000
-4.54668000 2.90791000 -6.38757000
-4.03726000 2.90021000 -6.64987000
-4.01401000 3.71878000 -6.62230000
-3.48625000 3.70601000 -6.83284000
-2.94400000 3.69190000 -6.99970000
-2.96751000 4.13152000 -7.10310000
-2.40665000 4.11363000 -7.22451000
-1.83853000 4.09894000 -7.28934000
-1.26551000 4.08802000 -7.30652000
-0.69236700 4.08565000 -7.26927000
-0.12245400 4.07734000 -7.19098000
0.43800500 4.06358000 -7.06939000
0.98136500 4.06296000 -6.89948000
1.49456000 4.07337000 -6.66872000
1.98753000 4.07074000 -6.40239000
2.46240000 4.06340000 -6.10227000
2.91069000 4.06188000 -5.76323000
3.32663000 4.06683000 -5.38538000
3.71166000 4.06822000 -4.97592000
4.06033000 4.07215000 -4.53506000
4.36886000 4.08270000 -4.06523000
4.63801000 4.09436000 -3.57139000
4.86665000 4.10864000 -3.05934000
5.05516000 4.12934000 -2.53164000
5.19602000 4.15537000 -1.98908000
5.30046000 4.17770000 -1.43793000
5.35155000 4.20495000 -0.88010700
5.35806000 4.23022000 -0.31973800
5.22752000 3.78994000 -0.31860200
5.19152000 3.81208000 0.23109900
5.10451000 3.83057000 0.77552900
5.12575000 3.00632000 0.78249700
4.99437000 3.03984000 1.31868000
5.04906000 2.08052000 1.35466000
4.81231000 3.07647000 1.84128000
4.86834000 2.13638000 1.88659000
4.64355000 2.18671000 2.40016000
-6.66485000 2.02173000 -4.46645000
-6.32397000 2.00562000 -4.92597000
-5.93654000 1.98984000 -5.34957000
-6.28195000 2.96362000 -4.91629000
-5.89984000 2.94536000 -5.34065000
-5.48019000 2.93082000 -5.72861000
-5.45003000 3.74466000 -5.71054000
-4.99797000 3.73550000 -6.05505000
-4.51802000 3.72827000 -6.35964000
-4.05464000 4.14925000 -6.72211000
-4.56905000 4.15393000 -6.45926000
-3.52013000 4.14043000 -6.94003000
-3.59656000 4.41613000 -7.16058000
-4.14898000 4.41424000 -6.93160000
-3.02555000 4.41370000 -7.33568000
-3.11935000 4.54806000 -7.69428000
-3.71962000 4.55347000 -7.50439000
-2.50586000 4.53474000 -7.81673000
-2.44667000 4.37924000 -7.46844000
-1.88546000 4.51759000 -7.86962000
-1.85764000 4.37560000 -7.51631000
-1.26592000 4.51165000 -7.86005000
-1.26729000 4.36816000 -7.51485000
-0.64770400 4.51549000 -7.79607000
-0.67484600 4.32756000 -7.49458000
-0.03228990 4.50574000 -7.68489000
-0.09034850 4.34842000 -7.37536000
0.57109800 4.47237000 -7.54825000
0.48902500 4.31917000 -7.25565000
1.15469000 4.48433000 -7.37351000
1.04787000 4.32700000 -7.08221000
1.71809000 4.50615000 -7.15421000
1.58247000 4.33838000 -6.86118000
2.25370000 4.49668000 -6.87248000
2.09450000 4.32582000 -6.59385000
2.76034000 4.50199000 -6.53479000
2.57218000 4.33561000 -6.26443000
3.23696000 4.49196000 -6.15948000
3.03901000 4.31984000 -5.92065000
3.67952000 4.47361000 -5.74402000
3.45730000 4.33435000 -5.51935000
4.08912000 4.47792000 -5.29680000
3.85433000 4.33019000 -5.09721000
4.47363000 4.48586000 -4.82830000
4.21700000 4.33763000 -4.64611000
4.82126000 4.49848000 -4.33247000
4.54102000 4.35315000 -4.16666000
5.12693000 4.49678000 -3.80932000
4.82496000 4.36534000 -3.66189000
5.38463000 4.51511000 -3.26188000
5.06909000 4.37796000 -3.13840000
5.59565000 4.53950000 -2.69179000
5.27039000 4.39744000 -2.59596000
5.76899000 4.54790000 -2.10551000
5.42958000 4.41714000 -2.03747000
5.89975000 4.54951000 -1.51135000
5.54085000 4.44559000 -1.46865000
5.96986000 4.56613000 -0.91393900
5.60567000 4.46649000 -0.89612200
5.97312000 4.58652000 -0.31238600
5.61951000 4.47854000 -0.31850700
5.92385000 4.59448000 0.29926400
5.58063000 4.49048000 0.26528400
5.32180000 4.24699000 0.24211800
5.23765000 4.25729000 0.80092600
5.49719000 4.49305000 0.84891700
5.10418000 4.26628000 1.34914000
4.98313000 3.84694000 1.31355000
4.81134000 3.86628000 1.83815000
4.59157000 3.88774000 2.34604000
4.58923000 3.11088000 2.34835000
4.31972000 3.13772000 2.83226000
4.37124000 2.22699000 2.88879000
4.01847000 3.15691000 3.29630000
4.06088000 2.25674000 3.35178000
3.72334000 2.27868000 3.79378000
-7.47086000 2.10963000 -2.96326000
-7.24823000 2.07955000 -3.48691000
-6.97529000 2.04783000 -3.98744000
-7.19550000 3.02965000 -3.47853000
-6.93188000 3.00520000 -3.98225000
-6.62888000 2.98283000 -4.46395000
-6.25176000 3.75396000 -4.90660000
-6.59737000 3.75636000 -4.45578000
-5.86934000 3.75212000 -5.32690000
-5.51685000 4.16021000 -5.79812000
-5.93817000 4.16382000 -5.40312000
-5.05645000 4.15822000 -6.14766000
-5.18033000 4.41279000 -6.32956000
-5.64950000 4.42051000 -5.96034000
-4.67575000 4.41810000 -6.65059000
-5.37759000 4.56314000 -6.61186000
-4.85157000 4.55832000 -6.95572000
-4.29877000 4.55797000 -7.25407000
-5.09102000 4.57790000 -7.37094000
-4.48883000 4.58492000 -7.67083000
-4.29877000 4.55797000 -7.25407000
-4.85157000 4.55832000 -6.95572000
-3.86682000 4.59043000 -7.91719000
-3.71962000 4.55347000 -7.50439000
-3.23121000 4.57398000 -8.10630000
-3.11935000 4.54806000 -7.69428000
-2.58215000 4.56922000 -8.23654000
-2.50586000 4.53474000 -7.81673000
-1.92055000 4.52827000 -8.30650000
-1.88546000 4.51759000 -7.86962000
-1.25583000 4.53223000 -8.29893000
-1.26592000 4.51165000 -7.86005000
-1.88546000 4.51759000 -7.86962000
-1.92055000 4.52827000 -8.30650000
-0.59805000 4.53091000 -8.22885000
-0.64770400 4.51549000 -7.79607000
0.04643800 4.55505000 -8.10276000
-0.03228990 4.50574000 -7.68489000
0.57109800 4.47237000 -7.54825000
0.67874900 4.44455000 -7.95939000
1.15469000 4.48433000 -7.37351000
1.29580000 4.50095000 -7.76242000
1.89384000 4.51457000 -7.53250000
1.71809000 4.50615000 -7.15421000
2.25370000 4.49668000 -6.87248000
2.47206000 4.50004000 -7.24546000
2.76034000 4.50199000 -6.53479000
3.01906000 4.51498000 -6.89988000
3.52380000 4.48786000 -6.49655000
3.23696000 4.49196000 -6.15948000
3.99068000 4.50522000 -6.05468000
3.67952000 4.47361000 -5.74402000
4.08912000 4.47792000 -5.29680000
4.42505000 4.49919000 -5.58296000
4.82768000 4.50492000 -5.08477000
4.47363000 4.48586000 -4.82830000
5.18987000 4.50204000 -4.55590000
4.82126000 4.49848000 -4.33247000
5.51683000 4.50656000 -4.00238000
5.12693000 4.49678000 -3.80932000
5.78917000 4.51941000 -3.41865000
5.38463000 4.51511000 -3.26188000
6.00668000 4.52743000 -2.81168000
5.59565000 4.53950000 -2.69179000
6.18358000 4.54508000 -2.19186000
5.76899000 4.54790000 -2.10551000
6.31158000 4.54661000 -1.56208000
5.89975000 4.54951000 -1.51135000
6.37470000 4.55584000 -0.92301300
5.96986000 4.56613000 -0.91393900
6.36618000 4.58464000 -0.28354700
5.97312000 4.58652000 -0.31238600
6.29860000 4.62621000 0.35350600
5.92385000 4.59448000 0.29926400
6.19703000 4.63051000 0.99001200
5.83015000 4.61130000 0.91244900
6.06224000 4.64390000 1.62124000
5.68866000 4.60714000 1.51261000
5.35554000 4.50109000 1.41935000
5.83015000 4.61130000 0.91244900
5.68866000 4.60714000 1.51261000
5.49038000 4.61145000 2.09282000
5.17087000 4.50294000 1.97434000
4.94081000 4.26640000 1.88833000
4.94319000 4.50099000 2.51573000
4.71604000 4.28188000 2.40661000
4.45960000 4.28471000 2.91252000
4.33636000 3.90411000 2.83864000
4.03357000 3.91614000 3.30357000
3.69433000 3.92521000 3.74151000
3.68058000 3.16880000 3.73307000
3.34205000 2.29910000 4.19783000
3.30513000 3.17661000 4.13729000
2.89817000 3.18672000 4.51160000
2.92892000 2.32088000 4.57029000
2.48943000 2.34270000 4.91386000
2.02093000 2.35872000 5.21712000
1.52962000 2.37318000 5.48196000
1.01520000 2.38186000 5.70467000
1.01520000 2.38186000 5.70467000
0.48329200 2.37809000 5.88776000
-0.06370640 2.36253000 6.02027000
-0.62139000 2.34235000 6.10898000
-1.18690000 2.32346000 6.15346000
-1.75620000 2.31060000 6.13987000
-2.32557000 2.30206000 6.09336000
-2.88928000 2.30609000 5.99613000
-3.44022000 2.32596000 5.83788000
-3.98063000 2.34911000 5.63747000
-4.50074000 2.36150000 5.38931000
-4.99555000 2.37434000 5.09773000
-4.92726000 3.25538000 5.03629000
-4.43883000 3.24339000 5.32262000
-5.46172000 2.38788000 4.76046000
-5.38590000 3.26643000 4.70275000
-5.81364000 3.27995000 4.32786000
-5.89477000 2.39610000 4.38025000
-6.21168000 3.28944000 3.92091000
-6.29237000 2.40028000 3.96444000
-6.56828000 3.28670000 3.47757000
-6.65006000 2.39952000 3.51524000
-6.88315000 3.28147000 3.00443000
-6.97162000 2.39196000 3.03988000
-7.15717000 3.27407000 2.50856000
-7.24803000 2.37119000 2.53846000
-7.39031000 3.25547000 1.99554000
-7.47729000 2.34448000 2.01875000
-7.57867000 3.23849000 1.46574000
-7.66768000 2.32491000 1.48567000
-7.71838000 3.21853000 0.92121000
-7.80040000 2.30020000 0.93492100
-7.80892000 3.20113000 0.36773100
-7.89150000 2.27501000 0.37752400
-7.86128000 3.18486000 -0.19053700
-7.93327000 2.25137000 -0.18571500
-7.86716000 3.16079000 -0.75157900
-7.92644000 2.22405000 -0.75009800
-7.82071000 3.13868000 -1.31170000
-7.87975000 2.20095000 -1.31319000
-7.72885000 3.11582000 -1.86760000
-7.78700000 2.17346000 -1.87210000
-7.59777000 3.08629000 -2.41795000
-7.64870000 2.14235000 -2.42314000
-7.42188000 3.05944000 -2.95752000
-7.39473000 3.81387000 -2.95511000
-7.17037000 3.79050000 -3.47707000
-6.90567000 3.76931000 -3.97927000
-6.98038000 4.16061000 -4.02693000
-6.67283000 4.15424000 -4.51409000
-6.32346000 4.15911000 -4.97338000
-6.82477000 4.41222000 -4.62270000
-6.47193000 4.41877000 -5.10135000
-6.08084000 4.42438000 -5.54968000
-6.72639000 4.56405000 -5.31330000
-6.32179000 4.56518000 -5.78931000
-5.87170000 4.56605000 -6.22462000
-5.87170000 4.56605000 -6.22462000
-6.32179000 4.56518000 -5.78931000
-6.65532000 4.57266000 -6.11818000
-6.18099000 4.57334000 -6.58922000
-5.65801000 4.55623000 -7.01000000
-5.37759000 4.56314000 -6.61186000
-5.23133000 4.54501000 -7.61852000
-5.82704000 4.52364000 -7.25156000
-4.59850000 4.55454000 -7.91629000
-5.31055000 4.69635000 -7.75515000
-4.67461000 4.66139000 -8.08176000
-4.00560000 4.65560000 -8.29998000
-3.94960000 4.58055000 -8.14677000
-3.34090000 4.60114000 -8.48418000
-3.29371000 4.56584000 -8.32392000
-2.65786000 4.54789000 -8.62930000
-2.62425000 4.56889000 -8.45605000
-1.93758000 4.52727000 -8.53890000
-1.94913000 4.53954000 -8.71519000
-1.24543000 4.53485000 -8.53797000
-1.93758000 4.52727000 -8.53890000
-1.94913000 4.53954000 -8.71519000
-1.23555000 4.53335000 -8.72432000
-0.54249900 4.55330000 -8.63937000
-0.56659300 4.53699000 -8.46338000
0.12807700 4.54630000 -8.51003000
0.09107080 4.51415000 -8.33620000
0.77904700 4.57272000 -8.32613000
0.73798700 4.51509000 -8.17604000
1.37198000 4.48957000 -7.97655000
1.42987000 4.47695000 -8.14881000
2.05811000 4.50482000 -7.88235000
1.98704000 4.51164000 -7.73240000
2.67481000 4.49862000 -7.58960000
2.58688000 4.49895000 -7.44085000
3.25125000 4.52950000 -7.22512000
3.15607000 4.48753000 -7.09350000
3.68271000 4.45451000 -6.68266000
3.80590000 4.49695000 -6.82499000
4.30623000 4.52548000 -6.36333000
4.17413000 4.44374000 -6.23439000
4.76040000 4.55134000 -5.86831000
4.62356000 4.46609000 -5.75210000
5.03211000 4.45565000 -5.23672000
5.18151000 4.53824000 -5.34632000
5.55367000 4.52266000 -4.78274000
5.39930000 4.43460000 -4.68764000
5.89384000 4.52389000 -4.19032000
5.73524000 4.44274000 -4.11042000
6.18211000 4.55334000 -3.56944000
6.01907000 4.46274000 -3.50507000
6.40500000 4.58499000 -2.92888000
6.24569000 4.47352000 -2.88065000
6.57953000 4.59611000 -2.27704000
6.42154000 4.48563000 -2.24260000
6.69965000 4.60195000 -1.61226000
6.54552000 4.49779000 -1.59166000
6.76924000 4.60956000 -0.93575600
6.61044000 4.50445000 -0.92718200
6.60134000 4.52106000 -0.25962700
6.77312000 4.62665000 -0.25364500
6.51578000 4.61548000 0.38860800
6.66930000 4.69445000 0.40757000
6.41298000 4.62393000 1.03489000
6.56202000 4.71108000 1.06252000
6.42626000 4.72193000 1.72361000
6.28241000 4.62127000 1.68469000
5.85745000 4.64833000 2.23468000
6.07587000 4.63295000 2.32106000
5.49038000 4.61145000 2.09282000
5.59258000 4.65954000 2.82553000
5.23891000 4.61937000 2.65544000
5.29376000 4.67749000 3.40136000
4.95229000 4.61777000 3.20222000
5.23891000 4.61937000 2.65544000
4.95229000 4.61777000 3.20222000
4.66967000 4.49953000 3.03696000
4.35551000 4.49821000 3.53388000
4.62671000 4.61641000 3.72442000
4.15662000 4.28959000 3.39223000
4.00560000 4.50580000 4.00648000
3.81076000 4.30031000 3.84191000
3.43277000 4.29769000 4.26346000
3.32361000 3.92647000 4.15249000
2.91245000 3.92533000 4.52359000
2.47659000 3.92603000 4.86830000
2.45928000 3.20282000 4.85145000
1.99345000 3.21908000 5.15513000
1.50469000 3.23221000 5.42005000
0.99362800 3.23843000 5.64166000
0.46301300 3.23775000 5.81664000
0.99362800 3.23843000 5.64166000
-0.07954990 3.23619000 5.95136000
-0.63143900 3.23139000 6.03968000
-1.18919000 3.22622000 6.07387000
-1.74879000 3.22179000 6.07251000
-2.30591000 3.21570000 6.01708000
-2.85585000 3.21559000 5.91298000
-3.39932000 3.22277000 5.77064000
-3.92919000 3.23398000 5.57159000
-3.91488000 3.95173000 5.57365000
-4.42674000 3.95209000 5.33319000
-4.91106000 3.95838000 5.04100000
-5.37398000 3.96376000 4.71450000
-5.80106000 3.97436000 4.33930000
-6.19807000 3.98199000 3.93163000
-6.55362000 3.98171000 3.48765000
-6.86612000 3.97815000 3.01269000
-7.14393000 3.97378000 2.51893000
-7.36771000 3.96512000 2.00080000
-7.55543000 3.95055000 1.46921000
-7.69477000 3.93492000 0.92266500
-7.79047000 3.91875000 0.36819200
-7.83712000 3.90504000 -0.19116100
-7.84055000 3.89210000 -0.75211900
-7.79491000 3.87828000 -1.31192000
-7.70610000 3.85859000 -1.86760000
-7.57329000 3.83507000 -2.41667000
-7.67624000 4.21017000 -2.44698000
-7.48660000 4.19298000 -2.99150000
-7.25177000 4.17439000 -3.51875000
-7.65608000 4.42641000 -3.05346000
-7.41681000 4.41425000 -3.59655000
-7.13962000 4.41027000 -4.12017000
-7.41182000 4.55804000 -4.27596000
-7.69225000 4.55930000 -3.72361000
-7.09100000 4.55655000 -4.80791000
-7.09100000 4.55655000 -4.80791000
-7.41182000 4.55804000 -4.27596000
-7.81838000 4.58451000 -4.50520000
-7.47931000 4.57238000 -5.07383000
-7.09005000 4.58392000 -5.61256000
-6.72639000 4.56405000 -5.31330000
-7.30566000 4.53425000 -5.78959000
-6.85461000 4.53290000 -6.31306000
-6.36388000 4.53563000 -6.80422000
-6.98560000 4.66034000 -6.43903000
-6.47428000 4.68144000 -6.93080000
-5.91558000 4.69937000 -7.37386000
-6.52134000 4.93171000 -6.98249000
-5.95622000 4.94196000 -7.42713000
-5.34954000 4.92735000 -7.81937000
-5.92956000 5.31732000 -7.38609000
-5.33156000 5.29389000 -7.78247000
-4.70318000 5.24996000 -8.13001000
-4.71001000 4.88711000 -8.15399000
-4.04245000 5.17529000 -8.40468000
-4.03877000 4.83786000 -8.39293000
-3.36738000 5.10015000 -8.62710000
-3.36445000 4.77238000 -8.58574000
-2.67376000 5.05481000 -8.79576000
-2.67421000 4.72125000 -8.74523000
-1.95756000 5.04112000 -8.89421000
-1.95604000 4.70686000 -8.83899000
-1.23111000 4.70387000 -8.85839000
-1.95604000 4.70686000 -8.83899000
-1.95756000 5.04112000 -8.89421000
-1.23210000 5.03934000 -8.91333000
-0.52058100 5.03275000 -8.83602000
-0.52621500 4.71249000 -8.77048000
0.17261600 5.01525000 -8.71809000
0.15748900 4.69751000 -8.65071000
0.84913700 4.98835000 -8.55414000
0.81951600 4.68527000 -8.47119000
1.51612000 4.95004000 -8.35641000
1.48470000 4.62456000 -8.29586000
2.15615000 4.95248000 -8.07697000
2.11897000 4.63888000 -8.00861000
2.76757000 4.97902000 -7.73569000
2.74031000 4.65735000 -7.69696000
3.34725000 5.00785000 -7.34725000
3.31789000 4.68821000 -7.31326000
3.89002000 5.04013000 -6.91682000
3.87489000 4.69462000 -6.90206000
4.38278000 5.08732000 -6.44026000
4.37648000 4.72971000 -6.43374000
4.83713000 5.11878000 -5.93151000
4.83481000 4.75604000 -5.93169000
5.26001000 4.75073000 -5.40113000
5.26431000 5.11752000 -5.39952000
5.65313000 5.10096000 -4.83639000
5.64173000 4.73012000 -4.83373000
5.98949000 5.10951000 -4.23785000
5.97604000 4.73340000 -4.23162000
6.25710000 5.14365000 -3.60422000
6.26047000 4.76774000 -3.60303000
6.47132000 5.17842000 -2.95177000
6.49431000 4.79799000 -2.95719000
6.64005000 5.19492000 -2.28912000
6.66886000 4.80898000 -2.29601000
6.78128000 4.81161000 -1.62341000
6.75494000 5.19508000 -1.62059000
6.81422000 5.19605000 -0.95141400
6.84930000 4.81968000 -0.94436900
6.83368000 4.84614000 -0.26283600
6.80893000 5.21133000 -0.28055200
6.75018000 4.88515000 0.40901200
6.74102000 5.22938000 0.39381700
6.64328000 5.23495000 1.06948000
6.64706000 4.89719000 1.07565000
6.48029000 5.25252000 1.73396000
6.50403000 4.91339000 1.74294000
6.25942000 5.28564000 2.38118000
6.28650000 4.94346000 2.39582000
6.22015000 4.74094000 2.37445000
6.01325000 4.97229000 3.02488000
5.94538000 4.76912000 2.99649000
5.80236000 4.67197000 2.92870000
5.63765000 4.78696000 3.60008000
5.49984000 4.68280000 3.52171000
5.16287000 4.66362000 4.10012000
4.95917000 4.67370000 3.95754000
4.62671000 4.61641000 3.72442000
4.57336000 4.68128000 4.48110000
4.26610000 4.62633000 4.22315000
4.15148000 4.66647000 4.98086000
3.86856000 4.60305000 4.69475000
4.26610000 4.62633000 4.22315000
3.86856000 4.60305000 4.69475000
3.61899000 4.50080000 4.44867000
3.41493000 4.60561000 5.11409000
3.19651000 4.47368000 4.85789000
3.02400000 4.28447000 4.65544000
2.72591000 4.48046000 5.21433000
2.56853000 4.29271000 4.99445000
2.09072000 4.30209000 5.30513000
2.00704000 3.93492000 5.16984000
1.51825000 3.94522000 5.43970000
1.00673000 3.95313000 5.66312000
1.00673000 3.95313000 5.66312000
0.47620700 3.95660000 5.83994000
-0.06723540 3.95932000 5.97468000
-0.62128700 3.96116000 6.05795000
-1.17988000 3.95963000 6.09908000
-1.74012000 3.95908000 6.08836000
-2.29742000 3.95866000 6.02904000
-2.84823000 3.95678000 5.92544000
-3.38815000 3.95343000 5.77345000
-3.43249000 4.31147000 5.92184000
-3.96913000 4.31096000 5.71170000
-4.49011000 4.31149000 5.46357000
-4.98611000 4.31669000 5.16741000
-5.45739000 4.31746000 4.83006000
-5.89491000 4.32095000 4.44825000
-6.29586000 4.32602000 4.02920000
-6.65853000 4.32329000 3.57641000
-6.98125000 4.31752000 3.09340000
-7.25195000 4.32074000 2.58240000
-7.48504000 4.31243000 2.05649000
-7.66883000 4.30265000 1.51031000
-7.80778000 4.29314000 0.95154200
-7.90518000 4.28076000 0.38579700
-7.95761000 4.26761000 -0.18361900
-7.95496000 4.25967000 -0.75520900
-7.90712000 4.24898000 -1.32508000
-7.80965000 4.23363000 -1.88869000
-8.11689000 4.47484000 -1.34646000
-8.01488000 4.45623000 -1.92623000
-7.85873000 4.43598000 -2.49621000
-8.32277000 4.57489000 -1.98201000
-8.15593000 4.52960000 -2.57469000
-7.94136000 4.54804000 -3.15621000
-8.15593000 4.52960000 -2.57469000
-8.57595000 4.47034000 -2.68939000
-8.36079000 4.53009000 -3.30932000
-7.94136000 4.54804000 -3.15621000
-8.11078000 4.57672000 -3.91479000
-7.69225000 4.55930000 -3.72361000
-8.36168000 4.52184000 -4.03069000
-8.06071000 4.53203000 -4.64337000
-7.70807000 4.53980000 -5.23187000
-8.23265000 4.61472000 -4.74025000
-7.86503000 4.63839000 -5.33863000
-7.44536000 4.65631000 -5.90282000
-7.92633000 4.87945000 -5.37683000
-7.50768000 4.90042000 -5.95106000
-7.03845000 4.91361000 -6.48849000
-7.47165000 5.29879000 -5.91920000
-7.00328000 5.31749000 -6.45379000
-6.48766000 5.32503000 -6.94214000
-6.37281000 5.67099000 -6.81524000
-5.83333000 5.64641000 -7.25257000
-5.25220000 5.62850000 -7.63928000
-4.63944000 5.60584000 -7.98098000
-3.99477000 5.54605000 -8.26811000
-3.32696000 5.48824000 -8.50351000
-2.64264000 5.45238000 -8.67085000
-1.94432000 5.43738000 -8.76346000
-1.94432000 5.43738000 -8.76346000
-1.23931000 5.43073000 -8.78949000
-0.53594500 5.41308000 -8.73333000
0.15776900 5.39465000 -8.62850000
0.83463400 5.37029000 -8.46579000
1.49061000 5.34803000 -8.25865000
2.11468000 5.35043000 -7.97705000
2.70898000 5.36954000 -7.63036000
3.27360000 5.39469000 -7.24165000
3.79678000 5.42876000 -6.80726000
4.27730000 5.47055000 -6.33381000
4.72179000 5.49447000 -5.82887000
5.14167000 5.49431000 -5.30605000
5.51694000 5.48540000 -4.75066000
5.83319000 5.49851000 -4.16007000
6.08413000 5.52811000 -3.53773000
6.28427000 5.56390000 -2.89703000
6.43262000 5.58315000 -2.24384000
6.53990000 5.59119000 -1.59080000
6.60233000 5.59001000 -0.94239500
6.60479000 5.58408000 -0.29374900
6.56078000 5.58448000 0.36787000
6.46234000 5.58815000 1.03340000
6.29872000 5.60365000 1.68310000
6.07399000 5.62567000 2.31034000
5.79864000 5.64065000 2.91721000
5.98673000 5.31452000 3.00752000
5.66480000 5.33114000 3.61104000
5.70316000 4.99312000 3.63547000
5.30369000 5.34252000 4.19372000
5.34104000 5.00384000 4.22139000
5.28415000 4.79476000 4.18342000
4.92265000 5.01777000 4.77240000
4.86541000 4.81362000 4.72648000
4.75375000 4.69937000 4.63335000
4.41352000 4.83395000 5.24369000
4.31800000 4.70274000 5.14881000
3.84868000 4.68708000 5.63770000
3.68266000 4.66491000 5.43759000
3.41493000 4.60561000 5.11409000
3.17129000 4.65471000 5.84376000
2.92464000 4.59870000 5.49231000
2.62233000 4.68265000 6.19438000
2.40693000 4.61923000 5.83295000
2.92464000 4.59870000 5.49231000
2.40693000 4.61923000 5.83295000
2.23128000 4.49391000 5.53833000
1.86411000 4.60566000 6.13765000
1.70922000 4.51174000 5.82274000
1.59095000 4.31028000 5.58382000
1.16762000 4.50770000 6.07047000
1.06559000 4.32258000 5.80934000
1.06559000 4.32258000 5.80934000
1.16762000 4.50770000 6.07047000
0.60108100 4.51076000 6.25143000
0.52442900 4.31983000 5.99352000
0.02089210 4.49708000 6.38083000
-0.03069770 4.31075000 6.13349000
-0.56881000 4.49595000 6.45828000
-0.59894400 4.31285000 6.21262000
-1.16135000 4.49856000 6.49946000
-1.17105000 4.31767000 6.24612000
-1.74409000 4.31922000 6.23966000
-1.75569000 4.50536000 6.49780000
-2.34815000 4.50113000 6.44412000
-2.31504000 4.31696000 6.18797000
-2.93316000 4.50118000 6.32303000
-2.87872000 4.31854000 6.07761000
-3.50642000 4.50594000 6.14883000
-3.00213000 4.60913000 6.63113000
-3.60434000 4.60294000 6.45037000
-4.19827000 4.59769000 6.24287000
-4.06949000 4.49776000 5.94428000
-4.77282000 4.60663000 5.99033000
-4.61417000 4.49790000 5.69559000
-5.13009000 4.49896000 5.38942000
-5.31314000 4.60051000 5.67068000
-5.82256000 4.59557000 5.29658000
-5.61395000 4.50901000 5.03028000
-6.29662000 4.57470000 4.87795000
-6.06704000 4.50373000 4.63304000
-6.72242000 4.56876000 4.41634000
-6.47658000 4.50690000 4.19492000
-7.09941000 4.57601000 3.91690000
-6.84286000 4.50554000 3.71947000
-7.44364000 4.57569000 3.39477000
-7.16719000 4.51278000 3.21483000
-7.74852000 4.57264000 2.85072000
-7.45949000 4.50573000 2.69379000
-7.99509000 4.56914000 2.27733000
-7.69321000 4.50554000 2.14706000
-8.19368000 4.56421000 1.68284000
-7.87951000 4.50409000 1.57974000
-8.34470000 4.57975000 1.07561000
-8.02479000 4.50003000 1.00174000
-8.45221000 4.56900000 0.46324400
-8.13178000 4.48305000 0.41795300
-8.50240000 4.57620000 -0.15290600
-8.17821000 4.48141000 -0.17130800
-8.49661000 4.57537000 -0.76890300
-8.17426000 4.47397000 -0.76095600
-8.44091000 4.56342000 -1.37931000
-8.49661000 4.57537000 -0.76890300
-8.91978000 4.55244000 -0.77676300
-8.86175000 4.55170000 -1.42819000
-8.44091000 4.56342000 -1.37931000
-8.74246000 4.55442000 -2.06295000
-8.32277000 4.57489000 -1.98201000
-8.82206000 4.51296000 -2.75993000
-8.98046000 4.51696000 -2.11137000
-8.61213000 4.50579000 -3.40167000
-8.79749000 4.57097000 -3.46802000
-9.00767000 4.55617000 -2.81242000
-8.54600000 4.59024000 -4.11440000
-8.88017000 4.78630000 -3.49587000
-8.61872000 4.81762000 -4.14589000
-8.30030000 4.85024000 -4.77552000
-8.60604000 5.18817000 -4.13712000
-8.27908000 5.23480000 -4.75896000
-7.90021000 5.27125000 -5.35421000
-7.77000000 5.65463000 -5.26137000
-7.34499000 5.67509000 -5.81432000
-6.87634000 5.68145000 -6.33358000
-6.70308000 5.88423000 -6.16637000
-6.21917000 5.88865000 -6.64397000
-5.70127000 5.85847000 -7.07062000
-5.15039000 5.87307000 -7.45590000
-4.55387000 5.86799000 -7.78604000
-3.92933000 5.84647000 -8.07570000
-3.27305000 5.81686000 -8.30148000
-2.60066000 5.78186000 -8.44964000
-1.92340000 5.76408000 -8.53887000
-1.24303000 5.74843000 -8.56124000
-1.92340000 5.76408000 -8.53887000
-0.56023400 5.72930000 -8.52023000
0.11880100 5.71317000 -8.42239000
0.78147100 5.69642000 -8.26313000
1.41556000 5.68305000 -8.04564000
2.02148000 5.69181000 -7.77302000
2.59825000 5.70433000 -7.43885000
3.14959000 5.72719000 -7.06713000
3.66347000 5.75943000 -6.64914000
4.13332000 5.78724000 -6.18514000
4.56759000 5.80000000 -5.69285000
4.97085000 5.80098000 -5.18010000
5.32535000 5.79698000 -4.63389000
5.62460000 5.80949000 -4.05642000
5.85633000 5.82769000 -3.44901000
6.03689000 5.84856000 -2.82386000
6.17918000 5.86528000 -2.18924000
6.28110000 5.86878000 -1.55473000
6.34124000 5.86380000 -0.92547600
6.35636000 5.85393000 -0.29717500
6.31157000 5.84567000 0.34215000
6.20014000 5.84460000 0.98415600
6.02923000 5.84144000 1.60924000
5.80077000 5.83704000 2.21024000
5.53091000 5.84106000 2.79281000
5.22840000 5.84094000 3.35874000
5.49084000 5.65546000 3.50947000
5.13022000 5.65819000 4.07134000
4.71672000 5.66354000 4.59361000
4.87988000 5.35426000 4.73337000
4.41623000 5.37667000 5.23761000
4.45698000 5.04249000 5.28426000
3.90885000 5.40508000 5.69366000
3.95081000 5.07380000 5.75239000
3.91922000 4.86018000 5.71958000
3.40765000 5.10272000 6.17021000
3.37664000 4.89096000 6.13188000
3.31312000 4.72755000 6.04548000
2.75283000 4.72579000 6.41250000
2.80929000 4.89462000 6.50520000
2.15617000 4.72967000 6.72106000
2.04612000 4.69469000 6.50128000
1.86411000 4.60566000 6.13765000
1.44161000 4.69591000 6.76002000
1.29328000 4.62218000 6.39051000
1.29328000 4.62218000 6.39051000
1.44161000 4.69591000 6.76002000
0.81718600 4.68186000 6.97199000
0.69984700 4.61321000 6.58606000
0.69984700 4.61321000 6.58606000
1.29328000 4.62218000 6.39051000
1.29328000 4.62218000 6.39051000
0.17481300 4.68129000 7.12148000
0.08938470 4.61197000 6.71293000
0.08938470 4.61197000 6.71293000
-0.47938700 4.68878000 7.21042000
-0.52966800 4.61498000 6.78801000
-0.52966800 4.61498000 6.78801000
-1.13777000 4.65291000 7.24915000
-1.15073000 4.61019000 6.82956000
-1.15073000 4.61019000 6.82956000
-1.79450000 4.67628000 7.22131000
-1.77248000 4.60119000 6.83352000
-1.77248000 4.60119000 6.83352000
-2.44196000 4.69118000 7.13581000
-2.39077000 4.62372000 6.76462000
-2.39077000 4.62372000 6.76462000
-3.08389000 4.66336000 7.00751000
-3.00213000 4.60913000 6.63113000
-3.72138000 4.66143000 6.83176000
-3.60434000 4.60294000 6.45037000
-4.34720000 4.65360000 6.60909000
-4.19827000 4.59769000 6.24287000
-4.94846000 4.64614000 6.33411000
-4.77282000 4.60663000 5.99033000
-5.52063000 4.63001000 6.00970000
-5.31314000 4.60051000 5.67068000
-6.05709000 4.60136000 5.61713000
-5.82256000 4.59557000 5.29658000
-6.55698000 4.55887000 5.16983000
-6.29662000 4.57470000 4.87795000
-7.01696000 4.56139000 4.68607000
-6.72242000 4.56876000 4.41634000
-7.43372000 4.56394000 4.17968000
-7.09941000 4.57601000 3.91690000
-7.80588000 4.59102000 3.64012000
-7.44364000 4.57569000 3.39477000
