55.44170000 -29.53110000 56.84510000
56.04340000 -28.21720000 55.85330000
55.32820000 -29.40050000 55.81540000
54.70380000 -30.58600000 55.71840000
54.89760000 -29.12630000 55.09540000
54.66170000 -30.46680000 54.83590000
53.97540000 -31.62020000 54.77520000
53.89070000 -30.02720000 54.31880000
53.59530000 -31.32730000 54.07540000
53.22820000 -32.68430000 53.86630000
53.31500000 -31.12850000 53.32940000
53.21330000 -32.56650000 53.07390000
52.38790000 -33.73020000 52.87310000
53.19090000 -32.50460000 52.29390000
52.35890000 -33.65660000 52.04690000
51.49180000 -34.76890000 51.74020000
52.16030000 -33.52640000 51.23710000
51.41240000 -34.74020000 50.85570000
50.47140000 -35.93310000 50.39960000
51.20880000 -34.73900000 49.92640000
50.32860000 -35.99630000 49.39360000
49.15460000 -37.23170000 48.84010000
50.13240000 -36.09280000 48.35270000
48.97550000 -37.31910000 47.72670000
47.60190000 -38.69740000 47.11590000
48.69080000 -37.36840000 46.54610000
47.34550000 -38.74610000 45.83570000
45.65090000 -40.27930000 45.17440000
46.44410000 -38.24300000 44.72900000
44.43790000 -39.40600000 44.57680000
42.40200000 -40.80030000 44.45930000
43.08110000 -38.40240000 44.49010000
41.12800000 -39.68350000 44.50950000
39.18860000 -41.00080000 44.59450000
39.80370000 -38.50710000 44.53570000
37.97570000 -39.74660000 44.59640000
36.15090000 -40.95420000 44.55690000
36.72560000 -38.46000000 44.55300000
34.98730000 -39.59820000 44.74310000
33.24050000 -40.70390000 44.58190000
33.80140000 -38.23230000 44.63460000
32.12860000 -39.28420000 44.65280000
30.43810000 -40.29760000 44.65350000
30.99320000 -37.85620000 44.67180000
29.37260000 -38.82820000 44.69020000
27.74550000 -39.75360000 44.78680000
28.30320000 -37.33450000 45.01630000
26.74070000 -38.22870000 44.88370000
25.16150000 -39.07900000 44.79480000
25.72940000 -36.69230000 44.78550000
24.21470000 -37.50880000 44.86830000
22.68150000 -38.27800000 44.78760000
23.25440000 -35.93010000 44.79260000
21.78030000 -36.67480000 44.82010000
20.28250000 -37.35600000 44.80700000
20.86430000 -35.06270000 44.80940000
19.43150000 -35.72640000 44.79090000
17.97290000 -36.33850000 44.76650000
18.55820000 -34.10060000 44.72490000
17.16200000 -34.68910000 44.73610000
15.75810000 -35.23280000 44.78510000
16.31890000 -33.05890000 44.73580000
14.96030000 -33.59130000 44.73690000
13.59330000 -34.07080000 44.75530000
14.13220000 -31.98550000 44.70280000
12.80850000 -32.45250000 44.69670000
11.47710000 -32.85500000 44.76400000
11.99810000 -30.86950000 44.68770000
10.70120000 -31.26630000 44.73990000
9.39920000 -31.61550000 44.72090000
9.88740000 -29.74560000 44.66590000
8.61290000 -30.08230000 44.68330000
7.34550000 -30.36040000 44.72380000
7.78300000 -28.63960000 44.64530000
6.52790000 -28.92110000 44.71750000
5.27750000 -29.15840000 44.70620000
5.66850000 -27.60010000 44.66330000
4.42000000 -27.87160000 44.66500000
3.17980000 -28.10090000 44.71690000
3.53400000 -26.70040000 44.65370000
2.28190000 -26.99910000 44.68580000
1.02780000 -27.30210000 44.70200000
1.35960000 -26.00590000 44.66860000
0.08430000 -26.41040000 44.68560000
0.41940000 -25.09420000 44.67650000
-0.87560000 -25.59540000 44.68590000
-0.53310000 -24.24270000 44.65430000
1.70190000 -24.64040000 44.61090000
0.76810000 -23.71200000 44.60890000
-0.17070000 -22.82720000 44.60770000
-1.49170000 -23.42930000 44.72390000
-1.10890000 -21.97320000 44.61790000
-2.45120000 -22.64330000 44.67560000
-2.04510000 -21.13070000 44.58570000
0.21980000 -21.34790000 44.68820000
-0.69880000 -20.46510000 44.64170000
-1.61010000 -19.59870000 44.63790000
0.62220000 -19.84210000 44.53100000
-0.26900000 -18.93190000 44.62580000
-1.15380000 -18.03940000 44.57810000
1.04590000 -18.29670000 44.46920000
0.17680000 -17.37170000 44.48280000
-0.67540000 -16.45170000 44.47140000
-2.02820000 -17.15480000 44.50520000
-1.50830000 -15.53570000 44.44280000
-2.88350000 -16.26690000 44.50040000
-2.31880000 -14.62050000 44.51580000
-0.15790000 -14.82400000 44.42290000
-0.95390000 -13.88790000 44.47090000
-1.73560000 -12.95750000 44.42530000
-3.12070000 -13.71230000 44.44740000
-2.50610000 -12.03130000 44.40360000
-3.90730000 -12.80240000 44.44620000
-3.25970000 -11.10280000 44.43590000
-4.68060000 -11.89280000 44.43640000
-3.99780000 -10.17910000 44.34460000
-5.43210000 -10.97790000 44.43420000
-4.71320000 -9.24750000 44.33920000
-2.59110000 -9.39120000 44.28210000
-3.29730000 -8.44990000 44.24800000
-3.98830000 -7.50610000 44.25330000
-5.41260000 -8.31280000 44.30430000
-4.65960000 -6.55800000 44.26350000
-6.08710000 -7.36970000 44.29690000
-5.30880000 -5.60330000 44.20520000
-3.26660000 -5.74950000 44.20660000
-3.91550000 -4.79030000 44.16560000
-4.54800000 -3.82580000 44.15810000
-5.94130000 -4.63990000 44.19380000
-5.16450000 -2.85500000 44.13640000
-6.55510000 -3.66770000 44.21490000
-5.75830000 -1.87440000 44.21760000
-7.14350000 -2.68560000 44.22920000
-8.56970000 -3.49360000 44.28240000
-7.71250000 -1.69520000 44.22500000
-9.13790000 -2.50100000 44.24470000
-10.59940000 -3.29560000 44.44900000
-9.67850000 -1.49630000 44.25170000
-11.13500000 -2.28020000 44.42930000
-12.64970000 -3.05610000 44.52710000
-12.11860000 -4.08400000 44.41050000
-14.21110000 -3.82470000 44.43170000
-13.67920000 -4.86460000 44.39980000
-15.81960000 -4.58270000 44.65400000
-15.28880000 -5.63900000 44.50520000
-17.48600000 -5.34900000 44.47960000
-16.94850000 -6.41830000 44.43970000
-16.38170000 -7.48030000 44.47320000
-18.64760000 -7.21780000 44.48000000
-18.07250000 -8.29190000 44.56570000
-17.46720000 -9.35950000 44.50470000
-19.80520000 -9.13350000 44.51450000
-19.18800000 -10.21600000 44.56080000
-18.53290000 -11.28470000 44.54680000
-20.93530000 -11.10420000 44.57290000
-20.25620000 -12.18940000 44.59210000
-19.54120000 -13.25890000 44.61820000
-17.84220000 -12.33680000 44.60850000
-18.78400000 -14.30740000 44.63010000
-17.10230000 -13.36370000 44.60980000
-17.99960000 -15.33120000 44.68400000
-20.48990000 -15.27590000 44.77200000
-19.67940000 -16.32070000 44.76080000
-18.83790000 -17.34250000 44.71970000
-17.17500000 -16.32180000 44.74720000
-17.96560000 -18.33380000 44.75490000
-16.32110000 -17.29260000 44.74250000
-17.07010000 -19.29390000 44.79240000
-15.44580000 -18.23520000 44.74010000
-16.13750000 -20.21760000 44.79550000
-14.53690000 -19.13730000 44.82990000
-15.18040000 -21.10300000 44.81390000
-17.75500000 -21.33420000 44.85840000
-16.77430000 -22.24090000 44.88640000
-15.76660000 -23.11140000 44.87640000
-14.19840000 -21.95250000 44.83730000
-14.74000000 -23.94010000 44.93370000
-13.19290000 -22.76170000 44.85690000
-13.70420000 -24.72620000 44.92330000
-16.29330000 -25.17450000 44.93400000
-15.22950000 -25.98350000 44.91860000
-14.15290000 -26.74580000 44.93460000
-16.74100000 -27.28810000 45.01080000
-15.62820000 -28.08360000 44.99400000
-14.50410000 -28.83420000 45.02490000
-17.07130000 -29.46200000 45.03020000
-15.90210000 -30.24650000 45.04900000
-14.71530000 -30.97420000 45.04030000
-13.37020000 -29.52800000 44.95230000
-13.51670000 -31.64120000 44.99410000
-12.22750000 -30.15960000 44.96330000
-12.31720000 -32.25340000 44.99470000
-14.74380000 -33.15320000 45.04400000
-13.48020000 -33.80460000 45.02510000
-12.21780000 -34.39880000 45.01530000
-11.11830000 -32.81130000 44.97890000
-10.95490000 -34.93970000 45.01890000
-9.92960000 -33.31120000 44.94830000
-9.69600000 -35.42260000 45.02130000
-8.75550000 -33.75250000 44.94360000
-11.91300000 -36.57250000 45.10620000
-10.56800000 -37.09240000 45.03990000
-12.82770000 -38.20780000 45.11420000
-11.39920000 -38.75850000 45.12690000
-9.96280000 -39.24980000 45.14310000
-12.18860000 -40.41340000 45.18790000
-10.66470000 -40.93560000 45.11490000
-9.14010000 -41.39440000 45.14430000
-11.34840000 -42.59640000 45.14750000
-9.73190000 -43.07650000 45.12700000
-8.11380000 -43.50070000 45.11420000
-10.30940000 -44.73970000 45.13500000
-8.60780000 -45.18260000 45.08880000
-6.90110000 -45.56730000 45.06870000
-6.49200000 -43.87360000 45.13700000
-5.17910000 -45.88560000 45.07610000
-4.85350000 -44.18340000 45.10200000
-3.45270000 -46.14150000 45.04340000
-3.18930000 -44.42280000 45.10220000
-1.71130000 -46.33930000 45.02370000
-1.52070000 -44.60480000 45.10570000
0.02570000 -46.47090000 45.05040000
0.15100000 -44.72990000 45.08750000
1.78150000 -46.53590000 45.04790000
-0.09520000 -48.20430000 45.00380000
1.72870000 -48.27660000 44.98730000
3.56060000 -48.28160000 44.97030000
1.67070000 -50.01100000 44.93420000
3.57310000 -50.02130000 44.94270000
5.48600000 -49.94770000 44.98950000
3.57070000 -51.76270000 44.94090000
5.54930000 -51.69880000 44.92320000
7.52770000 -51.54900000 44.96060000
5.59750000 -53.45510000 44.93400000
7.64070000 -53.30950000 44.96180000
9.67500000 -53.09390000 44.99340000
7.75620000 -55.09520000 44.96500000
9.84630000 -54.87880000 45.01850000
11.92830000 -54.57600000 45.03640000
10.03880000 -56.71510000 45.23170000
12.16460000 -56.27580000 45.44680000
14.29850000 -55.82420000 45.52390000
12.30130000 -57.30420000 46.87550000
14.45900000 -56.75980000 46.92680000
16.67040000 -56.46850000 46.76510000
14.51130000 -57.06450000 48.66610000
16.71760000 -56.64790000 48.56820000
18.90130000 -56.04980000 48.47720000
16.75320000 -56.78960000 50.39540000
18.95340000 -56.20560000 50.30780000
21.16840000 -55.63530000 50.21600000
19.02150000 -56.43970000 52.14990000
21.22050000 -55.80080000 52.06840000
23.40580000 -55.10320000 51.99430000
21.24780000 -55.91910000 53.94580000
23.43700000 -55.23320000 53.86800000
25.59510000 -54.43580000 53.79540000
23.46840000 -55.38420000 55.75400000
25.62240000 -54.58390000 55.67410000
27.75020000 -53.70190000 55.57770000
25.62760000 -54.69460000 57.56150000
27.73200000 -53.78420000 57.45930000
29.82210000 -52.82210000 57.33880000
27.74150000 -53.93630000 59.33290000
29.80230000 -52.93290000 59.22240000
31.87660000 -51.93190000 59.10160000
29.80980000 -53.09830000 61.09720000
31.85700000 -52.06710000 60.98310000
33.86030000 -50.93340000 60.86210000
31.83300000 -52.18740000 62.85260000
33.84220000 -51.08830000 62.73040000
35.81750000 -49.91230000 62.59350000
33.79270000 -51.17720000 64.58410000
35.77750000 -50.04210000 64.44410000
37.70440000 -48.80510000 64.29330000
35.73040000 -50.15760000 66.30230000
37.65880000 -48.95010000 66.15730000
39.53610000 -47.66570000 65.99880000
37.60360000 -49.07420000 68.03590000
39.46900000 -47.80140000 67.88850000
41.28320000 -46.46860000 67.72730000
39.39940000 -47.92050000 69.78990000
41.18960000 -46.58530000 69.64520000
42.93930000 -45.22040000 69.48920000
41.13430000 -46.73420000 71.57010000
42.87240000 -45.37600000 71.43300000
44.50860000 -43.92440000 71.29350000
42.81580000 -45.51930000 73.37870000
44.47430000 -44.10570000 73.25660000
46.06710000 -42.65290000 73.13360000
44.39970000 -44.21870000 75.22100000
45.98600000 -42.76620000 75.11560000
47.49320000 -41.26620000 75.01480000
45.92780000 -42.88150000 77.09260000
47.25090000 -41.19860000 77.00980000
48.82980000 -39.80320000 76.92860000
47.34250000 -41.43960000 78.99310000
48.87790000 -39.99160000 78.92280000
50.27040000 -38.42990000 78.86600000
48.86610000 -40.10540000 80.90880000
50.25100000 -38.52640000 80.86190000
51.59060000 -36.92970000 80.82250000
50.26630000 -38.64110000 82.84570000
51.61230000 -37.03340000 82.81300000
52.86500000 -35.36450000 82.79080000
51.62840000 -37.12470000 84.79460000
52.89430000 -35.45150000 84.77730000
54.09000000 -33.73560000 84.76880000
52.94950000 -35.55360000 86.75420000
54.15780000 -33.83020000 86.74970000
55.29080000 -32.06210000 86.75550000
54.19570000 -33.90300000 88.72240000
55.01340000 -31.93810000 88.74380000
56.29600000 -30.24800000 88.74430000
55.39440000 -32.20030000 90.69400000
56.45720000 -30.36840000 90.71170000
57.50470000 -28.52510000 90.73590000
56.49140000 -30.41450000 92.68340000
57.56770000 -28.57940000 92.71200000
58.51450000 -26.66930000 92.74210000
57.39680000 -28.50730000 94.68770000
58.55490000 -26.70510000 94.71260000
59.46330000 -24.76690000 94.74960000
58.61940000 -26.75560000 96.67640000
59.54350000 -24.81810000 96.71790000
60.37360000 -22.83110000 96.76330000
59.60600000 -24.86460000 98.68580000
60.43740000 -22.87270000 98.73540000
61.19820000 -20.84790000 98.78700000
60.44340000 -22.89460000 100.70700000
61.21690000 -20.87250000 100.76200000
61.90080000 -18.81400000 100.81800000
61.25200000 -20.90640000 102.73600000
61.93380000 -18.84440000 102.79600000
62.58600000 -16.76800000 102.85300000
62.02360000 -18.89700000 104.77400000
62.59670000 -16.79420000 104.83800000
63.19390000 -14.69470000 104.89500000
62.68350000 -16.84520000 106.82400000
63.25490000 -14.73630000 106.88500000
63.72910000 -12.59870000 106.94200000
63.29940000 -14.77690000 108.88100000
63.78050000 -12.63980000 108.94000000
64.16950000 -10.47930000 108.99200000
63.80810000 -12.67880000 110.94600000
64.21460000 -10.52010000 110.99500000
64.53400000 -8.33970000 111.03400000
64.22440000 -10.55560000 113.00200000
64.56010000 -8.37620000 113.03200000
64.79170000 -6.17500000 113.05700000
64.57570000 -8.41070000 115.01200000
64.85220000 -6.21120000 115.02000000
64.99410000 -3.99360000 115.04800000
64.85470000 -6.23900000 116.90900000
65.03220000 -4.02240000 116.92800000
65.14470000 -1.79890000 116.97100000
65.01410000 -4.04380000 118.64500000
64.94860000 -1.81430000 118.66600000
65.23750000 0.40360000 118.68600000
65.19540000 -1.84800000 120.19500000
65.30250000 0.37870000 120.19600000
65.16590000 2.60760000 120.22300000
65.32610000 0.35570000 121.58000000
65.21910000 2.58100000 121.60500000
65.15630000 4.81460000 121.65700000
65.29360000 2.55420000 122.86700000
65.20740000 4.78590000 122.90600000
65.00760000 7.02300000 122.94500000
65.25260000 4.75870000 124.00200000
65.03310000 6.99480000 124.04400000
64.75250000 9.23540000 124.07800000
65.83170000 7.05420000 124.62800000
65.53910000 9.32480000 124.67400000
65.14740000 11.58700000 124.69700000
65.68870000 9.34120000 123.51300000
65.35100000 11.61290000 123.54000000
64.91760000 13.86930000 123.54100000
65.32860000 11.59190000 122.34100000
64.89750000 13.84470000 122.33900000
64.37350000 16.08350000 122.33100000
64.88280000 13.81980000 121.09300000
64.36740000 16.05670000 121.07600000
63.75730000 18.27140000 121.03900000
64.36360000 16.02820000 119.75500000
63.76660000 18.24270000 119.69500000
63.08180000 20.43290000 119.61800000
63.79250000 18.21710000 118.25400000
63.10810000 20.40750000 118.16400000
62.33060000 22.57250000 118.08900000
63.18060000 20.39910000 116.59900000
62.39980000 22.56850000 116.52500000
61.53400000 24.71210000 116.45400000
62.52070000 22.58720000 114.79000000
61.65080000 24.73780000 114.71900000
60.69810000 26.85640000 114.66900000
61.58400000 24.69080000 112.88600000
60.61500000 26.80300000 112.85100000
59.56290000 28.88020000 112.83000000
60.51910000 26.75760000 110.97800000
59.47010000 28.83770000 110.96900000
58.36330000 30.89240000 110.97000000
59.40970000 28.81680000 109.08900000
58.29840000 30.87090000 109.10000000
57.14580000 32.90430000 109.11700000
58.25340000 30.86110000 107.22000000
57.09340000 32.89220000 107.24300000
55.87850000 34.89240000 107.27000000
57.04940000 32.88490000 105.36100000
55.82880000 34.88360000 105.38900000
54.56010000 36.85110000 105.41700000
55.79490000 34.88360000 103.50200000
54.52020000 36.84990000 103.53100000
53.17910000 38.76690000 103.55800000
54.48900000 36.85320000 101.63900000
53.14110000 38.76910000 101.66500000
51.72830000 40.63360000 101.69200000
53.11280000 38.77730000 99.76900000
51.69710000 40.64420000 99.79390000
50.21030000 42.45260000 99.82460000
51.67900000 40.66350000 97.89370000
50.18160000 42.47050000 97.92390000
48.63670000 44.23510000 97.96130000
50.15310000 42.48720000 96.02320000
48.60270000 44.25670000 96.06020000
47.00360000 45.97910000 96.10240000
48.55800000 44.26690000 94.16020000
46.97110000 46.00880000 94.20110000
45.31720000 47.67870000 94.24290000
46.91350000 46.01040000 92.30280000
45.26450000 47.68940000 92.34120000
43.54980000 49.29200000 92.37520000
45.28640000 47.77020000 90.44450000
43.55500000 49.36590000 90.47490000
41.74220000 50.85520000 90.49750000
43.53880000 49.40230000 88.57420000
41.74230000 50.91840000 88.59440000
39.89180000 52.35780000 88.60680000
41.65160000 50.86140000 86.68970000
39.80280000 52.30290000 86.70170000
37.90840000 53.67650000 86.70520000
39.73490000 52.27010000 84.79590000
37.84740000 53.65460000 84.80040000
35.91280000 54.96660000 84.79390000
37.82400000 53.68200000 82.89570000
35.89160000 55.00120000 82.89050000
33.92460000 56.26100000 82.86990000
35.91600000 55.10350000 80.99010000
33.94620000 56.36470000 80.97130000
31.93740000 57.55350000 80.93510000
33.89880000 56.35380000 79.07410000
31.87880000 57.51150000 79.04080000
29.83100000 58.60830000 78.98540000
31.79580000 57.43240000 77.13930000
29.77770000 58.55660000 77.08180000
27.70740000 59.55950000 76.98640000
29.74240000 58.55560000 75.16470000
27.68830000 59.55420000 75.06070000
25.59960000 60.43520000 74.89530000
27.64670000 59.55350000 73.12690000
25.56010000 60.42770000 72.95380000
23.45690000 61.24830000 72.72850000
25.49950000 60.45740000 71.01570000
23.37890000 61.25740000 70.78680000
21.21810000 61.96190000 70.50350000
23.28520000 61.29360000 68.85610000
21.11660000 62.00340000 68.56880000
18.92100000 62.63330000 68.21990000
20.99770000 62.05010000 66.64300000
18.79120000 62.67570000 66.27450000
16.58280000 63.22720000 65.84300000
18.64860000 62.76760000 64.33720000
16.41400000 63.31800000 63.85260000
14.25000000 63.77990000 63.31640000
16.22000000 63.36460000 61.87250000
14.02800000 63.84210000 61.26110000
11.97770000 64.25340000 60.68340000
13.75410000 63.94460000 59.26290000
11.57780000 64.37520000 58.67150000
9.83590000 64.65210000 58.60770000
10.87750000 64.53370000 56.42670000
9.24500000 64.76200000 57.17540000
8.04640000 64.90140000 57.70900000
8.46910000 64.89860000 56.26390000
7.57970000 64.96510000 56.89630000
6.45730000 65.06900000 57.35600000
7.11250000 65.04030000 56.32330000
6.07240000 65.11120000 56.75450000
4.88430000 65.19220000 57.01000000
5.72790000 65.17010000 56.27370000
4.61910000 65.22730000 56.48050000
3.41060000 65.28600000 56.55090000
4.38350000 65.30850000 56.02380000
3.26130000 65.34730000 56.08170000
2.05220000 65.39180000 56.06490000
3.14110000 65.58140000 55.69230000
1.99940000 65.60360000 55.67640000
0.75160000 65.61570000 55.56270000
1.89550000 65.61180000 55.25540000
0.71240000 65.61230000 55.13850000
-0.46210000 65.62840000 54.83140000
0.66120000 65.63010000 54.77300000
-0.33210000 66.00050000 54.71830000
-1.25380000 66.69830000 54.89640000
-1.50410000 66.24360000 54.89030000
-2.09250000 66.61150000 54.14740000
-2.65010000 66.67500000 54.57940000
-2.95300000 66.61160000 53.45260000
-3.41890000 66.44190000 53.66990000
-3.59200000 66.18010000 52.60210000
-3.52680000 65.69410000 52.73990000
-3.56030000 65.22200000 51.90600000
-3.94610000 65.18210000 52.03370000
-4.07280000 65.14270000 51.18570000
-4.47510000 65.09970000 51.34480000
-4.44620000 65.09850000 50.50630000
-4.90900000 65.04400000 50.64620000
-5.41060000 64.95900000 50.76200000
-5.28690000 64.98030000 49.89260000
-5.81910000 64.88380000 49.93700000
-6.37450000 64.79450000 49.93680000
-6.13160000 64.86110000 49.06670000
-6.70630000 64.77080000 48.98860000
-7.33400000 64.68900000 48.83900000
-6.92450000 64.77710000 47.99750000
-7.51940000 64.69330000 47.73570000
-8.16450000 64.59080000 47.39970000
-8.02140000 64.57780000 48.60660000
-8.89840000 64.47920000 46.99700000
-8.78990000 64.45280000 48.30210000
-9.79550000 64.34270000 46.51160000
-9.69180000 64.25460000 47.95240000
-10.88690000 64.16450000 46.06570000
-10.80370000 64.05510000 47.61290000
-12.24570000 63.93550000 45.54550000
-12.17910000 63.78460000 47.28900000
-14.07570000 63.44960000 45.14920000
-14.03260000 63.37040000 47.04380000
-13.96100000 63.26970000 48.72970000
-16.13070000 62.81430000 46.86370000
-16.09460000 62.69630000 48.62390000
-16.06620000 62.65180000 50.36130000
-18.27010000 62.03110000 48.53920000
-18.28440000 61.97580000 50.34060000
-18.32280000 61.99390000 52.13390000
-20.45280000 61.23000000 50.32580000
-20.50360000 61.23970000 52.16880000
-20.59220000 61.32520000 54.01270000
-18.40010000 62.08090000 53.93400000
-20.69240000 61.41350000 55.86780000
-18.50220000 62.18190000 55.75110000
-20.69710000 61.16910000 57.72850000
-18.51740000 61.92080000 57.58810000
-20.80020000 61.14490000 59.63040000
-18.63330000 61.89770000 59.48320000
-20.91380000 61.11520000 61.55800000
-18.76300000 61.86310000 61.41390000
-21.03280000 61.08340000 63.50540000
-18.89880000 61.82490000 63.37030000
-21.15300000 61.05230000 65.46910000
-19.03770000 61.79440000 65.34520000
-21.27310000 61.01910000 67.44480000
-19.17250000 61.76060000 67.33230000
-17.05480000 62.42020000 67.21190000
-19.30660000 61.73770000 69.32880000
-17.20140000 62.39020000 69.22400000
-15.08810000 62.96330000 69.11800000
-17.34220000 62.37640000 71.23920000
-15.23870000 62.94380000 71.14790000
-13.13370000 63.42510000 71.05790000
-15.37790000 62.93940000 73.17460000
-13.27790000 63.41040000 73.09830000
-11.18330000 63.79970000 73.02590000
-13.41310000 63.43750000 75.13200000
-11.32530000 63.85410000 75.07070000
-9.24830000 64.21750000 75.01540000
-11.44670000 63.88520000 77.10900000
-9.36980000 64.25590000 77.06360000
-7.30440000 64.57710000 77.02450000
-9.48860000 64.36500000 79.10110000
-7.41630000 64.68450000 79.07110000
-5.35520000 64.94890000 79.04730000
-7.50170000 64.70400000 81.11120000
-5.43330000 64.96620000 81.09450000
-3.37270000 65.16900000 81.08570000
-5.48410000 64.85560000 83.13550000
-3.41960000 65.06180000 83.13260000
-1.35950000 65.18750000 83.13530000
-3.46250000 65.03270000 85.17370000
-1.39300000 65.16030000 85.18010000
0.67240000 65.20660000 85.19270000
-1.41960000 65.21340000 87.21630000
0.65860000 65.26570000 87.23170000
2.73220000 65.24430000 87.25530000
0.65260000 65.41500000 89.25930000
2.74300000 65.38850000 89.28540000
4.83030000 65.30210000 89.31980000
2.75450000 65.25050000 91.30530000
4.84840000 65.16450000 91.34180000
6.94140000 65.00670000 91.38370000
4.88240000 65.16790000 93.35670000
6.98740000 65.00560000 93.39770000
9.09130000 64.76510000 93.44470000
7.03540000 65.00860000 95.40350000
9.15160000 64.77260000 95.44950000
11.26970000 64.47110000 95.50190000
9.20920000 64.76530000 97.44810000
11.33620000 64.46100000 97.49840000
13.46420000 64.09450000 97.55350000
11.40160000 64.45990000 99.49050000
13.53760000 64.09300000 99.54280000
15.67290000 63.65690000 99.59930000
13.60690000 64.09340000 101.52900000
15.74770000 63.65600000 101.58300000
17.88690000 63.15370000 101.64000000
15.81570000 63.65180000 103.56600000
17.95890000 63.15080000 103.62100000
20.09870000 62.58470000 103.67900000
18.02540000 63.15200000 105.60100000
20.16420000 62.57170000 105.65700000
22.29740000 61.92610000 105.71300000
20.22970000 62.58010000 107.63600000
22.36270000 61.92350000 107.68800000
24.47670000 61.16730000 107.73900000
22.42500000 61.92510000 109.66400000
24.54160000 61.16370000 109.71200000
26.62030000 60.27250000 109.75300000
24.60110000 61.15490000 111.68400000
26.69020000 60.27510000 111.72400000
28.74150000 59.28800000 111.75300000
26.79420000 60.35420000 113.68200000
28.84610000 59.35320000 113.71000000
30.87390000 58.29680000 113.71900000
28.88560000 59.29430000 115.61700000
30.90520000 58.22970000 115.62300000
32.89320000 57.10510000 115.61000000
30.88660000 58.09340000 117.38100000
32.86600000 56.96850000 117.37100000
34.82320000 55.79540000 117.32100000
32.85820000 56.88590000 118.88800000
34.81600000 55.71490000 118.84500000
36.74480000 54.48570000 118.74000000
34.82550000 55.67250000 120.18700000
36.75330000 54.44510000 120.11500000
38.64180000 53.15360000 120.04300000
36.77310000 54.43170000 121.40300000
38.66630000 53.15130000 121.35000000
40.50600000 51.79140000 121.30600000
38.69050000 53.15140000 122.59100000
40.53550000 51.80080000 122.55700000
42.34160000 50.39220000 122.54100000
40.56870000 51.81660000 123.73900000
42.37120000 50.40170000 123.75400000
44.12350000 48.91730000 123.76300000
42.28050000 50.29160000 125.01300000
44.03880000 48.80880000 124.98400000
45.75240000 47.25770000 124.94500000
43.49310000 48.17740000 124.21400000
45.13320000 46.61970000 124.20700000
46.70300000 44.97650000 124.21000000
45.10950000 46.60290000 122.96500000
46.71140000 45.00020000 122.94500000
48.24510000 43.32500000 122.90200000
46.67940000 44.98510000 121.56700000
48.21970000 43.32690000 121.49900000
49.73290000 41.64550000 121.42400000
48.07620000 43.22520000 119.99800000
49.63550000 41.59840000 119.92000000
51.09060000 39.87820000 119.86200000
49.62970000 41.63050000 118.32200000
51.06490000 39.89300000 118.27500000
52.45020000 38.11170000 118.25100000
50.80950000 39.72330000 116.59300000
52.39900000 38.10810000 116.57700000
53.55310000 36.16430000 116.58400000
52.28150000 38.06170000 114.76100000
53.38740000 36.09090000 114.75300000
54.76260000 34.29850000 114.75200000
53.67830000 36.32450000 112.88200000
54.88660000 34.41860000 112.87200000
56.07730000 32.50370000 112.86900000
54.90430000 34.46690000 110.98200000
56.04440000 32.52150000 110.97800000
57.17920000 30.57150000 110.98100000
56.06800000 32.57300000 109.08000000
57.17950000 30.60910000 109.08000000
58.24350000 28.61890000 109.08700000
57.22150000 30.66960000 107.17400000
58.27250000 28.67070000 107.17600000
59.24100000 26.63090000 107.18300000
58.27780000 28.71030000 105.26100000
59.21650000 26.65590000 105.26200000
60.15630000 24.60370000 105.26800000
59.24510000 26.70590000 103.34200000
60.12460000 24.62630000 103.34200000
60.83670000 22.48960000 103.34400000
60.13680000 24.66870000 101.41600000
60.95890000 22.56820000 101.41200000
61.58920000 20.41190000 101.41200000
60.87410000 22.58290000 99.48000000
61.63590000 20.46620000 99.47450000
62.36720000 18.34030000 99.46610000
61.65900000 20.51360000 97.53910000
62.34890000 18.37100000 97.52600000
62.96950000 16.20870000 97.51100000
62.30800000 18.39490000 95.58820000
62.92880000 16.23230000 95.57010000
63.42030000 14.04030000 95.55050000
62.86390000 16.24850000 93.63310000
63.38860000 14.06460000 93.60900000
63.82140000 11.86300000 93.58330000
63.29980000 14.07510000 91.67110000
63.75890000 11.87980000 91.64330000
64.09100000 9.66230000 91.61360000
63.70470000 11.89930000 89.70870000
64.00470000 9.67450000 89.67520000
64.32160000 7.45690000 89.63450000
64.01440000 9.69990000 87.73860000
64.16160000 7.46160000 87.69970000
64.43700000 5.23780000 87.65150000
64.22040000 7.48400000 85.76470000
64.38530000 5.24730000 85.71670000
64.45940000 3.01300000 85.66250000
64.24920000 5.25450000 83.78340000
64.40720000 3.02240000 83.72370000
64.46940000 0.78840000 83.66000000
64.33280000 3.02970000 81.79120000
64.27330000 0.79440000 81.73160000
64.22290000 -1.43640000 81.66270000
64.30120000 0.79350000 79.79640000
64.20620000 -1.44100000 79.72330000
64.09160000 -3.66910000 79.64340000
64.19630000 -1.44720000 77.78780000
64.04520000 -3.68020000 77.70420000
63.84420000 -5.90340000 77.61790000
63.97750000 -3.69310000 75.77780000
63.74730000 -5.92040000 75.68410000
63.42000000 -8.12640000 75.58540000
63.60040000 -5.93210000 73.76140000
63.11540000 -8.12370000 73.65930000
62.89820000 -10.33500000 73.53650000
63.35620000 -8.20770000 71.70510000
62.83580000 -10.38760000 71.58250000
62.16350000 -12.50590000 71.47650000
62.47460000 -10.37710000 69.67490000
61.87530000 -12.52670000 69.54260000
61.61980000 -14.73390000 69.36470000
61.74380000 -12.59170000 67.60350000
61.21220000 -14.75310000 67.40700000
61.01980000 -16.94650000 67.20250000
61.46480000 -14.92630000 65.45050000
61.09570000 -17.11140000 65.19560000
60.57660000 -19.24220000 64.92110000
60.86000000 -17.23710000 63.20280000
60.01570000 -19.27900000 62.91350000
59.47110000 -21.35560000 62.52530000
59.37570000 -19.34800000 60.96750000
59.09170000 -21.54200000 60.42520000
57.94550000 -23.29680000 60.00880000
58.48320000 -21.72080000 58.49250000
57.70830000 -23.58230000 58.02210000
57.15590000 -25.32670000 57.57310000
57.79230000 -23.98240000 56.29180000
56.77470000 -25.37170000 56.04950000
56.28890000 -26.75600000 55.91430000
56.83060000 -25.41920000 54.92510000
56.21880000 -26.65100000 54.99700000
55.68310000 -27.97770000 55.05070000
56.27190000 -26.59460000 54.16130000
55.61720000 -27.88560000 54.26200000
54.90590000 -29.09570000 54.28920000
55.63880000 -27.83270000 53.48630000
55.07420000 -29.16360000 53.50810000
53.96840000 -29.98580000 53.48400000
55.02690000 -29.05950000 52.74400000
53.86590000 -29.87520000 52.70200000
53.30700000 -31.07300000 52.51080000
53.95730000 -29.89630000 51.91970000
53.83730000 -31.28790000 51.78570000
53.12660000 -32.48330000 51.51260000
53.85330000 -31.33980000 50.97850000
52.99870000 -32.47400000 50.70750000
52.18650000 -33.65860000 50.34980000
52.91830000 -32.58580000 49.82160000
52.06190000 -33.77870000 49.42480000
50.97890000 -34.80590000 48.95380000
51.83780000 -33.91760000 48.39510000
50.89750000 -35.08490000 47.86860000
49.84690000 -36.19070000 47.24540000
50.51580000 -35.16970000 46.60640000
49.56040000 -36.28220000 45.86440000
48.16070000 -37.20310000 45.19910000
48.22540000 -35.55070000 44.97680000
46.75670000 -36.36520000 44.54350000
44.99550000 -37.28830000 44.45880000
45.04750000 -35.23340000 44.49310000
43.39560000 -36.18120000 44.47850000
41.62950000 -37.28480000 44.53100000
41.77890000 -34.96890000 44.57630000
40.14600000 -36.09490000 44.54290000
38.45210000 -37.27620000 44.62760000
38.68150000 -34.86710000 44.61190000
37.08260000 -36.01250000 44.59630000
35.45250000 -37.13980000 44.60550000
35.70760000 -34.71690000 44.62280000
34.16610000 -35.79740000 44.60960000
32.59290000 -36.84300000 44.77420000
32.86980000 -34.42990000 44.77460000
31.37230000 -35.43870000 44.73790000
29.84380000 -36.40790000 44.78670000
30.14690000 -34.00700000 44.73980000
28.69220000 -34.93780000 44.74850000
27.22010000 -35.83180000 44.80330000
27.54300000 -33.44570000 44.74050000
26.13170000 -34.30740000 44.77440000
24.70090000 -35.13670000 44.83110000
25.04700000 -32.77550000 44.79910000
23.67300000 -33.58180000 44.69320000
22.27910000 -34.34190000 44.85300000
22.65060000 -32.02620000 44.68870000
21.30390000 -32.76600000 44.70880000
19.93690000 -33.45830000 44.64850000
20.32960000 -31.19600000 44.73240000
19.00870000 -31.86400000 44.74490000
17.67080000 -32.48540000 44.69730000
18.07420000 -30.30080000 44.61500000
16.77260000 -30.90480000 44.65540000
15.45660000 -31.46700000 44.67800000
15.86980000 -29.36630000 44.61420000
14.58450000 -29.91640000 44.61630000
13.29260000 -30.41760000 44.67490000
13.70160000 -28.41200000 44.57920000
12.43340000 -28.90240000 44.62790000
11.16140000 -29.35290000 44.61400000
11.55520000 -27.45580000 44.54480000
10.29780000 -27.90530000 44.59910000
9.04210000 -28.29480000 44.78900000
9.42460000 -26.52490000 44.62530000
8.17360000 -26.92600000 44.57730000
6.92270000 -27.28310000 44.65330000
7.29850000 -25.63400000 44.55960000
6.04680000 -26.01330000 44.71230000
4.78850000 -26.37810000 44.61700000
5.15600000 -24.84380000 44.61020000
3.89090000 -25.24910000 44.60460000
2.62670000 -25.62890000 44.66400000
2.98000000 -24.19810000 44.65220000
4.25150000 -23.75150000 44.56280000
3.34280000 -22.71200000 44.55690000
2.06000000 -23.20670000 44.58490000
2.43350000 -21.72030000 44.56660000
1.13920000 -22.25590000 44.58980000
1.52760000 -20.76580000 44.63400000
3.71350000 -21.19440000 44.57540000
2.81520000 -20.20370000 44.54150000
1.92620000 -19.24010000 44.50200000
4.08860000 -19.63090000 44.54300000
3.21130000 -18.63760000 44.46380000
2.34690000 -17.66370000 44.51500000
4.48090000 -18.03010000 44.42830000
3.62970000 -17.03140000 44.44380000
2.79080000 -16.05070000 44.53550000
1.49270000 -16.70930000 44.48490000
1.97140000 -15.08260000 44.47740000
0.65760000 -15.76440000 44.42810000
1.16960000 -14.12230000 44.49100000
3.25540000 -14.40430000 44.58480000
2.46840000 -13.42200000 44.47180000
1.69500000 -12.44640000 44.67180000
0.38840000 -13.16630000 44.45640000
0.95200000 -11.47830000 44.45290000
-0.37530000 -12.21620000 44.36880000
0.21700000 -10.51550000 44.39840000
-1.13070000 -11.27000000 44.37760000
-0.50690000 -9.56220000 44.30120000
-1.86950000 -10.33040000 44.31840000
-1.21840000 -8.61040000 44.23330000
0.81990000 -8.79160000 44.37670000
0.12040000 -7.82710000 44.29430000
-0.56750000 -6.86550000 44.22000000
-1.91680000 -7.65790000 44.21900000
-1.24430000 -5.90310000 44.17510000
-2.60130000 -6.70510000 44.19840000
-1.90520000 -4.94080000 44.14010000
0.07990000 -5.09910000 44.12880000
-0.57920000 -4.12760000 44.11260000
-1.22920000 -3.15510000 44.10610000
-2.55610000 -3.97650000 44.12180000
-1.86550000 -2.18310000 44.07790000
-3.18910000 -3.00820000 44.12950000
-2.48810000 -1.20880000 44.06430000
-3.80790000 -2.03660000 44.11890000
-3.10090000 -0.23010000 44.06340000
-4.40910000 -1.05700000 44.19970000
-3.70100000 0.75540000 44.08870000
-5.00070000 -0.06950000 44.19980000
-6.33780000 -0.88610000 44.18590000
-5.57810000 0.92140000 44.09410000
-6.90030000 0.10940000 44.14380000
-8.26310000 -0.69570000 44.20470000
-7.44760000 1.11200000 44.16220000
-8.79910000 0.31080000 44.20910000
-10.19940000 -0.48220000 44.26680000
-9.31420000 1.32240000 44.28970000
-10.70080000 0.53690000 44.31710000
-12.14210000 -0.23390000 44.37380000
-11.64950000 -1.25920000 44.38430000
-13.64360000 -0.98750000 44.42370000
-13.15850000 -2.02690000 44.33840000
-15.19960000 -1.72640000 44.42350000
-14.71790000 -2.77840000 44.38300000
-16.81390000 -2.45920000 44.47500000
-16.33400000 -3.52390000 44.40250000
-18.48750000 -3.19290000 44.65060000
-17.99840000 -4.27570000 44.58800000
-20.20330000 -3.94250000 44.45460000
-19.71220000 -5.03840000 44.41320000
-19.19550000 -6.13180000 44.46160000
-21.47790000 -5.82060000 44.46260000
-20.95090000 -6.93320000 44.52780000
-20.39260000 -8.04010000 44.49970000
-22.74260000 -7.75370000 44.46670000
-22.17260000 -8.88360000 44.47970000
-21.56900000 -10.00160000 44.52320000
-23.98220000 -9.74290000 44.53350000
-23.36390000 -10.88810000 44.59290000
-22.70810000 -12.01490000 44.60710000
-25.18920000 -11.78700000 44.59710000
-24.51040000 -12.94060000 44.65590000
-23.78260000 -14.07790000 44.67850000
-22.00810000 -13.12290000 44.62390000
-23.02270000 -15.19200000 44.71940000
-21.26770000 -14.21100000 44.67440000
-22.22320000 -16.28110000 44.73630000
-24.80140000 -16.18880000 44.76590000
-23.98450000 -17.30960000 44.79580000
-23.12990000 -18.39840000 44.83530000
-21.39100000 -17.34870000 44.74620000
-22.23490000 -19.46210000 44.84370000
-20.52600000 -18.38860000 44.78010000
-21.31090000 -20.50160000 44.86890000
-19.63390000 -19.40070000 44.81860000
-20.36340000 -21.51260000 44.88840000
-18.71150000 -20.38760000 44.83730000
-19.38190000 -22.48650000 44.91520000
-22.03050000 -22.66790000 44.96940000
-21.02440000 -23.67180000 44.97480000
-19.98680000 -24.63860000 44.97700000
-18.37360000 -23.42240000 44.98890000
-18.92470000 -25.56700000 45.00260000
-17.34290000 -24.32160000 44.94180000
-17.83990000 -26.45130000 45.01830000
-20.49750000 -26.83940000 45.04780000
-19.36940000 -27.75690000 45.05610000
-18.22540000 -28.63280000 45.04990000
-20.87170000 -29.08760000 45.11070000
-19.68200000 -30.00040000 45.11610000
-18.47520000 -30.86770000 45.10360000
-21.10000000 -31.38240000 45.15670000
-19.83350000 -32.28570000 45.15230000
-18.55160000 -33.14370000 45.14230000
-17.25270000 -31.68800000 45.09490000
-17.24060000 -33.94280000 45.11250000
-16.00270000 -32.44910000 45.07120000
-15.91810000 -34.68510000 45.11650000
-18.44200000 -35.44300000 45.20240000
-17.05840000 -36.22330000 45.15150000
-15.65840000 -36.94300000 45.14000000
-14.58960000 -35.37100000 45.11420000
-14.24640000 -37.60360000 45.14580000
-13.25510000 -35.99810000 45.09880000
-16.68980000 -38.51150000 45.20440000
-15.19910000 -39.20980000 45.19000000
-13.69880000 -39.83580000 45.27800000
-16.11660000 -40.79510000 45.20160000
-14.54330000 -41.45570000 45.19640000
-12.95010000 -42.05470000 45.21260000
-15.35820000 -43.05910000 45.12540000
-13.69120000 -43.68050000 45.13840000
-12.00590000 -44.24070000 45.15130000
-14.39660000 -45.29460000 45.09900000
-12.63550000 -45.87300000 45.10230000
-10.86920000 -46.39400000 45.08610000
-13.24580000 -47.50270000 45.03920000
-11.40920000 -48.04560000 45.01940000
-9.56340000 -48.52870000 44.99310000
-9.09100000 -46.85490000 45.06170000
-7.70430000 -48.94390000 44.95100000
-7.30480000 -47.25400000 44.99400000
-5.84000000 -49.29370000 44.96190000
-5.50950000 -47.58760000 45.01350000
-3.97680000 -49.57480000 44.97290000
-3.71730000 -47.85460000 44.98720000
-2.10550000 -49.78990000 44.95500000
-1.90760000 -48.06050000 45.08380000
-0.22220000 -49.93400000 44.93800000
-2.30810000 -51.52800000 44.85430000
-0.35940000 -51.67000000 44.88690000
1.60160000 -51.75190000 44.87650000
-0.49770000 -53.41760000 44.87240000
1.52320000 -53.49790000 44.90870000
3.55620000 -53.51680000 44.89100000
1.45310000 -55.25360000 44.91470000
3.54780000 -55.27540000 44.90800000
5.65230000 -55.22000000 44.97000000
3.53920000 -57.03530000 45.19140000
5.70120000 -56.95680000 45.26570000
7.87820000 -57.01570000 45.05100000
5.71640000 -57.89310000 46.74190000
7.91580000 -57.76690000 46.78360000
10.10780000 -57.58840000 46.84330000
7.90570000 -57.99340000 48.59300000
10.11090000 -57.75950000 48.66530000
12.32610000 -57.53670000 48.68170000
10.11590000 -57.96310000 50.48930000
12.33510000 -57.64570000 50.51510000
14.52140000 -57.14330000 50.49380000
12.35870000 -57.83670000 52.36090000
14.57480000 -57.40420000 52.32770000
16.79460000 -56.93250000 52.24270000
14.59050000 -57.48400000 54.19290000
16.80650000 -56.97830000 54.11800000
19.02230000 -56.45430000 54.03370000
16.85960000 -57.23640000 55.99480000
19.07450000 -56.69210000 55.91820000
21.28150000 -56.08250000 55.83590000
19.07260000 -56.73350000 57.82160000
21.27510000 -56.12550000 57.73830000
23.46160000 -55.44380000 57.65280000
21.28680000 -56.26420000 59.62790000
23.47780000 -55.59520000 59.54500000
25.62820000 -54.81160000 59.44710000
23.47450000 -55.70430000 61.43090000
25.61760000 -54.91500000 61.32380000
27.73420000 -54.05710000 61.20910000
25.60040000 -55.00720000 63.19090000
27.69720000 -54.11390000 63.08270000
29.78640000 -53.20140000 62.96890000
27.68820000 -54.23700000 64.93970000
29.76840000 -53.31700000 64.82830000
31.80920000 -52.30590000 64.71020000
29.74060000 -53.41010000 66.67660000
31.77340000 -52.39780000 66.56070000
33.77570000 -51.32150000 66.43540000
31.73780000 -52.49020000 68.41950000
33.73150000 -51.41690000 68.29990000
35.67170000 -50.25100000 68.17370000
33.67900000 -51.49430000 70.17600000
35.62900000 -50.36480000 70.05540000
37.55230000 -49.19510000 69.92560000
35.59130000 -50.48110000 71.94550000
37.49860000 -49.30590000 71.82580000
39.33960000 -48.04280000 71.70140000
37.44230000 -49.40230000 73.73370000
39.29090000 -48.16890000 73.61920000
41.06200000 -46.84410000 73.50150000
39.23090000 -48.26360000 75.54250000
40.98670000 -46.93210000 75.43670000
42.74410000 -45.62490000 75.32810000
40.93500000 -47.03500000 77.37220000
42.64390000 -45.67770000 77.27730000
44.32790000 -44.31520000 77.18330000
42.61990000 -45.80860000 79.22290000
44.27790000 -44.41750000 79.14180000
45.84530000 -42.94970000 79.06480000
44.24040000 -44.51810000 81.09530000
45.82680000 -43.06810000 81.02910000
47.36230000 -41.59380000 80.96670000
45.80990000 -43.18190000 82.98870000
47.36000000 -41.71450000 82.93490000
48.82250000 -40.17730000 82.88770000
47.36790000 -41.83380000 84.89580000
48.85980000 -40.31450000 84.85450000
50.27750000 -38.74220000 84.82080000
48.88860000 -40.43510000 86.81500000
50.32270000 -38.86490000 86.78650000
51.66310000 -37.22550000 86.76740000
50.33400000 -38.95180000 88.74770000
51.71390000 -37.33400000 88.73110000
52.98020000 -35.63350000 88.72410000
51.74080000 -37.41930000 90.69020000
53.01950000 -35.71720000 90.68680000
54.23470000 -33.97580000 90.68850000
53.05490000 -35.79530000 92.64460000
54.27010000 -34.04380000 92.65060000
55.41100000 -32.24630000 92.66300000
54.32660000 -34.12530000 94.60650000
55.48020000 -32.32500000 94.62240000
56.54610000 -30.47290000 94.64540000
55.50850000 -32.37900000 96.57960000
56.63290000 -30.55380000 96.60380000
57.63840000 -28.66120000 96.63820000
56.69400000 -30.62240000 98.56060000
57.72310000 -28.73480000 98.59740000
58.69330000 -26.81490000 98.63950000
57.76940000 -28.78990000 100.55500000
58.74380000 -26.86600000 100.60100000
59.63380000 -24.89930000 100.65300000
58.65800000 -26.85360000 102.56400000
59.67310000 -24.94150000 102.61700000
60.38510000 -22.89460000 102.67900000
59.68910000 -24.97590000 104.58100000
60.52720000 -22.97700000 104.64600000
61.32730000 -20.95860000 104.71100000
60.56440000 -23.02090000 106.61800000
61.33500000 -20.98950000 106.68900000
62.04490000 -18.93070000 106.75800000
61.36280000 -21.03150000 108.66800000
62.09650000 -18.97750000 108.74300000
62.72780000 -16.88720000 108.81500000
62.12390000 -19.01810000 110.72900000
62.75600000 -16.92700000 110.81100000
63.33000000 -14.81690000 110.88500000
62.77690000 -16.96680000 112.80900000
63.35240000 -14.85670000 112.89400000
63.84200000 -12.72010000 112.95800000
63.39500000 -14.90360000 114.89400000
63.87420000 -12.76140000 114.96300000
64.26090000 -10.59540000 115.00100000
63.90330000 -12.80140000 116.89800000
64.31310000 -10.63470000 116.92400000
64.62750000 -8.44610000 116.91200000
64.27110000 -10.65420000 118.66500000
64.63150000 -8.46860000 118.65700000
64.90490000 -6.26420000 118.64400000
64.69140000 -8.49430000 120.23300000
64.72570000 -6.26670000 120.23200000
64.95940000 -4.05910000 120.21500000
64.97620000 -6.30680000 121.66900000
65.04820000 -4.08440000 121.65000000
65.24600000 -1.86990000 121.60100000
65.14870000 -4.10960000 122.93300000
65.25560000 -1.89030000 122.88100000
65.33750000 0.33090000 122.85300000
65.32780000 -1.91520000 123.99500000
65.35330000 0.30360000 123.97900000
65.35610000 2.52720000 123.98200000
66.20780000 0.27670000 124.43300000
66.17120000 2.52740000 124.52300000
66.04690000 4.78820000 124.59500000
66.21950000 2.52730000 123.36300000
66.13360000 4.79030000 123.42500000
65.94570000 7.06270000 123.47300000
66.09100000 4.78110000 122.25500000
65.91640000 7.05140000 122.29900000
65.66330000 9.32510000 122.32700000
65.88610000 7.03830000 121.06300000
65.64180000 9.30710000 121.08700000
65.30420000 11.56840000 121.09800000
65.62660000 9.28860000 119.78700000
65.29360000 11.54640000 119.80100000
64.88010000 13.79580000 119.78900000
65.31050000 11.52760000 118.41800000
64.89600000 13.77410000 118.40100000
64.38800000 16.00490000 118.34100000
64.95080000 13.75800000 116.84000000
64.45110000 15.99010000 116.78300000
63.86560000 18.20550000 116.69200000
64.56650000 15.98750000 115.00100000
63.98350000 18.20900000 114.94900000
63.30190000 20.41020000 114.86800000
63.97870000 18.18270000 113.05200000
63.27260000 20.37760000 112.99800000
62.47280000 22.54850000 112.93700000
63.12120000 20.31490000 111.06700000
62.34610000 22.49140000 111.02800000
61.48130000 24.64200000 110.99600000
62.27740000 22.46270000 109.10100000
61.41230000 24.61410000 109.08800000
60.44970000 26.73060000 109.08500000
61.34650000 24.59000000 107.17600000
60.39150000 26.71050000 107.18600000
59.36320000 28.80440000 107.20000000
60.34820000 26.69860000 105.28100000
59.31540000 28.79160000 105.30500000
58.21310000 30.85380000 105.33200000
59.28730000 28.78870000 103.40500000
58.19030000 30.85580000 103.43900000
57.01760000 32.88400000 103.47200000
58.15680000 30.85140000 101.54100000
56.99050000 32.88500000 101.57800000
55.76770000 34.88650000 101.61100000
56.96880000 32.88810000 99.68090000
55.74680000 34.89230000 99.71580000
54.46130000 36.85770000 99.74490000
55.73270000 34.90050000 97.81750000
54.44280000 36.86630000 97.84740000
53.09840000 38.79350000 97.87000000
54.42490000 36.87120000 95.94620000
53.07890000 38.80110000 95.96920000
51.65470000 40.67500000 95.99300000
53.05810000 38.80490000 94.06800000
51.62320000 40.67820000 94.09310000
50.11010000 42.49010000 94.12360000
51.57850000 40.67060000 92.19640000
50.04510000 42.47220000 92.22770000
48.49670000 44.25890000 92.26380000
50.02610000 42.49270000 90.33450000
48.49770000 44.30160000 90.37220000
46.94540000 46.08940000 90.41040000
48.37120000 44.23080000 88.48440000
46.90350000 46.09100000 88.51480000
45.26360000 47.79440000 88.54650000
46.81330000 46.04300000 86.61750000
45.17950000 47.74920000 86.64640000
43.45060000 49.34950000 86.67120000
45.12330000 47.72740000 84.74230000
43.39470000 49.32850000 84.76560000
41.59580000 50.84270000 84.78350000
43.39150000 49.36380000 82.85860000
41.58570000 50.87630000 82.87720000
39.73090000 52.31840000 82.89030000
41.62770000 50.97330000 80.97380000
39.76410000 52.41520000 80.98750000
37.85850000 53.79080000 80.99450000
39.73580000 52.43430000 79.08420000
37.82400000 53.80490000 79.09320000
35.87070000 55.10120000 79.09130000
37.71560000 53.72110000 77.19410000
35.77330000 55.02510000 77.19120000
33.79700000 56.25860000 77.17420000
35.71590000 55.02270000 75.28330000
33.75640000 56.27710000 75.26430000
31.76780000 57.46530000 75.22700000
33.69680000 56.28580000 73.35340000
31.70650000 57.46160000 73.31240000
29.68990000 58.55290000 73.24180000
31.65260000 57.49430000 71.39640000
29.63570000 58.58180000 71.31660000
27.58580000 59.56830000 71.19210000
29.56400000 58.61610000 69.39900000
27.50320000 59.59290000 69.26840000
25.41450000 60.49340000 69.08830000
27.41930000 59.65480000 67.35820000
25.31260000 60.53420000 67.17500000
23.17690000 61.34440000 66.93970000
25.20610000 60.59970000 65.27980000
23.05570000 61.40130000 65.03940000
20.86890000 62.12240000 64.73170000
22.92810000 61.47210000 63.16740000
20.72890000 62.20030000 62.84870000
18.47370000 62.80020000 62.42090000
20.58840000 62.28510000 61.00340000
18.30390000 62.86380000 60.55480000
16.01850000 63.42340000 59.95280000
18.15190000 62.92000000 58.75460000
15.88040000 63.49460000 58.14730000
13.60310000 64.01460000 57.43210000
15.92080000 63.51020000 56.53850000
14.01200000 63.97460000 56.05630000
12.32240000 64.56900000 55.48600000
14.56890000 64.07120000 54.90420000
13.20890000 64.36340000 54.62750000
12.19010000 64.53800000 54.30180000
11.26130000 64.74830000 54.84770000
10.20500000 64.94380000 55.13880000
10.63070000 64.82510000 54.37560000
9.75800000 65.01640000 54.57620000
9.12920000 65.37810000 54.82630000
9.42070000 65.12490000 55.11320000
8.54740000 65.27020000 55.16400000
9.19610000 65.08650000 55.62930000
7.94490000 65.21480000 55.78510000
8.34270000 65.57970000 55.05010000
7.61180000 65.34630000 55.49250000
6.73750000 65.21550000 55.93520000
7.30720000 65.40950000 55.23020000
6.40980000 65.44690000 55.63650000
5.43160000 65.36890000 55.88310000
6.11770000 65.48440000 55.29290000
5.17760000 65.53400000 55.51650000
4.19700000 65.56550000 55.64820000
4.97070000 65.57040000 55.13450000
4.04520000 65.58890000 55.25240000
3.02540000 65.61440000 55.28730000
3.91980000 65.61710000 54.87630000
2.89320000 65.62160000 54.90380000
1.78330000 65.60380000 54.87310000
2.77590000 65.61400000 54.52960000
1.67460000 65.60690000 54.50530000
0.57600000 65.63100000 54.38040000
1.61870000 65.65870000 54.11850000
0.67460000 65.97220000 54.17110000
0.01870000 66.72000000 54.58940000
-0.19270000 66.31250000 54.63210000
-0.81310000 66.70130000 54.08410000
-1.02190000 66.86290000 54.54220000
-1.50830000 66.40050000 53.53000000
-1.75290000 66.39170000 53.79750000
-2.20240000 66.29770000 52.91320000
-2.48000000 66.42870000 53.16880000
-3.09290000 66.71890000 52.11590000
-3.56600000 66.70470000 52.35440000
-3.12190000 65.76560000 51.49860000
-3.25600000 65.41000000 51.76440000
-3.29830000 65.23350000 50.84980000
-3.67310000 65.16060000 51.02970000
-3.64590000 65.22430000 50.13900000
-4.03430000 65.14870000 50.33380000
-3.92030000 65.19830000 49.44420000
-4.32870000 65.12160000 49.65680000
-4.78200000 65.11160000 49.81780000
-4.58660000 65.12480000 48.95450000
-5.05160000 65.03940000 49.07800000
-5.58210000 64.96040000 49.09410000
-5.30260000 65.04140000 48.29830000
-5.82150000 64.94790000 48.26280000
-6.36310000 64.86290000 48.16730000
-5.99790000 64.97010000 47.40140000
