-5.91672000 -0.63752200 0.05262500
-5.88055000 -1.04042000 -0.04364060
-5.97098000 0.50410600 0.09946250
-5.97698000 0.13075000 0.09755400
-4.81543000 -5.24263000 -1.44688000
4.96054000 -0.76179500 0.37906100
2.69852000 7.62325000 3.46733000
2.59900000 8.19860000 3.35149000
3.73033000 3.44984000 -2.88002000
3.69072000 2.87112000 -3.02448000
3.67982000 4.08109000 -2.82077000
-5.97562000 0.27545800 0.05698630
4.03940000 -4.80496000 -0.90073700
-5.29107000 5.89563000 0.57587800
-5.31042000 5.83041000 0.70618700
-5.23283000 6.10811000 0.56547400
-5.93344000 0.05039960 0.20511200
-5.92898000 -0.34192500 0.07491380
3.10785000 -2.72757000 -3.33990000
2.91254000 -2.22003000 -3.57891000
-1.44279000 -1.74352000 5.90223000
-1.13721000 -1.52836000 6.07310000
-3.44803000 -3.87169000 2.84733000
-3.57187000 -3.68673000 2.95025000
2.46463000 0.26862300 -4.08285000
-1.73280000 0.98653600 5.88066000
-1.59155000 1.63122000 5.90065000
-1.13707000 -2.88208000 5.71039000
-1.16966000 -2.77639000 5.68583000
-0.94804900 -2.55063000 5.92140000
1.27777000 5.91752000 -3.94748000
-3.66059000 3.45370000 4.61161000
-3.60902000 3.27314000 4.65605000
-5.98041000 -8.43238000 -2.23672000
4.19958000 5.08714000 0.56220800
-0.85997600 -2.73260000 5.92279000
-0.66709300 -2.60492000 6.03939000
-0.03322310 -9.23412000 6.37037000
0.69936600 -4.93502000 0.89502500
0.99760200 -4.88168000 0.91524700
4.30114000 7.01811000 0.91781700
4.06900000 8.08688000 0.98967100
4.15122000 7.74899000 0.87596700
2.12125000 7.97982000 -2.28802000
2.56603000 8.06189000 -1.85610000
2.29839000 8.21845000 -2.04266000
2.42169000 8.51731000 -2.39308000
2.54385000 8.30677000 -2.39593000
-0.69609300 -4.75845000 -2.05809000
-0.89363300 -4.88778000 -1.85730000
-5.76502000 3.91476000 0.66986300
-5.79488000 3.42679000 0.83236800
-5.71183000 3.99732000 0.78560000
-5.65957000 4.33095000 0.54891100
-5.17606000 3.09774000 -0.78678500
-5.28610000 3.34969000 -0.04079510
-5.29933000 3.09272000 -0.05090250
-5.31921000 3.32778000 0.68873500
-5.32762000 3.33689000 0.32354300
-3.04032000 -2.15430000 4.51165000
-2.86366000 -2.32879000 4.59272000
-2.90876000 -2.02244000 4.66905000
2.60191000 7.96530000 -2.45684000
2.62397000 7.65700000 -2.51308000
2.74635000 6.75987000 -2.74998000
2.63874000 6.81397000 -2.79447000
1.73862000 -4.22787000 4.33941000
1.79997000 -4.28642000 4.24788000
1.85673000 -4.20592000 4.23554000
-5.82278000 -0.27707700 0.74929000
-5.92977000 0.30968700 0.62084800
-0.90185300 4.94888000 5.37091000
-0.78195500 4.75167000 5.39989000
-0.83161700 5.19897000 5.33015000
-3.08277000 -1.75189000 4.61721000
-2.94204000 -1.80695000 4.70588000
-3.16608000 -1.24665000 4.70295000
-5.26359000 3.25058000 -1.75130000
-5.21131000 3.62274000 -1.76197000
0.22738700 9.86581000 4.99002000
0.71314500 9.84660000 4.92032000
-2.45286000 -1.36970000 -3.77183000
-5.77401000 3.75909000 0.88864500
4.70601000 3.65999000 -0.11121700
4.67509000 4.00062000 -0.06413110
0.64049800 -7.80962000 5.87257000
0.58890000 -8.09254000 5.77252000
-0.66124400 -3.86689000 -3.36468000
-0.89071200 -3.72445000 -3.37137000
-4.92483000 -7.11033000 -3.30061000
-5.06405000 -6.67635000 -3.29849000
-3.71536000 4.80742000 4.39239000
-3.80924000 4.99513000 4.31002000
-3.82588000 4.55239000 4.35020000
2.73575000 3.78202000 4.91459000
2.71731000 3.56186000 4.95345000
4.72603000 4.36412000 0.84821500
4.73650000 4.30611000 0.70023400
4.68769000 4.82402000 0.95373400
4.64695000 5.31332000 1.08102000
-2.36038000 9.86100000 -2.95784000
-2.53339000 9.85784000 -2.94183000
0.68372600 -7.35216000 5.92565000
0.70239000 -7.33754000 6.11001000
-3.63000000 5.07375000 4.44431000
-3.59014000 5.46190000 4.37202000
-5.36555000 -6.94014000 -3.22494000
-2.37147000 9.86832000 -3.10212000
-2.24148000 1.23821000 -3.81307000
-1.88312000 1.25191000 -3.88150000
-1.83628000 -0.17035300 -3.80636000
-1.86636000 0.88513800 -3.87381000
5.43115000 -6.31117000 -2.21374000
5.39992000 -6.38177000 -2.42693000
-4.19709000 9.02137000 -0.85498100
-4.08760000 9.23568000 -0.81190500
-3.63977000 4.68706000 4.49214000
1.46470000 2.78194000 5.74931000
1.45574000 3.00925000 5.74549000
1.55138000 2.88702000 5.74271000
-0.49915200 -1.86977000 -4.26936000
-3.88192000 5.84929000 4.03890000
-3.73728000 6.00350000 4.11336000
-3.81688000 6.12425000 4.03882000
2.18503000 7.08447000 4.69024000
2.31785000 6.34882000 4.81876000
4.80779000 3.77495000 0.73762500
4.82795000 3.26111000 0.76976700
4.78810000 4.01391000 0.80698600
0.90101200 7.97290000 5.01659000
0.80445700 7.84260000 5.04105000
-5.23656000 -1.11757000 -2.47713000
-3.57833000 9.88817000 2.64578000
-4.07886000 8.46335000 -1.36208000
-4.13247000 8.07512000 -1.45196000
-4.10244000 9.02787000 -1.07223000
-3.87054000 6.02998000 3.96797000
-3.98740000 5.84717000 3.97510000
-1.57958000 3.78485000 -4.31807000
-2.70326000 -2.94670000 4.50919000
-3.93801000 6.31381000 3.88842000
-4.27891000 -6.14632000 -2.37196000
-4.34433000 -6.10320000 -2.08122000
-4.39430000 -6.37316000 -2.23636000
-3.76708000 9.85577000 1.98286000
1.48056000 6.72332000 5.18774000
-1.62396000 -4.14187000 4.40901000
-0.19309600 4.27043000 -4.39049000
3.50140000 9.50345000 -0.10496100
3.48266000 9.43875000 -0.16728000
-2.37079000 1.33953000 5.47731000
-2.54011000 1.24599000 5.33416000
3.50500000 9.43274000 -0.00948050
3.62337000 9.46535000 0.05513980
-4.65343000 9.94089000 0.24214500
-4.55985000 9.91658000 -0.11313200
-4.62392000 9.91793000 0.49390200
-1.82139000 -3.95051000 3.66960000
-1.24408000 -3.94227000 3.97328000
-0.89898000 -3.93317000 4.06284000
-0.46165700 -7.64617000 6.50277000
-0.67742100 -7.51766000 6.46258000
-0.26612900 -4.49899000 6.36194000
2.73389000 3.26828000 -3.67360000
2.83366000 2.97906000 -3.68046000
2.73674000 2.83113000 -3.72167000
2.65506000 2.78084000 -3.81853000
-3.38651000 8.33144000 -2.46853000
-3.36448000 8.68560000 -2.36327000
-4.50482000 9.91999000 -0.69950300
-4.42725000 9.92210000 -1.01177000
-4.58885000 9.94776000 -0.21508200
4.34718000 4.35552000 -1.58220000
4.43215000 4.25418000 -1.44911000
4.45915000 3.63436000 -1.57191000
-3.90152000 6.22906000 -2.77524000
-3.94077000 6.48262000 -2.65012000
2.36094000 9.79296000 -1.81990000
2.49913000 9.82569000 -1.88146000
2.30485000 9.75023000 -1.79170000
5.55354000 -7.63264000 -2.69528000
-3.58374000 7.13807000 -2.70587000
-3.77623000 6.40708000 -2.77900000
2.65247000 9.74341000 -1.47321000
2.63429000 9.72729000 -1.28520000
2.47281000 9.74166000 -1.43647000
-2.46624000 -2.56203000 -3.49630000
4.90630000 -8.71682000 -2.98860000
4.91140000 -8.66942000 -3.01176000
-3.17123000 -4.13377000 2.72479000
-2.96378000 -4.30603000 2.63519000
4.82283000 -3.44410000 -1.01259000
4.81196000 -3.60067000 -0.99121500
4.77528000 -0.38413900 1.97797000
4.80379000 -0.00979054 1.94851000
4.80248000 0.15726900 1.84257000
-0.84658200 7.56778000 -3.78680000
4.78827000 -0.41648000 1.83776000
4.78925000 2.28990000 -0.38761200
-5.31604000 6.06442000 -0.06804460
-5.32711000 5.90269000 -0.11874700
-1.17420000 -4.57210000 5.26449000
-1.16040000 -4.53488000 5.39930000
-1.22814000 -4.44832000 5.02353000
-4.79175000 -6.89160000 -3.21713000
1.85878000 1.60552000 5.80243000
1.96591000 0.83481400 5.83502000
1.99454000 1.36799000 5.71100000
-5.33528000 5.94310000 -0.23783200
3.92555000 3.77183000 -2.48134000
3.96827000 3.88022000 -2.43213000
2.06996000 1.43110000 5.67029000
2.11780000 1.19514000 5.68173000
-0.23533800 6.85990000 5.41347000
-3.03348000 1.02526000 5.05222000
-2.92916000 1.10449000 5.08765000
-2.87195000 0.84906900 5.15550000
-2.15313000 -3.81172000 -2.35202000
3.99037000 3.53461000 -2.44478000
2.21593000 0.90707500 5.59462000
-5.25936000 5.89295000 1.55629000
-5.20235000 6.15954000 1.41295000
-2.98428000 0.61535700 5.08668000
-3.29075000 3.63160000 -3.79388000
-3.50142000 2.85706000 -3.70818000
4.76844000 3.18353000 1.35484000
4.78986000 3.03521000 1.35331000
2.91153000 9.83680000 -2.07753000
2.67637000 9.82133000 -2.21108000
2.41374000 6.89541000 -2.45902000
2.76117000 6.74913000 -2.18848000
2.60389000 7.03171000 -2.22690000
2.91519000 6.82234000 -2.01682000
3.07111000 6.92257000 -1.72775000
2.81620000 6.89566000 -2.08536000
-5.78328000 -1.39379000 0.26625300
-1.64704000 5.94293000 -3.94908000
-3.06195000 -3.93802000 2.52404000
-0.25049600 6.04944000 -4.15993000
-0.37029700 6.20762000 -4.11281000
-0.21001800 6.58108000 -4.02330000
5.55001000 -8.46643000 -2.71358000
5.65162000 -8.49755000 -2.62414000
4.27339000 0.55428500 3.30155000
4.24310000 1.56637000 3.24247000
4.21843000 1.19037000 3.33206000
4.76037000 1.38098000 -1.01130000
4.70317000 1.40413000 -1.09742000
-1.66837000 7.37278000 -3.66642000
-1.73800000 7.71453000 -3.53995000
-1.51525000 7.70261000 -3.59321000
-0.11848600 6.25981000 -4.06864000
-0.06659080 7.20682000 -3.82180000
-5.79856000 3.11708000 0.64831200
-5.80752000 3.47808000 0.74457700
-5.76743000 3.56753000 0.60064700
-5.78861000 3.60329000 0.77293600
1.55591000 -4.84568000 2.58317000
-1.62311000 7.20006000 -3.71812000
-1.50493000 6.94853000 -3.77758000
-1.74984000 6.79703000 -3.73197000
3.65125000 -2.87873000 1.03650000
3.61070000 -2.88960000 1.34412000
3.55468000 -2.88828000 1.65268000
-0.17064200 8.39371000 -3.49158000
-0.24936600 -6.34829000 6.59684000
-0.09808450 -6.31590000 6.57470000
-3.47672000 -3.93167000 1.90599000
-0.93172000 -5.36699000 5.36413000
-5.71035000 4.26177000 0.64434300
-0.03101140 8.07733000 -3.58955000
0.06478570 7.71906000 -3.69990000
-0.05566350 7.68340000 -3.69125000
-1.94602000 5.38122000 -3.98620000
2.86773000 6.58201000 -2.15371000
3.21603000 8.42857000 3.37085000
-1.44761000 3.31926000 -4.34074000
-1.32506000 3.10122000 -4.33754000
0.07937850 7.52809000 -3.73248000
-0.81112000 -5.48102000 5.23930000
-5.08655000 3.08310000 -1.12783000
-1.43827000 5.99808000 -3.64796000
-1.28856000 6.51411000 -3.54262000
1.29254000 -1.24276000 -4.18168000
1.86303000 0.48544100 -4.31338000
1.63667000 0.65973500 -4.37005000
1.99182000 0.37010400 -4.25293000
4.02221000 3.49884000 3.58393000
3.97640000 4.02344000 3.62106000
4.01645000 3.93361000 3.52479000
-3.72508000 -3.89699000 -0.54933100
-4.65508000 5.49092000 -2.08265000
-4.48149000 5.68416000 -2.30013000
2.19799000 -4.41010000 -2.25041000
3.47727000 -3.09724000 -0.28537900
3.38330000 -3.10265000 -0.79199300
4.18404000 9.87316000 1.02276000
3.01113000 9.95619000 3.73077000
-0.88752200 3.43683000 5.54030000
-0.52053200 -6.05464000 5.22170000
-0.10420300 5.30867000 -4.26826000
-5.73622000 -2.02908000 -0.78690900
-5.78128000 -1.78421000 -0.56271800
-5.65777000 -2.32625000 -0.58588200
-5.72615000 -1.99515000 -0.18686800
-5.75335000 -1.93358000 -0.48697100
-1.37970000 8.83666000 4.03674000
-1.07467000 8.62792000 4.23553000
-0.97834400 8.65542000 4.26948000
-0.55392000 8.44712000 4.47741000
-1.10397000 8.24092000 4.40973000
4.17626000 9.70029000 1.23977000
5.10328000 -7.01282000 -2.93157000
-4.68917000 9.88605000 0.87348700
3.59987000 4.71602000 -2.73373000
-5.90461000 0.74994400 -0.68373300
-5.94737000 0.52864100 -0.61285600
3.73469000 9.89498000 2.20014000
3.88368000 9.95362000 2.35764000
3.62058000 9.92077000 2.18080000
3.49985000 9.94456000 2.24656000
2.96507000 -4.41938000 -0.53176200
-5.39632000 2.76139000 2.28691000
-5.45581000 2.03736000 2.16479000
-5.39552000 2.40639000 2.21261000
-0.68912000 1.24863000 -4.38477000
-3.15900000 3.58215000 5.05134000
-3.31900000 3.63973000 4.91664000
-3.14571000 2.81956000 5.03623000
-3.28382000 2.89298000 4.94376000
-3.29345000 2.50855000 4.90672000
-1.27378000 -2.14233000 -3.96682000
-1.37320000 -2.10242000 -3.97153000
4.64297000 1.18128000 -1.64841000
4.62470000 0.68598500 -1.75843000
4.57732000 0.32089700 -1.86835000
4.56427000 0.88137600 -1.86178000
2.43937000 -4.55568000 0.48822500
-3.51695000 9.60517000 -0.31114800
2.72717000 9.42327000 -1.72034000
2.77671000 9.39490000 -1.57614000
2.41830000 9.41220000 -2.10030000
-0.59088400 4.33613000 -4.40339000
-0.79150400 4.74774000 -4.36634000
-5.04067000 -5.33064000 -1.51742000
1.21972000 -4.28288000 5.19257000
-4.78107000 -3.52148000 1.06626000
-4.55765000 8.26129000 -0.10323800
-4.71616000 7.75353000 -0.05839190
-3.22072000 3.43608000 4.98742000
-2.69657000 2.54061000 5.27136000
-2.88244000 3.05725000 5.21310000
-5.86245000 -8.50053000 -3.04409000
1.65362000 -3.06057000 5.47536000
1.70311000 -3.22893000 5.38998000
-0.34686500 -4.00000000 -0.95812300
4.14234000 -6.37288000 -2.41428000
4.69036000 -1.79544000 -1.77901000
4.59657000 5.48210000 0.81718300
4.51480000 5.86028000 0.56355900
4.47233000 5.84310000 0.47757300
-5.49593000 3.11680000 -1.23200000
-5.45757000 3.50089000 -1.25278000
-5.46896000 3.36257000 -1.33804000
-5.38997000 3.65103000 -1.39649000
-5.42159000 3.70484000 -1.24409000
0.61329700 -8.04499000 6.49905000
4.68658000 -2.13692000 -1.40063000
4.69888000 -2.05128000 -1.54188000
-5.37587000 5.46726000 0.85197000
-5.22929000 6.24967000 0.64924200
-2.84444000 2.76525000 5.18748000
-5.45383000 3.83509000 -1.19617000
1.39988000 1.04990000 5.33170000
3.45009000 6.76382000 -1.99030000
-5.16519000 6.33247000 0.52895800
-5.11247000 6.54914000 0.62808300
-5.22263000 6.12878000 0.76623900
4.60104000 4.75160000 0.29880100
4.60977000 4.88944000 0.39071900
4.59292000 5.20857000 0.47788300
4.53374000 5.58592000 0.46038300
4.56652000 5.65867000 0.54888300
4.62709000 2.43075000 2.07197000
4.63524000 2.23029000 2.22706000
-0.72359700 1.92314000 -4.41201000
-3.80439000 8.86211000 -1.70056000
-4.05379000 8.03825000 -1.63048000
-5.37831000 3.84267000 -1.29483000
-0.02975060 -2.05562000 6.19863000
-0.61010700 2.02710000 -4.44648000
-3.94207000 9.46007000 1.88162000
-3.42632000 -4.02207000 2.61367000
3.61599000 7.30584000 -1.36022000
3.72224000 6.73892000 -1.47803000
3.60596000 6.93626000 -1.52222000
3.73730000 6.37256000 -1.67542000
-5.08945000 6.48932000 0.74336500
5.52271000 -8.60609000 -2.13386000
5.66067000 -8.59022000 -2.14203000
-5.33833000 -8.77974000 -2.28731000
-1.07960000 -4.71513000 5.66247000
-1.03189000 -4.67960000 5.72604000
4.69922000 3.45151000 1.78945000
-1.00741000 -5.10767000 5.96387000
-0.87483100 -4.74403000 5.94938000
-0.90391300 -4.62614000 5.84503000
-5.59667000 2.31234000 -1.20021000
-5.52405000 2.97205000 -1.23672000
-4.66340000 -0.81187800 3.08042000
-4.58414000 -1.22287000 3.06550000
-5.81609000 2.91961000 -0.10298300
-5.86291000 2.11799000 0.37676700
-3.27780000 9.51036000 -1.98917000
-4.66957000 0.20062000 3.21520000
-4.58219000 0.02342560 3.31775000
-4.60370000 0.53726000 3.29268000
-2.87341000 9.37887000 2.67976000
0.55664100 6.33907000 5.51792000
0.20195000 6.62742000 5.47416000
1.18257000 9.83708000 4.36826000
1.13658000 9.81141000 4.25342000
1.28882000 9.81777000 4.25990000
-4.60572000 -0.94556900 3.15370000
-4.64481000 -0.60990700 3.18738000
-4.68770000 -0.36473000 3.16602000
2.50377000 9.81853000 -2.75814000
2.36545000 9.88806000 -2.81220000
1.62176000 -3.96179000 -3.03485000
1.50707000 -3.89920000 -3.13884000
2.76377000 9.33643000 2.34141000
2.61977000 9.41824000 2.52732000
0.37888200 2.75558000 6.04035000
0.13261000 2.59379000 6.09307000
0.39968300 2.28609000 6.08376000
2.86098000 8.65333000 3.57754000
2.93027000 8.34951000 3.64658000
-2.95640000 5.33101000 -3.21513000
0.03101830 3.06318000 6.08582000
0.16234000 3.23397000 6.04918000
0.33576500 3.10505000 6.04674000
0.07702210 2.94238000 6.08254000
-3.62588000 -4.34038000 1.88848000
-3.96296000 -4.08174000 1.92105000
-4.08963000 -3.92255000 1.96333000
2.68135000 3.20663000 5.05709000
2.70328000 3.43583000 5.02592000
-2.34645000 -2.91457000 4.84944000
-2.30698000 -2.40769000 5.11868000
-1.78519000 -1.56848000 -4.01278000
-1.80827000 -1.24319000 -4.05573000
-1.72163000 -1.27690000 -4.10715000
-4.27056000 -2.55054000 2.23864000
5.15620000 -4.83729000 -1.94822000
2.21345000 8.84753000 3.44203000
0.40179800 4.03424000 5.95948000
0.48063200 4.43099000 5.93473000
2.97956000 -3.09871000 -1.64055000
0.99053900 8.90845000 -3.06796000
4.90128000 -8.56954000 -3.02843000
3.90782000 -1.22387000 3.72300000
0.24864900 3.60133000 5.54555000
4.70780000 -1.14046000 1.56228000
-5.09072000 0.47588500 -2.64735000
-0.56825800 0.94038800 -4.37213000
-3.08498000 -3.26423000 -2.99216000
-3.07639000 -3.48694000 -2.86644000
2.13728000 4.70195000 5.29673000
2.01233000 4.71121000 5.36115000
1.93692000 5.03817000 5.34744000
1.89405000 4.69245000 5.44282000
2.33966000 -3.09215000 -2.33246000
2.04160000 -3.08520000 -2.53585000
2.58532000 -3.09400000 -2.12734000
-1.18178000 8.65340000 4.75684000
0.29744400 4.11699000 5.98286000
0.36983600 3.61014000 6.01338000
0.26940200 4.46606000 5.94267000
-0.35872900 9.52686000 -3.62423000
-0.66390300 9.53344000 -3.61076000
1.32111000 9.52098000 4.12679000
-5.58202000 -2.57929000 -1.12565000
-5.59598000 -2.70024000 -1.31322000
3.26519000 -3.61585000 3.36087000
0.68258200 8.83817000 -3.18296000
0.23826600 7.93360000 -3.63323000
0.26102400 8.44068000 -3.45878000
0.39192500 8.28201000 -3.49863000
-4.97148000 -3.15127000 1.15523000
1.74907000 8.15201000 4.06828000
1.53953000 7.76346000 4.36834000
1.39327000 7.99448000 4.35263000
1.38149000 7.66856000 4.48129000
1.91008000 5.42612000 5.29572000
-2.39699000 -1.13051000 -3.92425000
0.82403800 -4.04967000 1.15028000
2.48137000 9.34560000 -1.24620000
3.87597000 3.84378000 3.06454000
3.96746000 4.41092000 2.68269000
-3.34890000 -2.66846000 -3.20078000
1.81169000 8.27556000 3.97825000
1.69828000 8.30505000 3.98994000
1.69523000 8.45183000 3.98944000
-1.74844000 -0.67335600 -4.19248000
-2.67759000 3.73167000 -4.02114000
-2.43576000 4.01541000 -4.09127000
-2.59958000 3.53471000 -4.06996000
-3.51186000 -0.01588120 -3.83472000
-3.46137000 -0.42599500 -3.79467000
-3.51186000 -0.01588120 -3.83472000
4.17049000 3.69772000 -2.05255000
4.24403000 3.29978000 -1.98893000
-3.10693000 1.61687000 -3.96105000
-2.97234000 1.89603000 -3.97743000
-3.09961000 2.08581000 -3.95886000
-3.09552000 1.90053000 -3.95684000
-3.16447000 2.06122000 -3.88489000
-1.88040000 9.38812000 -2.31280000
-4.05350000 9.84046000 2.53180000
1.53782000 -4.45839000 4.04882000
3.84861000 5.69462000 -0.88575100
3.79886000 5.44003000 -1.08693000
3.88983000 5.38797000 -0.90592500
3.69044000 6.05023000 -0.99976500
3.51558000 6.46271000 -1.17207000
2.95417000 4.67075000 -3.29125000
0.01183680 -4.79226000 -2.24272000
3.08665000 3.94969000 -3.33653000
3.06656000 4.47410000 -3.24963000
-5.04491000 6.70857000 0.49254500
1.50509000 4.63886000 5.58294000
1.51838000 5.02053000 5.52746000
4.81126000 2.99187000 1.10567000
4.79875000 3.05629000 1.00231000
4.79039000 3.13747000 1.13240000
-5.58632000 4.50818000 1.31925000
-0.49368900 6.52238000 -3.66132000
-0.15953600 6.57194000 -3.68572000
-0.08057730 6.77014000 -3.57007000
3.16999000 4.05244000 -3.27979000
-1.51837000 -4.84420000 -1.06044000
-1.51339000 -4.79567000 -1.29860000
-0.91883000 9.74000000 -3.63133000
-0.39069800 9.82257000 -3.64763000
0.96584600 -4.80811000 2.89879000
1.00039000 -4.86422000 2.81930000
-3.40205000 4.63369000 4.71932000
-3.31475000 4.69081000 4.79624000
-3.37162000 4.98712000 4.64651000
4.15052000 9.87121000 -0.01487530
-5.38837000 2.45130000 -1.60825000
-5.36929000 2.19217000 -1.75258000
-5.35711000 2.81314000 -1.62907000
-5.29874000 2.95906000 -1.74523000
0.26774100 3.26484000 -4.38842000
-5.57469000 -4.89757000 -2.37163000
-5.56743000 -5.08132000 -2.46742000
-5.65645000 -5.22466000 -2.27808000
-5.50536000 -5.01181000 -2.52937000
3.27930000 -0.50727500 -3.64386000
3.23275000 -0.77147500 -3.64941000
3.24278000 -0.23493900 -3.71297000
3.29945000 -1.31771000 -3.53649000
-2.95256000 2.02085000 -3.96432000
-2.81609000 2.28825000 -4.02570000
-2.88984000 1.93970000 -4.00849000
-2.79732000 1.86343000 -4.02897000
-2.73565000 2.08327000 -4.05179000
-2.73315000 1.93809000 -4.08879000
0.35124000 4.04723000 -4.37550000
-0.17944000 -4.06948000 -3.23598000
-0.03023970 -4.08946000 -3.26602000
-5.47123000 -4.53626000 -2.41529000
-5.43830000 -4.71898000 -2.51466000
-3.54136000 9.50878000 -0.21134800
1.92003000 -4.67427000 -0.76164300
2.23948000 -4.58673000 -0.98291200
2.40679000 -4.54008000 -0.71542600
-3.57218000 -4.08034000 -2.57407000
-5.39068000 5.61780000 -0.09144270
-5.49792000 5.19196000 -0.11726600
-4.10528000 0.63682600 -3.58179000
-4.01970000 1.24830000 -3.54999000
-4.18819000 1.26240000 -3.44551000
-1.13225000 3.58610000 -3.96875000
-1.84876000 3.50484000 -3.86081000
-1.80384000 9.07441000 3.66265000
-1.61983000 8.98411000 3.85006000
3.51462000 9.81047000 0.02104170
-1.21319000 -4.45725000 4.39683000
2.92259000 -1.28254000 5.01414000
3.04476000 -1.08079000 4.93846000
3.71221000 9.82515000 -0.75416100
3.82400000 9.83766000 -0.61536400
3.48095000 9.82515000 -0.45836400
3.67601000 9.83631000 -0.52423100
0.47303300 -8.87581000 6.62549000
2.62140000 8.32910000 -2.30391000
2.69894000 8.54111000 -2.18109000
2.73096000 8.15533000 -2.28301000
1.86596000 -4.70142000 -0.66929100
4.23771000 -2.47722000 2.45521000
4.36191000 -1.68880000 2.51592000
-5.51495000 -3.59143000 -2.10791000
-5.54767000 -3.84473000 -2.01736000
-5.56510000 -3.60601000 -1.86537000
-5.56510000 -3.60601000 -1.86537000
-5.54767000 -3.84473000 -2.01736000
-5.57977000 -3.70021000 -1.69997000
3.23995000 -4.29570000 1.19538000
2.79847000 7.74082000 -2.38565000
2.96000000 7.16323000 -2.42225000
3.02829000 6.76739000 -2.53583000
2.93239000 6.74851000 -2.62836000
-2.77645000 -4.79495000 1.22200000
-2.65772000 -4.79617000 1.22288000
-2.72996000 -4.79095000 1.38203000
-2.83835000 -4.73282000 0.60991400
-3.01048000 -4.69834000 0.61361400
-4.11174000 -2.27652000 3.28326000
-4.24380000 -2.12256000 3.15773000
-4.14272000 -1.93694000 3.41595000
-4.31637000 -1.73565000 3.30660000
4.66907000 -3.28821000 -0.46823000
4.66404000 -2.70744000 -0.47722200
4.60813000 -2.91478000 -0.32058700
-5.54063000 0.84266200 -1.67062000
-5.55811000 0.57554000 -1.70176000
0.48569600 -4.72885000 3.75183000
0.55549100 -4.73145000 3.34637000
0.80899100 -4.80151000 4.04138000
0.82046200 -4.69173000 3.95620000
0.18774300 -6.36916000 6.61464000
0.20503600 -6.81912000 6.64124000
2.84018000 7.36884000 -2.45845000
2.82073000 6.85235000 -2.65280000
-1.30527000 -2.87088000 -3.17781000
-0.92870300 -2.88658000 -3.23332000
0.34603800 -9.00034000 6.40062000
4.80296000 -1.85551000 -0.43875500
4.76910000 -2.02287000 -0.28588200
4.68138000 -2.51190000 -0.28626100
4.77109000 -2.06197000 -0.47815200
3.65432000 9.51037000 1.87334000
-4.36305000 -1.93468000 3.12229000
4.62517000 -2.64568000 -0.42644300
4.72953000 -2.26599000 -0.44136700
-4.88150000 7.22577000 1.42913000
-3.80760000 -3.23579000 3.04594000
-3.93296000 -2.86728000 3.16575000
-3.88469000 -3.05342000 3.07574000
4.59007000 -2.68806000 -0.17889600
4.58341000 -2.78544000 -0.32565800
-4.99948000 6.69719000 1.62576000
-5.12012000 6.32133000 1.62561000
2.05151000 7.79977000 -2.39651000
1.82570000 7.70083000 -2.60913000
0.17180000 9.80887000 -3.38007000
-4.93655000 1.57413000 2.93110000
-5.04922000 0.69503900 2.77183000
1.71919000 7.33932000 -2.79790000
1.53018000 7.54935000 -2.84518000
1.48768000 7.74000000 -2.81989000
-5.85642000 -7.24188000 -2.87556000
-5.73174000 -6.72357000 -2.82084000
-5.60158000 -7.08093000 -3.12593000
3.12140000 7.29562000 -1.35641000
3.20638000 6.79168000 -1.55756000
3.31014000 6.64149000 -1.46321000
2.93067000 -4.18124000 -2.56582000
-4.49553000 2.76184000 -2.79384000
-4.56883000 2.15768000 -2.89989000
-4.57503000 2.39794000 -2.80022000
-4.59764000 2.75610000 -2.78119000
3.57595000 -3.30208000 -3.09653000
3.12703000 7.00634000 -1.59307000
1.07195000 4.49910000 -4.27876000
1.00384000 4.73121000 -4.24256000
-2.20997000 -3.95496000 3.39620000
2.53552000 -0.94423300 -3.89816000
2.44099000 -1.14722000 -3.91442000
2.52787000 -0.58938900 -3.96653000
2.37435000 -0.24502500 -4.10955000
-1.35827000 -1.09237000 6.01965000
-1.02966000 -1.23975000 6.11589000
-1.39389000 -1.38044000 5.99023000
-4.28757000 -2.25784000 3.04624000
0.22392800 5.41207000 -3.82249000
-0.04421930 5.40618000 -3.85840000
1.88547000 7.47376000 -2.65346000
-1.05584000 -0.95458100 6.10070000
-1.09642000 -1.11897000 6.08651000
-4.11792000 9.40710000 -0.02206830
-4.09690000 9.48698000 0.05549810
-0.92430700 -0.47948200 6.19780000
-1.14421000 -0.65949400 6.10665000
-5.14979000 6.44182000 0.87133000
-3.90484000 -4.11534000 -2.73725000
-0.97729000 0.26245000 -4.34323000
-0.98564800 0.68416700 -4.31911000
-0.96065100 -0.65931500 -4.31806000
-0.89104900 -0.31107200 -4.35602000
3.90064000 7.69819000 -0.40242500
3.82038000 7.99658000 -0.45409900
3.75909000 8.34220000 -0.22186100
3.82428000 8.20254000 -0.14573500
-4.79592000 -2.29168000 2.19567000
-4.94699000 -1.89556000 2.18789000
-0.06944320 9.80211000 4.73987000
4.62452000 -4.56057000 -0.95081900
4.52535000 -4.61490000 -0.92396200
-4.31616000 9.57739000 -0.21654200
-4.12161000 9.52568000 0.03591010
-5.67435000 0.02272290 -1.54922000
-1.92511000 3.08722000 5.76393000
-4.07783000 9.50852000 -0.15959800
3.10077000 -1.20788000 -3.61532000
3.12632000 -0.03507650 -3.78596000
-3.83412000 -0.50133600 4.21771000
-3.90809000 -0.08787370 4.21415000
-3.86122000 -0.80507000 4.08772000
-1.02701000 -5.05302000 -0.25658000
-4.18793000 6.14626000 2.87258000
-5.68954000 0.30394800 -1.39310000
-5.64187000 0.45454700 -1.52591000
-5.66289000 0.69073300 -1.40539000
-3.78291000 3.38620000 4.47429000
-3.79863000 3.61970000 4.46373000
-3.74258000 2.80728000 4.43201000
-4.87804000 7.37713000 0.31917400
-4.75271000 7.71472000 0.27306700
-4.85882000 7.37233000 0.42157200
5.08074000 -5.00824000 -1.17779000
5.16668000 -5.41631000 -1.27015000
3.90038000 7.69049000 -0.31649400
3.91976000 7.75954000 -0.21731400
-5.29734000 5.94012000 0.90523600
-5.26673000 5.96717000 1.02293000
-0.43247200 -3.10931000 -3.18179000
-0.16491000 -3.10130000 -3.17720000
-0.06417940 2.99032000 6.07532000
-5.21336000 3.13384000 -1.84833000
-0.62104100 7.61993000 5.17959000
-0.54763600 7.87392000 5.10463000
-4.07357000 6.99787000 2.63730000
-4.13519000 6.71026000 2.68450000
-4.83119000 -7.81984000 -2.37714000
1.40952000 -0.72089700 6.10368000
1.56538000 -0.66869200 6.03977000
2.86703000 9.81907000 -1.43638000
3.08656000 -4.38680000 1.61505000
1.78821000 -0.92383800 5.91986000
2.07245000 -1.02350000 5.67501000
1.89754000 -0.86904300 5.83396000
1.77671000 8.20860000 4.60398000
1.77821000 8.39233000 4.50142000
3.15987000 9.10776000 0.60983800
3.15987000 9.10776000 0.60983800
-0.16072100 -5.04470000 -0.39355800
1.85175000 7.92780000 4.09484000
-1.55278000 -4.25831000 -2.47754000
-1.54139000 -4.44743000 -2.28113000
-1.60805000 -4.50188000 -2.13489000
0.47930200 -4.93426000 -0.32093100
-0.55302400 -6.40117000 6.49125000
-0.56596400 -6.17335000 6.45141000
-0.67649100 -6.07107000 6.35611000
-0.86117500 -6.36028000 6.25303000
4.52302000 4.10012000 -1.03720000
4.59215000 3.55266000 -1.12534000
4.50132000 4.23497000 -1.22788000
2.99085000 9.78257000 -0.77179200
-4.08486000 3.35479000 -2.66768000
4.60290000 -5.38199000 -1.10774000
4.60290000 -5.38199000 -1.10774000
-3.54726000 9.87040000 -0.97458200
-5.57302000 -4.03932000 -1.55566000
-5.53961000 -3.89903000 -1.43508000
4.49237000 4.11658000 -1.13226000
4.56502000 3.66390000 -1.17473000
-1.45768000 -3.99353000 -2.89570000
-1.40227000 -4.27798000 -2.48109000
-1.46834000 -4.27904000 -2.48383000
3.87310000 6.68047000 0.14968300
3.87840000 6.70608000 0.32769700
3.27869000 8.81992000 1.18327000
3.42027000 6.29362000 3.93305000
5.02694000 -6.22635000 -1.35304000
4.96947000 -5.89932000 -1.28350000
2.30322000 3.89824000 5.27957000
-4.30507000 -3.92341000 1.60236000
-4.50030000 -3.63624000 1.65689000
-3.62152000 9.64351000 0.55157700
2.38190000 5.84690000 4.90875000
2.08688000 6.13386000 5.04649000
-4.71721000 5.46032000 3.02144000
-4.84858000 5.12007000 2.94894000
4.02555000 4.53846000 -1.96551000
5.19844000 -5.93274000 -1.34866000
5.22696000 -5.78193000 -1.31468000
4.77794000 2.19434000 1.40380000
4.79264000 1.68147000 1.40479000
-3.15433000 -2.45067000 -3.26414000
-3.11628000 -2.70931000 -3.15523000
-1.39689000 5.11108000 5.65568000
-1.24062000 4.14176000 5.87898000
2.57359000 -4.11276000 3.66125000
1.27283000 -1.50293000 -4.12986000
-3.21997000 -2.97230000 3.99446000
-3.34882000 -3.07216000 3.77159000
-3.46513000 -3.15815000 3.53436000
1.34865000 9.90902000 -3.31166000
-4.38370000 -3.75366000 -2.91682000
-4.53362000 -3.66965000 -2.90257000
-4.65418000 -3.84610000 -2.88802000
-4.79783000 -3.61922000 -2.83445000
-2.87767000 3.24446000 5.20533000
-2.98772000 3.36633000 5.17975000
-3.69488000 2.52304000 4.45634000
-3.78731000 2.24307000 4.35164000
-3.69864000 2.21193000 4.46405000
3.68595000 0.16369700 4.26588000
3.53186000 -1.03422000 4.21981000
-2.00201000 2.74526000 -4.25270000
-2.08242000 2.20687000 -4.22447000
-1.81065000 2.71058000 -4.26675000
4.37958000 4.90040000 -1.07832000
4.34614000 5.22170000 -0.98863800
4.42426000 4.84874000 -0.94872500
1.58299000 -4.92018000 2.36709000
1.60195000 -4.87929000 2.53401000
1.48707000 -4.89269000 2.57339000
1.44365000 -4.94077000 2.42668000
-5.73505000 0.55556700 1.34006000
-5.62022000 0.23068700 1.53342000
-5.71826000 0.81723800 1.44502000
-2.35884000 5.44191000 4.76394000
3.49723000 0.03457350 4.54446000
3.97765000 -6.43120000 -1.88127000
-0.48501400 8.71563000 4.36934000
-4.04324000 5.77446000 3.88416000
-4.10415000 5.49842000 3.88612000
-4.19428000 5.60709000 3.73884000
5.20198000 -8.70645000 -2.61325000
-0.35609700 8.52405000 4.47612000
0.32934400 -9.00436000 6.18717000
0.40793700 -9.03641000 6.11148000
5.00830000 -5.74630000 -2.70396000
-5.73462000 -8.78928000 -2.83376000
0.86813400 -1.36842000 -4.21719000
0.93537900 -1.12921000 -4.19786000
4.58533000 1.48850000 -1.70448000
4.60745000 1.05340000 -1.79238000
4.53762000 1.27814000 -1.85829000
-3.53158000 3.35798000 -3.14830000
-3.22608000 3.35402000 -3.35692000
2.10999000 3.31197000 5.42590000
-1.80687000 9.55241000 -3.12739000
-1.95355000 9.52881000 -2.90950000
-1.52716000 9.50193000 -3.03835000
-1.90657000 9.50291000 -2.85970000
4.66341000 -0.26823000 -1.89439000
4.68651000 -0.12266800 -1.79024000
-4.75809000 -8.02926000 -2.77112000
-3.25368000 5.31032000 4.13979000
3.37731000 -0.03090120 4.70366000
3.34921000 0.67540300 4.67813000
3.40859000 0.33541400 4.65227000
3.25588000 -4.71576000 -1.76208000
3.23924000 -4.72153000 -1.65330000
4.98057000 -0.49853200 1.07642000
4.91352000 -0.82383200 1.05542000
4.86000000 -1.05402000 1.18303000
2.93297000 -1.47398000 4.98701000
2.83702000 -1.35905000 5.05895000
2.80716000 -1.56915000 5.06094000
-4.64451000 3.94267000 -2.64280000
4.45018000 -1.25300000 2.36127000
4.41378000 -1.20222000 2.41779000
-4.96272000 1.72594000 -2.59400000
-2.93512000 8.25183000 4.12686000
-3.22255000 8.16949000 3.91649000
-3.31056000 8.09193000 3.84154000
4.24358000 -4.44838000 -2.81394000
4.58705000 -2.99901000 -2.33156000
5.55649000 -7.55868000 -1.79764000
-4.84266000 5.79676000 -1.53882000
-4.70196000 6.14716000 -1.52828000
-4.67043000 6.20582000 -1.64281000
4.15839000 -3.20794000 -2.89874000
4.17729000 -2.36941000 -2.76044000
-4.78991000 6.20490000 0.45082000
-4.82067000 6.13702000 1.04158000
-4.77873000 6.21450000 0.76873300
-1.57192000 9.55522000 3.59512000
-1.06400000 9.58763000 3.75204000
5.42005000 -7.97888000 -1.69841000
-4.57994000 6.49302000 -1.52063000
-4.52552000 6.54334000 -1.61637000
-4.67451000 0.61673500 -3.06093000
-0.43178300 -9.24216000 6.57713000
-1.98285000 1.38122000 -4.21617000
-1.84598000 1.81405000 -4.28950000
-1.90136000 1.00925000 -4.25603000
-1.72415000 1.40196000 -4.26829000
-1.78632000 1.52009000 -4.28789000
-1.51904000 8.14106000 -3.05000000
-3.43608000 9.88922000 -1.73738000
-3.48237000 5.97403000 -3.14235000
-3.52639000 5.99004000 -3.09718000
4.27520000 3.60405000 3.14433000
-3.34754000 6.56120000 -2.53366000
-0.42071800 -3.74218000 -2.74835000
1.43908000 1.41119000 5.97753000
1.57240000 1.03113000 6.00680000
5.17160000 -8.19469000 -3.14304000
-5.92069000 1.36258000 0.20587000
-5.89344000 1.99338000 0.19882200
3.41179000 9.39410000 -0.43906500
3.41569000 9.28111000 -0.48471100
-3.93992000 3.31973000 -3.40031000
-1.04502000 4.02882000 5.93442000
4.57366000 5.80405000 1.15254000
4.60278000 5.78607000 1.26639000
3.56986000 -1.92993000 4.06376000
3.48950000 -2.11658000 4.16129000
3.51518000 -1.43603000 4.20184000
4.63197000 0.27399000 -1.80100000
4.61113000 0.01845110 -1.89075000
3.03720000 9.46273000 0.03379490
4.66647000 0.13976800 -1.71248000
4.73813000 -0.30221800 -1.70721000
0.95011000 5.65808000 5.60840000
-0.74802900 2.80661000 6.03331000
-0.73509700 2.43681000 6.10491000
-0.79208300 2.56049000 6.04372000
-3.70039000 9.22582000 -1.60408000
4.78343000 0.94353700 -1.04274000
4.71590000 1.21693000 -1.09464000
3.29109000 -2.09224000 4.41724000
3.16318000 -2.20916000 4.55646000
3.24410000 -2.35267000 4.39291000
2.96553000 -2.16148000 4.76169000
3.08751000 -2.03321000 4.68641000
-4.42361000 -4.88478000 -3.02894000
-4.43363000 -5.20142000 -3.03352000
-4.17245000 -4.89770000 -2.88870000
0.24058100 9.24717000 -2.99746000
0.23308500 9.29569000 -3.01200000
-0.36613600 9.33648000 -3.07752000
4.75507000 0.91078900 -1.21288000
4.74416000 1.23070000 -1.19288000
4.70941000 1.03889000 -1.32688000
-2.42395000 9.91928000 -3.11752000
-5.59327000 1.49525000 1.70571000
-5.57328000 1.43684000 1.81233000
-2.14593000 -1.55088000 -3.90786000
-2.19027000 -1.42132000 -3.86555000
-2.19694000 -1.25499000 -3.96757000
-2.19675000 -1.06713000 -4.00504000
4.69471000 1.46079000 -1.17757000
4.54587000 6.12333000 1.32914000
4.62570000 5.59729000 1.32469000
-1.06215000 9.44860000 -2.57787000
-0.95282400 9.64287000 -2.60724000
-3.68334000 -3.53427000 -2.87656000
2.37908000 7.47545000 4.39433000
2.27001000 7.95523000 4.30066000
2.12783000 8.69711000 4.17878000
-5.69176000 2.22121000 1.52940000
-2.27019000 -1.12724000 -3.93313000
-2.22752000 -1.64175000 -3.80137000
-2.56296000 9.91022000 -3.03297000
2.95796000 6.20142000 4.40798000
2.84478000 6.14052000 4.50030000
2.83298000 5.69561000 4.61653000
2.70754000 5.80882000 4.65847000
2.26928000 8.71032000 4.08472000
2.09292000 9.29077000 3.89273000
3.10723000 6.84652000 -2.46771000
3.25189000 6.16816000 -2.61069000
3.07845000 6.51356000 -2.60921000
3.17927000 6.58730000 -2.50650000
0.83882400 9.88154000 4.84918000
0.95945200 9.90235000 4.79617000
1.13016000 9.89511000 4.77198000
2.74121000 6.92230000 4.31646000
2.63024000 7.25739000 4.27906000
3.99536000 1.06441000 -2.98294000
-3.49690000 2.25535000 4.70228000
2.29607000 -4.73699000 1.75321000
2.31250000 -4.74805000 2.01839000
2.19346000 -4.80153000 1.87008000
-5.29489000 2.06088000 -0.04966930
0.77837200 -3.29121000 6.09127000
1.32606000 -4.26046000 5.02401000
1.59437000 -4.12800000 4.78606000
-6.01932000 -8.63264000 -2.89105000
0.80599400 -4.56754000 6.10662000
0.80599400 -4.56754000 6.10662000
4.14483000 5.25615000 0.21991900
-5.45670000 -5.27944000 -1.70159000
-5.60761000 -5.23876000 -1.88244000
-5.57775000 -5.55806000 -1.86319000
-5.63283000 -5.07574000 -1.89890000
-5.65868000 -5.03806000 -2.01314000
-5.68632000 -5.31557000 -2.01455000
-0.74098700 -4.72734000 2.78052000
-0.85492600 -4.88971000 2.55623000
-4.50397000 -0.51904300 -3.41097000
-0.49245500 -2.86885000 -3.83895000
0.37058000 8.86404000 -3.25417000
0.43435300 8.70068000 -3.32922000
0.05628350 9.05808000 -3.15280000
2.17641000 6.51304000 -3.26954000
2.34345000 5.95525000 -3.32338000
2.23453000 5.98379000 -3.37506000
-3.74605000 9.89875000 -1.14741000
1.03003000 -4.78423000 -1.69228000
1.28147000 -4.76629000 -1.55934000
0.93663300 -4.82413000 -1.51728000
1.28036000 -4.76458000 -1.42108000
4.00689000 4.65861000 -2.07491000
-5.02700000 -0.34191800 2.76150000
-4.98244000 -0.13756400 2.80375000
-1.49933000 6.40335000 -3.94449000
-3.74385000 9.78148000 0.41627400
-4.01648000 9.84252000 0.62363900
-3.80745000 9.80544000 0.87417600
0.22294300 8.76464000 4.33756000
4.27599000 -3.28566000 0.39033300
-3.67360000 6.42215000 4.03821000
-3.63496000 6.12893000 4.17338000
-5.36810000 -6.61725000 -1.84593000
1.55428000 -4.63677000 3.27216000
1.01327000 1.82001000 -4.42158000
0.99782900 0.93163100 -4.42249000
-2.64556000 -3.17253000 -2.62096000
-2.38389000 -3.16371000 -2.76243000
-1.83509000 -3.14697000 -2.96707000
-2.11346000 -3.15379000 -2.87454000
-3.45561000 6.23649000 4.28010000
-0.66526800 -3.00589000 -3.71634000
-0.56158800 -3.03124000 -3.73432000
-2.87145000 -4.72678000 0.84513500
-2.51176000 -4.78198000 0.92091700
4.16274000 -3.18980000 1.26326000
4.18135000 -3.21398000 1.15736000
-2.57034000 -3.82845000 -2.10501000
3.87966000 1.38771000 3.92723000
3.81823000 2.26937000 3.92032000
-3.47713000 -4.39153000 -2.04968000
3.87818000 1.19764000 3.92721000
1.36585000 0.97087600 -4.38401000
-5.56807000 -0.23990600 1.59821000
-3.63739000 0.50716500 4.46132000
-3.68625000 1.05675000 4.37608000
-3.77156000 0.79241400 4.31997000
-0.67452800 -5.04072000 0.77062800
-3.09072000 -4.68866000 0.81557100
-3.07145000 -4.70595000 0.63291900
-3.02143000 -4.74611000 0.82026300
3.26847000 -3.10003000 -1.08804000
3.13922000 -3.09255000 -1.35903000
-3.84189000 0.68066600 4.23239000
-2.80508000 -4.73264000 1.02977000
-2.70481000 -4.77588000 0.96652100
2.87251000 -3.61793000 3.88060000
3.02298000 -3.52592000 3.79676000
-3.83088000 0.78012900 4.22670000
-3.97798000 1.03222000 4.14878000
-4.61462000 0.76639700 3.26350000
-4.59989000 0.96041700 3.36635000
-1.84665000 3.41868000 5.76990000
-1.85725000 3.85807000 5.70111000
-0.75343100 2.34892000 6.08845000
-0.79278600 2.44353000 6.03668000
-0.89618200 2.37933000 6.04633000
-0.77950200 1.40289000 6.12384000
-1.81244000 2.68213000 5.84772000
-1.86476000 3.16074000 5.76183000
2.03645000 3.53431000 4.97107000
1.71510000 3.56077000 5.16509000
-4.41967000 3.21730000 3.81580000
-4.43229000 3.71707000 3.81336000
-0.37079300 3.61207000 -4.41336000
0.97035200 -3.44797000 -3.58403000
1.14645000 -3.36969000 -3.60255000
-0.09734040 -1.12778000 -3.94160000
-4.01376000 -5.16989000 -2.51919000
-0.40620100 3.01539000 -4.43685000
-0.56801700 2.73073000 -4.44458000
-0.47449300 3.31776000 -4.46187000
-0.40245300 4.07521000 -4.41571000
0.65075700 8.23514000 4.50865000
3.80263000 4.74103000 -2.34845000
-4.00020000 -5.00738000 -2.65820000
-4.14774000 -4.99759000 -2.84689000
0.72910200 6.79669000 -3.39322000
0.71241500 6.34329000 -3.53196000
0.88108700 6.36322000 -3.48154000
0.41155400 7.18887000 -3.35095000
3.30025000 8.90980000 -1.20106000
3.34298000 8.47088000 -1.27634000
3.27701000 8.73055000 -1.32239000
-2.33887000 -0.01891280 -4.13341000
-2.22790000 -0.18259600 -4.11496000
-2.33561000 -0.44987600 -4.07577000
-1.86168000 4.40211000 5.65887000
-1.88053000 4.69040000 5.60439000
-4.54493000 2.76551000 3.55620000
2.16379000 0.03467680 -4.19604000
2.12403000 -0.17864800 -4.19529000
4.27541000 -5.43184000 -1.11466000
-4.56075000 3.79463000 3.62519000
-5.15150000 6.31958000 1.51746000
-3.33363000 -3.84852000 -1.35414000
3.68574000 1.41802000 4.20947000
1.55668000 -3.08896000 -2.80604000
-0.99435700 9.80618000 4.81305000
-1.86342000 4.05630000 5.70141000
1.72084000 2.67384000 5.67869000
1.69500000 3.48709000 5.63637000
-2.49859000 -1.29673000 -3.78003000
-2.46383000 -1.18005000 -3.83793000
-0.30563600 4.17021000 -4.39138000
-4.71950000 7.73604000 0.14601100
-3.22828000 -1.04632000 4.68880000
-5.86565000 0.75552500 -0.84957900
-5.87124000 0.50078500 -0.87830300
4.12525000 7.64339000 0.52370100
3.84380000 5.87986000 2.39586000
3.92724000 5.67212000 2.27510000
-5.81185000 -0.77385200 -1.05490000
-5.89829000 -0.30045400 -0.91841600
1.47099000 2.38902000 -4.26746000
1.35678000 2.25610000 -4.26200000
3.13021000 3.14233000 4.65526000
3.02610000 3.22289000 4.76400000
3.16934000 2.76273000 4.64409000
-3.94643000 9.63834000 -1.88614000
2.29357000 -2.05470000 -3.86229000
4.13306000 2.07451000 -2.43614000
4.14054000 2.40600000 -2.36941000
4.23430000 2.32604000 -2.20305000
4.45143000 -1.60271000 2.02100000
4.37659000 -2.06890000 2.01323000
2.72716000 -1.32463000 -3.78272000
3.46291000 8.20866000 0.37107600
3.59237000 7.77197000 0.61839600
3.56172000 7.95212000 0.49603800
3.63972000 3.86737000 -2.93261000
-3.85813000 -3.47730000 2.74805000
3.56405000 7.82966000 0.29858700
3.48421000 8.08147000 0.32031800
3.42585000 8.50675000 0.88188600
4.84335000 -1.04640000 -1.58021000
4.45124000 -0.27849600 2.78198000
4.52732000 -0.03061870 2.69682000
4.16090000 2.58484000 -2.25153000
4.21281000 2.96796000 -2.10741000
-5.59311000 -3.26992000 -1.79159000
-5.96681000 0.34547300 0.34770500
-2.39465000 6.24896000 -3.72881000
-3.78015000 -4.49865000 0.49894600
-2.68496000 8.82339000 -2.79016000
-0.46615600 -8.06975000 5.76215000
-0.46615600 -8.06975000 5.76215000
-4.96334000 4.83457000 -0.67529200
-4.99098000 5.18429000 -0.15040000
-4.96498000 5.19619000 -0.37622300
-2.88417000 8.15573000 -2.90927000
0.17556800 7.82879000 -3.22053000
0.25536000 8.06693000 -3.10753000
-0.04184920 7.58273000 -3.32592000
3.73594000 0.29743700 4.16824000
3.70946000 -0.11192600 4.19395000
3.64878000 -0.11731400 4.29723000
-4.33940000 9.86659000 2.13200000
0.14009900 7.64113000 -3.28771000
0.34804300 7.56838000 -3.27021000
-2.34272000 -4.31944000 3.45178000
-2.13565000 -4.54778000 3.07864000
-2.41956000 -4.18574000 3.57824000
-5.46486000 3.54070000 1.92599000
-5.52552000 2.64744000 1.89944000
-5.54199000 2.86673000 1.88898000
4.70018000 -0.20868800 2.25709000
2.44759000 -0.25923900 5.57178000
-5.48576000 2.71282000 1.99407000
-5.42892000 2.46419000 2.01735000
-5.47093000 2.54606000 2.12936000
2.56443000 -1.27327000 5.32059000
2.59082000 -0.83533100 5.38081000
-3.47834000 4.77978000 4.62490000
4.13472000 9.89897000 0.24364000
4.11671000 9.90110000 0.86868500
-5.48142000 2.03068000 2.01356000
-5.43928000 2.26966000 2.03286000
-2.91839000 9.40234000 -2.28622000
-2.91839000 9.40234000 -2.28622000
3.10237000 4.62147000 4.62457000
-1.04848000 9.13834000 3.87691000
-0.90186600 9.04204000 4.01089000
-1.24372000 9.05158000 3.91367000
-0.90186600 9.04204000 4.01089000
2.79984000 8.29011000 3.78314000
-5.51085000 2.28578000 1.93362000
-5.57911000 2.37202000 1.72852000
-3.59453000 -3.88571000 -0.89488700
-3.21669000 -3.85994000 -1.47467000
2.99205000 8.10498000 3.70923000
2.94895000 8.23371000 3.66527000
3.04411000 8.32704000 3.53507000
-1.77841000 -0.12259200 -4.22760000
-5.37849000 -8.76490000 -3.19947000
3.21293000 4.49570000 4.53192000
-4.23260000 4.44723000 3.29910000
0.47558200 7.28594000 4.84231000
5.32523000 -8.51494000 -3.01619000
-4.49551000 -6.13987000 -2.95834000
5.46336000 -6.89760000 -1.68920000
5.48971000 -6.87715000 -1.80755000
4.80878000 1.54540000 1.52515000
4.79847000 1.31933000 1.62260000
4.84451000 1.09678000 1.51454000
-5.42532000 -1.58980000 -2.10430000
-5.30651000 -1.33113000 -2.30302000
5.32523000 -8.51494000 -3.01619000
-5.32731000 2.98193000 2.39451000
-5.38781000 2.13130000 2.34283000
-5.33341000 2.22566000 2.41457000
3.69828000 7.60332000 2.95749000
3.58805000 7.89305000 3.03266000
-4.27339000 9.59351000 -0.38437300
-1.27756000 9.56490000 4.86347000
-4.34284000 -1.31855000 -3.38494000
-4.50887000 -2.44664000 2.58106000
-4.57841000 -2.50151000 2.49300000
-1.44838000 -3.85950000 -3.06957000
-1.40095000 -3.92127000 -2.99885000
-1.57942000 -4.00589000 -2.83427000
-5.30659000 2.97159000 2.48973000
-5.33934000 3.41745000 2.47255000
-5.26787000 3.23776000 2.55413000
-2.92325000 -4.73958000 1.59109000
-3.42308000 -4.51828000 1.58019000
-0.89461800 9.03559000 -3.26821000
4.66472000 2.48667000 -0.92179900
2.27198000 6.52565000 -3.20452000
2.12344000 6.73677000 -3.21480000
5.00662000 -0.45670400 0.14616900
4.96960000 -1.16445000 -0.38407000
-4.19663000 6.28566000 -2.45395000
-3.99841000 7.00842000 -2.36011000
1.91620000 8.46273000 4.40478000
0.74777400 -4.88453000 4.87185000
0.69543200 -4.89586000 4.78782000
-4.18649000 -4.40075000 -0.73198200
-4.25684000 -4.45667000 -0.80602800
2.33600000 6.42590000 -3.16132000
2.23678000 7.34439000 -2.97133000
2.28328000 6.77235000 -3.09642000
3.04907000 0.74963400 -3.84615000
3.08312000 1.00008000 -3.77294000
-4.49983000 2.31212000 3.58476000
-0.84599600 -3.97825000 -3.20975000
-0.82195100 -4.03412000 -3.14654000
-0.32846900 -4.66042000 3.10321000
-0.33334000 -4.68213000 2.93122000
-0.43903100 -4.70038000 2.83000000
-5.19920000 -3.49840000 -0.33823900
4.30673000 2.25530000 -2.07957000
1.11904000 5.91993000 5.51885000
1.24023000 5.77485000 5.47672000
-3.35437000 -4.56172000 1.69321000
-1.04773000 3.40860000 5.95010000
1.20484000 6.08777000 5.42850000
-0.55855700 8.87278000 4.75946000
-1.59250000 -4.92992000 2.38732000
-1.69735000 -4.83168000 2.59056000
-1.87987000 -4.93780000 2.28671000
0.47115200 -4.73128000 3.06277000
0.35716500 -4.73553000 2.72685000
0.70840500 -3.09114000 -3.09285000
1.00271000 -3.09593000 -3.02126000
0.22144100 -4.78232000 2.52961000
-4.52842000 6.69723000 2.81423000
-4.44025000 7.14766000 2.75709000
-4.60680000 6.67747000 2.73487000
-0.63485600 -4.27625000 -2.86303000
4.40617000 2.10734000 -1.94333000
4.42209000 1.95382000 -2.00776000
-4.66558000 -1.79466000 2.67065000
-4.60831000 -1.98173000 2.63394000
-4.12167000 3.50467000 -3.19114000
-0.97550600 0.95923200 -4.33731000
-0.97170900 1.23374000 -4.32991000
-1.07258000 1.00118000 -4.34744000
3.47655000 4.40269000 4.31580000
3.50060000 4.53872000 4.27262000
4.38715000 2.24638000 -1.98452000
-0.13277500 7.13099000 5.36996000
-0.18969900 6.89077000 5.43866000
-5.44607000 2.28560000 2.14035000
-5.44823000 2.38700000 2.02176000
4.19770000 7.29946000 1.61426000
4.05202000 7.83617000 1.73780000
-4.36126000 2.83961000 -2.96705000
-4.37373000 2.45271000 -3.02818000
-4.43537000 2.55434000 -2.96040000
-4.30727000 2.88880000 -3.07716000
-4.25479000 3.21458000 -3.07828000
-0.14222800 9.37670000 4.44410000
0.12337000 -3.90151000 4.09151000
-3.26464000 -3.18826000 3.79673000
4.51218000 -7.44553000 -1.77629000
4.61617000 -7.33280000 -1.73961000
1.66188000 2.86855000 5.67849000
1.74361000 3.26571000 5.62334000
1.62653000 3.21983000 5.67335000
-3.15656000 -3.97113000 2.97966000
4.00225000 9.69011000 2.15911000
-0.49095300 1.45468000 -4.43486000
0.65436800 -4.91052000 -0.82635300
2.92262000 -4.57686000 -1.11346000
-5.49567000 1.30853000 2.03096000
-5.50892000 1.23395000 1.91306000
-5.81987000 3.06108000 -0.35064700
-5.83359000 2.96181000 -0.21003200
0.87999800 3.01842000 5.93975000
4.54293000 5.19291000 0.35499500
-5.68620000 4.09667000 -0.09452250
4.47756000 5.90248000 0.36741700
4.40964000 6.29328000 0.41666600
-5.51337000 1.06701000 1.91786000
-5.46114000 0.92305300 2.07484000
-5.47098000 0.57727700 2.02944000
-5.42386000 0.85088800 2.14345000
0.16998700 8.07191000 -3.58004000
0.16231900 7.59791000 -3.70026000
0.13858300 7.23141000 -3.78223000
4.50160000 5.05986000 -0.02220610
4.47643000 4.44234000 -0.90932800
4.39289000 4.98436000 -0.84783600
-5.45512000 0.24838800 2.03453000
4.59035000 4.89730000 0.20566300
-5.76077000 3.61254000 -0.03279590
4.52938000 -3.13995000 -0.12382500
-2.07828000 9.01043000 -3.02557000
0.35308000 6.40219000 -3.96764000
2.75345000 9.61644000 -0.78881000
2.68566000 9.66552000 -0.97983300
0.22635400 6.13898000 -4.09584000
-2.25987000 8.60832000 -3.13886000
-5.75182000 3.64147000 0.19770600
-5.77122000 3.66398000 0.05951490
-5.77331000 3.47388000 0.06359370
-4.79370000 -6.41086000 -1.82152000
-4.75770000 -6.68706000 -1.92515000
-4.59413000 -6.33829000 -1.88153000
-1.66871000 -2.74047000 -3.62812000
-1.67156000 -2.56698000 -3.68554000
2.70545000 9.70912000 -1.13471000
2.80289000 9.76430000 -1.02476000
-1.72938000 5.37915000 -3.67969000
-1.21770000 5.49324000 -3.77346000
-0.52202700 5.56942000 -3.84120000
-1.18136000 6.00161000 -3.69976000
-1.53135000 -2.70933000 -3.64831000
-1.46296000 -2.76009000 -3.59209000
1.33723000 3.21757000 5.78849000
1.16424000 3.25585000 5.84698000
-3.82073000 9.65303000 -2.09573000
-2.93761000 1.21365000 -3.55584000
0.61846500 1.00427000 -4.46907000
0.63154100 1.53133000 -4.46055000
0.45601500 1.17478000 -4.45596000
0.44721600 0.86163600 -4.44605000
0.08883830 0.59821500 -4.48467000
-3.57850000 2.14981000 4.64309000
-3.61163000 1.96042000 4.52898000
-3.60436000 2.19836000 4.53006000
-3.67857000 1.98964000 4.44484000
4.15097000 -5.27386000 -1.09828000
0.56654200 0.90584900 -4.45560000
0.49831200 0.54403300 -4.46219000
0.29050600 0.80468500 -4.47105000
-4.60687000 -6.20293000 -1.81283000
-4.48859000 -5.83797000 -1.75413000
-3.73250000 1.90484000 4.36471000
0.08650260 5.81193000 -4.14297000
3.44681000 9.27921000 -0.27394900
4.42802000 3.60140000 -1.67052000
