1.38343000 -5.33268000 2.77650000
1.11238000 -5.24550000 2.98430000
0.83369800 -5.11674000 3.24926000
1.20678000 -5.41493000 3.18645000
0.94810800 -5.29852000 3.43425000
0.66451500 -5.15885000 3.73468000
1.05900000 -5.48820000 3.62183000
0.80475500 -5.36733000 3.89123000
0.55924100 -5.20162000 4.22347000
0.95497100 -5.56780000 4.05765000
0.74212700 -5.41773000 4.35942000
0.53524800 -5.25287000 4.70498000
0.92219700 -5.64273000 4.49703000
0.73768700 -5.49363000 4.81001000
0.57154000 -5.33388000 5.16568000
0.94009400 -5.73919000 4.91645000
0.78957700 -5.59523000 5.24582000
0.66523700 -5.45143000 5.60488000
0.99526600 -5.86258000 5.33214000
0.88464300 -5.73189000 5.66294000
0.80553700 -5.60816000 6.01011000
1.09171000 -6.01862000 5.72341000
1.02075000 -5.90843000 6.04666000
0.98363700 -5.80752000 6.37837000
1.22272000 -6.21268000 6.09136000
1.19558000 -6.13106000 6.38989000
1.21106000 -6.06268000 6.69014000
1.39660000 -6.46138000 6.41321000
1.42164000 -6.40796000 6.68766000
1.47252000 -6.36343000 6.94146000
1.62467000 -6.75333000 6.69511000
1.66980000 -6.72417000 6.92175000
1.73158000 -6.69440000 7.11769000
1.83503000 -7.08620000 6.91641000
1.88700000 -7.06893000 7.07886000
1.96650000 -7.04768000 7.21601000
2.02313000 -7.44309000 7.05689000
2.08503000 -7.43028000 7.17527000
2.17284000 -7.41323000 7.26744000
2.19835000 -7.80955000 7.15794000
2.27327000 -7.79707000 7.24245000
2.36629000 -7.78581000 7.30627000
2.38134000 -8.16869000 7.22526000
2.45779000 -8.16364000 7.28348000
2.54715000 -8.16079000 7.32347000
2.55954000 -8.51227000 7.24803000
2.63006000 -8.50834000 7.28292000
2.72485000 -8.81419000 7.25274000
2.49554000 -8.51686000 7.20541000
2.31635000 -8.17735000 7.15279000
2.44200000 -8.52271000 7.14225000
2.27234000 -8.18108000 7.05938000
2.40747000 -8.52303000 7.07012000
2.24286000 -8.18176000 6.95615000
2.39168000 -8.52254000 6.98316000
2.22545000 -8.18132000 6.84528000
2.38203000 -8.52387000 6.89145000
2.21636000 -8.18867000 6.72174000
2.37972000 -8.53077000 6.78974000
2.49317000 -8.85178000 6.86687000
2.38155000 -8.54087000 6.68612000
2.51429000 -8.85352000 6.78792000
2.61455000 -9.14936000 6.86975000
2.51922000 -8.85769000 6.69846000
2.60378000 -9.12488000 6.78186000
2.68301000 -9.28554000 6.79846000
2.72325000 -9.31062000 6.68150000
2.71773000 -9.14191000 6.57943000
2.77617000 -9.18790000 6.54647000
2.79395000 -9.31492000 6.65263000
2.81167000 -9.19476000 6.50001000
2.85588000 -9.35012000 6.63878000
2.84606000 -9.21103000 6.45704000
2.90147000 -9.35755000 6.60512000
2.90147000 -9.35755000 6.60512000
2.84606000 -9.21103000 6.45704000
2.89579000 -9.20587000 6.42924000
2.95164000 -9.36288000 6.58311000
2.94459000 -9.20341000 6.41153000
3.00367000 -9.37104000 6.56270000
2.99642000 -9.19828000 6.40696000
3.06006000 -9.36789000 6.55678000
3.04844000 -9.17786000 6.40383000
3.11091000 -9.32191000 6.53470000
3.11560000 -9.10475000 6.38727000
3.16674000 -9.25599000 6.52167000
3.26049000 -9.17221000 6.57211000
3.30013000 -8.96003000 6.47362000
3.34207000 -8.90928000 6.53000000
3.32679000 -8.67786000 6.32015000
3.38306000 -8.62652000 6.38840000
3.43461000 -8.57529000 6.46244000
3.42982000 -8.29109000 6.23531000
3.49471000 -8.23501000 6.32737000
3.54465000 -8.17862000 6.44242000
3.58507000 -7.87655000 6.19796000
3.64970000 -7.81089000 6.34762000
3.68206000 -7.75158000 6.50025000
3.77832000 -7.42868000 6.25462000
3.80993000 -7.35965000 6.44187000
3.83038000 -7.30367000 6.62670000
3.93962000 -6.95333000 6.39491000
3.96807000 -6.89195000 6.60233000
3.97194000 -6.84022000 6.79588000
4.11680000 -6.46790000 6.58660000
4.11234000 -6.40492000 6.81431000
4.06528000 -6.35133000 7.01804000
4.26652000 -5.96230000 6.83177000
4.22124000 -5.89107000 7.07661000
4.10661000 -5.81212000 7.29739000
4.37475000 -5.40876000 7.12823000
4.23137000 -5.30736000 7.36759000
4.05350000 -5.22264000 7.58832000
4.34365000 -4.79348000 7.41331000
4.15107000 -4.69488000 7.65991000
3.92495000 -4.62954000 7.88050000
4.25855000 -4.17577000 7.73866000
4.00476000 -4.10493000 7.97924000
3.70152000 -4.06400000 8.16122000
4.09470000 -3.57991000 8.07153000
3.76570000 -3.53378000 8.27014000
3.42631000 -3.51579000 8.44435000
3.83638000 -3.00560000 8.37447000
3.46467000 -2.98475000 8.56115000
3.07560000 -2.98550000 8.69237000
3.06865000 -3.52061000 8.57566000
3.50253000 -2.46896000 8.67093000
3.06973000 -2.46889000 8.79649000
3.07560000 -2.98550000 8.69237000
3.06973000 -2.46889000 8.79649000
2.62539000 -2.49029000 8.85649000
3.05694000 -1.96790000 8.88024000
2.57971000 -1.98457000 8.94899000
2.10674000 -2.04258000 8.98009000
2.53854000 -1.50654000 9.03898000
2.02641000 -1.55238000 9.07541000
1.52238000 -1.62670000 9.04769000
1.95672000 -1.08203000 9.16444000
1.42045000 -1.14692000 9.15133000
0.89152800 -1.22069000 9.04743000
1.33223000 -0.68887500 9.24710000
0.76670500 -0.74940900 9.15128000
1.25381000 -0.25449500 9.34448000
0.66545400 -0.30552000 9.25517000
1.19829000 0.16047800 9.43542000
0.59473000 0.11205100 9.35003000
1.15696000 0.56626300 9.50774000
0.54728000 0.51599800 9.43964000
-0.04461130 0.46092200 9.32678000
0.52316000 0.91666700 9.52203000
-0.06028580 0.86478400 9.42506000
-0.60459700 0.81281900 9.29920000
-0.04736220 1.27660000 9.51700000
-0.58214000 1.23257000 9.41037000
-1.07748000 1.19421000 9.29006000
-1.10275000 0.77329400 9.15445000
-1.53255000 1.18376000 9.15545000
-1.03606000 1.63283000 9.39325000
-1.50444000 1.62171000 9.27432000
-1.94889000 1.64051000 9.13200000
-1.47307000 2.06344000 9.37446000
-1.93580000 2.07930000 9.23153000
-2.39065000 2.11719000 9.06496000
-2.38592000 1.68743000 8.96047000
-2.85303000 2.16397000 8.88377000
-2.83515000 1.74342000 8.78219000
-3.32172000 2.21343000 8.67981000
-3.29826000 1.80237000 8.58365000
-3.81961000 2.25460000 8.47182000
-3.77919000 1.86111000 8.35883000
-4.32029000 2.30216000 8.21564000
-4.26925000 1.92153000 8.10158000
-4.82935000 2.34468000 7.90913000
-4.76626000 1.97181000 7.80831000
-5.32955000 2.38344000 7.56052000
-5.26315000 2.01801000 7.47027000
-5.18848000 1.65942000 7.33547000
-5.75586000 2.06186000 7.09161000
-5.66802000 1.70997000 6.96435000
-5.82997000 2.42241000 7.18015000
-5.75586000 2.06186000 7.09161000
-5.82997000 2.42241000 7.18015000
-6.31207000 2.45723000 6.75834000
-6.22502000 2.10160000 6.67354000
-6.75718000 2.48421000 6.29418000
-6.66466000 2.12925000 6.22123000
-7.17680000 2.49445000 5.80950000
-7.08357000 2.13689000 5.75241000
-7.57767000 2.48398000 5.31692000
-7.48906000 2.12484000 5.27152000
-7.98077000 2.45204000 4.83426000
-7.88862000 2.09015000 4.78674000
-8.34894000 2.40681000 4.33835000
-8.26949000 2.03624000 4.30085000
-8.66849000 2.36450000 3.83112000
-8.59348000 1.98821000 3.79162000
-8.94423000 2.33045000 3.33511000
-8.87182000 1.94434000 3.29798000
-9.16917000 2.30695000 2.85167000
-9.09831000 1.90873000 2.82464000
-9.36814000 2.28831000 2.39096000
-9.30282000 1.87818000 2.37935000
-9.53739000 2.27173000 1.93578000
-9.46512000 1.85546000 1.93877000
-9.68528000 2.25789000 1.47762000
-9.61975000 1.83961000 1.49446000
-9.82090000 2.25552000 1.00584000
-9.76935000 1.83821000 1.03526000
-9.91018000 2.26514000 0.50698300
-9.85030000 2.67647000 0.96950400
-9.93792000 2.67908000 0.46461600
-10.00000000 2.68287000 -0.06177870
-9.89297000 3.08637000 0.41789300
-9.93154000 3.08304000 -0.10914200
-9.94171000 3.07345000 -0.64782600
-9.74478000 3.44599000 -0.15642200
-9.75348000 3.43531000 -0.68582700
-9.73387000 3.41994000 -1.22011000
-9.54179000 3.78352000 -0.71255300
-9.52467000 3.77421000 -1.23502000
-9.46276000 3.75488000 -1.75325000
-9.28370000 4.10812000 -1.22760000
-9.22514000 4.09789000 -1.73093000
-9.14323000 4.09545000 -2.22647000
-8.98961000 4.44144000 -1.69912000
-8.90052000 4.43952000 -2.17846000
-8.78227000 4.43719000 -2.65011000
-9.03169000 4.09444000 -2.71124000
-8.65839000 4.78152000 -2.12746000
-8.53894000 4.77998000 -2.58681000
-8.78227000 4.43719000 -2.65011000
-8.53894000 4.77998000 -2.58681000
-8.40246000 4.78158000 -3.04129000
-8.30168000 5.12213000 -2.52146000
-8.15857000 5.11937000 -2.96390000
-7.98926000 5.10775000 -3.39631000
-7.90793000 5.44231000 -2.88232000
-7.73715000 5.42594000 -3.30281000
-7.55319000 5.41242000 -3.72061000
-7.48061000 5.71889000 -3.20649000
-7.30986000 5.70441000 -3.62105000
-7.11613000 5.69212000 -4.02753000
-7.07493000 5.98983000 -3.52773000
-6.89406000 5.97579000 -3.92721000
-6.68838000 5.96285000 -4.31121000
-6.73675000 6.28406000 -3.85964000
-6.52727000 6.26778000 -4.22853000
-6.30517000 6.26072000 -4.58806000
-6.52720000 6.61401000 -4.24548000
-6.28692000 6.60912000 -4.59115000
-6.03478000 6.60503000 -4.92488000
-6.04857000 6.25560000 -4.91970000
-5.76696000 6.60134000 -5.24826000
-5.77372000 6.25515000 -5.23846000
-5.46475000 6.60093000 -5.54714000
-5.46218000 6.25045000 -5.52684000
-5.13105000 6.59981000 -5.82157000
-5.13882000 6.24943000 -5.80827000
-4.79746000 6.59599000 -6.10145000
-5.20519000 6.94144000 -5.92592000
-4.86394000 6.93644000 -6.20483000
-4.50469000 6.93228000 -6.46940000
-4.43793000 6.59564000 -6.35426000
-4.12667000 6.93278000 -6.71424000
-4.06205000 6.59735000 -6.59113000
-3.72441000 6.94433000 -6.92501000
-4.23002000 7.24827000 -6.89345000
-3.82559000 7.25482000 -7.12050000
-3.40085000 7.26748000 -7.32235000
-3.31417000 6.95119000 -7.13033000
-2.96191000 7.29001000 -7.50001000
-2.88793000 6.96678000 -7.31327000
-2.51784000 7.31126000 -7.66534000
-3.06672000 7.56240000 -7.75641000
-2.61092000 7.59409000 -7.92436000
-2.14051000 7.62535000 -8.06377000
-2.06121000 7.33991000 -7.80385000
-1.65990000 7.65294000 -8.17935000
-1.59258000 7.36953000 -7.91326000
-1.17184000 7.68083000 -8.26517000
-1.11954000 7.39898000 -8.00220000
-0.67902200 7.70698000 -8.31888000
-0.64085200 7.42735000 -8.05954000
-0.18361900 7.73155000 -8.34837000
-0.15607200 7.45531000 -8.08783000
0.31038700 7.75735000 -8.35914000
0.32748000 7.48114000 -8.09972000
0.80701900 7.78086000 -8.35443000
0.81244700 7.50793000 -8.09446000
1.30020000 7.81266000 -8.32686000
1.29384000 7.53494000 -8.06030000
1.79368000 7.83498000 -8.27448000
1.77434000 7.55049000 -8.00621000
2.28946000 7.84942000 -8.18545000
2.25482000 7.56396000 -7.92053000
2.78022000 7.87060000 -8.06705000
2.73105000 7.57386000 -7.80862000
3.26672000 7.87808000 -7.92482000
3.19916000 7.58927000 -7.66145000
3.19916000 7.58927000 -7.66145000
3.26672000 7.87808000 -7.92482000
3.74130000 7.88864000 -7.74956000
3.66106000 7.59159000 -7.50625000
4.20419000 7.88385000 -7.54424000
4.10966000 7.60408000 -7.30956000
4.66327000 7.89003000 -7.34255000
4.54192000 7.61580000 -7.09188000
5.10572000 7.90833000 -7.09904000
4.96241000 7.61952000 -6.86182000
5.52351000 7.92387000 -6.82518000
5.36583000 7.62810000 -6.59786000
5.92269000 7.93234000 -6.51895000
5.74524000 7.64113000 -6.29982000
6.29489000 7.92184000 -6.17408000
6.11507000 7.63819000 -5.97470000
5.94971000 7.30778000 -5.79633000
6.47063000 7.63132000 -5.62250000
6.29764000 7.30501000 -5.46361000
6.18903000 6.92070000 -5.36917000
6.64219000 7.28898000 -5.11245000
6.50895000 6.91872000 -5.02340000
6.49237000 6.50656000 -5.03484000
6.81995000 6.90910000 -4.65829000
6.77454000 6.50537000 -4.66229000
6.86450000 6.11306000 -4.76374000
7.04365000 6.50066000 -4.26810000
7.12846000 6.11477000 -4.36495000
7.27253000 5.75053000 -4.49908000
7.35461000 6.11082000 -3.93093000
7.50620000 5.75456000 -4.05901000
7.70486000 5.43045000 -4.21242000
7.72496000 5.76203000 -3.60015000
7.92331000 5.44018000 -3.74125000
8.12606000 5.12012000 -3.88377000
8.11971000 5.45133000 -3.24379000
8.33245000 5.14435000 -3.37427000
8.28954000 5.46687000 -2.72145000
8.50392000 5.16562000 -2.83037000
8.42414000 5.48729000 -2.17031000
8.64264000 5.19152000 -2.25745000
8.53476000 5.51881000 -1.60480000
8.74821000 5.22090000 -1.66966000
8.96154000 4.92561000 -1.73203000
8.80750000 5.24355000 -1.06752000
9.01295000 4.94258000 -1.10608000
9.21378000 4.64029000 -1.14312000
9.03230000 4.96874000 -0.47934800
9.23484000 4.66582000 -0.49360200
9.44055000 4.36675000 -0.50475700
9.19428000 4.68299000 0.15218800
9.39062000 4.37933000 0.16196900
9.57645000 4.07052000 0.18186300
9.29382000 4.39358000 0.83028400
9.48354000 4.09353000 0.86758400
9.66164000 3.78377000 0.90897100
9.35131000 4.10478000 1.54944000
9.52313000 3.79056000 1.59657000
9.67180000 3.45964000 1.64075000
9.36094000 3.75835000 2.26433000
9.51299000 3.42273000 2.31143000
9.54380000 3.05307000 2.32675000
9.31708000 3.34988000 2.96877000
9.35196000 2.98012000 2.99236000
9.31913000 2.60900000 2.98657000
9.50859000 2.68608000 2.31874000
9.25812000 2.24480000 2.95883000
9.44421000 2.32104000 2.29329000
9.16281000 1.88675000 2.90894000
9.34577000 1.96336000 2.25314000
9.02821000 1.53784000 2.82992000
9.20345000 1.61859000 2.19219000
8.86190000 1.19678000 2.73119000
8.96673000 1.31604000 2.10599000
8.67011000 0.85371600 2.61852000
8.82604000 0.93939200 2.03818000
8.46342000 0.49558700 2.49471000
8.60888000 0.58439300 1.95084000
8.22911000 0.12073400 2.35532000
8.35955000 0.21224000 1.85224000
7.94337000 -0.26642600 2.21079000
8.04802000 -0.15578000 1.74442000
7.56851000 -0.64320300 2.06777000
7.66489000 -0.52304000 1.63968000
7.13389000 -1.03308000 1.91891000
7.21682000 -0.90566400 1.53138000
6.59053000 -1.42698000 1.76729000
6.66489000 -1.28779000 1.41944000
5.99236000 -1.85235000 1.61845000
6.05542000 -1.72532000 1.30351000
6.48685000 -1.58784000 2.10862000
5.90874000 -2.01866000 1.92393000
6.34604000 -1.76579000 2.44279000
5.77002000 -2.22192000 2.22248000
5.16184000 -2.63696000 2.03141000
5.63146000 -2.45295000 2.50345000
5.04904000 -2.85686000 2.28769000
4.45007000 -3.24252000 2.09945000
4.91173000 -3.07858000 2.53998000
4.33586000 -3.44707000 2.33970000
3.74504000 -3.78799000 2.17527000
4.21597000 -3.66418000 2.57338000
3.65753000 -3.99054000 2.40235000
3.07801000 -4.27613000 2.27466000
3.57169000 -4.20538000 2.62396000
3.02481000 -4.46951000 2.49910000
2.50895000 -4.70599000 2.44253000
2.52048000 -4.52245000 2.21722000
2.04520000 -4.91064000 2.43273000
2.50143000 -4.90445000 2.66049000
2.07657000 -5.09314000 2.65544000
1.71034000 -5.23915000 2.69425000
2.10871000 -5.28416000 2.87290000
1.76761000 -5.41829000 2.90831000
1.45798000 -5.49798000 2.98808000
1.38343000 -5.33268000 2.77650000
1.82621000 -5.60423000 3.12148000
1.54116000 -5.66420000 3.20269000
1.45798000 -5.49798000 2.98808000
1.54116000 -5.66420000 3.20269000
1.29774000 -5.59725000 3.38790000
1.61615000 -5.85915000 3.40577000
1.39434000 -5.78569000 3.58993000
1.17646000 -5.68377000 3.80814000
1.49468000 -5.98117000 3.79277000
1.29721000 -5.88509000 3.99733000
1.10031000 -5.78016000 4.22566000
1.41799000 -6.10209000 4.17885000
1.25902000 -5.99239000 4.39231000
1.10073000 -5.87659000 4.63057000
1.41327000 -6.21592000 4.55683000
1.27867000 -6.10804000 4.77570000
1.13208000 -5.99467000 5.02638000
1.43490000 -6.35949000 4.92251000
1.31682000 -6.25071000 5.15205000
1.19775000 -6.13306000 5.42599000
1.48654000 -6.51472000 5.28583000
1.37930000 -6.41621000 5.52221000
1.28516000 -6.31015000 5.79626000
1.53998000 -6.70424000 5.64016000
1.46886000 -6.61142000 5.87136000
1.41950000 -6.52721000 6.13097000
1.66144000 -6.91214000 5.95754000
1.61569000 -6.83916000 6.19097000
1.60159000 -6.78961000 6.44494000
1.78798000 -7.16982000 6.27106000
1.78039000 -7.13529000 6.49509000
1.80568000 -7.10451000 6.71328000
1.92270000 -7.48568000 6.56295000
1.94163000 -7.46576000 6.75134000
1.97636000 -7.45386000 6.91844000
2.07683000 -7.82555000 6.80125000
2.10774000 -7.82093000 6.93464000
2.14513000 -7.81777000 7.05658000
2.07221000 -7.83587000 6.64093000
1.93292000 -7.51201000 6.36835000
2.08112000 -7.85648000 6.47085000
2.22643000 -8.20346000 6.59118000
2.09834000 -7.88946000 6.31325000
2.23962000 -8.22818000 6.45651000
2.38510000 -8.55622000 6.58252000
2.25728000 -8.26571000 6.32745000
2.40040000 -8.58277000 6.47939000
2.29021000 -8.31128000 6.20964000
2.43097000 -8.60905000 6.38910000
2.34991000 -8.34308000 6.11118000
2.47586000 -8.63084000 6.30376000
2.59457000 -8.90164000 6.48167000
2.53546000 -8.64167000 6.24016000
2.63904000 -8.92585000 6.42268000
2.59427000 -8.65128000 6.18274000
2.67893000 -8.93968000 6.36708000
2.64334000 -8.66312000 6.12352000
2.72011000 -8.95265000 6.31187000
2.69401000 -8.67328000 6.06751000
2.76762000 -8.95938000 6.26473000
2.76762000 -8.95938000 6.26473000
2.69401000 -8.67328000 6.06751000
2.75982000 -8.66464000 6.03388000
2.82263000 -8.95345000 6.22878000
2.83085000 -8.64502000 6.01395000
2.88400000 -8.93626000 6.20877000
2.90222000 -8.61427000 6.00819000
2.94634000 -8.90891000 6.20217000
2.97691000 -8.57985000 6.01342000
3.00585000 -8.87929000 6.20102000
3.05200000 -8.54470000 6.01824000
3.07799000 -8.84298000 6.20981000
3.13279000 -8.50450000 6.03026000
3.12775000 -8.18934000 5.82629000
3.22570000 -8.12729000 5.86428000
3.21129000 -8.46003000 6.05481000
3.03561000 -8.24333000 5.79868000
3.01751000 -7.93578000 5.56214000
3.13000000 -7.86644000 5.59742000
2.94704000 -8.28755000 5.78548000
2.91670000 -7.99458000 5.54645000
2.88054000 -7.69540000 5.31900000
3.00593000 -7.61742000 5.34735000
2.85860000 -8.32856000 5.77745000
2.81825000 -8.04587000 5.53942000
2.76281000 -7.76079000 5.30654000
2.71555000 -7.47555000 5.08524000
2.85076000 -7.40186000 5.09980000
2.71450000 -8.10008000 5.53471000
2.65047000 -7.81820000 5.30250000
2.58457000 -7.53425000 5.08680000
2.52801000 -7.27614000 4.85468000
2.67184000 -7.20392000 4.86268000
2.54062000 -7.86783000 5.30767000
2.46242000 -7.58492000 5.09432000
2.38351000 -7.33075000 4.86674000
2.30471000 -7.08760000 4.64640000
2.45878000 -7.02273000 4.64087000
2.34633000 -7.61131000 5.12924000
2.25329000 -7.35634000 4.90951000
2.15738000 -7.11379000 4.69493000
2.15738000 -7.11379000 4.69493000
2.03113000 -7.08569000 4.79724000
1.92456000 -6.84623000 4.59594000
2.06242000 -6.87501000 4.49140000
2.06242000 -6.87501000 4.49140000
2.22420000 -6.84357000 4.44065000
2.25329000 -7.35634000 4.90951000
2.14281000 -7.33124000 5.00248000
2.03649000 -7.29095000 5.11514000
1.91613000 -7.03961000 4.91872000
2.34633000 -7.61131000 5.12924000
2.25070000 -7.58882000 5.21144000
2.15750000 -7.55577000 5.30860000
2.06929000 -7.50639000 5.42745000
1.93972000 -7.23497000 5.24420000
2.34921000 -7.85693000 5.43302000
2.26491000 -7.82967000 5.51882000
2.18342000 -7.79974000 5.60766000
2.10661000 -7.75518000 5.71813000
1.99190000 -7.45234000 5.54801000
2.36741000 -8.11093000 5.73742000
2.29287000 -8.08803000 5.81544000
2.22584000 -8.05281000 5.90816000
2.16760000 -8.00450000 6.02188000
2.04598000 -7.69470000 5.84772000
2.41331000 -8.36171000 6.03801000
2.48182000 -8.38078000 5.96364000
2.44470000 -8.13256000 5.66215000
2.54018000 -8.40041000 5.89627000
2.52523000 -8.14762000 5.59531000
2.61050000 -8.41133000 5.83696000
2.61050000 -8.41133000 5.83696000
2.52523000 -8.14762000 5.59531000
2.61675000 -8.14171000 5.54743000
2.69090000 -8.40233000 5.79584000
2.77506000 -8.37027000 5.77975000
2.43635000 -7.87925000 5.35415000
2.43635000 -7.87925000 5.35415000
2.00209000 -7.62004000 6.00719000
1.86814000 -7.30160000 5.87133000
1.92127000 -7.38214000 5.69808000
2.12216000 -7.94757000 6.15941000
1.96255000 -7.56040000 6.17772000
1.82634000 -7.22469000 6.05689000
1.71109000 -6.99645000 5.75542000
1.63061000 -6.79673000 5.42595000
1.77545000 -7.08708000 5.55395000
1.71674000 -6.88890000 5.23029000
1.84601000 -7.16935000 5.39081000
1.81270000 -6.97226000 5.06202000
1.58344000 -6.61691000 5.07612000
1.68931000 -6.71218000 4.88848000
1.80072000 -6.78924000 4.73103000
1.55840000 -6.45935000 4.72074000
1.68063000 -6.54813000 4.54539000
1.81249000 -6.61725000 4.39882000
1.54773000 -6.32468000 4.35789000
1.70313000 -6.39875000 4.19507000
1.86430000 -6.45417000 4.05843000
1.96100000 -6.66410000 4.27309000
1.96100000 -6.66410000 4.27309000
1.86430000 -6.45417000 4.05843000
2.06963000 -6.38588000 4.01990000
2.14416000 -6.62112000 4.22050000
2.28412000 -6.32159000 3.98420000
2.33542000 -6.54297000 4.20992000
2.39196000 -6.77929000 4.42700000
2.53677000 -6.45047000 4.21275000
2.57052000 -6.69725000 4.42944000
2.62428000 -6.94709000 4.64332000
2.77211000 -6.58436000 4.45714000
2.79437000 -6.84584000 4.67135000
2.81844000 -7.12226000 4.88113000
2.98567000 -6.72335000 4.72119000
2.98670000 -7.01551000 4.92079000
2.99721000 -7.31336000 5.13163000
3.16983000 -6.89567000 4.99220000
3.14940000 -7.21219000 5.18338000
3.13548000 -7.53816000 5.38287000
3.31167000 -7.10738000 5.26717000
3.27329000 -7.45009000 5.44967000
3.23923000 -7.79296000 5.65007000
3.41363000 -7.36551000 5.53576000
3.35762000 -7.71490000 5.71888000
3.32067000 -8.06617000 5.91156000
3.47903000 -7.64553000 5.80072000
3.40744000 -8.00701000 5.97438000
3.35907000 -8.35078000 6.15179000
3.28646000 -8.40929000 6.09607000
3.27146000 -8.72659000 6.27616000
3.50043000 -7.94485000 6.07069000
3.59651000 -7.57403000 5.92261000
3.69770000 -7.49935000 6.07727000
3.82079000 -7.11136000 5.97308000
3.90728000 -7.02584000 6.18288000
3.69835000 -7.19708000 5.78885000
3.81118000 -6.81775000 5.67042000
3.94575000 -6.71731000 5.88131000
3.56405000 -7.27982000 5.63898000
3.65412000 -6.91580000 5.49374000
3.75461000 -6.55194000 5.36084000
3.91952000 -6.43945000 5.56334000
3.48005000 -7.00477000 5.36418000
3.55853000 -6.65566000 5.21418000
3.63272000 -6.31919000 5.05896000
3.86452000 -6.19880000 5.22989000
3.36256000 -6.77219000 5.08330000
3.41034000 -6.45079000 4.91025000
3.48250000 -6.13842000 4.73705000
3.72948000 -5.98316000 4.91024000
3.19115000 -6.58681000 4.80209000
3.22512000 -6.29265000 4.60911000
3.27353000 -6.01000000 4.41580000
3.56296000 -5.84013000 4.55923000
2.98988000 -6.44596000 4.51367000
3.00863000 -6.17578000 4.31049000
3.04103000 -5.91400000 4.10214000
3.33504000 -5.72319000 4.23001000
2.76157000 -6.32618000 4.24382000
2.76750000 -6.07529000 4.02710000
2.78639000 -5.83717000 3.80162000
3.09699000 -5.65474000 3.89479000
2.50781000 -6.21582000 3.98884000
2.49763000 -5.98998000 3.75895000
2.49774000 -5.77010000 3.52980000
2.82149000 -5.60307000 3.57808000
2.24391000 -6.11081000 3.75258000
2.21031000 -5.90844000 3.51876000
2.17431000 -5.69501000 3.30259000
2.49727000 -5.55056000 3.30684000
2.00265000 -6.20421000 3.77397000
1.94206000 -6.01356000 3.53980000
1.88342000 -5.81309000 3.32368000
2.13949000 -5.48729000 3.08773000
1.69216000 -6.06186000 3.61125000
1.61615000 -5.85915000 3.40577000
1.69216000 -6.06186000 3.61125000
1.77503000 -6.25836000 3.83256000
1.77503000 -6.25836000 3.83256000
1.59052000 -6.19235000 3.99047000
2.49520000 -5.12336000 2.86857000
2.49809000 -5.34024000 3.08186000
2.94383000 -4.90655000 2.94208000
2.88163000 -5.12975000 3.15047000
2.84371000 -5.36244000 3.36646000
3.32443000 -4.91478000 3.26378000
3.24334000 -5.15759000 3.47680000
3.15958000 -5.40537000 3.67813000
3.63437000 -4.92418000 3.63469000
3.53084000 -5.19140000 3.83571000
3.43484000 -5.45834000 4.03726000
3.89388000 -4.96946000 4.02409000
3.77086000 -5.25554000 4.21291000
3.65905000 -5.54540000 4.39355000
4.07923000 -5.03710000 4.43844000
3.95256000 -5.35387000 4.59949000
3.83451000 -5.66581000 4.74905000
4.22921000 -5.16647000 4.84099000
4.08937000 -5.49936000 4.97261000
3.97625000 -5.84166000 5.10908000
4.31688000 -5.33402000 5.23459000
4.18117000 -5.69563000 5.35024000
4.04755000 -6.06272000 5.45884000
4.35153000 -5.54655000 5.62655000
4.20449000 -5.93226000 5.71314000
4.07054000 -6.32435000 5.79402000
4.31702000 -5.80383000 5.98982000
4.18120000 -6.21607000 6.04786000
4.04041000 -6.62170000 6.11453000
4.22982000 -6.11684000 6.31248000
4.08699000 -6.54084000 6.34526000
4.27360000 -6.03517000 6.57717000
4.38053000 -5.69194000 6.27758000
4.42468000 -5.59681000 6.56328000
4.42741000 -5.50946000 6.84924000
4.59911000 -5.15334000 6.54435000
4.59136000 -5.04212000 6.85710000
4.51209000 -4.91414000 7.15235000
4.75254000 -4.55792000 6.85775000
4.64723000 -4.41129000 7.17595000
4.47458000 -4.27855000 7.46587000
4.81495000 -3.90334000 7.20732000
4.62600000 -3.76401000 7.52589000
4.38408000 -3.66024000 7.81990000
4.76985000 -3.24103000 7.56771000
4.50784000 -3.12948000 7.88390000
4.18965000 -3.05532000 8.15195000
4.64076000 -2.61416000 7.93839000
4.28985000 -2.53811000 8.22424000
3.90176000 -2.49050000 8.46225000
4.37242000 -2.03477000 8.28613000
3.96080000 -1.99150000 8.54010000
3.51961000 -1.96888000 8.74116000
4.00405000 -1.50729000 8.60885000
3.53625000 -1.48860000 8.81695000
3.04662000 -1.48835000 8.95579000
3.05694000 -1.96790000 8.88024000
3.54836000 -1.02590000 8.89222000
3.03185000 -1.02787000 9.03860000
3.04662000 -1.48835000 8.95579000
3.03185000 -1.02787000 9.03860000
2.49653000 -1.04683000 9.11992000
3.01876000 -0.58688600 9.13376000
2.46127000 -0.60456800 9.21395000
1.89607000 -0.63407900 9.26210000
2.43459000 -0.17851700 9.31050000
1.84767000 -0.20759200 9.36004000
2.41204000 0.23689500 9.39162000
1.80931000 0.20364200 9.45230000
2.39513000 0.63989600 9.46779000
1.77416000 0.60876600 9.51936000
2.38258000 1.03566000 9.53120000
1.75229000 1.00672000 9.58412000
1.12952000 0.96628300 9.58099000
1.74186000 1.40394000 9.63068000
1.12319000 1.36654000 9.63406000
0.52520900 1.32210000 9.58378000
1.13939000 1.77475000 9.66794000
0.55509500 1.73948000 9.62806000
-0.00564305 1.70164000 9.58116000
0.59983200 2.16483000 9.66793000
0.05052180 2.13656000 9.63237000
-0.47954300 2.10345000 9.57306000
-0.53781300 1.66443000 9.50000000
-0.98814900 2.07517000 9.48082000
-0.42717700 2.54378000 9.62973000
-0.94354300 2.51462000 9.54767000
-1.44319000 2.50220000 9.44199000
-0.91183600 2.95103000 9.56787000
-1.42159000 2.93543000 9.46414000
-1.91750000 2.94507000 9.32887000
-1.92543000 2.51454000 9.30462000
-2.40407000 2.97330000 9.15258000
-2.39870000 2.54675000 9.13854000
-2.89034000 3.01066000 8.96283000
-2.87306000 2.58685000 8.95388000
-3.37978000 3.03773000 8.74672000
-3.35510000 2.62520000 8.74550000
-3.88822000 3.06285000 8.52570000
-3.85779000 2.65687000 8.52733000
-4.37108000 3.08300000 8.22289000
-4.36442000 2.69303000 8.26137000
-4.88514000 3.11550000 7.92862000
-4.87240000 2.72786000 7.94923000
-5.37936000 3.14206000 7.58488000
-5.37472000 2.76002000 7.60598000
-5.86857000 3.16650000 7.20391000
-5.87481000 2.79312000 7.22673000
-5.87481000 2.79312000 7.22673000
-5.86857000 3.16650000 7.20391000
-6.33816000 3.19031000 6.77503000
-6.35956000 2.82308000 6.80186000
-6.77746000 3.21003000 6.30838000
-6.80966000 2.84721000 6.33581000
-7.19003000 3.21876000 5.82225000
-7.22553000 2.85696000 5.84599000
-7.59250000 3.21263000 5.33534000
-7.62558000 2.84847000 5.35230000
-7.97698000 3.18992000 4.84512000
-8.01749000 2.82264000 4.86233000
-8.34191000 3.15866000 4.35384000
-8.38418000 2.78432000 4.36532000
-8.65748000 3.13263000 3.86260000
-8.70047000 2.74851000 3.86164000
-8.92671000 3.11086000 3.36592000
-8.96894000 2.72414000 3.36291000
-9.16144000 3.10365000 2.87859000
-9.19995000 2.70825000 2.87422000
-9.36996000 3.10011000 2.39358000
-9.39985000 2.69912000 2.39780000
-9.54859000 3.09748000 1.91036000
-9.57394000 2.68827000 1.92655000
-9.69431000 3.09077000 1.42450000
-9.71851000 2.67822000 1.45087000
-9.81834000 3.09104000 0.93020700
-9.51859000 3.45670000 1.36698000
-9.63795000 3.45771000 0.87238200
-9.71194000 3.45404000 0.36399200
-9.42813000 3.80576000 0.81950900
-9.50393000 3.80452000 0.31794100
-9.53674000 3.79560000 -0.19398300
-9.27943000 4.14412000 0.28474200
-9.31196000 4.13451000 -0.21629700
-9.31377000 4.12376000 -0.72204600
-9.07110000 4.46490000 -0.22798400
-9.07533000 4.45797000 -0.71962400
-9.04347000 4.44464000 -1.21063000
-8.83166000 4.78990000 -0.71148400
-8.80118000 4.78117000 -1.18749000
-8.74844000 4.78170000 -1.66118000
-8.55296000 5.11294000 -1.15877000
-8.50108000 5.11713000 -1.61656000
-8.41125000 5.11665000 -2.07086000
-8.24423000 5.44191000 -1.56949000
-8.15446000 5.44033000 -2.01095000
-8.05070000 5.44777000 -2.45191000
-8.30168000 5.12213000 -2.52146000
-7.91534000 5.76471000 -1.95514000
-7.78819000 5.74980000 -2.37534000
-8.05070000 5.44777000 -2.45191000
-7.78819000 5.74980000 -2.37534000
-7.64582000 5.73861000 -2.79340000
-7.54250000 6.04752000 -2.30128000
-7.39747000 6.02773000 -2.70934000
-7.24016000 6.00792000 -3.11861000
-7.23326000 6.35964000 -2.66279000
-7.07950000 6.32997000 -3.06799000
-6.90725000 6.30167000 -3.46484000
-7.07917000 6.68836000 -3.08911000
-6.91062000 6.65705000 -3.48463000
-6.72402000 6.63300000 -3.86929000
-7.02594000 6.99750000 -3.55723000
-6.85027000 6.96145000 -3.95434000
-6.62074000 6.95586000 -4.31939000
-7.02715000 7.28044000 -4.06888000
-6.80881000 7.26472000 -4.45132000
-6.56946000 7.25483000 -4.81960000
-6.38263000 6.95115000 -4.67422000
-6.30692000 7.24683000 -5.17348000
-6.13647000 6.94282000 -5.02195000
-6.01050000 7.24612000 -5.50274000
-5.85455000 6.94051000 -5.34399000
-5.69081000 7.24743000 -5.81059000
-5.53518000 6.94498000 -5.63844000
-5.35121000 7.24706000 -6.10558000
-5.88759000 7.52226000 -6.01708000
-5.53987000 7.51760000 -6.32196000
-5.17819000 7.50079000 -6.61938000
-4.99664000 7.24242000 -6.38761000
-4.78699000 7.51166000 -6.88333000
-4.62589000 7.23849000 -6.65623000
-4.37649000 7.51951000 -7.12805000
-4.95077000 7.72425000 -7.12130000
-4.53673000 7.70221000 -7.39122000
-4.08752000 7.73579000 -7.60538000
-3.95393000 7.53264000 -7.35410000
-3.63763000 7.74999000 -7.82326000
-3.51578000 7.54154000 -7.56475000
-3.18076000 7.78360000 -8.02829000
-3.74097000 7.92820000 -8.04145000
-3.27345000 7.95333000 -8.25066000
-2.78648000 7.99043000 -8.42878000
-2.71043000 7.82694000 -8.21148000
-2.29350000 8.04396000 -8.58624000
-2.22775000 7.85296000 -8.35862000
-1.78534000 8.07526000 -8.69592000
-1.73262000 7.88621000 -8.47699000
-1.26801000 8.08465000 -8.77973000
-1.22494000 7.90544000 -8.55469000
-0.74393200 8.10262000 -8.83518000
-0.71436800 7.92344000 -8.59597000
-0.22378400 8.12300000 -8.88320000
-0.20747800 7.94584000 -8.63410000
0.29911600 8.15084000 -8.90108000
0.29929200 7.97800000 -8.64966000
0.81926300 8.18493000 -8.88243000
0.80687800 8.00616000 -8.63739000
1.34221000 8.20994000 -8.83509000
1.31765000 8.03419000 -8.61040000
1.86764000 8.23019000 -8.76740000
1.82738000 8.06362000 -8.55652000
2.38956000 8.23610000 -8.66484000
2.33878000 8.07652000 -8.46070000
2.90565000 8.23264000 -8.53380000
2.84489000 8.10413000 -8.33700000
3.41100000 8.23068000 -8.36067000
3.34986000 8.11039000 -8.19142000
3.34986000 8.11039000 -8.19142000
3.41100000 8.23068000 -8.36067000
3.90126000 8.24455000 -8.15709000
3.83128000 8.10277000 -7.98686000
4.38473000 8.24527000 -7.94783000
4.30626000 8.09724000 -7.77974000
4.86122000 8.23954000 -7.71533000
4.77838000 8.09979000 -7.55594000
5.33012000 8.24771000 -7.45333000
5.24100000 8.11701000 -7.31205000
5.77388000 8.25994000 -7.15474000
5.66939000 8.12618000 -7.01958000
6.20816000 8.27086000 -6.84175000
6.08246000 8.13163000 -6.69962000
6.62079000 8.29372000 -6.48141000
6.48132000 8.14645000 -6.35795000
7.01292000 8.26960000 -6.09648000
6.85472000 8.12135000 -5.97085000
6.66100000 7.90740000 -5.80867000
7.20553000 8.09760000 -5.55021000
7.01600000 7.88859000 -5.40297000
6.81686000 7.61772000 -5.24606000
7.36717000 7.86692000 -4.97169000
7.14563000 7.60229000 -4.83575000
6.95176000 7.28093000 -4.72021000
7.46122000 7.57514000 -4.41028000
7.23909000 7.26817000 -4.30636000
7.07950000 6.90361000 -4.24545000
7.52156000 7.24300000 -3.88402000
7.32598000 6.89899000 -3.81904000
7.29973000 6.49874000 -3.85334000
7.58136000 6.88934000 -3.39034000
7.51445000 6.49747000 -3.40590000
7.57877000 6.11498000 -3.48400000
7.72406000 6.49834000 -2.95222000
7.76443000 6.11322000 -3.01073000
7.92011000 5.76831000 -3.11844000
7.93834000 6.12386000 -2.52586000
8.09002000 5.78059000 -2.61406000
8.06866000 6.13898000 -2.01922000
8.22277000 5.79646000 -2.08630000
8.17637000 6.16411000 -1.50086000
8.32297000 5.82224000 -1.54486000
8.24511000 6.18469000 -0.96934600
8.37110000 5.83824000 -0.99432500
8.58318000 5.53314000 -1.02977000
8.39370000 5.85650000 -0.44251700
8.61009000 5.56164000 -0.45217000
8.82546000 5.26817000 -0.46370900
8.56941000 5.56627000 0.12656700
8.78573000 5.27746000 0.13858900
8.98788000 4.97831000 0.14642000
8.69996000 5.28601000 0.73747400
8.90028000 4.98860000 0.77092000
9.10177000 4.69319000 0.79986000
8.78507000 5.00883000 1.38599000
8.98210000 4.71123000 1.44386000
9.16843000 4.40900000 1.49676000
8.81964000 4.70211000 2.06823000
9.00940000 4.39596000 2.14593000
9.18860000 4.08118000 2.21119000
8.81090000 4.34447000 2.75954000
8.99579000 4.02211000 2.84119000
9.16738000 3.69089000 2.90830000
8.77369000 3.94692000 3.43354000
8.94160000 3.60991000 3.51880000
9.08624000 3.26832000 3.60218000
8.69303000 3.54656000 4.10717000
8.81643000 3.19769000 4.20376000
8.82440000 2.82483000 4.23840000
9.10299000 2.89579000 3.63203000
8.79751000 2.45123000 4.24289000
9.07530000 2.52353000 3.63414000
8.74261000 2.08155000 4.21088000
9.01340000 2.15797000 3.60294000
8.66474000 1.71533000 4.13716000
8.93392000 1.79595000 3.54571000
8.56453000 1.34906000 4.02958000
8.81912000 1.44149000 3.45467000
8.45660000 0.97888900 3.90941000
8.67036000 1.09173000 3.33253000
8.29634000 0.61841800 3.74592000
8.49489000 0.74183600 3.18996000
8.11813000 0.24569300 3.56032000
8.29902000 0.37833600 3.03355000
7.89114000 -0.13502900 3.35147000
8.07544000 0.00030965 2.85805000
7.62334000 -0.53513100 3.13079000
7.79969000 -0.38721300 2.67214000
7.28079000 -0.93682600 2.89897000
7.44393000 -0.77899700 2.48934000
6.85529000 -1.35249000 2.66596000
7.00990000 -1.18333000 2.29768000
7.10792000 -1.13067000 3.29849000
6.68294000 -1.55732000 3.02256000
6.14820000 -1.99039000 2.75777000
6.46671000 -1.82197000 3.34922000
5.96801000 -2.25037000 3.04984000
5.46508000 -2.68660000 2.77435000
5.78135000 -2.53214000 3.32184000
5.29339000 -2.94412000 3.02907000
4.76644000 -3.31886000 2.78041000
5.11966000 -3.22627000 3.26596000
4.61771000 -3.57469000 3.00933000
4.09762000 -3.89852000 2.79668000
4.45794000 -3.83266000 3.23243000
3.98275000 -4.14832000 3.00972000
3.48997000 -4.43372000 2.84087000
3.86081000 -4.39970000 3.22276000
3.40826000 -4.67345000 3.05249000
2.99089000 -4.68384000 2.72738000
3.74277000 -4.65816000 3.43136000
4.30052000 -4.10295000 3.44485000
4.15526000 -4.38774000 3.64417000
4.01779000 -4.67595000 3.83766000
4.56505000 -4.11585000 3.89641000
4.38878000 -4.42039000 4.08513000
4.23252000 -4.73244000 4.26222000
4.76380000 -4.17737000 4.36255000
4.56719000 -4.50504000 4.53299000
4.38841000 -4.83388000 4.69223000
4.85101000 -4.25654000 4.85294000
4.64937000 -4.61516000 4.99337000
4.47205000 -4.97565000 5.12167000
4.87923000 -4.40273000 5.32367000
4.68337000 -4.78938000 5.43211000
4.50967000 -5.16996000 5.52850000
4.81293000 -4.58769000 5.77343000
4.64281000 -5.00023000 5.84898000
4.47486000 -5.40176000 5.92389000
4.73215000 -4.84140000 6.18255000
4.54779000 -5.26950000 6.23268000
4.77682000 -4.69781000 6.51982000
4.92246000 -4.40404000 6.12702000
4.96751000 -4.23581000 6.49494000
4.92566000 -4.06577000 6.85914000
5.17667000 -3.75817000 6.46711000
5.13332000 -3.56922000 6.86127000
4.99348000 -3.39374000 7.23224000
5.33737000 -3.05469000 6.84994000
5.17496000 -2.86751000 7.23679000
4.93643000 -2.72230000 7.60211000
5.36935000 -2.33203000 7.24256000
5.09175000 -2.20070000 7.63514000
4.75863000 -2.10368000 7.98750000
5.23371000 -1.68597000 7.65996000
4.86010000 -1.60478000 8.03117000
4.44968000 -1.54587000 8.34800000
4.95990000 -1.12726000 8.07831000
4.52093000 -1.08141000 8.41327000
4.04483000 -1.04371000 8.67960000
4.58942000 -0.63496100 8.47814000
4.08946000 -0.60255600 8.75652000
3.56373000 -0.58502400 8.97583000
4.12874000 -0.17781700 8.82896000
3.58464000 -0.16451700 9.06416000
3.01645000 -0.16275800 9.22441000
3.01876000 -0.58688600 9.13376000
3.60018000 0.24930200 9.13027000
3.01278000 0.24886900 9.29568000
3.01645000 -0.16275800 9.22441000
3.01278000 0.24886900 9.29568000
3.60464000 0.65512700 9.16330000
3.01062000 0.65171400 9.36764000
3.01062000 0.65171400 9.36764000
3.62781000 1.04489000 9.24649000
3.01330000 1.04736000 9.42956000
3.01330000 1.04736000 9.42956000
3.63762000 1.43588000 9.28755000
3.01017000 1.44111000 9.45901000
3.01017000 1.44111000 9.45901000
2.37561000 1.42978000 9.56879000
3.01318000 1.83067000 9.49131000
2.37719000 1.82413000 9.59291000
1.75037000 1.80282000 9.66188000
2.39439000 2.22094000 9.60758000
1.77492000 2.20827000 9.66884000
1.17490000 2.18936000 9.69820000
1.81458000 2.61606000 9.68106000
1.22232000 2.60877000 9.71706000
0.65459200 2.59392000 9.70041000
1.27344000 3.03159000 9.71228000
0.70568300 3.02456000 9.70785000
0.15619300 3.00882000 9.67508000
0.10590300 2.57611000 9.67101000
-0.38621300 2.98039000 9.64388000
0.18203400 3.42362000 9.59283000
-0.35535400 3.39301000 9.54753000
-0.87842300 3.36048000 9.46336000
-0.31817300 3.75721000 9.32789000
-0.83503100 3.73074000 9.25457000
-1.33455000 3.71396000 9.15001000
-1.38760000 3.34232000 9.34863000
-1.82570000 3.71691000 9.00907000
-1.88426000 3.34833000 9.21063000
-2.31641000 3.73306000 8.84371000
-2.37545000 3.37575000 9.05095000
-2.80960000 3.75293000 8.64794000
-2.86629000 3.40288000 8.84606000
-3.30037000 3.76722000 8.42405000
-3.36444000 3.42143000 8.62700000
-3.78515000 3.78224000 8.17787000
-3.85382000 3.44008000 8.38154000
-4.26457000 3.79674000 7.91026000
-4.34011000 3.45539000 8.10551000
-4.73112000 3.80408000 7.59822000
-4.82288000 3.47299000 7.78931000
-5.19649000 3.81772000 7.26484000
-5.30361000 3.49025000 7.44262000
-5.64593000 3.82624000 6.90223000
-5.77317000 3.50579000 7.06677000
-5.77317000 3.50579000 7.06677000
-5.64593000 3.82624000 6.90223000
-6.08478000 3.84357000 6.50775000
-6.22735000 3.52558000 6.65533000
-6.50213000 3.85526000 6.07723000
-6.65115000 3.54057000 6.20389000
-6.90786000 3.85976000 5.61766000
-7.06075000 3.54687000 5.72910000
-7.29917000 3.85424000 5.13968000
-7.45187000 3.53924000 5.24181000
-7.67168000 3.83971000 4.65928000
-7.83430000 3.52160000 4.75847000
-8.01833000 3.82660000 4.18603000
-8.18905000 3.50016000 4.27673000
-8.31909000 3.80876000 3.70849000
-8.50189000 3.48041000 3.79566000
-8.57453000 3.79546000 3.22983000
-8.76462000 3.46227000 3.30707000
-8.79550000 3.78973000 2.75000000
-8.99690000 3.45786000 2.82357000
-9.00269000 3.80050000 2.27722000
-9.20046000 3.45871000 2.34045000
-9.17304000 3.80361000 1.79645000
-9.37152000 3.45738000 1.85562000
-9.31966000 3.80735000 1.31224000
-8.95454000 4.13570000 1.73789000
-9.09881000 4.14351000 1.26206000
-9.20816000 4.14573000 0.77747900
-8.86940000 4.47472000 1.21766000
-8.97504000 4.47709000 0.74226000
-9.04477000 4.47655000 0.26058100
-8.73700000 4.80731000 0.71330200
-8.77776000 4.78573000 0.23971400
-8.83672000 4.80080000 -0.23293100
-8.55491000 5.12943000 0.22779600
-8.58831000 5.12679000 -0.23402100
-8.58450000 5.11782000 -0.69736200
-8.34859000 5.45946000 -0.23021000
-8.34113000 5.44849000 -0.67833600
-8.30754000 5.44474000 -1.12588000
-8.09734000 5.77671000 -0.65737300
-8.06471000 5.77124000 -1.09140000
-8.00124000 5.76562000 -1.52423000
-7.82526000 6.08871000 -1.05687000
-7.75780000 6.07682000 -1.47601000
-7.66769000 6.06720000 -1.89211000
-7.57981000 6.42080000 -1.44619000
-7.49250000 6.40733000 -1.85507000
-7.37175000 6.38550000 -2.25850000
-7.54250000 6.04752000 -2.30128000
-7.48920000 6.78913000 -1.86748000
-7.37308000 6.76145000 -2.27873000
-7.37175000 6.38550000 -2.25850000
-7.37308000 6.76145000 -2.27873000
-7.23475000 6.72657000 -2.68604000
-7.48973000 7.12366000 -2.33470000
-7.34641000 7.08169000 -2.74829000
-7.19198000 7.03818000 -3.15565000
-7.55675000 7.39623000 -2.84534000
-7.40376000 7.34452000 -3.26235000
-7.23066000 7.30138000 -3.67341000
-7.64925000 7.60959000 -3.38188000
-7.47116000 7.57062000 -3.80857000
-7.26601000 7.55075000 -4.21837000
-7.73545000 7.77911000 -3.93585000
-7.53156000 7.74700000 -4.36159000
-7.29654000 7.72796000 -4.77465000
-7.04409000 7.53112000 -4.61194000
-7.03507000 7.72722000 -5.17168000
-6.79094000 7.52250000 -4.99018000
-6.75379000 7.73776000 -5.55256000
-6.51416000 7.51866000 -5.35400000
-6.44793000 7.74032000 -5.91321000
-6.21431000 7.52116000 -5.69804000
-6.11609000 7.74298000 -6.25191000
-6.62959000 7.89575000 -6.08002000
-6.27953000 7.89228000 -6.43043000
-5.90649000 7.88350000 -6.75909000
-5.75567000 7.72593000 -6.56899000
-5.50132000 7.89134000 -7.05778000
-5.35901000 7.73311000 -6.85058000
-5.07876000 7.90154000 -7.32623000
-5.61890000 8.00992000 -7.23141000
-5.18896000 8.02412000 -7.50469000
-4.75099000 8.01710000 -7.77029000
-4.64921000 7.89753000 -7.58675000
-4.29634000 8.03564000 -8.00832000
-4.20475000 7.90672000 -7.82881000
-3.82673000 8.05610000 -8.22602000
-4.38889000 8.12090000 -8.19028000
-3.91515000 8.12042000 -8.42641000
-3.41866000 8.15563000 -8.61624000
-3.34581000 8.08036000 -8.42861000
-2.90986000 8.19862000 -8.78692000
-2.84914000 8.12206000 -8.60336000
-2.39305000 8.23115000 -8.95080000
-2.34519000 8.15471000 -8.77286000
-1.87022000 8.25862000 -9.08383000
-1.82831000 8.18266000 -8.89233000
-1.33619000 8.27477000 -9.19914000
-1.30328000 8.20619000 -8.98900000
-0.79396100 8.32944000 -9.26495000
-0.77122800 8.24036000 -9.05734000
-0.24753800 8.33691000 -9.32311000
-0.23689700 8.25698000 -9.09921000
0.29928200 8.37005000 -9.31115000
0.29931000 8.28208000 -9.11024000
0.84932000 8.39353000 -9.29037000
0.83657500 8.29376000 -9.10411000
1.39384000 8.40663000 -9.22877000
1.37064000 8.31189000 -9.04852000
1.93526000 8.41746000 -9.12616000
1.90545000 8.32406000 -8.96281000
2.47484000 8.41166000 -9.01726000
2.43590000 8.33751000 -8.85012000
3.00348000 8.41038000 -8.86025000
2.95971000 8.31095000 -8.71130000
3.52145000 8.41800000 -8.67873000
3.47123000 8.31817000 -8.52720000
3.47123000 8.31817000 -8.52720000
3.52145000 8.41800000 -8.67873000
4.03070000 8.42508000 -8.47836000
3.97002000 8.33071000 -8.32575000
4.53119000 8.42177000 -8.25742000
4.46326000 8.32759000 -8.11249000
5.01450000 8.42922000 -8.00171000
4.94136000 8.33329000 -7.86632000
5.49427000 8.43173000 -7.72304000
5.41733000 8.33739000 -7.59289000
5.97040000 8.43686000 -7.43100000
5.88029000 8.34622000 -7.29666000
6.42654000 8.45296000 -7.09892000
6.32624000 8.35518000 -6.97858000
6.85355000 8.46169000 -6.71385000
6.74919000 8.37621000 -6.60881000
7.25548000 8.43974000 -6.30434000
7.14815000 8.34344000 -6.21171000
7.60843000 8.42237000 -5.85989000
7.50547000 8.32985000 -5.78074000
7.36677000 8.25805000 -5.67309000
7.84103000 8.29344000 -5.33110000
7.69144000 8.23574000 -5.21710000
7.54606000 8.06311000 -5.10613000
8.03864000 8.17919000 -4.77479000
7.88949000 8.03369000 -4.66028000
7.69272000 7.82874000 -4.53072000
8.20597000 8.01267000 -4.20748000
7.99654000 7.81414000 -4.07989000
7.74082000 7.56129000 -3.96237000
8.26407000 7.80771000 -3.62511000
8.00246000 7.54995000 -3.51564000
7.76617000 7.23854000 -3.43621000
8.23698000 7.54103000 -3.06010000
7.99511000 7.22996000 -2.98515000
7.79777000 6.88588000 -2.94109000
8.18653000 7.22674000 -2.51573000
8.00113000 6.88145000 -2.48133000
7.90083000 6.50496000 -2.48000000
8.13860000 6.89533000 -1.98596000
8.05179000 6.52018000 -1.99023000
8.23858000 6.91201000 -1.47105000
8.15057000 6.54010000 -1.47639000
8.29951000 6.92334000 -0.94074200
8.20536000 6.55574000 -0.94993800
8.32963000 6.91756000 -0.40412100
8.21616000 6.55816000 -0.41748100
8.23815000 6.18792000 -0.43114800
8.19460000 6.54754000 0.11439900
8.19970000 6.18251000 0.10678300
8.35689000 5.85838000 0.11382600
8.12263000 6.17493000 0.64147600
8.27921000 5.85979000 0.66638100
8.49388000 5.57778000 0.70259200
8.17549000 5.86475000 1.21370000
8.37830000 5.58890000 1.27172000
8.58061000 5.30159000 1.32991000
8.22591000 5.58888000 1.82578000
8.42406000 5.30346000 1.90303000
8.62374000 5.00591000 1.98644000
8.23196000 5.27562000 2.45469000
8.42565000 4.97206000 2.55643000
8.61778000 4.65837000 2.66183000
8.20907000 4.91749000 3.10186000
8.39991000 4.60094000 3.22371000
8.58896000 4.27676000 3.33535000
8.16563000 4.53514000 3.75887000
8.35301000 4.21077000 3.87985000
8.53036000 3.88169000 3.99557000
8.09476000 4.16609000 4.40476000
8.26606000 3.84196000 4.53178000
8.41998000 3.50722000 4.65421000
7.97392000 3.81093000 5.04089000
8.12724000 3.47613000 5.17242000
8.21471000 3.10841000 5.26980000
8.52079000 3.14918000 4.76325000
8.20715000 2.71206000 5.30364000
8.51787000 2.76547000 4.80315000
8.18213000 2.31371000 5.29631000
8.49300000 2.38266000 4.80037000
8.14186000 1.91897000 5.25354000
8.45014000 1.99943000 4.76478000
8.09255000 1.52882000 5.18007000
8.38843000 1.62150000 4.68607000
8.02572000 1.14723000 5.08040000
8.29660000 1.25241000 4.57339000
7.94366000 0.77280600 4.95901000
8.20776000 0.87479300 4.44621000
7.82586000 0.40246600 4.79556000
8.06924000 0.50633500 4.27861000
7.66951000 0.01737570 4.58304000
7.90409000 0.12359600 4.07583000
7.49212000 -0.41171000 4.33103000
7.69056000 -0.27168500 3.83881000
7.23016000 -0.86666000 4.01912000
7.43468000 -0.69214700 3.57958000
6.91918000 -1.35988000 3.67749000
7.02265000 -1.05276000 4.45455000
6.68595000 -1.63167000 4.03441000
6.24939000 -2.10096000 3.65499000
6.42556000 -1.94280000 4.34033000
6.02566000 -2.41709000 3.92618000
5.58253000 -2.83465000 3.57268000
5.79282000 -2.77205000 4.15815000
5.37406000 -3.15642000 3.79904000
4.93240000 -3.51265000 3.49020000
5.17095000 -3.49915000 4.00238000
4.74671000 -3.81106000 3.69987000
4.95219000 -3.82864000 4.19393000
5.54831000 -3.14689000 4.36042000
5.30251000 -3.52079000 4.54043000
5.07223000 -3.89420000 4.70110000
5.59221000 -3.18542000 4.93857000
5.33398000 -3.60446000 5.07898000
5.09708000 -4.00977000 5.20732000
5.50404000 -3.29714000 5.49349000
5.25661000 -3.74758000 5.59585000
5.02417000 -4.17401000 5.68871000
5.37396000 -3.50814000 6.00731000
5.13609000 -3.96512000 6.07170000
5.41009000 -3.27470000 6.43335000
5.63312000 -3.02137000 5.93490000
5.65597000 -2.75813000 6.38426000
5.57152000 -2.52232000 6.82483000
5.92968000 -2.19985000 6.32726000
5.80880000 -1.96324000 6.79900000
5.56444000 -1.80087000 7.25111000
6.06530000 -1.36955000 6.77155000
5.73588000 -1.27664000 7.25707000
5.35776000 -1.19026000 7.68290000
5.89583000 -0.77206500 7.27888000
5.48064000 -0.72323800 7.72523000
5.04946000 -0.67442600 8.12940000
5.58403000 -0.28489600 7.77246000
5.13236000 -0.24395600 8.18617000
4.65075000 -0.20756700 8.54297000
5.21081000 0.16891300 8.24599000
4.70404000 0.20685300 8.59567000
4.16261000 0.23457900 8.88734000
4.74614000 0.61131800 8.63972000
4.19548000 0.63652300 8.94454000
4.78412000 1.00557000 8.68251000
4.22621000 1.02835000 9.00579000
4.80964000 1.39481000 8.72295000
4.24343000 1.41898000 9.04221000
4.81472000 1.78385000 8.74652000
4.24586000 1.80802000 9.06029000
3.64090000 1.82432000 9.31049000
4.24056000 2.19805000 9.06723000
3.64003000 2.21375000 9.31811000
3.01842000 2.22388000 9.49454000
3.01318000 1.83067000 9.49131000
3.64083000 2.60711000 9.30714000
3.03305000 2.62175000 9.48734000
3.01842000 2.22388000 9.49454000
3.03305000 2.62175000 9.48734000
2.42212000 2.62421000 9.60809000
3.04886000 3.02520000 9.46612000
2.45316000 3.03384000 9.59382000
1.86057000 3.02972000 9.66766000
2.46341000 3.43303000 9.48808000
1.87921000 3.43214000 9.57147000
1.30165000 3.43063000 9.60631000
1.87712000 3.78060000 9.34114000
1.31916000 3.77878000 9.37591000
0.76515600 3.79080000 9.39653000
0.73605100 3.43432000 9.61586000
0.21642100 3.77961000 9.37516000
0.78571900 4.12679000 9.15136000
0.24961800 4.12269000 9.14099000
-0.27798100 4.10463000 9.09610000
0.26840200 4.46009000 8.90015000
-0.24403900 4.44445000 8.85505000
-0.74507000 4.42261000 8.78001000
-0.78563700 4.08111000 9.01880000
-1.23505000 4.40643000 8.68118000
-1.28124000 4.06507000 8.91869000
-1.71907000 4.40193000 8.55472000
-1.77004000 4.06285000 8.78455000
-2.20263000 4.40586000 8.39308000
-2.25843000 4.07373000 8.62049000
-2.68407000 4.41538000 8.20360000
-2.74813000 4.08998000 8.43247000
-3.15845000 4.42497000 7.98489000
-3.23128000 4.10116000 8.20889000
-3.62669000 4.43685000 7.74459000
-3.70960000 4.11418000 7.96524000
-4.08703000 4.44905000 7.48652000
-4.17825000 4.12511000 7.69882000
-4.53446000 4.45590000 7.19553000
-4.63417000 4.13250000 7.40161000
-4.96990000 4.45972000 6.87844000
-5.08271000 4.14015000 7.07716000
-5.39489000 4.46393000 6.53821000
-5.51912000 4.14750000 6.72627000
-5.51912000 4.14750000 6.72627000
-5.39489000 4.46393000 6.53821000
-5.81374000 4.47553000 6.17726000
