70.43990000 4.30750000 55.94380000
-37.74600000 9.74990000 76.85200000
-49.46550000 31.62690000 21.88430000
19.64500000 70.67060000 41.83610000
88.35050000 1.95693000 21.07180000
41.40180000 69.71590000 23.00290000
-74.49720000 21.92250000 -12.11390000
-17.98370000 23.51940000 71.41690000
-1.75015000 64.10070000 31.93330000
78.42150000 22.13770000 13.29350000
-10.69750000 65.26750000 -29.18810000
73.96110000 13.20300000 44.59400000
38.98410000 37.51720000 5.54010000
8.86278000 55.87460000 -22.00840000
-17.86500000 40.67120000 -1.94782000
77.92260000 7.51424000 42.04620000
14.94200000 -7.78580000 -86.97490000
8.92275000 64.76830000 -29.57860000
24.05500000 60.39740000 11.32480000
64.26960000 15.60900000 -53.12060000
-49.53310000 66.82260000 18.11020000
8.10057000 10.05300000 87.51360000
-14.01540000 33.07940000 -47.71220000
-5.00771000 8.98065000 -86.37080000
-24.53460000 60.71760000 -2.17129000
24.83180000 62.14050000 15.31620000
28.82230000 65.92400000 11.91280000
34.13100000 69.34010000 -39.43820000
-15.02750000 64.35460000 25.15380000
59.83660000 8.99986000 -63.48730000
6.37985000 -3.06894000 -89.19770000
30.93900000 68.78600000 46.45960000
55.88820000 19.28910000 56.82140000
-21.06730000 67.41480000 -28.47130000
-23.15360000 58.52200000 0.49671800
13.95590000 21.77800000 74.74640000
19.05540000 52.26960000 -12.60220000
70.21580000 27.85690000 6.02723000
24.45940000 69.45910000 50.29230000
23.10280000 68.20950000 -47.27920000
17.08570000 51.95330000 -14.95830000
-21.51920000 -1.28096000 -87.07680000
91.14630000 -1.81391000 -6.24048000
5.27423000 3.12748000 89.38140000
13.78930000 31.33220000 57.21010000
7.21838000 11.01840000 -84.83850000
84.89730000 -4.08713000 34.45740000
53.58940000 66.34900000 -9.57122000
-18.85750000 71.49190000 48.06310000
47.02410000 24.75340000 54.69960000
-16.69560000 71.05690000 51.98600000
-13.23760000 63.36180000 -23.77110000
19.87850000 21.76440000 -74.26920000
18.49700000 22.39630000 -71.79290000
-10.96180000 59.48530000 -21.97970000
32.25400000 22.37600000 68.47720000
8.37428000 20.11440000 -76.34640000
82.06820000 -6.01427000 -42.60570000
-18.60490000 20.36770000 -75.61990000
21.52730000 52.12370000 -7.94255000
93.31810000 -7.96475000 4.60936000
-33.75310000 6.63312000 -78.69970000
-43.92370000 66.60710000 -29.07810000
22.01300000 14.69980000 -80.44510000
-62.08720000 25.50670000 -32.21150000
-7.59115000 41.10360000 20.00890000
19.77530000 32.96990000 42.86250000
-44.13480000 17.00830000 67.88350000
82.05460000 9.69894000 -32.39960000
92.57080000 -9.20110000 13.14270000
81.73650000 -5.16655000 40.99080000
-25.42090000 -6.00765000 86.21950000
20.00460000 41.25420000 -3.52033000
-19.42140000 -4.17905000 87.85080000
-20.95820000 52.69420000 7.94666000
85.34110000 1.90535000 -28.32780000
-24.59210000 36.10980000 -33.91790000
81.21820000 -2.68050000 43.01830000
-71.28950000 23.51770000 -2.91375000
-13.61470000 40.73400000 10.71800000
-7.79863000 38.02740000 -28.78180000
21.16400000 45.07320000 8.54849000
66.41860000 28.33700000 -5.18688000
85.94810000 11.79810000 -15.25090000
-7.31823000 42.33910000 -19.12660000
20.15350000 30.00330000 -56.29970000
-89.42550000 -5.61717000 -2.43107000
78.57210000 16.75790000 -24.19830000
32.17730000 -4.54333000 84.27000000
-34.09090000 26.25900000 -59.96360000
-68.10840000 26.17720000 -4.82397000
-6.27928000 -8.87914000 -89.41240000
14.32840000 39.65320000 -20.63630000
20.80130000 66.24640000 25.00350000
-58.03410000 28.80980000 21.75250000
42.25880000 35.48600000 17.65720000
-5.60901000 62.99700000 -26.62680000
-45.93330000 70.82060000 7.16913000
37.29090000 69.29810000 -29.90490000
-35.79380000 67.23880000 -38.41620000
19.55150000 54.02250000 15.75830000
-62.85490000 28.39290000 10.74890000
20.13920000 41.09140000 2.66829000
51.14270000 2.20341000 -73.16720000
-15.83620000 66.49180000 36.07240000
-33.05130000 70.88920000 -39.10960000
88.37320000 10.58870000 3.13931000
44.08050000 8.26974000 -75.17810000
-90.46400000 -6.98398000 -11.93120000
11.66570000 40.99350000 7.01238000
-3.56601000 40.83650000 -20.54030000
-30.60840000 29.75640000 -53.45480000
10.35260000 35.01160000 -43.21990000
4.96229000 28.85950000 -63.34130000
2.89060000 12.32240000 85.37930000
85.30470000 15.83520000 0.76413900
-21.88770000 57.59500000 6.33296000
18.72940000 -8.87374000 89.43380000
-47.53540000 -10.65250000 74.00370000
-62.40400000 26.43250000 -20.99670000
-52.79010000 7.62565000 66.40180000
-2.59696000 9.89404000 -84.60930000
-21.11420000 68.65510000 42.14580000
-45.62220000 28.70530000 -44.29180000
-12.44830000 40.10450000 -17.35670000
-19.03570000 68.80070000 42.58390000
44.93350000 65.96410000 32.81290000
40.76910000 34.20600000 -32.68260000
-20.24440000 9.86861000 83.15790000
11.57030000 70.43500000 -48.85400000
8.08129000 -8.01672000 -91.27890000
52.99510000 -8.17763000 76.28450000
-22.79010000 62.88300000 -15.80600000
-58.88090000 12.15160000 60.00500000
-9.48550000 30.07270000 58.23210000
-7.72597000 69.00420000 55.01370000
-84.33310000 8.41371000 -21.12550000
32.08500000 30.99240000 50.80510000
92.31070000 -5.32865000 11.95230000
-19.93530000 46.44100000 -5.73519000
24.54100000 63.57940000 18.34050000
49.21660000 22.27090000 60.99930000
-35.29070000 67.73670000 -21.63490000
50.07050000 27.13080000 -47.53050000
-58.42170000 5.70492000 64.44950000
49.54900000 33.94970000 21.14520000
7.37671000 56.74660000 23.32000000
-91.19850000 -7.69204000 -3.76837000
-78.80980000 9.09074000 -35.76930000
-23.05420000 37.84750000 3.04143000
21.98740000 40.43040000 -9.03369000
47.95440000 23.30620000 -55.81230000
8.54452000 39.44520000 9.40986000
13.11090000 61.41720000 25.83340000
62.08070000 26.33120000 -30.51110000
-17.16260000 15.22100000 81.08180000
59.82670000 25.87100000 37.80300000
35.65790000 67.78460000 27.41290000
-19.02850000 13.53300000 80.55150000
49.84750000 30.64760000 37.72430000
-77.92300000 -11.38490000 47.05070000
8.60324000 48.40600000 -21.18180000
45.25260000 33.89820000 32.99140000
-80.57860000 8.20762000 -32.20480000
19.72870000 71.44490000 -48.87860000
29.08700000 65.79200000 16.13740000
-20.57280000 13.03020000 80.82640000
-30.57150000 33.48460000 30.67950000
17.85340000 10.34530000 85.22650000
-47.91520000 69.89730000 15.01310000
8.85956000 58.22070000 -24.50030000
-77.67960000 -9.40949000 39.99350000
-8.24949000 67.00080000 49.88520000
-16.43800000 60.95350000 -20.65380000
25.69710000 30.29910000 49.00650000
-50.30070000 19.68480000 57.54770000
-28.96960000 33.01110000 36.16980000
-19.22540000 62.18950000 20.84580000
73.91640000 24.54320000 6.77308000
84.18310000 12.07380000 -21.34010000
13.41890000 66.00170000 29.56600000
75.49410000 15.49460000 -37.01950000
19.02960000 23.74080000 -70.86890000
55.06060000 67.49620000 9.46969000
-79.52560000 5.17065000 33.55840000
-72.37620000 -2.97584000 -53.19420000
89.54440000 -5.01001000 18.09210000
-12.21990000 41.69020000 -14.03510000
-10.70580000 30.66010000 -58.85360000
33.70290000 17.83710000 -73.48670000
89.46990000 4.75317000 -15.47330000
-73.07510000 3.60236000 -47.99950000
55.22120000 -8.72853000 72.26320000
45.86240000 31.37410000 39.25870000
80.58040000 17.61980000 17.89720000
3.35728000 71.38010000 -48.20400000
-71.07480000 19.21150000 33.99450000
1.83636000 32.03640000 -56.02800000
85.46660000 13.54590000 -1.72555000
79.41260000 8.92990000 39.46000000
-0.52611200 66.76940000 -32.00640000
-21.80670000 8.27491000 -83.36380000
-61.36320000 16.93770000 52.62480000
26.58140000 61.00020000 3.77966000
52.66160000 68.50170000 -1.55478000
-26.84150000 67.33980000 -45.28730000
20.01580000 43.45000000 -10.02900000
-36.73640000 13.43830000 -73.87430000
-13.84950000 40.10510000 9.82705000
88.18790000 -5.25001000 -20.04760000
-12.51480000 -8.19266000 88.28420000
19.65610000 -4.09976000 88.97850000
36.23710000 33.11540000 -38.33810000
27.03780000 17.37500000 78.95830000
-12.07730000 70.14790000 -51.68660000
-85.56190000 7.63551000 16.30160000
-35.36250000 66.77580000 -2.39948000
38.60390000 34.52510000 -26.91170000
26.26280000 35.37690000 -40.05970000
86.61180000 -5.39320000 -24.91850000
16.37820000 8.60017000 87.36070000
-69.38550000 -6.66174000 -53.07350000
-40.12750000 30.58540000 40.63010000
-21.78200000 2.20891000 -84.55170000
-24.10230000 57.96200000 -1.52527000
-71.05640000 12.14130000 -45.79230000
62.80760000 27.24370000 -31.93880000
32.14530000 25.89290000 64.33140000
54.76520000 66.09160000 0.75163100
-62.20510000 9.83047000 56.41850000
26.65410000 26.82270000 65.16590000
48.93480000 17.22640000 68.70880000
86.08860000 -4.18201000 32.90310000
-20.00770000 68.65300000 -44.14160000
-88.24990000 -7.94450000 -1.96265000
-4.22114000 21.29630000 -75.12570000
-6.49259000 59.22720000 24.36820000
-86.47940000 6.28146000 1.76617000
-39.94200000 70.48410000 36.44680000
-40.98090000 68.39470000 10.30400000
12.30180000 40.57180000 19.04910000
-31.42160000 68.88120000 -33.03080000
-11.88290000 37.04950000 -34.78770000
-79.73540000 -10.81610000 40.80710000
-59.57420000 28.80580000 1.08553000
41.65370000 -5.87798000 79.45340000
-84.84310000 6.83046000 -14.72320000
-26.11380000 72.21160000 45.31380000
82.16880000 11.49390000 29.60390000
72.18010000 5.36821000 -52.66080000
15.60100000 37.95220000 -24.73400000
-9.45521000 38.74550000 22.42540000
9.01750000 57.45040000 24.88330000
-22.26420000 25.81290000 -66.50050000
-30.57500000 33.78390000 32.89960000
-26.62140000 4.06023000 83.51290000
25.75820000 62.32210000 -12.44890000
51.91550000 12.06670000 70.31380000
-20.40380000 35.18110000 34.15840000
-81.89220000 11.25550000 23.13060000
-75.10390000 -8.47942000 -49.28740000
-11.08820000 -1.25686000 -87.93720000
24.42360000 13.06770000 82.14030000
-21.27910000 57.80340000 -11.63380000
52.56850000 29.01480000 37.98460000
26.52350000 67.38550000 -46.69930000
41.93460000 -2.37806000 80.80540000
50.47890000 -8.82692000 -73.81290000
87.34840000 -7.61581000 -31.58430000
-26.19680000 15.49270000 -77.93390000
66.91860000 0.78338600 -59.03000000
-25.18690000 68.92610000 -36.99840000
45.15250000 67.85850000 31.94930000
-28.00570000 2.15580000 -82.61550000
-3.82933000 64.47130000 32.08830000
-85.53050000 8.44232000 16.18590000
48.50650000 68.67530000 27.94510000
-22.91580000 66.14640000 -20.71240000
3.92947000 65.59750000 -29.35610000
74.31910000 -1.99983000 53.64390000
-80.82260000 -4.41966000 -36.69780000
-75.94730000 9.12347000 39.69170000
-17.97660000 41.76390000 9.81013000
-52.87450000 67.09120000 2.36837000
-5.40177000 54.72340000 23.91410000
20.46990000 62.29870000 -19.61700000
-15.35450000 66.37280000 34.68200000
-58.09490000 24.23730000 -42.19260000
0.67936900 23.26840000 73.97560000
83.76130000 15.84720000 5.07355000
-81.99860000 11.92740000 14.93890000
46.82600000 66.25340000 31.07550000
-60.89180000 25.41520000 33.74250000
17.11020000 63.28380000 -23.66530000
-18.41820000 20.77140000 -73.61940000
-50.62390000 67.53230000 -14.49590000
70.06380000 12.67780000 -47.26260000
32.44190000 71.89790000 40.74070000
-28.55630000 18.84570000 -72.59100000
-38.91790000 35.43380000 10.52940000
-26.54470000 28.03000000 58.37780000
16.65070000 68.72130000 -50.93710000
51.77980000 27.13200000 47.73230000
48.13050000 68.65310000 25.68790000
86.02770000 9.50623000 18.66470000
52.38750000 2.91655000 72.39140000
72.32200000 21.19110000 -27.90930000
-60.77460000 12.12870000 -58.61410000
-53.51690000 12.79310000 64.56760000
-24.63670000 59.55890000 5.50245000
11.84400000 71.55870000 -48.66100000
20.39740000 39.21020000 -1.19614000
-81.04310000 3.32009000 -33.07280000
36.76460000 -7.76672000 82.20250000
82.44090000 6.88951000 -31.09080000
-76.15400000 19.98680000 5.24511000
-87.77980000 -0.16008000 -18.93720000
64.85330000 26.10260000 -32.26970000
24.89880000 57.56070000 0.74494700
-23.43650000 26.02100000 65.25890000
-81.97330000 -0.19582400 35.87160000
-87.35770000 -5.03203000 -25.67150000
-30.30410000 66.47620000 -6.84880000
34.60590000 34.15870000 30.83110000
22.21090000 12.73640000 -81.22920000
2.46296000 48.98690000 23.00030000
86.97790000 12.87240000 2.35758000
35.52680000 35.60350000 25.04650000
-10.83550000 25.89300000 67.64600000
47.07470000 69.49060000 -16.16170000
26.13370000 -0.75225100 -85.83860000
81.36890000 -9.63237000 40.71330000
-87.46760000 -10.43290000 26.91230000
-13.88870000 37.52190000 -24.13580000
74.15370000 4.97011000 49.75860000
-45.84260000 3.82415000 73.77820000
16.02110000 44.67410000 16.17210000
53.26310000 68.77260000 5.84252000
30.60610000 16.96420000 -74.42580000
-45.74950000 68.70030000 -9.81175000
-37.01380000 30.06730000 -47.99050000
87.52670000 8.85505000 -16.23780000
-37.35840000 25.02830000 60.76430000
60.95760000 -8.91648000 70.09240000
76.68460000 -8.78108000 -51.28210000
-35.99420000 68.75430000 -38.57830000
54.57740000 0.92977900 -69.98360000
-39.26910000 -6.58823000 79.82880000
44.15320000 2.27141000 79.84990000
1.15361000 27.48640000 65.10890000
70.38240000 27.86410000 -4.76936000
-0.00574500 56.50720000 24.03690000
-4.74000000 25.90310000 71.81160000
90.35620000 -9.14255000 -10.94550000
83.73680000 10.47000000 -22.45840000
41.17050000 71.33870000 -31.16800000
-51.52680000 67.90230000 1.93168000
79.79270000 18.14970000 -21.64470000
-17.74010000 12.02990000 -82.28860000
-6.53754000 49.65320000 21.83290000
20.78760000 62.14260000 -16.98530000
-43.25540000 28.99450000 -41.51880000
-29.66770000 64.23900000 2.62420000
-6.71093000 52.59820000 21.31330000
10.96000000 33.53070000 48.12400000
40.44480000 69.95990000 35.97450000
2.99083000 14.70540000 -81.69110000
-22.38840000 66.97750000 32.50650000
60.13640000 -8.39415000 66.74090000
3.45168000 66.85450000 33.79410000
-29.97490000 -2.38010000 84.01070000
-38.79500000 67.36200000 -20.74400000
-51.06440000 11.72150000 -67.19280000
27.61790000 60.17880000 2.43372000
-84.88950000 -6.22360000 26.56860000
10.74820000 1.43279000 90.27850000
8.10425000 -3.35608000 90.60310000
-25.42970000 -10.41810000 87.83060000
-8.82634000 39.26560000 21.13760000
-44.48390000 68.78040000 -16.02670000
28.29530000 61.23980000 -0.71502400
1.91235000 35.05800000 -43.54710000
-55.82780000 28.29170000 -30.22150000
79.90030000 12.00670000 34.70240000
44.62930000 7.67413000 -74.89320000
36.24300000 25.22710000 63.43660000
-28.17160000 38.64730000 -9.23517000
-48.60890000 70.55300000 -2.68281000
-76.93140000 12.95690000 -33.79610000
-27.09760000 71.55590000 41.80550000
55.39720000 67.15760000 6.33456000
-25.45430000 -10.11840000 88.62830000
-58.46480000 15.93970000 -57.57500000
19.71940000 49.38370000 10.38800000
12.38180000 68.48520000 53.19830000
-21.55780000 -2.88901000 88.00470000
17.10380000 47.74720000 14.40780000
-60.84180000 16.87420000 -51.57650000
51.88940000 70.89560000 -14.11390000
22.56630000 44.61320000 2.86143000
-40.29460000 69.68260000 -31.01340000
73.80600000 15.05170000 -41.20130000
-12.92570000 71.72010000 -50.06330000
-56.62730000 9.31358000 63.70890000
-8.90520000 -1.46352000 -89.69070000
-78.45860000 -9.03280000 -46.82750000
5.14280000 56.42160000 25.27590000
12.36490000 40.55720000 14.03840000
-54.36800000 20.45020000 -53.06740000
28.32830000 63.08430000 -0.69941200
-2.83623000 60.26020000 -25.27420000
7.51890000 69.94150000 -51.54160000
-17.70930000 -6.74969000 90.11290000
-26.15620000 65.47820000 -12.38870000
6.87614000 59.20350000 -24.28540000
61.46140000 24.63210000 43.43230000
-17.19640000 40.00890000 2.68233000
-0.34334800 40.12960000 17.98800000
-3.08653000 12.88740000 -84.02520000
72.81670000 -8.80778000 52.43210000
-45.11510000 68.48320000 29.83270000
-18.78800000 45.09730000 -1.03414000
-0.95678900 17.98250000 -80.03040000
-0.49031300 66.47360000 -33.35990000
-75.73410000 3.09210000 -46.51650000
-12.18020000 38.50760000 -24.04730000
17.12430000 43.01940000 12.00410000
23.81990000 2.33853000 85.62300000
15.64410000 31.95610000 47.68840000
-49.56170000 68.20820000 20.60870000
-10.03110000 40.04830000 9.89872000
-19.01010000 45.82940000 -4.94983000
68.35860000 19.69660000 43.56370000
-64.29310000 27.83820000 -13.41580000
-2.90498000 40.54680000 11.27140000
8.11696000 -1.35555000 -89.65490000
-22.34150000 58.61780000 -6.74239000
4.46901000 15.00800000 -82.90910000
-63.25630000 24.16960000 -30.28990000
-19.58820000 55.62630000 -10.58250000
-87.34160000 0.73404700 12.78690000
-73.34920000 16.90840000 30.06980000
-3.16440000 50.43840000 -22.45880000
-81.30710000 12.19830000 -22.29860000
67.13100000 12.38180000 54.78020000
-30.51660000 11.10280000 -78.93920000
60.20190000 30.59320000 24.29990000
85.96970000 1.53590000 29.30870000
12.85340000 33.65940000 43.40870000
17.43770000 69.44380000 50.42590000
-33.41020000 31.33540000 39.96760000
-81.23480000 14.95630000 -0.60269200
-39.25660000 32.39610000 25.47380000
57.52160000 -5.27364000 69.79900000
7.36383000 11.50230000 -83.62040000
28.90820000 66.19810000 -15.36660000
-39.67090000 30.54990000 35.94810000
28.95270000 5.94658000 -81.94520000
38.33330000 70.25120000 -37.70200000
47.09420000 68.57770000 1.07912000
39.35680000 71.15560000 33.28400000
72.72020000 25.07640000 -6.57302000
-5.78146000 -3.19134000 90.08070000
-60.80180000 -6.25104000 63.76860000
-14.95360000 68.70340000 -51.00310000
-19.40170000 -10.27810000 90.25690000
33.33970000 67.30600000 7.25947000
-41.82830000 -9.41527000 -80.32190000
23.44780000 25.66710000 68.41130000
-4.79650000 41.84920000 18.71000000
-53.71840000 2.02313000 68.03390000
9.71883000 67.13760000 -30.76360000
19.54830000 58.16120000 16.18360000
69.61290000 17.26240000 -41.48820000
-17.11320000 22.54420000 -73.39940000
21.89690000 30.89580000 -56.29650000
10.95810000 16.34730000 80.92130000
-55.24150000 -6.49055000 -67.54390000
-6.83547000 37.65970000 24.17710000
-5.04265000 -9.71074000 91.52920000
-1.45759000 18.28240000 81.88210000
-39.34080000 12.98450000 -73.73450000
-21.86210000 52.19610000 3.86452000
-57.09960000 -6.48171000 66.51900000
0.11412400 69.35630000 52.19110000
4.56793000 68.16770000 -53.05300000
17.73690000 35.67350000 -38.40570000
31.13470000 69.02080000 44.69750000
31.92100000 22.28190000 71.26030000
26.69680000 8.36607000 -82.39410000
37.32710000 70.12880000 38.46500000
-10.65670000 56.22590000 -20.42630000
-23.09500000 63.16190000 14.33130000
-4.34201000 70.85220000 47.49590000
41.43590000 29.06660000 -49.32100000
-16.49030000 32.66250000 48.53020000
-4.85783000 69.03290000 49.99930000
-19.72430000 65.82700000 23.70500000
-18.49900000 58.23060000 17.06590000
32.67270000 26.15280000 -62.42560000
-47.59670000 12.35520000 67.36720000
-51.12780000 66.54150000 -12.61780000
42.31920000 15.10680000 72.24720000
50.44080000 24.17930000 -53.24600000
36.48660000 68.98500000 42.36060000
-70.27870000 25.49820000 3.92408000
60.09670000 14.59110000 57.66660000
44.04450000 31.41320000 34.80330000
-43.24110000 6.10236000 -74.34270000
-55.62480000 -7.18394000 71.12180000
25.20960000 58.78750000 9.62181000
-18.09770000 58.73190000 15.66900000
80.21950000 -9.01853000 -41.74330000
38.96510000 23.06420000 -64.32770000
-20.65510000 40.10930000 -2.46082000
2.03726000 56.12090000 -24.84920000
-88.47570000 -1.60488000 -8.35614000
43.24010000 22.83650000 -61.82780000
21.25020000 67.28380000 27.08710000
26.69370000 12.06640000 82.91140000
9.31580000 -7.48621000 -90.75200000
10.80030000 42.11210000 -18.59750000
21.27330000 6.07156000 87.28800000
40.00930000 30.09930000 44.38230000
-80.35900000 17.55610000 4.07240000
90.97270000 -4.69037000 9.36431000
4.59535000 69.62270000 53.12930000
57.08860000 5.06599000 67.40250000
-73.93060000 20.73600000 14.35670000
91.32760000 -3.56366000 -5.26599000
-24.14740000 64.24810000 20.25030000
-17.28240000 38.46320000 -0.66815500
46.90670000 32.12640000 31.58990000
-51.00360000 23.32960000 49.22820000
44.24330000 34.78440000 20.84150000
14.93770000 23.86970000 -70.26780000
-23.05520000 38.12000000 -6.70229000
-8.32942000 67.83440000 45.38460000
-82.05540000 -3.32828000 -33.89790000
88.08110000 6.64044000 -11.03390000
-10.95850000 35.46180000 37.27220000
22.83450000 50.24040000 0.30421500
-22.31320000 55.76190000 6.97719000
23.66000000 -5.44972000 86.57000000
64.94250000 -0.35488900 -63.12830000
38.33230000 19.65940000 -68.01520000
76.91450000 -8.29171000 -44.66320000
9.01989000 -7.05142000 92.01810000
8.93486000 55.01530000 -23.16100000
19.18420000 43.12050000 7.62138000
-8.55930000 40.26510000 9.83722000
-79.68180000 14.73650000 22.51790000
74.95290000 16.49170000 36.31310000
-25.55910000 16.92730000 78.00320000
49.23640000 34.76450000 14.42240000
-80.75990000 -1.95934000 39.09110000
19.83800000 37.90750000 -22.91870000
55.04190000 30.63340000 31.84620000
19.88510000 52.93980000 11.08950000
-10.58410000 67.91220000 41.60020000
-25.65660000 61.21570000 -5.41274000
-83.68100000 -8.98072000 36.37160000
-36.35120000 35.61750000 -17.96960000
36.71770000 67.80330000 -36.53830000
-20.40710000 63.95630000 23.25650000
-87.48680000 -8.19803000 10.66750000
-23.54620000 34.37720000 32.93560000
82.53220000 16.16700000 -10.90630000
-17.44500000 51.82190000 14.37430000
-64.71820000 -3.83486000 59.55260000
-38.96220000 25.10190000 57.01620000
60.03330000 9.16801000 65.23940000
26.09060000 68.22430000 -36.79540000
43.44810000 -7.47407000 -76.46950000
-87.39080000 -4.11680000 23.97770000
69.39330000 24.43180000 -23.94120000
-42.46300000 -8.12978000 80.42830000
5.82697000 42.97780000 19.43050000
-1.44038000 60.49410000 27.91800000
82.31160000 15.73760000 22.27280000
-37.25560000 18.10200000 69.79750000
48.98950000 32.84160000 -28.39630000
-85.12240000 -5.31400000 -25.89240000
68.75830000 -4.42779000 -57.33280000
-32.69070000 18.09830000 -72.80910000
-84.72230000 -0.77350600 -26.44970000
-15.74460000 68.30410000 -49.79210000
49.83390000 24.09230000 56.24870000
61.21010000 28.54290000 25.89350000
-37.04650000 35.62040000 -10.66680000
-33.28460000 69.87120000 -38.98050000
-46.65720000 68.91150000 21.43160000
22.80080000 64.61970000 22.33970000
-42.20040000 68.24220000 -31.78920000
-64.30180000 2.05223000 60.41050000
-42.42850000 34.10500000 -0.13679400
-88.80350000 2.23939000 -6.86253000
51.81620000 29.23130000 37.03260000
76.51910000 0.02674900 -49.39750000
-22.11290000 18.87480000 77.57890000
33.98850000 27.49890000 -56.48740000
24.39880000 39.36840000 8.79700000
-71.85060000 16.17410000 -35.93980000
24.57820000 8.12985000 84.63230000
-10.76930000 39.15260000 -4.55297000
32.02810000 37.64710000 18.68580000
1.95675000 20.88450000 77.26150000
-81.21800000 8.69873000 25.02020000
-15.81520000 20.46490000 76.53340000
-26.54520000 35.46160000 28.26700000
-59.34770000 -1.77002000 -65.93590000
59.31130000 29.32970000 23.72600000
59.62300000 -3.30241000 -66.72540000
-22.21670000 56.62480000 1.10100000
39.53020000 68.33600000 38.13540000
-88.99730000 -3.52825000 16.95320000
20.38480000 30.74550000 51.50960000
-75.37300000 21.81900000 -6.13543000
-68.78230000 -3.62821000 -57.91560000
8.26640000 35.71900000 35.96500000
59.76970000 27.39470000 33.67530000
-74.61190000 16.26300000 -29.63520000
21.56580000 70.88070000 -41.09000000
20.32090000 32.17120000 52.08160000
-56.04440000 -2.22757000 -68.88360000
-9.21148000 61.80440000 -25.92040000
-10.60680000 62.79330000 -24.66250000
33.71090000 70.66630000 41.37540000
8.09303000 -4.97523000 -89.00650000
78.13070000 13.80120000 36.76020000
-9.76164000 56.63300000 -22.50590000
36.71950000 36.78070000 5.52526000
-47.59990000 69.16590000 -15.41550000
32.64780000 30.29320000 -53.53050000
-66.29240000 8.76643000 -53.35120000
61.25400000 31.74430000 8.23664000
-0.82227900 40.26050000 21.99990000
64.57060000 -6.12557000 63.50750000
-31.24000000 5.00834000 -81.77930000
29.23890000 24.47470000 -66.36760000
1.58285000 35.78880000 -40.21760000
-63.12400000 28.83950000 -0.51029000
0.72218500 36.82820000 -30.53470000
34.92960000 35.86640000 -23.60340000
9.51192000 38.76100000 -27.76230000
-70.23270000 12.74070000 -44.19850000
-51.50040000 32.28540000 -15.37580000
-9.65332000 64.21200000 -28.20220000
6.52027000 38.97520000 22.94680000
15.87540000 2.54947000 88.57330000
-17.17340000 26.56850000 -66.75400000
52.64090000 0.35409500 73.11750000
-28.79080000 65.13950000 0.29993800
2.04613000 9.14071000 88.15610000
-12.71720000 -6.98615000 -90.11070000
-12.13040000 70.42430000 44.33330000
29.74130000 66.09560000 -7.16341000
44.13180000 24.32980000 -58.01680000
-41.84800000 71.74050000 29.73680000
30.75430000 5.33242000 84.90590000
-57.60910000 18.93270000 -52.18160000
25.62140000 17.34330000 77.77220000
72.19090000 10.36640000 -46.62440000
-33.24300000 36.70100000 -18.89640000
70.73480000 22.07880000 32.49660000
-49.09140000 8.87936000 -70.36270000
-0.91623900 39.20020000 23.15950000
75.77390000 8.95811000 -44.86680000
-53.21690000 9.72214000 -67.37540000
-90.07770000 -2.84602000 5.22645000
-28.33980000 65.52310000 -6.51627000
17.06700000 56.97350000 17.97400000
-39.29200000 34.12230000 -23.67920000
21.84160000 40.00950000 9.75771000
-26.78870000 68.16090000 46.76470000
-3.37144000 69.38090000 45.08790000
65.51360000 9.76557000 -57.54940000
16.98890000 38.62010000 -17.88320000
69.01890000 16.02960000 46.99160000
36.15620000 5.33806000 -79.26170000
-39.61620000 70.37790000 18.49690000
-90.19360000 -4.18648000 -8.36938000
33.79440000 14.18030000 -75.30260000
-74.27360000 21.28300000 8.20427000
79.76630000 -3.64085000 44.69750000
-6.91375000 65.42360000 34.27100000
1.26984000 60.86350000 26.98130000
-19.82520000 57.89950000 11.97030000
8.91087000 23.15270000 -73.56100000
22.70430000 67.21470000 -47.93880000
79.31380000 21.85810000 8.69323000
-10.52380000 67.09570000 39.04440000
-6.80592000 24.16950000 -72.15840000
56.61820000 -4.98491000 73.12200000
-17.93640000 -10.18250000 90.06330000
62.52450000 30.26550000 19.87900000
-86.42990000 9.27575000 -0.70620700
28.18320000 -8.09880000 85.91330000
36.59140000 -3.61845000 -81.65140000
38.87190000 14.97230000 76.55520000
-50.03960000 17.17870000 62.88550000
66.42050000 -8.60722000 64.57460000
-15.41120000 56.43820000 17.09760000
14.60010000 41.33400000 -13.55130000
76.87950000 9.56917000 -39.72670000
71.53190000 20.70330000 36.93220000
1.12767000 27.86550000 -66.28540000
19.63560000 -0.53047200 -86.65290000
28.59570000 65.35030000 -13.43640000
60.94230000 25.86710000 -33.67950000
-39.07290000 68.15010000 37.63610000
-76.95880000 -7.54730000 42.86620000
63.72340000 11.71400000 -55.83750000
-60.84330000 19.13800000 49.75980000
6.76421000 -9.65701000 -90.60680000
-7.34117000 11.15970000 85.30490000
-20.29400000 38.18890000 -10.60280000
71.71840000 17.03540000 42.92040000
-18.35530000 69.58770000 47.52710000
-76.70290000 -10.68760000 45.30290000
-71.58740000 23.38790000 -14.76130000
-25.60990000 60.76470000 -3.45878000
49.57970000 32.64290000 32.87530000
-40.74820000 28.95390000 41.67390000
-35.32330000 70.36490000 26.76890000
60.50490000 14.98070000 -58.07520000
48.93890000 18.09910000 -62.77850000
52.01080000 70.59290000 13.45910000
86.46480000 5.81516000 26.00530000
-22.67660000 67.66410000 27.05290000
50.63640000 19.01930000 -61.76510000
0.02184700 41.70120000 21.81510000
2.45538000 71.48080000 54.75110000
21.30670000 32.34700000 -49.80260000
50.19280000 66.96740000 22.16550000
-67.44060000 12.89960000 -50.09150000
-30.94950000 15.96940000 -74.43630000
71.06980000 19.77000000 -37.75870000
-18.79570000 -8.00424000 -85.99730000
89.62850000 1.17416000 19.49060000
16.71290000 69.29160000 -42.04250000
-54.22560000 24.43840000 45.78410000
22.66930000 55.47730000 -7.37629000
-5.93131000 1.76537000 89.79370000
-67.42540000 -11.46570000 60.94190000
-17.12200000 39.72500000 1.63704000
-25.46730000 70.61410000 49.14250000
-20.33390000 18.36250000 -75.80720000
72.95310000 11.97910000 -45.58390000
-18.76410000 34.34040000 41.26470000
-32.71090000 70.07320000 40.86080000
-33.19090000 67.88000000 -18.95680000
9.80689000 -2.94896000 91.21950000
40.52940000 -3.72306000 -79.77790000
-9.15078000 42.06200000 19.26160000
-38.32870000 69.37310000 -19.96530000
-2.25706000 -4.23509000 91.76090000
-25.79440000 68.18510000 49.02880000
-42.33910000 69.92710000 -18.25760000
8.63640000 28.56750000 -61.90900000
3.11856000 30.15660000 -61.08860000
90.23540000 2.03581000 9.65886000
-51.95210000 70.72770000 2.63212000
53.05680000 29.84110000 -36.44030000
40.29650000 35.58670000 -15.65230000
51.99200000 69.02570000 -0.82630300
82.73930000 -7.02157000 -32.26120000
25.25950000 65.40970000 21.44790000
61.78510000 18.84350000 -52.07430000
-50.25130000 66.99570000 13.32000000
59.88200000 30.00590000 -17.39140000
-51.01570000 70.98280000 5.78918000
87.50060000 -6.63557000 -18.60780000
17.35870000 65.47920000 29.02640000
51.67980000 68.37200000 16.82780000
54.13550000 31.85960000 -18.49290000
14.81510000 56.93480000 -18.83860000
55.55770000 33.92440000 3.03864000
-17.87690000 31.86040000 -50.20540000
27.64290000 70.52930000 43.80350000
87.42570000 -2.88200000 -24.96220000
25.14940000 60.81060000 12.50560000
-81.52690000 14.99060000 14.86990000
51.68800000 66.66620000 -17.37360000
15.42610000 36.74000000 -37.52510000
-50.81280000 3.42185000 69.61100000
50.12640000 68.63780000 -18.07260000
27.33980000 13.41310000 80.99000000
-70.19020000 22.77600000 23.35240000
-78.23350000 -5.02311000 41.52650000
11.85560000 57.65440000 -22.95920000
0.67531600 61.29550000 28.70240000
15.60710000 39.61650000 18.25730000
35.25610000 67.08670000 -37.42940000
-22.91540000 60.36790000 8.89012000
31.15500000 29.19090000 -56.85150000
28.17180000 71.46710000 47.25740000
36.83000000 67.19590000 -39.13230000
13.38280000 64.78070000 -27.79570000
-10.33880000 48.46560000 -19.10400000
-26.28500000 37.23570000 9.05744000
-37.13070000 67.24100000 -7.14049000
42.30370000 67.96440000 -4.20484000
-72.74970000 2.26420000 50.30060000
25.41120000 59.68240000 10.07380000
-5.90787000 39.59620000 -22.05020000
-11.86140000 71.56570000 50.73310000
44.24450000 68.28550000 -29.94980000
2.13687000 4.50589000 -87.09550000
55.34460000 66.54420000 6.44142000
47.23260000 35.98700000 -1.07472000
-55.88900000 28.29140000 21.40740000
-71.78560000 23.52470000 13.29800000
79.31680000 14.83680000 29.73260000
-38.02620000 -1.22858000 -79.73000000
50.78980000 70.41860000 7.95490000
26.77640000 35.56390000 33.50220000
-7.34653000 19.73980000 -76.73040000
23.11450000 69.09220000 -30.74830000
-19.09620000 68.15340000 50.15700000
-73.81120000 18.64380000 -29.25840000
32.11070000 67.33280000 13.43330000
-69.44940000 -1.00814000 -55.10500000
-21.59270000 68.53960000 40.70340000
45.36170000 25.89460000 53.41660000
-50.35100000 13.60430000 64.79010000
-23.36670000 21.81740000 73.92690000
-51.72140000 66.07990000 -3.99849000
-54.65080000 30.49520000 4.69341000
82.01800000 19.28240000 -4.00334000
-74.41610000 19.67530000 -24.30070000
78.13880000 -0.38754300 -44.67370000
-44.56590000 33.38660000 8.40021000
-84.89210000 -9.05148000 -31.24550000
3.97158000 40.35530000 17.15560000
85.01780000 14.99340000 -11.25780000
28.89550000 69.90190000 -44.94350000
9.67624000 30.12800000 54.99040000
-25.69180000 2.66880000 85.34540000
-18.64930000 67.00660000 41.14850000
-89.41710000 -5.86361000 1.43513000
-22.90980000 37.07200000 23.10690000
50.86970000 32.06930000 24.29090000
-16.03420000 67.91680000 53.41150000
-41.40450000 34.10210000 7.11114000
48.21040000 31.56230000 32.39550000
22.48350000 28.42320000 57.98220000
46.78700000 -7.82868000 76.74600000
17.30590000 48.73870000 -15.43640000
18.75480000 21.43230000 74.40390000
56.22820000 -9.44135000 -71.29460000
15.66570000 40.17040000 17.13980000
-60.96260000 18.75750000 47.25390000
-76.86740000 0.01641800 -45.80400000
30.13880000 31.12360000 45.75180000
-2.85708000 67.59350000 55.13370000
2.80705000 41.13800000 0.21053200
-52.78290000 66.17810000 -0.39421300
50.39910000 31.44830000 28.22460000
5.21484000 23.29680000 -72.34680000
-66.50700000 0.73707600 -59.69010000
-48.88380000 -10.17140000 72.39680000
84.01050000 2.67596000 -34.38560000
22.61490000 41.34870000 -4.23174000
-6.22666000 40.70270000 -5.33078000
1.53551000 42.48520000 21.92690000
-62.87920000 19.59220000 -47.01150000
-23.92800000 28.54200000 -58.92380000
-15.61260000 10.08300000 -82.94950000
-83.88680000 13.01790000 -0.91661500
40.63060000 19.42220000 70.56230000
3.84223000 28.78310000 66.20580000
-14.45690000 40.08770000 -9.86266000
-6.24465000 27.05260000 -67.78790000
-31.19360000 65.38780000 0.09999700
82.94880000 7.54536000 -32.65920000
55.73330000 28.77920000 34.26760000
26.27590000 31.18720000 46.28260000
39.39720000 0.53471400 82.70060000
76.10630000 2.18642000 -46.63070000
-49.71440000 27.21380000 38.25690000
-14.97810000 27.61310000 -62.50810000
-11.57270000 69.76960000 -49.41560000
11.60210000 41.16690000 -7.52453000
21.87710000 10.59420000 -81.87300000
7.39420000 37.60710000 27.32920000
-87.58600000 -5.42573000 17.47630000
89.82320000 -4.68778000 -22.77130000
-10.27640000 49.98400000 18.54450000
89.78560000 -8.90366000 -10.07900000
8.91659000 12.26780000 85.84260000
14.32480000 41.82520000 14.76740000
17.70430000 37.42050000 28.99110000
-20.31500000 42.88880000 -0.64438600
47.26090000 -2.31374000 79.28680000
3.24118000 41.30110000 21.76890000
-6.68737000 15.32850000 -82.45460000
-56.80070000 30.68010000 -13.89630000
2.32507000 38.63080000 -21.43010000
15.93230000 44.53250000 13.42140000
13.77500000 14.37720000 -82.44430000
38.05050000 36.91820000 -15.98150000
-38.21920000 -2.15543000 -80.98110000
31.42940000 -9.66687000 -85.85890000
22.71260000 27.34580000 -61.55700000
1.34084000 71.33690000 -52.87950000
43.08720000 66.58290000 35.89920000
-71.69440000 -9.42323000 55.55630000
17.44350000 70.03840000 -48.75940000
-51.96560000 29.73490000 -31.39410000
-10.67690000 -8.80864000 91.39410000
23.29740000 70.16260000 -44.88330000
-7.54050000 30.81700000 58.58610000
21.81070000 -9.68798000 -88.80070000
-83.70230000 11.66360000 -12.76850000
-1.48779000 22.60770000 77.19400000
-27.07250000 66.12490000 22.44950000
-12.06450000 50.09350000 19.16070000
-35.07400000 34.88620000 -29.02620000
44.32240000 16.99940000 72.01670000
89.74370000 -7.47015000 3.20970000
53.99890000 33.01310000 -1.91491000
50.90590000 -7.17385000 77.44340000
-41.76380000 25.76090000 51.99260000
50.35190000 34.09200000 6.86371000
70.70890000 -0.48487100 57.67550000
-26.83700000 14.36930000 -77.16190000
-44.15660000 33.32590000 19.61690000
-21.35760000 22.94050000 -71.60020000
72.75630000 2.91042000 -51.05170000
3.26475000 32.25790000 54.54990000
-27.01750000 69.40850000 48.02250000
-22.96500000 39.32280000 -7.82717000
14.96780000 44.60120000 15.35650000
-89.50800000 -0.05148300 4.25245000
71.28790000 -8.20067000 -52.47380000
-67.88050000 16.49150000 44.78560000
-56.16790000 4.07210000 -66.69350000
-61.12930000 7.16717000 61.26320000
-16.16890000 33.55820000 40.60430000
9.81973000 61.64790000 -26.30300000
-0.87159500 31.25610000 54.85700000
-49.24780000 68.89530000 11.31250000
-46.88930000 29.55500000 37.46600000
2.68370000 30.46310000 56.53860000
31.26900000 64.64890000 4.00376000
-19.98380000 40.09850000 4.79646000
-14.22830000 7.50116000 -84.38630000
-20.98210000 53.02660000 -2.79896000
0.96242700 63.08810000 -29.00840000
12.92700000 25.57960000 68.22860000
63.62680000 -7.11433000 -60.58590000
7.39491000 39.79700000 -1.60467000
-10.45950000 30.94960000 -54.92250000
-12.18830000 56.44270000 21.72320000
-15.35720000 70.27130000 -46.68920000
15.94680000 -8.11312000 88.58110000
-40.27340000 13.12740000 72.93080000
-47.81580000 31.83670000 -21.24200000
-40.73690000 12.85260000 73.39450000
-77.50900000 18.80720000 -6.34639000
37.87070000 21.97510000 68.97180000
-20.65360000 65.37680000 -20.52650000
-35.16040000 14.26800000 75.67040000
48.72880000 2.72362000 76.87780000
-6.56121000 -8.91719000 90.09340000
19.68170000 30.52190000 58.32980000
-43.86260000 70.62270000 -22.29180000
-21.40420000 40.92650000 -0.29173100
70.44570000 23.58900000 32.26520000
-60.63060000 2.70606000 61.52800000
-30.19860000 17.95100000 75.21950000
-13.63370000 3.33186000 87.33240000
25.07780000 20.33290000 76.30070000
0.65160900 31.64270000 -54.70110000
-22.97760000 -3.79033000 -85.79440000
4.32198000 42.99710000 -20.89750000
23.25460000 40.06530000 0.26808100
33.95330000 -1.43951000 83.60380000
-15.33570000 68.00540000 40.51730000
21.37890000 68.41920000 49.77190000
-45.42650000 34.66940000 -9.28480000
73.39490000 24.59810000 -16.00760000
17.54030000 59.74060000 21.22350000
78.31430000 18.49800000 27.56740000
6.99302000 39.62150000 22.63430000
-1.55610000 25.78520000 68.92210000
-54.00210000 20.40550000 55.09430000
42.93030000 9.63744000 -73.63160000
-11.20740000 63.13950000 25.86600000
-44.52440000 70.79540000 30.42160000
-69.41570000 -9.30675000 52.41840000
14.17150000 69.97810000 50.17120000
45.43970000 32.20410000 -32.30470000
5.93933000 69.46170000 48.16700000
50.44370000 67.46900000 -20.75190000
58.59060000 22.37790000 51.69600000
-59.64090000 -10.71970000 64.83160000
68.43690000 4.07958000 -55.74310000
46.53180000 67.66680000 -28.04460000
51.56320000 -9.20449000 76.71500000
-26.86390000 66.04870000 -12.74700000
61.85630000 23.47130000 46.32230000
30.85690000 20.53820000 71.75730000
-83.78410000 8.97149000 -15.30810000
-22.49030000 64.90650000 -17.46770000
-41.88900000 -4.95206000 -79.88740000
-81.62940000 13.03000000 -13.15490000
-10.55210000 2.91177000 88.22040000
91.10960000 -3.33210000 -16.53160000
28.16310000 64.05370000 8.29321000
59.33590000 24.73820000 45.90300000
44.22240000 -8.48091000 79.79790000
8.22925000 68.83730000 45.36380000
85.43740000 5.95062000 26.79850000
36.26570000 0.01229100 83.08600000
-36.83410000 69.97430000 33.77600000
-83.10670000 6.86420000 27.88290000
44.74750000 67.78160000 34.00530000
-14.24930000 56.48700000 -18.05820000
46.60470000 35.57390000 14.01520000
-75.01950000 -1.68009000 -47.83670000
13.67890000 23.89400000 73.64250000
14.21790000 61.98980000 -22.72880000
-31.00150000 28.44850000 56.33020000
86.32300000 -8.19558000 24.57740000
42.20390000 13.14280000 76.30470000
46.05990000 35.16370000 -16.52450000
30.17530000 24.86770000 66.95650000
2.98286000 36.64870000 -37.11900000
84.66280000 -7.75766000 29.73780000
-15.56180000 39.72610000 -6.64986000
-45.69090000 69.15760000 12.64690000
-30.30960000 -3.10783000 -84.72920000
-15.24300000 40.46070000 -4.09321000
22.43810000 -3.66922000 88.19550000
-1.14331000 70.42900000 45.96450000
-38.12420000 36.54860000 -8.18841000
-22.14090000 -4.59901000 -87.34950000
29.20750000 -3.58624000 87.20260000
-57.59560000 30.64310000 6.74376000
-31.84020000 13.52220000 77.87620000
1.49251000 33.85170000 -50.65630000
3.52396000 70.22650000 -43.89130000
29.62210000 36.60690000 22.28020000
-12.82640000 36.62610000 27.64820000
33.14060000 36.92260000 16.85960000
38.28810000 69.03620000 -10.46150000
12.72390000 52.00700000 -18.77250000
7.77007000 4.51350000 -88.09050000
28.59840000 36.88040000 19.14510000
-23.33910000 57.07730000 5.06650000
54.36010000 25.50960000 46.27590000
-41.30780000 69.51420000 20.49030000
75.26340000 8.63714000 46.57470000
37.14790000 68.80400000 25.44260000
9.21969000 69.31000000 -38.73800000
-19.89750000 41.87850000 -2.80480000
76.10950000 10.87050000 42.79780000
74.96750000 24.46090000 -9.76262000
51.56980000 33.12420000 15.97580000
15.13100000 12.12570000 84.57930000
8.37033000 41.36620000 -17.68030000
-66.07030000 3.64088000 55.26810000
-56.10180000 8.06094000 -66.12020000
-17.68340000 43.50630000 -9.76928000
-17.57920000 69.49040000 46.34390000
-46.09760000 68.77280000 24.43870000
-9.56186000 34.19010000 -47.89380000
89.16870000 -3.94846000 21.70640000
-11.69190000 43.08930000 -16.62860000
75.79390000 24.53140000 0.42799100
-88.26350000 -7.63914000 -23.42280000
33.16410000 37.00650000 -13.77140000
33.20830000 69.54260000 -35.35520000
19.99240000 12.32680000 84.56590000
-62.48170000 27.01070000 -24.84330000
5.71438000 41.27750000 -18.48800000
22.40770000 58.22040000 -13.51380000
81.07590000 14.35050000 29.20330000
24.46360000 38.78770000 -2.24586000
19.40430000 56.56820000 -14.33600000
9.99998000 42.29020000 -17.22920000
52.03650000 70.18400000 -15.46540000
-57.66860000 11.50140000 -60.67550000
92.30260000 -2.97276000 9.25701000
89.35500000 8.57948000 -5.17950000
-41.07650000 -3.85160000 78.74690000
-73.82920000 8.06477000 41.94240000
45.15860000 69.62790000 3.69261000
13.52040000 16.00030000 83.18230000
-17.62920000 36.35130000 26.00780000
61.44120000 27.06000000 31.13430000
49.17590000 -6.05738000 -76.77110000
-44.49390000 68.82860000 -28.30030000
6.59623000 45.06400000 -19.25900000
38.07980000 -5.10713000 -82.30340000
8.59242000 55.26770000 22.23590000
33.02650000 68.98490000 -31.79820000
-53.89310000 -4.01678000 -70.36720000
15.57000000 36.04740000 34.09590000
35.57780000 69.42540000 -34.47740000
7.69407000 43.58330000 19.18020000
90.93120000 -5.27295000 1.07203000
-22.62520000 60.29210000 -12.08180000
-20.33690000 38.83140000 -16.49730000
23.01800000 33.43020000 39.81980000
3.55081000 56.76910000 -23.69120000
2.65819000 40.77340000 18.39940000
54.33020000 31.00280000 25.32320000
34.32350000 15.08340000 -75.85470000
-32.23440000 34.24920000 24.71930000
37.57310000 69.27500000 -32.84870000
56.72030000 9.59591000 65.38300000
-47.12190000 9.51410000 71.14420000
9.24762000 64.54950000 31.25650000
23.18380000 39.61480000 5.86752000
3.30890000 41.94560000 19.62590000
7.87943000 5.00182000 -86.65440000
-69.00380000 9.46704000 50.31260000
39.17550000 68.35610000 11.18690000
-10.93290000 21.98460000 -75.32990000
14.84950000 6.16305000 -85.36800000
28.01120000 70.87010000 38.12240000
-83.47850000 4.29752000 24.08510000
62.15010000 24.43970000 -40.45400000
71.67000000 27.14590000 2.16462000
67.51850000 23.68050000 -35.02770000
22.31580000 39.79470000 -16.35960000
2.20835000 56.40830000 24.01130000
-82.98530000 12.45710000 5.23259000
-3.47733000 28.64150000 61.48590000
-65.15890000 -3.25137000 -60.29380000
-28.22140000 67.54420000 -43.89630000
15.25060000 37.03730000 29.42470000
-36.94220000 -9.31632000 -82.99670000
77.09480000 21.34620000 15.98180000
27.35240000 -8.69540000 88.96350000
32.40710000 69.17600000 28.66570000
-36.61400000 1.53722000 79.85880000
-48.75360000 20.19970000 -60.85020000
-88.40930000 3.34351000 8.19927000
10.67380000 37.55540000 27.10130000
54.94690000 66.25450000 -3.58058000
-34.21510000 71.33480000 42.13700000
-7.86477000 67.99570000 47.95650000
-30.35660000 22.56810000 -67.00870000
-72.95610000 1.50844000 -51.49360000
19.67430000 71.10920000 51.97250000
-30.09360000 22.24890000 68.77410000
37.93000000 1.81228000 -80.47140000
13.17750000 70.02470000 -42.28190000
42.64000000 69.90190000 33.49790000
28.48700000 62.71150000 -6.24892000
-43.89730000 67.47930000 -24.97300000
-70.35110000 23.68550000 -11.05340000
-87.87250000 -2.65409000 -14.86010000
3.10313000 67.94260000 55.79190000
-11.16050000 40.31270000 11.65330000
7.81865000 17.89280000 80.11870000
-60.28240000 -2.99558000 -66.97830000
-10.96470000 42.74060000 12.74260000
-10.74680000 65.64150000 -27.57410000
4.16444000 67.81520000 55.29370000
40.17980000 21.83480000 65.09850000
91.14390000 -9.35461000 20.55710000
4.94777000 13.59280000 84.50500000
25.19620000 64.08360000 15.39700000
-57.31380000 -5.01021000 -69.92010000
26.81290000 69.85340000 -44.20810000
-8.45662000 41.10850000 10.37500000
43.06770000 69.40960000 -10.85660000
25.39180000 60.40230000 7.77057000
-50.27000000 -4.53233000 -74.79060000
-17.03230000 24.87670000 68.66690000
0.57946800 14.99210000 83.29280000
-1.91376000 29.47850000 60.06620000
-83.63920000 -7.91206000 -28.19330000
-35.06840000 34.80780000 21.55820000
45.92620000 -8.48805000 -75.71180000
-15.91790000 38.12360000 13.02840000
43.25310000 71.12160000 -25.24140000
-79.41620000 -7.53388000 -38.20100000
-20.90090000 40.42650000 -6.41817000
41.47350000 69.68950000 -12.31360000
-31.79260000 36.68890000 0.45743500
-24.91370000 -8.40495000 85.35540000
39.60970000 69.97210000 -19.28270000
84.53710000 -0.86106100 -32.26870000
73.78940000 -4.11437000 53.79750000
1.66977000 32.60310000 49.45380000
-60.00420000 27.94360000 -25.73660000
34.65040000 29.78220000 -51.04470000
-27.60540000 67.47910000 17.48260000
19.69720000 66.14270000 26.99110000
39.95050000 28.01520000 -51.85190000
26.47960000 64.48880000 -10.82230000
67.40970000 14.89940000 -48.18860000
59.93570000 30.56760000 -21.31500000
-34.06320000 24.01380000 -64.13010000
14.00700000 33.62100000 -50.33430000
80.06480000 13.95100000 -30.19890000
4.85944000 17.06480000 -79.77050000
-28.93050000 28.66640000 -57.32550000
-3.52329000 66.63600000 -31.05310000
-26.13280000 64.61340000 -10.00200000
-19.62670000 33.90410000 -42.26900000
22.82010000 -8.13307000 -85.36400000
-20.46210000 9.83375000 -81.88680000
88.22930000 -10.28890000 28.34870000
42.03490000 29.61160000 -45.99930000
-36.42210000 32.62880000 -33.93560000
-18.05360000 10.36330000 -83.35610000
-8.34270000 66.28480000 -30.65220000
-15.61920000 8.14526000 -84.95310000
-70.07480000 17.32940000 35.96610000
30.01760000 32.71690000 -45.33810000
8.32946000 67.81960000 -52.44690000
-35.91440000 70.17890000 -38.15870000
-23.41870000 35.06510000 -34.71650000
32.33180000 38.23730000 -7.92960000
66.33690000 1.65408000 -61.14790000
9.26275000 8.18585000 88.43310000
-6.68805000 39.80400000 21.03740000
30.01660000 67.77690000 -41.47770000
20.15950000 22.15440000 -73.49410000
10.67530000 22.95070000 -72.11270000
40.86510000 67.73920000 -34.15250000
-9.13043000 37.02010000 -28.30730000
10.93630000 58.77970000 24.77740000
86.40630000 9.76892000 -12.65500000
15.85800000 41.17690000 13.11290000
-18.78230000 57.31110000 -13.20600000
-9.09214000 67.86380000 35.39970000
76.36440000 19.12320000 27.09260000
86.24370000 9.09619000 22.44700000
58.76630000 16.69820000 -57.75950000
-8.46161000 67.05720000 32.67090000
17.74030000 28.06550000 60.87510000
91.63190000 2.14850000 0.03051100
-35.11320000 69.36100000 -25.10140000
-14.96860000 66.06700000 37.49580000
43.43960000 18.58600000 67.80490000
-13.27910000 67.14190000 38.99930000
-7.37122000 70.79360000 -50.78020000
38.36920000 27.00220000 -57.43420000
60.14470000 -7.17624000 -69.12520000
21.77190000 58.23530000 -11.93450000
-29.05330000 -8.10229000 86.92440000
20.92580000 45.90750000 6.41567000
70.06120000 -8.87338000 -59.83980000
-50.43940000 68.12310000 17.98720000
-35.94610000 -10.84280000 84.37330000
20.31440000 46.04530000 8.37136000
-8.73758000 68.29800000 -40.08200000
35.56970000 67.78140000 1.43977000
-60.65570000 -0.11403700 62.10340000
-45.43030000 29.32800000 33.62770000
-51.03240000 32.55530000 12.19390000
14.49720000 40.82120000 -13.01540000
-46.93150000 13.76820000 -67.68200000
16.05350000 50.62890000 17.86950000
17.54730000 32.15610000 -54.19830000
-85.87230000 9.30932000 -9.71619000
33.78530000 68.12740000 30.12830000
-37.07560000 34.27400000 16.53160000
15.96660000 -2.35378000 90.41140000
1.16619000 34.03400000 46.80640000
-38.46070000 69.50290000 7.54052000
-81.97680000 -5.55416000 -33.50760000
31.81460000 70.72300000 -42.60930000
9.58373000 -5.07495000 91.58400000
-38.73260000 69.47020000 10.16480000
-80.20310000 -8.81517000 34.71910000
10.74210000 42.25730000 19.58260000
16.91460000 55.27550000 17.06630000
-33.47980000 16.73250000 73.32900000
80.51560000 -0.79491400 42.56270000
27.95530000 67.01470000 -13.55790000
-52.89060000 -0.76047500 69.21430000
28.38780000 71.49430000 -43.86910000
-88.76610000 -5.93497000 -20.83600000
20.57150000 68.29480000 -28.14670000
-21.55840000 33.75580000 -45.52960000
-17.90700000 68.97900000 -50.05970000
-20.06090000 56.25570000 -12.48490000
28.56600000 30.08690000 55.51490000
16.38070000 19.28820000 -77.65870000
-72.28610000 10.56510000 -46.15840000
-12.12660000 49.93410000 -16.91110000
92.15530000 -0.54853800 -3.56460000
65.24420000 28.60350000 13.34500000
-44.82820000 -9.71965000 79.27960000
-17.57650000 45.78650000 8.07470000
37.07800000 26.35970000 60.94650000
-84.75520000 2.13885000 -28.05040000
15.46600000 -8.21874000 -87.18020000
-64.87480000 20.47090000 41.86850000
7.52537000 40.70890000 -17.22860000
-30.70200000 31.95720000 -46.46950000
-36.54330000 69.26900000 11.61960000
22.69770000 60.08170000 15.90480000
10.90920000 4.50559000 88.60870000
8.56915000 40.05120000 -20.33730000
33.75340000 68.68060000 -34.81860000
10.26860000 41.86640000 -16.22180000
34.93040000 70.53390000 32.63560000
5.68720000 -8.97015000 -89.50630000
-43.61720000 29.98630000 33.16870000
-2.80696000 -8.75449000 -91.43610000
-11.41440000 59.93830000 22.66790000
30.98280000 69.68020000 32.73470000
