0.02314400 -14.64470000 7.89100000
-37.45360000 53.21000000 -14.40020000
-38.39300000 52.71950000 -12.85730000
-36.89760000 53.34460000 -15.35910000
-36.27000000 53.49180000 -15.65810000
-12.53440000 1.91030000 -17.59020000
-15.28960000 2.65680000 -18.41810000
20.20440000 33.07430000 40.40020000
19.46330000 34.26690000 40.65170000
37.98580000 -49.27890000 -21.64030000
37.30230000 -49.49040000 -19.73340000
13.80840000 0.53170100 -9.11095000
13.75320000 0.78060200 -11.13180000
14.50620000 1.54930000 -13.44260000
15.36600000 1.37520000 -11.50380000
-30.11530000 -42.10980000 73.03400000
-28.88550000 -42.51750000 72.95680000
-27.55900000 -42.39380000 73.21240000
-28.11530000 -42.15930000 73.66050000
9.47497000 -53.74030000 -6.78498000
10.95580000 -53.72520000 -6.14013000
10.52780000 -53.83990000 -3.93088000
9.14073000 -53.54190000 -9.54290000
42.32880000 40.72450000 -13.19350000
41.41960000 42.04190000 -14.88810000
41.80800000 40.35810000 -15.43890000
32.18920000 -49.60090000 -22.59300000
32.95960000 -49.78360000 -21.83930000
32.68640000 -49.44600000 -23.20280000
35.00100000 -49.38510000 -24.32080000
14.86950000 -54.01050000 0.17666300
19.26870000 -53.91080000 1.86251000
11.91360000 -53.74460000 -4.66672000
12.40310000 -53.87380000 -2.42756000
-6.28108000 -49.81240000 -40.36720000
-10.05320000 -49.84810000 -39.65140000
31.86890000 -49.60150000 -23.03250000
32.38550000 -49.41700000 -23.71530000
31.25910000 -49.74400000 -23.79100000
31.85080000 -49.55670000 -22.47990000
15.63530000 -53.52450000 -8.94450000
13.45540000 -53.56760000 -10.22040000
15.39290000 -53.49980000 -11.76420000
12.66150000 -53.71090000 -6.10994000
22.01690000 46.97570000 -38.91120000
22.65910000 46.01650000 -39.69430000
-40.38630000 -37.37060000 70.05290000
-40.84820000 -36.06630000 70.21610000
-42.69910000 -36.61740000 68.96090000
-46.60870000 -51.49010000 18.82450000
-48.43700000 -51.15410000 18.52280000
-47.30930000 -51.58110000 15.70990000
-24.87350000 53.07560000 -32.04690000
-28.91390000 53.71080000 -27.67180000
4.57827000 24.91710000 45.96510000
3.05907000 23.83780000 45.75160000
3.86031000 22.59900000 45.29210000
-42.30150000 35.79010000 -17.67180000
-3.81083000 -2.63270000 -13.44300000
-2.18617000 -2.44590000 -14.07380000
37.23770000 -45.16100000 64.80770000
40.33500000 -44.67240000 64.82940000
40.38920000 -44.15320000 66.58350000
40.33870000 -43.62820000 67.79660000
45.05290000 -52.19330000 1.16659000
47.35940000 -51.73940000 -0.16203000
43.69950000 -52.61790000 0.85387100
5.91446000 -53.65840000 12.91080000
10.75290000 -53.76660000 13.76690000
10.23520000 -53.82950000 14.83460000
40.70270000 20.82920000 12.53570000
39.54000000 19.99400000 14.33000000
42.69520000 24.25950000 11.84090000
-60.35150000 -43.10440000 49.68870000
-60.48950000 -42.79150000 50.78260000
-61.20330000 -43.01220000 49.74690000
-60.83270000 -42.26930000 51.18180000
-61.29880000 -42.67170000 50.45330000
-15.18010000 -30.39400000 -4.07612000
-17.14330000 -32.04400000 -5.19250000
32.40910000 53.82410000 -20.64110000
33.42760000 53.42460000 -19.10740000
-59.21720000 -41.71470000 53.52680000
-59.46300000 -42.78750000 52.45530000
-76.95010000 -35.62100000 26.62090000
-78.10780000 -35.75160000 23.14710000
2.06755000 -30.86550000 15.14110000
-1.20514000 -29.98960000 14.17500000
2.61095000 -29.96260000 13.86080000
1.85710000 -28.65530000 12.33840000
-71.65440000 -42.70890000 10.14770000
-73.52290000 -42.01430000 10.82040000
-72.28340000 -42.41860000 11.45460000
-72.91440000 -41.91140000 14.95890000
42.70300000 25.41450000 13.23200000
41.71330000 23.91770000 14.34960000
41.72660000 22.83720000 12.86910000
30.69160000 -52.60820000 34.77540000
30.00160000 -52.89300000 32.51700000
31.83050000 -52.44110000 34.31260000
-34.87360000 -39.82520000 68.96010000
-35.84820000 -39.72370000 68.64040000
-36.06850000 -38.74620000 69.13900000
-27.30040000 52.28950000 -26.15720000
-26.29010000 51.56360000 -27.68920000
-27.46970000 50.72570000 -27.18950000
1.81356000 -27.28870000 10.88790000
1.93385000 -26.74540000 10.35110000
4.23519000 1.40970000 17.90830000
7.38612000 1.67100000 17.72420000
-16.11250000 22.33470000 -40.54880000
-13.36770000 23.52110000 -42.12740000
-34.25920000 11.33070000 6.16167000
-33.98820000 11.89160000 11.17300000
-68.68180000 -37.99560000 -43.53880000
-69.99800000 -38.27050000 -41.45040000
-68.57390000 -40.00980000 -42.44480000
-64.20570000 -47.72310000 -13.93410000
-60.79110000 -48.62050000 -16.19470000
-58.60740000 -49.27830000 -14.17080000
-60.69670000 -48.80830000 -13.82390000
-25.74060000 53.00200000 -27.41490000
-25.99470000 53.32000000 -27.10180000
2.56442000 40.33170000 44.49480000
-59.44170000 -38.81430000 -48.05150000
-57.44500000 -39.91430000 -49.61140000
-55.22010000 -36.49370000 -53.41090000
-60.08950000 -42.80430000 51.18840000
42.52230000 -37.10410000 -63.55380000
40.85160000 -37.19150000 -64.69260000
41.78960000 -38.18300000 -63.44750000
-76.68840000 -35.95880000 14.48670000
-76.60500000 -34.34720000 16.42540000
-0.67697300 -49.24740000 45.55720000
-0.64051300 -49.52030000 44.09510000
-2.98947000 -49.45610000 44.40080000
-2.28195000 -49.72460000 42.47670000
-4.37324000 -49.79060000 41.02170000
-68.95640000 -35.16320000 -35.65100000
-69.17940000 -37.11990000 -34.17540000
-69.98640000 -33.09610000 -35.26680000
-63.52150000 -47.85690000 -16.18250000
-67.43700000 -46.44660000 -17.29610000
-64.97850000 -47.17600000 -17.90300000
-17.17670000 22.04400000 -39.97310000
-17.98490000 21.24340000 -39.10560000
-63.20470000 -47.12760000 21.87750000
-63.19290000 -47.39780000 19.54300000
-60.60930000 -48.00490000 20.46480000
-59.54250000 -48.70980000 15.61120000
-62.78380000 -47.83830000 15.99500000
-58.83640000 -43.28270000 50.67310000
-58.39970000 -43.17460000 51.76570000
-59.10700000 -43.02910000 52.22850000
-67.82720000 -37.64850000 -36.39520000
43.94760000 31.49680000 -10.23980000
28.47380000 46.06800000 35.11160000
31.72320000 45.81760000 33.54750000
-56.39160000 -49.46740000 16.92380000
-55.61670000 -49.44970000 18.03420000
-57.33770000 -49.04610000 18.28560000
-54.00520000 -50.15090000 14.53700000
-54.23450000 -50.21270000 15.70330000
-55.61040000 -49.78950000 15.07680000
-63.29120000 -35.69360000 51.75010000
-64.24520000 -35.86670000 50.40340000
-65.18720000 -35.63260000 49.29910000
-57.80610000 -49.31900000 14.71470000
-54.37450000 -50.23950000 13.48640000
28.30120000 14.23540000 24.76580000
29.77580000 14.46420000 23.48260000
28.45830000 13.21360000 23.01300000
-16.02970000 18.57350000 -37.98450000
-19.68230000 -29.48460000 -83.83540000
-18.37960000 -29.40370000 -83.90110000
-17.79440000 -29.50100000 -84.41790000
-19.59650000 -29.71110000 -81.87700000
-51.37270000 -50.64410000 17.20770000
-53.06230000 -50.31490000 15.23250000
-51.88000000 -50.56830000 15.49080000
-52.49480000 -50.72780000 14.00650000
55.46380000 -46.76830000 -9.07795000
55.14570000 -46.92630000 -5.83930000
61.29240000 -45.32670000 -5.53815000
63.03820000 -44.81510000 -7.73480000
-23.96390000 46.21590000 -32.82130000
-52.75220000 -49.97980000 20.56330000
-55.78870000 -49.42370000 18.68460000
-20.75080000 -45.60160000 56.69310000
-29.79880000 -45.38080000 53.88780000
-27.10450000 -45.63540000 53.80030000
-28.43350000 -45.79240000 52.20710000
-2.88994000 -37.82470000 -80.17800000
-4.56645000 -36.95300000 -80.28760000
-2.16434000 -37.93230000 -80.16390000
9.41054000 1.41210000 5.42233000
9.50749000 0.87040100 3.48040000
8.67475000 0.71630200 4.70798000
7.22774000 0.82290200 3.13279000
2.15068000 -26.62030000 -12.30640000
78.64620000 -29.85160000 -34.76350000
79.13990000 -29.39410000 -33.23200000
-1.46419000 10.49770000 -37.56040000
-36.99780000 52.23010000 -7.96166000
-37.23120000 52.75460000 -5.99022000
-36.58670000 52.28450000 -9.67594000
-35.69630000 52.57150000 -12.33180000
-43.90040000 -29.55890000 69.12470000
-44.58170000 -29.79420000 68.17980000
-45.56340000 -29.70650000 67.88150000
-36.05620000 -35.73500000 -72.52970000
-37.89830000 -36.41450000 -71.55170000
-37.10270000 -34.65220000 -72.54850000
-36.54240000 -35.22220000 -72.47880000
45.58300000 30.92810000 15.14210000
44.75040000 28.59060000 17.26580000
45.06690000 30.10920000 15.74090000
44.35030000 30.09890000 17.74220000
64.18650000 -31.63240000 47.50220000
64.49260000 -32.73850000 46.36840000
64.12670000 -31.31040000 47.98100000
66.30440000 -31.18380000 45.37260000
13.28410000 -49.41480000 -37.61110000
-55.15200000 -49.83200000 17.28570000
-53.23820000 -50.27910000 16.43270000
-29.21600000 11.53680000 -18.70630000
5.99799000 3.95180000 16.87270000
8.82023000 3.91160000 15.41430000
6.14310000 3.50900000 15.21090000
4.26143000 3.07490000 14.12230000
12.71180000 40.90920000 -42.60420000
-24.27910000 -45.78650000 54.83050000
-24.21610000 -46.08040000 53.04900000
-25.38540000 -45.84470000 53.43510000
-24.42030000 -46.58290000 50.77180000
-22.85100000 -46.39520000 52.32160000
-22.45430000 -47.00030000 50.50810000
17.08460000 -47.96870000 -36.01900000
16.77800000 -47.39800000 -35.62560000
17.55780000 -47.25240000 -35.10560000
17.86730000 -48.53000000 -35.29230000
17.36450000 -49.23960000 -35.73310000
-54.38020000 -50.12400000 16.73150000
-53.11150000 -50.17740000 17.29670000
-54.22450000 -49.78760000 18.09100000
-53.22690000 -50.08490000 18.82140000
-54.92980000 -49.54680000 19.07320000
23.55170000 -49.67880000 35.15860000
21.76660000 -49.60960000 37.34330000
28.02450000 -49.40700000 34.94940000
27.08240000 -49.22550000 37.11850000
28.36210000 -49.09060000 36.51690000
65.10490000 -35.76560000 43.99870000
64.95980000 -36.85160000 43.59980000
64.18400000 -36.68780000 45.13730000
66.12560000 -34.53110000 43.10340000
19.39250000 -31.49010000 -76.00210000
20.41210000 -31.20960000 -75.67650000
20.32890000 -34.13180000 -74.82320000
20.30930000 -31.72330000 -75.42750000
19.23200000 -32.26040000 -75.72070000
-75.83790000 -43.74070000 -17.33030000
-74.42450000 -44.26990000 -16.56990000
-78.10200000 -35.62870000 0.80858000
-78.96340000 -32.46790000 2.46723000
8.30945000 4.28630000 -17.89180000
6.74482000 3.88580000 -16.47480000
9.68225000 4.14750000 -16.65950000
11.02880000 4.82960000 -18.36360000
-31.10320000 -45.75580000 51.26000000
-29.76070000 -45.47480000 52.93720000
-35.65580000 -44.97910000 52.33540000
-33.43090000 -45.10260000 53.14990000
64.96640000 -39.74480000 41.42910000
65.94240000 -39.46500000 39.90010000
64.89030000 -40.76570000 39.82970000
64.00040000 -38.82690000 43.66910000
64.60950000 -39.12820000 42.55960000
14.34570000 16.30260000 -36.09350000
17.78870000 -47.77980000 -35.18120000
-35.96170000 8.56190000 2.57678000
71.64820000 -37.33640000 30.66540000
69.65690000 -38.51990000 33.98290000
29.39770000 -31.31730000 75.26490000
23.13240000 -30.57950000 79.08590000
37.09670000 17.91420000 -16.47220000
36.15470000 16.48130000 -16.02100000
-19.13810000 14.08450000 -36.30360000
-19.68540000 16.21770000 -37.76390000
-26.96360000 -29.85490000 76.36770000
-29.02970000 -29.95970000 75.35030000
-31.13760000 -30.13030000 74.36450000
-29.32850000 -30.31400000 74.92020000
-30.96660000 -30.58650000 74.12950000
28.93660000 -31.15020000 75.92010000
29.91490000 -30.75710000 76.67170000
28.03900000 -30.92320000 76.64730000
-44.63020000 38.28050000 8.61767000
-45.04590000 37.40750000 6.97778000
7.79278000 52.50640000 40.16780000
-35.24160000 -42.27990000 70.46700000
-35.61250000 -41.56320000 70.70860000
-35.98380000 -42.31770000 69.91700000
-35.02360000 -42.59290000 70.15990000
-33.38900000 -42.95610000 70.16260000
6.07959000 -38.67650000 -76.56730000
4.74952000 -39.47380000 -76.34700000
4.57809000 -39.83890000 -76.09230000
-32.58270000 -30.30190000 73.45620000
-32.76840000 -30.88120000 73.04620000
-47.19020000 -31.29640000 -72.97730000
-46.07630000 -31.31580000 -73.45700000
-47.52170000 -30.93870000 -72.93050000
-45.92880000 -30.47470000 -73.71740000
-43.31730000 42.55630000 16.96090000
-42.38510000 44.09400000 18.49200000
-42.55690000 45.69850000 17.43870000
-43.61830000 40.53610000 16.94280000
6.61005000 -53.65780000 2.15466000
5.37928000 -53.83440000 1.11518000
7.04576000 -53.60810000 1.16953000
34.02060000 23.64370000 -30.08780000
34.23300000 25.12720000 -30.40560000
-42.83590000 -42.84800000 65.51690000
-42.33080000 -41.87170000 67.02590000
-43.16160000 -42.51660000 65.90880000
3.56973000 -29.96000000 82.83000000
6.45462000 -30.28660000 81.54860000
0.39391200 -30.10250000 81.92440000
6.27215000 -30.52010000 80.85730000
1.85376000 -30.40850000 81.05440000
6.35793000 -53.68150000 -1.23647000
9.23950000 -53.73460000 -0.91050800
-22.40440000 -52.08180000 -40.30480000
-18.90980000 -52.23120000 -41.27850000
-23.67140000 -52.34890000 -38.24250000
-27.58930000 -52.28650000 -36.57380000
-29.40210000 -52.47230000 -34.10640000
67.05410000 -30.78750000 -40.36350000
65.02810000 -31.43020000 -43.16690000
64.77110000 -33.71620000 -42.38980000
66.23880000 -31.60180000 -41.09170000
-27.87710000 7.49920000 3.77058000
-25.13510000 6.59120000 4.46683000
-25.42960000 6.53940000 2.63819000
-21.98450000 5.23970000 1.41081000
-20.84280000 4.84280000 0.05251800
-79.40550000 -31.52610000 1.72704000
-78.76120000 -33.05970000 0.35751100
-33.48060000 -52.15150000 -33.27100000
-32.63490000 -52.63840000 -30.36650000
-34.87650000 -52.49760000 -29.04140000
-35.23690000 -52.14360000 -31.65260000
-12.92830000 -3.21470000 1.11572000
-12.44780000 -5.96790000 1.57033000
-12.67140000 -3.20700000 2.43672000
-13.07040000 -2.85610000 2.15972000
-44.60250000 -31.48090000 -74.17060000
-44.88690000 -31.32960000 -74.27310000
-43.96560000 -30.91400000 -74.96540000
-24.57670000 8.23770000 24.50780000
-25.85220000 8.11970000 23.07090000
-27.30990000 7.92250000 20.96790000
42.90220000 -44.84870000 62.96830000
44.35860000 -44.51330000 62.87180000
44.56090000 -44.22910000 63.78830000
37.95490000 -45.46730000 63.57120000
41.08680000 -44.95060000 63.71460000
-21.31560000 5.27540000 7.41127000
-19.58590000 4.59790000 6.44383000
-21.39530000 5.10820000 5.32720000
-21.87530000 5.26300000 3.30283000
26.25730000 9.27710000 -23.63770000
-5.64082000 -30.82460000 -79.16070000
-2.71277000 -30.98390000 -79.20030000
-23.32410000 6.09640000 8.96360000
-24.06800000 6.19950000 6.57572000
-23.87720000 6.78450000 13.07570000
-22.09870000 6.48700000 14.92620000
-21.41910000 6.03380000 13.26410000
-81.86670000 -37.13060000 -0.49412200
-81.57530000 -37.72850000 -0.99129800
-81.54020000 -37.60020000 1.17689000
-45.44420000 29.74800000 15.54880000
-46.02120000 29.40690000 13.82640000
68.60340000 -30.87910000 -37.59120000
42.62390000 -46.11810000 58.66100000
44.87700000 -46.52190000 55.32550000
-29.23230000 17.90140000 -28.45260000
-27.99260000 15.54740000 -26.88260000
27.15740000 -45.89860000 -26.35560000
27.40270000 -46.59870000 -26.92630000
25.31430000 -46.51770000 -29.14800000
24.28010000 -45.94100000 -29.40580000
79.11210000 -33.51480000 25.82200000
80.93100000 -32.87380000 26.20910000
78.28500000 -33.96010000 26.80920000
78.91110000 -33.67550000 25.20210000
-41.07050000 13.64130000 -5.82972000
-76.20520000 -30.95200000 -24.10480000
-75.88020000 -31.25420000 -23.59720000
-74.87600000 -31.20530000 -26.67270000
-76.95570000 -31.18320000 -20.25830000
-77.15380000 -30.89650000 -21.47850000
-12.30370000 41.55300000 44.95820000
-11.25170000 42.29860000 45.19810000
-13.94340000 44.01530000 44.29960000
-11.66260000 44.09480000 45.01150000
-78.01900000 -29.36390000 35.23520000
-79.47040000 -29.51680000 33.95830000
-78.42210000 -29.74280000 37.07920000
19.41900000 53.74660000 -33.35790000
20.04090000 53.87210000 -32.94710000
19.60820000 53.95830000 -33.79410000
17.35870000 53.87460000 -34.68290000
-40.93330000 13.16510000 -3.88355000
77.32100000 -42.71840000 -2.61927000
75.79710000 -43.28710000 -4.00592000
76.29890000 -43.07590000 -5.27279000
33.95900000 45.02520000 21.91590000
34.02610000 44.27050000 22.21030000
33.31180000 43.86930000 23.57830000
-82.42940000 -35.40270000 2.82640000
-81.69510000 -36.60210000 3.62763000
-34.59140000 23.73870000 -28.00230000
10.50380000 -28.17840000 5.21186000
9.10914000 -27.62360000 6.44183000
30.16730000 9.26180000 9.27020000
-82.25390000 -35.34770000 3.84316000
-82.27550000 -35.44530000 5.32573000
-82.49080000 -34.72190000 4.33572000
-82.08980000 -35.58330000 3.62419000
67.26650000 -40.77280000 35.13740000
66.41690000 -41.34410000 35.01070000
64.25830000 -41.35820000 39.36990000
23.39120000 51.31550000 -30.43280000
24.72850000 51.56830000 -29.13920000
27.66330000 51.61030000 -26.36830000
-4.74697000 29.18660000 -47.27080000
-6.61112000 29.72820000 -47.59490000
-5.24996000 30.61220000 -47.98480000
38.10420000 30.51900000 29.60530000
38.90740000 15.60400000 -3.99793000
40.23680000 16.80360000 -0.76900800
-5.15257000 -39.91490000 -75.96800000
-7.37766000 -40.05450000 -75.61150000
-5.49355000 -40.36910000 -75.53600000
65.43880000 -30.27720000 56.39430000
63.44730000 -30.49230000 59.26310000
64.54570000 -30.37640000 57.97440000
24.59370000 -37.78090000 76.94950000
25.64120000 -37.99520000 76.72680000
-12.12910000 31.66150000 46.67940000
-9.27788000 31.16300000 46.68890000
-23.06270000 -33.22330000 -80.22930000
-21.20160000 -32.98820000 -81.15490000
-26.20460000 -32.77730000 -80.19070000
-24.59550000 -32.89390000 -80.60130000
-26.86640000 -33.26920000 -79.03960000
-14.82480000 -53.71790000 -5.02856000
-16.13350000 -53.78170000 -5.81521000
-13.30620000 -53.72020000 -7.36930000
-60.86930000 -40.18370000 46.69240000
-74.41340000 -39.91510000 30.50740000
-29.30910000 -34.90350000 75.62200000
-26.98220000 -34.76060000 76.50420000
-34.17440000 50.10070000 -18.45050000
-33.99820000 49.08730000 -19.64870000
-35.13140000 48.96110000 -17.65020000
-35.11340000 48.19060000 -18.25510000
-40.43040000 43.72070000 15.91050000
-41.23440000 44.11700000 13.02070000
5.57068000 30.31200000 -45.14600000
7.06128000 28.12240000 -44.47500000
3.85702000 30.70860000 -45.42210000
80.44120000 -34.05870000 16.45230000
79.70470000 -34.07860000 21.00410000
79.76110000 -33.73620000 22.29170000
39.51970000 48.97100000 -0.40205200
39.30710000 49.53180000 1.39296000
39.27440000 50.14120000 -0.16898300
39.50910000 48.84910000 2.45236000
5.41579000 47.03880000 -39.67120000
3.64221000 45.91620000 -40.42500000
8.12557000 -10.97010000 4.84029000
7.51793000 -10.96870000 5.67882000
23.13830000 -46.61590000 -31.08510000
21.05070000 -47.10410000 -32.86160000
20.80410000 -46.41780000 -32.73440000
-16.23720000 -53.75230000 -7.23707000
-15.19230000 -53.62560000 -9.48134000
-14.19170000 -53.71610000 -9.16579000
-11.96100000 -53.64490000 -11.91580000
38.33120000 53.52830000 5.26259000
37.89270000 52.89940000 5.87679000
38.04680000 52.77290000 4.59769000
3.92735000 -49.64960000 -43.47710000
8.89596000 -49.40500000 -43.88090000
8.07175000 -49.18120000 -45.46490000
-43.77280000 -40.17200000 66.98960000
-44.02790000 -41.82700000 66.01730000
-43.91500000 -42.22760000 65.78010000
-43.70710000 20.62710000 -12.83730000
13.70250000 23.00310000 40.15920000
14.59930000 21.59440000 39.34780000
14.66740000 24.88370000 40.57850000
-37.53870000 -53.46030000 -17.03650000
-36.31880000 -53.55470000 -18.43010000
-35.02510000 -53.56560000 -16.93870000
-70.76560000 -40.61180000 -27.24290000
-72.69230000 -40.94150000 -20.44240000
-43.62150000 -34.39450000 66.08170000
-43.18340000 -31.85150000 67.33080000
-36.17710000 27.89990000 -30.76140000
7.82057000 -28.11770000 8.75858000
6.33189000 -27.75020000 9.44821000
-34.77930000 -53.55930000 22.08740000
-33.46420000 -53.56770000 24.15760000
-35.42730000 -53.38800000 23.30700000
-67.50700000 -30.92240000 42.99780000
-68.41140000 -30.48220000 42.24010000
-68.27600000 -31.65610000 41.30400000
-67.55140000 -31.36450000 42.45140000
-67.78430000 -32.29600000 41.61320000
-52.54540000 -50.09750000 -20.20250000
-58.55720000 -48.99220000 -18.37350000
-57.25830000 -49.15860000 -20.32300000
-22.44580000 -38.07220000 -16.02320000
-21.87900000 -37.55810000 -15.36650000
-21.68260000 -38.66540000 -18.76580000
-20.78990000 -37.67330000 -17.29460000
-19.66990000 -37.51370000 -18.33950000
34.82650000 41.87860000 25.51260000
33.18170000 41.81770000 28.11330000
31.66280000 41.76220000 29.94390000
32.28330000 41.34350000 29.74020000
3.16896000 28.77570000 -47.21680000
5.41103000 28.69700000 -47.00900000
10.78550000 -47.91650000 -61.62190000
8.81883000 -48.44390000 -60.44790000
8.42917000 -47.65800000 -63.06660000
-76.03570000 -32.91020000 -19.96120000
-75.40080000 -34.86150000 -20.13680000
-36.37770000 -52.79310000 25.34690000
-34.67290000 -53.08350000 25.98340000
-34.44690000 -53.36090000 24.92770000
-32.25240000 -53.64270000 24.72220000
21.16600000 51.96970000 -31.69400000
20.91720000 51.19880000 -32.19380000
18.08970000 52.03650000 -33.45390000
-41.01990000 -31.54060000 68.86380000
-8.68085000 -17.59920000 -3.88280000
-2.65438000 42.77410000 -43.86920000
-80.70590000 -35.45210000 12.23700000
-80.82880000 -35.14850000 12.35150000
-34.76260000 -52.79110000 27.83740000
-38.64590000 -52.38320000 26.05740000
38.57810000 -34.33670000 -66.88150000
36.87990000 -34.99730000 -67.67890000
38.12730000 -33.96900000 -67.28060000
38.36540000 -32.00560000 -68.04390000
37.02000000 -32.97820000 -68.24610000
24.75530000 6.88380000 10.37500000
23.38540000 6.53340000 11.25790000
25.46360000 7.63610000 12.59400000
-46.83090000 -51.26350000 20.48360000
-49.46490000 -50.59730000 21.21250000
-47.51080000 -50.68300000 24.30180000
-45.96850000 -51.23580000 22.63630000
-16.43820000 -34.57550000 79.44550000
-17.44520000 -35.73410000 78.90570000
-17.47290000 -34.78010000 79.12960000
-27.33800000 -46.25360000 -29.31850000
-29.52630000 -44.73260000 -24.74630000
-30.90160000 -44.57420000 -22.44990000
25.20100000 41.33040000 36.13680000
24.54090000 40.05650000 37.21790000
24.39540000 41.69020000 36.47700000
25.22270000 41.78780000 35.80700000
27.07220000 41.71690000 34.22000000
26.54320000 41.32710000 35.11030000
-80.64410000 -36.42440000 12.63990000
-29.24130000 36.31210000 37.11540000
-27.82090000 36.24430000 38.19030000
19.39170000 -53.69890000 30.27480000
22.76060000 -53.73750000 31.79590000
19.59310000 -53.74710000 31.94500000
17.77740000 -53.57340000 30.55140000
-24.01620000 18.68390000 32.93180000
40.25930000 -30.37020000 -68.55740000
41.19820000 -30.59330000 -67.47290000
41.47440000 -30.33030000 -68.23000000
37.23970000 -31.21870000 -69.15010000
-53.30420000 -50.63630000 -6.47900000
-57.66820000 -49.73440000 -4.99823000
24.66830000 -53.80750000 27.70080000
26.32500000 -53.75030000 24.67720000
-18.73460000 50.36240000 36.86730000
-18.05380000 51.90530000 36.54370000
-20.97990000 49.77870000 35.90590000
-21.25380000 48.16680000 36.06200000
-19.75560000 49.56400000 36.64690000
-7.19812000 -2.38790000 -12.61080000
-6.94437000 -1.24580000 -13.55540000
-30.57550000 -40.53860000 70.21320000
-32.01850000 -40.33070000 69.90070000
29.61600000 -53.58830000 23.15770000
27.38650000 -53.74590000 24.61930000
31.38440000 -53.46750000 26.09790000
31.43440000 -53.52120000 24.38500000
32.71680000 -53.30950000 25.34420000
40.57570000 -33.18670000 -66.02000000
38.98530000 -33.12170000 -67.14950000
0.34082400 32.41130000 -48.10790000
1.81938000 31.74390000 -48.07300000
-2.43110000 26.43260000 -47.00610000
-39.90230000 27.77440000 25.08210000
-37.73760000 52.88040000 8.30300000
8.40237000 33.84960000 -48.12410000
5.07838000 34.14190000 -48.54070000
-19.72450000 -30.96930000 84.29490000
-16.26130000 -29.34890000 85.08540000
-19.71970000 -29.28930000 84.30740000
-15.76970000 -29.18880000 85.09490000
-14.15920000 -36.92600000 -22.08620000
-15.28230000 -37.09050000 -21.43510000
-63.36000000 -41.96440000 48.43000000
-62.81740000 -42.39080000 48.52220000
-30.97130000 -45.47590000 -54.66550000
-27.82660000 -45.51940000 -55.60250000
-28.84440000 -45.18730000 -56.81090000
-27.71220000 -43.84610000 -62.21900000
-27.20350000 -44.76110000 -59.18940000
-75.22890000 -31.61490000 44.11640000
-74.36890000 -31.74110000 45.85820000
65.42870000 -40.41910000 47.34320000
67.75780000 -39.92740000 44.09450000
67.12070000 -38.96540000 45.97100000
30.07350000 49.45750000 29.43080000
31.71570000 49.87620000 27.46670000
30.03890000 52.10440000 28.39120000
31.65950000 48.05350000 28.13090000
77.36230000 -29.92830000 -18.55920000
76.91830000 -30.16680000 -18.65620000
79.40410000 -29.66910000 -16.73400000
33.53890000 15.62060000 -24.29000000
32.44250000 15.78430000 -25.71750000
3.87352000 -53.59630000 36.71950000
2.63224000 -53.72790000 37.70930000
-60.04100000 -32.64490000 -50.05880000
56.39900000 -43.54700000 -37.17310000
60.58530000 -42.55880000 -35.53380000
62.83560000 -41.96760000 -35.16950000
-30.70230000 -53.98700000 -21.43060000
-32.28280000 -53.81130000 -20.97610000
-33.52680000 -53.74600000 -21.86580000
56.94950000 -29.66630000 -60.65590000
56.20930000 -29.36560000 -63.26630000
51.32640000 -29.78180000 -63.41980000
50.46080000 -29.82590000 -63.94980000
-7.07429000 2.56120000 -11.61710000
16.06350000 -45.60610000 -68.05180000
13.98740000 -46.17240000 -66.81980000
14.72960000 -45.69120000 -68.15740000
11.06500000 -45.98930000 -67.91810000
-31.50100000 -53.78650000 -20.27850000
-29.56930000 -53.73160000 -21.99240000
-30.85590000 -53.78120000 -22.83870000
27.62670000 46.91630000 -29.20670000
27.96610000 46.02840000 -29.38510000
27.70830000 45.35770000 -30.11870000
19.02480000 -35.41010000 79.21090000
22.62950000 -35.76850000 78.18420000
-9.62091000 3.87720000 -15.07570000
-10.08600000 3.39370000 -12.97160000
-16.80760000 34.08330000 41.91930000
-13.78910000 33.61620000 42.96750000
-11.52050000 32.20260000 43.50670000
-29.85980000 -53.71300000 -20.33890000
-28.13830000 -53.69360000 -20.77130000
11.60330000 -31.85450000 11.93280000
-17.43030000 -38.60760000 -22.80030000
-18.72260000 -38.16750000 -20.78910000
-16.83240000 -37.66550000 -21.45870000
-12.85630000 -37.75020000 -24.13740000
-37.46340000 19.93520000 -25.12460000
18.86650000 46.70930000 38.44120000
21.01320000 46.82440000 37.18620000
17.96250000 47.11310000 38.60440000
-2.59839000 -38.03030000 -26.97640000
37.31020000 -32.85980000 -75.41050000
7.87709000 -47.02190000 -65.14560000
7.16668000 -46.51320000 -66.59100000
11.50060000 -46.47190000 -66.21510000
3.01524000 -47.23710000 -65.19620000
16.27230000 45.60970000 43.19090000
18.89650000 45.56640000 42.17610000
18.74720000 45.90720000 42.03930000
21.01220000 45.79280000 41.00820000
-30.64940000 -47.77470000 42.31390000
-29.43090000 -48.20560000 40.96790000
-31.41050000 -47.69150000 41.27640000
-32.63730000 -47.59570000 41.48040000
-31.81420000 -47.84200000 40.41740000
-33.35930000 -47.68930000 39.81540000
-1.63676000 -48.88340000 -40.18800000
-17.79950000 45.85440000 36.43550000
-17.72080000 47.14000000 36.08960000
-16.44220000 47.44130000 36.51400000
68.87140000 -45.90300000 0.70492500
69.97360000 -45.42240000 2.31070000
69.08270000 -45.84710000 2.39863000
67.99410000 -46.16190000 3.63408000
67.51420000 -46.32680000 0.61637800
-5.12919000 -37.57510000 -26.02460000
-6.11027000 -35.99870000 -23.38450000
-7.12469000 -35.99450000 -22.95060000
-5.63118000 -34.98100000 -21.94820000
-72.95800000 -34.44740000 -39.41130000
-72.67230000 -33.84000000 -42.23250000
-71.54100000 -34.32120000 -42.37800000
-72.53760000 -35.24970000 -38.55990000
10.73120000 15.88260000 37.07260000
12.19020000 13.46250000 34.52080000
23.63710000 19.25870000 34.01820000
24.76190000 19.04610000 33.17910000
23.22280000 17.96740000 33.29680000
21.34930000 16.02860000 32.64700000
20.75520000 14.65140000 31.65440000
4.72370000 -11.10500000 -10.14360000
5.91813000 -11.00960000 -9.28181000
6.07353000 -10.40310000 -9.44186000
-74.34420000 -34.72780000 -36.05320000
-75.96510000 -34.30930000 -35.49350000
-76.45950000 -33.78430000 -36.08550000
-75.55190000 -34.12420000 -36.18520000
-20.04550000 -38.28410000 -19.75360000
-18.48720000 -37.55840000 -19.70460000
19.90350000 16.21760000 -36.73230000
1.91031000 53.42880000 -37.92330000
4.20134000 53.59170000 -37.82470000
2.51495000 53.64870000 -38.03960000
5.51897000 53.26340000 -37.53600000
4.53913000 53.23020000 -37.54800000
5.41959000 52.66220000 -37.45890000
-76.62270000 -34.11490000 -34.78460000
-76.84900000 -33.71470000 -35.55670000
-78.35210000 -33.00290000 -33.79810000
-79.17790000 -32.31660000 -34.32540000
-78.16640000 -32.87250000 -35.27400000
7.31510000 -21.48460000 -5.99509000
-24.09080000 -47.33500000 -48.95700000
-26.25520000 -46.99300000 -49.81420000
-17.27670000 -47.33170000 -51.52240000
-15.41320000 -47.53160000 -51.21110000
77.40880000 -30.39920000 -16.16380000
76.61130000 -30.64060000 -18.51040000
22.80680000 -33.99550000 -74.06850000
21.42900000 -34.33160000 -74.39080000
-38.98430000 -46.17860000 -4.32546000
-38.61120000 -48.18610000 -8.99148000
29.23420000 -36.40560000 72.95950000
31.28660000 -36.68550000 71.75830000
30.70340000 -38.68970000 71.33840000
-5.75655000 -7.39590000 -11.78780000
-6.85475000 -6.27920000 -11.21910000
-5.76765000 -6.29080000 -11.83330000
-8.38621000 -7.73160000 -9.87886000
-75.81390000 -34.82470000 -33.83740000
-75.11870000 -35.57000000 -33.67300000
-76.02340000 -35.03140000 -32.52420000
-76.34820000 -34.51930000 -33.11730000
-76.56990000 -34.34030000 -33.99600000
10.06850000 -39.64130000 76.65970000
7.01955000 -39.99690000 76.75830000
-4.64322000 -38.26530000 -27.23430000
-7.94732000 -38.00130000 -26.19450000
-47.91250000 29.62550000 4.69787000
-47.66380000 29.57090000 6.67502000
-47.78750000 28.99300000 4.62946000
22.20060000 32.05080000 -41.98070000
-12.30130000 50.77140000 36.48610000
-11.78340000 50.20830000 36.90880000
-13.12360000 49.50180000 36.72270000
-11.97710000 51.65770000 36.25320000
-10.06770000 52.37120000 36.48400000
-11.64290000 50.96900000 36.70380000
53.99700000 -36.90530000 56.71780000
17.10050000 -37.53780000 -74.79400000
15.37280000 -37.65720000 -75.08660000
10.76540000 -49.84250000 -38.81430000
9.35663000 -49.80440000 -39.18780000
-29.61070000 52.86680000 -23.10640000
-30.75210000 52.94190000 -21.55660000
-31.01440000 51.44520000 -22.34390000
-6.37665000 -49.55370000 -57.60580000
-10.25880000 -49.01660000 -59.18140000
-38.08220000 -48.44790000 -49.49300000
-40.33530000 -47.65890000 -51.66350000
-40.88130000 -46.97390000 -54.76500000
-4.52292000 -6.58120000 -12.37070000
-4.25579000 -7.46930000 -12.39540000
-2.94546000 -7.54120000 -12.73680000
23.59900000 39.51490000 38.04870000
-2.20047000 36.90880000 47.04040000
0.91397700 36.56870000 47.52940000
1.62643000 37.11790000 46.98790000
-1.90253000 39.54030000 46.64750000
0.49718600 39.79030000 46.69000000
78.67700000 -31.31860000 -35.01740000
77.92180000 -31.08220000 -36.84010000
79.80000000 -31.10160000 -32.71050000
-53.83830000 -29.99860000 -68.12080000
-55.76530000 -29.78720000 -66.65840000
-54.58610000 -29.74370000 -67.34350000
-56.05110000 -29.66150000 -66.12400000
1.88505000 -39.68380000 27.89470000
-0.02000600 -37.37440000 24.51280000
1.40082000 -42.38700000 32.13620000
-18.54920000 -35.78810000 12.71540000
-16.20480000 -34.76800000 13.40170000
-16.96290000 -34.45480000 11.72060000
-19.77900000 -35.05670000 8.62633000
-19.54460000 -35.73310000 10.99090000
47.62620000 28.56920000 3.01802000
6.34167000 -43.18330000 -68.85190000
6.28819000 -42.87920000 -69.83890000
6.78409000 -42.39870000 -70.97240000
5.56771000 -42.20410000 -71.10530000
-36.65110000 -33.68650000 73.79140000
-34.38590000 -33.53250000 74.93620000
-36.68910000 -33.52890000 74.39740000
-34.85310000 -33.39560000 75.13430000
-36.11690000 -33.23450000 75.34990000
45.02730000 21.64710000 -6.15531000
44.13980000 21.31010000 -10.03510000
44.39580000 22.66410000 -11.06200000
44.92760000 22.46150000 -8.53547000
-80.83390000 -30.54770000 3.11253000
-80.25630000 -30.66920000 6.55150000
-80.21230000 -30.77580000 3.45687000
14.86850000 34.11730000 -45.84020000
15.21330000 34.36990000 -45.57010000
15.75330000 34.21610000 -45.48730000
15.52290000 29.77280000 -42.44620000
17.67810000 31.36720000 -41.76420000
16.80010000 30.34750000 -42.06110000
13.37630000 -47.93080000 -49.82810000
13.24960000 -48.44030000 -47.48640000
15.63220000 -48.50110000 -46.18590000
14.33580000 -48.58150000 -44.75590000
14.83350000 -48.97580000 -43.51360000
-29.75330000 -37.55530000 74.72660000
-29.66970000 -39.18340000 74.22090000
75.20020000 -42.15230000 -22.06950000
75.77470000 -41.61020000 -22.65710000
76.58210000 -41.25450000 -20.90940000
-0.58134100 21.22190000 41.45140000
-1.45114000 20.03620000 40.82910000
-3.22187000 19.39960000 40.44640000
11.64600000 -49.97930000 37.08190000
-24.31410000 -43.99120000 61.50900000
-22.08250000 -44.03070000 62.09640000
-22.22770000 -44.20320000 60.84550000
-21.34120000 -45.12830000 57.97170000
-18.39920000 -45.27610000 58.73240000
-34.92120000 -49.50380000 25.94460000
-34.55500000 -49.47440000 26.84260000
-32.45610000 -49.83800000 25.16580000
-36.75860000 -49.41430000 24.69390000
47.31100000 34.79630000 8.80639000
47.44080000 35.99120000 8.26150000
47.03270000 36.24930000 10.75890000
-8.90233000 -53.74870000 27.94940000
-8.05036000 -53.82650000 26.50110000
-5.42482000 -53.73930000 26.51950000
-6.88004000 -53.79790000 27.82180000
71.27090000 -44.96060000 -4.18202000
72.42890000 -44.57370000 -1.57772000
70.57410000 -45.18490000 -3.34697000
69.59130000 -45.64990000 0.10678600
71.51900000 -44.93110000 1.70027000
-58.43910000 -32.43520000 63.23440000
-58.62970000 -31.85250000 64.30880000
-60.39730000 -31.48690000 63.05500000
-57.38930000 -30.41770000 66.11420000
13.81170000 -49.12970000 -43.52110000
15.38010000 -49.21870000 -42.07470000
42.64260000 -50.65590000 34.92740000
44.13650000 -50.42230000 34.55110000
45.56410000 -49.91260000 34.63010000
-18.05200000 -34.18510000 9.28032000
2.20854000 10.04310000 32.47050000
0.05985000 10.67870000 33.29610000
6.57506000 11.41560000 33.63320000
-11.71980000 1.94800000 -2.71528000
-10.09440000 1.03600000 -1.35274000
-11.23900000 1.73670000 -2.32706000
-12.33970000 2.02090000 -1.85695000
-44.87940000 25.47030000 -0.00933700
-44.16450000 23.74650000 -0.11570200
-28.01030000 -44.91310000 -26.80760000
-28.04780000 -44.38540000 -25.54140000
-30.77030000 -45.76810000 -25.44780000
-29.17500000 -45.51250000 -26.85500000
43.67890000 -44.70990000 -59.65080000
38.45960000 52.93330000 1.12926000
7.31801000 -46.19230000 37.07930000
9.28966000 -45.99500000 36.64720000
41.41860000 20.72460000 -9.67393000
13.72730000 -48.54530000 -46.54370000
14.91070000 -48.51650000 -46.33490000
13.14290000 -48.88290000 -44.98810000
20.97200000 15.80620000 36.51240000
19.97250000 16.39200000 37.47140000
-31.16430000 46.87590000 28.56000000
-34.74770000 46.89330000 24.39190000
-32.69410000 46.92920000 26.86260000
10.37640000 -48.39230000 -48.61950000
13.12490000 -48.65310000 -46.08600000
-11.12870000 10.78970000 -31.39590000
-13.11720000 10.85810000 -30.85660000
-11.24540000 9.55510000 -29.43510000
-10.39680000 11.10440000 -32.13530000
-6.68048000 -43.18140000 76.80480000
-2.83490000 -43.47460000 76.57200000
-3.57438000 -43.09820000 77.23070000
-5.77992000 -42.99240000 77.34000000
-6.97787000 -43.04430000 77.79870000
10.45270000 38.21290000 43.74150000
13.69440000 39.59510000 42.54150000
54.24160000 -47.74580000 36.39610000
1.62101000 0.87830200 -1.60972000
1.72370000 0.79570100 -2.74196000
4.71153000 0.91890100 -2.36588000
3.43968000 0.88920100 -3.06520000
3.43472000 0.90950100 -2.07281000
66.50010000 -31.96030000 -54.16130000
65.55950000 -31.89560000 -55.71380000
66.35870000 -32.30460000 -53.47350000
21.52010000 -30.50730000 -76.37140000
20.15460000 -30.82680000 -76.19610000
24.25010000 -30.61440000 -75.28310000
46.25340000 -49.10540000 39.54190000
44.69280000 -50.04260000 35.46120000
47.13230000 -49.34460000 37.02550000
49.20880000 -48.44770000 38.39220000
-25.94710000 -49.68440000 -30.90900000
13.63010000 -31.81010000 -84.38770000
12.45930000 -31.00010000 -85.46450000
14.91590000 -31.11200000 -84.93340000
15.79560000 -30.80690000 -85.02370000
12.40030000 -30.70590000 -85.63270000
14.38230000 -30.26360000 -85.29130000
19.24230000 47.56950000 37.78250000
18.62140000 48.86520000 37.80170000
16.09090000 49.28630000 38.87820000
5.33756000 10.76960000 36.85860000
3.59388000 11.85500000 38.14380000
-8.08294000 -29.37350000 -83.97120000
-11.00270000 -30.14290000 -80.69570000
-9.57498000 -30.07510000 -80.92470000
60.02250000 -31.92890000 -61.45690000
-44.29570000 -33.55610000 65.96660000
-46.44760000 -32.30640000 64.96880000
-33.19070000 12.59440000 -13.97030000
-35.18720000 14.00240000 -12.78630000
-31.58970000 11.75390000 -15.07280000
28.00020000 5.88130000 -12.91050000
57.42060000 -30.65090000 -54.19220000
53.76820000 -30.31130000 -58.59950000
4.43713000 0.72190200 -3.85683000
-1.30865000 1.01910000 0.67580500
-1.91649000 1.03780000 2.51217000
28.33930000 -46.27270000 -25.48880000
7.83929000 0.16560200 -3.52783000
9.83130000 0.74750100 -2.91362000
9.10015000 0.31350100 -3.56442000
-7.99005000 -11.41750000 -6.43497000
-6.57402000 -11.70130000 -7.90997000
-7.36466000 -10.97260000 -8.31058000
40.89820000 -45.17560000 -58.93870000
44.68160000 -44.76020000 -58.65250000
42.94350000 -45.03100000 -57.77850000
43.57670000 -45.81300000 -54.27910000
-79.16830000 -33.01360000 -31.90470000
-77.26750000 -34.01150000 -33.94920000
-77.34430000 -33.37480000 -35.18580000
-81.14490000 -38.22970000 -4.97409000
-81.30640000 -38.05110000 -2.00159000
-80.84590000 -39.24840000 -1.66136000
40.65080000 -45.60180000 -57.21150000
38.14280000 -45.61730000 -59.04850000
6.19235000 0.62480200 4.80072000
9.10656000 0.76270100 3.41320000
7.99481000 0.47780100 4.83535000
-19.28870000 -35.05390000 -78.70990000
-22.62000000 -35.16610000 -77.77270000
-28.42090000 -35.35210000 -75.80610000
-24.65760000 -35.36150000 -77.08210000
-78.47710000 -33.50080000 -32.62600000
-78.83610000 -33.70430000 -31.03330000
-41.37870000 45.40140000 -3.17901000
-42.25220000 45.06660000 -3.83886000
-41.89870000 45.10380000 -4.92461000
-42.35290000 44.62660000 -7.23606000
-80.81710000 -34.23220000 17.70490000
11.71900000 -30.24910000 -79.35590000
-78.32660000 -34.28820000 -29.63940000
-77.61310000 -34.96000000 -29.87510000
-77.62350000 -35.28750000 -28.03260000
-2.49460000 0.97450200 2.07461000
-1.65742000 0.92350200 1.34789000
-9.91420000 -46.27700000 35.90580000
-11.63790000 -46.63260000 35.50200000
61.11020000 -30.36730000 60.13900000
59.46680000 -30.51970000 60.16360000
63.16000000 -30.30550000 59.04570000
-7.15256000 -7.26070000 -11.01370000
-7.72170000 -3.29180000 -11.02270000
-7.44653000 -4.87290000 -10.94970000
4.49363000 -46.82580000 -66.04690000
8.68546000 -46.25580000 -67.41970000
59.61800000 -40.25550000 55.11820000
58.97230000 -42.32570000 54.64820000
55.94260000 -42.90980000 57.09140000
-38.42540000 25.25590000 -23.04340000
-37.50790000 25.31560000 -24.75460000
-36.94290000 24.42270000 -25.03060000
4.77452000 -5.80650000 10.40130000
4.49507000 -3.14700000 10.94420000
46.79000000 31.08110000 -8.25511000
47.41780000 30.55040000 -4.06017000
-37.40130000 32.90210000 -31.29230000
-35.66040000 33.08530000 -33.22000000
26.20060000 50.75240000 -28.33850000
25.77160000 49.48610000 -29.56260000
27.48390000 49.60040000 -28.06790000
27.04540000 48.45690000 -29.10590000
44.00370000 -46.27810000 -51.90130000
-14.10130000 -33.33610000 78.07640000
-14.93800000 -31.60580000 78.47710000
-16.27440000 -32.11140000 77.96620000
-16.58610000 -33.47720000 77.52110000
-40.08400000 17.58420000 -5.63710000
-86.26790000 -30.23710000 6.51154000
-86.07270000 -30.06610000 9.08394000
-86.01260000 -30.08930000 6.77538000
-86.39560000 -31.25230000 7.79507000
-86.27920000 -30.39280000 9.20114000
-86.42720000 -30.58300000 6.34574000
-42.86900000 44.41540000 -4.98258000
-43.81040000 42.91220000 -5.01000000
47.43740000 31.19480000 -5.40375000
47.70930000 30.79490000 -2.13705000
5.41130000 2.73120000 -13.62480000
5.58612000 3.58390000 -15.83710000
-37.53630000 -52.44860000 -26.04450000
-34.62760000 -52.83120000 -26.90410000
-36.63120000 -52.74710000 -24.67750000
-26.20790000 3.67730000 -4.45267000
-25.67640000 4.17520000 -10.50710000
3.50724000 3.39990000 -15.90580000
3.84573000 4.05120000 -18.37850000
2.12102000 3.63110000 -17.05600000
-11.61190000 -30.61900000 79.56340000
-8.53091000 -30.91250000 79.82560000
-4.73836000 1.78130000 9.73812000
-3.82542000 1.78130000 10.73530000
-2.64077000 1.61670000 10.95220000
-1.70626000 1.84100000 11.61990000
34.28280000 -41.87270000 72.29130000
37.59720000 -42.68740000 70.25770000
-86.46260000 -30.14800000 4.99708000
-86.60430000 -30.31720000 2.62326000
-41.16080000 22.78670000 -20.96140000
-41.63320000 27.86320000 -22.76980000
-32.95310000 7.61410000 -10.03860000
-31.45640000 6.63390000 -9.42566000
48.02950000 34.10450000 0.30743600
48.48890000 33.50880000 0.30794300
-50.85970000 -42.94460000 47.90100000
-51.61060000 -42.87350000 46.97660000
-52.40900000 -42.35390000 48.89830000
-48.36000000 -44.18860000 43.81990000
-46.50540000 -44.43130000 44.79850000
-46.61790000 -44.51640000 43.52000000
-28.99450000 -48.15310000 41.40450000
-26.91140000 -48.58890000 40.79160000
85.29280000 -29.85020000 -14.94250000
-29.42220000 47.89210000 -30.47890000
-31.77660000 47.85920000 -28.06450000
-32.51570000 48.45960000 -26.70930000
-30.66790000 48.52090000 -28.76450000
10.35970000 1.65550000 4.76238000
10.74610000 2.33750000 7.11524000
9.39596000 1.57070000 5.98152000
-22.52140000 -47.94750000 45.91810000
-21.22100000 -48.02430000 46.77840000
-22.00880000 -48.28370000 45.14100000
-25.73170000 -48.08130000 43.34590000
-25.54640000 -48.39150000 42.18610000
-35.45520000 -49.06180000 -48.41360000
-36.98240000 -48.97540000 -47.75290000
39.94410000 32.33360000 -26.45920000
40.08860000 31.55230000 -25.32410000
38.47700000 31.51370000 -27.52020000
37.92580000 30.85610000 -27.92690000
-53.96280000 -33.22630000 -56.29470000
-53.50560000 -34.41140000 -56.18410000
-52.37100000 -34.42030000 -57.10700000
-49.92580000 -33.60820000 -59.63970000
10.28150000 3.76980000 13.74990000
9.06332000 3.38740000 13.05540000
7.57978000 3.48610000 14.32580000
10.98090000 40.10600000 45.54250000
7.82199000 42.97740000 45.96530000
65.46360000 -46.37160000 15.58210000
66.98390000 -45.85870000 14.60170000
26.90840000 -50.27530000 50.18230000
-37.86230000 -35.40000000 -67.52280000
-37.01490000 -37.03800000 -67.51120000
-77.25780000 -35.56700000 -29.54880000
7.86190000 10.66320000 -31.86830000
-42.23020000 29.17040000 -22.93620000
-47.25470000 -46.16660000 33.17670000
-46.24120000 -45.91000000 35.78460000
-43.32440000 -46.56670000 35.66500000
-30.61740000 9.54070000 11.75030000
-30.58120000 10.01580000 14.08150000
-29.74790000 9.11600000 12.28830000
-29.98650000 9.04020000 10.77760000
-28.14390000 8.10100000 10.32290000
-21.81190000 40.89900000 -39.36710000
-77.51490000 -43.72770000 -2.20941000
-77.55990000 -43.65960000 0.24099000
-77.12350000 -43.76340000 -7.61540000
-16.93030000 3.85530000 -5.07663000
58.15750000 -49.13560000 -4.10545000
60.92750000 -48.36700000 -4.08788000
3.93995000 0.95000200 4.19464000
3.21013000 1.19110000 3.24243000
2.65443000 1.24980000 3.85931000
40.51970000 48.38780000 -13.16370000
-53.42460000 -44.65960000 34.33920000
-51.55540000 -44.92210000 34.72990000
-53.55210000 -45.00530000 31.81620000
-55.34570000 -44.99220000 30.46130000
-54.03830000 -45.33630000 29.68490000
-26.31150000 5.38740000 -14.80310000
-25.73860000 52.93330000 29.53200000
-25.12770000 52.89290000 30.52650000
-23.97430000 52.86750000 30.35250000
-27.16100000 52.84550000 28.89510000
19.53750000 -52.16240000 -43.30260000
21.40290000 -51.45210000 -45.73590000
22.80080000 -51.66940000 -44.06740000
17.67400000 -52.77620000 -40.72070000
-35.68790000 -50.68150000 39.47520000
-41.34810000 -49.34640000 40.35690000
-48.47690000 -29.34890000 72.41820000
-47.65160000 -29.16880000 72.98830000
-48.32940000 -29.18080000 72.19110000
-50.91790000 -29.27690000 70.83240000
-50.02050000 -29.22000000 71.35980000
-49.98180000 -29.08170000 71.01780000
-7.72215000 34.26400000 46.93380000
-3.52255000 34.21410000 47.51260000
-4.05759000 34.52900000 47.33200000
-0.84439700 34.36980000 47.58750000
3.99360000 34.40010000 47.53970000
-36.11120000 -51.92920000 32.17760000
-40.51380000 -51.41010000 30.22770000
-43.20810000 -50.86090000 29.80940000
34.87590000 -46.96890000 -15.79570000
34.55500000 -46.13990000 -15.60530000
16.71060000 -51.97530000 -45.31920000
19.35570000 -51.40780000 -46.82370000
53.25380000 -43.34220000 59.19050000
53.81470000 -43.01390000 59.08440000
49.75190000 -43.64150000 61.44460000
10.03800000 51.93310000 -39.86740000
10.86350000 52.69300000 -39.37540000
12.64390000 52.31220000 -39.15590000
-41.80900000 32.38600000 25.05100000
-43.13270000 32.26020000 22.76910000
5.37163000 34.60320000 47.35980000
7.61471000 34.49320000 47.16480000
-20.13020000 43.09810000 38.23710000
-17.76670000 43.10550000 39.46580000
17.80600000 3.68090000 1.56754000
-45.69110000 32.79500000 -17.53690000
-44.64870000 33.11270000 -19.82770000
-44.25120000 32.62830000 -20.65570000
-45.17920000 32.32680000 -18.47870000
-36.15190000 40.35750000 -27.03120000
2.94551000 -19.66260000 7.57539000
3.89663000 -19.90900000 7.13057000
14.04070000 3.05760000 3.30925000
12.84240000 2.83890000 4.28763000
13.40870000 2.83910000 3.00412000
11.58430000 2.15320000 4.07264000
44.73960000 22.07190000 10.59640000
-8.55371000 35.40510000 44.32410000
30.03220000 -49.29530000 -32.60510000
30.39080000 -49.02480000 -33.31210000
-14.91070000 -42.55460000 -69.88450000
-5.59484000 -43.12610000 -69.24590000
-36.40280000 9.12690000 5.80975000
-49.28350000 -33.32330000 -68.56050000
-45.65170000 -32.85930000 -71.57100000
-29.09230000 53.75190000 -26.62360000
-27.99880000 53.73260000 -25.69200000
56.52630000 -34.80350000 -52.57750000
56.87040000 -36.50210000 -51.54300000
55.32550000 -34.95620000 -53.86730000
55.71900000 -37.21270000 -52.62140000
-74.95960000 -41.72560000 4.22523000
-70.29340000 -43.26900000 -0.20851600
-69.12790000 -43.66060000 -1.22759000
-63.92520000 -44.22330000 -21.44380000
-66.98460000 -43.60530000 -16.48660000
-65.36530000 -44.13480000 -17.37640000
74.94560000 -34.88550000 -32.04920000
75.78930000 -35.32930000 -29.22940000
55.71680000 -38.79880000 53.39970000
54.93360000 -38.40560000 54.45130000
54.75340000 -40.83510000 52.61210000
54.03750000 -40.91020000 53.41450000
31.36080000 -46.62500000 -21.84340000
-74.57350000 -41.84040000 1.68720000
-73.06750000 -42.39710000 1.23523000
-75.77140000 -41.15180000 0.75451700
-31.66960000 34.12480000 35.06450000
-29.16050000 34.39700000 37.03760000
-28.13900000 34.31770000 37.73320000
2.37843000 -18.55640000 -9.99743000
-60.37920000 -42.16040000 -41.74340000
-6.49410000 5.09250000 -20.80350000
-9.46605000 5.82940000 -21.62490000
-8.25727000 5.26850000 -20.48290000
-6.79207000 5.66800000 -22.29810000
21.11920000 47.95410000 -36.99220000
18.87200000 49.15120000 -37.83420000
17.67420000 49.24000000 -38.34870000
-34.70460000 14.79540000 17.05300000
-24.06670000 7.54920000 -13.66310000
-19.69350000 5.67940000 -12.71570000
-19.42920000 5.38310000 -11.47540000
-17.57170000 5.06990000 -12.91170000
-56.00840000 -41.88020000 46.72100000
-55.73710000 -42.35510000 44.63270000
-51.58200000 -43.23790000 44.94970000
-48.91860000 -43.81300000 45.48350000
70.27050000 -40.76360000 28.38870000
71.64420000 -40.56700000 25.13080000
70.64270000 -39.29180000 31.37820000
69.59630000 -40.21940000 31.52990000
-17.79630000 6.71790000 -18.44500000
-16.96890000 6.02320000 -17.43060000
-14.98690000 6.28540000 -19.91930000
-17.99280000 5.92280000 -16.01520000
-19.81080000 6.91760000 -17.25640000
-20.31320000 6.40990000 -14.83850000
-61.03010000 -30.08710000 -62.20140000
-61.19700000 -30.87750000 -61.97620000
-62.42910000 -30.09210000 -60.70620000
-4.63495000 2.79710000 12.64910000
-5.28895000 2.94980000 13.09210000
-16.86640000 40.05950000 41.27820000
-25.82380000 -37.57900000 -2.22543000
-24.88660000 -37.02950000 -3.39420000
-27.51390000 -38.61070000 -0.84953000
44.98130000 36.39190000 2.06550000
-20.91430000 20.51320000 -39.91360000
-34.29370000 -33.36180000 -70.30690000
-35.12730000 -32.06030000 -70.33980000
27.33420000 45.47490000 -36.52490000
-33.02440000 51.80280000 -24.04990000
41.85700000 51.97880000 2.77416000
41.89210000 52.08170000 -0.42775000
37.13090000 -49.81880000 -13.01540000
36.57190000 -49.77350000 -16.09150000
18.78740000 48.25150000 -38.19070000
-32.53250000 -53.39970000 -4.17135000
-31.51360000 -53.43940000 -6.02263000
-30.06110000 -53.41390000 -5.18642000
47.10810000 27.33220000 -0.01531700
