-58.93880000 -5.29430000 21.75460000
-57.09980000 -5.39480000 26.06520000
-57.01870000 -3.34870000 26.75930000
-60.41620000 -7.14940000 16.36470000
-58.87510000 -7.32000000 20.97100000
-57.08510000 -7.43610000 25.37470000
-55.04070000 -7.50190000 29.49710000
-55.02730000 -5.44840000 30.09560000
-58.73570000 -9.35650000 20.30740000
-56.97030000 -9.47600000 24.73060000
-54.96030000 -9.54680000 28.89260000
-52.66250000 -9.58880000 32.76560000
-52.79490000 -7.54840000 33.35260000
-56.69950000 -11.49960000 24.11970000
-54.68890000 -11.56390000 28.27480000
-52.45320000 -11.62060000 32.19240000
-49.98580000 -11.63720000 35.77180000
-50.23180000 -9.62100000 36.36020000
-54.30460000 -13.56270000 27.68380000
-52.06580000 -13.60370000 31.56100000
-49.65360000 -13.63860000 35.16830000
-47.16090000 -13.68770000 38.47130000
-47.46470000 -11.68870000 39.08040000
-51.68660000 -15.60860000 31.01300000
-49.29930000 -15.64390000 34.59380000
-46.82300000 -15.68630000 37.87190000
-44.21650000 -15.72200000 40.89560000
-44.49440000 -13.72290000 41.47460000
-48.92620000 -17.65250000 34.06530000
-46.47270000 -17.69540000 37.31200000
-43.87840000 -17.71550000 40.30030000
-41.14620000 -17.74240000 43.05880000
-41.44030000 -15.75520000 43.66920000
-45.72460000 -19.48370000 36.48320000
-43.19580000 -19.50680000 39.42370000
-40.50840000 -19.51960000 42.13730000
-37.69340000 -19.51300000 44.65320000
-38.25890000 -17.74910000 45.59860000
-42.52390000 -21.33290000 38.60660000
-39.91680000 -21.35840000 41.30110000
-37.16300000 -21.35150000 43.79500000
-34.24530000 -21.33340000 46.02340000
-34.74310000 -19.54260000 46.97670000
-39.30740000 -23.19020000 40.45470000
-36.55470000 -23.13130000 42.85370000
-33.73110000 -23.13220000 45.08100000
-30.80540000 -23.19450000 47.16360000
-31.24060000 -21.38220000 48.10900000
-35.92810000 -24.91000000 41.91540000
-33.19490000 -24.93810000 44.15110000
-30.31440000 -24.94160000 46.13790000
-27.32000000 -24.99440000 47.94170000
-27.71770000 -23.22080000 48.96520000
-32.57150000 -26.66830000 43.13010000
-29.74680000 -26.66230000 45.07060000
-26.85250000 -26.70440000 46.84310000
-23.82350000 -26.75350000 48.40500000
-24.24160000 -25.06510000 49.55860000
-29.13710000 -28.35270000 43.97910000
-26.28990000 -28.37110000 45.70290000
-23.34940000 -28.40710000 47.22150000
-20.33650000 -28.46240000 48.57380000
-20.71370000 -26.79510000 49.75850000
-25.64310000 -29.90920000 44.42420000
-22.80060000 -29.94230000 45.89750000
-19.87130000 -29.99510000 47.22640000
-16.89540000 -30.05320000 48.38570000
-17.21730000 -28.44110000 49.66790000
-22.23000000 -31.46500000 44.55610000
-19.38830000 -31.49400000 45.83880000
-16.52220000 -31.60760000 47.01790000
-13.54350000 -31.62880000 47.88620000
-13.80170000 -30.07190000 49.25430000
-18.88550000 -32.95910000 44.41030000
-16.08930000 -33.01290000 45.50930000
-13.21920000 -33.06530000 46.39560000
-10.29070000 -33.10880000 47.09900000
-10.49830000 -31.62290000 48.53840000
-15.62500000 -34.38620000 43.98210000
-12.86450000 -34.46720000 44.87080000
-10.02100000 -34.46720000 45.54350000
-7.13870000 -34.46860000 46.01950000
-7.29480000 -33.06980000 47.54420000
-12.44000000 -35.70390000 43.22020000
-9.71310000 -35.72090000 43.89560000
-6.93810000 -35.74810000 44.39100000
-4.14840000 -35.80330000 44.71640000
-4.23830000 -34.46480000 46.30500000
-6.71200000 -36.95070000 42.70090000
-9.37770000 -36.92430000 42.21580000
-4.03870000 -37.00060000 42.99510000
-1.35660000 -37.05620000 43.13700000
-1.34480000 -35.79130000 44.79590000
-3.91580000 -38.15440000 41.24430000
-6.47480000 -38.09530000 40.93980000
-1.33110000 -38.20630000 41.39370000
1.26620000 -38.21890000 41.36900000
1.35320000 -37.06600000 43.09980000
-3.76570000 -39.24350000 39.45710000
-1.27870000 -39.26920000 39.60220000
1.20520000 -39.34320000 39.61960000
3.71480000 -39.30320000 39.42850000
3.88790000 -38.23670000 41.19130000
-1.22190000 -40.29860000 37.78560000
1.16550000 -40.31810000 37.77660000
3.54660000 -40.34000000 37.63860000
5.91510000 -40.33440000 37.32500000
6.20110000 -39.30780000 39.11420000
3.36480000 -41.30950000 35.79700000
1.09710000 -41.29850000 35.94660000
5.61840000 -41.31180000 35.50670000
7.85790000 -41.30040000 35.09530000
8.26250000 -40.32180000 36.88870000
5.32180000 -42.26020000 33.69250000
3.18000000 -42.26440000 33.96770000
7.46160000 -42.25120000 33.30800000
9.58740000 -42.23580000 32.78630000
10.07980000 -41.28990000 34.55200000
7.08160000 -43.15450000 31.49390000
5.05180000 -43.16320000 31.85660000
9.09300000 -43.13110000 31.01430000
11.05930000 -43.12310000 30.38480000
11.66780000 -42.22530000 32.12640000
6.67910000 -43.98610000 29.67460000
8.58780000 -43.96290000 29.21360000
10.45580000 -43.96320000 28.61360000
12.27160000 -43.95070000 27.89890000
13.00460000 -43.11520000 29.62060000
8.09640000 -44.75420000 27.40030000
9.82890000 -44.74570000 26.83800000
11.53040000 -44.74340000 26.14930000
13.16210000 -44.74460000 25.36040000
14.03160000 -43.95410000 27.04400000
10.76190000 -45.49620000 24.42070000
9.18040000 -45.49850000 25.06720000
12.28640000 -45.49620000 23.67520000
13.77770000 -45.49800000 22.81830000
14.75600000 -44.74260000 24.44430000
10.00940000 -46.17860000 22.69110000
11.42580000 -46.20120000 21.98780000
12.78490000 -46.20510000 21.20800000
14.10830000 -46.20800000 20.33140000
15.19480000 -45.50150000 21.90350000
11.81320000 -46.82030000 19.62720000
10.55150000 -46.80670000 20.34370000
13.01360000 -46.82870000 18.82140000
14.20390000 -46.83260000 17.93260000
15.34140000 -46.20710000 19.37550000
12.00570000 -47.38540000 17.36110000
10.85990000 -47.37230000 18.09200000
13.07710000 -47.41490000 16.54010000
14.08840000 -47.41180000 15.65850000
15.29760000 -46.84250000 16.97910000
11.00140000 -47.91010000 15.93300000
12.02070000 -47.92370000 15.18010000
12.92980000 -47.92310000 14.34340000
13.80260000 -47.92400000 13.50320000
15.03630000 -47.40260000 14.70730000
11.02550000 -48.58730000 13.91480000
11.90780000 -48.60850000 13.20220000
12.69860000 -48.60050000 12.38230000
13.47330000 -48.60530000 11.55560000
14.61870000 -47.93060000 12.55770000
11.23690000 -49.84830000 12.45690000
12.01520000 -49.85320000 11.71150000
12.76560000 -49.85370000 10.93940000
13.45880000 -49.84580000 10.11740000
14.18140000 -48.61880000 10.67980000
11.77590000 -51.41610000 11.48840000
12.51940000 -51.40430000 10.73160000
13.19540000 -51.37770000 9.91270000
13.83140000 -51.35790000 9.06050000
14.08210000 -49.83440000 9.22980000
12.43860000 -53.03520000 10.68070000
13.12330000 -53.00230000 9.87440000
13.74140000 -52.96210000 9.01240000
14.33100000 -52.93250000 8.12980000
14.39180000 -51.33300000 8.15550000
13.09230000 -54.68670000 9.87350000
13.72090000 -54.64330000 9.01910000
14.31710000 -54.60710000 8.13890000
14.82930000 -54.56230000 7.20320000
14.84580000 -52.90470000 7.19730000
13.74230000 -56.46020000 9.05990000
14.33080000 -56.41720000 8.16940000
14.83410000 -56.38610000 7.22390000
15.30500000 -56.36430000 6.26560000
15.25380000 -54.53070000 6.22310000
14.41430000 -58.33710000 8.24980000
14.93380000 -58.30610000 7.30540000
15.38340000 -58.28010000 6.32080000
15.81730000 -58.25740000 5.33000000
15.69900000 -56.34290000 5.26630000
15.10460000 -60.29000000 7.43120000
15.59220000 -60.26480000 6.44970000
15.98090000 -60.24810000 5.42210000
16.31460000 -60.23810000 4.37090000
16.12270000 -58.24150000 4.28840000
15.85370000 -62.27390000 6.60670000
16.29020000 -62.26270000 5.57000000
16.64070000 -62.25870000 4.50560000
16.91530000 -62.25770000 3.41840000
16.59050000 -60.23390000 3.31040000
16.69750000 -64.27700000 5.76310000
17.07490000 -64.27280000 4.68470000
17.36120000 -64.27620000 3.56090000
17.57960000 -64.27990000 2.43070000
17.10850000 -62.26300000 2.31510000
17.63040000 -66.26540000 4.89110000
17.93150000 -66.27290000 3.74000000
18.17560000 -66.27670000 2.57420000
18.31570000 -66.28860000 1.38490000
17.72090000 -64.28930000 1.27580000
18.67110000 -68.21420000 3.96940000
18.91630000 -68.22910000 2.75400000
19.06610000 -68.23360000 1.52300000
19.11400000 -68.25610000 0.26710000
18.39760000 -66.29580000 0.19390000
19.86290000 -70.06760000 2.97190000
20.02530000 -70.08150000 1.66520000
20.14610000 -70.05090000 0.34240000
20.14480000 -70.02760000 -0.98230000
19.20250000 -68.19930000 -0.99540000
21.22490000 -71.77610000 1.83200000
21.37700000 -71.71370000 0.44820000
21.36540000 -71.70240000 -0.96270000
21.26380000 -71.71940000 -2.36730000
20.05660000 -70.03030000 -2.29970000
22.79490000 -73.22030000 0.53550000
22.76890000 -73.21230000 -0.98360000
22.68330000 -73.20330000 -2.45790000
22.51230000 -73.20600000 -3.95600000
21.08120000 -71.71720000 -3.74530000
24.39790000 -74.49610000 -0.96070000
24.31340000 -74.47690000 -2.56930000
24.12560000 -74.46310000 -4.16370000
23.80500000 -74.46470000 -5.73380000
22.18800000 -73.21110000 -5.43980000
26.18280000 -75.33780000 -2.68610000
25.97410000 -75.36090000 -4.39670000
25.64180000 -75.36570000 -6.09910000
25.18420000 -75.36490000 -7.79010000
23.39460000 -74.47070000 -7.30980000
27.98550000 -75.65270000 -4.64010000
27.62110000 -75.64930000 -6.49300000
27.15240000 -75.67560000 -8.31730000
26.55270000 -75.67360000 -10.07660000
24.60400000 -75.40910000 -9.42610000
29.63720000 -75.32620000 -6.86840000
29.13370000 -75.32920000 -8.80890000
28.47570000 -75.32710000 -10.73650000
27.71290000 -75.33090000 -12.62680000
25.81710000 -75.67780000 -11.83500000
31.06760000 -75.17260000 -9.33200000
30.38390000 -75.17230000 -11.39120000
29.56860000 -75.16590000 -13.39620000
28.63490000 -75.16980000 -15.35720000
26.82140000 -75.30780000 -14.46050000
32.14890000 -74.83270000 -11.93530000
31.27980000 -74.83440000 -14.07800000
30.29240000 -74.81310000 -16.15060000
29.19350000 -74.80000000 -18.16910000
27.58940000 -75.16590000 -17.28360000
32.70450000 -74.09260000 -14.62200000
31.68580000 -74.10240000 -16.79890000
30.52720000 -74.04460000 -18.92290000
29.22300000 -74.00870000 -20.98840000
27.94960000 -74.78470000 -20.14430000
33.10630000 -73.92440000 -17.46440000
31.88960000 -73.88920000 -19.68660000
30.55150000 -73.85860000 -21.85140000
29.07170000 -73.85200000 -23.93880000
27.79050000 -73.99360000 -22.96750000
33.18170000 -74.03590000 -20.40770000
31.79660000 -74.03180000 -22.66160000
30.25580000 -74.01600000 -24.83080000
28.56500000 -74.02970000 -26.90340000
27.44040000 -73.85670000 -25.93240000
32.90940000 -74.51460000 -23.38330000
31.28890000 -74.53060000 -25.61060000
29.51870000 -74.57480000 -27.72810000
27.61420000 -74.60550000 -29.74370000
26.72990000 -74.03540000 -28.86400000
32.02350000 -75.50290000 -26.14560000
30.19170000 -75.54080000 -28.29190000
28.20660000 -75.61410000 -30.32540000
26.11330000 -75.68160000 -32.26400000
25.57050000 -74.64000000 -31.64820000
28.47750000 -76.87630000 -30.55850000
30.48800000 -76.80070000 -28.51500000
26.33490000 -76.97930000 -32.48100000
24.06000000 -77.07760000 -34.27020000
23.87100000 -75.75830000 -34.05110000
26.14930000 -78.17060000 -32.21690000
28.30410000 -78.10620000 -30.33320000
23.84990000 -78.22590000 -33.93910000
21.42470000 -78.29730000 -35.49480000
21.63430000 -77.16260000 -35.87030000
23.59870000 -79.16600000 -33.56500000
25.85180000 -79.11380000 -31.82560000
21.22160000 -79.23860000 -35.13670000
18.71070000 -79.30800000 -36.52470000
18.87530000 -78.38680000 -36.86540000
21.37860000 -80.21680000 -35.37840000
23.77550000 -80.17550000 -33.77230000
18.87330000 -80.26550000 -36.81580000
16.26510000 -80.34170000 -38.07740000
16.12430000 -79.39100000 -37.78720000
19.08810000 -81.19150000 -37.20930000
21.62780000 -81.16200000 -35.74500000
16.44080000 -81.26730000 -38.48690000
13.71930000 -81.35630000 -39.60770000
13.57300000 -80.42450000 -39.19270000
19.29520000 -82.15910000 -37.58760000
16.61250000 -82.21240000 -38.88010000
13.85070000 -82.31630000 -40.00610000
11.01120000 -82.43040000 -40.97730000
10.90940000 -81.45790000 -40.51600000
16.75720000 -83.20980000 -39.22740000
13.96870000 -83.30580000 -40.38370000
11.08820000 -83.46200000 -41.30620000
8.14060000 -83.59070000 -42.00730000
8.10100000 -82.55330000 -41.67450000
14.01620000 -84.40470000 -40.52540000
11.11060000 -84.54410000 -41.43290000
8.14520000 -84.65840000 -42.13130000
5.13450000 -84.70770000 -42.61330000
5.15440000 -83.64500000 -42.52850000
10.98620000 -85.52100000 -41.00240000
8.03430000 -85.60890000 -41.66930000
5.04330000 -85.64970000 -42.14260000
2.03040000 -85.66950000 -42.40290000
2.10070000 -84.71510000 -42.89530000
7.83400000 -86.25340000 -40.79270000
4.88570000 -86.26050000 -41.21280000
1.93410000 -86.29970000 -41.43310000
-1.01140000 -86.32140000 -41.42230000
-0.96800000 -85.70680000 -42.43610000
4.70440000 -86.52800000 -40.03640000
1.82540000 -86.51510000 -40.20590000
-1.06030000 -86.51130000 -40.18950000
-3.91650000 -86.51180000 -40.02120000
-3.93840000 -86.34130000 -41.28930000
1.69610000 -86.55120000 -38.90380000
-1.09600000 -86.52410000 -38.86530000
-3.87250000 -86.53020000 -38.66600000
-6.60200000 -86.50960000 -38.33660000
-6.72720000 -86.52090000 -39.69490000
-1.15040000 -86.07600000 -37.51330000
-3.83480000 -86.05270000 -37.27910000
-6.47930000 -86.03450000 -36.93180000
-9.07190000 -86.05550000 -36.40490000
-9.29770000 -86.51010000 -37.83220000
-3.82530000 -85.09940000 -35.91910000
-6.35520000 -85.09480000 -35.47930000
-8.86910000 -85.02070000 -35.00320000
-11.31090000 -85.02400000 -34.25850000
-11.61660000 -86.01340000 -35.68740000
-6.21240000 -84.66800000 -33.53100000
-8.58920000 -84.70620000 -33.00520000
-10.89610000 -84.67670000 -32.30640000
-13.13320000 -84.63530000 -31.46700000
-13.67270000 -84.99200000 -33.39030000
-8.32400000 -84.70250000 -30.93440000
-10.49720000 -84.69310000 -30.24640000
-12.62170000 -84.66720000 -29.42560000
-14.63480000 -84.67720000 -28.48860000
-15.28300000 -84.62170000 -30.47960000
-10.14010000 -84.73880000 -28.13610000
-12.13080000 -84.73070000 -27.33060000
-14.01520000 -84.74300000 -26.40470000
-15.80700000 -84.73290000 -25.38480000
-16.54750000 -84.66370000 -27.40610000
-11.64300000 -84.82220000 -25.18380000
-13.43240000 -84.81520000 -24.27030000
-15.10610000 -84.80200000 -23.27390000
-16.67990000 -84.79310000 -22.22640000
-17.50080000 -84.71100000 -24.28850000
-12.87280000 -84.87820000 -22.11510000
-14.44170000 -84.86590000 -21.13140000
-15.91340000 -84.85530000 -20.10010000
-17.23660000 -84.84950000 -18.96790000
-18.15600000 -84.77860000 -21.11880000
-13.82360000 -84.93680000 -18.95710000
-15.18540000 -84.92480000 -17.92100000
-16.42330000 -84.93380000 -16.82000000
-17.53140000 -84.92290000 -15.66610000
-18.44680000 -84.84480000 -17.79630000
-14.57390000 -85.01160000 -15.79150000
-15.75090000 -85.00160000 -14.70300000
-16.82320000 -84.99070000 -13.57690000
-17.81380000 -84.98270000 -12.45040000
-18.50940000 -84.95050000 -14.47380000
-15.24470000 -85.05410000 -12.67810000
-16.35170000 -85.03580000 -11.61900000
-17.44850000 -85.02730000 -10.61480000
-18.61790000 -85.01270000 -9.73460000
-18.78560000 -84.97730000 -11.37850000
-16.09260000 -85.07240000 -9.83390000
-17.33940000 -85.05730000 -8.98130000
-18.72110000 -85.03550000 -8.28710000
-20.33570000 -84.99920000 -7.81470000
-19.99840000 -84.98100000 -9.07490000
-17.39180000 -85.06780000 -7.48980000
-18.95730000 -85.05090000 -6.94160000
-20.74000000 -85.02070000 -6.57950000
-21.13130000 -84.98360000 -5.31630000
-23.16700000 -84.88750000 -5.13880000
-22.74680000 -84.89870000 -6.44140000
-22.25090000 -84.91580000 -7.64660000
-19.24660000 -85.06810000 -5.62470000
-19.54360000 -85.06040000 -4.30200000
-21.49560000 -84.97520000 -4.01020000
-17.54010000 -85.06490000 -6.07510000
-17.74280000 -85.10530000 -4.69670000
-15.99250000 -85.11630000 -6.66080000
-16.08220000 -85.12190000 -5.19280000
-16.22460000 -85.12820000 -3.76180000
-17.95700000 -85.07600000 -3.32300000
-19.79270000 -85.04230000 -2.94130000
-20.03280000 -85.03030000 -1.56990000
-22.02520000 -84.96310000 -1.23220000
-21.80180000 -84.97430000 -2.63700000
-18.14070000 -85.11430000 -1.93270000
-16.36030000 -85.11070000 -2.33460000
-16.51050000 -85.13190000 -0.93700000
-18.31720000 -85.07740000 -0.53380000
-20.19400000 -85.00460000 -0.14400000
-20.27210000 -85.00370000 1.31190000
-22.25330000 -84.91180000 1.71430000
-22.19220000 -84.94520000 0.21370000
-18.41720000 -85.04200000 0.89480000
-18.41620000 -85.02190000 2.35330000
-20.29480000 -84.95770000 2.79040000
-16.62320000 -85.08990000 0.47500000
-16.63900000 -85.08040000 1.89990000
-16.59770000 -85.05820000 3.34150000
-18.36660000 -85.00980000 3.80850000
-14.90670000 -85.14860000 0.05590000
-14.93310000 -85.12710000 1.46790000
-14.89840000 -85.12460000 2.88160000
-13.29440000 -85.19690000 1.06400000
-13.27500000 -85.16500000 2.47370000
-13.16660000 -85.16850000 3.87040000
-14.77880000 -85.11530000 4.29440000
-16.46600000 -85.04720000 4.76980000
-16.23550000 -85.03690000 6.17810000
-18.00360000 -84.99650000 6.71360000
-18.22550000 -85.00390000 5.26310000
-14.57260000 -85.08290000 5.69200000
-12.98110000 -85.14570000 5.25800000
-12.73510000 -85.12190000 6.63500000
-14.32260000 -85.07050000 7.07640000
-15.94040000 -85.02390000 7.57120000
-15.57780000 -85.01110000 8.93520000
-17.27850000 -84.95860000 9.54340000
-17.68720000 -84.97320000 8.14350000
-13.94480000 -85.04520000 8.42350000
-12.39910000 -85.11300000 7.97630000
-11.99660000 -85.08920000 9.29980000
-13.50770000 -85.03830000 9.73380000
-15.10990000 -84.99650000 10.26430000
-14.58650000 -84.97820000 11.54380000
-16.24920000 -84.92600000 12.20900000
-16.80530000 -84.94200000 10.88300000
-12.99960000 -85.03770000 11.00280000
-11.52730000 -85.08560000 10.59230000
-12.39980000 -85.03890000 12.21590000
-13.95610000 -84.97990000 12.75160000
-13.26400000 -84.95600000 13.89360000
-14.87880000 -84.91570000 14.56440000
-15.58990000 -84.90640000 13.42250000
-16.54780000 -84.85890000 15.47760000
-17.30600000 -84.85720000 14.27390000
-17.98340000 -84.86700000 12.97570000
-19.04360000 -84.75610000 15.24820000
-19.76150000 -84.77380000 13.87840000
-20.37500000 -84.78690000 12.42790000
-18.56490000 -84.87340000 11.62940000
-20.90020000 -84.79170000 10.94490000
-19.05960000 -84.88640000 10.22260000
-21.33500000 -84.82860000 9.43350000
-19.47800000 -84.91550000 8.76810000
-21.69300000 -84.82480000 7.88570000
-19.81520000 -84.92040000 7.27670000
-21.97380000 -84.87370000 6.34050000
-20.07160000 -84.94470000 5.78260000
-22.15480000 -84.86620000 4.78830000
-20.23160000 -84.96430000 4.28480000
-22.24240000 -84.89780000 3.23930000
-24.15760000 -84.77550000 5.29340000
-24.27320000 -84.80310000 3.67960000
-24.29750000 -84.80620000 2.09900000
-26.31500000 -84.66940000 4.11030000
-26.37990000 -84.68910000 2.45920000
-26.35190000 -84.70760000 0.82540000
-24.23430000 -84.82010000 0.54190000
-26.24050000 -84.71330000 -0.76040000
-24.10310000 -84.86240000 -0.96260000
-26.03800000 -84.73960000 -2.32120000
-23.88990000 -84.87250000 -2.42840000
-25.74670000 -84.74880000 -3.80350000
-23.56360000 -84.87700000 -3.82490000
-25.38140000 -84.75570000 -5.20910000
-27.92930000 -84.62450000 -3.89810000
-27.57750000 -84.63610000 -5.42640000
-27.15340000 -84.64730000 -6.89360000
-24.94070000 -84.78870000 -6.51980000
-26.68650000 -84.67880000 -8.29280000
-24.42070000 -84.80710000 -7.83010000
-26.16710000 -84.66910000 -9.61390000
-23.86180000 -84.82530000 -9.01060000
-21.75020000 -84.91050000 -8.80010000
-23.30580000 -84.83610000 -10.14410000
-21.36320000 -84.90710000 -9.99170000
-19.89680000 -84.96020000 -10.48610000
-20.24850000 -84.91130000 -12.14100000
-19.38010000 -84.91740000 -13.26700000
-21.23010000 -84.84470000 -14.03490000
-20.42490000 -84.84350000 -15.29480000
-19.51760000 -84.84170000 -16.58070000
-21.77070000 -84.76490000 -17.30070000
-20.73690000 -84.75810000 -18.69070000
-19.50720000 -84.75510000 -19.91120000
-21.94430000 -84.65280000 -20.50820000
-20.57950000 -84.67230000 -21.82530000
-19.08830000 -84.69100000 -23.09330000
-21.64870000 -84.63660000 -23.64950000
-20.06850000 -84.60240000 -24.95930000
-18.36160000 -84.64070000 -26.22220000
-21.03820000 -84.54870000 -26.78090000
-19.23750000 -84.60360000 -28.10240000
-17.31940000 -84.62670000 -29.34580000
-20.12730000 -84.89240000 -29.90370000
-18.10160000 -84.91020000 -31.20050000
-15.93260000 -84.96870000 -32.36660000
-18.66540000 -85.90840000 -32.59690000
-16.41340000 -85.94400000 -33.76770000
-14.05990000 -85.96090000 -34.80110000
-16.88100000 -86.43200000 -35.08850000
-14.44200000 -86.44760000 -36.16240000
-11.92000000 -86.44730000 -37.08450000
-14.81780000 -86.43840000 -37.45020000
-12.19480000 -86.45350000 -38.38590000
-9.49360000 -86.48340000 -39.13960000
-12.45940000 -86.27560000 -39.59460000
-9.68510000 -86.29730000 -40.37370000
-6.83650000 -86.31830000 -40.93940000
-9.82830000 -85.72200000 -41.36720000
-6.91300000 -85.72150000 -41.92040000
-3.95180000 -85.71960000 -42.28560000
-6.91820000 -84.69460000 -42.44500000
-3.93150000 -84.69800000 -42.81140000
-0.92570000 -84.71620000 -42.95110000
-3.86140000 -83.48790000 -42.84040000
-0.87660000 -83.56550000 -42.88970000
2.13580000 -83.62730000 -42.81800000
2.15160000 -82.55690000 -42.48180000
-0.82320000 -82.37910000 -42.72080000
5.14350000 -82.60990000 -42.16920000
2.15930000 -81.52890000 -42.00120000
5.11750000 -81.58540000 -41.73420000
8.03790000 -81.54760000 -41.24280000
5.08680000 -80.57730000 -41.25810000
7.96700000 -80.55930000 -40.77440000
10.79830000 -80.50400000 -40.08340000
7.90140000 -79.54890000 -40.40720000
10.69830000 -79.52920000 -39.72950000
13.44530000 -79.47300000 -38.85540000
10.76480000 -78.55550000 -39.97270000
13.52890000 -78.54500000 -39.09820000
16.24250000 -78.47760000 -38.07620000
13.70510000 -77.52940000 -39.59200000
16.43570000 -77.43440000 -38.52610000
19.09020000 -77.29540000 -37.29400000
16.37620000 -76.03970000 -38.39590000
18.98370000 -75.94260000 -37.11740000
21.48190000 -75.84910000 -35.66980000
18.61620000 -74.80600000 -36.43160000
21.06090000 -74.73920000 -35.01910000
23.37660000 -74.68990000 -33.39410000
20.39480000 -74.11360000 -33.96840000
22.64230000 -74.05760000 -32.42450000
24.76020000 -74.04130000 -30.71260000
21.76070000 -73.83530000 -31.21210000
23.78320000 -73.83840000 -29.58170000
25.68830000 -73.81190000 -27.81120000
24.54490000 -73.94000000 -26.65420000
22.72500000 -73.96040000 -28.34240000
26.23110000 -73.95690000 -24.86430000
23.39840000 -74.69640000 -25.47930000
25.02190000 -74.74330000 -23.78820000
26.54050000 -74.75880000 -22.00270000
25.07220000 -75.14910000 -20.83590000
23.63800000 -75.14600000 -22.52080000
26.40600000 -75.15840000 -19.09080000
23.46910000 -75.32110000 -19.60280000
24.70950000 -75.32810000 -17.94650000
25.82580000 -75.32020000 -16.24940000
23.02410000 -75.70260000 -16.80910000
24.06810000 -75.70300000 -15.22050000
24.99690000 -75.69810000 -13.55390000
22.27720000 -75.43930000 -14.18150000
23.16920000 -75.40920000 -12.66000000
23.93010000 -75.43110000 -11.06180000
21.49450000 -74.50990000 -11.81720000
22.23010000 -74.50280000 -10.36120000
22.88210000 -74.44650000 -8.85130000
20.73260000 -73.23700000 -9.71440000
21.31220000 -73.20140000 -8.33800000
21.78660000 -73.21820000 -6.88380000
19.94290000 -71.72340000 -7.86410000
20.41620000 -71.72390000 -6.51480000
20.79310000 -71.71510000 -5.14020000
19.24070000 -70.05070000 -6.19390000
19.59420000 -70.05120000 -4.90590000
19.86340000 -70.05180000 -3.61500000
18.63890000 -68.21600000 -4.73610000
18.89680000 -68.20870000 -3.49440000
19.08980000 -68.20490000 -2.24860000
18.18730000 -66.27590000 -3.41760000
18.32400000 -66.28480000 -2.22020000
18.37060000 -66.30450000 -1.00490000
17.70520000 -64.31790000 -2.19690000
17.79930000 -64.30680000 -1.03470000
17.79310000 -64.29990000 0.13140000
17.32250000 -62.29440000 -1.05820000
17.33710000 -62.27960000 0.07350000
17.26030000 -62.27030000 1.19070000
16.98580000 -60.25250000 0.02730000
16.93010000 -60.24320000 1.13360000
16.79860000 -60.23880000 2.22890000
16.70550000 -58.22790000 1.08710000
16.58480000 -58.22440000 2.17010000
16.37920000 -58.22880000 3.23670000
16.45700000 -56.26910000 2.13010000
16.27810000 -56.28480000 3.19240000
16.02310000 -56.31610000 4.24040000
16.23350000 -54.47030000 3.16990000
15.97530000 -54.49250000 4.21090000
15.65900000 -54.51130000 5.23400000
15.98750000 -52.83910000 4.20460000
15.67350000 -52.85020000 5.22720000
15.29760000 -52.86530000 6.22910000
15.72060000 -51.27040000 5.23780000
15.33900000 -51.29100000 6.23940000
14.91770000 -51.31670000 7.22460000
15.61040000 -49.79370000 6.35130000
15.17760000 -49.80960000 7.35200000
14.65620000 -49.82980000 8.29670000
15.94920000 -48.61120000 7.74080000
15.40680000 -48.61390000 8.73060000
14.83730000 -48.62010000 9.72950000
16.69000000 -47.92900000 9.48510000
16.05490000 -47.92550000 10.54770000
15.37860000 -47.93910000 11.60060000
17.45490000 -47.40390000 11.48350000
16.72920000 -47.39990000 12.60940000
15.91300000 -47.40120000 13.68190000
18.13740000 -46.82610000 13.66670000
17.25350000 -46.82470000 14.84950000
16.31350000 -46.83150000 15.94840000
18.66430000 -46.19590000 16.05160000
17.63560000 -46.19860000 17.23270000
16.53780000 -46.19670000 18.34490000
19.01870000 -45.51040000 18.56730000
17.81960000 -45.50790000 19.75630000
16.54110000 -45.51190000 20.87660000
19.09410000 -44.76360000 21.16790000
17.72220000 -44.75110000 22.36940000
16.26640000 -44.74520000 23.46450000
17.36260000 -43.95410000 25.02510000
18.92270000 -43.95880000 23.85340000
15.73920000 -43.94510000 26.08130000
18.43080000 -43.10360000 26.57510000
16.68580000 -43.10680000 27.70060000
14.86950000 -43.10840000 28.72110000
17.61550000 -42.21790000 29.31020000
15.70010000 -42.21500000 30.37960000
13.71060000 -42.22690000 31.31620000
16.50100000 -41.28100000 32.01770000
14.41260000 -41.28490000 33.00690000
12.26780000 -41.28310000 33.85930000
15.11680000 -40.30790000 34.67900000
12.86380000 -40.30840000 35.58030000
10.58080000 -40.31280000 36.31090000
11.08160000 -39.28280000 38.04780000
13.48070000 -39.27930000 37.27300000
8.64560000 -39.30130000 38.65560000
11.59260000 -38.18150000 39.73170000
9.05520000 -38.21620000 40.38240000
6.50280000 -38.26590000 40.88240000
9.46810000 -37.12100000 42.10820000
6.77500000 -37.10030000 42.56390000
4.07000000 -37.07470000 42.89290000
7.07220000 -35.90310000 44.23780000
4.26760000 -35.86200000 44.55540000
1.46930000 -35.87360000 44.79980000
4.48320000 -34.61070000 46.19870000
1.58510000 -34.60680000 46.44640000
-1.32440000 -34.51000000 46.44250000
1.70620000 -33.17350000 47.95360000
-1.29990000 -33.14440000 48.00760000
-4.29430000 -33.13630000 47.89990000
-1.25450000 -31.72010000 49.53230000
-4.33100000 -31.73180000 49.43190000
-7.42120000 -31.63640000 49.05000000
-4.34560000 -30.17460000 50.81590000
-7.52220000 -30.12220000 50.47170000
-10.68210000 -30.12760000 49.98050000
-7.61570000 -28.56360000 51.83850000
-10.84510000 -28.54820000 51.31670000
-14.04610000 -28.48220000 50.57770000
-11.00820000 -26.96640000 52.66320000
-14.28030000 -26.91550000 51.91060000
-17.52940000 -26.83850000 50.94880000
-14.43540000 -25.17310000 53.03100000
-17.76540000 -25.14880000 52.11430000
-21.03890000 -25.10790000 50.91090000
-17.97620000 -23.39060000 53.17720000
-21.30300000 -23.33650000 51.95330000
-24.54180000 -23.24710000 50.52430000
-21.56050000 -21.56720000 52.98950000
-24.88600000 -21.52200000 51.61920000
-28.11200000 -21.43470000 49.95030000
-25.15880000 -19.68840000 52.54030000
-28.45280000 -19.63010000 50.90710000
-31.65360000 -19.57490000 49.04970000
-28.83400000 -17.87060000 51.93500000
-32.09900000 -17.81700000 50.06010000
-35.24350000 -17.77750000 47.95790000
-32.34040000 -15.88760000 50.78420000
-35.50520000 -15.83040000 48.62570000
-38.54230000 -15.78430000 46.24490000
-35.70170000 -13.85320000 49.23390000
-38.76670000 -13.80290000 46.85490000
-41.69510000 -13.76240000 44.26500000
-38.97520000 -11.82260000 47.47030000
-41.93640000 -11.77700000 44.87960000
-44.78710000 -11.73760000 42.09980000
-42.08350000 -9.76450000 45.42630000
-44.95800000 -9.72190000 42.66200000
-47.62930000 -9.65810000 39.61480000
-45.01690000 -7.67990000 43.14560000
-47.71160000 -7.61790000 40.11850000
-50.33920000 -7.57970000 36.89970000
-47.73840000 -5.57150000 40.59320000
-50.33330000 -5.52550000 37.37950000
-52.76010000 -5.48540000 33.87270000
-50.28550000 -3.46910000 37.84170000
-52.65560000 -3.42360000 34.37470000
-54.95250000 -3.39390000 30.69920000
-52.53500000 -1.36530000 34.87020000
-54.75270000 -1.33370000 31.24930000
-56.80060000 -1.29780000 27.41210000
-54.44810000 0.72340000 31.71730000
-56.46040000 0.75040000 28.00910000
-58.29560000 0.80190000 24.09670000
-56.04490000 2.79610000 28.52520000
-57.79830000 2.82640000 24.73320000
-59.45380000 2.93160000 20.76630000
-57.27190000 4.84810000 25.32090000
-58.87020000 4.92420000 21.50650000
-60.18980000 4.99200000 17.55140000
-58.19020000 6.90010000 22.15410000
-59.58050000 6.96190000 18.39970000
-60.67270000 6.99110000 14.48980000
-58.82900000 8.90660000 19.14410000
-59.96360000 8.93450000 15.41810000
-60.85770000 8.91460000 11.51000000
-59.19070000 10.86900000 16.27200000
-60.14810000 10.87620000 12.54990000
-58.44690000 12.79080000 17.06300000
-59.37310000 12.79520000 13.61310000
-57.75590000 14.76470000 17.77030000
-58.71870000 14.70970000 14.54870000
-59.46980000 14.68750000 11.26850000
-57.56840000 16.48080000 15.20330000
-58.39650000 16.40510000 12.17320000
-59.01570000 16.30530000 9.20450000
-59.98160000 14.64140000 8.05900000
-59.43860000 16.20970000 6.52030000
-60.43190000 14.78570000 5.39650000
-61.24540000 15.36310000 3.64730000
-62.59300000 14.34130000 2.97240000
-63.41040000 15.45230000 2.43030000
-62.49780000 16.25040000 2.71700000
-63.84560000 17.42880000 2.41380000
-64.86650000 19.46840000 2.34130000
-64.46440000 20.22000000 2.16740000
-66.43480000 21.45960000 2.12600000
-64.20830000 20.72690000 1.55760000
-66.27090000 22.02060000 1.49400000
-68.63540000 22.84210000 1.45570000
-66.28240000 22.24140000 0.64610000
-68.71370000 23.06420000 0.63290000
-71.27640000 23.35360000 0.63680000
-68.81810000 23.16800000 -0.23640000
-71.41270000 23.42520000 -0.24450000
-74.00140000 23.06440000 -0.24270000
-71.54600000 23.30730000 -1.14040000
-74.10190000 22.92840000 -1.13700000
-76.49820000 21.93450000 -1.10820000
-74.16830000 22.64270000 -2.00850000
-76.48580000 21.62750000 -1.94870000
-78.55450000 20.20060000 -1.98770000
-76.27370000 21.01130000 -2.53690000
-78.14070000 19.56440000 -2.48970000
-79.60060000 17.73930000 -2.55230000
-77.62070000 18.84170000 -2.73910000
-78.93570000 17.17450000 -2.75510000
-79.78230000 15.24740000 -2.77810000
-78.27360000 16.65130000 -2.59840000
-79.03210000 14.86280000 -2.62410000
-79.35450000 12.93530000 -2.62140000
-78.37200000 14.51690000 -2.20050000
-78.65840000 12.78230000 -2.20090000
-78.58200000 11.03110000 -2.18160000
-78.38860000 12.65080000 -1.44800000
-78.28050000 10.96830000 -1.43030000
-77.78240000 9.36870000 -1.42350000
-78.14610000 10.86320000 -0.63460000
-77.64690000 9.28800000 -0.63100000
-76.77010000 7.89430000 -0.62130000
-77.56190000 9.20260000 0.16450000
-76.69420000 7.81290000 0.16780000
-75.46280000 6.72730000 0.15980000
-76.68150000 7.65980000 0.95540000
-75.45180000 6.52500000 0.94200000
-73.96420000 5.78020000 0.93180000
-75.51790000 6.20900000 1.68010000
-73.95950000 5.44350000 1.69570000
-72.25650000 5.06020000 1.66130000
-74.11480000 4.76860000 2.18120000
-72.28520000 4.34430000 2.17290000
-74.30320000 3.86770000 2.33830000
-72.32040000 3.48780000 2.36540000
-74.53490000 2.97380000 2.20180000
-72.34660000 2.51700000 2.24420000
-70.24830000 2.62810000 2.29390000
-72.35380000 1.67940000 1.71320000
-70.13770000 1.70160000 1.79670000
-68.27390000 2.32920000 2.10230000
-70.08060000 1.35540000 0.81950000
-68.19900000 1.70160000 0.89040000
-69.98590000 1.25770000 -0.22140000
-68.09280000 1.60640000 -0.40770000
-69.88940000 1.34820000 -1.30030000
-72.22560000 1.22220000 -0.11010000
-72.09870000 1.30790000 -1.07120000
-71.96920000 1.47430000 -2.03890000
-74.51750000 1.73290000 -0.94490000
-74.36780000 1.85220000 -1.87140000
-74.11930000 2.28340000 -2.64130000
-76.66420000 2.86660000 -1.72150000
-76.36270000 3.19840000 -2.51610000
-75.91600000 3.80850000 -2.97490000
-73.77930000 3.03300000 -3.03730000
-75.38540000 4.54460000 -3.07710000
-73.43110000 3.87370000 -3.10420000
-73.11440000 4.62000000 -2.79260000
-77.78580000 5.07950000 -2.89000000
-78.33400000 4.64010000 -2.36390000
-79.96550000 6.50080000 -2.30460000
-78.67940000 4.42770000 -1.59040000
-80.31780000 6.38930000 -1.49300000
-81.42950000 8.67990000 -1.39570000
-80.50820000 6.38640000 -0.62300000
-81.62150000 8.72450000 -0.53080000
-82.31170000 11.24540000 -0.45650000
-81.66530000 8.82010000 0.35410000
-82.33250000 11.34870000 0.46350000
-82.29450000 13.95320000 0.57630000
-82.10510000 11.47360000 1.35020000
-81.99790000 14.01750000 1.47000000
-81.22070000 16.47700000 1.51440000
-81.43670000 14.02550000 2.17950000
-80.68130000 16.37410000 2.23730000
-79.47350000 18.49980000 2.26870000
-79.91150000 16.16190000 2.54390000
-78.73750000 18.07650000 2.55910000
-77.15230000 19.69980000 2.54180000
-77.95570000 17.65130000 2.56150000
-76.50840000 19.07990000 2.49720000
-74.78490000 20.12880000 2.38820000
-75.92320000 18.47470000 2.26690000
-74.31660000 19.41340000 2.19260000
-72.54020000 19.94410000 2.10630000
-73.94820000 18.87140000 1.62510000
-72.34460000 19.42100000 1.50110000
-70.65500000 19.48160000 1.43710000
-72.22920000 19.27970000 0.69700000
-70.56800000 19.33510000 0.61910000
-68.95670000 18.97740000 0.55920000
-70.47990000 19.28350000 -0.21090000
-68.88750000 18.86780000 -0.29080000
-67.40420000 18.15160000 -0.36330000
-68.76310000 18.92640000 -1.13780000
-67.28230000 18.16790000 -1.23720000
-66.02460000 17.05150000 -1.34530000
-67.06280000 18.34100000 -2.08150000
-65.80380000 17.16290000 -2.23720000
-64.76350000 15.76530000 -2.41170000
-65.28700000 17.49550000 -2.91390000
-64.13370000 16.09440000 -3.04930000
-64.49300000 18.01570000 -3.08400000
-63.18910000 16.60100000 -3.19260000
-66.07550000 19.34400000 -3.05600000
-65.46410000 20.00220000 -2.98670000
-66.64850000 18.74260000 -2.77430000
-68.29090000 19.54310000 -2.64340000
-67.91970000 20.22120000 -3.00680000
-68.59130000 19.11130000 -1.95720000
-70.27030000 19.48600000 -1.85340000
-70.10490000 19.90140000 -2.56430000
-70.38360000 19.31790000 -1.04330000
-72.04410000 19.29920000 -0.95320000
-71.97160000 19.47810000 -1.76600000
-72.12800000 19.24270000 -0.12750000
-73.70170000 18.75240000 -0.04060000
-73.64530000 18.84930000 -0.87310000
-73.79790000 18.75070000 0.79570000
-75.26410000 17.94900000 0.88120000
-75.15750000 17.97100000 0.03920000
-75.45490000 18.03850000 1.70090000
-76.72640000 16.90080000 1.73490000
-76.49620000 16.83710000 0.92980000
-77.26270000 17.20190000 2.33970000
-78.29710000 15.64170000 2.31370000
-77.64560000 15.45940000 1.78200000
-79.07630000 15.86810000 2.51810000
-79.72370000 13.94120000 2.48600000
-78.88740000 13.89490000 2.29030000
-80.60700000 14.00120000 2.47270000
-80.79150000 11.77760000 2.40920000
-79.93260000 11.92060000 2.44970000
-81.58350000 11.62060000 2.06510000
-81.20590000 9.17420000 2.01000000
-80.44790000 9.48560000 2.36640000
-81.56560000 8.96090000 1.23040000
-80.56360000 6.59160000 1.14640000
-80.28610000 6.88220000 1.93770000
-80.56980000 6.46850000 0.26140000
-78.94040000 4.45240000 0.16790000
-78.94140000 4.59970000 1.04610000
-78.84140000 4.41070000 -0.71550000
-76.83270000 2.78810000 -0.83000000
-76.92990000 2.82760000 0.07850000
-74.63820000 1.69800000 -0.01530000
-74.68350000 1.87720000 0.87750000
-76.95880000 2.97770000 0.98520000
-74.67660000 2.23630000 1.68760000
-76.88660000 3.27510000 1.82360000
-78.79810000 4.87720000 1.85840000
-76.54770000 3.98590000 2.22770000
-78.29710000 5.53360000 2.27320000
-79.65960000 7.37900000 2.36060000
-77.76600000 6.19370000 2.40590000
-78.96270000 7.93650000 2.41320000
-79.67440000 9.84750000 2.44320000
-78.25480000 8.42600000 2.18220000
-78.94940000 10.16160000 2.19470000
-79.14790000 12.01280000 2.22500000
-78.37150000 10.44400000 1.68800000
-78.54650000 12.15370000 1.71010000
-78.22410000 13.85650000 1.77840000
-78.30260000 12.27620000 0.96090000
-78.02000000 13.92690000 0.98250000
-77.40660000 15.45890000 0.96660000
-77.96670000 14.03080000 0.16290000
-77.35270000 15.55470000 0.13780000
-76.38980000 16.88430000 0.09490000
-77.34390000 15.67600000 -0.68970000
-76.35840000 16.99270000 -0.73960000
-75.10110000 18.06140000 -0.80130000
-76.39210000 17.16830000 -1.56580000
-75.11410000 18.25230000 -1.62770000
-73.61370000 19.04550000 -1.69390000
-75.26730000 18.66070000 -2.34420000
-73.66140000 19.42380000 -2.43750000
-71.91500000 19.87270000 -2.50100000
-73.82950000 20.21300000 -2.78700000
-71.88350000 20.65980000 -2.83270000
-69.90950000 20.64600000 -2.91370000
-71.79750000 21.49040000 -2.90200000
-69.67070000 21.52110000 -2.90010000
-67.46830000 21.01570000 -3.04210000
-69.39980000 22.31710000 -2.62190000
-67.04110000 21.75300000 -2.69930000
-64.89940000 20.62420000 -2.68710000
-66.67600000 22.24310000 -2.02080000
-64.48440000 20.99600000 -1.95920000
-66.48060000 22.37090000 -1.12110000
-64.31710000 21.04510000 -1.06330000
-62.46090000 19.46900000 -0.95530000
-64.21040000 21.01210000 -0.16820000
-62.40110000 19.40870000 -0.07180000
-60.29940000 18.43830000 -0.00240000
-60.35610000 18.39390000 -0.94520000
-58.23240000 19.19960000 0.18220000
-58.26960000 19.22600000 -1.00770000
-56.79380000 20.86390000 0.30600000
-56.78280000 20.91870000 -1.09370000
-56.72390000 20.99170000 -2.56260000
-55.20510000 22.43690000 -1.13280000
-55.10390000 22.51000000 -2.74570000
-54.91320000 22.59450000 -4.44170000
-56.58080000 21.10770000 -4.16980000
-54.64140000 22.69930000 -6.23810000
-56.33100000 21.21590000 -5.91450000
-54.25040000 22.82060000 -8.17570000
-53.02520000 24.18670000 -6.45400000
-52.64160000 24.29850000 -8.43190000
-52.14390000 24.40940000 -10.52980000
-51.23980000 25.89930000 -8.60950000
-50.78720000 26.01130000 -10.68720000
-50.19910000 26.11290000 -12.86860000
-49.24730000 27.34910000 -10.75450000
-48.65740000 27.41330000 -12.87670000
-47.94770000 27.45390000 -15.04980000
-46.96730000 28.29750000 -12.77550000
-46.27190000 28.32380000 -14.87570000
-45.46970000 28.33260000 -17.00120000
-44.62240000 29.09800000 -14.66150000
-43.86140000 29.12260000 -16.71220000
-42.95570000 29.13980000 -18.77900000
-42.81630000 30.57000000 -16.59550000
-41.92620000 30.59200000 -18.60060000
-41.00670000 30.64300000 -20.64170000
-41.59890000 32.39240000 -18.71690000
-40.62620000 32.39260000 -20.70740000
-39.55690000 32.38160000 -22.69680000
-40.54840000 34.13910000 -20.91280000
-39.45470000 34.11210000 -22.87620000
-38.21930000 34.07730000 -24.80200000
-39.69760000 35.69100000 -23.23700000
-38.47470000 35.66130000 -25.19260000
-37.13800000 35.66640000 -27.10540000
-39.11720000 36.85600000 -25.80380000
-37.75030000 36.87060000 -27.75160000
-36.27610000 36.90590000 -29.65730000
-38.14320000 37.96940000 -28.19620000
-36.62340000 38.01340000 -30.09910000
-35.00190000 38.03360000 -31.94280000
-36.48640000 39.00050000 -30.09800000
-34.84750000 39.02400000 -31.91370000
-33.10960000 39.04110000 -33.65680000
-34.44350000 39.80240000 -31.63980000
-32.70530000 39.79340000 -33.34020000
-30.89450000 39.79520000 -34.98590000
-32.14790000 40.29620000 -32.85400000
-30.35630000 40.30400000 -34.46200000
-28.47300000 40.31100000 -35.98160000
-29.72450000 40.48910000 -33.82450000
-27.86550000 40.49960000 -35.29580000
-25.91780000 40.50330000 -36.66920000
-27.22350000 40.36740000 -34.55920000
-25.30830000 40.35280000 -35.89760000
-23.32030000 40.35010000 -37.12940000
-24.78800000 39.73270000 -35.25430000
-22.83460000 39.71110000 -36.44210000
-20.83880000 39.66620000 -37.57940000
-22.53650000 38.65700000 -36.06930000
-20.56280000 38.61690000 -37.17600000
-18.54670000 38.60260000 -38.21630000
-20.41760000 37.38190000 -37.03400000
-18.41260000 37.37700000 -38.04910000
-16.34220000 37.37980000 -38.94510000
-18.31510000 36.05830000 -37.96940000
-16.25640000 36.03730000 -38.86230000
-14.14500000 35.98040000 -39.64500000
-16.19980000 34.55800000 -38.86350000
-14.09580000 34.48970000 -39.64840000
-11.94970000 34.44760000 -40.30590000
-14.07590000 32.92400000 -39.74970000
-11.92990000 32.88060000 -40.40810000
-9.75980000 32.85500000 -40.97690000
-11.95740000 31.21630000 -40.69040000
-9.78370000 31.18590000 -41.26400000
-7.57340000 31.16610000 -41.67830000
-9.86820000 29.44210000 -41.83320000
-7.64220000 29.42890000 -42.26530000
-5.39880000 29.41650000 -42.59610000
-7.79490000 27.74740000 -43.35540000
-5.50500000 27.73340000 -43.67360000
-3.19460000 27.74210000 -43.91180000
-5.65560000 26.25770000 -45.17570000
-3.26730000 26.24220000 -45.37370000
-0.87270000 26.21360000 -45.43080000
-0.89580000 24.78000000 -47.00090000
-3.36260000 24.82120000 -46.95380000
1.56970000 24.68870000 -46.89670000
1.62270000 23.31170000 -48.54740000
-0.91310000 23.40350000 -48.65000000
4.16560000 23.23800000 -48.34400000
1.69480000 21.92130000 -50.18680000
4.32560000 21.81020000 -49.93520000
6.92610000 21.72690000 -49.59760000
4.48130000 20.38110000 -51.52630000
7.16420000 20.27810000 -51.16970000
9.80420000 20.14440000 -50.64950000
7.41160000 18.85240000 -52.74910000
10.13750000 18.62290000 -52.13220000
12.80490000 18.36100000 -51.36570000
10.46350000 17.15360000 -53.64680000
13.19960000 16.82320000 -52.82770000
15.81410000 16.60810000 -52.00840000
13.52380000 15.26640000 -54.28620000
16.21820000 14.99030000 -53.49780000
18.82200000 14.91420000 -52.59890000
16.48490000 13.25640000 -54.82120000
19.22760000 13.15040000 -53.87160000
21.88900000 13.29250000 -52.81410000
19.47110000 11.20500000 -54.72300000
22.27350000 11.33760000 -53.62230000
24.97650000 11.61140000 -52.41770000
22.54260000 9.31550000 -54.19320000
25.27510000 9.53770000 -52.87180000
27.89980000 9.78150000 -51.48190000
25.55590000 7.46380000 -53.32250000
28.21120000 7.69390000 -51.88980000
30.78440000 7.91900000 -50.36280000
28.46910000 5.59110000 -52.23060000
31.05810000 5.81420000 -50.66880000
33.55820000 6.03850000 -48.97540000
31.28030000 3.69650000 -50.89370000
33.79990000 3.92660000 -49.19240000
36.21360000 4.16130000 -47.34560000
33.99160000 1.80450000 -49.33710000
36.42280000 2.04590000 -47.48940000
38.76450000 2.30280000 -45.54000000
36.57450000 -0.08010000 -47.55450000
38.94490000 0.18400000 -45.62760000
41.18550000 0.45400000 -43.55990000
39.03820000 -1.94260000 -45.60150000
41.31090000 -1.67020000 -43.56820000
43.45760000 -1.39070000 -41.41730000
41.27890000 -3.78890000 -43.39770000
43.44210000 -3.50690000 -41.26960000
45.44710000 -3.21510000 -39.00420000
43.35930000 -5.61660000 -41.05500000
45.39150000 -5.32360000 -38.83130000
47.32380000 -5.02680000 -36.52130000
45.23230000 -7.42150000 -38.55750000
47.14290000 -7.12250000 -36.26530000
48.94080000 -6.81280000 -33.88170000
46.89540000 -9.19970000 -35.94140000
48.71940000 -8.89430000 -33.60770000
50.35900000 -8.56910000 -31.14960000
48.30100000 -10.92660000 -33.18210000
49.95490000 -10.60610000 -30.78380000
51.47740000 -10.29860000 -28.30220000
49.43850000 -12.60230000 -30.32710000
50.99560000 -12.31190000 -27.91840000
52.37250000 -12.01380000 -25.40720000
50.34430000 -14.25910000 -27.43900000
51.74740000 -13.97980000 -24.99600000
53.00520000 -13.70810000 -22.47530000
50.99680000 -15.87790000 -24.51160000
52.23920000 -15.60970000 -22.04760000
53.37090000 -15.35300000 -19.53560000
51.40570000 -17.47610000 -21.57990000
52.52640000 -17.22180000 -19.12090000
53.44360000 -16.97550000 -16.59480000
51.54180000 -18.99800000 -18.64770000
52.50250000 -18.77530000 -16.19500000
53.32610000 -18.58700000 -13.68420000
51.44360000 -20.49850000 -15.74890000
52.21230000 -20.28270000 -13.29740000
52.92350000 -20.15080000 -10.81900000
51.08060000 -21.94960000 -12.89560000
51.72930000 -21.77550000 -10.48270000
52.19950000 -21.61630000 -8.03340000
50.51010000 -23.37200000 -10.13470000
50.98630000 -23.22220000 -7.75670000
51.34590000 -23.11120000 -5.34730000
50.03530000 -24.60490000 -5.12000000
49.67830000 -24.71320000 -7.44130000
50.22450000 -24.52620000 -2.77490000
48.62460000 -26.00420000 -4.86760000
48.80680000 -25.93880000 -2.62960000
48.85760000 -25.95790000 -0.37750000
47.30490000 -27.27080000 -2.49910000
47.31680000 -27.26400000 -0.36380000
47.22580000 -27.32930000 1.79240000
45.68820000 -28.45680000 -0.40780000
45.57460000 -28.55070000 1.62530000
45.33790000 -28.63730000 3.63050000
43.86020000 -29.69790000 1.36000000
43.60860000 -29.80170000 3.24190000
43.25830000 -29.87540000 5.15090000
41.83780000 -30.89120000 2.71770000
41.50500000 -30.98500000 4.55000000
41.08840000 -31.08340000 6.40840000
39.72650000 -31.96140000 3.78570000
39.35770000 -32.12290000 5.59760000
38.86720000 -32.21260000 7.44690000
37.57190000 -32.93550000 4.67370000
37.11610000 -33.05100000 6.48150000
36.56040000 -33.16340000 8.32990000
35.39470000 -33.78070000 5.42380000
34.81060000 -33.79780000 7.22990000
34.17400000 -33.91160000 9.05910000
33.15590000 -34.51260000 6.09890000
32.51200000 -34.58920000 7.90770000
31.78640000 -34.65300000 9.73230000
30.86500000 -35.13780000 6.73150000
30.15970000 -35.22780000 8.54620000
29.38510000 -35.29200000 10.37100000
28.56280000 -35.75190000 7.35790000
27.79330000 -35.83800000 9.17230000
26.96190000 -35.87600000 11.00100000
26.20990000 -36.23450000 7.96570000
25.38610000 -36.30910000 9.78640000
24.51470000 -36.36850000 11.61120000
23.84120000 -36.73100000 8.58620000
22.95260000 -36.75050000 10.40560000
22.03080000 -36.81210000 12.22400000
21.44530000 -37.17280000 9.22520000
20.50670000 -37.19490000 11.05130000
19.50190000 -37.19750000 12.83780000
19.02040000 -37.54720000 9.89670000
17.99190000 -37.54380000 11.65570000
16.74260000 -37.59020000 13.19670000
16.52160000 -37.88730000 10.46250000
15.24260000 -37.92340000 11.91830000
13.75890000 -37.92720000 13.23840000
13.78770000 -38.27220000 10.69610000
12.28790000 -38.32230000 12.01890000
10.74930000 -38.33230000 13.28790000
10.81670000 -38.67140000 10.83120000
9.24450000 -38.70840000 12.07030000
7.68700000 -38.66620000 13.25990000
7.71410000 -39.02940000 10.86240000
6.12200000 -38.99860000 12.03630000
4.59970000 -39.00230000 13.18550000
4.51640000 -39.31590000 10.83300000
2.92620000 -39.23290000 11.95270000
1.46990000 -39.08820000 13.05550000
1.18920000 -39.47430000 10.73370000
-0.30760000 -39.26630000 11.81670000
-1.61320000 -39.07150000 12.95550000
-2.20150000 -39.38790000 10.59210000
-3.45230000 -39.19820000 11.74460000
-4.52890000 -38.91560000 13.01650000
-5.46050000 -39.17030000 10.51890000
-6.34910000 -38.93670000 11.94250000
-7.20590000 -38.69880000 13.37700000
-8.35070000 -38.90640000 11.03320000
-8.96130000 -38.63330000 12.48010000
-9.69250000 -38.39660000 13.89700000
-10.92230000 -38.53230000 11.69990000
-11.42210000 -38.28820000 13.07160000
-11.93260000 -38.01470000 14.41090000
-13.38760000 -38.12390000 12.53020000
-13.61760000 -37.85730000 13.79950000
-13.84870000 -37.60600000 15.08800000
-15.47680000 -37.60350000 13.45820000
-15.53160000 -37.42720000 14.77230000
-15.62830000 -37.25980000 16.02290000
-17.26880000 -37.20310000 14.57500000
-17.47270000 -37.28680000 13.39400000
-19.55640000 -36.93010000 13.48040000
-19.29190000 -36.84160000 14.71060000
-21.64480000 -36.54790000 13.66650000
-21.29450000 -36.41790000 15.00490000
-23.71340000 -36.13580000 13.92460000
-23.31550000 -36.02980000 15.33310000
-22.84130000 -35.96030000 16.74110000
-25.31000000 -35.60360000 15.72740000
-24.79470000 -35.55610000 17.21380000
-24.21570000 -35.42500000 18.67510000
-26.74380000 -35.05350000 17.72020000
-26.11140000 -34.99760000 19.26430000
-25.38820000 -34.87600000 20.77210000
-27.99670000 -34.41100000 19.84840000
-27.23270000 -34.29570000 21.43260000
-26.36260000 -34.16710000 22.97650000
-29.06930000 -33.63680000 22.09720000
-28.11970000 -33.45800000 23.70850000
-27.14250000 -33.40130000 25.30920000
-29.90600000 -32.79240000 24.46980000
-28.86340000 -32.62110000 26.10900000
-27.73600000 -32.52450000 27.71660000
-30.56320000 -31.80650000 26.91090000
-29.37680000 -31.67100000 28.58050000
-28.07860000 -31.55410000 30.17810000
-30.97120000 -30.71830000 29.44030000
-29.63310000 -30.59850000 31.09790000
-28.21240000 -30.43820000 32.66390000
-31.13430000 -29.50790000 31.98220000
-29.67800000 -29.35770000 33.60730000
