30.84970000 -30.51570000 -66.15380000
33.05750000 -30.49830000 -65.24190000
46.20890000 -33.84260000 -4.46470000
19.26750000 -34.59310000 3.80180000
19.83160000 -34.61770000 2.04980000
21.20660000 -34.60050000 3.68770000
58.16840000 -32.07720000 -39.95160000
56.93530000 -32.17190000 -40.24660000
57.96360000 -32.00230000 -41.37530000
6.41550000 -34.08890000 -37.70900000
7.46860000 -34.02630000 -38.89460000
7.88160000 -34.20360000 -36.27030000
11.78680000 -31.93040000 -59.81360000
11.95810000 -31.76360000 -61.15850000
12.47700000 -31.91240000 -59.96580000
65.34270000 -30.31160000 -41.19130000
63.90160000 -30.11290000 -43.43260000
65.62360000 -29.35690000 -41.94050000
31.33060000 -34.83610000 -4.14210000
31.95060000 -34.80980000 -5.35460000
32.85360000 -34.86740000 -2.45950000
25.51340000 -34.28270000 -21.19940000
27.25780000 -34.21220000 -21.72060000
27.43420000 -34.21630000 -20.63230000
55.82120000 -33.32550000 -15.94530000
55.58530000 -33.28690000 -17.74040000
57.11810000 -33.17870000 -17.29480000
67.06820000 -32.58090000 -22.13000000
66.59300000 -32.57290000 -23.38200000
67.43870000 -32.47770000 -24.47780000
50.95520000 -31.79800000 -49.74380000
48.68210000 -31.68830000 -51.43520000
49.46200000 -31.78480000 -50.33620000
27.22610000 -32.46030000 -50.44400000
28.21420000 -32.27400000 -51.75540000
29.51890000 -32.24530000 -51.36180000
26.62480000 -32.73280000 -47.27340000
27.12530000 -32.54360000 -49.16580000
27.81540000 -32.65940000 -47.54700000
13.88360000 -32.61540000 -54.04610000
14.05570000 -32.46450000 -55.21780000
15.16740000 -32.57080000 -54.15730000
32.50040000 -34.86260000 0.66740000
34.23360000 -34.74900000 1.25450000
35.56780000 -34.40480000 -14.73350000
33.77550000 -34.49590000 -13.95680000
34.51120000 -34.43140000 -16.68600000
45.75090000 -33.56900000 -20.21160000
47.36240000 -33.48150000 -19.63080000
46.59470000 -33.63310000 -18.51490000
6.96720000 -33.20330000 -48.78520000
5.50780000 -33.06220000 -50.00740000
6.83180000 -33.10690000 -49.85120000
38.95020000 -33.06540000 -36.77200000
39.48470000 -33.00060000 -38.06880000
40.35620000 -32.98680000 -36.89260000
42.16640000 -32.51500000 -44.70330000
41.24120000 -32.40150000 -46.70230000
42.77380000 -32.41290000 -46.27540000
14.47840000 -34.05490000 -34.74690000
14.48020000 -33.92950000 -35.91790000
15.99190000 -33.97300000 -34.20810000
19.14580000 -34.54090000 -13.73070000
18.99160000 -34.51510000 -15.86800000
21.01120000 -34.50370000 -16.07760000
63.32460000 -32.80650000 -19.56610000
64.48760000 -32.73160000 -21.41640000
64.90250000 -32.75130000 -19.79400000
34.66840000 -31.95970000 -52.68680000
35.20880000 -31.75320000 -54.51710000
35.56080000 -31.90190000 -52.92380000
36.56550000 -31.69030000 -54.64710000
36.59530000 -31.46830000 -56.31940000
38.02460000 -31.61060000 -55.00390000
15.10940000 -30.14350000 -71.18420000
16.08360000 -29.58800000 -71.66410000
17.66970000 -30.19140000 -70.91780000
15.08840000 -31.17510000 -66.14920000
15.72030000 -31.06250000 -67.03770000
15.95900000 -31.20080000 -65.77450000
65.27540000 -32.22310000 -31.18740000
64.10500000 -32.24350000 -32.16980000
65.36560000 -32.08070000 -32.74030000
45.79450000 -32.96980000 -31.86390000
46.98520000 -32.79210000 -33.56620000
47.22080000 -32.86000000 -32.09880000
20.55550000 -33.44040000 -41.41970000
18.29910000 -33.54480000 -41.37480000
19.05560000 -33.32900000 -42.98790000
17.54590000 -33.83410000 -36.71510000
19.06430000 -33.69290000 -37.62070000
18.49690000 -33.81640000 -36.08130000
69.94890000 -29.73480000 -34.89150000
68.27850000 -30.29150000 -36.82700000
69.37740000 -28.51260000 -37.29180000
16.98140000 -32.78970000 -50.88820000
16.70040000 -32.61890000 -52.64180000
18.05920000 -32.76310000 -50.79310000
22.28520000 -32.42870000 -53.59100000
21.94920000 -32.38030000 -55.17660000
23.00450000 -32.27300000 -55.13870000
42.36150000 -33.53220000 -25.37200000
42.94030000 -33.38910000 -27.35840000
44.11100000 -33.39570000 -25.82520000
24.78830000 -34.07160000 -27.38110000
26.34160000 -33.94280000 -28.72300000
27.42520000 -34.03750000 -27.50310000
70.24180000 -32.30830000 -22.39120000
69.54600000 -32.34160000 -23.27230000
71.31060000 -32.07760000 -23.38870000
72.64440000 -29.59130000 -30.22270000
71.47680000 -30.23190000 -31.65440000
72.26130000 -28.97160000 -32.00560000
30.79390000 -34.59370000 -8.68280000
28.30580000 -34.55390000 -9.53320000
30.85450000 -34.46440000 -11.09880000
14.80660000 -34.66370000 -1.52640000
17.42600000 -34.71430000 -1.78730000
9.47590000 -34.54860000 -24.33560000
8.73610000 -34.67400000 -22.74870000
52.67250000 -33.33800000 -19.54450000
53.74190000 -33.27880000 -20.11020000
54.07090000 -33.32400000 -18.37250000
51.93530000 -32.75510000 -29.22250000
53.76530000 -32.60860000 -29.78920000
53.04400000 -32.79610000 -27.70740000
55.89660000 -32.06940000 -42.69440000
55.83250000 -31.89650000 -44.47750000
57.28020000 -31.81770000 -43.84860000
56.89130000 -33.51290000 -9.39200000
54.36030000 -33.59830000 -9.81840000
56.55100000 -33.43410000 -11.20430000
66.46790000 -32.95010000 -13.27000000
67.38470000 -32.89020000 -13.55940000
42.52620000 -33.97430000 -7.85240000
43.46510000 -33.86240000 -8.84350000
44.73710000 -33.79930000 -7.68870000
40.12500000 -34.01640000 -15.56230000
38.81880000 -34.10020000 -16.92210000
40.87460000 -33.92610000 -16.95110000
47.47070000 -32.62370000 -37.07880000
48.30440000 -32.52740000 -37.52520000
48.80350000 -32.53200000 -36.43190000
44.69860000 -32.37940000 -45.53100000
43.95890000 -32.36060000 -46.85450000
44.83030000 -32.38510000 -46.35890000
14.80010000 -33.56960000 -43.01790000
15.97640000 -33.54800000 -43.64270000
15.67970000 -33.60490000 -42.32760000
9.74390000 -33.77230000 -42.68630000
8.20570000 -33.71270000 -44.20950000
9.91200000 -33.55100000 -44.75200000
5.21720000 -31.80020000 -61.95270000
5.80540000 -31.68130000 -62.98370000
6.36920000 -31.75660000 -62.15850000
35.14060000 -32.13030000 -50.13930000
36.73610000 -31.93890000 -51.36470000
36.73010000 -32.07520000 -49.57510000
42.78030000 -32.10220000 -49.60150000
43.50760000 -32.10090000 -49.99810000
44.47610000 -32.02150000 -49.05030000
31.47490000 -32.83200000 -42.63810000
31.01840000 -32.77700000 -43.31130000
32.47010000 -32.85360000 -42.51790000
35.81300000 -32.23890000 -48.78010000
24.80680000 -34.23640000 -23.65990000
24.00610000 -34.22090000 -24.98910000
25.60520000 -34.14210000 -25.60300000
14.42450000 -34.38450000 -25.67510000
14.41580000 -34.36800000 -27.51420000
15.84300000 -34.36650000 -27.13070000
21.12210000 -32.42090000 -53.45710000
20.04500000 -32.39560000 -54.56160000
14.60910000 -31.53330000 -62.76710000
14.52070000 -31.34840000 -64.24290000
15.25800000 -31.44990000 -63.26670000
54.92700000 -32.59990000 -29.58920000
55.32520000 -32.56200000 -30.56410000
56.07760000 -32.66200000 -28.85540000
66.36420000 -32.55740000 -24.45370000
66.61540000 -32.46430000 -26.04970000
22.74460000 -34.54000000 -12.70250000
21.12530000 -34.53030000 -14.08610000
23.04110000 -34.48840000 -14.69720000
23.53310000 -34.56280000 -8.31520000
24.97240000 -34.55040000 -10.05500000
24.99480000 -34.65860000 -8.11590000
36.75910000 -33.82800000 -27.46740000
35.33410000 -33.81240000 -28.49200000
37.80020000 -33.66280000 -29.08330000
34.91740000 -33.53380000 -35.93740000
36.23800000 -33.48560000 -35.65010000
35.51660000 -33.63370000 -33.72040000
38.12790000 -34.53460000 -4.62560000
37.57280000 -34.54920000 -6.70510000
38.76220000 -34.44250000 -6.29790000
58.59290000 -32.51540000 -31.15270000
59.88290000 -32.38680000 -32.58270000
59.56860000 -32.55170000 -30.22070000
53.05770000 -32.44660000 -36.46800000
54.24690000 -32.39770000 -37.64080000
55.13000000 -32.36120000 -37.06270000
52.10230000 -31.50270000 -50.34140000
35.20820000 -31.40450000 -57.29720000
35.00890000 -31.30290000 -58.53100000
36.23990000 -31.31480000 -57.54760000
26.88990000 -31.39490000 -61.47140000
26.27560000 -31.26540000 -62.82870000
27.55230000 -31.23420000 -62.95010000
5.86700000 -32.37800000 -56.77060000
7.21830000 -32.37990000 -56.70140000
6.58160000 -32.45240000 -56.08060000
7.84850000 -32.68380000 -53.91240000
8.16580000 -32.50400000 -55.61400000
9.45080000 -32.57240000 -54.91990000
48.00770000 -32.28940000 -44.09730000
49.57870000 -32.18010000 -44.72650000
50.42040000 -32.23300000 -43.08550000
52.54170000 -32.06110000 -44.59820000
52.21650000 -31.87550000 -46.63090000
53.54120000 -31.83280000 -46.43980000
41.88090000 -31.64010000 -54.74560000
67.92380000 -31.74030000 -32.63010000
67.66530000 -31.51290000 -34.54600000
69.14130000 -31.31990000 -33.14090000
71.98260000 -31.69670000 -25.77470000
72.35930000 -31.27040000 -26.97600000
72.82530000 -31.22630000 -26.19070000
54.74490000 -33.55870000 -11.30470000
53.55540000 -33.51040000 -13.26760000
55.57550000 -33.47740000 -12.32130000
44.15100000 -33.79520000 -10.49400000
44.65030000 -33.70990000 -12.48320000
45.46930000 -33.76550000 -10.70580000
13.51390000 -30.59760000 -70.13080000
13.30060000 -30.32520000 -71.05140000
15.04680000 -30.64400000 -70.02170000
8.91900000 -31.53530000 -63.71850000
8.04360000 -31.47610000 -64.34330000
9.10550000 -31.36470000 -65.02980000
40.12660000 -33.03350000 -39.11940000
40.58080000 -32.83640000 -41.96270000
41.93640000 -32.74200000 -40.26130000
33.18650000 -33.06490000 -43.90950000
35.08800000 -33.02110000 -43.43910000
33.38450000 -32.99950000 -41.80780000
34.99340000 -33.96450000 -25.98510000
36.53210000 -34.34360000 -15.26070000
35.62220000 -34.38500000 -17.44970000
37.14000000 -34.23450000 -17.32000000
30.01660000 -30.21750000 -67.12080000
30.19640000 -29.75430000 -67.52610000
31.56380000 -30.22800000 -66.48580000
16.54290000 -30.42920000 -70.56660000
74.07360000 -32.35830000 -16.74750000
74.90530000 -32.11900000 -17.17580000
37.07540000 -31.05530000 -60.00280000
36.60310000 -30.88580000 -61.48700000
37.92340000 -30.80440000 -61.46730000
21.34670000 -33.19450000 -44.86280000
20.47490000 -33.08020000 -46.71430000
21.54740000 -32.99370000 -47.51800000
17.45360000 -31.48760000 -60.68290000
17.96430000 -31.54390000 -61.89140000
18.67500000 -31.51200000 -61.35620000
24.89760000 -31.59780000 -60.49690000
25.39730000 -31.37300000 -62.19260000
26.20500000 -31.48150000 -60.95080000
53.09350000 -33.73190000 -7.89560000
54.25220000 -33.70130000 -7.20790000
53.55880000 -33.79410000 -6.40730000
9.18090000 -34.51760000 -25.70510000
10.01150000 -34.43190000 -26.91230000
10.62700000 -34.45320000 -25.92030000
6.70710000 -34.19780000 -36.12860000
29.06510000 -32.92970000 -42.02320000
27.89350000 -32.89550000 -43.23970000
29.30760000 -32.83190000 -43.31450000
21.51310000 -33.28740000 -42.10240000
2.71140000 -32.47640000 -55.89630000
0.71790000 -31.51560000 -64.74110000
0.15830000 -31.39560000 -65.67990000
1.47050000 -31.36640000 -65.90210000
20.91320000 -34.70340000 -5.67390000
23.01460000 -34.70920000 -4.29640000
22.06180000 -34.71900000 -3.51180000
31.39460000 -34.84450000 -2.44790000
9.11580000 -33.26880000 -47.84390000
8.35910000 -33.23860000 -48.50000000
9.71500000 -33.16430000 -49.00380000
15.20480000 -33.05320000 -48.30140000
15.60080000 -32.88810000 -49.71300000
16.35010000 -32.99830000 -48.77000000
41.99820000 -32.82340000 -39.13490000
41.29560000 -32.91890000 -38.13570000
47.72480000 -32.52420000 -39.76500000
47.96150000 -32.41940000 -41.39010000
48.37870000 -32.45080000 -40.21650000
54.47120000 -30.69980000 -52.41600000
52.73370000 -31.28670000 -51.10320000
53.74290000 -31.19590000 -51.22240000
24.83040000 -31.78340000 -58.54290000
25.88810000 -31.69240000 -59.04150000
25.91780000 -31.80150000 -57.98960000
30.88720000 -32.04170000 -53.30980000
32.64280000 -31.91560000 -54.08110000
32.37020000 -32.04720000 -52.59730000
12.94660000 -34.74860000 -14.64730000
11.33420000 -34.75180000 -16.74670000
72.85140000 -32.54410000 -15.88530000
72.01540000 -32.56290000 -16.76860000
73.35150000 -32.29850000 -18.25030000
31.63100000 -33.65010000 -34.32710000
33.20180000 -33.60970000 -36.08300000
32.79390000 -33.70240000 -34.03200000
29.87700000 -33.93170000 -28.56290000
29.11680000 -33.99480000 -27.79890000
28.08600000 -33.92390000 -28.85100000
20.68560000 -34.30180000 -25.12890000
21.84170000 -34.24770000 -25.38270000
21.51110000 -34.31530000 -23.39470000
19.67810000 -34.49950000 -18.17550000
19.08880000 -34.45390000 -20.33010000
21.17110000 -34.45150000 -20.03270000
59.82820000 -32.95410000 -19.48640000
60.64250000 -32.85780000 -20.89350000
62.10250000 -32.82800000 -20.18880000
56.93750000 -32.98490000 -23.94660000
58.40090000 -32.95960000 -24.64650000
58.14390000 -32.97060000 -23.22370000
36.21140000 -34.45790000 -10.07330000
34.38590000 -34.54250000 -11.45220000
36.55450000 -34.45060000 -11.46680000
39.41090000 -34.20190000 -9.79500000
40.13520000 -34.19190000 -8.72680000
38.54520000 -34.42600000 -8.78460000
3.98830000 -33.38330000 -46.86110000
3.65950000 -33.21730000 -48.61390000
4.40940000 -33.32890000 -47.68150000
8.30180000 -33.86810000 -43.02310000
9.33790000 -31.19130000 -66.51360000
8.30720000 -31.10160000 -67.37730000
9.27280000 -30.96030000 -68.01380000
1.23800000 -31.07440000 -68.25780000
0.14020000 -30.98780000 -68.87790000
0.62320000 -30.78290000 -70.09440000
62.01400000 -32.18610000 -33.95480000
60.58880000 -32.24390000 -34.29550000
61.80580000 -32.10930000 -35.16870000
61.08600000 -31.93420000 -38.44380000
61.98410000 -31.74990000 -39.16200000
62.20000000 -31.82980000 -38.20390000
34.00020000 -32.82800000 -45.61770000
34.59620000 -32.67180000 -46.49180000
35.31710000 -32.87880000 -45.48570000
38.08810000 -32.52990000 -46.20200000
38.38470000 -32.32050000 -47.60820000
39.41330000 -32.50290000 -45.68890000
26.24040000 -33.45540000 -36.81610000
24.75880000 -33.46860000 -37.70880000
26.11830000 -33.53480000 -37.31780000
24.16630000 -33.32380000 -40.05350000
24.68510000 -33.09720000 -42.25310000
25.48410000 -33.16290000 -40.63370000
52.93490000 -33.23040000 -22.74910000
52.03180000 -33.13950000 -23.80390000
53.89420000 -33.10150000 -23.00850000
43.62930000 -33.52650000 -23.88930000
45.43910000 -33.41390000 -23.85770000
44.79730000 -33.73800000 -16.37630000
44.74090000 -33.67280000 -18.66300000
46.38190000 -33.62690000 -17.85550000
48.50430000 -33.66110000 -10.68210000
47.19460000 -33.63360000 -13.39830000
48.79770000 -33.66210000 -12.95850000
63.74670000 -31.32700000 -40.29880000
64.89580000 -30.84520000 -40.70760000
64.91550000 -31.21440000 -39.31180000
58.88700000 -31.44440000 -45.59320000
58.19360000 -31.36220000 -46.54770000
59.18170000 -31.16540000 -46.64030000
22.09270000 -30.99800000 -66.63230000
21.10940000 -30.99030000 -66.83050000
21.47490000 -30.81710000 -68.08260000
19.81540000 -30.24660000 -70.31760000
20.74740000 -29.85110000 -70.70540000
21.05220000 -30.48280000 -69.55760000
22.70980000 -33.76600000 -34.50100000
20.31490000 -34.27310000 -25.70170000
20.89590000 -34.20290000 -27.08600000
60.14490000 -33.01130000 -17.26520000
60.09640000 -32.96050000 -18.49450000
61.01610000 -32.92860000 -18.01780000
61.38330000 -33.19030000 -11.42170000
62.43920000 -33.19070000 -11.11570000
27.56010000 -34.52090000 -10.53950000
28.83840000 -34.50410000 -10.71900000
33.49720000 -34.38990000 -16.86840000
32.05590000 -34.39110000 -15.69710000
32.46930000 -34.34980000 -17.03930000
9.55330000 -34.06740000 -37.94030000
11.58150000 -34.05610000 -36.42060000
10.44220000 -34.20210000 -34.94200000
11.18280000 -33.88090000 -41.12830000
11.87700000 -33.81030000 -41.98490000
12.80990000 -33.87270000 -41.02700000
33.46250000 -33.09880000 -40.87010000
35.85250000 -32.94350000 -42.12310000
35.48250000 -33.15030000 -40.11110000
32.77890000 -33.51760000 -36.92220000
24.77530000 -34.74920000 -2.30600000
24.47510000 -34.76500000 -3.08270000
25.63810000 -34.75470000 -3.34750000
25.50570000 -34.71300000 3.61530000
25.70720000 -34.71770000 1.27820000
28.07410000 -34.78720000 1.16070000
3.36060000 -30.57710000 -70.83840000
3.74690000 -30.13960000 -71.49270000
5.67460000 -30.22270000 -71.37410000
31.39350000 -31.92670000 -54.52030000
30.50080000 -31.75120000 -56.27300000
31.95290000 -31.71420000 -55.58130000
30.59870000 -31.44830000 -59.31400000
31.79920000 -31.28100000 -60.44930000
31.78200000 -31.40310000 -59.31110000
47.30710000 -32.35210000 -44.79130000
48.06160000 -32.11640000 -45.95150000
17.52870000 -34.48250000 4.60040000
15.34340000 -34.60030000 1.56440000
17.97390000 -34.63020000 1.47880000
17.59250000 -31.86790000 -58.68910000
17.32670000 -31.60190000 -59.82490000
18.73680000 -31.90680000 -58.52200000
13.91240000 -32.27370000 -56.51150000
13.94590000 -32.17660000 -57.47350000
15.21970000 -32.25830000 -56.55500000
60.87890000 -32.45530000 -31.80030000
61.46460000 -32.85880000 -25.48300000
61.51930000 -32.76970000 -26.81720000
62.70860000 -32.63540000 -27.62590000
52.10280000 -32.44780000 -37.89160000
50.65530000 -32.43520000 -38.93440000
52.98080000 -32.37980000 -38.44890000
50.19060000 -32.15210000 -44.78270000
51.86380000 -32.19750000 -43.16070000
40.11400000 -30.44250000 -61.97090000
41.00750000 -29.72340000 -62.66230000
41.30840000 -30.74870000 -60.72360000
39.66720000 -31.32350000 -58.68940000
69.60010000 -30.49570000 -34.34790000
66.81240000 -31.55400000 -35.38020000
67.03780000 -31.22200000 -36.69670000
68.15680000 -30.90180000 -35.88800000
39.74240000 -31.77360000 -51.29770000
39.21880000 -31.70640000 -52.40410000
40.82320000 -31.71900000 -51.70530000
43.65940000 -31.97780000 -51.37320000
54.64920000 -31.03480000 -51.22520000
53.88050000 -31.01830000 -51.96090000
56.43630000 -31.25560000 -48.83030000
56.51780000 -30.83770000 -50.16320000
57.78750000 -30.73620000 -49.13990000
39.78250000 -34.41190000 -1.27990000
40.54360000 -34.34510000 -2.47350000
43.74150000 -34.11600000 -2.36270000
42.66990000 -34.17260000 -3.64920000
44.26790000 -33.96830000 -4.87280000
27.85090000 -32.73860000 -46.35290000
28.61020000 -32.71570000 -46.69130000
29.18650000 -32.67930000 -46.02380000
32.64370000 -32.41870000 -47.86860000
32.82420000 -32.31800000 -49.41120000
33.43150000 -32.36260000 -48.11340000
75.59920000 -31.29790000 -18.67230000
74.90990000 -31.49120000 -20.26470000
75.80470000 -30.54280000 -20.08630000
15.30790000 -34.74220000 -9.62750000
16.55540000 -34.73740000 -10.61460000
17.18420000 -34.72800000 -8.76020000
20.20150000 -34.67200000 -8.90010000
19.98770000 -34.65990000 -10.24590000
21.78500000 -34.60000000 -10.71500000
41.88490000 -33.16940000 -32.33790000
42.34430000 -33.06340000 -33.69600000
43.67840000 -33.10280000 -32.06220000
39.49500000 -33.68600000 -26.70960000
39.07140000 -33.55660000 -28.73930000
40.82580000 -33.46520000 -28.30480000
20.15910000 -31.57300000 -61.41190000
18.97290000 -31.52690000 -62.18090000
20.12810000 -31.48690000 -62.55020000
22.31850000 -31.17240000 -65.14690000
20.81530000 -31.10260000 -66.01630000
47.26530000 -33.62550000 -11.60100000
47.22900000 -33.73450000 -5.48790000
49.25870000 -33.77540000 -5.47500000
60.87530000 -32.58600000 -29.96710000
61.26190000 -32.48670000 -30.77180000
63.55180000 -32.39540000 -30.66340000
51.53210000 -32.59350000 -32.27180000
52.80540000 -32.56060000 -31.73470000
51.36210000 -32.68870000 -30.64670000
55.31910000 -32.41580000 -34.63870000
54.13420000 -32.44210000 -35.69970000
56.71840000 -32.35020000 -35.19610000
17.33610000 -33.31550000 -45.47410000
15.59730000 -33.24730000 -46.25240000
17.19040000 -33.18440000 -46.61090000
19.80210000 -33.03470000 -48.10780000
20.95330000 -32.97390000 -47.72830000
5.45400000 -33.88440000 -40.34280000
6.51280000 -33.96940000 -40.98220000
6.73610000 -33.93160000 -39.58040000
4.32010000 -33.57500000 -44.90810000
4.98630000 -33.61720000 -44.36930000
16.73850000 -34.54360000 -19.18330000
15.30630000 -34.50030000 -21.03960000
16.76090000 -34.45820000 -21.86510000
13.16500000 -34.40360000 -25.34920000
13.32080000 -34.40930000 -26.71820000
12.46610000 -32.34600000 -56.43810000
12.15880000 -32.20240000 -57.40660000
13.05470000 -32.16320000 -57.44480000
6.09230000 -32.23050000 -57.84970000
6.91250000 -32.08750000 -58.97610000
7.45350000 -32.25790000 -57.53880000
60.35680000 -33.30710000 -10.45580000
71.25250000 -31.96340000 -24.86910000
72.63140000 -31.70590000 -24.35820000
72.66420000 -31.89630000 -23.06810000
75.14110000 -30.95470000 -21.16140000
32.50910000 -29.77450000 -66.55270000
38.33300000 -30.39380000 -62.87940000
39.50070000 -29.94930000 -63.15440000
39.30100000 -30.33850000 -62.57800000
37.14480000 -34.15930000 -21.10900000
35.77000000 -34.19080000 -22.36010000
37.68240000 -33.98970000 -23.15550000
33.41790000 -31.03460000 -62.14300000
34.22780000 -30.83640000 -63.01910000
34.43280000 -31.05250000 -61.42950000
32.74020000 -31.21600000 -60.69780000
33.98820000 -31.13860000 -61.24140000
33.36230000 -31.29030000 -59.90960000
2.40350000 -32.80600000 -52.98250000
2.37220000 -32.60510000 -54.74010000
3.63690000 -32.75590000 -53.47980000
57.47400000 -33.01880000 -21.82650000
57.26970000 -33.02800000 -22.55940000
58.04270000 -32.92990000 -22.39260000
52.80670000 -33.25090000 -21.44500000
54.87590000 -33.16150000 -21.44570000
11.92430000 -32.64200000 -53.09660000
10.74800000 -32.62260000 -53.90900000
11.86630000 -32.60590000 -54.40250000
11.14150000 -33.08580000 -49.66430000
11.69080000 -32.96040000 -50.55220000
12.79570000 -32.92850000 -50.62230000
31.48020000 -34.11960000 -24.78220000
32.36570000 -34.02800000 -26.55160000
33.03410000 -34.06830000 -24.60580000
30.21780000 -34.24070000 -20.02460000
32.22820000 -34.21220000 -21.61030000
31.77100000 -34.28470000 -19.89570000
40.34400000 -31.32420000 -57.46310000
39.27150000 -31.26540000 -57.39320000
40.96880000 -31.32080000 -56.37770000
41.46440000 -31.47880000 -55.71920000
0.85040000 -31.68660000 -63.32190000
66.65260000 -32.84270000 -15.67690000
65.22520000 -32.81030000 -16.85830000
66.68210000 -32.75460000 -17.19450000
71.03790000 -32.55650000 -17.75310000
71.82840000 -32.36080000 -19.50540000
72.39940000 -32.37960000 -18.57200000
24.15080000 -34.42680000 -16.44460000
26.40560000 -34.35760000 -16.83840000
26.02560000 -34.40840000 -14.88330000
27.03660000 -34.45120000 -12.39830000
25.57210000 -34.45430000 -12.83400000
27.73150000 -34.39770000 -14.39740000
52.83320000 -33.43890000 -16.72120000
51.88900000 -33.42570000 -17.78830000
54.11870000 -33.37860000 -17.42580000
46.02810000 -33.69250000 -15.26490000
47.50440000 -33.67510000 -14.93020000
7.73450000 -34.42700000 -31.13650000
7.74740000 -34.33120000 -32.98380000
15.20110000 -34.20480000 -30.78250000
17.06910000 -34.22200000 -29.52270000
14.50950000 -34.26080000 -29.48680000
23.75540000 -31.60720000 -60.65700000
22.45680000 -31.55920000 -61.21020000
23.98100000 -31.52520000 -61.64610000
19.83870000 -32.23540000 -57.59870000
19.84780000 -31.91810000 -59.04170000
20.86140000 -32.17070000 -58.36430000
45.18520000 -32.54770000 -41.04120000
46.34290000 -32.51910000 -41.52900000
45.75790000 -32.57170000 -40.25120000
41.63080000 -32.80550000 -41.88560000
41.21410000 -32.62450000 -43.99920000
42.71360000 -32.62610000 -42.76650000
13.44400000 -33.11500000 -48.46320000
14.25520000 -32.93360000 -49.45520000
14.38880000 -33.06860000 -48.53730000
11.02310000 -33.70320000 -43.15530000
11.21760000 -33.54830000 -44.36270000
11.77180000 -33.62680000 -43.93080000
19.44480000 -34.09400000 -30.42080000
18.72170000 -33.94950000 -32.12780000
21.52920000 -33.99390000 -31.63810000
16.62530000 -34.14800000 -30.64580000
15.47660000 -34.08630000 -31.39970000
16.95730000 -33.95240000 -32.58320000
17.64330000 -34.49370000 6.26970000
15.77600000 -33.96330000 5.93050000
14.90080000 -34.42460000 7.90250000
14.15100000 -34.22350000 5.52110000
15.78770000 -33.88550000 -36.32630000
16.81870000 -33.55360000 -41.61970000
18.17600000 -33.36820000 -42.46630000
14.03790000 -31.14490000 -66.48320000
14.13810000 -30.99840000 -67.86800000
15.33510000 -30.95980000 -67.97430000
9.97710000 -31.37490000 -64.67880000
10.55200000 -31.52690000 -63.08580000
1.16300000 -32.19010000 -58.38590000
2.16030000 -32.07120000 -59.43400000
2.92490000 -32.30190000 -57.39450000
5.83570000 -32.08600000 -59.05100000
6.03120000 -31.99620000 -59.97670000
23.20820000 -29.76010000 -70.13790000
24.63260000 -29.89560000 -69.49220000
23.07210000 -30.17010000 -69.67200000
47.68110000 -33.39930000 -21.15840000
46.63310000 -33.49400000 -20.96870000
47.35500000 -33.36490000 -22.27850000
49.27900000 -33.25450000 -23.21600000
48.70740000 -33.22070000 -24.37620000
50.66840000 -33.12620000 -24.52890000
22.71170000 -32.81960000 -48.49190000
23.17100000 -32.93070000 -46.79170000
21.57460000 -32.73270000 -50.23450000
21.14670000 -32.66030000 -51.34910000
22.49140000 -32.62500000 -50.78170000
45.88480000 -31.58200000 -51.54280000
46.73400000 -31.42730000 -52.47300000
47.39940000 -31.57880000 -51.68130000
14.53270000 -34.59240000 -19.35740000
12.85760000 -34.64680000 -20.38750000
13.55740000 -34.70340000 -16.27300000
24.48830000 -33.80810000 -33.00670000
25.89740000 -33.71100000 -34.28980000
26.15010000 -33.74960000 -31.72050000
28.64240000 -33.53490000 -35.86810000
29.79810000 -33.47810000 -37.32690000
30.31660000 -33.62020000 -35.00190000
60.99950000 -32.99650000 -15.74360000
60.24380000 -32.99820000 -16.41560000
61.78020000 -32.95470000 -16.45860000
64.54080000 -32.92690000 -14.96110000
64.81630000 -32.88010000 -16.17720000
65.86930000 -32.85510000 -15.51240000
44.34410000 -32.71830000 -39.22720000
43.38230000 -32.70500000 -40.55630000
44.95550000 -32.61080000 -40.18660000
46.47260000 -32.67330000 -36.13970000
47.12150000 -32.58290000 -36.95350000
47.64510000 -32.64110000 -35.57380000
25.72310000 -33.02270000 -42.80050000
24.52390000 -32.93140000 -45.55330000
23.80870000 -32.80050000 -47.96910000
42.45820000 -30.16280000 -61.60040000
37.58880000 -34.25710000 -14.38090000
39.16910000 -34.09610000 -15.18800000
40.86950000 -34.06040000 -9.50850000
39.51190000 -34.11370000 -11.70300000
41.54780000 -34.00310000 -11.58960000
52.07250000 -32.92200000 -26.41550000
51.82950000 -32.87300000 -27.62200000
47.64010000 -33.14250000 -26.32190000
49.18040000 -33.08220000 -25.89900000
25.22860000 -34.73980000 -5.19450000
26.84760000 -34.75900000 -6.12320000
26.52370000 -34.77230000 -3.68630000
24.39910000 -34.71700000 -6.75740000
67.48170000 -32.30700000 -27.24260000
68.36750000 -32.15820000 -28.03410000
68.70180000 -32.23490000 -26.53630000
70.51050000 -31.76410000 -27.89220000
69.98580000 -31.73530000 -29.08880000
71.23580000 -31.34750000 -28.92990000
37.74130000 -32.38900000 -45.74880000
38.89900000 -32.29370000 -44.66000000
37.88140000 -32.43980000 -43.63840000
36.64850000 -33.07750000 -40.88330000
37.29690000 -32.80260000 -42.73740000
38.81270000 -32.94490000 -41.38810000
60.58310000 -32.06860000 -36.95020000
61.94790000 -31.97950000 -37.17350000
56.35970000 -32.32760000 -36.77370000
55.73970000 -32.33920000 -38.16750000
56.60470000 -32.30760000 -37.92890000
36.06380000 -33.66480000 -30.78590000
35.10570000 -33.62850000 -32.65400000
36.56510000 -33.58000000 -33.16880000
42.35980000 -33.03860000 -34.66010000
40.97920000 -33.19220000 -33.51780000
40.69640000 -33.16630000 -34.82080000
23.22440000 -32.35860000 -53.79690000
24.24570000 -32.42980000 -52.87500000
27.68090000 -31.91470000 -56.66780000
28.91110000 -31.77400000 -57.03320000
27.75810000 -32.00450000 -55.44320000
22.35670000 -34.59650000 5.53090000
23.45650000 -34.65580000 3.34650000
57.34650000 -32.93300000 -24.83580000
57.76830000 -32.87000000 -25.90670000
59.45260000 -32.90490000 -28.36120000
58.67340000 -32.63250000 -29.06190000
60.01110000 -32.62270000 -29.11840000
23.40930000 -32.36600000 -52.36580000
24.38030000 -32.53880000 -51.15930000
22.04780000 -32.50440000 -52.24480000
62.57310000 -32.70710000 -25.68800000
62.31260000 -32.79170000 -21.65240000
14.86200000 -32.11480000 -57.86100000
15.93800000 -32.05870000 -57.93890000
15.87960000 -32.20600000 -57.12790000
18.45580000 -32.55760000 -52.72130000
34.91320000 -33.72210000 -30.28890000
34.76070000 -33.64070000 -31.61350000
31.13910000 -33.79410000 -30.14920000
30.12120000 -33.71500000 -32.09870000
32.13700000 -33.68410000 -31.81640000
40.14060000 -33.85320000 -23.60040000
41.10060000 -33.80600000 -22.80260000
40.04730000 -33.88920000 -21.89000000
42.06510000 -33.79080000 -20.02270000
43.56310000 -33.68390000 -20.17670000
42.18860000 -33.83010000 -17.40580000
27.69310000 -31.71260000 -58.33990000
26.93130000 -31.71280000 -58.36310000
27.35720000 -31.58950000 -59.31860000
30.79370000 -31.55350000 -58.12270000
4.67880000 -30.99900000 -68.77610000
3.91110000 -30.84870000 -69.87110000
6.50610000 -30.67570000 -70.30250000
49.46480000 -31.89200000 -47.27360000
48.55170000 -31.98120000 -48.50400000
50.44960000 -31.87920000 -47.29720000
51.90510000 -32.09280000 -44.36370000
50.70410000 -32.02980000 -45.51330000
51.63770000 -31.95510000 -46.10130000
47.29660000 -32.11360000 -47.12840000
45.99810000 -32.18220000 -47.51170000
47.02930000 -32.08060000 -48.44890000
45.47510000 -31.83200000 -50.61080000
46.03440000 -31.98670000 -49.40670000
26.11460000 -34.75260000 0.21640000
27.65950000 -34.79260000 -0.16400000
30.44300000 -34.82060000 -2.11990000
29.44600000 -34.79970000 -2.39510000
29.90970000 -34.75550000 -3.88440000
39.63310000 -32.21080000 -47.98620000
40.56200000 -32.19320000 -48.23100000
41.23360000 -31.82760000 -50.23460000
10.62730000 -32.02740000 -59.15420000
9.34520000 -31.88110000 -60.66700000
10.44200000 -31.81650000 -61.11180000
8.33080000 -32.20520000 -57.88450000
9.36010000 -32.17210000 -58.09960000
8.72730000 -32.33790000 -56.91000000
24.30270000 -33.86170000 -31.26820000
25.20830000 -33.79260000 -31.80720000
20.56870000 -34.08700000 -29.51270000
21.43690000 -34.02560000 -30.89180000
22.54180000 -34.02820000 -29.73000000
67.69330000 -30.35880000 -37.64380000
65.39540000 -31.03680000 -39.57040000
66.00220000 -30.10060000 -40.53460000
30.62380000 -32.45630000 -48.89840000
31.74350000 -32.33580000 -49.31080000
28.84440000 -32.45990000 -49.55150000
10.87820000 -34.45580000 -29.58210000
11.19660000 -34.31830000 -32.86350000
11.77740000 -34.36050000 -31.00850000
13.54260000 -34.05970000 -34.65420000
59.53850000 -30.12810000 -48.02650000
61.55090000 -30.00380000 -46.11530000
59.96060000 -30.70700000 -46.97250000
59.52890000 -31.48440000 -44.36040000
60.06620000 -31.15390000 -45.76280000
60.84610000 -31.25810000 -44.67310000
12.94480000 -34.75590000 -10.86850000
15.04630000 -34.72670000 -12.30810000
19.74490000 -34.71940000 -3.85330000
18.50240000 -34.69310000 -5.09970000
18.52930000 -34.78390000 -7.20570000
17.82190000 -34.74980000 -7.60340000
18.79610000 -34.72160000 -9.51920000
26.94970000 -33.32820000 -38.17490000
25.58700000 -33.36880000 -37.93540000
26.35810000 -33.25740000 -39.05470000
30.67560000 -32.87050000 -41.43700000
28.11840000 -31.33380000 -61.49390000
28.48070000 -31.17750000 -62.61220000
32.95080000 -30.81860000 -63.66170000
32.50780000 -30.67520000 -64.17190000
34.38540000 -30.67580000 -63.73050000
38.29580000 -34.52580000 -2.13010000
39.45880000 -34.45650000 -3.23700000
39.14310000 -34.43160000 -1.73090000
35.06730000 -34.78000000 -1.40840000
34.26250000 -34.80370000 0.10950000
35.89300000 -34.63160000 -6.85730000
33.20070000 -34.68350000 -7.92810000
32.84000000 -34.67520000 -9.98920000
34.55900000 -34.64490000 -8.80150000
71.76000000 -32.62130000 -15.68730000
29.91340000 -32.63780000 -47.24830000
30.42170000 -32.64080000 -46.11910000
32.55700000 -33.02150000 -43.15660000
8.32000000 -34.53470000 -29.65140000
7.77850000 -34.60060000 -27.43730000
4.69370000 -31.58820000 -63.86520000
4.78880000 -31.42020000 -65.23150000
5.44760000 -31.57280000 -63.96110000
6.13270000 -31.05310000 -68.27090000
6.40920000 -30.84110000 -69.47860000
19.77800000 -32.87730000 -49.16270000
20.85130000 -32.88680000 -49.14780000
18.04760000 -32.95110000 -48.99770000
24.68460000 -30.94110000 -66.37890000
25.80820000 -30.86200000 -66.48970000
25.33060000 -31.02880000 -65.37550000
27.12990000 -30.69470000 -66.93060000
26.24850000 -30.44940000 -68.07520000
27.49740000 -30.05880000 -68.27340000
14.21290000 -33.88110000 -37.99870000
12.99770000 -33.91550000 -38.71760000
14.48300000 -33.83440000 -38.89380000
15.31890000 -33.79050000 -38.39040000
9.15330000 -30.17180000 -71.37290000
8.15890000 -29.15230000 -72.22410000
10.39640000 -29.59570000 -71.93830000
4.13640000 -33.66170000 -43.71430000
36.02220000 -32.55850000 -46.82130000
36.66180000 -32.64010000 -46.48540000
35.92800000 -32.83540000 -45.08360000
37.56350000 -32.53490000 -46.68940000
37.18580000 -32.35610000 -47.59240000
59.07740000 -33.22230000 -13.93420000
58.59800000 -33.17740000 -15.42080000
60.04500000 -33.10870000 -15.23670000
55.47640000 -33.50010000 -11.13000000
68.58700000 -31.95200000 -29.97010000
69.07020000 -31.57880000 -31.82980000
69.87400000 -31.53360000 -30.59000000
69.99240000 -30.87820000 -32.84870000
71.26970000 -29.64090000 -32.81710000
49.12590000 -33.66770000 -9.07280000
50.31270000 -33.65140000 -11.74800000
50.97840000 -33.67380000 -10.22300000
54.46580000 -33.65280000 -8.56160000
2.80690000 -32.89740000 -52.21020000
6.03040000 -32.97530000 -50.82460000
29.75020000 -34.30230000 -14.66080000
31.32140000 -34.31830000 -16.28830000
31.55780000 -34.45610000 -14.29380000
46.39950000 -32.39250000 -45.19060000
45.82230000 -32.46110000 -44.57300000
43.64020000 -32.51170000 -43.45200000
45.67760000 -32.42680000 -42.48830000
44.46000000 -32.41140000 -42.16110000
51.59620000 -32.38470000 -39.68040000
54.84960000 -32.04180000 -43.75610000
49.24820000 -32.77860000 -30.90660000
49.10150000 -32.66710000 -32.75290000
50.37100000 -32.64870000 -32.53980000
49.44650000 -32.57820000 -35.52610000
50.50470000 -32.50590000 -36.98110000
50.68010000 -32.55800000 -34.80210000
10.36510000 -33.08320000 -49.81340000
9.59530000 -33.03490000 -50.71350000
10.73090000 -32.96690000 -50.45980000
7.94450000 -32.85660000 -51.90470000
7.26710000 -32.81270000 -52.63860000
8.61760000 -32.76200000 -53.08690000
11.05530000 -33.51440000 -45.02850000
12.66900000 -33.45620000 -44.94070000
15.91080000 -33.36350000 -45.06500000
14.77470000 -34.40270000 -23.29710000
15.86870000 -34.38410000 -24.28760000
16.69350000 -34.38430000 -23.36220000
19.95390000 -34.34360000 -22.99080000
59.89450000 -31.84130000 -40.59430000
58.97980000 -31.81320000 -42.02210000
60.40310000 -31.64760000 -42.10560000
60.74150000 -31.45560000 -43.16840000
40.43260000 -30.70690000 -60.75750000
40.61030000 -30.94010000 -60.21570000
39.41850000 -31.08840000 -59.12950000
38.35530000 -31.10460000 -58.98740000
38.83540000 -30.94150000 -60.09200000
15.29040000 -31.83400000 -59.81940000
13.31910000 -31.85790000 -60.16370000
12.57740000 -31.73630000 -61.47380000
13.65500000 -31.71960000 -61.37800000
41.37990000 -34.28840000 -3.66220000
39.31900000 -34.34980000 -7.74970000
38.42640000 -34.32470000 -8.08440000
13.85470000 -34.58970000 2.02660000
15.25260000 -34.13230000 4.49500000
13.07150000 -34.72020000 -3.21550000
48.12910000 -33.60000000 -18.46040000
49.03430000 -33.51180000 -18.42980000
46.85740000 -33.67850000 -15.26960000
47.26620000 -33.67180000 -16.18240000
17.31100000 -31.14060000 -65.92920000
18.72870000 -30.98700000 -66.95590000
18.42390000 -31.14560000 -65.51880000
19.09330000 -31.39940000 -63.40530000
20.38950000 -31.33620000 -63.80070000
34.24090000 -34.31160000 -20.54560000
33.17700000 -34.18420000 -23.18000000
35.73360000 -34.27200000 -20.21360000
24.79240000 -31.99560000 -56.80400000
24.39360000 -31.91130000 -57.66980000
25.40790000 -31.85100000 -57.66470000
20.44930000 -31.86020000 -59.54800000
21.69930000 -32.03660000 -59.03780000
39.18720000 -31.70970000 -53.72930000
40.33170000 -31.56590000 -54.97910000
40.94140000 -31.67230000 -54.00280000
38.05840000 -31.74080000 -53.54790000
56.39970000 -32.82370000 -26.07410000
55.35330000 -32.72680000 -27.48190000
56.93030000 -32.69620000 -27.89970000
55.08550000 -33.07950000 -22.51370000
56.51630000 -32.99960000 -23.02100000
55.91890000 -33.09830000 -21.43360000
41.12130000 -34.07950000 -12.67500000
42.10040000 -34.17140000 -14.61840000
42.48090000 -34.22200000 -13.02570000
43.85610000 -33.77670000 -16.66680000
21.24200000 -33.63190000 -37.03850000
23.09380000 -33.38100000 -38.90520000
24.89420000 -33.32280000 -39.47350000
28.34580000 -34.80670000 2.26470000
35.18450000 -33.38240000 -37.80140000
37.20790000 -33.22180000 -38.76740000
37.38000000 -33.37010000 -36.39300000
32.01000000 -31.69590000 -56.42180000
31.02130000 -31.65550000 -56.78460000
32.49520000 -31.50080000 -57.72340000
35.37100000 -31.56040000 -56.06030000
27.38360000 -33.63250000 -32.87110000
28.42810000 -33.48440000 -34.17070000
28.78260000 -33.59710000 -32.91910000
29.73220000 -33.78010000 -30.55370000
58.29630000 -32.23120000 -36.88780000
58.39510000 -32.17650000 -37.95430000
59.53010000 -32.14400000 -36.88240000
57.58000000 -32.38040000 -33.90740000
59.04130000 -32.28960000 -34.03440000
58.59350000 -32.40990000 -32.72260000
65.07360000 -31.86550000 -35.04110000
64.84340000 -31.72300000 -36.37060000
65.85330000 -31.52030000 -36.73560000
63.16230000 -32.12740000 -33.90050000
64.00560000 -31.96770000 -35.11460000
64.77890000 -32.02740000 -33.89320000
69.83930000 -32.62510000 -17.91320000
68.84590000 -32.59630000 -18.87820000
70.46380000 -32.49620000 -19.17440000
65.88820000 -32.69580000 -20.88810000
67.52600000 -32.61860000 -20.65070000
7.86810000 -34.11820000 -43.41820000
7.07710000 -33.90890000 -43.58660000
8.13930000 -33.91670000 -41.78580000
63.45920000 -32.59540000 -26.97750000
64.50200000 -32.59080000 -26.07240000
65.12650000 -32.38770000 -29.03030000
65.56370000 -32.28670000 -30.02900000
15.42400000 -34.63710000 0.34930000
17.88350000 -34.68580000 -0.61220000
24.36440000 -34.73810000 -0.79770000
25.88450000 -34.75710000 -1.10220000
17.25280000 -34.53660000 -14.02590000
17.87390000 -34.54360000 -15.00100000
3.27810000 -32.98030000 -51.28680000
63.12480000 -32.97360000 -15.51390000
64.14040000 -32.86100000 -16.60120000
61.50570000 -33.14370000 -13.28650000
62.41820000 -33.14020000 -12.24240000
25.80180000 -34.72820000 -6.51370000
29.04990000 -34.60120000 -8.49580000
29.68400000 -34.65890000 -7.59930000
49.33590000 -33.00500000 -27.28810000
42.93050000 -34.02250000 -6.11470000
44.40230000 -33.87850000 -6.52050000
46.11980000 -33.72780000 -7.91880000
48.50330000 -33.66580000 -8.24690000
47.53420000 -33.67080000 -6.79750000
11.50540000 -31.31390000 -65.28730000
11.22460000 -31.11920000 -66.77290000
13.04500000 -31.21430000 -65.85760000
13.08550000 -31.61220000 -62.39330000
13.13960000 -31.38190000 -64.18480000
13.95430000 -31.50960000 -63.10490000
52.85020000 -33.55690000 -12.48260000
51.90730000 -33.65690000 -11.05280000
50.27180000 -33.60510000 -14.89090000
50.27890000 -33.56610000 -16.28210000
51.43500000 -33.56430000 -15.09160000
25.48060000 -34.23270000 -22.71350000
26.92790000 -34.21360000 -24.04210000
27.52990000 -34.21080000 -22.76910000
31.22340000 -34.16690000 -23.44070000
43.37750000 -32.72750000 -38.67280000
45.40390000 -32.73430000 -36.35140000
15.38850000 -34.58180000 -19.31190000
14.48200000 -34.61680000 -15.08650000
13.90590000 -34.62710000 -17.10370000
15.68520000 -34.55550000 -16.18500000
6.47730000 -33.75380000 -44.21160000
7.33430000 -33.45630000 -45.92390000
5.60490000 -33.34400000 -47.16350000
5.71450000 -33.20160000 -48.89690000
6.67200000 -33.27320000 -47.97250000
10.43240000 -32.52940000 -54.98730000
10.68550000 -32.41560000 -56.38350000
11.29800000 -32.52610000 -55.17500000
11.15090000 -32.33970000 -56.60780000
74.98060000 -29.89960000 -24.14880000
75.53350000 -29.80220000 -22.65920000
74.45280000 -30.91320000 -23.30740000
73.80420000 -29.97790000 -27.01990000
12.31960000 -31.13010000 -66.68810000
10.73800000 -30.87700000 -68.28580000
10.32530000 -30.76450000 -69.02490000
11.55290000 -30.74110000 -69.31230000
23.00090000 -31.03130000 -66.20080000
23.89310000 -31.11330000 -65.16000000
16.94310000 -30.66290000 -69.73260000
18.18980000 -30.59880000 -69.81310000
17.48750000 -30.96270000 -67.65550000
37.57820000 -30.42440000 -63.10660000
36.22040000 -30.23490000 -64.29980000
38.33260000 -29.93880000 -63.74240000
56.84790000 -31.34000000 -47.50090000
57.76880000 -31.14130000 -48.02580000
53.16940000 -31.66650000 -48.24980000
54.91490000 -31.49160000 -48.58970000
54.25630000 -31.71930000 -47.07020000
61.27080000 -30.98630000 -45.02540000
60.41110000 -30.87890000 -46.28880000
61.46990000 -30.60910000 -45.47130000
64.35780000 -30.80400000 -41.49760000
24.77660000 -34.35180000 -18.32660000
19.65870000 -34.45650000 -21.40420000
20.65500000 -34.40960000 -20.98910000
57.04370000 -32.47440000 -33.31750000
55.63790000 -32.48370000 -33.91060000
56.69710000 -32.45090000 -34.32150000
38.19120000 -33.47610000 -31.51920000
37.65170000 -33.43740000 -33.30310000
39.57870000 -33.29880000 -32.79080000
39.68600000 -33.45410000 -30.15390000
44.49810000 -32.55840000 -41.38800000
42.63130000 -32.68570000 -41.53960000
43.89580000 -32.60770000 -42.78790000
28.94390000 -32.11690000 -53.26380000
29.83790000 -32.10860000 -52.81590000
26.86690000 -32.16880000 -53.68440000
26.59720000 -32.04790000 -55.15550000
27.42460000 -32.09630000 -54.45900000
28.60590000 -33.29310000 -39.00120000
28.66810000 -33.08830000 -40.28940000
30.33240000 -32.97840000 -40.24520000
30.62690000 -33.15720000 -39.62990000
4.54810000 -31.69030000 -63.07440000
1.11340000 -31.75530000 -62.64870000
2.33500000 -31.71480000 -63.03020000
2.13220000 -31.83880000 -61.93650000
22.07020000 -30.57020000 -69.00900000
22.33790000 -29.88500000 -70.19030000
7.71090000 -30.56580000 -70.48890000
7.30490000 -29.98440000 -71.68620000
10.96590000 -30.63910000 -70.11020000
11.18590000 -30.22810000 -71.31360000
12.78070000 -30.69670000 -69.80780000
13.83430000 -34.40930000 -24.61580000
15.06690000 -34.37740000 -24.98310000
10.13850000 -34.59270000 -22.97210000
29.99930000 -34.76400000 1.72710000
29.37240000 -34.77790000 0.24070000
30.28190000 -34.84810000 0.08490000
31.33770000 -34.74800000 1.28810000
56.90720000 -33.13290000 -18.68670000
58.11580000 -33.04370000 -18.89130000
53.92270000 -33.22850000 -21.01660000
55.35230000 -33.17820000 -20.15980000
17.41110000 -34.30650000 -26.71410000
18.70510000 -34.26770000 -27.41960000
19.36550000 -34.29240000 -26.08450000
17.65180000 -34.02950000 -31.31140000
45.24150000 -31.68560000 -52.50090000
43.63780000 -31.86070000 -51.99470000
44.39250000 -31.76790000 -52.60840000
44.64390000 -31.87130000 -51.53460000
0.92200000 -31.95360000 -60.49000000
0.92070000 -32.07090000 -59.35810000
50.45850000 -33.24140000 -22.67820000
51.32040000 -33.20390000 -24.24320000
52.15820000 -33.28280000 -22.56810000
51.00190000 -33.41150000 -19.19400000
50.33840000 -33.36940000 -20.28000000
51.30450000 -33.31940000 -20.71500000
49.94650000 -31.96060000 -46.19730000
46.61980000 -32.18120000 -46.29640000
11.13180000 -33.98260000 -38.18470000
9.38310000 -34.01420000 -38.85650000
10.96070000 -33.98450000 -39.74600000
8.50600000 -33.94790000 -40.13360000
7.24880000 -33.91740000 -40.73050000
12.95590000 -33.06270000 -49.31390000
14.18000000 -32.91970000 -50.26120000
14.13660000 -32.75340000 -51.85990000
13.69290000 -32.65240000 -52.51290000
14.72360000 -32.72660000 -52.76040000
24.81500000 -33.04660000 -44.00460000
25.07660000 -32.96130000 -44.88140000
25.97210000 -32.97170000 -43.85940000
27.79120000 -32.79280000 -44.95940000
28.56940000 -32.73470000 -45.39270000
30.30420000 -34.30640000 -17.85840000
29.93020000 -34.28350000 -19.09630000
43.32320000 -33.87720000 -10.53530000
42.02470000 -33.98040000 -11.21850000
43.63310000 -33.80100000 -12.23190000
42.19930000 -34.05550000 -10.26860000
60.35070000 -32.87840000 -21.71100000
61.15440000 -32.84280000 -22.74960000
60.94700000 -32.84110000 -23.69200000
59.02830000 -32.96100000 -23.43940000
59.36670000 -32.90160000 -24.52060000
50.09390000 -32.41740000 -40.21990000
49.14630000 -32.50410000 -39.20480000
69.81820000 -32.75200000 -14.58310000
70.63970000 -32.64860000 -16.16170000
70.84370000 -32.70090000 -14.94130000
67.97030000 -32.69330000 -17.78450000
69.14710000 -32.68610000 -16.99370000
32.04380000 -32.73410000 -41.95320000
31.51360000 -32.92440000 -40.05730000
10.77970000 -33.41640000 -46.13400000
11.58880000 -33.24020000 -47.47730000
11.89710000 -33.36010000 -45.98940000
10.83330000 -33.22810000 -48.06330000
10.05490000 -33.27960000 -47.53900000
35.59240000 -29.21780000 -65.56400000
36.73240000 -29.62430000 -64.76380000
19.91460000 -32.36410000 -56.16410000
20.98880000 -32.30980000 -57.14750000
18.14390000 -32.38850000 -54.37000000
17.13760000 -32.28870000 -55.52520000
18.37210000 -32.24280000 -55.95400000
21.79500000 -34.08880000 -28.76980000
22.98700000 -34.07590000 -28.11290000
22.66650000 -34.15090000 -27.48760000
24.76570000 -33.88410000 -29.82580000
25.12630000 -33.97070000 -28.44480000
9.61850000 -34.83640000 -18.70430000
10.15450000 -34.69250000 -20.94270000
30.09710000 -30.85460000 -64.47010000
29.75270000 -30.71440000 -65.69110000
30.90730000 -30.66710000 -65.34020000
60.48480000 -32.99450000 -27.45160000
60.75360000 -32.67430000 -28.90300000
60.88780000 -32.88010000 -27.69970000
60.47230000 -32.93180000 -25.14170000
59.65390000 -32.89990000 -25.88790000
60.49610000 -32.91840000 -26.11500000
16.05970000 -33.75670000 -39.22550000
15.50580000 -33.73770000 -40.40870000
16.35850000 -33.74140000 -40.18870000
17.63820000 -33.74310000 -38.34860000
19.09780000 -33.63190000 -39.16270000
19.65360000 -33.25220000 -44.37410000
20.00960000 -33.21350000 -43.36200000
37.63220000 -34.55170000 -0.63060000
26.77560000 -31.97230000 -56.26860000
26.15280000 -31.93770000 -56.92700000
25.71960000 -32.01500000 -55.84060000
37.75340000 -34.34000000 -11.12870000
39.38150000 -34.11390000 -13.19640000
42.78800000 -33.67540000 -21.65060000
43.70440000 -33.62060000 -22.41600000
44.68900000 -33.53150000 -22.81910000
45.89360000 -33.44420000 -22.71110000
45.29770000 -33.54780000 -21.69700000
21.58280000 -31.67930000 -60.31310000
18.59700000 -31.73650000 -59.45430000
18.92640000 -31.61280000 -60.62560000
26.43260000 -32.46430000 -50.73960000
27.15610000 -32.33420000 -51.54510000
24.79730000 -32.85520000 -46.93900000
25.14890000 -32.77500000 -48.06110000
57.59680000 -30.14870000 -49.98960000
58.52540000 -30.11310000 -49.06760000
33.91980000 -34.82670000 -4.10040000
3.15620000 -32.10260000 -58.97620000
4.35650000 -32.16510000 -58.28250000
5.36000000 -32.52810000 -55.61070000
23.62560000 -33.09940000 -44.52990000
20.46970000 -33.27150000 -44.62310000
20.89680000 -33.28020000 -43.28760000
38.45920000 -33.93170000 -23.43140000
39.83110000 -33.91600000 -18.48510000
42.11430000 -31.88770000 -51.57290000
43.24210000 -31.69630000 -53.70960000
21.53630000 -34.54800000 -9.01300000
20.83110000 -34.68210000 -7.06830000
22.36540000 -34.55060000 -8.04890000
22.00640000 -34.66150000 -6.64700000
32.52070000 -33.86330000 -29.44510000
33.60430000 -33.68450000 -31.63050000
33.75510000 -33.81730000 -29.66580000
33.57930000 -33.93130000 -26.80920000
35.08560000 -33.83810000 -27.43660000
31.14680000 -32.77410000 -44.29390000
31.36690000 -32.76930000 -45.48990000
32.17110000 -32.97640000 -44.49500000
33.17300000 -32.59020000 -46.81620000
41.16920000 -32.13090000 -48.84800000
42.49610000 -32.29580000 -47.91160000
43.35680000 -32.03820000 -48.81750000
74.16490000 -31.83730000 -20.78090000
73.65600000 -31.76970000 -22.26940000
74.50660000 -31.22320000 -22.33080000
71.09960000 -32.25760000 -21.59700000
71.94470000 -32.08730000 -22.26410000
72.56460000 -32.12740000 -20.99110000
21.36850000 -33.46360000 -40.34820000
22.40200000 -33.29930000 -41.38990000
21.90340000 -33.51740000 -39.19970000
21.95000000 -33.43290000 -40.63720000
23.26020000 -33.38390000 -39.97140000
19.68800000 -33.90250000 -33.41320000
20.54260000 -33.87340000 -34.16700000
20.73680000 -33.87490000 -32.56580000
17.58970000 -33.97710000 -34.43710000
13.19270000 -34.31800000 -29.94690000
12.69580000 -34.41810000 -27.95030000
8.82570000 -34.46880000 -27.91060000
9.46480000 -34.49490000 -29.13410000
10.18640000 -34.40650000 -28.00840000
6.32710000 -31.91270000 -60.79170000
7.72570000 -31.92690000 -60.38620000
8.85450000 -31.73140000 -62.07750000
53.19360000 -32.89520000 -26.38590000
53.94360000 -32.75920000 -27.84980000
54.72010000 -32.86460000 -26.11200000
15.40450000 -33.91490000 -32.82890000
12.56930000 -34.25560000 -32.88060000
13.53560000 -34.16240000 -33.80920000
