58.81840000 206.27510000 91.20770000
60.96160000 205.96050000 89.05670000
61.03270000 206.23510000 87.65420000
-33.10720000 169.97280000 -24.23860000
-33.58410000 168.58110000 -24.26930000
88.77320000 166.17140000 67.47420000
85.40270000 165.48460000 42.23110000
84.76840000 165.48750000 41.88430000
-33.94160000 167.91710000 141.56660000
-39.61770000 169.12670000 141.45170000
27.55050000 206.11870000 -3.73900000
-71.24130000 170.80520000 2.74810000
59.00330000 172.62540000 119.21040000
63.45350000 172.41950000 116.91390000
61.93830000 169.20370000 117.21850000
87.73300000 167.62240000 23.13640000
87.56840000 166.13160000 24.21570000
87.30910000 166.21470000 23.15670000
74.62660000 165.91960000 112.34990000
73.40640000 165.79460000 114.56220000
-64.17470000 206.47260000 87.21250000
-40.10020000 168.35370000 137.70290000
-90.83720000 165.95250000 37.32280000
-89.67940000 165.82020000 41.86800000
67.77590000 206.41920000 32.08470000
66.30390000 206.26800000 39.39270000
69.10590000 205.74000000 32.15790000
-45.32450000 195.55850000 119.01910000
-28.05320000 196.75090000 -14.30610000
-70.49230000 168.40370000 2.69720000
-71.20250000 168.01590000 3.62130000
70.58910000 171.10020000 -0.71300000
-85.34320000 165.57200000 79.92570000
-89.76390000 169.14140000 69.69460000
-87.23610000 172.04410000 73.39650000
-74.66500000 170.58080000 0.07580000
-75.34690000 171.33900000 0.90950000
-52.77100000 165.35800000 -13.94500000
-55.67060000 165.35820000 -9.50040000
-54.21020000 165.48060000 -12.84880000
-66.11090000 206.65140000 36.01180000
-62.15300000 206.22100000 31.22830000
-68.64100000 206.06400000 35.81120000
66.67370000 206.62630000 31.20870000
71.74030000 205.66120000 79.86780000
82.90290000 193.12580000 25.18990000
82.74610000 192.67040000 24.27970000
-63.57440000 181.96100000 1.62690000
-69.26310000 183.25870000 4.35390000
-10.39940000 207.74810000 128.02730000
-13.97880000 207.59870000 125.31670000
67.40360000 198.16860000 111.23880000
66.50090000 198.84490000 111.05440000
-87.14650000 165.62440000 50.56250000
-88.79450000 166.03860000 53.94870000
-88.93200000 165.46840000 52.96570000
-88.82260000 165.30990000 52.01080000
16.66670000 204.85990000 -10.23220000
90.21720000 166.47490000 80.53060000
74.86960000 166.39410000 115.71220000
74.28330000 166.49030000 116.62260000
75.11300000 166.17290000 108.59740000
74.52850000 165.83530000 109.29420000
88.11400000 165.58590000 86.16680000
87.46410000 165.53110000 85.79590000
86.34360000 165.46040000 28.24950000
73.91120000 173.23790000 10.99260000
75.91510000 169.76870000 13.72950000
74.15640000 168.31870000 10.57900000
-75.40520000 183.29560000 1.23010000
-29.99890000 205.61680000 -5.61340000
-27.75240000 202.15390000 -8.15230000
69.63050000 195.73060000 111.33980000
70.56970000 193.53470000 104.41890000
67.64360000 198.16010000 110.57680000
-55.89150000 206.72530000 16.02380000
73.27330000 186.25890000 11.98160000
73.54710000 185.49190000 11.45850000
72.70630000 186.06850000 10.18230000
12.06250000 188.52810000 -31.77180000
12.13910000 187.92170000 -32.17750000
10.93880000 188.30750000 -31.63010000
84.81220000 165.09230000 21.64290000
85.22800000 164.94230000 22.74570000
84.47620000 164.96290000 22.52940000
-32.68780000 170.01400000 -19.63480000
-90.08670000 170.78320000 59.85230000
-89.87680000 168.37280000 59.97080000
-89.63550000 168.18010000 57.36300000
86.91020000 165.77930000 70.30120000
87.33220000 166.02200000 70.34080000
86.56400000 165.72370000 70.79190000
-71.82670000 173.80340000 3.48870000
-71.94270000 175.39180000 3.87590000
-72.51780000 174.68520000 4.71400000
-41.88740000 179.08310000 136.93200000
-76.62260000 165.49430000 17.78760000
-86.94430000 165.62630000 27.54460000
12.23430000 206.30640000 -10.96690000
-57.17490000 206.91960000 28.17330000
60.64110000 178.94230000 117.95760000
57.67260000 176.65720000 120.12870000
57.92630000 180.44050000 119.53030000
37.84920000 206.67510000 9.73770000
39.43790000 206.42950000 9.22590000
11.12730000 191.05040000 -30.45780000
12.04600000 190.59720000 -30.85110000
-34.51070000 166.22880000 -23.56280000
-55.61900000 206.86200000 104.23760000
38.15450000 205.34190000 -4.12320000
35.36640000 205.96170000 -3.67640000
70.16300000 186.21650000 15.27000000
68.86120000 183.83090000 11.10090000
-39.65270000 166.47720000 138.39790000
-37.49100000 207.43280000 118.57490000
-36.26970000 207.62550000 118.74200000
86.55930000 165.55620000 88.76850000
85.31900000 165.78520000 87.37970000
-87.49110000 165.19750000 71.66940000
-88.42410000 165.27610000 70.12280000
-88.40670000 165.23590000 68.97340000
20.62890000 207.29030000 126.20190000
63.23540000 202.41570000 50.56430000
-35.48310000 165.63590000 -22.99650000
-35.28420000 165.19220000 -22.20250000
-38.53110000 165.30620000 -22.86470000
-49.26840000 177.75960000 -15.20090000
-52.84130000 176.47470000 -8.65890000
-50.48230000 167.82750000 -14.18370000
-75.47520000 180.75850000 1.11660000
12.01120000 168.03340000 -30.90010000
12.97050000 168.47470000 -30.79410000
12.12340000 170.45350000 -31.22970000
-26.43580000 192.03780000 132.99720000
-40.23100000 187.95840000 133.18870000
72.14130000 188.07100000 116.13410000
69.26170000 180.26410000 114.31480000
68.34520000 173.67250000 115.14980000
-75.83040000 173.76100000 2.29300000
-64.44630000 206.91090000 78.19530000
91.91830000 165.33230000 57.38640000
49.20190000 198.75410000 118.75230000
74.02970000 184.31210000 11.72910000
-31.47700000 193.07810000 -12.46950000
-51.59100000 206.74980000 110.06490000
-57.20210000 201.92190000 90.75330000
-60.26970000 197.15620000 99.67340000
-67.66090000 196.29040000 89.19400000
-65.30470000 165.89230000 -2.84990000
-72.29570000 165.38080000 -0.31700000
13.08730000 207.27740000 128.68370000
16.10660000 207.17030000 129.31240000
14.93500000 207.52350000 128.38660000
56.29110000 184.10650000 126.06960000
10.61820000 187.36860000 -32.30740000
11.45640000 186.29040000 -33.96110000
10.13140000 186.28760000 -33.41340000
-38.58510000 184.76160000 141.03310000
-39.40910000 185.22240000 140.86910000
-41.82740000 184.68790000 140.78000000
-40.08670000 183.70950000 141.12100000
-42.80720000 206.99210000 9.59720000
-40.37700000 206.85860000 4.89940000
-42.51790000 206.58720000 7.21620000
55.83980000 185.21510000 126.40740000
82.01810000 183.48070000 18.92830000
84.16420000 184.75650000 20.16940000
78.95440000 171.95080000 16.89560000
-36.51680000 200.22580000 130.57370000
-30.62160000 198.68690000 131.09480000
-90.30970000 165.50750000 34.01150000
-61.49660000 165.54830000 -4.23760000
-60.88660000 165.63740000 -4.92400000
87.48130000 172.29510000 22.85300000
73.68580000 165.85510000 111.52670000
6.72840000 207.44380000 6.23150000
87.19560000 185.82590000 22.25680000
-86.62300000 180.89030000 74.62050000
74.00130000 165.85190000 112.99290000
-75.53280000 178.65130000 1.54860000
-45.16990000 196.33830000 -0.15170000
69.17350000 191.19160000 10.42170000
71.05940000 188.19100000 10.83420000
67.17300000 193.13250000 3.70840000
13.26940000 169.00380000 -35.30900000
13.27620000 167.92530000 -35.45150000
12.62510000 167.54610000 -35.68820000
69.07390000 166.45110000 5.75350000
64.17040000 201.65230000 107.66060000
-82.75770000 194.13210000 68.40900000
-81.06140000 199.34500000 62.56190000
-86.36610000 193.99820000 63.34900000
10.63230000 185.16190000 -27.67290000
-79.82470000 165.95500000 20.60890000
-78.95340000 165.70080000 19.91210000
20.90100000 206.84350000 127.25690000
87.13590000 168.95990000 21.85880000
87.49880000 168.29080000 22.43860000
86.77310000 167.23480000 21.68400000
-31.04490000 192.46650000 -16.86490000
85.35380000 165.58960000 90.05980000
85.98810000 165.51900000 89.09870000
-87.16810000 165.43650000 46.77490000
59.21110000 187.41270000 120.23290000
57.23060000 188.34090000 121.10030000
56.89560000 187.42110000 122.21320000
-37.29860000 200.64790000 2.83220000
-61.53290000 202.31070000 41.41160000
-22.27160000 207.68400000 118.97410000
67.64820000 194.18950000 13.56950000
58.95110000 168.02410000 123.66800000
58.82200000 167.47290000 123.64530000
-86.09200000 165.43070000 75.75580000
76.27020000 198.97010000 67.99570000
84.96610000 195.57570000 63.62850000
78.01710000 201.02060000 64.67010000
72.32850000 165.92940000 13.21910000
-66.30700000 206.70990000 66.96050000
65.09410000 166.52360000 119.38420000
64.40990000 167.47770000 119.94730000
9.56840000 202.08780000 -4.41290000
63.82430000 205.22950000 26.95270000
-34.65690000 205.01220000 124.87280000
-90.76130000 165.36070000 58.76190000
-90.20640000 165.77380000 58.25320000
-91.14630000 165.23800000 59.41860000
10.80150000 196.43880000 -14.08170000
12.26190000 201.38420000 -6.16730000
-35.02790000 206.78530000 122.26320000
-36.68000000 206.21620000 122.79840000
67.19590000 206.85390000 52.24660000
72.27410000 206.54280000 57.62360000
74.70070000 168.68210000 116.87590000
75.25950000 167.89330000 115.83070000
-73.54360000 165.20620000 7.04330000
-62.91240000 202.58370000 48.91290000
87.58230000 165.54270000 67.91500000
-83.89410000 165.58800000 24.99170000
64.91060000 206.83840000 38.96710000
66.76850000 206.71050000 32.17570000
11.98220000 164.78510000 -31.80030000
65.91980000 196.56760000 15.43400000
-70.84470000 205.42580000 64.64190000
-68.09990000 206.66350000 64.30870000
-70.09110000 206.45840000 62.57800000
-64.31340000 202.56200000 54.94630000
-68.76440000 200.22290000 56.26650000
-64.11070000 202.16700000 47.84930000
64.25070000 200.89190000 98.13330000
59.84520000 205.49040000 93.11360000
-80.88630000 191.54480000 57.32940000
-81.33180000 191.20280000 61.47620000
41.34440000 196.31590000 -3.01390000
32.66600000 200.68090000 -0.06320000
-62.65270000 194.45320000 11.87940000
-63.16570000 193.82640000 10.84860000
62.61510000 166.03100000 119.08360000
59.55540000 166.14770000 121.45240000
4.61230000 204.72010000 -12.25850000
9.06310000 198.32150000 -23.52200000
3.88600000 198.38860000 -19.73640000
-16.76390000 207.67710000 121.89960000
-18.35050000 207.97250000 117.64560000
-19.59690000 207.62040000 120.24340000
76.78310000 193.98220000 80.38430000
68.46800000 195.22780000 90.92450000
14.38760000 165.07240000 -33.74070000
13.97040000 164.59180000 -33.38890000
13.02140000 164.99380000 -34.42780000
12.26860000 165.65340000 -35.15130000
-60.50360000 203.97590000 22.94570000
73.49470000 205.92750000 55.95340000
66.89990000 206.73600000 50.05190000
54.71970000 204.86540000 106.93490000
23.83860000 201.69160000 -10.38050000
22.54090000 198.75840000 -14.28320000
18.53460000 204.89510000 -8.61850000
88.02590000 165.82140000 87.48070000
-50.14470000 197.02430000 113.40070000
5.67550000 198.40770000 131.42060000
49.00910000 205.41860000 6.02810000
42.02430000 205.27140000 6.85930000
10.70520000 183.42120000 -28.57970000
56.37500000 166.86210000 121.96300000
57.50550000 166.96020000 120.67650000
-85.12470000 164.99840000 93.31600000
-72.53750000 166.23010000 7.29320000
-17.36260000 205.84140000 -12.78100000
-16.25210000 205.75170000 -13.12490000
-18.58720000 205.05840000 -13.71620000
-36.94450000 173.24260000 141.25660000
-42.39600000 173.56410000 140.76290000
7.15450000 200.36030000 134.46880000
12.68910000 206.87730000 129.23630000
69.13690000 199.49060000 23.06310000
70.63940000 197.38000000 21.69900000
23.77840000 206.95010000 118.87260000
21.67370000 207.25410000 124.42410000
22.57660000 206.68120000 124.69820000
-29.49690000 183.82260000 136.81220000
-38.17690000 184.85630000 135.60060000
75.62490000 172.85230000 104.49080000
-60.28640000 206.91870000 33.53880000
-88.35010000 166.19570000 66.29240000
-88.50330000 165.69710000 66.80060000
70.23930000 194.75110000 111.52550000
24.41360000 188.90110000 -17.90510000
25.82410000 192.86930000 -14.20330000
18.79820000 190.86010000 -18.47510000
-42.05330000 168.44710000 137.27460000
-29.47110000 195.41600000 -14.75510000
-31.71900000 192.29070000 -16.88820000
89.14030000 165.48680000 82.42290000
44.96920000 205.42900000 110.75210000
-88.73670000 179.78100000 60.52660000
-26.67200000 205.58630000 -4.11600000
-72.72120000 205.68040000 61.37290000
-72.25160000 206.26750000 59.63700000
-75.50180000 204.65330000 57.76160000
-90.02340000 166.20520000 69.09970000
-92.02380000 167.75880000 65.76070000
40.43260000 205.07440000 -0.37540000
39.61000000 205.48690000 -0.44670000
-30.76230000 175.69160000 -19.40710000
-31.51040000 176.62640000 -18.92450000
-70.52210000 202.70790000 74.92000000
-67.52640000 205.09310000 73.44720000
-68.30560000 204.77090000 71.25620000
35.84360000 205.59720000 123.70860000
37.42260000 205.93030000 122.70700000
36.30260000 206.71960000 121.51810000
54.96850000 198.88530000 104.47610000
-75.76970000 165.85910000 103.17790000
20.68820000 205.05050000 -7.11820000
57.70900000 193.21810000 4.36120000
57.25650000 200.24560000 22.57880000
-30.09900000 181.97400000 -18.37280000
-29.80220000 181.55070000 -18.67400000
-30.97790000 177.11010000 -18.98880000
58.82700000 205.58630000 104.84050000
-58.50360000 205.84560000 24.73610000
-35.76530000 184.26110000 141.07730000
-40.27190000 207.84360000 102.96480000
-69.63060000 205.72980000 36.11990000
-71.38540000 204.52940000 35.60640000
-92.02010000 171.30690000 64.68560000
-92.61200000 168.00260000 64.33410000
87.39780000 173.68070000 22.60630000
81.51320000 193.85370000 24.03170000
79.32710000 197.03760000 25.60730000
74.36810000 186.02060000 116.32690000
74.06190000 185.49700000 116.96280000
72.08320000 194.78590000 27.85650000
67.29520000 194.86400000 23.63880000
48.15870000 206.65080000 105.68110000
46.07550000 206.98530000 104.89690000
-62.83240000 205.41230000 30.10720000
64.00010000 206.97450000 43.18030000
-26.51560000 202.71650000 -7.60980000
-28.23870000 200.51730000 -9.82200000
-23.58310000 187.09790000 -22.43360000
77.86140000 167.49430000 20.28430000
75.04230000 167.80660000 18.03640000
60.93820000 201.91630000 36.79410000
70.27300000 196.74980000 37.08510000
65.21650000 201.97920000 52.53860000
67.66880000 196.74010000 29.18460000
85.83340000 165.96540000 21.38110000
-24.44100000 193.60090000 -14.66560000
17.72850000 202.48040000 -12.81040000
48.53680000 204.58860000 4.87470000
54.04560000 199.18790000 -0.32800000
47.95440000 197.54090000 -1.58740000
11.06670000 197.15810000 -25.80850000
11.91700000 197.04330000 -25.98640000
-47.88740000 199.30280000 -1.45360000
-42.63760000 201.78120000 -7.30340000
-47.44550000 195.88770000 -10.85150000
-61.14950000 165.92380000 124.52810000
-63.06430000 165.61450000 124.65160000
-3.88160000 206.61990000 127.54650000
2.09260000 201.40150000 132.59040000
-1.73100000 206.99120000 126.13670000
67.45310000 205.81500000 84.15390000
70.07030000 206.04420000 80.40770000
-40.58930000 193.41980000 127.35380000
-92.94680000 171.90770000 61.51220000
21.64030000 202.26820000 -1.20790000
77.62140000 165.81940000 18.84310000
76.76100000 166.42460000 18.81480000
-72.23420000 177.43770000 4.83400000
13.16530000 177.96340000 -30.18660000
11.76150000 176.90450000 -30.86250000
12.57700000 176.14810000 -30.82090000
11.70530000 175.78650000 -31.01070000
80.66980000 182.79030000 23.52460000
76.64800000 185.52740000 22.06710000
78.30980000 180.83900000 21.37630000
-88.51240000 165.24900000 50.66100000
-91.59080000 185.09270000 65.02180000
-90.23480000 165.39480000 34.80390000
-90.86040000 165.99650000 35.03680000
11.48990000 192.98110000 -29.43490000
70.84650000 179.16060000 12.82800000
69.81930000 180.21040000 10.97620000
-68.83330000 206.21380000 36.70220000
13.00500000 171.08170000 -31.02530000
-75.27990000 172.90060000 0.77740000
70.32950000 205.81090000 81.52100000
71.95370000 205.34140000 80.96860000
15.97810000 206.36660000 -6.90850000
16.59780000 205.96010000 -7.89400000
14.40940000 205.86630000 -10.40510000
79.52080000 165.73660000 95.22220000
58.82130000 206.06300000 93.03310000
-85.74530000 168.37690000 69.53190000
-89.53920000 175.51710000 61.76930000
58.80890000 206.54450000 87.58380000
11.63550000 184.03320000 -34.93060000
10.48710000 184.71150000 -34.51560000
12.41830000 184.77400000 -34.84160000
53.75300000 206.64690000 102.96060000
-58.73190000 206.83470000 30.14210000
-30.54650000 206.98330000 -1.84750000
-86.61290000 165.10220000 89.87770000
55.63100000 191.39160000 115.39500000
50.75090000 192.88080000 118.32920000
53.44480000 195.28640000 112.60040000
-82.28530000 165.49010000 24.18940000
-68.64260000 193.15790000 3.91060000
-65.97160000 196.64950000 5.84800000
-63.95530000 193.37780000 3.09290000
-42.49000000 176.10420000 137.18830000
54.65400000 167.21130000 123.39320000
-62.26670000 206.11530000 89.19920000
73.88530000 203.16850000 73.55030000
69.56170000 204.70750000 70.89560000
-17.85360000 207.23890000 -3.39070000
56.22220000 172.37070000 121.51520000
-32.37180000 183.64830000 -23.21020000
-30.81250000 184.11630000 -25.18400000
-71.08000000 205.40070000 38.94070000
-62.08800000 195.60760000 16.12430000
50.48940000 205.66720000 6.77350000
-6.27400000 204.84090000 -10.98850000
-4.01110000 201.27850000 -14.49250000
-12.75000000 205.55720000 -12.97480000
76.71790000 165.86720000 98.50140000
75.50110000 166.15530000 98.11310000
10.28170000 206.26590000 -11.72880000
87.20850000 165.35060000 87.11300000
-3.65810000 205.19430000 -9.80780000
0.05510000 204.80850000 -10.39640000
54.97190000 204.55980000 7.42880000
53.47250000 204.73220000 6.34190000
56.14730000 192.30640000 119.42870000
-22.41440000 202.65980000 126.98120000
-23.28660000 206.00060000 122.24080000
-89.96230000 165.53660000 55.52700000
37.73440000 204.85310000 -5.65300000
84.32640000 165.07700000 23.31720000
83.14810000 165.37830000 22.95170000
46.53180000 205.18800000 109.75900000
30.54030000 194.44050000 -11.08740000
16.42730000 195.61630000 -13.82880000
-19.23490000 205.82750000 -11.99800000
63.56040000 206.53590000 66.32120000
-73.10880000 206.06140000 56.66710000
-69.66080000 206.70450000 61.24520000
78.32840000 200.83980000 80.91820000
76.77980000 201.78630000 76.10050000
73.54320000 204.79210000 77.43120000
65.46780000 187.37370000 117.81720000
71.39160000 188.81250000 116.05720000
63.72870000 192.78300000 115.95400000
25.00600000 203.91920000 -7.54330000
26.43930000 197.90960000 -14.21830000
65.35260000 202.05840000 61.62630000
66.48600000 202.98640000 89.14040000
64.44750000 205.51420000 86.84440000
84.86700000 165.76060000 38.76750000
83.96390000 165.48620000 37.72990000
55.15230000 202.59460000 92.97550000
-68.56160000 206.07140000 43.20440000
-56.61490000 202.66540000 87.59720000
-33.19060000 166.67630000 -24.38160000
12.04640000 184.78430000 -27.84770000
11.17510000 183.79070000 -28.45440000
72.25460000 185.96510000 8.10720000
69.91300000 187.69060000 3.54150000
85.80040000 165.81300000 74.92000000
86.64700000 165.92090000 77.36880000
-75.51730000 183.93510000 2.22680000
34.11610000 206.46980000 122.50020000
92.47450000 165.78350000 58.45580000
-74.47290000 166.60630000 -0.01700000
-88.17790000 167.86320000 72.79960000
-75.24280000 178.57870000 0.91440000
10.58700000 195.27240000 -27.50920000
20.01840000 206.38230000 -4.27680000
57.05160000 167.60220000 125.79020000
-34.46580000 167.89820000 138.02750000
55.17630000 206.38250000 21.18610000
57.74330000 205.56940000 22.61950000
75.72800000 200.41210000 27.29460000
79.61490000 197.06650000 26.06740000
-62.98680000 202.93000000 60.78770000
-62.65510000 202.84030000 69.37390000
-64.74640000 202.49630000 62.50080000
13.99830000 201.84640000 125.05220000
61.14670000 206.76200000 67.95440000
73.33640000 205.95170000 61.66630000
72.81200000 206.37870000 59.95080000
-86.27780000 165.20000000 95.36950000
57.25210000 186.28590000 123.70470000
63.93820000 207.04410000 46.61340000
64.96640000 206.89120000 46.67120000
11.99580000 175.27750000 -31.02560000
-32.80670000 177.89520000 -23.22980000
-32.56720000 173.28710000 -23.85200000
17.71010000 202.29230000 123.25230000
18.68200000 195.06380000 136.12180000
-41.94300000 183.18830000 -22.88170000
-39.23680000 172.46610000 -23.35500000
85.83020000 164.98260000 22.95430000
58.32900000 168.59880000 119.40820000
-86.87500000 186.93300000 69.62750000
-87.27580000 191.85890000 64.51990000
9.56500000 204.72670000 -15.46210000
-67.05720000 165.47610000 121.49820000
57.42770000 206.33320000 24.45240000
61.01540000 195.32950000 14.97340000
-0.77180000 206.38900000 -7.38120000
86.89620000 178.90260000 21.68300000
85.83920000 165.52780000 43.09190000
-87.71080000 180.93340000 63.22160000
-88.11730000 181.62070000 59.65660000
74.42690000 186.75270000 113.01160000
-68.64610000 206.11890000 85.39240000
76.55660000 198.35030000 70.57110000
73.51280000 200.58940000 69.28380000
13.57440000 202.94340000 121.92790000
9.56110000 205.41280000 -14.21780000
-20.96770000 205.62450000 -10.81230000
-20.44490000 204.95170000 -12.69780000
-85.88680000 166.76770000 79.60840000
13.82320000 200.09260000 137.54420000
-63.84030000 165.72710000 123.47500000
-32.34460000 206.49140000 -4.52500000
60.96620000 204.38850000 104.73770000
9.45000000 168.51540000 -30.21720000
-75.41160000 168.94250000 0.55020000
-73.01640000 166.71270000 -0.80170000
-65.85440000 166.36240000 -2.95980000
-72.98810000 165.80970000 -0.42830000
-40.76860000 192.22620000 136.86110000
-41.05290000 187.99360000 138.63360000
69.03400000 196.47670000 111.72000000
67.85670000 197.77380000 111.26670000
67.47060000 197.49140000 112.20940000
65.94520000 206.41780000 44.85820000
65.46210000 206.54230000 42.58000000
-33.49460000 186.47210000 135.13400000
-69.28860000 185.41890000 5.78920000
-69.62230000 185.65290000 6.61770000
-70.22400000 184.46540000 6.32380000
74.33180000 186.77280000 109.53420000
73.20750000 187.83540000 112.40810000
-30.48930000 184.83590000 141.02080000
-36.08410000 185.29560000 140.77860000
-34.71430000 165.30440000 -21.36300000
-39.60540000 165.24430000 -21.55070000
63.37350000 202.21930000 107.87710000
71.93420000 187.78690000 12.27770000
-66.50190000 206.25270000 78.08250000
46.47580000 196.34940000 117.96720000
29.46400000 206.48410000 -1.76290000
-75.95030000 165.59480000 17.82510000
-40.01820000 206.80570000 115.42600000
-29.54420000 197.70500000 125.51260000
-58.51030000 205.11550000 13.01020000
-46.82910000 188.46380000 -10.61800000
-50.28750000 188.63200000 -5.27680000
-49.01100000 181.94260000 -13.36320000
72.25850000 188.58560000 115.51250000
72.86540000 188.10470000 114.79080000
1.60700000 206.47100000 -7.42290000
-30.59090000 173.45950000 141.41200000
39.69420000 205.23760000 -2.07020000
53.57150000 171.99350000 124.69690000
54.13800000 178.07210000 123.69760000
70.34590000 177.24260000 11.48760000
69.41730000 177.52370000 8.90790000
71.51720000 190.26500000 14.73680000
59.14160000 201.43710000 6.17080000
10.48120000 204.56920000 -15.92320000
11.30850000 204.51090000 -15.92880000
-16.49040000 206.40470000 -11.54990000
-86.27800000 167.17310000 68.96540000
67.81370000 178.74110000 2.85060000
67.51930000 170.36660000 0.84750000
-65.87130000 206.16600000 73.88300000
-1.83860000 205.91740000 -8.46190000
-42.07760000 165.83530000 139.28240000
75.09670000 167.07380000 12.71520000
74.07700000 167.02300000 10.94900000
-68.99960000 199.87140000 66.35710000
49.67490000 206.48550000 105.63600000
-24.68340000 201.05820000 128.39490000
87.87430000 185.07620000 22.78420000
68.32080000 205.12350000 45.95200000
75.02490000 199.07490000 42.37510000
68.45300000 204.56880000 41.34720000
71.77040000 165.83690000 7.03140000
71.21400000 166.39450000 12.07040000
-56.56150000 206.54620000 19.37090000
73.59820000 165.70090000 14.15070000
-71.75570000 189.43060000 3.54880000
-70.99940000 190.67770000 3.60630000
-71.50670000 186.61930000 1.16130000
-16.75780000 195.85360000 132.47070000
-19.90080000 199.60070000 126.28010000
54.78280000 191.34490000 121.41460000
-22.95960000 189.27410000 -20.75620000
1.00780000 205.93690000 -8.74890000
14.56390000 166.47430000 -34.31170000
-56.07800000 171.86430000 -10.74460000
-59.35770000 172.50510000 -6.41910000
-57.89720000 181.58620000 -7.57090000
-69.00520000 194.61980000 15.42180000
-69.03510000 194.49920000 6.22730000
-70.73070000 191.93830000 4.99660000
-73.97010000 186.48390000 13.28250000
10.97190000 193.88220000 -28.66170000
-77.75200000 197.05080000 72.13990000
-38.97990000 205.46240000 -4.46820000
-41.13880000 201.12790000 -10.06450000
90.35110000 165.33060000 53.76390000
-32.05890000 191.11320000 -17.62140000
-31.32010000 190.65770000 -18.15280000
-32.36810000 187.22020000 -19.96500000
-40.67640000 184.67970000 135.12990000
-74.71910000 165.03350000 6.51910000
16.06970000 194.42960000 137.34280000
-89.36380000 173.91030000 41.84650000
-88.33250000 182.78010000 43.11340000
-90.63740000 171.14170000 37.77630000
12.61160000 191.66520000 -30.22460000
9.72520000 181.68310000 -34.46200000
-90.08780000 165.57340000 50.98050000
-33.80170000 192.56900000 136.48180000
-37.75050000 194.75090000 135.59040000
-39.55530000 193.56580000 136.29860000
69.56400000 205.51200000 72.17870000
66.94520000 205.70680000 70.15400000
76.49320000 172.44740000 14.77030000
74.68900000 199.29600000 37.39850000
69.96810000 203.62710000 38.06420000
64.58400000 206.42210000 66.16010000
65.92130000 206.67910000 63.74210000
-6.02680000 206.27800000 -8.53220000
-2.54340000 207.36500000 125.56180000
-5.74920000 207.37560000 126.93140000
13.02210000 188.11040000 -31.89730000
-73.24110000 176.86420000 -0.55210000
44.12730000 206.23620000 109.81310000
-82.91730000 189.45430000 56.89640000
-56.42990000 165.47310000 -9.16430000
-41.01930000 195.07290000 135.11140000
-38.14090000 196.57630000 134.25380000
-42.26370000 196.13730000 133.83790000
58.81220000 190.38040000 118.83170000
-32.56540000 184.13290000 -17.30020000
-37.88890000 180.93300000 -19.05990000
-74.21170000 165.38710000 0.61090000
32.33270000 205.88830000 -4.82570000
67.48530000 198.89810000 95.25200000
65.00020000 202.50180000 91.40990000
-29.36880000 195.14020000 134.35980000
67.51820000 186.15700000 10.56630000
73.05210000 204.81680000 80.63280000
-9.30930000 205.67480000 132.67930000
-5.58770000 206.97230000 127.79870000
-29.36590000 198.75620000 -11.60130000
-33.32570000 199.90550000 -12.21390000
39.32010000 204.46170000 -5.21920000
46.97410000 194.37060000 120.69460000
50.11990000 190.05260000 122.36800000
45.04110000 191.49810000 128.17620000
74.65620000 166.29470000 12.75310000
73.51120000 166.66660000 10.14140000
-70.81820000 191.44220000 4.23930000
4.79570000 194.12340000 -24.63320000
-67.26860000 206.26050000 67.74350000
11.59520000 168.70150000 -30.95990000
11.24580000 170.60760000 -31.18950000
72.84800000 204.36840000 82.29020000
74.15330000 165.71030000 13.83630000
73.05810000 166.14170000 10.12350000
54.84980000 188.33470000 123.60610000
-33.18510000 172.40170000 -23.35130000
-15.29220000 205.98430000 -12.67190000
-66.70850000 206.90050000 63.87370000
-66.33000000 170.76290000 -2.62620000
-73.00260000 170.73650000 -0.66200000
-14.88530000 205.87210000 128.41180000
-17.54470000 206.93790000 123.41330000
-22.66010000 207.10680000 120.54320000
67.02110000 197.90190000 102.03680000
64.54830000 201.23790000 106.76350000
-74.92520000 198.94670000 74.30710000
50.34850000 191.20840000 129.47040000
53.27770000 187.92630000 126.32780000
53.16220000 190.16060000 124.65410000
-45.16160000 187.84370000 137.26820000
-42.71680000 191.96270000 136.48020000
-44.95580000 191.71320000 135.43280000
18.02920000 183.19390000 -24.03100000
19.28250000 185.26760000 -22.16550000
13.12530000 185.29540000 -26.98450000
-38.94520000 207.14640000 117.46890000
-57.78290000 206.37800000 93.91250000
-56.27820000 207.02920000 94.07060000
-59.96300000 205.68670000 92.35130000
-66.35170000 203.97880000 89.79560000
12.37890000 181.78830000 -29.23160000
-59.68270000 197.25210000 118.62920000
-52.68630000 203.92870000 113.46500000
-53.80350000 205.13710000 111.59120000
-58.95740000 205.69630000 93.91730000
-62.77330000 203.63630000 93.11210000
-64.68080000 201.94470000 94.04620000
74.22600000 165.95030000 15.92030000
73.76170000 166.45740000 16.10140000
72.09820000 166.51110000 14.19880000
-52.55420000 166.06270000 -17.31540000
-53.56720000 165.59690000 -14.81950000
-54.58920000 166.02940000 -13.52420000
-60.85870000 165.94140000 -5.40020000
54.29790000 187.20060000 125.56610000
-44.90390000 201.15690000 122.21110000
-43.40440000 203.78000000 114.53020000
-45.96860000 200.79640000 117.25490000
-57.04540000 205.92240000 104.55520000
-57.78340000 205.67980000 97.56140000
-42.79870000 204.61830000 112.58270000
-41.05100000 206.19480000 110.50090000
-39.48270000 166.14150000 140.82760000
60.17830000 186.11950000 121.41620000
82.24780000 166.44150000 23.27680000
-82.50820000 165.43840000 98.19370000
-69.77580000 165.48200000 116.76250000
-50.67860000 165.76570000 133.04410000
-52.62310000 165.81570000 129.71620000
80.39000000 165.40030000 20.27870000
87.42670000 184.11390000 22.11500000
-82.82170000 165.92970000 98.36050000
-86.11870000 166.12920000 96.45050000
-59.01550000 198.79390000 6.33000000
-71.71220000 169.52130000 115.75700000
-72.57190000 171.59430000 109.58330000
-72.55890000 167.93060000 111.04500000
-67.01850000 194.32580000 112.42650000
-61.93500000 201.51570000 100.77670000
-67.50320000 195.49050000 103.17060000
-86.21180000 170.52970000 41.19000000
-85.75760000 168.60080000 41.88800000
-86.79710000 168.43890000 39.40530000
-85.37110000 172.15010000 81.44490000
-85.58730000 183.67780000 79.09510000
-85.60690000 171.29590000 78.39290000
-69.79200000 186.40580000 11.15550000
-71.19500000 182.78940000 7.41240000
-70.15820000 184.95820000 6.95770000
-71.53250000 181.66820000 7.35520000
-71.98130000 179.57610000 9.47680000
76.30530000 195.77590000 60.18550000
-50.04500000 196.74970000 120.17450000
-47.47540000 200.34880000 116.61220000
-51.37540000 202.60320000 114.96620000
91.80890000 172.53060000 53.03910000
86.24570000 173.08530000 42.30060000
87.06030000 179.86400000 44.20290000
70.47970000 204.50020000 48.72170000
80.40680000 200.40440000 53.57310000
77.30990000 198.98070000 47.41480000
9.76510000 181.10480000 -29.26830000
9.37890000 184.24760000 -27.74370000
6.22060000 185.33080000 -25.69730000
3.48640000 189.25180000 -22.38460000
-89.36330000 189.87910000 62.79580000
-89.51450000 190.68230000 59.85650000
87.83220000 181.89200000 45.80390000
91.66800000 181.48200000 52.54510000
-29.19730000 182.77180000 -27.66280000
-32.52450000 181.30610000 -23.37460000
-18.99020000 200.68230000 131.94850000
73.48830000 196.57510000 70.81470000
-78.29750000 200.45160000 52.14200000
-75.84500000 198.35540000 48.31860000
-78.00380000 196.21590000 47.90890000
-31.04680000 183.35720000 141.20370000
88.18150000 185.06200000 24.23950000
86.66170000 184.72740000 28.53530000
87.57330000 174.06410000 25.30820000
81.75450000 168.70200000 23.21980000
83.06580000 171.07340000 23.83360000
4.51180000 184.28890000 -31.38150000
3.63020000 171.54090000 -31.22190000
2.58770000 183.23760000 -30.65100000
-29.47810000 195.95020000 -9.62820000
-26.53310000 194.47020000 -12.66470000
-86.80220000 194.76100000 59.61110000
-83.92930000 177.24920000 72.17170000
-82.37460000 175.90560000 82.54580000
-84.27450000 170.07280000 89.32590000
-82.64090000 169.74110000 82.14030000
-9.52240000 167.10440000 -27.41650000
-6.70610000 173.39110000 -26.53820000
-14.16630000 168.02680000 -28.60140000
-90.48090000 171.41320000 33.77360000
-89.15430000 183.70190000 30.54930000
-89.30140000 171.70010000 30.31310000
-60.25850000 200.70820000 28.71960000
20.38970000 179.39340000 -28.66300000
14.42440000 172.76180000 -34.41900000
13.14250000 179.96140000 -35.23580000
-65.45520000 177.36960000 1.17650000
61.12160000 197.24340000 99.76200000
-30.91330000 190.75900000 -18.36280000
-30.15810000 190.43990000 -19.41840000
-30.79060000 187.06700000 -21.42560000
-66.35890000 205.61550000 47.18590000
-67.26360000 206.12960000 45.12090000
-75.09960000 172.69690000 98.88740000
-82.64500000 169.95530000 94.12310000
-82.25020000 177.34920000 93.78750000
-85.76510000 165.33260000 28.43090000
-88.58840000 165.29060000 33.18000000
-88.30460000 165.19880000 30.97000000
-24.95750000 207.01910000 -0.48480000
89.29180000 165.76610000 62.22190000
87.92280000 165.76870000 64.63000000
-77.13750000 166.00510000 15.76220000
-77.97540000 165.74220000 18.22840000
-78.28250000 166.12630000 17.97790000
-46.15130000 193.41770000 -4.10020000
-52.59850000 193.76290000 3.07010000
-48.47800000 190.84090000 -5.06870000
-55.94480000 166.73940000 -11.67800000
-53.25070000 183.39270000 -14.87290000
-52.60030000 170.54980000 -17.07540000
-42.46230000 166.64720000 137.61440000
-45.51910000 166.29340000 136.46140000
-27.38830000 186.62680000 -26.45900000
-30.30740000 185.21050000 -24.97900000
-29.18390000 187.08220000 -23.71130000
-72.54520000 170.74460000 6.01740000
-72.57970000 168.13170000 10.37420000
11.76210000 187.38520000 -32.65140000
12.88980000 187.13720000 -32.89090000
18.22400000 187.87320000 -27.26230000
17.12010000 185.94750000 -30.52840000
13.95780000 188.25680000 -31.33430000
-32.01310000 172.00780000 -24.77280000
-28.81360000 169.11290000 -29.04800000
-32.55860000 169.05010000 -24.92970000
60.76020000 169.76810000 122.03180000
-65.45180000 165.54710000 -0.54150000
77.24060000 177.37240000 93.89200000
81.61370000 179.29810000 89.55300000
82.76010000 170.28520000 89.12140000
19.31740000 167.75830000 -29.87480000
15.44730000 169.05230000 -33.78620000
9.23060000 164.86510000 -31.38010000
-67.32670000 165.57940000 119.99290000
87.08550000 165.31430000 24.52580000
-88.09020000 167.43180000 53.30870000
-85.27860000 170.45490000 49.42680000
-87.67070000 175.33390000 53.03830000
-33.02240000 186.80500000 -20.04630000
-33.59180000 184.76670000 -21.85690000
-34.68000000 184.97650000 -21.53200000
-40.98650000 166.38130000 140.83600000
72.98630000 166.83060000 117.78480000
72.70630000 167.71370000 118.06960000
-58.70590000 166.90840000 124.48020000
-56.99620000 166.50540000 125.05710000
-58.84120000 166.16520000 125.03750000
-34.06670000 165.67820000 -20.66000000
86.23650000 186.70420000 22.18440000
85.18170000 185.68910000 20.95050000
82.45480000 185.91800000 19.67010000
62.59590000 168.35270000 120.88240000
-32.94360000 184.77220000 -22.10330000
-33.66800000 165.31450000 -23.17060000
-90.06680000 165.62730000 68.52930000
13.18160000 165.44200000 -34.78030000
-87.85910000 167.35900000 90.75700000
-86.44710000 168.15520000 85.11450000
66.11300000 169.00190000 119.52140000
66.11410000 167.21900000 119.40500000
-75.31910000 165.22310000 4.23450000
-84.57260000 165.17090000 76.52190000
-33.01530000 181.10380000 -22.98290000
-33.62220000 181.12120000 -22.68680000
70.54030000 166.59930000 118.35130000
84.00510000 165.88280000 89.11630000
81.91710000 166.16340000 90.65570000
-33.82170000 183.47120000 -22.34920000
-33.21580000 182.82070000 -22.68660000
91.31330000 165.51340000 52.77080000
-86.94070000 166.03480000 68.87890000
-69.04580000 165.41980000 0.94710000
-48.91030000 167.75980000 131.06970000
-49.01980000 166.87420000 131.58000000
-49.97540000 166.93930000 129.38200000
-87.94670000 166.22120000 72.82630000
-85.69880000 166.27020000 80.86940000
-85.53790000 165.73520000 83.25440000
-85.57580000 165.92760000 81.77350000
12.80670000 164.52380000 -33.82350000
9.83130000 164.50270000 -33.33850000
12.31310000 164.74780000 -34.22850000
-36.24960000 165.43000000 -20.96530000
-37.91830000 165.95170000 -20.58080000
-40.75560000 165.65840000 -20.99150000
-67.98610000 165.52100000 120.57500000
-69.17070000 165.57730000 119.65890000
-50.43970000 166.00580000 130.85620000
-50.83340000 165.84280000 131.15720000
-51.34830000 166.03520000 128.55960000
-71.89030000 165.82800000 111.63120000
-71.32990000 166.19100000 115.78750000
-72.23000000 166.62660000 112.21810000
-6.22800000 180.86350000 -29.45830000
-6.58490000 171.75340000 -29.77980000
-17.90610000 171.61820000 -32.82100000
-13.60160000 201.41490000 -18.16900000
-7.51710000 193.01270000 -23.48990000
-15.43440000 195.09000000 -25.15140000
-55.13830000 183.01400000 -11.45570000
-52.03930000 193.45840000 -5.11320000
-70.04960000 198.04820000 41.22950000
-69.95580000 196.23740000 32.13180000
-76.58660000 193.71400000 39.36900000
-74.37220000 195.33930000 44.32200000
-41.26490000 190.89270000 130.01550000
-42.25910000 187.84820000 132.32450000
-32.75220000 194.51080000 -15.71150000
-35.33700000 195.76080000 -15.76680000
-36.05310000 189.40070000 -19.25970000
-89.40370000 185.61660000 68.30780000
-90.12800000 184.96100000 67.76970000
-84.96000000 185.69920000 64.48320000
-82.73770000 180.12320000 73.55710000
-88.64540000 178.87250000 62.42190000
-64.82840000 200.64740000 79.55310000
-68.27860000 196.96590000 85.86750000
-83.22790000 183.94330000 23.69340000
-80.94170000 184.01670000 21.82790000
-86.71770000 171.21250000 26.61310000
-64.47400000 202.89160000 27.48800000
-73.16430000 195.38530000 25.03620000
37.19260000 193.54600000 -10.44340000
46.35610000 197.90550000 -2.56450000
48.80110000 194.20510000 -5.50680000
48.55610000 191.82780000 -12.09320000
-54.98930000 180.07870000 127.55050000
-58.62320000 184.38780000 126.83170000
-54.89160000 173.55470000 127.69790000
-55.47780000 195.81760000 120.81680000
-87.51480000 179.98910000 45.20330000
-79.13760000 194.97760000 45.79940000
-72.80780000 201.10530000 45.85270000
-76.19010000 199.42960000 43.48980000
-46.90150000 174.35630000 134.24840000
-50.60030000 168.82530000 127.10990000
-49.31400000 178.70230000 129.54220000
-54.22590000 174.13580000 123.94530000
-54.32240000 169.60810000 124.28780000
-57.52920000 171.26240000 124.10920000
82.29260000 191.34540000 55.59030000
88.84620000 176.88080000 53.74860000
84.64740000 174.45400000 46.04120000
88.90380000 170.91870000 53.53760000
47.77920000 178.18220000 133.78690000
49.03330000 175.19280000 132.20140000
-64.18380000 190.88860000 105.92800000
-67.07830000 186.68250000 105.59310000
-68.09290000 188.75830000 100.91950000
-65.38680000 186.01770000 112.69180000
-19.74250000 169.35940000 146.12630000
-16.37540000 172.71130000 149.48990000
-20.83010000 183.17750000 145.22630000
-4.53530000 199.14180000 137.32510000
-2.22370000 203.15900000 131.51120000
-9.56030000 203.96680000 135.18850000
-16.31760000 193.47980000 135.99660000
-12.52600000 191.26390000 140.92430000
-16.52420000 188.70710000 139.95040000
-87.90770000 171.00310000 92.20930000
-86.33190000 181.18510000 86.30730000
-85.51210000 171.39480000 82.26090000
-69.85750000 203.53790000 77.25040000
-74.62590000 199.85640000 80.55620000
-73.63260000 202.57020000 84.93550000
84.58370000 196.63490000 62.66110000
84.71410000 197.61990000 59.83870000
79.44850000 201.66930000 61.86430000
87.70940000 173.22090000 68.74840000
87.43110000 176.18310000 69.09170000
87.23730000 172.81400000 69.62710000
51.15850000 181.62130000 -16.43700000
51.83450000 176.22540000 -15.24710000
49.68120000 170.84310000 -19.18050000
43.89780000 172.89260000 139.82950000
43.55840000 180.85260000 139.89360000
40.08460000 171.90240000 140.26390000
-78.29270000 174.71350000 101.03340000
-80.61810000 183.56050000 99.49510000
-86.89880000 180.36870000 96.12570000
-67.96430000 205.90690000 86.37800000
80.77270000 166.72650000 95.67680000
84.76740000 166.42820000 91.85140000
-76.91990000 167.64690000 21.89810000
-78.20180000 176.35690000 23.43700000
-79.63890000 167.43340000 24.45490000
-72.38100000 175.22810000 8.26290000
86.04410000 186.78480000 28.16520000
4.33320000 187.08470000 -28.90400000
8.99700000 187.76040000 -31.04520000
85.94530000 169.10670000 79.21770000
86.06000000 170.33580000 78.40690000
85.05870000 169.03780000 76.19810000
87.11100000 178.31710000 63.69540000
86.45410000 168.00780000 65.14930000
84.88480000 170.40950000 67.12760000
-53.43570000 179.70910000 128.93710000
-52.37210000 185.00670000 131.21360000
-53.43330000 183.87120000 128.93310000
-49.34910000 187.91680000 133.31820000
-49.03930000 190.80790000 131.61850000
-51.99690000 187.05890000 129.27920000
82.81280000 190.94680000 57.78380000
79.24970000 191.92750000 66.26890000
83.52000000 172.71810000 68.52470000
-88.26290000 183.08500000 92.79700000
-87.82800000 174.35740000 91.87580000
-84.23030000 171.65600000 97.75220000
-79.00500000 171.73970000 100.62780000
-75.25180000 193.47960000 33.31970000
-83.06200000 172.30380000 27.26090000
-83.38500000 176.88210000 27.83350000
61.52670000 188.04030000 114.36310000
61.55090000 185.15750000 115.77450000
57.51030000 186.60430000 117.51050000
62.59910000 180.38030000 116.73030000
-59.30710000 171.54300000 123.77910000
-59.14720000 169.46940000 123.79690000
-60.39300000 168.38410000 123.51340000
-68.94240000 176.20100000 109.12310000
-68.05960000 174.97540000 115.04330000
-69.18840000 169.77810000 109.48030000
-84.14990000 175.35210000 48.41320000
-84.16400000 175.16330000 44.17990000
-84.57560000 170.96620000 44.14870000
50.86890000 194.30400000 -4.12080000
78.88520000 167.81840000 92.38420000
72.00520000 174.40520000 111.88260000
71.98390000 178.00290000 106.55970000
72.21200000 170.84670000 107.43460000
-61.58430000 172.56190000 126.64800000
-62.92320000 182.27220000 125.86410000
-65.32080000 172.89670000 125.01410000
-70.49500000 175.10460000 118.47090000
-70.81300000 184.73870000 117.86940000
9.40750000 166.12650000 -30.43270000
8.75620000 165.43790000 -30.65900000
-12.50470000 182.75070000 -31.17260000
39.46730000 167.96950000 -24.23860000
36.08810000 166.25910000 -23.75840000
31.21550000 166.48200000 -24.05470000
39.08970000 186.46480000 -17.18770000
32.71210000 191.41150000 -13.99150000
31.79070000 189.39040000 -15.88890000
-44.44510000 184.00910000 140.14390000
-45.24100000 172.10000000 139.83710000
-49.59300000 170.84050000 136.37970000
-51.27220000 182.99940000 133.87310000
-51.37830000 171.72140000 133.48450000
27.75090000 199.35300000 129.22830000
22.82380000 205.48060000 127.23060000
22.63660000 201.77650000 133.87840000
25.92360000 198.39740000 127.30000000
38.81500000 184.95150000 -24.05590000
28.49520000 172.50590000 -24.47720000
30.59490000 183.60680000 -24.10900000
77.62910000 200.71690000 75.49260000
83.64170000 193.94580000 75.84810000
80.52030000 194.49880000 70.87140000
89.69550000 180.29150000 78.09050000
86.96120000 173.42280000 71.00830000
87.54300000 182.37550000 72.84620000
86.18100000 173.16420000 78.34260000
83.17100000 175.24420000 70.33780000
78.33280000 192.19810000 71.78840000
80.18490000 191.14020000 79.50570000
76.42190000 194.24630000 72.60570000
-62.64610000 187.24800000 3.85300000
-59.39680000 188.06640000 2.81350000
-60.29290000 191.47410000 6.00460000
-77.56050000 167.80320000 97.03780000
-70.35320000 170.07120000 105.48080000
91.34860000 165.51720000 61.76370000
92.86350000 167.45240000 58.65780000
92.53860000 165.99370000 56.93700000
92.83560000 167.70250000 56.46040000
72.02710000 177.81300000 111.22650000
55.92640000 198.04070000 105.52720000
60.15650000 197.21360000 104.52440000
55.53910000 196.91770000 108.24390000
-90.97590000 184.53360000 52.39200000
-89.58690000 176.18840000 50.19960000
-90.74260000 171.38820000 51.55570000
-92.97770000 184.42200000 60.96710000
61.76340000 184.83590000 -8.67420000
59.88370000 173.33990000 -9.89320000
55.30730000 178.58640000 -10.49520000
-70.92670000 198.66970000 52.48580000
-77.19740000 193.81770000 53.09920000
82.49780000 171.17860000 31.74880000
83.66430000 170.55370000 26.48070000
83.17350000 168.22430000 27.41360000
76.34650000 190.92730000 26.15330000
73.30140000 189.54130000 22.20560000
41.16300000 171.10830000 137.75010000
42.40080000 168.19100000 137.23800000
40.74580000 169.07890000 137.54770000
30.56510000 197.31250000 127.03550000
92.58030000 180.80450000 55.92230000
92.44280000 171.99040000 55.47480000
92.38070000 185.33690000 60.89240000
91.67290000 184.90710000 62.97170000
91.20750000 180.48690000 63.59650000
-10.76170000 178.58610000 152.15770000
-3.80090000 183.13480000 147.97800000
-10.85770000 185.32740000 151.57360000
-14.66920000 180.12250000 151.38220000
48.07410000 195.91960000 1.80530000
57.21420000 168.85060000 -6.59390000
60.07790000 179.02280000 -5.46670000
54.30070000 171.09920000 -6.71340000
14.07410000 188.12920000 142.31590000
7.08790000 186.39120000 141.36770000
8.81800000 191.73960000 138.88380000
-3.06500000 192.43800000 138.26300000
-2.01320000 188.85010000 140.34770000
-6.70280000 191.25740000 140.35620000
51.90220000 174.52220000 -7.55400000
48.43290000 177.04100000 -14.66330000
49.36470000 171.85190000 -13.10240000
39.71030000 178.98700000 -20.30690000
32.02830000 177.51940000 -20.21270000
39.61820000 171.64910000 -20.85920000
-40.09680000 199.78670000 130.60530000
-37.66500000 202.70860000 127.49200000
-2.61340000 171.86030000 147.54320000
14.07680000 183.63090000 148.85130000
9.68080000 184.39580000 147.43010000
5.96170000 178.09790000 146.41190000
-5.33210000 175.61380000 144.94070000
-10.62390000 171.53140000 148.17560000
-10.84170000 175.31210000 148.02660000
-14.54670000 170.37580000 146.77770000
-19.78230000 167.37530000 142.20930000
-18.03100000 177.72090000 143.44910000
-26.25010000 178.45690000 -24.88890000
-17.94100000 175.73190000 -29.39680000
78.34310000 187.56510000 18.73680000
84.12020000 187.55830000 21.96130000
-84.64790000 196.94750000 60.42070000
49.56140000 167.49880000 -12.56470000
50.91770000 167.21400000 -9.71820000
53.16080000 174.82320000 -6.65560000
4.42460000 194.06460000 -17.63330000
9.43760000 190.05190000 -23.98110000
8.07930000 192.49210000 -21.07860000
3.27030000 190.90540000 -20.94600000
55.18090000 173.60540000 -10.63480000
52.01140000 181.95340000 -14.50260000
53.00310000 181.36100000 -12.04860000
-50.81310000 193.06930000 118.21810000
-56.61530000 191.53460000 116.76110000
-56.24910000 194.66070000 112.74510000
24.02480000 172.83430000 148.75230000
26.64490000 171.65680000 147.29690000
24.95190000 184.77600000 148.16000000
15.82060000 166.04600000 148.70530000
15.21440000 165.90920000 148.08780000
17.81510000 165.81250000 148.35100000
29.40100000 178.77710000 137.45570000
28.81000000 173.72510000 138.98250000
26.50020000 179.98870000 141.41890000
38.74850000 179.08850000 137.35030000
38.00380000 170.75270000 137.65270000
31.98190000 182.51670000 135.55300000
-89.43000000 184.00420000 50.01850000
-86.91290000 191.66180000 52.80810000
-83.34350000 190.18720000 47.57250000
-87.48640000 187.21780000 50.29640000
80.36310000 184.39860000 33.89090000
78.56590000 188.41480000 32.77200000
81.07720000 184.92430000 27.26500000
83.49530000 180.98780000 44.78300000
87.66040000 181.53660000 52.86800000
81.73920000 186.42660000 45.31890000
32.01770000 174.44930000 140.88310000
32.05210000 180.78670000 140.57830000
27.66500000 185.08610000 145.65040000
35.38260000 172.62800000 139.62780000
38.65950000 183.21150000 139.96960000
34.99740000 179.16880000 139.68990000
-28.53890000 173.64110000 138.59580000
-21.39560000 167.80650000 140.97090000
-22.99150000 177.84610000 140.18000000
86.91950000 187.53590000 76.13940000
84.66500000 189.73770000 73.01950000
85.12830000 192.33910000 77.06720000
84.71310000 190.69330000 87.50590000
78.19520000 192.75010000 91.91880000
84.67490000 188.12860000 89.26510000
25.07280000 172.00410000 143.93510000
14.55530000 172.06850000 146.11950000
11.43270000 167.44940000 144.96810000
6.68530000 168.93170000 143.33620000
-73.12270000 167.43630000 109.22530000
-74.04850000 167.74410000 107.01900000
-72.61230000 166.32500000 109.92350000
-75.63040000 192.18560000 96.98580000
-84.09690000 189.74780000 93.70960000
-82.94710000 187.15610000 95.81710000
-84.01450000 191.35400000 89.89270000
-84.14570000 186.78990000 83.91360000
-85.15100000 186.86860000 87.83150000
-5.05590000 171.14420000 144.83600000
-3.89760000 168.42260000 144.10530000
-7.87610000 168.89780000 145.96390000
7.40200000 177.02830000 143.46170000
7.51000000 170.61360000 143.63360000
-82.04300000 178.88400000 82.79100000
-83.57320000 177.83960000 89.66230000
-78.64490000 187.52050000 91.26250000
-75.49740000 185.48180000 94.99590000
-81.39760000 182.91260000 92.05250000
50.36570000 187.88060000 -12.45770000
47.85000000 188.42410000 -16.78090000
37.60690000 192.51480000 -19.80150000
38.49170000 188.26870000 -21.85870000
31.14190000 192.08820000 -19.37550000
-17.55690000 165.62580000 146.79780000
-16.34130000 165.83300000 148.85730000
-18.35870000 165.89900000 146.67710000
-7.89040000 165.59930000 148.89710000
-13.14440000 165.78530000 151.59260000
-11.38030000 165.52610000 149.50600000
-80.68400000 185.00070000 86.93580000
