-6.21838570 0.42615646 -7.67821026
-6.24152088 0.49472645 -7.68931103
-6.59013700 0.54071838 -7.51977348
-6.56278133 0.48872322 -7.49959135
-6.88390303 0.47221798 -7.22135544
-6.85839987 0.38321489 -7.22804117
-6.53460407 0.36988527 -7.49140072
-7.15092611 0.35537186 -6.92072248
-7.13687229 0.26271945 -6.93718576
-6.82820320 0.28162047 -7.23582697
-7.39747429 0.25824845 -6.59482384
-7.34683084 0.20789696 -6.57440424
-7.07314968 0.22072500 -6.90523434
-7.58940935 0.20519474 -6.22722244
-7.63730955 0.25074103 -6.24676466
-7.81761360 0.19435841 -5.87307692
-7.87662888 0.22137973 -5.90201998
-8.03824139 0.18958095 -5.51003027
-8.11178398 0.19189303 -5.54928112
-8.26421738 0.18569493 -5.14958858
-8.33730030 0.19109909 -5.18869972
-8.49034691 0.18900990 -4.77622128
-8.56693935 0.19568156 -4.81864738
-8.71561146 0.17494202 -4.38995600
-8.67230797 0.09937997 -4.36721087
-8.42816925 0.13669436 -4.74400473
-8.94579315 0.08138435 -3.97069454
-8.66378403 0.00026487 -4.36742020
-8.94247913 -0.01090582 -3.97040200
-9.17299557 0.03454283 -3.51488447
-9.17261982 -0.05749682 -3.51946688
-8.94107342 -0.10926882 -3.97439957
-9.33711529 -0.05355488 -3.03497791
-9.33077812 -0.17895329 -3.03868294
-9.17472363 -0.17417583 -3.52889657
-9.37189484 -0.22481982 -2.53732681
-9.33126545 -0.35289240 -3.04936600
-9.35603046 -0.38256001 -2.52733994
-9.28264046 -0.40413520 -2.14880514
-9.34082031 -0.58521968 -2.51671243
-9.26543999 -0.57184821 -2.14022517
-9.17904091 -0.57041365 -1.93516994
-9.16437435 -0.76271045 -1.93172956
-9.24763870 -0.78304607 -2.14379096
-9.10878563 -0.75156766 -1.75326359
-9.09028912 -0.95787674 -1.73983669
-9.15154552 -0.97371334 -1.92182636
-9.19355488 -0.95724976 -1.58208251
-9.07832432 -1.16435266 -1.72312248
-9.18802452 -1.16662300 -1.56873894
-9.33871746 -1.18017542 -1.40399265
-9.18320560 -1.35879445 -1.55618930
-9.34091854 -1.38332260 -1.38733423
-9.52460766 -1.40105355 -1.12588227
-9.33686543 -1.54592395 -1.37828064
-9.51807404 -1.53706527 -1.10803998
-9.72353458 -1.53937733 -0.62408036
-9.51534462 -1.66169751 -1.08964038
-9.72379875 -1.67487395 -0.61456716
-9.79437447 -1.62553918 -0.06859788
-9.78611469 -1.74958646 -0.06242756
-9.71434116 -1.78145480 -0.60611254
-9.73009396 -1.74227405 0.44280085
-9.76516628 -1.86491430 -0.05381975
-9.71595669 -1.86455214 0.45114404
-9.60656166 -1.85781085 0.91681552
-9.56731129 -1.95266390 0.91584051
-9.66405964 -1.95447469 0.45243940
-9.45398903 -1.96437764 1.35926819
-9.47421360 -1.98904514 0.90343022
-9.35194969 -1.99833548 1.34146762
-9.25556469 -1.99833548 1.77166319
-9.34836960 -1.96184266 1.78957522
-9.27046776 -1.95007324 2.21970105
-9.18877697 -1.99839127 2.20216513
-9.11542892 -2.00286222 2.63783479
-8.99922371 -2.00358653 2.61141229
-9.07059383 -2.00513244 2.17858410
-8.93033409 -2.00811338 3.05275059
-8.80010223 -2.01056457 3.02067351
-8.86576080 -2.01680446 2.58590913
-8.70013714 -2.00626087 3.44741464
-8.55579662 -2.01116371 3.39401269
-8.65056610 -2.02233434 2.98795557
-8.41269493 -2.00028539 3.76019287
-8.41269493 -2.00028539 3.76019287
-8.55579662 -2.01116371 3.39401269
-8.22869968 -2.03510666 3.65589666
-8.36622906 -2.04251671 3.31538653
-8.04963493 -2.04070592 3.95356226
-8.18290234 -2.02206969 4.05859709
-8.00043964 -2.11647701 3.53508067
-7.84147358 -2.12151909 3.83599210
-7.66561222 -2.13749504 4.12044001
-7.47454119 -2.27437043 4.02839994
-7.64962244 -2.27687788 3.73863196
-7.27642202 -2.27647352 4.31656694
-7.30627060 -2.45163870 3.94927239
-7.12267923 -2.44350410 4.24351215
-6.93272209 -2.43194342 4.54038429
-6.79810333 -2.62904549 4.45348406
-6.98590136 -2.64812779 4.17203093
-6.61576557 -2.62666416 4.73502111
-6.47844458 -2.83858609 4.63376045
-6.65844202 -2.84199834 4.36499643
-6.28735924 -2.83758307 4.89366674
-6.33282185 -3.03825092 4.52468681
-6.15397978 -3.04510403 4.78442526
-5.95888329 -3.04663587 5.03774261
-6.00568342 -3.21465564 4.65064192
-5.81845665 -3.21536613 4.90581226
-5.59735537 -3.19717550 5.15071678
-5.67699862 -3.32045627 4.76906204
-5.45649672 -3.31748986 5.01618195
-5.36871910 -3.18695164 5.39383888
-5.22272110 -3.30676436 5.25708914
-5.13214350 -3.16647673 5.63143110
-4.98650694 -3.29452157 5.49450016
-4.89818668 -3.15378809 5.86542988
-4.74405384 -3.27786326 5.71216106
-4.51586342 -3.27740359 5.93323421
-4.66804600 -3.15779924 6.10068226
-4.41386509 -3.14717197 6.31193590
-4.27230978 -3.26171994 6.13075399
-4.02230692 -3.25227642 6.31977749
-4.15278912 -3.33822918 5.97064590
-3.91139436 -3.33689189 6.15408421
-3.65618253 -3.33137608 6.32558584
-3.82324076 -3.38238215 6.02865791
-3.57265306 -3.38178349 6.20029926
-3.30810928 -3.37390018 6.35291338
-3.49026608 -3.41496134 6.08616877
-3.23122382 -3.40509987 6.24553871
-2.96471620 -3.40156221 6.39918375
-3.16142821 -3.42996240 6.14373541
-2.90490699 -3.42433500 6.29916334
-2.64823270 -3.42030954 6.44949341
-2.85030723 -3.44029713 6.20545244
-2.60378695 -3.43634152 6.35472441
-2.34654164 -3.42965579 6.48197460
-2.55812907 -3.46164989 6.26895237
-2.31027174 -3.45703936 6.39795828
-2.07630062 -3.42568612 6.57074118
-2.05075574 -3.45088291 6.48131990
-1.79841328 -3.42074156 6.60585499
-1.78146219 -3.44192672 6.51278496
-1.51279545 -3.43416882 6.59046364
-1.50253022 -3.45639873 6.49123716
-1.23390508 -3.44205213 6.57312298
-1.21893191 -3.46162152 6.46843624
-0.95149088 -3.46301484 6.51307726
-0.97199368 -3.44216371 6.62132931
-0.67966229 -3.46486688 6.63272333
-0.70086151 -3.44113302 6.71813297
-0.40585592 -3.46095324 6.70547199
-0.66857523 -3.52719736 6.57205057
-0.40123165 -3.52928638 6.65021706
-0.11853886 -3.46125984 6.72667074
-0.11831599 -3.52989912 6.66484213
-0.11969492 -3.62581110 6.66088629
-0.40465808 -3.62344289 6.64318323
-0.11969492 -3.62581110 6.66088629
0.17046356 -3.62788606 6.63883781
-0.11831599 -3.52989912 6.66484213
-0.12055849 -3.72925782 6.66736317
0.17230211 -3.73431396 6.64198542
0.46336597 -3.62851286 6.58791494
0.46551093 -3.74268508 6.58829117
0.76257795 -3.64003158 6.53639364
0.76748079 -3.76143265 6.53881693
1.06304348 -3.65485191 6.46537209
1.07082951 -3.78398275 6.47481537
1.36784077 -3.66283250 6.40653801
1.37541795 -3.79238200 6.41435194
1.67476916 -3.66655183 6.35136747
1.68224883 -3.79284167 6.36146545
1.97974753 -3.66220617 6.28810406
1.98576474 -3.79090548 6.29927492
2.28142500 -3.65744233 6.22620583
2.28767896 -3.78371811 6.23609543
2.57929969 -3.65923929 6.15749693
2.58467627 -3.77577901 6.16115952
2.87483478 -3.65646720 6.08786821
2.88316393 -3.76682281 6.09107161
3.15464425 -3.64616060 5.99035454
3.16931081 -3.75244880 5.99295902
3.40445185 -3.63447452 5.83755922
3.42467618 -3.73704410 5.83152771
3.57456064 -3.62604761 5.60337925
3.58984041 -3.72655559 5.57404566
3.68376017 -3.61732841 5.35139894
3.69112825 -3.71982837 5.33586836
3.86724019 -3.61606073 5.22867441
3.86726809 -3.72268367 5.22040129
4.11043215 -3.71239018 5.22042894
4.11559916 -3.61337256 5.20970392
4.39344501 -3.62707829 5.12432241
4.39623070 -3.72753048 5.13890553
4.61823702 -3.63628531 4.94713783
4.61985254 -3.74058151 4.95145559
4.81763744 -3.74210024 4.72993660
4.81450319 -3.63986468 4.72734642
5.00615978 -3.74084616 4.48847294
5.00213432 -3.63565826 4.48784590
5.19388771 -3.73459244 4.22483397
5.18764782 -3.62856865 4.22852468
5.36495781 -3.62980819 3.95971894
5.37454033 -3.73638940 3.95662665
5.53779650 -3.63159084 3.68591261
5.54795027 -3.73636127 3.68295956
5.71227884 -3.62883329 3.41118670
5.72173595 -3.73154211 3.40806675
5.88483906 -3.62207794 3.13823009
5.89549398 -3.72695923 3.13523531
6.06319332 -3.72025990 2.86388040
6.05149317 -3.61147857 2.86695862
6.23773146 -3.70531464 2.59914136
6.22394228 -3.59511256 2.60373783
6.39299250 -3.68561983 2.33242440
6.37562370 -3.57515311 2.33596230
6.50751257 -3.66912842 2.05262876
6.49416876 -3.55974817 2.06104159
6.55935431 -3.55646086 1.77677500
6.56974506 -3.66026998 1.76265144
6.51646852 -3.55341053 1.49218786
6.52631569 -3.65507460 1.47490263
6.42332840 -3.54913425 1.19626307
6.42792511 -3.66121745 1.18858838
6.51135683 -3.55660009 0.92985260
6.52666426 -3.66270709 0.92795831
6.71822262 -3.65373731 0.70922518
6.70585442 -3.54920387 0.70106310
6.79859018 -3.56653118 0.42860770
6.81634903 -3.67348790 0.43080842
6.82413530 -3.58359385 0.12888037
6.83456755 -3.69793272 0.12397753
6.81378603 -3.60099006 -0.17829873
6.82430220 -3.71918750 -0.18561119
6.77383900 -3.62285805 -0.49146709
6.78606892 -3.74413347 -0.50015849
6.71352863 -3.65142536 -0.80924582
6.77383900 -3.62285805 -0.49146709
6.78606892 -3.74413347 -0.50015849
6.73224878 -3.77233863 -0.81820178
6.70238590 -3.53437018 -0.80180800
6.75823927 -3.51052475 -0.48323536
6.64807892 -3.55995703 -1.12788808
6.66076756 -3.67694259 -1.13458753
6.64282799 -3.44767952 -1.12233055
6.58365965 -3.47068930 -1.45484555
6.59028959 -3.58461022 -1.45944190
6.59434271 -3.36548710 -1.45193458
6.52086973 -3.37961078 -1.78794563
6.52099514 -3.48860097 -1.79061997
6.61779785 -3.33278322 -1.79922783
6.54173517 -3.33884192 -2.13528061
6.46788597 -3.40206313 -2.12497354
6.65406847 -3.31336665 -2.14883304
6.57598495 -3.31744790 -2.49095869
6.46959877 -3.34700418 -2.47098517
6.69168901 -3.29840755 -2.51006866
6.57783747 -3.29239035 -2.85978532
6.46883297 -3.31608295 -2.82957458
6.69376421 -3.26379514 -2.88679266
6.50260925 -3.27819753 -3.23878002
6.40449715 -3.30907679 -3.19955707
6.60711527 -3.24033976 -3.27651215
6.37501049 -3.27326679 -3.60536385
6.28309631 -3.30441070 -3.55477571
6.48728848 -3.21642447 -3.65976858
6.26280260 -3.23018599 -3.94392395
6.14601183 -3.28198576 -3.86483788
6.45845652 -3.12513709 -4.04411173
6.25131178 -3.14449787 -4.30556345
6.08026934 -3.24561834 -4.18119621
6.41632271 -2.99393058 -4.43654728
6.21444321 -3.04194212 -4.70511627
6.06228828 -3.17640781 -4.55363035
6.34098291 -2.85465932 -4.82320213
5.98352242 -3.07399130 -4.96414471
6.10127401 -2.89491296 -5.09725952
6.20938683 -2.70839643 -5.21303320
5.82493258 -2.91520667 -5.37953424
5.92155457 -2.72803545 -5.51454353
6.01435995 -2.54989004 -5.65937185
5.73445272 -2.54756403 -5.95773411
5.64407110 -2.74071026 -5.81337929
5.83202219 -2.36613107 -6.11512613
5.45563221 -2.52721453 -6.23254347
5.56162834 -2.34501553 -6.39298582
5.68127394 -2.17579842 -6.56420851
5.94399357 -2.19490838 -6.28618240
5.81913853 -2.03222346 -6.74745226
6.07422447 -2.03882551 -6.47839499
5.95445395 -1.96220505 -6.95325947
6.23830271 -1.95752478 -6.69737911
6.03713274 -1.92944515 -7.12419033
6.35358858 -1.92943132 -6.89425850
6.10031271 -1.90484738 -7.27234793
6.43526554 -1.90791166 -7.04967260
6.03713274 -1.92944515 -7.12419033
6.35358858 -1.92943132 -6.89425850
6.15882683 -1.88357854 -7.39991856
6.50790262 -1.88125241 -7.17987633
6.83743668 -1.87569499 -6.93109941
6.56991196 -1.85838187 -7.29179192
6.91305447 -1.85144556 -7.04078627
7.21553946 -1.85409188 -6.72830057
7.23373032 -1.72498882 -6.78571367
6.93145418 -1.72940409 -7.09198713
7.46828651 -1.70767570 -6.42063379
7.44831276 -1.57114851 -6.46730852
7.22406435 -1.58653927 -6.82007551
7.59152555 -1.52608955 -6.12285662
7.42299080 -1.42668200 -6.50550032
7.57481146 -1.39117825 -6.16599321
7.40197277 -1.24661458 -6.54483414
7.55286026 -1.22772729 -6.20638561
7.37925529 -1.01829851 -6.57712030
7.53923798 -1.02115393 -6.24805975
7.36489487 -0.76599753 -6.59986591
7.15456104 -1.00730884 -6.88885450
7.13137007 -0.75213885 -6.89324188
7.11356926 -0.49285990 -6.89322805
6.83190727 -0.73737454 -7.14185143
6.81420422 -0.48427969 -7.13722754
6.80001068 -0.25551820 -7.12977552
6.47015619 -0.27953088 -7.35101604
6.48342991 -0.48777586 -7.35396862
6.46147871 -0.14051050 -7.34598732
6.12089920 -0.17753251 -7.55608511
6.12971544 -0.31692880 -7.55927467
6.11197090 -0.04688324 -7.55127954
5.77047205 -0.17620923 -7.76307631
5.76852226 -0.05551894 -7.76937199
5.76290894 0.05248266 -7.76885653
5.41810894 0.03399954 -7.98540354
5.42076921 -0.07157839 -7.98470688
5.41519785 0.13310084 -7.98550081
5.05956173 0.03826161 -8.20200539
5.05862808 0.13573331 -8.19935894
5.05609322 0.22690928 -8.19158649
4.70528984 0.13727935 -8.43083668
4.69907808 0.22239642 -8.42675495
4.71230984 0.29851571 -8.44849777
4.36107540 0.32049483 -8.70047855
4.34282875 0.24009955 -8.67610359
4.39781857 0.34250185 -8.75606632
4.02771044 0.33939582 -9.00541496
3.99612045 0.33365732 -8.95160866
4.06403589 0.34587261 -9.05360794
3.64214182 0.32166481 -9.22698975
3.67168403 0.34665260 -9.26346874
3.68009686 0.40452546 -9.27966785
3.25027728 0.38297817 -9.45733929
3.23687840 0.32527241 -9.44186497
3.25841141 0.44518286 -9.45824432
2.82258892 0.42185256 -9.54524231
2.81233764 0.36317179 -9.53937721
2.82838321 0.47908476 -9.52656364
2.43551588 0.45688275 -9.51707840
2.42384410 0.40467876 -9.53904343
2.44887328 0.48979571 -9.47197819
2.12974358 0.46163228 -9.46708870
2.14708471 0.48916900 -9.41626358
2.15620780 0.48792940 -9.35171890
1.89830768 0.47128484 -9.31096363
1.90137196 0.47937727 -9.38532925
1.89184487 0.46365201 -9.24285412
1.64306808 0.47175840 -9.34543800
1.65857041 0.48089540 -9.41120815
1.63086653 0.46400017 -9.30341434
1.37682474 0.47056049 -9.44554138
1.39947248 0.47879225 -9.50150681
1.35430241 0.48007369 -9.39914608
1.07128918 0.48184264 -9.54415512
1.08399189 0.47570020 -9.59670830
1.05567539 0.49699682 -9.49373436
1.32980204 0.49304107 -9.35447693
1.05921316 0.54839289 -9.47884369
0.74108624 0.55790609 -9.56322384
0.71640497 0.51532668 -9.57361412
0.75256342 0.61267298 -9.55662155
0.39837560 0.61304903 -9.59063530
0.37518463 0.56381184 -9.59152603
0.42028514 0.65840030 -9.60546875
0.07360478 0.67427868 -9.59800339
0.04677850 0.61519396 -9.57173347
0.09576502 0.67528158 -9.64737988
0.44513354 0.68588120 -9.66200447
0.10207464 0.67352659 -9.70366478
0.46608201 0.68473899 -9.71727276
0.11935991 0.67054594 -9.76308346
0.48690510 0.68372226 -9.77173328
0.13810766 0.66984951 -9.82202911
0.51070893 0.68225980 -9.82778168
0.15677185 0.67086619 -9.88040352
0.53264630 0.68209267 -9.88284111
0.17242748 0.68103403 -9.93661880
0.55327445 0.68822116 -9.93796921
0.18930881 0.71063215 -9.97437859
0.57323390 0.71646816 -9.97659302
0.20833515 0.76655501 -9.97316742
0.58886170 0.77480072 -9.97755432
-0.13204950 0.77506536 -9.93589401
-0.14809513 0.72027063 -9.93525314
-0.42099622 0.77931362 -9.89474869
-0.43583006 0.72463030 -9.89431763
-0.67502415 0.77402073 -9.85051250
-0.68296343 0.71805602 -9.84609699
-0.88864553 0.74928373 -9.81056595
-0.88872910 0.68939120 -9.80775261
-1.06492460 0.71249861 -9.77808475
-1.02423954 0.64931893 -9.77127361
-0.86200029 0.64139360 -9.77333450
-0.69334012 0.66521126 -9.83375645
-0.98145115 0.62885791 -9.72255135
-0.69938511 0.64895672 -9.78673363
-0.85768247 0.63434577 -9.72760773
-0.95703447 0.62456799 -9.68016720
-0.85851818 0.63307828 -9.67772961
-0.94658804 0.62382966 -9.63923168
-0.94658804 0.62382966 -9.63923168
-0.92931676 0.56145793 -9.67511082
-0.95703447 0.62456799 -9.68016720
-0.89211369 0.55505073 -9.63801956
-0.92931676 0.56145793 -9.67511082
-0.69984478 0.55254364 -9.72003078
-0.78985065 0.55516219 -9.76683044
-1.00894594 0.54797518 -9.69426250
-0.89211369 0.55505073 -9.63801956
-0.62620473 0.54400545 -9.68997192
-0.21521656 0.51022893 -9.73290062
-0.28012338 0.51504809 -9.77151012
-0.89381295 0.55051011 -9.58939457
-0.55046159 0.53374016 -9.65651703
-0.15132655 0.50527030 -9.68940163
-0.15132655 0.50527030 -9.68940163
0.25389525 0.48985150 -9.74659157
-0.21521656 0.51022893 -9.73290062
0.28730974 0.48471180 -9.69413662
-0.46917486 0.52660877 -9.61789322
-0.09008292 0.50493610 -9.64065170
-0.09008292 0.50493610 -9.64065170
0.31782708 0.48833323 -9.64379978
0.70151538 0.47798437 -9.66229630
0.70880002 0.49219146 -9.61301804
-0.03407644 0.52236068 -9.59943771
0.34678441 0.52180344 -9.60563564
0.01184582 0.56418788 -9.57486820
-0.03407644 0.52236068 -9.59943771
-0.39077136 0.53149766 -9.57546616
-0.32590634 0.55463296 -9.53710747
0.01184582 0.56418788 -9.57486820
-0.27680838 0.60506803 -9.53766441
0.04677850 0.61519396 -9.57173347
-0.27680838 0.60506803 -9.53766441
-0.24510711 0.64865023 -9.57318306
-0.49217081 0.64993167 -9.60124874
-0.21943690 0.65812171 -9.62684917
-0.47372949 0.65015459 -9.65701771
-0.20474233 0.66046172 -9.68381596
-0.46254489 0.65011275 -9.71281528
-0.20605160 0.65787095 -9.74446106
-0.45340779 0.65078139 -9.76850224
-0.19086954 0.65990448 -9.80099678
-0.45865884 0.65693778 -9.82743263
-0.17552033 0.66170132 -9.85765839
-0.44815677 0.67262119 -9.87825871
-0.16390397 0.67469656 -9.91337204
-0.68368769 0.64229888 -9.72802544
-0.69047081 0.64168608 -9.67454052
-0.86389458 0.63192213 -9.63084602
-0.70105654 0.64197862 -9.62431335
-0.89647335 0.62896937 -9.58687401
-0.93165678 0.62428927 -9.59925652
-0.89647335 0.62896937 -9.58687401
-0.89402193 0.56195939 -9.56858540
-0.93165678 0.62428927 -9.59925652
-0.89381295 0.55051011 -9.58939457
-0.75225770 0.54559332 -9.58575916
-0.89402193 0.56195939 -9.56858540
-0.84652573 0.56028795 -9.53538036
-0.67718309 0.54289126 -9.55021477
1.09846365 0.48242763 -9.64828491
0.69552618 0.48426616 -9.71537876
1.11352038 0.48822191 -9.69952774
0.68897980 0.49050611 -9.76946259
0.21836366 0.49553433 -9.79718113
0.68253088 0.49616104 -9.82468891
0.18097958 0.49818075 -9.84806061
-0.34477943 0.50579965 -9.81017590
-0.28012338 0.51504809 -9.77151012
0.14232799 0.48380655 -9.91335869
-0.41683158 0.48476759 -9.83538628
-0.34477943 0.50579965 -9.81017590
0.67786485 0.48311013 -9.89546013
0.67084491 0.41781324 -9.93901443
0.10551497 0.42473581 -9.94292831
-0.51495785 0.44275919 -9.84797668
0.65660995 0.35261399 -9.93954372
0.07891154 0.36299074 -9.94512844
-0.55583799 0.37407786 -9.85225296
0.64783496 0.29312536 -9.89025116
0.05974593 0.28972682 -9.92606068
-0.57376391 0.29676071 -9.83538628
0.05616630 0.27953115 -9.84505272
-0.57177222 0.27863970 -9.76226234
-1.17611575 0.27639723 -9.65207386
-0.57376391 0.29676071 -9.83538628
-0.57177222 0.27863970 -9.76226234
-1.19433427 0.32591307 -9.69317627
-1.17611575 0.27639723 -9.65207386
-1.78766048 0.26618773 -9.48378944
-1.19433427 0.32591307 -9.69317627
-1.79292536 0.32970157 -9.53797150
-1.19193852 0.40303510 -9.69470882
-1.80249429 0.41192159 -9.53517151
-2.34289217 0.32066205 -9.39237690
-2.33679152 0.40784043 -9.39269638
-1.82755172 0.49792996 -9.51979446
-2.35350561 0.48930821 -9.36868477
-1.92959189 0.57808852 -9.52400112
-2.41448450 0.57099891 -9.38971615
-1.99671328 0.63448501 -9.55766582
-2.82745075 0.49024150 -9.26683903
-2.80893970 0.40232483 -9.27351093
-3.24881577 0.42291108 -9.15977097
-3.23706007 0.32777950 -9.16252804
-2.79313087 0.31010428 -9.27667236
-3.66187906 0.36938396 -9.05466652
-3.64949679 0.27432185 -9.04476357
-3.22159934 0.23482065 -9.15510464
-4.05971909 0.30651063 -8.89512920
-4.07226849 0.40359232 -8.91042233
-4.43616438 0.30823785 -8.72273636
-4.44679165 0.41541761 -8.73570347
-4.73155975 0.27604908 -8.48663425
-4.76065683 0.39132127 -8.52797413
-4.95224285 0.25177166 -8.23738384
-5.00278950 0.34109515 -8.30918503
-5.17608833 0.32906094 -8.08081341
-5.13530540 0.24771842 -8.01239681
-5.33640480 0.35925788 -7.90021610
-5.31441212 0.25951594 -7.86692715
-5.55725527 0.28883541 -7.80679798
-5.26641417 0.23025215 -7.78064060
-5.50807381 0.23373421 -7.73360395
-5.85086823 0.30770850 -7.77722788
-5.79611540 0.23617169 -7.69319725
-6.18924713 0.32985488 -7.68768167
-6.13261366 0.24306636 -7.61578274
-6.49999142 0.26648021 -7.48730564
-6.07123089 0.22601783 -7.55197620
-6.41494417 0.23392922 -7.43592358
-6.76488400 0.22643574 -7.20069933
-6.68567276 0.20246477 -7.14125252
-6.35413265 0.19165632 -7.37544632
-6.98591518 0.20704722 -6.84854507
-6.94445038 0.11237524 -6.83850241
-6.65131140 0.11477101 -7.13254738
-7.26444387 0.19309092 -6.53157425
-7.21903658 0.10539702 -6.51896906
-7.51361036 0.18678124 -6.18738747
-7.45632219 0.11688809 -6.16482306
-7.74377871 0.18251918 -5.83392382
-7.69497347 0.10518821 -5.81714010
-7.96407223 0.16907813 -5.47103071
-7.92309427 0.07710835 -5.45867586
-8.19291687 0.14340797 -5.11331892
-8.16129971 0.04567180 -5.10610390
-8.40578651 0.03583821 -4.74024391
-8.39652443 -0.07455915 -4.74574614
-8.14533710 -0.06856973 -5.11040783
-8.65957737 -0.10468636 -4.37228107
-8.38546467 -0.20534764 -4.75208330
-8.65259933 -0.21345414 -4.37778282
-8.94458199 -0.22221524 -3.98524976
-8.93703270 -0.35066375 -3.99275708
-8.64715290 -0.34612301 -4.38668299
-9.17218781 -0.32002115 -3.54132080
-9.16789818 -0.51290298 -3.56100154
-8.92648888 -0.51287508 -4.00480556
-9.32790947 -0.55181921 -3.06336427
-9.30937004 -0.77634650 -3.08046865
-9.16564178 -0.73929662 -3.58809257
-9.32310390 -0.80556864 -2.51274300
-9.31409168 -1.03576469 -2.52389956
-9.29708481 -1.01650155 -3.10982990
-9.23223400 -0.99936962 -2.13388777
-9.21812439 -1.20591545 -2.12417960
-9.30276775 -1.24963701 -2.55117154
-9.13458157 -1.18156826 -1.90607321
-9.12125111 -1.36407351 -1.89550149
-9.21380615 -1.39379692 -2.12827444
-9.07098389 -1.35224819 -1.71014106
-9.06964684 -1.51774669 -1.70404041
-9.11321449 -1.52776122 -1.88802195
-9.17916679 -1.53195357 -1.54439199
-9.05491066 -1.64664102 -1.70232713
-9.16522408 -1.66570902 -1.53922451
-9.33524895 -1.66948366 -1.36712384
-9.32600021 -1.77634311 -1.35575819
-9.14548779 -1.77493620 -1.53354168
-9.51570702 -1.77205312 -1.07358086
-9.30928612 -1.87072253 -1.34521437
-9.50633335 -1.87668407 -1.05597520
-9.70239067 -1.88637817 -0.59448230
-9.46334934 -1.96056139 -1.01644611
-9.64552021 -1.96877921 -0.56432712
-9.70704269 -1.95646644 -0.04097767
-9.54835510 -2.00052214 -0.52814084
-9.60238361 -1.99744391 -0.03004380
-9.57062721 -1.99333513 0.44834441
-9.47681904 -2.00776505 -0.01785636
-9.43850136 -2.00507665 0.44065589
-9.35075092 -1.99715137 0.88544858
-9.28761387 -2.01112199 0.42834309
-9.21123028 -2.01355934 0.86030763
-9.11081982 -2.02187467 1.29067028
-9.23369694 -2.00798798 1.31778908
-9.14278507 -2.00922751 1.74944723
-9.01999187 -2.02173519 1.72285771
-8.93644810 -2.01893568 2.15466905
-8.88367271 -2.03800368 1.69158828
-8.79437733 -2.03785062 2.13214660
-8.72009659 -2.02475762 2.56395793
-8.72009659 -2.02475762 2.56395793
-8.79437733 -2.03785062 2.13214660
-8.53585052 -2.05640340 2.52420616
-8.62131596 -2.07813168 2.09486008
-8.65056610 -2.02233434 2.98795557
-8.45953655 -2.05567908 2.93206048
-8.23860264 -2.13915253 2.84308529
-8.32956982 -2.15068531 2.45073318
-8.13782978 -2.13188195 3.20802569
-7.93650770 -2.28487277 3.10772657
-8.03902149 -2.28247690 2.75363636
-7.80308628 -2.27923155 3.43343067
-7.63042879 -2.46797657 3.34732461
-7.76222038 -2.47306037 3.02465677
-7.48146343 -2.46526027 3.65740085
-7.32512999 -2.66807318 3.58479166
-7.46867704 -2.67070603 3.27326679
-7.15670633 -2.65449309 3.87855744
-7.01023483 -2.86907554 3.81061435
-7.17101097 -2.87748861 3.51622152
-6.84764719 -2.86578870 4.09880877
-6.85083675 -3.07205582 3.73336697
-6.68854189 -3.06748676 4.01179743
-6.50450468 -3.03904486 4.26532412
-6.50301409 -3.22950315 3.91045356
-6.33293343 -3.20696688 4.15446711
-6.17107010 -3.20173001 4.40010977
-6.13943863 -3.32579088 4.03015518
-5.99508333 -3.32013583 4.26464128
-5.83817911 -3.32485771 4.50089693
-5.73643160 -3.37023664 4.41632271
-5.87210894 -3.37103081 4.17636299
-5.56325817 -3.37639308 4.66445923
-5.49168015 -3.39792681 4.60328531
-5.64965677 -3.40320563 4.34495354
-5.35335588 -3.36895561 4.91591024
-5.28369951 -3.39930558 4.84763288
-5.05669308 -3.38787031 5.08472395
-5.12168312 -3.36583567 5.15510416
-4.81596661 -3.39168692 5.29164553
-4.88416052 -3.35966516 5.37960386
-4.56415319 -3.39735556 5.48738289
-4.63575935 -3.36445665 5.58933926
-4.31206179 -3.40340066 5.67027760
-4.39138460 -3.35660100 5.78114891
-4.06690598 -3.38472223 5.84917545
-4.24420214 -3.42557454 5.56840467
-3.99375343 -3.41257930 5.74377823
-3.74355602 -3.41186905 5.91787052
-3.67558479 -3.43457270 5.82168055
-3.92590785 -3.43214869 5.64547110
-3.41913319 -3.43519902 5.98546600
-3.61619377 -3.45212245 5.73707867
-3.35846066 -3.44724751 5.89713144
-3.10259414 -3.44708014 6.05342293
-3.30505896 -3.47445011 5.81832361
-3.05424857 -3.48113585 5.97854328
-2.80063820 -3.46509004 6.12051630
-3.02565336 -3.55536056 5.93695259
-2.77693200 -3.54698944 6.08530474
-2.53268194 -3.53978825 6.22680521
-2.77386785 -3.64617443 6.08594561
-2.52772331 -3.63763642 6.22949314
-2.28650951 -3.53113866 6.35571337
-2.27907157 -3.62692523 6.35792780
-2.02863741 -3.51929951 6.42628860
-2.01902676 -3.61777425 6.43464613
-1.76655889 -3.51310158 6.45642996
-1.75239348 -3.61149240 6.45410395
-1.49372733 -3.52162576 6.41996527
-1.48181856 -3.61477971 6.39894676
-1.20074129 -3.50106692 6.36859703
-1.19076860 -3.59203434 6.31512547
-0.92685139 -3.51413202 6.42949200
-0.92306280 -3.60931969 6.40418434
-0.67340845 -3.61899996 6.56466818
-0.68378520 -3.71895051 6.56547642
-0.92352247 -3.71592832 6.40153790
-0.41088411 -3.72415972 6.65374088
-0.41620481 -3.83608913 6.65658236
-0.69175225 -3.83160424 6.56660461
-0.12168669 -3.83830380 6.67247534
-0.12055849 -3.72925782 6.66736317
-0.12231347 -3.95644546 6.67562294
-0.41974264 -3.95478773 6.65701437
0.17384818 -3.85003185 6.64552355
-0.12168669 -3.83830380 6.67247534
-0.12231347 -3.95644546 6.67562294
0.17622995 -3.97267246 6.64927053
0.47059482 -3.86891913 6.59465647
0.47687659 -3.99969363 6.59876537
0.77292681 -3.89344692 6.53952742
0.78309458 -4.02685404 6.54518223
1.07903337 -3.91984129 6.48350716
1.08542669 -4.05361080 6.48622322
1.38330138 -3.92973089 6.42194271
1.38947177 -4.06590986 6.42453384
1.68836355 -3.92971659 6.36595011
1.69454765 -4.06788731 6.36739922
1.99073720 -3.92697263 6.30481815
1.99746466 -4.06361151 6.30798006
2.29274893 -3.91946554 6.23906183
2.30255461 -4.05120087 6.24276686
2.59138989 -3.90266752 6.16886234
2.60107017 -4.02849770 6.17545033
2.89994788 -3.99543142 6.09554243
2.89210606 -3.88095307 6.09771538
3.18035626 -3.86145329 5.99075842
3.19062161 -3.97395349 5.99137163
3.44203091 -3.84125686 5.82544088
3.45359159 -3.94865942 5.81941032
3.61305928 -3.83256555 5.55634260
3.62949491 -3.94560909 5.55396128
3.69841290 -3.82858205 5.32365274
3.71679854 -3.94154239 5.32135487
3.87359166 -3.82844281 5.21247578
3.87665606 -3.94166708 5.21854877
4.10414982 -3.93162513 5.22775507
4.10626698 -3.82000208 5.21927309
4.39696884 -3.83340120 5.14928198
4.39567375 -3.94484282 5.15685940
4.62146854 -3.84487844 4.95577383
4.62440729 -3.95637608 4.95690155
4.82279110 -3.85025454 4.73165035
4.82581377 -3.96334004 4.72892046
5.01021290 -3.85142446 4.48749781
5.01629972 -3.96459341 4.48397350
5.20239782 -3.84483647 4.22139359
5.20883322 -3.95898056 4.21757698
5.38263321 -3.84597898 3.95307469
5.39029408 -3.95946789 3.94962072
5.55744982 -3.84349918 3.67981172
5.56577873 -3.95616722 3.67648268
5.73120737 -3.83855462 3.40434766
5.74260139 -3.94916105 3.40140891
5.90786266 -3.83546281 3.13221288
5.91996670 -3.94723868 3.12863302
6.07721901 -3.83051825 2.86169338
6.09052086 -3.94234991 2.85850382
6.26549053 -3.93080306 2.58964205
6.25178480 -3.81696558 2.59425235
6.41963768 -3.91869926 2.32123995
6.40658617 -3.79995871 2.32689476
6.53269482 -3.89709592 2.03636050
6.51989460 -3.78033352 2.04427171
6.57923031 -3.76658583 1.75004613
6.59233713 -3.87673283 1.74054694
6.54041147 -3.76341081 1.46265948
6.55102539 -3.87545133 1.45300698
6.44007063 -3.77374554 1.18174946
6.46200800 -3.88713717 1.17348981
6.54301596 -3.77604365 0.92614758
6.55899191 -3.89425492 0.92472690
6.72702551 -3.77229667 0.71167660
6.74900484 -3.90046668 0.70655096
6.82842541 -3.78720045 0.42968023
6.83864880 -3.90821099 0.42526487
6.84394121 -3.81631088 0.11882400
6.85305071 -3.93711257 0.11394902
6.83257532 -3.84188342 -0.19275652
6.83952570 -3.96779752 -0.19926111
6.79365921 -3.87142587 -0.51050735
6.80056810 -4.00005531 -0.51680303
6.74436665 -3.89867043 -0.82740855
6.79365921 -3.87142587 -0.51050735
6.80056810 -4.00005531 -0.51680303
6.75460386 -4.02532196 -0.83669883
6.67595005 -3.92431235 -1.15041041
6.68358278 -4.05063009 -1.15637183
6.67196608 -3.79667187 -1.14116204
6.61179495 -3.82675743 -1.46933126
6.61672592 -3.95817304 -1.47678292
6.60074997 -3.70294690 -1.46392703
6.53822517 -3.73101282 -1.79757023
6.54428387 -3.86207986 -1.79900491
6.52777863 -3.60526609 -1.79399061
6.45982122 -3.62349868 -2.12778711
6.46806717 -3.75034523 -2.13090706
6.45498800 -3.50805926 -2.12470889
6.38006687 -3.51929951 -2.45647192
6.38299179 -3.63203669 -2.46133280
6.39561081 -3.41544843 -2.45700121
6.28816605 -3.41418123 -2.77734256
6.27712107 -3.52177882 -2.78043461
6.36524677 -3.34685111 -2.79950285
6.21795321 -3.35119629 -3.11457944
6.15094280 -3.41632628 -3.08766937
6.31117630 -3.33616757 -3.15885806
6.10251379 -3.35199070 -3.44085455
6.00550127 -3.36820316 -3.38117075
6.19077826 -3.33336806 -3.49538445
5.94115210 -3.34675336 -3.72723818
5.85765076 -3.36036134 -3.66327858
6.03819180 -3.32265711 -3.79261875
5.85540819 -3.32424521 -4.00869131
5.76204538 -3.34648871 -3.93143010
5.96236467 -3.29239035 -4.08957434
5.69809961 -3.32796407 -4.22086430
5.79380226 -3.30067801 -4.30790329
5.90468740 -3.26106524 -4.40774298
5.62277412 -3.31496859 -4.56587315
5.71849060 -3.27330804 -4.66677094
5.84557486 -3.20097756 -4.80490017
5.49858809 -3.27967358 -4.95649815
5.59025097 -3.21937704 -5.07199335
5.71794748 -3.09027410 -5.23377275
5.31024647 -3.21654987 -5.34657907
5.42632675 -3.08690333 -5.50643682
5.54300547 -2.92598724 -5.66516590
5.14970636 -3.09045506 -5.77620411
5.26465893 -2.91859126 -5.93606138
5.35997152 -2.72214365 -6.08258915
5.08142900 -2.71809053 -6.35071278
4.98614454 -2.90939856 -6.19316769
5.17508459 -2.52110004 -6.50324392
4.87574720 -2.51011038 -6.75192308
4.78845739 -2.71091771 -6.59389019
4.97055864 -2.32429004 -6.91842461
5.27481270 -2.33029342 -6.66091442
5.06995249 -2.15288615 -7.08780909
5.38897038 -2.15881968 -6.82687235
5.17441607 -2.03409004 -7.26340532
5.51950836 -2.02992511 -7.00797081
5.26685953 -1.96206558 -7.43667603
5.63182735 -1.95252478 -7.20671654
5.33382750 -1.93789959 -7.58345413
5.69102383 -1.92597687 -7.35348082
5.39753628 -1.92136645 -7.71658325
5.74839544 -1.90816236 -7.49025917
5.33382750 -1.93789959 -7.58345413
5.69102383 -1.92597687 -7.35348082
5.45588303 -1.89721465 -7.83186913
5.80451345 -1.89004135 -7.61033630
5.50218153 -1.85375762 -7.92521811
5.85480928 -1.85870218 -7.71286392
6.21267366 -1.85995591 -7.50677824
5.87482452 -1.74578393 -7.76275587
6.23231316 -1.74638271 -7.55650330
6.59074926 -1.73817909 -7.34474802
6.57338047 -1.59206915 -7.34448338
6.22139359 -1.59063423 -7.55966473
6.91575670 -1.58851719 -7.10824203
6.89912605 -1.42495489 -7.12760305
6.55967474 -1.41771209 -7.35551453
7.20502424 -1.43410599 -6.84698534
6.87784338 -1.22790849 -7.13843870
7.18142891 -1.23813188 -6.87276697
6.85093355 -0.99531639 -7.13917732
6.54165125 -1.22108352 -7.35807753
6.52215099 -0.98704278 -7.36002731
6.49890423 -0.72613424 -7.35217142
6.17067957 -0.98287821 -7.55154419
6.15676498 -0.72093886 -7.55849457
6.14181995 -0.50269324 -7.56047249
5.80476379 -0.72885042 -7.76417685
5.79031992 -0.51450467 -7.76416302
5.77736664 -0.33282143 -7.76076460
5.43171692 -0.51469970 -7.97293711
5.42787266 -0.33394945 -7.98123837
5.42173004 -0.18974780 -7.98024940
5.06759787 -0.33163735 -8.20026398
5.06640053 -0.18226826 -8.20633698
5.06121874 -0.06604884 -8.20258999
4.71375895 -0.16814470 -8.43865013
4.71169710 -0.04629824 -8.43456936
4.70863295 0.04907019 -8.43169975
4.34145021 -0.05556065 -8.67705059
4.34073973 0.04528181 -8.67673016
4.33977842 0.14342192 -8.67472458
3.96285915 0.07742860 -8.90809631
3.96564507 0.17970565 -8.90942001
3.97125816 0.27801299 -8.91219139
3.57830763 0.26475298 -9.14536858
3.56936526 0.17445451 -9.12436390
3.60415888 0.30975598 -9.18245983
3.16626072 0.25069919 -9.28298187
3.19142938 0.29968569 -9.33136940
3.21562314 0.30642706 -9.39141560
2.77615142 0.26914045 -9.37612247
2.79970455 0.29185787 -9.42264271
2.81573606 0.30419853 -9.47962379
2.42540407 0.28667647 -9.41133308
2.43664432 0.29790282 -9.47459698
2.41128039 0.34484184 -9.54184246
2.11390686 0.33367127 -9.47317600
2.13076043 0.28710830 -9.43722630
2.12475729 0.39839697 -9.48313522
1.89369738 0.38313133 -9.43707275
1.88805640 0.32314125 -9.43846607
1.90004873 0.44100422 -9.43187809
1.69716632 0.44656166 -9.51657677
1.69843376 0.38267174 -9.52391720
1.68082821 0.48159185 -9.47196484
1.44863999 0.47738543 -9.61389542
1.46834886 0.44958425 -9.65541553
1.42142379 0.48695442 -9.55918407
1.12977493 0.47859725 -9.75212193
1.14357805 0.45351198 -9.79716587
1.14757550 0.40179551 -9.81137371
1.47206783 0.38889772 -9.66324425
1.45942068 0.33287734 -9.63431454
1.14238024 0.34729326 -9.79506302
1.44606328 0.29155141 -9.59052372
1.13764453 0.29929569 -9.76513100
1.12356281 0.26564443 -9.71941757
1.42732942 0.27192622 -9.52863884
0.68177873 0.28826433 -9.87052822
0.66583061 0.26459983 -9.82415962
1.10424399 0.23590709 -9.66231155
0.04475886 0.26960018 -9.79208183
0.64674854 0.22930504 -9.77709579
0.02879680 0.22076684 -9.76170540
-0.57036543 0.26769191 -9.69554424
-0.57366639 0.20568225 -9.65700436
-1.13612711 0.18988739 -9.49724388
-1.15530670 0.25915369 -9.56235981
-0.57036543 0.26769191 -9.69554424
-1.15530670 0.25915369 -9.56235981
-1.15530670 0.25915369 -9.56235981
-1.72293472 0.18665598 -9.34467125
-1.74487209 0.25965515 -9.39443779
-1.13612711 0.18988739 -9.49724388
-2.25133991 0.17857738 -9.20209980
-2.27721930 0.24217492 -9.26334286
-2.31284833 0.25823450 -9.35474110
-2.77124929 0.24698026 -9.23797894
-2.74021649 0.23433316 -9.14929581
-3.18892312 0.22369181 -9.06551647
-3.16407466 0.17321493 -8.99998283
-2.71815372 0.16765748 -9.09167480
-3.61796260 0.22851111 -8.97705746
-3.58647037 0.19643378 -8.89330482
-3.98557758 0.20093268 -8.74855995
-4.02755785 0.23796852 -8.83526421
-4.33905506 0.20515303 -8.56708527
-4.38561773 0.24480739 -8.64555836
-4.67585993 0.24207743 -8.41378784
-4.63974333 0.20133662 -8.36133289
-4.89615345 0.24473779 -8.15980148
-4.84918642 0.20576580 -8.10867023
-5.08578968 0.24139492 -7.92743254
-5.03093910 0.21786976 -7.85716343
-5.21095085 0.19914980 -7.69446468
-5.01428080 0.13018981 -7.83432055
-5.16647768 0.13312873 -7.62973881
-5.39802456 0.14584544 -7.56401014
-5.45304251 0.20820327 -7.64802694
-5.74179411 0.21142074 -7.61459875
-5.69672155 0.14065011 -7.57097435
-6.02987719 0.15540035 -7.52881289
-5.99115610 0.06788764 -7.53353500
-5.64921093 0.04741270 -7.57119751
-6.33525944 0.09905958 -7.37167168
-6.32067633 0.00454075 -7.38376188
-5.96387005 -0.02809354 -7.53077698
-6.64292622 0.01711813 -7.15025043
-6.63208961 -0.09460225 -7.16920710
-6.30545235 -0.09819590 -7.39321899
-6.91460133 -0.11100999 -6.87762785
-6.92847395 0.00338484 -6.85666561
-7.19349146 -0.12591353 -6.55496025
-7.20122194 -0.00582205 -6.53130960
-7.41620874 -0.13144308 -6.19323730
-7.43591738 -0.00293879 -6.17709398
-7.65456676 -0.14814332 -5.83971786
-7.67544556 -0.01249370 -5.82659721
-7.88589096 -0.17488623 -5.47997284
-7.90590668 -0.03840082 -5.46778536
-8.12926388 -0.19267276 -5.11650848
-7.85445499 -0.32234704 -5.48585033
-8.11078072 -0.34128976 -5.12531090
-8.37285900 -0.34785008 -4.75868559
-8.35096359 -0.52627414 -4.76730728
-8.08487320 -0.51802844 -5.13458776
-8.63119125 -0.52308458 -4.39504004
-8.60826492 -0.72869712 -4.40582085
-8.32341290 -0.72816789 -4.77637434
-8.90942764 -0.71252608 -4.02030802
-8.88010693 -0.96052307 -4.03886080
-8.57602119 -0.95957595 -4.41611385
-9.14051437 -0.97993946 -3.61308050
-9.11155701 -1.21306074 -3.63777566
-8.84683228 -1.19963348 -4.05897331
-9.28190327 -1.24189258 -3.13682318
-9.27025890 -1.42785203 -3.15566850
-9.09258652 -1.39943779 -3.65631461
-9.29236317 -1.43101370 -2.57844377
-9.28769684 -1.55029750 -2.59837532
-9.25862789 -1.56742942 -3.16905379
-9.21358395 -1.54180110 -2.15225935
-9.21464252 -1.66232455 -2.17305470
-9.28252888 -1.67029154 -2.61967206
-9.10801888 -1.65654421 -1.89576626
-9.10191822 -1.76614749 -1.91083670
-9.21490669 -1.77141237 -2.19111991
-9.03400421 -1.76187134 -1.70204854
-9.02110577 -1.84918904 -1.70880389
-9.08356094 -1.85978878 -1.92099071
-9.13320255 -1.86767209 -1.53173089
-8.99375057 -1.92216051 -1.71599114
-9.10145950 -1.93867958 -1.51429248
-9.27211094 -1.95264983 -1.30523968
-9.20245457 -1.99358594 -1.24817455
-9.04138470 -1.98235941 -1.48371935
-9.38071156 -1.99408722 -0.95205462
-9.12001228 -2.00094008 -1.17849028
-9.28934097 -2.00484014 -0.87948716
-9.43402958 -2.00656700 -0.48131323
-9.18189621 -2.00914407 -0.79601371
-9.31205845 -2.00946426 -0.42586386
-9.33753395 -2.00729156 -0.00096109
-9.16525173 -2.01701355 -0.35420173
-9.18629837 -2.01784945 0.01874773
-9.12662792 -2.02399182 0.41605815
-9.12662792 -2.02399182 0.41605815
-8.94479179 -2.05494094 0.04883329
-8.92031956 -2.06453753 0.41662920
-9.18629837 -2.01784945 0.01874773
-8.86500931 -2.07595921 0.80878609
-9.05656719 -2.03413177 0.83135027
-9.05656719 -2.03413177 0.83135027
-8.79182816 -2.08431602 1.22811747
-8.97606087 -2.04013491 1.25817525
-8.97606087 -2.04013491 1.25817525
-8.72012520 -2.08097315 1.65913475
-8.88367271 -2.03800368 1.69158828
-8.59340286 -2.16405678 1.21354830
-8.51937389 -2.17171741 1.62967610
-8.42297459 -2.15801191 2.04264212
-8.32034874 -2.30934477 1.60321188
-8.22871304 -2.29680896 1.99606526
-8.13689709 -2.28891182 2.38299870
-7.96733141 -2.47827005 2.32625437
-8.05803394 -2.48522019 1.95898759
-7.86880064 -2.47361755 2.68021917
-7.71138096 -2.68271208 2.61865497
-7.81126261 -2.68796301 2.27470493
-7.60222340 -2.67814350 2.95377469
-7.45214415 -2.89351988 2.89462042
-7.55781937 -2.89782405 2.56471014
-7.31322098 -2.88013458 3.20808125
-7.15061951 -3.08293366 3.14288211
-7.28277349 -3.09558082 2.83311248
-7.00818682 -3.07931209 3.44486594
-6.95730639 -3.25091147 3.06195760
-6.81912184 -3.24575758 3.36070991
-6.66341496 -3.23368216 3.64391804
-6.61791086 -3.34995675 3.27460384
-6.46319294 -3.33852148 3.54959416
-6.30008984 -3.33048511 3.80222940
-6.32801628 -3.38507080 3.48861527
-6.16722584 -3.37720132 3.73425817
-6.02344227 -3.36729789 3.96052670
-6.06749773 -3.40140867 3.68454742
-5.92254400 -3.39561439 3.90027213
-5.78061247 -3.40023875 4.11438084
-5.82367945 -3.41568542 3.84582567
-5.68974304 -3.41391659 4.05246878
-5.56317472 -3.42026830 4.28442001
-5.48113585 -3.43131351 4.22848320
-5.59827471 -3.42141008 3.99233937
-5.42028284 -3.41922355 4.54215288
-5.34669828 -3.42596459 4.48869514
-5.15649080 -3.43163395 4.72507620
-5.22060347 -3.41946006 4.78539991
-4.93005514 -3.42787313 4.93804264
-4.99171686 -3.41365218 5.01009464
-4.68818617 -3.42904305 5.13043690
-4.74975061 -3.41441822 5.21056795
-4.49871731 -3.41462708 5.39126205
-4.43810034 -3.43209338 5.30796957
-4.18082714 -3.43564487 5.47752142
-4.38049221 -3.44084024 5.23095894
-4.12281513 -3.44731712 5.39598370
-3.86797905 -3.44274879 5.56410122
-4.06973314 -3.46215081 5.32253885
-3.81349087 -3.46304250 5.48837137
-3.56311226 -3.47861457 5.66180944
-3.77965856 -3.52460647 5.44168329
-3.52677274 -3.53712797 5.60995340
-3.27321839 -3.54643250 5.77234554
-3.52001739 -3.63253832 5.60142899
-3.26591969 -3.64478183 5.76426744
-3.01998425 -3.65343118 5.93097734
-3.26278591 -3.75793648 5.76354313
-3.01643276 -3.76009583 5.93015528
-2.77186203 -3.75076342 6.09008265
-2.76829648 -3.86116052 6.09382963
-3.01446867 -3.87437892 5.93381882
-2.52036905 -3.84533811 6.24051046
-2.52478456 -3.73892426 6.23670816
-2.27419662 -3.72878456 6.36663294
-2.26636887 -3.83393049 6.36887503
-2.00976419 -3.71986985 6.44583035
-1.99860752 -3.82521129 6.44922876
-1.73852062 -3.71280837 6.45886755
-1.72480118 -3.81621313 6.46055317
-1.46786213 -3.70782185 6.39825106
-1.45312572 -3.81183982 6.40294456
-1.18487692 -3.70365739 6.31122541
-1.17943072 -3.81912446 6.31232595
-0.92341101 -3.83030891 6.40840483
-1.17388725 -3.94297695 6.32518196
-0.92467850 -3.95349240 6.42121887
-0.69900906 -3.95755982 6.57769156
-0.92552817 -4.08025599 6.43946505
-0.69888365 -4.08269310 6.59018517
-0.41893479 -4.07698250 6.66053820
-0.69297796 -4.20135069 6.59755325
-0.41442192 -4.19871759 6.66875601
-0.12078134 -4.08233166 6.68131971
-0.11631029 -4.21105862 6.68301868
0.17901565 -4.09873915 6.65252972
-0.12078134 -4.08233166 6.68131971
-0.11631029 -4.21105862 6.68301868
0.18220527 -4.22778702 6.65318394
0.48268479 -4.12726450 6.60001850
0.48732296 -4.25030899 6.60520029
0.78668821 -4.15144491 6.54887342
0.78831786 -4.27441883 6.55025244
1.08732080 -4.17781115 6.48225355
1.09070551 -4.29875231 6.48512268
1.39261961 -4.19402409 6.42552233
1.39583707 -4.31405973 6.43141460
1.69676232 -4.19786835 6.36498976
1.69729161 -4.31601000 6.36026764
2.00462389 -4.30072975 6.30123854
2.00167108 -4.18597317 6.30378771
2.30820966 -4.27556133 6.23733473
2.30812597 -4.17154360 6.24023151
2.61316013 -4.24518299 6.16954470
2.60807610 -4.13825417 6.17262316
2.91028285 -4.21506977 6.09043074
2.90609026 -4.10830832 6.09176826
3.20262790 -4.19492912 5.98361301
3.19815683 -4.08503342 5.98840475
3.46381521 -4.17785311 5.81145668
3.45997095 -4.06173134 5.81555176
3.63927269 -4.06351376 5.56018686
3.63604116 -4.18485928 5.56467152
3.72593570 -4.19350863 5.33767891
3.72596335 -4.06738615 5.32919693
3.88288188 -4.06230211 5.22871637
3.89458179 -4.18715715 5.23963642
4.10690784 -4.05206490 5.24322987
4.12299538 -4.17093039 5.24492931
4.39432240 -4.06135511 5.15965891
4.40113354 -4.17480278 5.15429688
4.62827969 -4.06882095 4.95683241
4.63573122 -4.18019295 4.95266771
4.83280563 -4.08001900 4.72587013
4.83960295 -4.19352245 4.71840429
5.02610540 -4.08045101 4.47259378
5.03617573 -4.19699097 4.46189642
5.21437693 -4.08061790 4.21541834
5.22347212 -4.19733906 4.20906687
5.39734125 -4.08110571 3.94611073
5.40348434 -4.20201874 3.93910456
5.57437277 -4.07588196 3.67343235
5.58688068 -4.19346666 3.67224860
5.76225424 -4.18909311 3.39745307
5.74847889 -4.06865358 3.39653397
5.93835211 -4.18317366 3.12345195
5.92964697 -4.06518555 3.12505341
6.11280680 -4.16957951 2.85000753
6.10242987 -4.05599260 2.85413051
6.28260899 -4.15616608 2.58716297
6.27504539 -4.04340076 2.58785915
6.43873358 -4.14503765 2.31357908
6.43117046 -4.03553152 2.31649041
6.55563545 -4.12394953 2.02687502
6.54804468 -4.01396990 2.03141570
6.60995674 -4.10360003 1.72496092
6.60698986 -3.99041724 1.73235703
6.55681944 -3.98997140 1.44469166
6.55764103 -4.10538340 1.43792248
6.46430635 -4.00579453 1.16711068
6.46698046 -4.12666559 1.16188741
6.57028818 -4.01547480 0.92202479
6.58365965 -4.12938166 0.92215014
6.76670790 -4.01504278 0.70383483
6.76808691 -4.12258434 0.69638306
6.84711695 -4.02451420 0.42065457
6.85579443 -4.13470268 0.41732565
6.86161709 -4.05269146 0.11410223
6.87133884 -4.16523361 0.11184582
6.84867668 -4.08649588 -0.20196325
6.86129665 -4.19423294 -0.20495787
6.81353521 -4.11769581 -0.51928228
6.82552814 -4.23018265 -0.52273655
6.76461840 -4.14208412 -0.84086347
6.81353521 -4.11769581 -0.51928228
6.82552814 -4.23018265 -0.52273655
6.77585888 -4.25582457 -0.84472167
6.69855595 -4.17052650 -1.16023004
6.71745634 -4.28269291 -1.16594064
6.63306379 -4.20572376 -1.48385870
6.64697886 -4.31321049 -1.48899829
6.62602997 -4.08446217 -1.48115647
6.55541229 -4.11563396 -1.80716693
6.56382561 -4.23199272 -1.81152666
6.54878235 -3.99253392 -1.80275166
6.48173094 -4.01419306 -2.13649225
6.48717690 -4.13663864 -2.13962626
6.47383308 -3.88251305 -2.13319135
6.38934326 -3.88663578 -2.46882629
6.39714289 -4.02267551 -2.47177935
6.38829851 -3.75576377 -2.46605468
6.29128599 -3.75398064 -2.79994869
6.29439211 -3.87726188 -2.80738640
6.28681564 -3.63228750 -2.79153585
6.13700056 -3.62979460 -3.11208606
6.13748789 -3.74250388 -3.12563848
6.14103985 -3.52183461 -3.09909081
5.92532873 -3.52403545 -3.38436031
5.90910244 -3.62760758 -3.41110325
5.94792128 -3.43504620 -3.35758996
5.70025873 -3.43000364 -3.55956697
5.63535166 -3.52715540 -3.57345390
5.76093102 -3.37458229 -3.61131144
5.57885742 -3.37461042 -3.79504228
5.50300264 -3.42781734 -3.74460721
5.66833401 -3.35825825 -3.85780406
5.45320845 -3.38462496 -4.02388763
5.53030300 -3.36662936 -4.07274866
5.60789871 -3.35214376 -4.13893700
5.40138054 -3.36945653 -4.34725142
5.47036839 -3.35396838 -4.41761827
5.54147387 -3.33731008 -4.48840332
5.27691555 -3.36151743 -4.69776201
5.34459400 -3.34601545 -4.77530241
5.41418076 -3.32083249 -4.85612917
5.09730768 -3.34676719 -5.02850819
5.15928984 -3.32332540 -5.12177372
5.22453070 -3.28630400 -5.22001123
4.93689299 -3.29024529 -5.46757650
4.87620640 -3.32197475 -5.36130190
5.02565956 -3.22695446 -5.60666656
4.65780783 -3.29609537 -5.70370626
4.75086403 -3.22276163 -5.85095787
4.87961912 -3.09007907 -6.03124857
4.48534536 -3.23203826 -6.07988691
4.60542250 -3.09173679 -6.26528931
4.69820023 -2.90671015 -6.43262625
4.40754032 -2.90951014 -6.65966082
4.32115602 -3.09612393 -6.48594475
4.48742056 -2.70994258 -6.82415676
4.16487837 -2.70307565 -7.02536774
4.09896851 -2.90765738 -6.86375523
4.23280764 -2.50697613 -7.19406939
4.56404114 -2.50853610 -6.98625612
4.29912138 -2.31476331 -7.36289644
4.64365673 -2.31529236 -7.15321732
4.36869383 -2.15005875 -7.54700327
4.72633600 -2.15252399 -7.33192015
4.43626118 -2.02722311 -7.74602795
4.80798483 -2.02886677 -7.51732159
4.52609968 -1.98880851 -7.94209957
4.89496851 -1.98386359 -7.69036961
4.61176062 -1.97263741 -8.07585526
4.97206259 -1.95951676 -7.82794142
4.68877077 -1.95264983 -8.19682407
5.04439306 -1.93691087 -7.95292187
4.61176062 -1.97263741 -8.07585526
4.97206259 -1.95951676 -7.82794142
4.75690937 -1.92990470 -8.31145477
5.10650063 -1.91046071 -8.06384850
4.80401516 -1.86210084 -8.40076447
5.15387106 -1.85396647 -8.15372944
4.81423855 -1.74046326 -8.44007111
5.16722870 -1.73452961 -8.19555569
5.51810169 -1.73788655 -7.97020721
5.50569153 -1.58139968 -7.97180891
5.15116930 -1.58386517 -8.19494343
5.86323595 -1.58692932 -7.76331329
5.84730148 -1.41129100 -7.75814533
5.49034214 -1.40959179 -7.97034645
6.20540285 -1.41020465 -7.55651712
6.18955231 -1.21381283 -7.55601549
5.83202219 -1.21613872 -7.75580549
5.82089329 -0.97968864 -7.76409340
5.47723532 -1.21567917 -7.97324324
5.46141243 -0.98693150 -7.97388411
5.44224691 -0.73166376 -7.96978903
5.10273981 -0.99466181 -8.19857883
5.08493900 -0.74422735 -8.19660091
5.07738972 -0.51368296 -8.20385742
4.72983217 -0.75603884 -8.43693733
4.71952486 -0.52454710 -8.43668652
4.71430159 -0.32570398 -8.43721581
4.35700798 -0.52314037 -8.68271923
4.34955645 -0.32796028 -8.68018436
4.34437513 -0.17233716 -8.67852688
3.97202444 -0.33336443 -8.92451763
3.96797109 -0.18031828 -8.92071629
3.96596551 -0.04440405 -8.91585445
3.56035352 -0.04044830 -9.12079906
3.55472660 -0.17471886 -9.12121677
3.56561852 0.07589651 -9.12298584
3.13858461 0.07609151 -9.27380276
3.12338877 -0.04220328 -9.27564240
3.15110660 0.16719788 -9.27391434
2.72678876 0.12386632 -9.35422611
2.70032454 0.01682563 -9.35692787
2.74961758 0.20628119 -9.35464478
2.37294912 0.18602914 -9.31367970
2.33864331 0.08840429 -9.31770515
2.40082002 0.26985085 -9.34905910
2.09368277 0.24089348 -9.30146503
2.06705141 0.17175244 -9.23590374
2.11730552 0.26586732 -9.37549496
1.84691155 0.24724488 -9.26859379
1.86928070 0.26696771 -9.35318089
1.88655198 0.29043722 -9.41261482
1.65428042 0.26454404 -9.37828159
1.67227602 0.28086823 -9.45258904
1.68694270 0.32362875 -9.50727272
1.62718952 0.24427819 -9.29909706
1.41365170 0.23651998 -9.47391415
1.42010057 0.15241973 -9.44442749
1.60508502 0.17761633 -9.23828506
1.09296203 0.14998224 -9.64258862
1.42849946 0.05297015 -9.41921711
1.08346272 0.05529631 -9.62874317
0.61774939 0.12971626 -9.76606369
1.06250024 -0.06345808 -9.62832546
0.58110350 0.01835798 -9.76515865
0.00575907 0.14058051 -9.76404476
-0.02059365 0.06054732 -9.76639843
-0.59167600 0.11787703 -9.65506840
-0.63035542 0.00998688 -9.65055466
-1.14036131 0.09060506 -9.48754978
-1.15359342 -0.01594787 -9.49671459
-1.71254408 0.07474047 -9.32962894
-1.14036131 0.09060506 -9.48754978
-1.15359342 -0.01594787 -9.49671459
-1.71119308 -0.03976581 -9.32180119
-2.23535013 -0.03906923 -9.19812965
-2.24075460 0.07283220 -9.19578934
-2.71227598 -0.03870713 -9.09083843
-2.71208096 0.06854224 -9.08528042
-3.15900469 0.07414153 -8.98182011
-3.16190171 -0.03310797 -8.98344994
-3.57841969 -0.00785545 -8.87945938
-3.57371187 0.09854432 -8.87076855
-3.97577190 0.10049430 -8.72276402
-3.97997808 -0.00227011 -8.72644043
-4.33664513 0.10642780 -8.55434036
-4.34011364 0.00555771 -8.54991150
-4.63766813 0.11074565 -8.34757137
-4.64096928 0.01624063 -8.33979988
