1.55162799 1.49668574 2.31578302
1.55354869 1.44207335 2.31569076
1.55483210 1.38700807 2.30992007
1.49659598 1.44676208 2.33044481
1.49873495 1.39096701 2.32698059
1.50102484 1.33538151 2.32573915
1.45271146 1.39811313 2.36308122
1.45225012 1.33929849 2.35485315
1.45489240 1.28252208 2.35330963
1.42846251 1.35006833 2.42837143
1.42999756 1.28642249 2.42212248
1.44041502 1.22278476 2.43022513
1.37546062 1.28695905 2.44446754
1.38149142 1.22145951 2.44651413
1.38251460 1.15632045 2.43846178
1.32369983 1.22066271 2.45579076
1.32494962 1.15563250 2.44902205
1.32239151 1.09389889 2.43119812
1.26793838 1.15533078 2.45600033
1.26577449 1.09345448 2.43811774
1.25875378 1.04790080 2.39201045
1.21042383 1.09246480 2.44500422
1.20558405 1.04851294 2.39721918
1.20133150 1.00493038 2.34771514
1.15118980 1.05153251 2.39509726
1.14982259 1.00186062 2.35938239
1.14934433 0.93993402 2.34587812
1.09631717 1.00737131 2.34882212
1.09664428 0.94391823 2.33681941
1.09999096 0.88056552 2.33031058
1.04389393 0.94598138 2.33755732
1.04932916 0.87968498 2.35054159
1.05831254 0.81223100 2.34162545
0.99853325 0.87880415 2.34251475
1.01035154 0.81031024 2.34851170
1.01920056 0.74174052 2.34670854
0.96285176 0.80027837 2.35634589
0.97113889 0.73415798 2.34927511
0.97807556 0.66600776 2.35044932
0.92317784 0.72466296 2.34834409
0.92979586 0.65806460 2.34972811
0.93378842 0.59340358 2.34561801
0.88072759 0.65059942 2.35104489
0.88396519 0.58633262 2.34624720
0.89006311 0.52339977 2.34936738
0.83448613 0.57946330 2.35018945
0.84026515 0.51681519 2.35040736
0.84376287 0.45599601 2.35670662
0.78988856 0.51023924 2.35019779
0.79280746 0.44935286 2.36637783
0.78955311 0.39034534 2.34816790
0.74100494 0.44194660 2.36631894
0.73748213 0.38267893 2.35985208
0.73173648 0.32468602 2.35724354
0.68558729 0.37458476 2.36124444
0.67828155 0.31576985 2.35506272
0.62595892 0.30765072 2.35395551
0.61701763 0.24891995 2.34962726
0.56404072 0.24236897 2.36107659
0.55212182 0.16110875 2.42093992
0.50942826 0.23571751 2.37095737
0.49759319 0.15723363 2.43303490
0.49202380 0.11252700 2.45988417
0.44198260 0.15208346 2.44585133
0.43648863 0.10403029 2.46237516
0.43023983 0.05287378 2.45798016
0.37968701 0.09659044 2.46521854
0.37339625 0.04658292 2.45830703
0.36702156 -0.00412084 2.44541526
0.31616676 0.03977212 2.46092415
0.30954051 -0.00983288 2.44450092
0.30166447 -0.03696730 2.39931631
0.25212649 -0.01437064 2.44216919
0.24368010 -0.03595236 2.39528179
0.23554400 -0.04727565 2.34705234
0.18566222 -0.03576774 2.39216161
0.17758484 -0.04701583 2.34459472
0.16956617 -0.05589010 2.29628158
0.11923989 -0.04827394 2.34364700
0.11129673 -0.05838935 2.29542613
0.10330317 -0.06511632 2.24630737
0.05275875 -0.05739970 2.29441118
0.04490790 -0.06318725 2.24548531
0.03716600 -0.06867275 2.19607329
-0.01340358 -0.06119098 2.24478936
-0.02123772 -0.06812753 2.19581342
-0.02889571 -0.07295070 2.14607406
-0.07975885 -0.06955361 2.19627476
-0.08734974 -0.07358807 2.14644313
-0.09496581 -0.07617147 2.09578991
-0.10257345 -0.08948271 2.04500198
-0.14599670 -0.07321051 2.14692140
-0.15360433 -0.07565985 2.09626794
-0.16115330 -0.08934032 2.04549718
-0.21239388 -0.07476234 2.09711504
-0.21982542 -0.08892085 2.04626870
-5.97901154 -0.11591256 -3.28063107
-5.99108171 -0.12977733 -3.17210245
-6.03372478 -0.11633203 -3.27904558
-6.08837891 -0.11844573 -3.27859282
-6.41869593 -0.13588357 -3.34291816
-6.47284698 -0.13906275 -3.34707856
-6.52641106 -0.14257695 -3.35187626
-6.52657032 -0.11583705 -3.40187550
-6.57953882 -0.11699437 -3.40617013
-6.58705425 -0.00273699 -3.42841411
-6.63207960 -0.11806817 -3.41006184
-6.63842916 -0.00226728 -3.42885041
-6.64329386 0.05697510 -3.42827177
-6.68937588 -0.00231752 -3.43119884
-6.69205999 0.05767135 -3.43249059
-6.69257164 0.11790371 -3.44977760
-6.74117041 0.05668169 -3.43743110
-6.74067545 0.11840701 -3.45201755
-6.73830128 0.18341167 -3.45944905
-6.79081726 0.11625972 -3.45335102
-6.78870392 0.17941082 -3.46330714
-6.78293276 0.24029718 -3.45983458
-6.83902979 0.17544354 -3.46801257
-6.83662271 0.23593572 -3.46404529
-6.83053303 0.29198229 -3.46939683
-6.88813972 0.23232043 -3.46767735
-6.88638687 0.28787231 -3.47143483
-6.88632822 0.34054738 -3.47801089
-6.94590616 0.28602707 -3.47015977
-6.94817114 0.33886981 -3.47744894
-6.95350552 0.39038724 -3.48031759
-7.00825262 0.33777937 -3.47858977
-7.01414871 0.39063042 -3.48172665
-7.01946640 0.44224000 -3.48796725
-7.07396984 0.39177111 -3.48160934
-7.07976627 0.44409388 -3.49176693
-7.08395958 0.49717981 -3.50029707
-7.13655901 0.44244990 -3.50054026
-7.14076948 0.49901640 -3.50439024
-7.14279127 0.55473632 -3.50516200
-7.19595242 0.49895787 -3.50842452
-7.19885492 0.55702597 -3.50452447
-7.20150518 0.61448199 -3.50633621
-7.25448227 0.54888988 -3.50972509
-7.25961542 0.60833383 -3.50973320
-7.26777649 0.67006749 -3.50714993
-7.31779289 0.59577739 -3.51204824
-7.32674217 0.65673929 -3.50510335
-7.32194471 0.67238241 -3.43056989
-7.38276386 0.63954461 -3.49783945
-7.37314320 0.64157414 -3.40608621
-7.37773132 0.68688488 -3.38209724
-7.43054056 0.63515753 -3.41133690
-7.43653727 0.68004048 -3.38688684
-7.44600725 0.73773968 -3.38901711
-7.49357414 0.67560321 -3.38988090
-7.50022554 0.73580194 -3.39644861
-7.50250673 0.79600072 -3.39837813
-7.55207872 0.73237991 -3.39824367
-7.55281639 0.79641986 -3.39992952
-7.60242128 0.73255593 -3.40134692
-7.60139799 0.79686463 -3.40094447
-7.65227842 0.73367161 -3.40162373
-7.64993000 0.79842478 -3.40034890
-7.63666010 0.86958623 -3.40050006
-7.69853640 0.80229992 -3.40185857
-7.68369007 0.87675762 -3.40273118
-7.66498566 0.95082116 -3.39305162
-7.73240614 0.88159746 -3.39104700
-7.71275377 0.95268339 -3.39097142
-7.70142221 1.02241039 -3.39463687
-7.74346113 1.08773410 -3.39256525
-7.79726839 1.14813411 -3.38160253
-7.82841206 1.19826734 -3.42463994
-7.84124517 1.23216236 -3.50448275
-7.90206480 1.26883340 -3.52712965
-7.96427631 1.25827312 -3.52675200
-7.97196770 1.30646074 -3.52388358
-8.02008820 1.18699431 -3.52454615
-8.07356834 1.11310673 -3.50188231
-8.11746120 1.08296978 -3.45106101
-8.16168976 1.06919718 -3.41657090
-8.19669247 1.13950300 -3.41141248
-8.22274399 1.18329513 -3.52237368
-8.28313541 1.18139970 -3.51814628
-8.28291798 1.24714255 -3.52165246
-8.34417248 1.18051887 -3.51052999
-8.34408855 1.24595165 -3.51796985
-8.34337616 1.31094790 -3.51264381
-8.40692139 1.24429095 -3.51405287
-8.40560532 1.31073833 -3.50824857
-8.44628525 1.24478567 -3.45689893
-8.44880199 1.30667031 -3.46024561
-8.49578953 1.29141307 -3.40367889
-8.56478691 1.26279426 -3.40081882
-8.57606792 1.31117451 -3.40131378
-8.61216068 1.22978854 -3.44709373
-8.61618710 1.27532542 -3.46266150
-8.62463379 1.31799388 -3.48223829
-8.65420055 1.25705695 -3.52629900
-8.67152882 1.30206537 -3.51869130
-8.68739033 1.34811389 -3.51209021
-8.72838974 1.29486871 -3.52204657
-8.74072838 1.34001148 -3.51310515
-8.75241184 1.38602674 -3.50200796
-8.79459381 1.33008027 -3.51464868
-8.80255413 1.37773955 -3.50211716
-8.80906296 1.42479444 -3.48972869
-8.85230160 1.36935174 -3.50281334
-8.85827351 1.41674256 -3.49147320
-8.86273575 1.45873964 -3.51687980
-8.90768528 1.40877414 -3.49113774
-8.91234016 1.45275915 -3.51593161
-8.91562843 1.49673605 -3.53304291
-8.96167660 1.44651890 -3.50787973
-8.96529198 1.49099898 -3.53347063
-8.96810246 1.53976500 -3.53357100
-9.01481342 1.48575664 -3.52660084
-9.01782417 1.53438866 -3.53024960
-9.01999664 1.58518457 -3.52373242
-9.06742954 1.52974176 -3.52882385
-9.07014751 1.58068871 -3.52222252
-9.12038136 1.57673812 -3.52137518
-9.11810875 1.62121820 -3.43415141
-0.23687766 2.05454469 2.15841246
-9.16823292 1.61690700 -3.43253279
-9.16462612 1.61968338 -3.38312912
-9.21859264 1.61325836 -3.43141699
-9.21427345 1.61564052 -3.38114119
-9.26830673 1.60643065 -3.42808723
-9.26348400 1.60960984 -3.37819719
-9.31776047 1.60104597 -3.42503405
-9.31230068 1.60565925 -3.37530327
-9.40844917 1.60271490 -3.36681485
-9.31230068 1.60565925 -3.37530327
-9.31776047 1.60104597 -3.42503405
-9.41623306 1.59652483 -3.41753531
-9.51338768 1.58499992 -3.40231156
-9.50194645 1.59502351 -3.35393119
-9.58694839 1.58922768 -3.33424520
-0.18219812 2.07696509 2.06237316
-0.12646168 2.07792974 2.06268334
-9.79940891 1.49240816 -3.33449697
-9.83856297 1.43626904 -3.28673744
-9.85387897 1.38000429 -3.22776318
-9.83329582 1.34790432 -3.15575457
-9.79411697 1.33566666 -3.08607793
-9.78452110 1.29600966 -3.02857995
-9.79278374 1.24949110 -2.97518373
-9.83473873 1.22026861 -2.92431235
-0.07105242 2.07764459 2.06299376
-9.90706539 1.14590299 -2.81809020
-0.01561795 2.07703233 2.06311131
-9.89901352 1.09675908 -2.93263292
-9.89914799 1.03952122 -2.92808652
-9.89529800 0.98421288 -2.93410897
0.03995910 2.07642007 2.06324553
0.09559486 2.07621026 2.06255770
-9.78223133 0.90927678 -2.85456824
-9.79232979 0.85844725 -2.82884336
-9.81828976 0.82762235 -2.85652256
-9.85897923 0.83920574 -2.81932306
-9.85729313 0.80583936 -2.88402605
-9.88152504 0.77030075 -2.89972758
-9.88971996 0.72019243 -2.89950967
-9.89410591 0.66807950 -2.93458700
-9.89847660 0.67260033 -2.88657570
-9.90209198 0.68069452 -2.83850598
-9.90073299 0.62425375 -2.87277818
-9.90424728 0.63105625 -2.82166314
-9.90783691 0.64908123 -2.76858568
-9.90513611 0.69648868 -2.79348063
-9.90808868 0.66992474 -2.72005439
-9.90672207 0.71692973 -2.74525118
-9.90892792 0.60044092 -2.74962115
-9.91241646 0.62223220 -2.69610763
-9.91421127 0.65020525 -2.64375138
-9.90623474 0.56787121 -2.67849326
-9.90746021 0.54750603 -2.73225856
-9.89552402 0.49270892 -2.71599483
-9.90554810 0.53383386 -2.78569674
-9.89754486 0.47716656 -2.77109361
-9.85639572 0.44228193 -2.76097822
-9.85933113 0.45231384 -2.70472169
-9.79605389 0.42375365 -2.75051856
-9.80059147 0.42841715 -2.69630885
-9.79274940 0.37469387 -2.74058771
-9.79246426 0.38214204 -2.68284631
-9.78106594 0.32959303 -2.73305535
-9.78802776 0.33620256 -2.67193413
-9.78700447 0.28259671 -2.72535539
-9.78724766 0.29105982 -2.66372252
-9.78608131 0.23598595 -2.71743751
-9.79092121 0.24720044 -2.65898323
-9.78448677 0.27631417 -2.78622508
-9.77986526 0.22799256 -2.77683091
-9.77867508 0.27170089 -2.84694386
-9.77578926 0.22147517 -2.83647609
-9.76738453 0.17135023 -2.82553840
-9.76507759 0.21489923 -2.89631391
-9.76137066 0.16500913 -2.88532591
-9.77107525 0.10903776 -2.88565326
-9.77101707 0.11312277 -2.82564735
-9.75638866 0.05254645 -2.88684416
-9.74630737 0.05128003 -2.82793713
-9.75292397 -0.00392791 -2.89047623
-9.74196148 -0.00797932 -2.83303714
-9.75129700 -0.01546941 -2.77784586
-9.75664902 -0.06691133 -2.84128189
-9.74859619 -0.07571840 -2.78354955
-9.77389336 -0.07944281 -2.73798728
-9.78642464 -0.02171003 -2.73890996
-9.85574150 -0.07656568 -2.72413087
-9.85288143 -0.02581999 -2.71943378
-9.87106514 -0.07983701 -2.66550064
-9.87673569 -0.03280709 -2.66675043
-9.88029194 0.01387917 -2.66061068
-9.85162354 -0.12444285 -2.72122884
-9.86509418 -0.12629642 -2.66427612
-9.86997509 -0.12654823 -2.60704660
-9.85940647 -0.16963585 -2.66166759
-9.86187267 -0.16992958 -2.60515928
-9.86396980 -0.16981214 -2.55029535
-9.86411190 -0.21253051 -2.60417795
-9.86565590 -0.21267322 -2.54865956
-9.85878563 -0.21140680 -2.49351883
-9.86605835 -0.25515705 -2.54715824
-9.86854935 -0.25430146 -2.49279761
-9.87296963 -0.25379816 -2.43847013
-9.85840797 -0.33808655 -2.48929977
-9.85976791 -0.33796078 -2.43578601
-9.86252689 -0.33818701 -2.38223886
-9.84904766 -0.38150978 -2.38134146
-9.84755516 -0.37849027 -2.32849860
-9.84934902 -0.37801191 -2.27600002
-9.80983448 -0.40065047 -2.32807946
-9.81012058 -0.39939237 -2.27556372
-9.81154633 -0.39925799 -2.22371078
-9.76473427 -0.40154800 -2.27519464
-9.76498604 -0.39957699 -2.22381163
-9.76690674 -0.40201771 -2.17234445
-9.81410408 -0.40079319 -2.17184973
-9.76818180 -0.40139696 -2.12083554
-9.81476688 -0.39898986 -2.12022328
-9.77069759 -0.40308288 -2.06977940
-9.81750107 -0.39935046 -2.06865549
-9.77262688 -0.40247077 -2.01856399
-9.81896973 -0.39693472 -2.01706266
-9.77536201 -0.40328413 -1.96676135
-9.82293701 -0.39728701 -1.96512592
-9.77711487 -0.40114546 -1.91537833
-9.82602310 -0.39597866 -1.91303813
-9.77949715 -0.28047949 -1.86350858
-9.82919407 -0.39450234 -1.86100900
-9.78192902 -0.27926332 -1.81165564
-9.83222198 -0.39193556 -1.80892122
-9.78379154 -0.27778730 -1.76009631
-9.83480549 -0.38879862 -1.75705171
-9.78569508 -0.27627739 -1.70846164
0.15131450 2.07208347 2.05942893
0.14450370 2.17535305 1.97421825
0.19989617 2.17391038 1.97050238
0.25516289 2.17151165 1.96558714
0.30720866 2.24921536 1.94273067
-6.61208296 -0.13577478 2.72189140
-6.60438347 -0.14579804 2.77569008
-6.66343307 -0.13881093 2.72569942
-6.56085157 -0.13283877 2.71816730
-6.55359602 -0.14211588 2.77149630
-6.54733038 -0.11352209 2.82060647
-6.59822655 -0.11670927 2.82405376
-6.54646635 -0.05300464 2.82303047
-6.59721184 -0.05775198 2.82932973
-6.54494762 0.00180909 2.82724953
-6.59553432 -0.00261124 2.83343124
-6.54384089 0.05785597 2.81887031
-6.59401608 0.05398086 2.82506037
-6.53910208 0.11564731 2.83454680
-6.59019184 0.11037138 2.83802772
-6.53681183 0.17503239 2.83582997
-6.58712959 0.17016762 2.84103060
-6.53443003 0.23064315 2.81744409
-6.48615026 0.18023281 2.83358240
-6.48487520 0.23638847 2.81601834
-6.48705578 0.26515856 2.74006748
-6.43558025 0.24138762 2.81635380
-6.43553019 0.27513158 2.74612331
-6.43976593 0.33324993 2.73760152
-6.38243580 0.27832708 2.73838139
-6.38491011 0.33851752 2.73274493
-6.38976669 0.39810386 2.72818232
-6.32833529 0.34505987 2.72554827
-6.33235264 0.40611422 2.72365284
-6.34027052 0.46533996 2.72694087
-6.29346704 0.41307604 2.76639652
-6.30019426 0.46998653 2.76565003
-6.31082964 0.52367651 2.77126980
-6.26213074 0.47137070 2.82206583
-6.26796007 0.52553010 2.82102585
-6.27401638 0.57978195 2.82167983
-6.21104145 0.52963173 2.81790566
-6.21735668 0.58442050 2.81878614
-6.22205400 0.63868904 2.81830812
-6.16267776 0.58849686 2.81429052
-6.16644382 0.64359570 2.81230259
-6.17101479 0.69571692 2.80457735
-6.11246872 0.64754635 2.80429220
-6.11577320 0.70152974 2.80309272
-6.12392616 0.75469118 2.79188681
-6.06164694 0.70562309 2.79524207
-6.06494427 0.75737506 2.79024291
-6.06845808 0.80760908 2.78124285
-6.12432909 0.80328953 2.76783919
-6.06227636 0.83388793 2.70801806
-6.11807203 0.82700992 2.69114208
-6.05480289 0.88323313 2.69208145
-6.00861216 0.84444809 2.75352144
-6.00496340 0.88701576 2.73714876
-6.00587749 0.93411285 2.77376103
-5.94551086 0.88751072 2.75736284
-5.93975735 0.93371868 2.76431632
-5.93261051 0.98138595 2.76752877
-5.87795639 0.93095064 2.75383162
-5.87029028 0.97944856 2.75887275
-5.86243057 1.02846646 2.75226331
-5.81056070 0.97608507 2.74460506
-5.80295324 1.02599216 2.74177027
-5.79556370 1.07625949 2.73409557
-5.74619389 1.02222574 2.72268820
-5.73912239 1.07303035 2.72067523
-5.73216915 1.12478268 2.71517277
-5.68376398 1.06849253 2.70749807
-5.67686939 1.12115073 2.70370674
-5.66989899 1.17437065 2.70478034
-5.62260056 1.11759424 2.70810175
-5.61694717 1.17043698 2.69730687
-5.60843372 1.22463834 2.69963861
-5.56402016 1.16780305 2.71081138
-5.55863571 1.21928692 2.68090892
-5.55157280 1.27264953 2.67221093
-5.50674915 1.21856570 2.71276522
-5.50060940 1.27380717 2.69593120
-5.49111462 1.32067776 2.65853906
-5.44956207 1.26711380 2.70686889
-5.44291067 1.32416701 2.69902635
-5.43169594 1.37664914 2.67947435
-5.38617563 1.31046164 2.69609070
-5.37672281 1.36696959 2.69316316
-5.36577702 1.42339396 2.68964028
-5.32030678 1.35135162 2.69195557
-5.30832911 1.40614879 2.69005156
-5.29589844 1.46087039 2.68704033
-5.25359917 1.38879442 2.68445683
-5.24113560 1.44380975 2.68230128
-5.22851992 1.50210440 2.67853498
-5.18774748 1.42883754 2.67489505
-5.17600489 1.48841560 2.67088556
-5.16419458 1.54844642 2.66824365
-5.12627411 1.47708368 2.65514994
-5.11384344 1.53682101 2.65048671
-5.10241938 1.59584558 2.64745021
-5.06514406 1.52657127 2.62933278
-5.05293989 1.58404386 2.62410736
-5.04365492 1.64181864 2.61784148
-5.01011229 1.57381070 2.58939886
-4.99765635 1.62980735 2.58435774
-4.98531818 1.68556881 2.57996273
-4.96869373 1.62395263 2.53479457
-4.95963478 1.67630041 2.52445269
-4.95204401 1.72619045 2.51504183
-4.94855499 1.77957010 2.43274975
0.36355743 2.24901414 1.94137180
-4.76326990 1.92386401 2.38972926
-4.73913860 1.88461792 2.33198810
-4.72377205 1.92452669 2.35754538
-4.72210264 1.97270584 2.35823321
-4.68695831 1.92688358 2.32378483
-4.68305779 1.97271419 2.32630110
-4.68449259 2.01693416 2.32079029
-4.64585876 1.97325945 2.29683518
-4.64597607 2.01683354 2.29402518
-4.60763597 2.01716065 2.26703358
-4.62816858 2.07588315 2.21835113
0.41987261 2.24822569 1.93845284
0.41341409 2.35265279 1.93101299
-4.58757257 2.07797170 2.19686198
-4.60553074 2.07672191 2.15604711
-4.54850245 2.07626057 2.17443299
-4.56296301 2.07731748 2.13580751
-4.57817841 2.07740140 2.09770203
-4.57817841 2.07740140 2.09770203
-4.56296301 2.07731748 2.13580751
-4.52166986 2.07799673 2.11691856
-4.53556824 2.07795501 2.07809162
-4.54799891 2.07158875 2.03851008
-4.59256315 2.07043958 2.05658555
-4.49158335 2.07850838 2.06036854
-4.50158167 2.07297254 2.02199459
-4.51268673 2.06943297 1.98121345
-4.45641327 2.07165575 2.00749230
-4.46390390 2.06815815 1.96785188
-4.47324753 2.06747866 1.92573702
-4.41594267 2.06952524 1.95713234
-4.42428875 2.06731915 1.91299617
-4.43098211 2.06439209 1.86874247
-4.37173128 2.06614494 1.90707445
-4.37710762 2.06218600 1.86339951
-4.32295656 2.05786633 1.86134458
-4.32614374 2.05687642 1.81887746
-4.27111197 2.05300140 1.81728387
-4.21794224 2.04827070 1.81863427
-4.22195148 2.06766319 1.72389507
-4.16459608 2.07000351 1.73106647
-4.10767698 2.07667994 1.74190342
-4.05378628 2.14743876 1.70101333
-3.99795723 2.14949369 1.71248758
-3.94222116 2.15121317 1.72278774
-3.95072603 2.26169634 1.69403470
-3.89501476 2.26221633 1.70888925
-3.83875012 2.26285386 1.71973467
-3.78682184 2.32994723 1.72760236
-3.73184848 2.32937694 1.74358928
-3.67705989 2.32846260 1.75914013
-3.68082595 2.42032504 1.74438620
-3.62437654 2.47196817 1.74058652
-3.62937570 2.41924286 1.76642907
-3.58050895 2.41903329 1.79254842
-3.57455373 2.47102880 1.76591754
-3.56921887 2.49463177 1.74775791
-3.52554417 2.47102880 1.79191101
-3.52028513 2.49629259 1.77454007
-3.50813961 2.50717974 1.74640751
-3.47296143 2.49761772 1.80307496
-3.45985985 2.51009035 1.77434719
-3.45442462 2.48011255 1.76036477
-3.50367737 2.47881269 1.73260152
-3.40587640 2.48168111 1.78885794
-3.41158843 2.51275754 1.80232024
0.46625668 2.41389155 1.91949666
0.46932659 2.35091639 1.92813599
-3.40016437 2.45060468 1.77539551
-3.35643935 2.44962335 1.80985236
-3.35486221 2.42201090 1.80252993
-3.31330967 2.45041180 1.84296715
-3.31259656 2.42170906 1.83799326
-3.26979423 2.42377234 1.86992526
-3.22710896 2.39603424 1.89814997
-3.18860936 2.39587474 1.93227959
-3.19426250 2.27122474 1.92183685
-3.14944720 2.39617658 1.96332252
0.52545720 2.34967518 1.92648351
0.52210212 2.41285992 1.91878378
0.52042454 2.44277906 1.91124308
0.57830828 2.41317034 1.92078006
0.57666427 2.44359255 1.91325617
0.57499510 2.47180033 1.90091777
0.57320857 2.49786115 1.88270807
0.63306338 2.44329047 1.91261876
0.63131869 2.47084403 1.89908087
0.62934762 2.49880052 1.88174343
0.68543625 2.49687123 1.87865674
0.68744934 2.46898222 1.89457667
0.68343157 2.52476883 1.86273682
0.73721367 2.52896285 1.83091402
0.73957902 2.52503729 1.86188138
0.79614586 2.52582574 1.86094201
0.79369664 2.53179789 1.82934535
0.85022157 2.53208303 1.82830524
0.90092534 2.38939953 1.76673949
0.90519464 2.51670837 1.80313373
0.96182847 2.51962709 1.80122149
1.01436913 2.39184856 1.77191460
1.01847064 2.52289844 1.79737973
1.07523048 2.52259636 1.79597914
1.12715888 2.39440703 1.76406372
1.13185596 2.52544832 1.79173493
1.18870807 2.52401400 1.78961277
1.24030936 2.39558125 1.75514758
1.24537539 2.52336812 1.78707123
1.30156481 2.52314162 1.78284383
1.35236919 2.39356804 1.74833679
1.35785484 2.52230287 1.77902746
1.41418684 2.51945949 1.77638531
1.46342266 2.39246082 1.73128450
1.47037601 2.51721168 1.77350831
1.52636409 2.51627207 1.76892865
1.57563353 2.39308167 1.71774673
1.58231866 2.51726174 1.76308239
1.63846600 2.51638103 1.75979447
1.68819690 2.39328289 1.71092761
1.69452953 2.51543331 1.75661540
1.75035810 2.51584435 1.75344491
1.80070961 2.39209175 1.70586145
1.80616176 2.51735401 1.74944401
1.86187291 2.51756382 1.74569464
1.91288710 2.39054012 1.70607102
1.91750884 2.51789093 1.74148405
2.43048501 -0.05929550 2.08590055
1.97324514 2.51717806 1.73803675
2.02903199 2.51690125 1.73444676
2.02496386 2.38975167 1.69966292
5.66960526 2.41977978 -2.70570302
5.77803373 2.41702032 -2.70144200
5.84225798 2.52219391 -2.72684836
5.84439707 2.54948759 -2.74155211
5.78716707 2.53142023 -2.72028089
5.89700460 2.51891422 -2.72682333
5.89943695 2.54877448 -2.73964834
5.90149260 2.54736543 -2.77017117
5.95436001 2.54813719 -2.73796225
5.95650768 2.54735708 -2.76862764
-9.77495956 1.19914818 -0.21191579
5.95841122 2.52285647 -2.78565478
6.01147175 2.54777622 -2.76775527
6.01354408 2.52369523 -2.78512621
6.06876850 2.52506232 -2.78528571
6.07106686 2.50187874 -2.80375528
6.01562405 2.49961400 -2.80248904
6.07346535 2.47748733 -2.81658030
6.12641716 2.50426936 -2.80509758
6.12928629 2.47953391 -2.81760359
6.18436003 2.48158884 -2.81885338
6.18768930 2.45634174 -2.83073044
6.24375343 2.45838857 -2.83343124
6.30024481 2.46017504 -2.83564544
6.30797815 2.39967442 -2.84606314
6.36484623 2.39981699 -2.84364748
6.42176580 2.40104151 -2.84173512
6.49419403 2.30418873 -2.85298324
6.55167484 2.30619311 -2.84843683
6.60954189 2.30816436 -2.84641552
6.62116671 2.23995543 -2.85874534
6.67855597 2.24253893 -2.85790658
6.73596191 2.24451828 -2.85542393
6.81298590 2.11997747 -2.86587501
6.86944389 2.11912203 -2.85811639
6.92599344 2.11830831 -2.84925032
6.95372391 2.05629778 -2.91555548
7.01232862 2.05738831 -2.90393019
7.05371380 2.04900885 -2.99570012
7.06917191 2.04989815 -2.88718820
7.11367750 2.04689527 -2.97910070
7.13727236 2.04755783 -3.02279234
7.17468977 2.04417753 -2.96026206
7.19842672 2.04376650 -3.00354266
7.22273493 2.04612350 -3.04566574
7.25748491 2.04693699 -2.98272443
7.28167486 2.04983091 -3.02400851
7.30828905 2.05049348 -3.06431150
7.34168100 2.05536675 -3.00080824
7.36936045 2.05411696 -3.04065013
7.39507675 2.05014968 -3.08079362
7.42697573 2.05450273 -3.01358271
7.45465517 2.05136585 -3.05362558
7.48404551 2.05477953 -2.98595333
7.51315069 2.05135751 -3.02606368
7.53883457 2.05347967 -2.95580816
7.56725216 2.05068636 -2.99258828
7.59225559 2.05367255 -2.92035341
7.62055588 2.05030060 -2.95694041
7.64474583 2.05529118 -2.88431978
7.67453098 2.05239749 -2.92202234
7.69744635 2.05462885 -2.84606314
7.72731495 2.05140781 -2.88207150
7.75111103 2.05497265 -2.80685902
7.78072786 2.05389047 -2.84281707
7.81295347 2.04654288 -2.87895131
7.83298302 2.04999018 -2.79915071
7.86537647 2.04402661 -2.83338094
7.89578247 2.02071714 -2.86555624
7.91665077 2.04094815 -2.78614950
7.94807100 2.01997900 -2.81775451
8.00101471 2.02091002 -2.76744509
8.00874805 1.97127151 -2.76935744
8.05898285 1.97153997 -2.71570969
8.05834484 1.87888062 -2.70874786
8.10893059 1.97148108 -2.66046786
8.10615444 1.88036525 -2.65115762
8.07933903 1.85218263 -2.62091994
8.15586853 1.88019753 -2.59545493
8.12812233 1.84911287 -2.56837940
8.08544540 1.83897185 -2.52974534
8.17328930 1.84767842 -2.51255035
8.12925434 1.83351159 -2.47944427
8.16442394 1.83369589 -2.42224002
8.13271046 1.79719257 -2.40165639
8.17169666 1.79273891 -2.34709430
8.16532230 1.68240666 -2.35076809
8.21368504 1.78524029 -2.29206252
8.20380402 1.68207967 -2.29555178
8.19305992 1.63164425 -2.28676152
8.23400879 1.67995763 -2.22356844
8.23715401 1.63191271 -2.22842479
8.23365688 1.58258450 -2.22506142
8.29403114 1.62035429 -2.17654681
8.30351830 1.57077456 -2.18848252
8.33482075 1.53338206 -2.22982550
8.39352608 1.54367375 -2.17471838
8.39225197 1.59291816 -2.16399884
8.43033218 1.56814098 -2.09663701
8.43212700 1.50289273 -2.12189245
8.46469593 1.55059361 -2.03689957
8.45172024 1.48651981 -2.05158639
8.48275566 1.54196262 -1.97587049
8.46364784 1.48195708 -1.98088646
8.46339607 1.41735458 -1.99454165
8.44272900 1.35408604 -2.00205708
8.48628616 1.47886169 -1.91693830
8.46408367 1.42134714 -1.92013419
8.44483376 1.36393332 -1.92475569
8.44415474 1.30583167 -1.93206155
8.42584419 1.29471803 -2.00409532
8.47519779 1.42486167 -1.84993720
8.45957947 1.36960351 -1.85438275
8.47337723 1.31390059 -1.86810505
8.49115944 1.25709891 -1.88816857
8.45728111 1.24845946 -1.94776320
8.48519611 1.37363791 -1.78887463
8.50129128 1.32111394 -1.80408990
8.51396561 1.26620805 -1.82317209
8.52406502 1.20654619 -1.83954489
8.49979877 1.19702590 -1.90396261
8.52549076 1.32519031 -1.73850644
8.53922939 1.27053583 -1.75558388
8.53849125 1.21416199 -1.77032936
8.53982544 1.15741920 -1.78365755
8.52164078 1.14560091 -1.85206771
8.54824638 1.27279234 -1.68137765
8.55083847 1.22077155 -1.69831252
8.54583073 1.16758513 -1.71169925
8.55076313 1.11304820 -1.72225106
8.53870106 1.10043287 -1.79212058
8.54469013 1.22570348 -1.62155640
8.55106449 1.17320502 -1.63090873
8.53637791 1.12328970 -1.64510059
8.52996922 1.07897723 -1.66161621
8.54254246 1.06295657 -1.73265171
8.46498966 1.18733823 -1.57305014
8.46243954 1.13578725 -1.58909583
8.48400497 1.08362412 -1.60118258
8.47447681 1.13429427 -1.51565301
8.47191811 1.08013487 -1.52972758
8.47481155 1.02572370 -1.54828131
8.46351337 1.08242452 -1.45638537
8.47927380 1.03359127 -1.47049344
8.50515842 0.98698920 -1.48021483
8.48064995 1.04271710 -1.39239550
8.48679733 0.99725562 -1.39458454
8.51025867 0.96128088 -1.40173936
8.57788849 0.95530039 -1.33389938
8.59023476 0.94639254 -1.26987600
8.61754513 0.95846230 -1.21166515
8.59822845 0.91650707 -1.22234273
8.57755280 0.86792529 -1.24663365
8.60345459 0.87958419 -1.18053830
8.59437847 0.82478744 -1.21493638
8.60605431 0.75516087 -1.27167094
8.57685661 0.80786926 -1.29560947
8.51770687 0.71098280 -1.32531047
8.55975437 0.74660528 -1.35569072
8.56602859 0.73617953 -1.45037973
8.56246376 0.74671441 -1.53869414
8.53942299 0.77956086 -1.61002326
8.53300571 0.75875092 -1.66445959
8.53809738 0.83035678 -1.67181563
8.53064919 0.74687374 -1.71895456
8.54075623 0.81977999 -1.73355770
8.54036236 0.88696551 -1.72833204
8.51785755 0.95131618 -1.72198260
8.53067398 0.81356466 -1.78629971
8.52021408 0.87603641 -1.77892685
8.51184368 0.93674648 -1.77813840
8.49135208 0.92571664 -1.82953000
8.50019264 0.97980082 -1.84068561
8.51486301 0.99207217 -1.78377497
8.52355289 1.00936759 -1.72712433
8.53090096 1.04299378 -1.79514027
8.50979710 1.03260994 -1.85232770
8.51107121 1.08736479 -1.85470986
8.48474312 1.02583277 -1.90759456
8.49696350 1.07778633 -1.91531110
8.49935436 1.13599682 -1.91273618
8.46599579 1.07335734 -1.97007465
8.46944332 1.12921965 -1.97139990
8.47140694 1.18908274 -1.96494973
8.43163204 1.12525237 -2.02351284
8.43379593 1.18211257 -2.02133203
8.42504787 1.23809230 -2.00911951
8.37779903 1.17133451 -2.06713724
8.38252163 1.22496569 -2.06845427
8.40910244 1.27743089 -2.07513928
8.36330509 1.21029556 -2.13241887
8.36687851 1.26233292 -2.13636112
8.34757042 1.19314241 -2.19892526
8.35302258 1.24642134 -2.19736505
8.33805847 1.22804368 -2.26409793
8.34103584 1.28389764 -2.25766444
8.33219528 1.34397900 -2.25046778
8.31398582 1.26785195 -2.32129359
8.31282806 1.32558477 -2.30820060
8.28223801 1.31322134 -2.37169552
8.28066158 1.37363791 -2.35991073
8.27627468 1.43577409 -2.35313344
8.24280739 1.37086987 -2.41735816
8.35089111 1.15797269 -2.12968445
8.37530804 1.11709929 -2.06759024
8.42991257 1.07049716 -2.02197790
8.46186161 1.02000332 -1.96328068
8.47763824 0.97401327 -1.89500451
8.52584267 0.73625505 -1.77355027
8.52117062 0.67387539 -1.70568526
8.53774452 0.60170734 -1.69002533
8.53961468 0.53256744 -1.66286600
8.53446484 0.46130553 -1.63357592
8.44126034 0.48530266 -1.54712379
8.44910336 0.45483837 -1.61310160
8.45391750 0.42461756 -1.52075267
8.45227432 0.51071757 -1.48169112
8.44662952 0.55518073 -1.41977286
8.45121765 0.61948115 -1.35539711
8.47773838 0.68775713 -1.27988255
8.48597622 0.65026414 -1.23420298
8.60419273 0.69040769 -1.18493354
8.59247494 0.66828907 -1.12716722
8.58028698 0.60200936 -1.19636595
8.60784912 0.71984011 -1.23238289
8.60221291 0.78981900 -1.17142093
8.60486317 0.75714880 -1.12738538
8.62305641 0.81208831 -1.08944762
8.62995148 0.78390568 -1.03596759
8.60287571 0.73156625 -1.07283998
8.60360527 0.84431404 -1.13448977
8.60903168 0.89443898 -1.10767424
8.63336468 0.86545098 -1.06268251
8.61296654 0.92582572 -1.15937614
8.62291431 0.96966845 -1.14510012
8.60758114 0.94086510 -1.08972454
8.62293911 1.00043452 -1.20599508
8.59334755 1.05872083 -1.26595056
8.59218121 1.03761744 -1.18991590
8.62639427 1.01278973 -1.13478339
8.59548569 1.07350004 -1.18736589
8.59696198 1.05079460 -1.12147200
8.61004639 1.02952325 -1.06365538
8.61012268 0.98563862 -1.07536471
8.63101578 1.01057553 -1.00733185
8.61136341 0.96279049 -1.01863015
8.61148167 0.91525728 -1.03585017
8.63824654 0.94314647 -0.96447062
8.63953781 0.89234191 -0.98377073
8.63713169 0.83962524 -1.00624990
8.63885880 0.87286592 -0.92342949
8.64090538 0.81690282 -0.94701576
8.63158703 0.75979912 -0.97715288
8.64535904 0.79491860 -0.88695967
8.61668110 0.74337620 -0.91543597
8.57375336 0.69478613 -0.94825715
8.59096527 0.71146083 -1.01210451
8.56742096 0.63532555 -0.99084157
8.58090782 0.65057415 -1.06075323
8.56680870 0.57195622 -1.03725922
8.57826614 0.58371562 -1.11519802
8.56459427 0.50091219 -1.08676362
8.56849384 0.50019103 -1.17925501
8.47719383 0.46274793 -1.11178422
8.58084106 0.49227279 -1.00785196
8.51425076 0.44277692 -1.02986968
8.47830105 0.38222587 -1.05801892
8.46078777 0.38704872 -1.15012443
8.46909142 0.32245490 -1.08624363
8.45698738 0.32371333 -1.18052161
8.45192242 0.31660047 -1.26708281
8.45849800 0.26572043 -1.17640316
8.46856308 0.26596358 -1.09119236
8.47440910 0.21229054 -1.08682227
8.47238731 0.26306149 -0.99793762
8.48210907 0.21431208 -0.99606717
8.53110123 0.18030831 -0.99590778
8.48051548 0.21695437 -0.90256083
8.53861713 0.18425894 -0.90792900
8.57277203 0.14041620 -0.90878451
8.54897594 0.18643983 -0.82129222
8.58184719 0.14339381 -0.82395113
8.57278824 0.09099583 -0.82252520
8.58919525 0.14674066 -0.73914284
8.58240891 0.09562574 -0.73967963
8.59249115 0.10045723 -0.65698510
8.57894516 0.04989585 -0.65940917
8.50173664 0.00290785 -0.58108461
8.59131718 0.05299120 -0.57913870
8.60092163 0.05772159 -0.49863330
8.50982285 0.00953435 -0.50338918
8.46878910 -0.04270461 -0.42784932
8.52050018 0.00766383 -0.42667505
7.69522285 -0.04183206 1.39545691
7.66900301 0.00636381 1.45786154
7.85389376 -0.04457481 1.39200115
7.98957348 -0.04481830 1.32346499
8.07646179 0.00523145 1.30240357
8.11436558 0.01793027 1.33209610
8.11297417 0.00379704 1.24065316
8.15034962 0.01363600 1.26808107
8.17073154 0.05113732 1.28266728
8.18412685 0.01295639 1.19980490
8.21331596 0.04021655 1.22141182
8.21781158 0.08691946 1.22486746
8.25496101 0.02922027 1.15643215
8.26413727 0.07630906 1.16341889
8.30570698 0.06660449 1.09617460
8.30844116 0.11234269 1.09889221
8.33112240 0.19103615 1.01987147
8.34965038 0.10331741 1.03010452
8.38491249 0.09383073 0.95610803
8.37177658 0.18758883 0.94960755
8.32735538 0.20864196 0.92993832
8.40738297 0.17782538 0.87851322
8.36318779 0.20454895 0.86134356
8.31879139 0.23199342 0.84384680
8.39448261 0.19734363 0.79154938
8.34774590 0.22580335 0.77540296
8.34263802 0.28303283 0.77760893
8.38040829 0.21988142 0.70816696
8.36891747 0.27135694 0.70760500
8.37631416 0.33008769 0.71648759
8.40162086 0.26093948 0.63698041
8.39620209 0.31521630 0.64032710
8.39449120 0.36976191 0.64559454
8.41003323 0.42279726 0.65518177
8.41855526 0.30138513 0.56409943
8.41987228 0.35401797 0.56862044
8.42965221 0.40604705 0.57535577
8.43445873 0.45758975 0.57897931
8.39971638 0.47748524 0.65152472
8.44873428 0.34138602 0.49145338
8.45028591 0.39205620 0.49491748
8.45208168 0.44251677 0.49708998
8.45086479 0.49147609 0.49438906
8.42607880 0.50791597 0.57325882
8.47046757 0.38321552 0.41401795
8.46518230 0.43256071 0.41391733
8.46415138 0.48186368 0.41247463
8.45495796 0.54004920 0.48988488
8.47060108 0.53132594 0.40835628
8.49143696 0.42713377 0.33476239
8.49418736 0.47657943 0.33489659
8.49159622 0.52646953 0.32953683
8.49544621 0.57673717 0.32363188
8.47913933 0.57960564 0.40332359
8.48830795 0.47594205 0.25072581
8.51215363 0.52165496 0.25177425
8.51053524 0.57357496 0.24602026
8.51652336 0.62427038 0.23941076
8.47766399 0.63329566 0.31204003
8.51706886 0.52023751 0.17192312
8.56781483 0.55692548 0.17618412
8.59647560 0.60088533 0.17468271
8.60606289 0.65227705 0.16890356
8.53725815 0.67065459 0.23503238
8.54044533 0.56886953 0.09229849
8.56873703 0.61312306 0.08954732
8.60087872 0.65762848 0.08720715
8.61471844 0.71120071 0.08363397
8.61342716 0.70657080 0.16076747
8.52222729 0.63233930 0.01334487
8.55748177 0.67569566 0.01305130
8.59013462 0.72154301 0.01206155
8.60717010 0.77493066 0.01021624
8.62045574 0.76833802 0.07906267
8.55299377 0.67831266 -0.06202721
8.62987614 0.71330613 -0.05107285
8.63148594 0.77435184 -0.05155933
8.62795448 0.83450866 -0.05360594
8.60781574 0.83307427 0.00678566
8.63556290 0.71312982 -0.11767974
8.64181995 0.77300155 -0.11653901
8.63671112 0.83452529 -0.11660612
8.63186359 0.89667839 -0.11324264
8.61049175 0.89607465 -0.05570286
8.65139866 0.77137423 -0.18074703
8.64501476 0.83355260 -0.17839846
8.64223957 0.89622563 -0.17337421
8.67146206 0.95766556 -0.16257922
8.66079235 0.95679337 -0.10090429
8.65352917 0.83207625 -0.23905008
8.65108776 0.89464855 -0.23295219
8.67312336 0.95699459 -0.22367537
8.67681313 1.02185690 -0.21621871
8.67355061 1.02303112 -0.15657361
8.65600395 0.89249295 -0.29349479
8.67103386 0.95555186 -0.28499803
8.67697239 1.01996970 -0.27699614
8.67350864 1.08399308 -0.26964849
8.67727470 1.08598101 -0.21122801
8.66142178 0.95267504 -0.34568322
8.66690731 1.01631248 -0.33700189
8.66277218 1.08008432 -0.32899162
8.63796997 1.14009845 -0.32140073
8.64744759 1.14482915 -0.26344997
8.65289116 1.01275611 -0.39685670
8.64953613 1.07533693 -0.38843542
8.62543011 1.13496530 -0.38106260
8.63413620 1.19605315 -0.38118002
8.65077782 1.20087600 -0.32241565
8.63459778 1.07063985 -0.44803855
8.61351967 1.13004160 -0.44195747
8.61887932 1.18992996 -0.44236848
8.61772251 1.12618351 -0.50425309
8.61753750 1.18545115 -0.50414401
8.60746288 1.24503744 -0.50983930
8.60874748 1.25000298 -0.44597518
8.62481785 1.25707364 -0.38510549
8.60954380 1.31190431 -0.45714763
8.63610840 1.31997323 -0.39657986
8.65183544 1.32899022 -0.33597860
8.63862419 1.26380897 -0.32511652
8.66405582 1.33888769 -0.27576312
8.65066051 1.26999068 -0.26655343
8.66979313 1.20534658 -0.26350868
8.65608692 1.27564418 -0.21144609
8.67599106 1.20794702 -0.20749547
8.65279102 1.14760554 -0.20849361
8.65039158 1.08577144 -0.15586904
8.66725159 1.02171421 -0.09659301
8.62298107 1.01980174 -0.04785195
8.62199116 0.95768255 -0.04826294
8.55056953 1.02264524 -0.00134204
8.53453255 0.95678502 -0.00428613
8.58883381 0.89336550 0.00222275
8.59289360 0.94796932 0.06388927
8.59226513 0.88702404 0.06778956
8.61097813 0.82790744 0.07321642
8.59498310 0.88039792 0.13700505
8.61649704 0.82181817 0.14355588
8.62209988 0.76200527 0.15220360
8.61965084 0.81654221 0.21633612
8.60354614 0.76092315 0.22587295
8.56996250 0.71404427 0.23145080
8.59577942 0.75680488 0.29926550
8.55652428 0.71275258 0.30617702
8.50220585 0.67949528 0.30713323
8.55972862 0.70534629 0.38424152
8.50775051 0.67387539 0.38838509
8.48480129 0.62828821 0.39658827
8.48973370 0.68528283 0.46070397
8.47393131 0.63816041 0.47310948
8.46340466 0.58894962 0.48252046
8.45084000 0.65826583 0.54314697
8.44803810 0.60715955 0.55787581
8.43808174 0.55695909 0.56824303
8.43239498 0.63108116 0.63174641
8.40246773 0.58195424 0.63496733
8.40160370 0.52929610 0.64569527
8.38418293 0.61024624 0.70318466
8.38798141 0.55417413 0.71662182
8.36920166 0.49856365 0.72116798
8.36440468 0.57984054 0.77830517
8.35205746 0.52220023 0.78571147
8.33711052 0.60647160 0.83410859
8.33668327 0.54671764 0.84654760
8.32587147 0.63179410 0.89354402
8.31930351 0.57702225 0.90877616
8.38126278 0.64008117 0.95931220
8.35886002 0.58901685 0.97237188
8.33066845 0.54093838 0.98768783
8.33591938 0.68552601 0.88018239
8.39199162 0.69431645 0.94606793
8.35700607 0.73744595 0.86832213
8.39820671 0.74954098 0.93420774
8.37382317 0.79185718 0.85831559
8.39700794 0.80708915 0.92030931
8.38070107 0.84811360 0.84489524
8.39280510 0.86401659 0.90438938
8.38313389 0.90725553 0.82221484
8.39033890 0.91961902 0.88635576
8.39693165 0.95909166 0.80307406
8.38676643 0.97274685 0.86915255
8.45614910 0.98906100 0.80978423
8.42634773 1.01232827 0.87089723
8.47214413 1.03958011 0.80107778
8.44506931 1.05906475 0.86271077
8.48628616 1.08816183 0.79336107
8.45967197 1.10830915 0.85549730
8.50068760 1.13691962 0.78608888
8.47195148 1.15764570 0.84744513
8.50389194 1.18990469 0.78121567
8.47695065 1.21003544 0.83902389
8.50483990 1.24268031 0.77557075
8.47762203 1.26340640 0.82917666
8.50461388 1.29836655 0.76778692
8.47452641 1.31815326 0.81902748
8.49540329 1.35710561 0.75725192
8.46980381 1.37418318 0.80805635
8.49060631 1.41524088 0.74675888
8.46362209 1.43007898 0.79695940
8.48355198 1.47240317 0.73554456
8.47347832 1.48418820 0.79352885
8.49053860 1.52616012 0.72881758
8.48794746 1.53745008 0.79307592
8.50126648 1.57731688 0.72256875
8.50047779 1.58798623 0.79129767
8.51184368 1.62603271 0.71739352
8.50714588 1.63682771 0.79043376
8.51831055 1.67336464 0.71261251
8.50494862 1.68390822 0.78556049
8.51006603 1.71903598 0.70402348
8.49268627 1.72838831 0.77826315
8.50467205 1.76368380 0.69753134
8.47635555 1.77155972 0.77027810
8.50122452 1.85083199 0.69043529
8.49705601 1.85240078 0.77282798
8.46473789 1.85818839 0.84568369
8.51488781 1.89053118 0.77463973
8.48877811 1.89491796 0.85026342
8.52195930 1.93179882 0.77202272
8.49384308 1.93639553 0.84662312
8.46175194 1.94027054 0.91938657
8.49485874 1.97722673 0.84186727
8.46386528 1.98114371 0.91473979
8.46935940 2.05222130 0.82456338
8.43794823 2.05402470 0.89460087
8.42949295 2.05789995 0.80632013
8.39949894 2.05794191 0.87512463
8.39051533 2.05704427 0.78868908
8.36255836 2.05961084 0.85548055
8.35147858 2.05387378 0.77192205
8.32362366 2.05594563 0.83899027
8.29444218 2.05412555 0.90350866
8.28513241 2.05412555 0.82225674
8.25737667 2.05222988 0.88590282
8.22591496 2.05756450 0.94740999
8.21893597 2.05071998 0.86789441
8.18876553 2.05461192 0.92870533
8.15435886 2.06030726 0.98891240
8.15101242 2.05273318 0.91021883
8.11767960 2.05597067 0.96904188
8.11019707 2.05190253 0.88885534
8.07900333 2.05580306 0.94286388
8.03000259 2.07610130 0.84206021
7.99810362 2.07424736 0.89388788
7.94584894 2.14271665 0.86223269
7.97216940 2.13993168 0.81059784
7.90044546 2.26565552 0.90140337
7.86978912 2.26728272 0.95011926
7.83730268 2.26810455 0.99620134
7.82685184 2.34085965 0.98753679
7.79125452 2.34146357 1.03137112
7.75091743 2.34150553 1.07119596
7.69921541 2.44475842 1.10311961
7.65990257 2.44558048 1.14406860
7.61232758 2.44203234 1.17692316
7.60011482 2.50515842 1.16736114
7.55524921 2.50161028 1.20196903
7.51185083 2.50048637 1.23875749
7.50133228 2.52949119 1.22725785
7.45497370 2.52484441 1.25972676
7.40926075 2.52523017 1.29407454
7.43921375 2.54109144 1.23847234
7.39368486 2.54156947 1.27161229
7.34641123 2.53940535 1.30304945
7.33042431 2.54251742 1.27746677
7.37691736 2.54433751 1.24701107
7.28304243 2.54057145 1.30628693
7.26854801 2.54438782 1.28114915
7.21912813 2.54342318 1.30680704
7.25682211 2.52583408 1.26111078
7.20731831 2.52791429 1.28520870
7.15767908 2.52730203 1.30942404
7.20100212 2.49915290 1.27464855
7.14971066 2.50197935 1.29455256
7.09660864 2.50714612 1.31086671
7.03266048 2.37721205 1.32086492
6.92995262 2.38070130 1.36519408
6.81672716 2.38418221 1.37730587
6.70112705 2.38579273 1.38768995
6.58746529 2.38232851 1.41882515
6.47407150 2.37857938 1.45055592
6.35565376 2.37826896 1.45188951
6.24080896 2.37800050 1.47227168
6.12616587 2.37825227 1.47751403
6.01307440 2.37663341 1.48812437
5.90124893 2.37368917 1.49652064
5.79075718 2.37279177 1.50133514
5.68236303 2.37407494 1.50772667
5.57653475 2.37624741 1.51367354
5.47240114 2.37896514 1.51383293
5.37362766 2.38238716 1.49180675
5.28242826 2.38842654 1.44261277
5.18591070 2.39282990 1.39857721
5.08733797 2.39439011 1.35034776
4.98778439 2.39516163 1.29484630
4.87957430 2.39292240 1.24995506
4.76871347 2.39088416 1.20846117
4.65214109 2.38638830 1.18104160
4.59909678 2.51706052 1.18506777
4.53930950 2.51413321 1.17586637
4.53823566 2.54000092 1.20031655
4.47912741 2.51555920 1.17068279
4.47874165 2.54267669 1.19426072
4.47874165 2.54267669 1.19426072
4.41921377 2.54182124 1.18994093
4.41922235 2.54281092 1.22371840
4.47777700 2.54286122 1.22809672
4.47800350 2.51784897 1.24557674
4.41995192 2.51665807 1.24030089
4.36096954 2.54036999 1.22558033
4.36208534 2.51435971 1.24002409
4.36320925 2.48834109 1.25445938
4.30408382 2.51308489 1.24175203
4.30249882 2.53890228 1.22745919
4.30566931 2.48727560 1.25604463
4.30695295 2.45973039 1.26346779
4.24852371 2.48750234 1.26288068
4.24988270 2.46029258 1.27150309
4.19278765 2.45910978 1.27679586
4.19366789 2.43053293 1.28315377
4.13605261 2.42914033 1.28693652
4.07990551 2.42852807 1.29797494
4.08033323 2.36980581 1.30717623
4.02527618 2.36941981 1.32477367
3.97090697 2.36946177 1.34308410
3.91394591 2.27258372 1.37528455
3.86143875 2.27431989 1.40061545
3.81066799 2.27582121 1.42904139
3.80793357 2.20593476 1.44346821
3.76046753 2.20944929 1.47422600
3.71190262 2.21241856 1.50328958
3.67674136 2.09387493 1.58763647
3.63468528 2.09577060 1.62372887
3.59630299 2.10076952 1.66190124
3.63455939 2.05818510 1.74127436
3.59310722 2.05991292 1.77505171
3.63579226 2.06179190 1.86847413
3.55076599 2.06335187 1.80780566
3.59210062 2.06251311 1.90008748
3.60874200 2.06588507 1.94259644
3.54401374 2.06486177 1.92661774
3.56070542 2.07224298 1.97048569
3.57566905 2.07126164 2.01231503
3.51012754 2.06994462 1.99529648
3.52433634 2.07096791 2.03693318
3.45840049 2.06612825 2.01887441
3.46969008 2.07135391 2.05874133
3.40400600 2.06759596 2.03519678
3.41517019 2.07509470 2.07624650
3.34959507 2.06773877 2.05050445
3.35964322 2.07130337 2.09071517
3.29415202 2.06894636 2.06149244
3.30294228 2.07127833 2.10118294
3.23729992 2.06626248 2.06960344
3.24623322 2.07019615 2.10988116
3.25477171 2.07253647 2.15001655
3.18965769 2.06776381 2.11827731
3.19783568 2.06843472 2.15894103
3.20500731 2.06027365 2.19689536
3.14261937 2.06718493 2.16697645
3.14944720 2.05592871 2.20438552
3.15577960 2.06378818 2.24477243
3.09423900 2.05938458 2.21222806
3.10011029 2.06425786 2.25219584
3.10638452 2.04728937 2.28950429
3.04434061 2.06553268 2.25997949
3.05095005 2.04772568 2.29764032
2.99619484 2.04849720 2.30237937
3.00074959 2.00599670 2.31012130
2.94675779 2.00860524 2.31936455
2.95259571 1.92672420 2.29325342
2.89212012 2.01027441 2.32436371
2.89923286 1.93155563 2.29552674
2.90627027 1.88340175 2.29421806
2.84724593 1.93453324 2.30469441
2.85604453 1.88680708 2.30444288
2.79531765 1.93575776 2.31631136
2.80477858 1.89084983 2.31563210
2.74358201 1.93655479 2.32335711
2.75158381 1.89792919 2.32006073
2.69094086 1.93913817 2.33843803
2.69931173 1.90039515 2.33707929
2.63699055 1.93988466 2.34822679
2.64490056 1.90432084 2.34726214
2.64755082 1.87191880 2.32585669
2.58706689 1.90192163 2.35312510
2.59123564 1.87143242 2.33420253
2.41136956 1.85058880 2.33993125
2.35234475 1.84582460 2.29927588
2.41062284 1.88193369 2.35544014
2.35176635 1.86862242 2.35110378
2.29441953 1.86130834 2.33331323
2.35198450 1.90615773 2.36291361
2.29585361 1.89172244 2.37016058
2.23990750 1.88159835 2.36587453
2.23619199 1.85734105 2.31855917
2.18425512 1.87024987 2.36902809
2.17883682 1.85427105 2.31081748
2.12802386 1.86509132 2.36388659
2.12205172 1.85303819 2.30687523
2.07222843 1.86138391 2.36606741
2.06600523 1.85213232 2.30555844
2.01624894 1.85868299 2.36758566
2.01018453 1.84881914 2.30792356
1.95904481 1.85773528 2.36901140
1.95373535 1.84841657 2.31204200
1.90150487 1.85703909 2.37120056
1.89684141 1.84801376 2.31694889
1.84397352 1.85666144 2.37338138
1.83919263 1.84860086 2.31943154
1.83590460 1.82751417 2.26978469
1.78197992 1.84789634 2.32646060
1.77959776 1.82447803 2.27942204
1.72402084 1.82031751 2.29101396
1.72820628 1.76351619 2.28740740
1.67095995 1.76308835 2.29066181
1.67767859 1.65190899 2.29224706
1.61305118 1.76193905 2.30180907
1.62136352 1.65344393 2.30669069
1.61642301 1.59708667 2.29251552
1.56441927 1.65835929 2.31559849
1.55803609 1.60214472 2.30323505
1.54905283 1.54879034 2.30140638
1.50127649 1.60821736 2.32018638
1.48888767 1.55342853 2.31001210
1.48946655 1.50020027 2.31808949
1.42951941 1.55360484 2.32453132
1.43151569 1.50006592 2.32625937
1.43883824 1.44916952 2.33834600
1.37457144 1.50058615 2.33874011
1.40243554 1.46597826 2.39891362
1.41900969 1.41156709 2.42020154
1.34728622 1.47282267 2.42532659
1.35797226 1.41296792 2.43618035
1.36660314 1.35046244 2.43938446
1.29730380 1.41137409 2.44118786
1.30429077 1.34755206 2.43358016
1.31464136 1.28558362 2.44133878
1.24819362 1.34580731 2.42969656
1.26008737 1.28438401 2.45214224
1.26623571 1.21977353 2.45912075
1.20394003 1.28336072 2.46021128
1.20973587 1.21870840 2.46464849
1.21113670 1.15463448 2.46102452
1.15308523 1.21791136 2.46771812
1.15473771 1.15414786 2.46420383
1.15463710 1.09109759 2.45154643
1.09878314 1.15319180 2.46801186
1.09989035 1.08845532 2.45808077
1.09785223 1.05769753 2.38346338
1.04467404 1.08723080 2.45656228
1.04579806 1.04447854 2.40961647
1.04256034 1.01208508 2.33817816
0.98989385 1.04179466 2.40975070
0.98809052 1.00519049 2.35298252
0.99153781 0.94335604 2.34971976
0.92972034 0.99775064 2.35059214
0.93769711 0.93489295 2.35244584
0.95089924 0.86983770 2.34952664
0.88573509 0.91673356 2.36085868
0.90209115 0.85432035 2.35808229
0.91431206 0.78984392 2.36338329
0.84864444 0.83784688 2.34536648
0.86167061 0.77750570 2.34461164
0.87466329 0.71531069 2.36395359
0.80813193 0.76498288 2.34045124
0.82262576 0.70398742 2.36423039
0.83097160 0.64289945 2.35315871
0.76990062 0.69346917 2.36186504
0.77942073 0.63373178 2.35218573
0.78502363 0.57122636 2.34873843
0.72788662 0.62380069 2.35166574
0.73584646 0.56233549 2.35587621
0.73958749 0.50177610 2.35293221
0.68660212 0.55181724 2.36218381
0.68914360 0.49239025 2.35556602
0.68877459 0.43381882 2.34961081
0.63948828 0.48121798 2.37034512
0.63861597 0.42346823 2.36491823
0.63394409 0.36575240 2.36094236
0.58613402 0.41205281 2.37150264
0.58084977 0.35568723 2.36745977
0.57275558 0.29938886 2.36257815
0.52643865 0.34400302 2.37188005
0.51774049 0.28887060 2.36379433
0.46182802 0.27709424 2.36307287
0.45316350 0.22596270 2.37552881
0.39605144 0.21559547 2.37792754
0.38540745 0.14413197 2.44924021
0.33760577 0.20452368 2.37957144
0.32860577 0.13805933 2.45578218
0.32280990 0.08945263 2.46880031
0.27114993 0.13426806 2.47084689
0.26498491 0.08233979 2.47095561
0.25862700 0.03379163 2.46111703
0.20689991 0.07538628 2.47300243
0.20053370 0.02713185 2.46344852
0.19413382 -0.02282543 2.44544864
0.14221387 0.02048040 2.46487474
0.13553721 -0.02477978 2.44196773
0.12724176 -0.03538186 2.38974571
0.07694060 -0.02603821 2.43906569
0.06889673 -0.03788976 2.38956976
0.06078582 -0.04929719 2.34247279
0.01007366 -0.03894661 2.38919234
0.00219757 -0.04746859 2.34158349
-0.00560301 -0.05438017 2.29347992
-0.05641580 -0.04821507 2.34172630
-0.06416606 -0.05682952 2.29405880
-0.07200859 -0.06409307 2.24570370
-0.12308980 -0.06033539 2.29509878
-0.13081491 -0.06590504 2.24648356
-0.13840578 -0.07002332 2.19676948
-0.18973868 -0.06266730 2.24707913
-0.19723728 -0.06817808 2.19777608
-0.20482817 -0.07193577 2.14765930
-0.25606039 -0.06712955 2.19878268
-0.26372677 -0.07136526 2.14866590
-0.27130085 -0.07427599 2.09823895
-0.27870721 -0.08866903 2.04735923
-0.32286859 -0.07125615 2.15005827
-0.33040914 -0.07389843 2.09967327
-0.33750516 -0.08842586 2.04849148
-0.38955939 -0.07414161 2.10121655
-0.39644569 -0.08821628 2.04983330
-6.57963133 -0.14620055 -3.35655689
