-1.31299019 -3.71389461 -2.79984307
-2.20190930 -3.71744084 -2.21686530
-2.41231108 -3.59621191 -3.43336964
-2.32816577 -3.65459943 -3.36519408
-2.41931176 -3.72045255 -3.36819291
-2.36553144 -3.73930502 -3.33962750
-2.47872448 -3.74633217 -3.34544230
-2.41898584 -3.79876971 -3.29394341
-2.51803279 -3.67664599 -3.38601518
-2.43049812 -3.65137911 -2.61077142
-2.42636514 -3.66406488 -2.55023766
-2.50483871 -3.60441756 -2.57392693
-2.47347021 -3.64669847 -2.50405812
-2.38356256 -3.71785808 -2.52645683
-2.38969040 -3.73213410 -2.61640358
-2.42616987 -3.69615054 -2.45124269
-1.47416139 -3.67106605 -3.81649184
-1.33023894 -3.65192676 -3.92780709
-1.27188253 -3.64134026 -4.04963112
-1.36712241 -3.65107918 -3.82444501
-1.71922994 -3.82832599 -3.68224335
-1.79502070 -3.76994467 -3.78138280
-1.82895458 -3.68645048 -3.84341478
-1.84283984 -3.69688058 -3.70966172
-0.53639030 -3.72523737 -3.99557686
-0.52489108 -3.67435145 -4.14802599
-0.40804780 -3.75210786 -4.06086969
-0.42185465 -3.69038773 -4.13082933
-0.66179931 -3.70835352 -4.06858778
-0.62498105 -3.68153524 -4.16959047
-0.63530576 -3.72805572 -3.87619138
-0.48061526 -3.75334644 -3.91513491
-0.37019953 -3.80230284 -3.97921467
-0.55146182 -3.71186090 -3.80375409
-0.73276317 -3.76547170 -3.42293787
-0.65103024 -3.69937086 -3.56294918
-0.61017025 -3.71334696 -3.39778805
-0.57207429 -3.69429898 -3.51366687
-0.74119854 -3.75976110 -3.29983664
-0.65010458 -3.72635841 -3.27377439
-0.84354395 -3.82949948 -3.36505079
-0.81447005 -3.80849576 -3.29308295
-0.78667378 -3.76960444 -3.51822996
-0.72736561 -3.69930553 -3.61717272
-0.89287835 -3.84653950 -3.44244218
-0.62908792 -3.60259247 -1.98583829
-0.53288317 -3.61135364 -2.11534119
-0.48018503 -3.59101486 -1.96207058
-0.42650908 -3.60251403 -2.02891469
-0.68714452 -3.61832857 -2.11922622
-0.60110915 -3.60284019 -2.19150710
-0.51589513 -3.58651686 -1.86325836
-0.63743198 -3.61008883 -1.89470518
-0.78315359 -3.74316406 -2.01675057
-0.77134150 -3.68819737 -1.94460022
-0.74856478 -3.65746784 -1.85069013
-1.40816486 -3.76380277 -3.10395908
-1.38691354 -3.71822309 -3.26630378
-1.28069592 -3.78296804 -3.16434932
-1.29253411 -3.72106528 -3.28275704
-1.51867187 -3.75850940 -2.97989273
-1.53449953 -3.80234194 -3.14192462
-1.62522852 -3.79713988 -3.03089619
-1.47238839 -3.78448033 -3.27442598
-1.30984807 -3.77217293 -2.97698569
-1.41066813 -3.73010039 -2.88561797
-1.20420420 -3.80373693 -3.05500269
-0.33628866 -3.74668431 -2.73628473
-0.33915690 -3.68582463 -2.86144614
-0.45115024 -3.73043942 -2.90530467
-0.22872815 -3.65263081 -2.72886610
-0.23605530 -3.61754656 -2.83989477
-0.24669400 -3.77063465 -2.60392666
-0.17527384 -3.70256495 -2.63665104
-0.40757844 -3.80577087 -2.64696360
-0.30548072 -3.80208135 -2.53654814
-0.56592053 -3.71535468 -2.96676397
-0.75752163 -3.66698527 -2.93896770
-0.86426079 -3.63898039 -2.86164165
-0.67075622 -3.69500303 -3.02306056
-1.00947404 -3.78728342 -0.57027680
-1.01141655 -3.77998233 -0.72113532
-1.10397077 -3.83759570 -0.66688573
-0.95747989 -3.72043967 -0.79095191
-1.12256253 -3.83019018 -0.53274149
-1.19220948 -3.85453176 -0.63114959
-1.11239314 -3.76867867 -0.80076921
-1.14258826 -3.80669665 -0.74651957
-1.23017502 -3.79836559 -0.72551596
-1.19656408 -3.72075248 -0.81979114
-0.72076857 -3.76850939 0.07417355
-0.66448569 -3.72563553 0.04598996
-0.61112058 -3.66338372 0.04822461
-0.05049060 -3.75560188 -1.40429437
-0.01293243 -3.72986913 -1.36567068
-0.06922569 -3.79159904 -1.34261346
-0.01826156 -3.75140381 -1.31292665
-0.01149503 -3.68397307 -1.43626273
0.03031667 -3.67857575 -1.31189680
-0.93601996 -3.83797383 -3.29132295
-0.87443012 -3.81377578 -3.21840358
-0.79005057 -3.74356818 -3.19513106
-1.63333797 -3.81720471 -2.01899290
-1.62285566 -3.82711339 -2.18228936
-1.45242774 -3.72023106 -2.11489773
-1.51515186 -3.71654105 -2.21450543
-1.83162737 -3.87460947 -2.03706312
-1.79002416 -3.87075043 -2.16558814
-1.73404062 -3.85450554 -1.88389695
-1.88315213 -3.87647414 -1.90358377
-1.50079727 -3.81339788 -1.94879830
-1.36718762 -3.78352880 -2.03837991
-1.61379445 -3.82996869 -1.82367611
-1.04852164 -3.73170400 -2.18380165
-1.07197642 -3.56716919 -2.27222300
-0.97472870 -3.70127416 -2.22673464
-0.96150851 -3.60461307 -2.26454377
-0.90813243 -3.80234194 -2.18471432
-0.86948884 -3.63583827 -2.25940704
-1.01248574 -3.83637023 -2.10586286
-1.85817194 -3.86393166 -2.59671688
-1.77327085 -3.86792111 -2.56649566
-1.78169322 -3.85716534 -2.69705439
-1.69362390 -3.85012484 -2.62002802
-1.64350736 -3.83991647 -2.51877761
-1.71447122 -3.60882449 -7.66625834
-1.63244569 -3.68149638 -7.68545198
-1.72988701 -3.66923690 -7.61437702
-1.66026413 -3.71880579 -7.61109495
-1.79531765 -3.68424702 -7.55861950
-2.31173825 -3.65664649 -8.13360596
-2.27798390 -3.68965769 -8.20304394
-2.20653772 -3.62986708 -8.15354061
-2.20257425 -3.67793679 -8.23599052
-2.33188152 -3.71360779 -8.23995399
-2.23160911 -3.72043967 -8.31347275
-2.39614391 -3.69386888 -8.16391754
-2.18931317 -3.57382607 -8.06326103
-2.06884718 -3.54358387 -8.13029385
-2.01165104 -3.51637435 -8.06050396
-2.09773874 -3.58593035 -8.20544243
-2.26278210 -3.58667326 -7.96135235
-2.17239213 -3.55778193 -7.90678978
-2.33274198 -3.62280059 -8.07318878
-2.35972977 -3.60349178 -7.99798822
-1.49817681 -3.43380713 -5.10592747
-1.64422441 -3.43825293 -5.09008646
-1.54132795 -3.43779135 -5.24718189
-1.73280442 -3.46314621 -5.29913759
-1.50950646 -3.43921757 -4.94826317
-1.64007843 -3.45046926 -4.96775436
-1.35931027 -3.42297888 -5.03050470
-1.43448794 -3.42691016 -4.89222717
-1.26957595 -3.42903996 -5.29961157
-0.81682986 -3.54603505 -9.37365437
-0.93843186 -3.53041601 -9.38405895
-0.83298349 -3.45568419 -9.46865940
-0.93169147 -3.44662309 -9.45630074
-0.71041667 -3.50660920 -9.39530945
-0.68611175 -3.53780937 -9.29434872
-0.71041667 -3.50660920 -9.39530945
-0.71170741 -3.45670104 -9.48340511
-0.93843186 -3.53041601 -9.38405895
-0.95907050 -3.62076688 -9.31877899
-1.49881566 -3.51706553 -9.42168522
-1.56816280 -3.54576135 -9.33618450
-1.58056152 -3.53710437 -9.43697834
-1.62198222 -3.58749461 -9.35521889
-1.70370209 -3.60804200 -9.40336704
-1.68311560 -3.61878490 -9.33454132
-1.67878711 -3.60590386 -9.25236511
-1.37403238 -3.49354553 -9.26926231
-1.39506209 -3.50503159 -9.16643429
-1.52459109 -3.49994707 -9.16412640
-1.49676859 -3.50393653 -9.11668205
-1.24685025 -3.51518798 -9.19467354
-1.24458170 -3.50291967 -9.27815342
-1.33295083 -3.47188997 -9.37812614
-1.23044884 -3.47677922 -9.36495876
-1.45087624 -3.49808288 -9.30963993
-1.39701772 -3.47126412 -9.41586971
-1.54665077 -3.50760031 -9.20818043
-0.30626297 -2.81072545 -9.85761070
-0.40018609 -2.87060714 -9.86520004
-0.47257107 -2.79775286 -9.85424805
-0.50875050 -2.85740018 -9.83698654
-0.43250641 -2.76154733 -9.83943748
-0.33404619 -2.73637176 -9.82144547
-0.16367033 -2.75141716 -9.84157467
-0.21735932 -2.85185933 -9.87828922
-0.10380150 -2.80331993 -9.86010170
-0.28733233 -2.91526127 -9.86964512
-0.18596467 -2.70028353 -9.82405186
-1.86111856 -2.86459708 -9.74687004
-1.76964641 -2.75492430 -9.76681709
-1.75229335 -2.90034604 -9.74806976
-1.71440589 -2.82287645 -9.76368809
-1.64903522 -2.69403863 -9.72306252
-1.62275136 -2.79832649 -9.72988129
-1.64903522 -2.91034603 -9.71284199
-0.51744658 -2.72536778 -9.83688164
-0.47755143 -2.66791129 -9.83338737
-0.41353664 -2.71774101 -9.81113243
-0.38846526 -2.66496468 -9.80336189
-0.47924632 -2.65433884 -9.83015442
-0.39598799 -2.60473084 -9.86466408
-0.45005503 -2.53514886 -9.89772797
-1.58833194 -2.54949021 -9.65837002
-1.39588344 -2.56992030 -9.72556686
-1.52911508 -2.68375182 -9.69242477
-1.41493142 -2.66582513 -9.70205879
-1.47789025 -2.43413329 -9.67602253
-1.35194659 -2.44285560 -9.72937298
-1.73754787 -2.61935902 -9.71216297
-1.62005258 -2.37405586 -9.59273815
-1.73132873 -2.48033857 -9.61139584
-1.86840653 -2.55741715 -9.68705273
-1.20338273 -1.92829907 -9.79071522
-1.35476267 -1.92730808 -9.74500465
-1.22840202 -1.74581122 -9.80008888
-1.38231134 -1.77519810 -9.77053261
-1.24313450 -2.11939168 -9.81795025
-1.37555778 -2.07893586 -9.76864243
-1.09324086 -2.06265187 -9.85861588
-1.02210748 -1.96064532 -9.84632015
-1.05764806 -1.83468878 -9.79298401
-1.08720446 -1.69951451 -9.83522511
-1.03385842 -2.23035669 -9.85339737
-0.91272169 -0.74508131 -9.77527809
-0.96295571 -0.78459835 -9.78443146
-1.11586118 -0.74882311 -9.71088600
-1.13902903 -0.80354208 -9.74643898
-0.82872021 -0.81813121 -9.75645256
-0.91240877 -0.83681411 -9.78938484
-0.91272169 -0.74508131 -9.77527809
-0.73194182 -0.72774124 -9.73199368
-0.82872021 -0.81813121 -9.75645256
-0.70873481 -0.79543269 -9.71110821
-0.92583758 -0.67566895 -9.75367546
-1.09741282 -0.69175738 -9.68508434
-0.74982941 -0.66413063 -9.73891640
-0.92583758 -0.67566895 -9.75367546
-1.03830016 -0.84747893 -9.79735184
-1.14115417 -0.86013842 -9.78220177
-0.99980009 -0.88399738 -9.80972481
-1.13219726 -0.92746484 -9.81194115
1.24608934 -1.31097996 -9.86008930
1.30465448 -1.36779797 -9.82758522
1.19719815 -1.41670215 -9.82608604
1.29129088 -1.43568492 -9.79619122
1.32597101 -1.24336672 -9.84582520
1.37550092 -1.32766819 -9.81520081
1.37826490 -1.43382049 -9.75637436
2.49697256 -2.44850087 -9.42510033
2.37322593 -2.34480381 -9.40823269
2.53167868 -2.37043142 -9.43371868
2.64102507 -2.51045561 -9.48431778
2.54947495 -2.56720853 -9.48024940
2.39286685 -2.49561882 -9.40772152
2.46114492 -2.62068892 -9.47972870
2.22975302 -2.16772223 -9.49521732
2.44285321 -2.18950820 -9.43787766
2.25804448 -2.27674270 -9.47330093
2.35074210 -2.03701997 -9.48120117
2.19230890 -2.05033135 -9.54350948
2.52323008 -2.02803683 -9.44777298
2.62318993 -2.15332890 -9.43650913
2.61595392 -2.32616854 -9.45516491
2.72660422 -2.27324891 -9.46871185
-0.03424571 -1.25352299 -9.88884926
0.02807420 -1.31649494 -9.78582573
-0.06631830 -1.33679450 -9.83595562
-0.01560189 -1.35938859 -9.76071644
0.19049707 -1.37316954 -9.70775700
0.08717381 -1.42915320 -9.68097782
0.18771850 -1.46489370 -9.67880154
-0.02281170 -1.42358601 -9.69040298
2.14438248 -1.21078575 -9.66050911
2.06019855 -1.34723759 -9.63504601
2.00331521 -1.16722691 -9.71112061
1.93860960 -1.26039386 -9.68061256
2.24292111 -1.36675501 -9.63239956
2.30468035 -1.22514021 -9.63681889
2.21489000 -1.47221637 -9.60129166
2.04971623 -1.45748389 -9.55558205
1.89344716 -1.37872350 -9.54645538
1.85292614 -1.30808568 -9.60033989
1.91301656 -1.47444570 -9.51005459
1.26681924 -1.63788569 -9.68659687
1.31651866 -1.73234332 -9.64954281
1.19666362 -1.76953971 -9.69997311
1.26076972 -1.79707527 -9.67650509
1.37607467 -1.60344028 -9.65077019
1.40693474 -1.67758524 -9.62711906
1.26641500 -1.52896917 -9.72899532
1.37363648 -1.52042949 -9.69619274
1.15006709 -1.62556505 -9.73630905
1.17118824 -1.51316762 -9.76469231
1.12645602 -1.73036158 -9.73131561
-0.14692999 -1.30002832 -9.91216087
-0.13052864 -1.36679411 -9.84394836
-0.13252342 -1.40572441 -9.76208496
-0.05079047 -0.92809063 -9.80234528
0.13571292 -1.00918472 -9.77147198
0.27966148 -1.17480183 -9.71255493
0.30913958 -1.06613302 -9.71192837
0.28133029 -1.29147565 -9.71337605
1.71188498 -1.13510227 -9.75203228
1.84021437 -1.18820453 -9.74089909
1.70174170 -1.20997739 -9.70316696
1.78071070 -1.24254537 -9.66625786
1.67566645 -1.29260993 -9.62366390
1.62092137 -1.23087668 -9.70102978
1.58277321 -1.15146458 -9.73625660
1.17197037 -1.02320015 -9.84496498
1.29891777 -0.93695617 -9.78899384
1.25699043 -1.19677389 -9.86565685
1.38488793 -1.04742420 -9.78328323
1.54968381 -0.92532659 -9.79276180
1.54058349 -1.00429559 -9.78499126
1.34713101 -0.85903019 -9.78460026
1.56588960 -0.84446722 -9.76490116
1.09096754 -0.89110285 -9.82140636
1.02991223 -0.95080221 -9.86891460
1.12593448 -0.82993025 -9.78529167
1.31465435 -1.83011258 -9.67663574
1.23142207 -1.88158524 -9.69766521
1.30447185 -1.89297998 -9.69481087
1.37694812 -1.78948736 -9.66713142
1.39106786 -1.86612260 -9.71565723
1.68358028 -3.43792701 -4.57443476
1.68436265 -3.45031261 -4.72186470
1.78657758 -3.42812276 -4.60705519
1.78901577 -3.43977833 -4.74217749
1.60049152 -3.49548817 -4.66142225
1.59998298 -3.47693563 -4.57336617
0.44766447 -3.63197899 -4.63286972
0.44194093 -3.66622901 -4.76852608
0.48888946 -3.72101331 -4.66071796
0.49205762 -3.73335981 -4.77044296
0.50677711 -3.64986682 -4.55255795
0.42912495 -3.56591749 -4.46487999
0.49955425 -3.56681705 -4.45486689
0.38058582 -3.57634759 -4.62259579
0.38389739 -3.61660790 -4.78297234
0.51161408 -3.71216059 -4.59740734
0.35020813 -3.55939865 -4.46726561
1.68888664 -3.50426245 -4.84600878
1.79468703 -3.46395016 -4.86330986
1.61570632 -3.54032469 -4.78357172
1.63973475 -3.58882451 -4.99946213
1.80207944 -3.55181074 -5.01658010
1.68214619 -3.54207158 -4.90583849
1.79348767 -3.50629640 -4.94074059
1.54918838 -3.61463904 -4.90160131
1.60923970 -3.58513498 -4.85067654
1.49366093 -3.57795119 -5.03329468
1.45396137 -3.58613896 -4.93977547
1.50308716 -3.55679107 -5.14462328
1.65103841 -3.58929396 -5.11064672
1.80235314 -3.58937216 -5.10835218
0.16139707 -3.79509306 -2.44036961
0.29821026 -3.70619416 -2.47771692
0.33076900 -3.79697061 -2.36252165
0.23882760 -3.82809114 -2.28042364
0.10064168 -3.83696985 -2.34932756
0.39302373 -3.75591493 -2.40683675
-0.00706223 -3.80115557 -2.45948243
2.84217000 -3.77030849 0.77954876
2.88811445 -3.81798720 0.88322413
2.76280975 -3.73227763 0.87879133
2.79161000 -3.75837898 0.96422696
2.71759534 -3.65534258 1.00502169
2.72577000 -3.66572046 0.87677050
2.75295353 -3.66377783 0.76386452
0.86142695 -3.76165152 -3.76061273
0.90121776 -3.81640959 -3.67455125
0.80931544 -3.73530245 -3.66097903
0.85927570 -3.78406310 -3.62606406
0.95219493 -3.82745242 -3.57305336
0.94196862 -3.74511290 -3.45648026
0.83838940 -3.69246054 -3.55811191
0.36280251 -3.81805229 -3.01373839
0.39792588 -3.82582283 -2.93366146
0.33322009 -3.76424599 -2.98598146
0.35099038 -3.76084328 -2.92753363
0.30494148 -3.75229049 -3.09588861
0.30073032 -3.71004844 -3.02455974
0.31640154 -3.67471647 -2.95489979
2.24286890 -3.45492792 -9.28731918
2.38447046 -3.44050837 -9.26652431
2.24947906 -3.56621718 -9.19722843
2.37156343 -3.54261923 -9.14986324
2.51970983 -3.50430155 -9.09138966
2.44462633 -3.62046695 -8.93847084
2.53302145 -3.56401396 -8.93723297
2.51907110 -3.41328597 -9.25110054
2.35950351 -3.66664624 -9.03068638
2.24376845 -3.68899274 -9.10784245
2.36341476 -3.68549871 -8.94033527
2.05942917 -3.49646592 -9.29035664
1.96411109 -3.56131506 -9.40723896
2.12366581 -3.41672778 -9.42640495
2.01096845 -3.49949074 -9.51791573
2.05942917 -3.49646592 -9.29035664
2.11876345 -3.58271003 -9.18007088
2.24286890 -3.45492792 -9.28731918
2.24621940 -3.37030077 -9.38388824
1.93742311 -3.54596972 -9.20854568
1.98945630 -3.60559082 -9.11431026
1.93742311 -3.54596972 -9.20854568
1.86527288 -3.58363557 -9.31392860
1.90106118 -3.52458811 -6.92368650
1.83361733 -3.56806850 -6.93008804
1.92661488 -3.63152289 -7.00449419
1.84072292 -3.62508225 -7.00043917
1.86318672 -3.48662257 -6.80449677
1.80301809 -3.58072829 -6.81337547
1.77681243 -3.63838077 -6.99226475
2.55136538 -3.49693537 -7.89251328
2.40547419 -3.50436664 -7.81633425
2.47646427 -3.54241061 -7.93672419
2.35849953 -3.57188869 -7.87034988
2.19997501 -3.55954218 -7.80491400
2.18264818 -3.60823750 -7.84907246
2.60551071 -3.49591827 -7.75945139
2.56128716 -3.48881292 -7.68168211
2.38534403 -3.50327158 -7.72754812
2.67809105 -3.51105499 -7.83626890
2.19452524 -3.54861665 -7.75135517
1.77982414 -2.91892457 -9.60082245
1.66921747 -2.94050598 -9.68290329
1.67642260 -2.81605768 -9.57350826
1.52003610 -2.85015106 -9.67878723
1.54523790 -2.93915915 -9.74171925
1.51950157 -2.77017832 -9.60319424
1.66854787 -2.67883658 -9.54966259
1.51333487 -2.66643786 -9.58152580
1.85679829 -2.77920032 -9.54517746
1.80771160 -2.67347813 -9.52644253
1.90630221 -2.88510513 -9.57319546
1.01356304 -3.50993371 -5.54865932
1.10727763 -3.49860430 -5.59705496
1.05401158 -3.50934339 -5.48077250
1.13092673 -3.51645827 -5.46765852
0.96188188 -3.51298475 -5.45695257
1.83665514 -3.44873500 -6.55520391
1.73295379 -3.48191595 -6.41295052
1.75818157 -3.50261974 -6.57250500
1.69672227 -3.53496623 -6.51423979
1.62780523 -3.56613922 -6.35918331
1.60308588 -3.59324431 -6.45497084
1.88460755 -3.43988252 -6.42416286
1.89349926 -3.54822540 -6.31960106
1.78730774 -3.57118464 -6.30344725
1.90926182 -3.42641473 -6.52629948
0.17554291 -3.00196123 -9.72898197
0.19300030 -2.93005896 -9.71673965
0.29842263 -2.99788070 -9.72786045
0.27816215 -2.92064571 -9.71617889
0.05937756 -2.94007182 -9.76726055
0.12962435 -2.87801266 -9.74792576
0.23161778 -2.83561420 -9.73800468
1.07133281 -3.69285178 -8.27004433
0.95941776 -3.71953988 -8.11904240
0.89216965 -3.71098733 -8.34158230
0.82421750 -3.73874450 -8.21526051
1.20788908 -3.67488599 -8.14078903
1.03284574 -3.65788484 -8.01140404
1.19670284 -3.63300920 -8.06038666
1.21633744 -3.71437693 -8.24200058
1.56847095 -3.63475633 -9.18952370
1.65699649 -3.61814618 -9.28074837
1.69065976 -3.60457397 -9.09450531
1.58132613 -3.62826347 -9.07045078
0.66843081 -3.58782077 -4.54261017
0.58515942 -3.64529061 -4.52277994
0.64841801 -3.69291687 -4.60972786
0.56080508 -3.73221254 -4.58339214
0.76432258 -3.56213641 -4.66579008
0.72228926 -3.65781975 -4.67229557
0.57070065 -3.56508303 -4.43276834
0.64660573 -3.53671312 -4.41274214
0.77148026 -3.50285435 -4.52315807
0.72317582 -3.50619197 -4.37244320
0.84198779 -3.50865602 -4.65605021
1.46488702 -3.62543416 -4.71260786
1.50088394 -3.62999749 -4.80572271
1.53736317 -3.58008957 -4.70303822
1.55781925 -3.60501742 -4.79199409
0.98469776 -3.52054644 -4.63314342
0.84898895 -3.49544907 -4.48747396
0.89889705 -3.51606154 -4.76440620
0.99963892 -3.51308894 -4.75398922
1.16154027 -3.53705215 -4.69507217
1.16598606 -3.52492714 -4.77748299
0.91442490 -3.51534438 -4.45527124
1.01738310 -3.54809499 -4.57901144
1.16227043 -3.57712984 -4.62285709
1.30093861 -3.61259222 -6.77014256
1.46098864 -3.69002271 -6.82823801
1.44993281 -3.73414207 -6.72870922
1.51326966 -3.73214746 -6.79070282
1.38702083 -3.59982491 -6.85154247
1.59780574 -3.67921448 -6.97811890
1.70953822 -3.68467712 -6.90427399
1.57349050 -3.72083068 -6.87407827
1.68484485 -3.71141744 -6.79756069
1.67747867 -3.67513394 -7.08384132
1.58888793 -3.66435170 -7.06861305
1.76018941 -3.68389511 -7.09489727
1.79044986 -3.59490013 -6.76834345
2.24092627 -3.62012815 -5.97054434
2.15289116 -3.61828947 -5.91581488
2.14875031 -3.70244765 -6.01912260
2.04291058 -3.71661949 -5.98396015
2.04766917 -3.66128778 -5.92804146
2.06963778 -3.60600805 -5.87190151
2.28805709 -3.65446901 -6.06462383
2.38548756 -3.55127621 -6.10591412
2.34982967 -3.56117153 -5.95179653
2.41873336 -3.53985524 -6.00852251
2.26559353 -3.56441808 -5.89298296
2.16932344 -3.73768830 -6.08381557
2.28658414 -3.67222643 -6.19573021
2.14869809 -3.76498914 -6.17339706
2.34893012 -3.56715608 -6.21344805
2.05774736 -3.63280058 -4.85439205
2.08537412 -3.68955350 -4.91642523
2.11446118 -3.75028253 -4.85720825
2.13815045 -3.76222515 -4.95608568
2.03545308 -3.59137988 -4.96319103
2.01796961 -3.54499197 -4.89020634
2.09422660 -3.69051814 -5.02549791
2.26574993 -3.72292972 -8.92026997
2.16984510 -3.66376495 -6.33162165
2.13627315 -3.57660818 -6.36074781
2.22758889 -3.54205871 -6.34563684
2.15619469 -3.52393627 -6.37789249
2.05979443 -3.61020637 -6.34409857
2.08250594 -3.48843479 -6.39585781
2.06906414 -3.72109127 -6.30378628
1.96816587 -3.62363505 -5.12650061
2.11602545 -3.69116998 -5.16852093
2.19399071 -3.75269485 -5.09972143
1.95515430 -3.54714322 -5.01137829
2.03001642 -3.66911054 -5.28454304
1.91325140 -3.63935852 -5.24230099
1.77476549 -3.60238385 -5.22668171
0.55389518 -3.77803969 -4.67586756
0.55178303 -3.77145600 -5.36589813
0.51544714 -3.76032162 -5.45128155
0.67017776 -3.70406413 -5.52262306
0.62489814 -3.69822335 -5.58410883
0.64085615 -3.73139119 -5.30906677
0.72210670 -3.69066143 -5.48176336
0.51406515 -3.76472831 -5.19552183
0.40585276 -3.80146861 -5.28484297
0.40986833 -3.77016497 -5.19717741
0.38426244 -3.80695724 -5.38673162
0.60016572 -3.74540663 -5.19227600
0.61977428 -3.76856136 -4.68298626
0.69586194 -3.71715403 -4.71177340
0.63509357 -3.77302027 -4.78108168
0.71355402 -3.72616315 -4.77923012
0.76503962 -3.63819814 -4.76468039
2.27089977 -3.78302026 -5.02449417
2.25601077 -3.78884816 -4.91534281
2.34621620 -3.77887321 -4.96170616
2.19199586 -3.79169011 -4.85460091
2.21945333 -3.77852225 -4.76717043
2.33177161 -3.75580454 -4.74274540
2.16806889 -3.76855707 -4.66061926
2.32033587 -3.73469305 -4.56412888
2.43076468 -3.73591661 -4.62257719
1.69278491 -3.74465036 -1.95207071
1.73655224 -3.61151004 -1.75401604
1.65037346 -3.71731067 -1.89986813
1.68144202 -3.64544702 -1.69097900
1.83734620 -3.71591544 -1.92184961
1.83145320 -3.60178399 -1.80494106
1.74009848 -3.80982566 -2.16574454
1.84591186 -3.79432392 -2.06817079
2.07429218 -3.72884870 -1.17749178
2.06892061 -3.68824959 -1.06355584
2.03021193 -3.61178374 -1.11488497
2.09946799 -3.59828997 -0.99453461
2.15963674 -3.76909590 -1.08055687
2.15053630 -3.80481911 -1.19616163
2.15718555 -3.63033628 -1.00273526
2.33477116 -3.67873216 -1.09613693
2.30687046 -3.74996972 -1.11736214
2.39864254 -3.70729756 -1.17491031
2.33205938 -3.77648830 -1.19312394
2.24640203 -3.65015364 -1.03040111
2.23543739 -3.75964379 -1.09715378
2.23921824 -3.80884767 -1.18983841
1.91717565 -3.61645150 0.34091055
1.92969179 -3.66900611 0.56008625
1.78802478 -3.65605950 0.46784499
1.73530018 -3.70953512 0.65874726
1.73427057 -3.59535646 0.34806824
1.82621205 -3.56462669 0.24370195
1.99323726 -3.56540895 0.14399010
1.90378594 -3.54363632 0.08833242
2.04480100 -3.61341357 0.35208380
2.09597373 -3.56937242 0.16398984
2.04197192 -3.64203119 0.51767486
0.67613602 -3.81565332 -2.72854018
0.62972200 -3.79088187 -2.64097953
0.55931878 -3.81879568 -2.77698827
0.51896727 -3.78214669 -2.68366456
0.43181071 -3.77577138 -2.77783561
0.49851125 -3.83751750 -2.88487458
0.42098948 -3.80686593 -2.85569620
0.43190196 -3.73429871 -2.69169593
0.65339839 -3.82421923 -2.86818647
0.58343840 -3.83648753 -2.93705130
0.73990309 -3.82163763 -2.79513669
0.60609782 -3.73939633 -3.11277246
0.56220007 -3.70024419 -3.16777825
0.64326811 -3.60362244 -3.14322829
0.57461196 -3.61385679 -3.18875599
0.54592913 -3.81247234 -3.07703638
0.49937174 -3.77115607 -3.15582275
0.50213569 -3.63012767 -3.22683883
1.14566040 -3.83170271 -3.20076346
1.00976908 -3.79985189 -3.24854636
1.10674298 -3.82189846 -3.36445093
1.02379763 -3.78999519 -3.35409927
1.06743467 -3.84509230 -3.09362030
0.96016091 -3.80969524 -3.13248539
1.34223449 -3.84146237 -3.16750240
1.26334798 -3.82907367 -3.09935141
1.18494284 -3.83234167 -3.01798892
1.19314349 -3.84368420 -3.37700629
1.02999055 -3.71130013 -4.49506187
1.06988573 -3.78970861 -4.40610600
0.98540181 -3.67637229 -4.37126923
1.06248033 -3.77820945 -4.31752872
1.18858039 -3.80663133 -4.28966665
1.16228342 -3.80240726 -4.39750147
1.14633834 -3.74466348 -4.50626087
1.28495455 -3.75393319 -4.35787964
1.22332561 -3.72930503 -4.48780012
1.33512342 -3.65409112 -4.44409752
1.25272548 -3.67173100 -4.53026342
1.14663827 -3.65570784 -4.57738161
2.62411547 -3.56673884 -2.20446634
2.56565452 -3.55364895 -2.15200281
2.57757092 -3.62560391 -2.21503997
2.52691960 -3.59998488 -2.16829991
2.66043830 -3.53141999 -2.08929205
2.58813167 -3.53758669 -2.06848383
2.51952744 -3.57111955 -2.05334735
2.47929335 -3.68712831 -4.21089363
2.40198016 -3.68045330 -4.11318970
2.29040408 -3.70408654 -4.23791075
2.65077734 -3.68135262 -4.11476707
2.56970930 -3.66638541 -4.05287743
2.61698389 -3.69719338 -4.25866365
2.77922201 -3.70813298 -4.19209433
2.38039303 -3.71324325 -4.41054678
2.27859187 -3.71375132 -4.34923601
2.53016615 -3.70362115 -4.34996605
1.75833809 -3.54649138 -1.49534929
1.71648729 -3.60393524 -1.47734439
1.79347456 -3.52022076 -1.62833321
1.82331765 -3.51341486 -1.50920832
1.99155533 -3.50263262 -0.88327140
1.97649693 -3.53490090 -1.05046606
2.10992408 -3.49428868 -0.80921763
2.19070530 -3.52573538 -0.91791236
2.02916908 -3.46482372 -0.66955847
1.66832626 -3.57310128 0.23078164
1.65080369 -3.59473062 0.09440797
1.74335778 -3.54345369 0.14696269
1.70711327 -3.56191492 0.07751118
1.82123172 -3.53290629 0.03779854
1.74904227 -3.56353164 -0.01778090
1.70403636 -3.63004971 -0.01984085
1.84951031 -3.52716947 -1.69820189
1.89684999 -3.51018143 -1.51314569
1.99577951 -3.43548894 -0.39864939
1.93218195 -3.47259402 -0.59468329
1.92455494 -3.46975183 -0.41037023
2.11517835 -3.44035196 -0.53532296
2.17683315 -3.47662282 -0.70180053
2.07753849 -3.42534566 -0.37137467
1.91154337 -3.49894309 -0.82267243
0.38340196 -3.67802811 -2.71633697
0.36453649 -3.62540817 -2.64444757
0.34454978 -3.60930681 -2.73239946
0.33687064 -3.59439158 -2.67917991
0.29315543 -3.55930734 -2.64253116
0.29924402 -3.53799081 -2.72264743
0.33143392 -3.58724713 -2.59749889
0.38168100 -3.54599595 -3.36467266
0.33243781 -3.57767725 -3.25729465
0.28341630 -3.53646541 -3.37201285
0.24805824 -3.53196740 -3.28642082
0.27281672 -3.56892920 -3.17269349
0.20994923 -3.52255416 -3.18876886
0.44812077 -3.56423545 -3.29069710
0.47622991 -3.52865601 -3.35083961
0.34243768 -3.66789794 -3.22072411
0.28621942 -3.65568161 -3.14498854
0.42629579 -3.65436482 -3.24038506
1.41251481 -3.56829047 -4.46075964
1.36607468 -3.65047956 -4.33838892
1.41791236 -3.55449653 -4.35761929
1.31617963 -3.75463724 -4.29486895
1.34769166 -3.62281370 -4.57482624
1.26873565 -3.60878515 -4.60730314
1.42277539 -3.59045434 -4.54610395
0.95113891 -3.60749459 -4.08282471
1.02491891 -3.68617678 -4.11738777
0.98979551 -3.69190025 -3.96714187
1.07764304 -3.73974824 -3.99757171
0.86168766 -3.59666038 -3.97332168
0.91106117 -3.68388200 -3.90336156
0.94545448 -3.55925512 -4.26410007
0.99518001 -3.65539455 -4.24863768
0.84417808 -3.50790000 -4.13286352
0.79438740 -3.54084611 -4.00754547
0.88132232 -3.48624444 -4.28651190
1.54798889 -3.61354399 -3.55061555
1.50222683 -3.60192752 -3.66893196
1.56841886 -3.54942489 -3.58894610
1.54995763 -3.53787351 -3.66455126
1.59910953 -3.59742951 -3.46810031
1.62509346 -3.51942515 -3.53218031
1.60622799 -3.48992109 -3.67161775
2.29807019 -3.40139556 7.52983761
2.30310273 -3.36955762 7.39118242
2.38950324 -3.44103003 7.48638296
2.39316654 -3.38821459 7.39059544
2.18255687 -3.36163092 7.49664354
2.19004035 -3.36331248 7.37712717
2.35952950 -3.47221613 7.60365677
2.37791276 -3.49361062 7.54412699
2.17289591 -3.35932302 7.61669397
2.28501964 -3.39970064 7.64481640
2.37336254 -3.43997383 7.67926168
0.76325351 -3.58250141 7.05709314
0.80318779 -3.62570810 7.04894447
0.81665570 -3.57877254 7.11883879
0.84759396 -3.62300920 7.08310270
0.77005917 -3.59426141 6.98880196
0.81732059 -3.63981485 6.99747133
0.88097036 -3.64568162 7.02724981
1.21189165 -3.45874810 2.26461387
1.11137152 -3.43458939 2.24149799
1.20126593 -3.46189022 2.20374107
1.13412201 -3.45224237 2.17464113
1.24947906 -3.51075506 2.19022107
1.15701616 -3.50630927 2.13075638
1.27398992 -3.51388431 2.26645231
1.05974245 -3.48196816 3.78036952
1.01558387 -3.55456161 3.80504990
0.91647178 -3.53735209 3.73858380
0.93767101 -3.58784676 3.78528452
1.12215352 -3.55667400 3.90498328
1.16554284 -3.49617910 3.88318419
1.00441062 -3.46172071 3.63737273
1.17383480 -3.49033833 3.71859717
1.12918079 -3.47277665 3.59970713
0.90243185 -3.49634886 3.64434886
2.49788523 -3.58483505 2.18673992
2.29848719 -3.62042785 2.26083302
2.33318067 -3.56374025 2.02974081
2.18559432 -3.57744288 2.08618069
2.45560408 -3.53671312 1.93776035
2.60285115 -3.53560495 2.07022262
2.70734787 -3.54276252 2.29598236
2.75794673 -3.47891736 2.15647984
2.51008821 -3.62908483 2.39714146
2.39376974 -3.66636181 2.48230743
2.69623947 -3.59384418 2.42017889
1.26230812 -3.60002375 1.45367289
1.15804613 -3.59403944 1.37083173
1.22350359 -3.60498929 1.30055547
1.17753744 -3.62392187 1.20393693
1.28246439 -3.67355633 1.18595803
1.08703017 -3.61866760 1.30495262
1.41478336 -3.71551132 2.00667715
1.30666220 -3.66702437 2.04543829
1.23421204 -3.75380278 1.93087649
1.18644214 -3.72506785 2.00225759
1.42285371 -3.71835351 1.89212859
1.26668870 -3.74092150 1.83152962
1.45529127 -3.73136497 2.13066530
1.36531854 -3.67909718 2.12564564
1.58157384 -3.75238180 2.06516409
1.58763635 -3.73804045 1.94337964
1.58393359 -3.75634527 2.17336345
0.76028091 -3.49570966 3.13526726
0.69165081 -3.55606103 3.10185194
0.75563955 -3.48104239 3.03187871
0.70785654 -3.52284122 3.03468204
0.64573920 -3.53501272 2.90643930
0.74373621 -3.46662283 2.93241477
0.66515833 -3.61978889 3.04144835
0.81239235 -3.64620328 3.98280501
0.85953647 -3.70137858 4.00697660
0.83480406 -3.62697291 4.07186508
0.89076161 -3.69907093 4.07842302
0.83047557 -3.67831492 3.89680862
0.88957518 -3.74011350 3.96601224
0.95619744 -3.75127363 4.05990982
0.18816334 -3.76887441 0.98695153
0.04798267 -3.75260353 1.02722478
0.10809921 -3.66059661 0.88830882
0.00461949 -3.65904522 0.93014657
0.33653164 -3.78920007 1.10459018
0.38355839 -3.78957820 0.97396600
0.27761456 -3.75172997 0.88460606
0.19048403 -3.78843093 1.15663648
0.05366708 -3.78066039 1.11786246
0.30809656 -3.77725744 1.19564509
1.94833553 -3.76659274 4.16877365
2.02430582 -3.76923943 4.13288116
2.05094171 -3.77047777 4.24941158
2.10118866 -3.76199031 4.14578819
2.04353642 -3.77255106 4.37466431
1.94214272 -3.72989202 4.27900696
1.95768356 -3.73359442 4.38063526
1.89538980 -3.74230361 4.19027233
2.17107058 -3.77114272 4.26165390
2.20332575 -3.74145627 4.15395021
2.16743302 -3.77744007 4.37751961
2.51092267 -3.66143131 5.01489019
2.39650440 -3.69510746 5.01362562
2.41564369 -3.62302232 4.81368017
2.31926942 -3.67336059 4.87864733
2.55715418 -3.61785936 4.89334011
2.53250003 -3.54263234 4.75383759
2.45396113 -3.54555273 4.70953608
2.33873463 -3.62079287 4.70928812
2.39608693 -3.54278874 4.61875486
2.57608461 -3.63663340 4.99829340
2.24817514 -3.67433834 4.73992682
1.41844690 -3.45014334 7.37807941
1.38697410 -3.51941228 7.46518421
1.35851300 -3.43318129 7.41450644
1.33092523 -3.46164250 7.47411442
1.32863069 -3.38206077 7.37053061
1.27930927 -3.39521551 7.47038603
1.40216291 -3.37681961 7.30775452
0.51243544 -3.54771686 8.03242588
0.57933158 -3.39864469 7.98773241
0.55986637 -3.45165563 8.12689590
0.60159981 -3.36324739 8.11191559
0.45203206 -3.58148456 8.17878628
0.52858907 -3.47241139 8.21848488
0.59364688 -3.35616803 8.27110577
0.40818650 -3.55539632 7.98312998
0.37928206 -3.45702696 7.89231014
0.47650370 -3.41953087 7.87935019
0.37439293 -3.41869664 7.85373163
0.23512492 -3.52705216 8.01522827
0.35720932 -3.61894131 8.11323261
0.30555424 -3.38717151 7.81710863
1.63222504 -3.55879879 7.71232557
1.69394517 -3.59340072 7.72274256
1.68149424 -3.58084559 7.86987209
1.72871661 -3.58845949 7.85941601
1.63685334 -3.52055955 7.75695324
1.64182067 -3.55765176 7.88327503
1.65084279 -3.58693409 7.55994129
1.60179520 -3.58483505 7.57185793
1.54645991 -3.55322886 7.68257093
1.56330812 -3.54553962 7.78386259
1.53120935 -3.57762527 7.56782961
2.08932447 -3.33890605 9.37654114
2.05168509 -3.37539840 9.22002411
2.18554235 -3.39663672 9.34810543
2.14709425 -3.42078257 9.21287918
2.14624691 -3.52201986 9.09780884
2.03009462 -3.48698759 9.10850048
1.93529797 -3.37505937 9.16793823
1.93059134 -3.47690940 9.09994698
1.95806170 -3.29276609 9.31132603
2.00743532 -3.29345679 9.41788292
1.89661527 -3.30170989 9.23793697
2.38529181 -3.49454927 6.02786255
2.28084731 -3.46612740 6.21447039
2.26985669 -3.51662207 6.01101780
2.18974042 -3.50093770 6.18244982
2.41101503 -3.57733846 5.83683538
2.32027340 -3.57418323 5.83444929
2.50195265 -3.48552752 5.94401741
2.50439095 -3.55381870 5.80184174
2.45568228 -3.43860483 6.14065123
2.54967046 -3.43217731 6.04088688
2.38076806 -3.44676661 6.27409124
1.81369591 -3.42135620 7.43743944
1.74151957 -3.47660947 7.47914696
1.70342350 -3.43106914 7.38184738
1.68026865 -3.48976469 7.42912197
1.93624961 -3.39694953 7.46536636
1.83982337 -3.41983080 7.56540442
1.94903970 -3.39900970 7.57024097
1.94980884 -3.39282990 7.34003592
1.83312201 -3.40800571 7.31396055
1.79446542 -3.46488881 7.56700754
1.73348832 -3.41281652 7.27450848
0.65721846 -3.43668842 7.06308985
0.71097255 -3.47422385 7.11426306
0.62671036 -3.41629767 7.17964649
0.68264180 -3.43285537 7.20720816
0.71110290 -3.49763942 6.97932339
0.68677771 -3.46753430 6.91045284
0.73657852 -3.54012895 7.06010437
0.79703403 -3.52908611 7.14908600
0.78017640 -3.47790051 7.18174553
0.75818187 -3.43162990 7.25036287
0.73569191 -3.54269743 6.98718500
1.83957553 -3.26129317 9.30182171
1.77389085 -3.29339170 9.26327133
1.79619944 -3.33056211 9.19227982
1.72815597 -3.34602451 9.21976376
1.85047507 -3.39193010 9.15065002
1.78553462 -3.40636277 9.15500450
1.34475815 -3.49711800 6.31124830
1.47001076 -3.53513551 6.22926807
1.41789937 -3.45032573 6.38322926
1.53353012 -3.48541021 6.27688122
1.50968421 -3.42259479 6.44347620
1.60402465 -3.44641447 6.31384325
1.28597152 -3.45453691 6.42394590
1.23648059 -3.50324535 6.34561586
1.38546169 -3.40488958 6.53587389
1.46908510 -3.40491557 6.55112791
1.30837011 -3.41787529 6.52261448
1.42461371 -2.72257805 9.72325039
1.24902272 -2.82444096 9.71626186
1.38003802 -2.92244482 9.78884315
1.26370323 -2.93591285 9.74176407
1.20210040 -2.65165329 9.71742249
1.33105552 -2.57272339 9.69669247
1.54631996 -2.80358076 9.78803444
1.50934529 -2.91278386 9.84173679
1.63363314 -2.65849781 9.76850319
1.53912330 -2.57106757 9.73239040
1.46011519 -2.43267298 9.71892166
1.31357205 -3.69959235 2.53981233
1.29758799 -3.60264444 2.60208011
1.27842259 -3.65435171 2.50833941
1.26370323 -3.57839441 2.53262854
1.28700149 -3.67450786 2.44236898
1.26219082 -3.58579969 2.45990443
1.32979095 -3.74229050 2.45747972
2.46044087 -3.46701407 4.55365753
2.54063559 -3.43687081 4.55646086
2.47712922 -3.48370218 4.64318752
2.53667188 -3.47118592 4.64758110
2.61451983 -3.44067812 4.48128605
2.65955186 -3.47705293 4.40410328
2.66588807 -3.47863054 4.50377560
2.69919920 -3.51531839 4.46352863
2.60511947 -3.45306373 4.56578302
2.66892576 -3.48780918 4.56136322
2.72505283 -3.54274964 4.53633070
1.02051222 -3.62306142 3.84035587
1.08392727 -3.63354373 3.90156746
1.02150297 -3.70711493 3.89729095
0.97022599 -3.65081859 3.82650971
1.44845951 -3.52935982 4.31213570
1.36441898 -3.54715633 4.28797674
1.42071545 -3.53139377 4.12136889
1.30435455 -3.54975080 4.13165569
1.31460214 -3.52057242 3.95508695
1.23900998 -3.52671313 3.99631190
1.56851983 -3.56786895 4.09300995
1.42086327 -3.56041956 3.87306356
1.52467763 -3.53947711 4.18182468
1.54770207 -3.52720857 4.33282661
0.61482000 -3.59076715 3.73851871
0.73148078 -3.54596972 3.77033067
0.60869235 -3.56999826 3.87349749
0.70004702 -3.54466629 3.91753840
0.71755654 -3.54924226 3.62348771
0.62066084 -3.59483504 3.58402276
0.81011558 -3.52034593 3.63388276
0.82806355 -3.54912496 3.75155640
0.79756856 -3.60167980 3.86868644
0.85966682 -3.60939813 3.80860925
0.76760805 -3.58295774 3.95277929
0.54083145 -3.49245024 2.62734723
0.56109190 -3.52852559 2.76489401
0.44259283 -3.49367595 2.66777658
0.46685588 -3.54430127 2.76173902
0.65950000 -3.46079493 2.67486930
0.68648791 -3.45415878 2.76153040
0.60931814 -3.53671312 2.83030391
0.63734239 -3.47487855 2.55924225
0.54114431 -3.66830206 2.85952139
0.47579968 -3.66432548 2.83104706
0.58985293 -3.66848469 2.91679549
1.29920459 -3.53350592 2.69529915
1.21332574 -3.51396251 2.61606956
1.22483802 -3.50276303 2.69845414
1.38634825 -3.56457448 2.69179201
1.37912536 -3.63051891 2.62779021
1.38431442 -3.71871853 2.56646132
1.21635044 -3.50941229 2.54184604
0.44123691 -3.55138040 2.18357182
0.46623006 -3.51410604 2.28497863
0.28204736 -3.56801653 2.30346608
0.31642762 -3.50685692 2.35046673
0.61513293 -3.49451041 2.15116024
0.60000926 -3.48945189 2.23972511
0.51611209 -3.56182361 2.06444693
0.66367209 -3.52802992 2.05215263
0.35923019 -3.66754580 2.17401552
0.25723675 -3.66711569 2.28818607
0.43191499 -3.69084406 2.06456447
0.09996372 -3.63892817 1.37253964
0.06182864 -3.57685590 1.47912228
-0.00431129 -3.64410424 1.34709013
0.15910244 -3.75073886 1.26499224
0.25941405 -3.69235635 1.34904587
0.19580339 -3.63205743 1.45218658
0.12988509 -3.60450888 1.55198967
0.01567540 -3.73922682 1.27045488
1.10284483 -3.63037562 1.08137000
1.00495613 -3.62961388 1.25377440
0.96708393 -3.61954117 1.08040535
0.89532477 -3.62559080 1.20496690
1.00029075 -3.62208366 0.91690034
1.12693834 -3.65594220 0.92832130
1.25846207 -3.69225216 1.06173539
1.24960947 -3.70655441 0.91619629
2.02305436 -3.56590438 2.13363791
2.10556960 -3.53859067 1.89633965
1.96018684 -3.53739095 1.93610454
1.85176575 -3.62089729 2.08612847
1.84945810 -3.57840753 1.92396653
2.13086247 -3.61359620 2.29938531
1.91232562 -3.57765126 2.27859020
1.82814157 -3.63896728 2.21835637
2.02057719 -3.60553885 2.36312628
2.61587548 -3.56251478 4.20334959
2.63587546 -3.59504342 4.09327269
2.76175380 -3.60354400 4.15460205
2.73892474 -3.60207081 4.08054781
2.72116756 -3.57758617 4.25419664
2.79456949 -3.60941100 4.22431374
2.54626775 -3.51787376 4.28868103
2.65596652 -3.51930809 4.30084515
2.45769000 -3.58079338 4.22187614
2.42007637 -3.56508303 4.33635950
2.48735070 -3.60810733 4.11760092
1.76029372 -3.63126206 4.17806959
1.81145334 -3.65101409 4.22095013
1.74446607 -3.58291864 4.25553942
1.82413912 -3.63536906 4.27656889
1.85459495 -3.70925331 4.19711733
1.78626478 -3.68097472 4.13010406
1.88797140 -3.68896675 4.28813362
0.45135412 -3.75687957 2.91957259
0.37805653 -3.72054386 2.91244102
0.39033797 -3.64548635 2.85321093
0.31309000 -3.62852430 2.92605233
0.32926968 -3.71660662 2.97925901
0.37041646 -3.76994348 3.04438210
1.39414465 -3.76659274 2.48600602
1.46480882 -3.71336007 2.55567908
1.45207095 -3.76329422 2.50236821
1.49508214 -3.77429795 2.44894004
1.54437745 -3.71832728 2.51672268
1.41707802 -3.78049088 2.39963150
1.93737090 -3.75803995 4.05374289
2.05759096 -3.74457216 4.03400373
1.98169887 -3.73702335 3.99736810
1.88043559 -3.71238232 3.95416141
1.95724022 -3.71360779 3.93070650
2.03573990 -3.71363401 3.90847731
1.98832202 -3.54211092 8.60398197
1.95347238 -3.57771659 8.49037170
2.13317013 -3.58126259 8.51571751
2.06305361 -3.60158849 8.40781784
2.10414839 -3.54684329 8.70228672
1.98220730 -3.52714348 8.73338032
2.25249076 -3.58458757 8.34774017
2.16341734 -3.60277486 8.27729893
2.34060097 -3.55471802 8.55998707
2.34241128 -3.56877255 8.39242077
2.22017050 -3.54958129 8.68877983
1.58124793 -3.54237151 7.89854193
0.82810271 -3.43019581 9.46693039
0.86128348 -3.33058810 9.38208103
0.90023994 -3.38694978 9.51022816
0.93962663 -3.31541252 9.48200226
0.90815377 -3.41962218 9.61563778
0.80842888 -3.47636199 9.56097126
0.99478889 -3.32691145 9.56296539
0.22782384 -3.61645150 6.99569845
0.20801105 -3.56544375 6.93361616
0.27887920 -3.63130116 6.93927145
0.25860569 -3.59813333 6.89859390
0.31735328 -3.63217473 6.86272764
0.27700180 -3.58590412 6.85030270
0.24311697 -3.53080726 6.85094166
0.92270380 -3.58241010 7.07685804
0.93180406 -3.62079287 7.03708029
0.99620998 -3.55653048 7.03388596
1.01055729 -3.60758495 6.95440722
0.93644941 -3.64383364 6.94987917
0.80042380 -3.55474424 6.68545485
0.80247009 -3.54823685 6.76267099
0.72120714 -3.50285435 6.74750090
0.89346039 -3.60568213 6.68396854
0.88141358 -3.59922862 6.74471140
0.82260084 -3.58557820 6.61314821
0.91321236 -3.62067556 6.61536503
0.70296746 -3.55879879 6.66210461
0.74827325 -3.59010220 6.59483051
0.66453600 -3.53060746 6.73481369
1.48879802 -3.60714245 6.08893061
1.39452279 -3.56238413 6.16582680
1.38683057 -3.58758593 6.01757574
1.33498001 -3.55067635 6.15181160
1.20279133 -3.56741691 6.12655735
1.28290761 -3.53208494 6.24787235
1.25734091 -3.56646514 6.02116108
1.16067970 -3.58785987 6.53132439
1.20902097 -3.50500059 6.53041029
1.14903533 -3.60204053 6.62468052
1.20949268 -3.48928213 6.63114023
1.18122709 -3.54903364 6.45823526
1.69341075 -3.56706476 7.55433559
1.74960291 -3.54767799 7.61700678
1.73816884 -3.57888985 7.70963955
1.77256215 -3.54553962 7.70008278
1.75870323 -3.50870824 7.55904198
1.80055392 -3.50495338 7.68748856
1.70281076 -3.52046824 7.48498774
2.47362208 -3.47117281 7.61003208
2.47006249 -3.49391055 7.53223610
2.47579932 -3.46591878 7.46265459
1.65531468 -3.42603660 9.18269730
2.54368711 -3.39562106 8.05891800
2.49223971 -3.41538501 8.20145798
2.43624306 -3.40683222 8.03898335
2.38969851 -3.45057344 8.14256763
2.60873103 -3.39110875 8.18441772
2.60002184 -3.39355993 8.29534245
2.51784563 -3.36988354 8.30650234
2.42724705 -3.51915145 8.27861500
2.49682903 -3.48598385 8.33409023
2.33833051 -3.55016804 8.22423553
2.82389116 -3.40121317 5.95316982
2.85013580 -3.41121268 6.05507231
2.71522260 -3.41049576 6.01229572
2.76110196 -3.41880083 6.07760096
2.82806325 -3.40874863 6.16636133
2.72290158 -3.42575002 6.15175962
2.62620139 -3.42691016 6.10660982
0.79372251 -3.56569576 6.87772083
0.72897732 -3.50735807 6.91062164
0.78307569 -3.53509450 6.82271433
0.72558779 -3.49082065 6.83546591
1.42655623 -3.34402990 7.19080687
1.33234632 -3.34906244 7.24813318
1.31212497 -3.34052277 7.10732698
1.22812927 -3.33727407 7.24770832
1.44609976 -3.34499478 7.05144739
1.35620522 -3.34805846 7.00724983
1.54728484 -3.35537267 7.08899593
1.54969680 -3.36734128 7.20611286
1.47500420 -3.38572431 7.30324316
1.55509436 -3.41391158 7.31135273
1.11099339 -3.61032367 6.27220058
1.18391287 -3.55972457 6.30326939
1.08375764 -3.62585163 6.15843439
1.14118850 -3.60548663 6.04876184
1.02036881 -3.63995838 6.25560379
0.99740946 -3.42847466 7.11470604
1.08238876 -3.41095209 7.02615452
1.08459210 -3.37144828 7.15084600
1.14189255 -3.36479902 7.04968739
0.94681042 -3.41715813 7.22662115
0.88678515 -3.48881292 7.15745640
0.86553377 -3.45048213 7.21286631
1.00675321 -3.37206221 7.30520630
1.05520523 -3.47766566 6.99992228
0.98291159 -3.50037718 7.07151270
0.90546805 -3.53907299 7.11726141
0.69150734 -3.31998849 8.14522743
0.70437551 -3.32153988 7.98034000
0.63384193 -3.35535955 7.81469679
0.52562952 -3.36893177 7.77360201
0.72463602 -3.34015775 7.85812521
0.16511279 -3.39275146 7.92907572
0.22090085 -3.35957074 7.76628780
0.10075902 -3.42704058 8.09942532
0.19200945 -3.55950308 8.16954231
0.80601692 -3.33186579 8.94938755
0.91591120 -3.33829331 8.98011780
0.81614721 -3.31899786 9.15716934
0.94244277 -3.34890604 9.11050701
0.66502798 -3.34957099 9.05363750
0.68590122 -3.36904931 8.92811012
0.63861370 -3.36431646 9.20345211
0.75608283 -3.34057498 9.26746750
0.93662798 -3.31294823 9.29663277
1.02401924 -3.33246541 9.24634647
2.78925014 -2.71976185 9.53081512
2.77751613 -2.61814642 9.42451859
2.70077682 -2.69754553 9.48000717
2.68330622 -2.64441729 9.43933010
2.67094660 -2.77428508 9.48383999
2.58518505 -2.66813278 9.45388031
2.75909424 -2.83175492 9.54252243
0.45396164 -1.72543335 9.93749809
0.30710569 -1.69474268 9.94035244
0.38501862 -1.79952621 9.90268803
0.29889199 -1.79051721 9.89974117
0.42410544 -1.85935605 9.85667706
0.30844855 -1.88674796 9.84821606
0.52197903 -1.82043874 9.86430454
0.85168779 -1.62954164 9.77089024
0.70296746 -1.82797432 9.78056431
0.83842850 -1.92030692 9.77692699
0.74653924 -1.97063220 9.77360153
0.65493679 -1.68512106 9.86502171
0.71603119 -1.55404055 9.83811188
0.95713621 -1.84706151 9.77907753
1.00684869 -1.62299669 9.74500942
3.99729156 -2.34519053 -9.00734901
4.09877634 -2.33620763 -8.97622776
4.08364820 -2.45806575 -8.91949749
4.23048449 -2.45827293 -8.78936195
4.10949326 -2.26203632 -8.98594093
4.19269943 -2.31938910 -8.88529110
3.97946906 -2.23525715 -8.97513294
3.32199407 -2.24298835 -9.36018658
3.42755985 -2.22717381 -9.31382465
3.42426729 -2.30963373 -9.28065491
3.42921543 -2.41096544 -9.19210529
3.49085760 -2.33023643 -9.21201420
3.51675010 -2.22285819 -9.24048805
3.78247046 -0.93105018 -9.04629230
3.56197786 -0.94115430 -9.12210655
3.75831151 -0.85182041 -9.02474117
3.56960487 -0.83810484 -9.11586094
3.35188937 -0.91151977 -9.22112751
3.36832976 -0.82136458 -9.20210457
3.51523805 -1.05439913 -9.13236713
3.32155061 -1.00798523 -9.23253536
3.70573092 -1.16555810 -9.15737343
3.59706211 -1.13712311 -9.17446518
3.67514443 -1.06665456 -9.14483166
3.60274649 -1.06110072 -9.13919830
4.06152773 -2.61552596 -8.85523796
4.27432823 -2.68505573 -8.74478340
4.10061455 -2.75333357 -8.83679104
4.24508476 -2.79252481 -8.77084637
4.18031359 -2.53885150 -8.79018116
4.47829247 -2.63617301 -8.67018127
3.90699267 -2.62291837 -8.96792316
3.87810135 -2.51709199 -9.03004742
3.91611910 -2.72772789 -8.93942356
5.15667629 -2.56230617 -8.21999264
5.05798149 -2.63989329 -8.26656342
5.02072001 -2.43575001 -8.34083939
4.95560980 -2.56447053 -8.36342049
5.08177519 -2.32611632 -8.37913036
5.22178650 -2.38854074 -8.21009731
5.23932171 -2.30107093 -8.30094337
5.24749660 -2.48807001 -8.18351364
4.88814020 -2.29902411 -8.49528313
4.84495926 -2.40224314 -8.48052406
4.78540373 -2.49177241 -8.50507355
4.35763836 -3.74067402 -3.84690881
4.32187653 -3.69605923 -3.93641233
4.43380451 -3.66402555 -3.91306186
4.38619137 -3.67439055 -3.95815897
4.44544697 -3.60529113 -3.97418237
4.38758612 -3.64401293 -3.99358225
4.32636166 -3.66204405 -4.00669813
5.04781771 -3.39277315 -5.23912907
4.85111332 -3.40301228 -5.22849417
4.89806175 -3.42010450 -5.38525867
4.78228760 -3.42292047 -5.33468533
5.10861969 -3.39533305 -5.35606718
4.99593544 -3.42328548 -5.45421457
5.24685764 -3.40606308 -5.16167593
5.28121185 -3.40898347 -5.27003193
5.07855511 -3.37692404 -5.09174204
5.25058651 -3.40887928 -5.02510738
3.74842906 -3.42091274 -5.05361986
3.86051369 -3.45722270 -5.04186010
3.77287459 -3.43417215 -4.90079308
3.87506366 -3.43400264 -4.93513441
3.61708784 -3.40667582 -4.97831488
3.68783021 -3.38714552 -5.15171576
3.56021762 -3.36770630 -5.08502817
3.79359150 -3.53653073 -5.16432285
3.76403499 -3.48762655 -5.23526049
3.65728283 -3.43544984 -4.86276245
3.84887099 -3.56669974 -5.11553621
4.63368464 -3.11727929 -8.68131638
4.72870255 -3.07917047 -8.59130478
4.70089340 -3.16605306 -8.65829182
4.74013662 -3.16636610 -8.62743187
4.76583433 -3.25018501 -8.63734055
4.77266550 -3.17873859 -8.60624599
4.81815386 -3.12079954 -8.58954525
3.41663432 -2.68823671 -9.14764690
3.53439021 -2.59165406 -9.14351463
3.65514469 -2.73333383 -9.09480476
3.66432333 -2.64283967 -9.14621258
3.36617851 -2.49172044 -9.18166161
3.28048229 -2.55115914 -9.19287491
3.49960589 -2.86494899 -9.13365746
3.35705233 -2.90923786 -9.20765877
3.29241157 -2.74999595 -9.19722843
3.17118764 -2.59482217 -9.24765873
3.64007306 -2.83743930 -9.07356739
3.52754521 -3.54070258 -6.39047384
3.58415484 -3.63780689 -6.36313343
3.50402546 -3.57770348 -6.32975721
3.53393388 -3.64741564 -6.29555988
3.43887639 -3.55626965 -6.31898832
3.47765017 -3.65040135 -6.25467348
3.45276165 -3.48520160 -6.38637972
3.84803653 -3.56765151 -4.64962292
3.71258855 -3.49833035 -4.60092735
3.79617286 -3.47784829 -4.76913881
3.68364501 -3.46203351 -4.73015642
3.97845197 -3.63208365 -4.57662535
3.82069659 -3.61224008 -4.48557043
3.95139909 -3.66208291 -4.46340656
3.72194958 -3.53917718 -4.47669172
3.95349813 -3.54741693 -4.74219036
3.89817929 -3.48491454 -4.83169365
4.03983307 -3.57135415 -4.67693710
5.21590281 -3.63818979 -1.25320327
5.23803139 -3.67029691 -1.16079056
5.19365072 -3.62006259 -1.18202889
5.18929672 -3.62503028 -1.31930220
5.15904903 -3.56174541 -1.23298001
5.24310303 -3.66595531 -1.34868896
4.88098288 -3.58922863 -0.11729719
5.01086330 -3.49190283 0.00240136
4.82338190 -3.52955556 -0.04727203
4.94018650 -3.48327184 0.06275258
4.98248053 -3.55441809 -0.13980015
5.08852863 -3.50041628 -0.05733709
4.72768593 -3.67076612 -0.15497597
4.69132423 -3.59652972 -0.11063495
4.86983538 -3.71721935 -0.18819585
4.77850628 -3.73449421 -0.24032032
4.95305490 -3.67049241 -0.19011240
5.07575178 -3.52992058 0.56089461
5.16002703 -3.55765176 0.46517229
5.20032644 -3.50672674 0.65977204
5.28105545 -3.54560471 0.54822206
5.03875113 -3.46127748 0.74443847
4.96081161 -3.49632263 0.63427043
5.37908220 -3.50259185 0.68552500
5.42461252 -3.53995967 0.58946007
5.22885418 -3.42980528 0.81202924
5.21355963 -3.37938809 -4.76415873
5.36409187 -3.45488906 -4.55262327
5.20923138 -3.38543749 -4.66825390
5.32900763 -3.42106938 -4.50953341
5.31968594 -3.47221613 -4.73393726
5.41093683 -3.49919081 -4.58366537
5.12569904 -3.37056136 -4.94680309
5.27351999 -3.43135595 -4.88604784
4.99978113 -3.36136985 -4.86364889
5.02172375 -3.35628533 -4.77066422
4.69363165 -3.41013074 0.43741515
4.61227703 -3.43629718 0.29559174
4.81078768 -3.44290733 0.35372657
