6.65790462 -4.54843950 -2.01314664
6.79424715 -4.56388950 -2.07757616
6.48716831 -4.54513979 -2.10000658
5.22476244 -4.49261713 -2.04063129
5.91533041 -4.53571939 -2.06618905
1.07216585 -4.39031363 -2.96417642
0.66099781 -4.38979197 -3.11024070
0.24849053 -4.38663244 -3.25529313
-0.17450595 -4.38380337 -3.38397551
-0.61639941 -4.38246536 -3.52018166
3.41561389 -4.43807602 -2.44573712
2.99912596 -4.42683506 -2.57130480
2.58499193 -4.41752863 -2.69793177
2.17617202 -4.40909958 -2.81902623
1.76554632 -4.40178633 -2.95058656
-1.42253160 -4.37526131 -3.77139330
-1.83324265 -4.37176704 -3.91449308
-2.36513925 -4.36758518 -3.99900866
-2.86367965 -4.36919212 -4.14143562
-4.95783663 -4.43003416 -4.54749584
-5.72887516 -4.45116425 -4.86254072
-5.99431562 -4.45602417 -4.81184149
-6.30404043 -4.44105482 -4.71149826
-6.20457077 -4.44699574 -4.81553078
-6.51440573 -4.42794180 -4.70702696
-5.10588217 -4.43757534 -4.72069979
-3.75248480 -4.39952898 -4.42808914
-3.32229543 -4.38328505 -4.30676699
7.72935438 -4.58053350 -2.12448120
7.25545597 -4.59123755 -2.11103106
7.46588278 -4.57481194 -2.19402218
6.99627209 -4.57072401 -2.16823244
6.61193466 -4.55995893 -2.16041493
6.74042845 -4.56870699 -2.22105908
6.41897249 -4.55534172 -2.23683476
6.18497944 -4.54932117 -2.20562935
5.49760580 -4.51769352 -2.18866014
4.87448788 -4.47465038 -2.19541240
-1.04613554 -4.37985229 -3.69400907
1.35382032 -4.39527035 -3.09398961
4.52376175 -4.46432447 -2.35145068
4.10524845 -4.45381880 -2.47142076
3.68725276 -4.44674730 -2.59371805
-4.32201862 -4.41756010 -4.76528406
-5.88813162 -4.45388317 -4.92276955
-6.10094070 -4.45275974 -4.92581558
-6.31322050 -4.43519258 -4.92254114
-6.41705513 -4.42944336 -4.81681585
-5.25347042 -4.44172573 -4.89902544
-4.99251032 -4.43613958 -4.81130981
-3.87747478 -4.40981913 -4.63309860
-3.40734100 -4.39074564 -4.44733286
7.68252325 -4.56950617 -2.27430749
7.20281410 -4.57806873 -2.25680852
7.41638660 -4.57734060 -2.34125948
6.94158649 -4.57441330 -2.31214070
6.54896212 -4.56644535 -2.29993677
6.68027258 -4.57488823 -2.36218548
6.34970140 -4.56805086 -2.37352872
5.07929182 -4.48807716 -2.30743790
5.77026272 -4.54504108 -2.33454823
0.94350439 -4.39433432 -3.24246144
0.53404754 -4.39214516 -3.39345455
0.12319876 -4.38895321 -3.54730678
-0.31880045 -4.38709354 -3.73734951
-1.14413869 -4.38099480 -3.90042567
3.26977062 -4.43985224 -2.71967125
2.85344028 -4.42972565 -2.84990716
2.44842529 -4.41956329 -2.96404314
2.04559898 -4.41088152 -3.08031249
1.63559020 -4.40355158 -3.22151113
-1.55341601 -4.37813520 -4.04832363
-1.96696436 -4.37729883 -4.19171572
-2.54806495 -4.37279081 -4.29503727
-4.81066227 -4.43137932 -4.94404030
-5.56773233 -4.45245028 -5.02837467
-5.78147840 -4.45139694 -5.03430748
-5.99618769 -4.45280743 -5.03843689
-6.20728874 -4.44160318 -5.03297424
-5.35554838 -4.44884300 -5.01920938
-5.14199066 -4.44024181 -5.00111866
-3.49238968 -4.39929914 -4.58801413
-3.05114913 -4.37995100 -4.44418621
7.63533306 -4.57075691 -2.42434216
7.15021753 -4.56814051 -2.40190744
7.36525011 -4.57198620 -2.48854589
6.88475800 -4.57145405 -2.45504212
6.48327208 -4.57144880 -2.43883324
6.61818552 -4.57505941 -2.50287938
6.28089619 -4.56774187 -2.51159453
6.04230928 -4.56450415 -2.47662663
5.35197449 -4.51167583 -2.45558286
4.72852087 -4.46673870 -2.46315217
-0.76756513 -4.38418293 -3.81803346
1.22629106 -4.39995098 -3.37121081
4.37752390 -4.46169662 -2.61993384
3.95929003 -4.45319939 -2.74124455
3.54153943 -4.44728136 -2.86658359
-4.06714296 -4.42012167 -4.93564701
-5.45930386 -4.45474529 -5.13858414
-5.67439604 -4.45409060 -5.14544868
-5.89092207 -4.45258904 -5.15099859
-6.10652924 -4.44694901 -5.15149260
-5.24547052 -4.44660759 -5.12704611
-5.02754545 -4.43606758 -5.10276270
-3.61798096 -4.41087246 -4.79653788
-3.13808918 -4.38844681 -4.58730221
7.58557892 -4.56884432 -2.57341909
7.09585905 -4.56402063 -2.54600620
7.31287956 -4.56344175 -2.63481140
6.82503939 -4.57091141 -2.59727764
6.41667032 -4.57240200 -2.57843232
6.55349827 -4.57581472 -2.64347363
6.21129656 -4.56336880 -2.64974117
4.93328810 -4.47789717 -2.57441735
5.62511349 -4.53176594 -2.60266709
0.81813604 -4.39807463 -3.52492976
0.41094682 -4.39508629 -3.68324780
0.01021901 -4.39236021 -3.85943031
-0.86471480 -4.38601828 -4.02432394
-1.27284908 -4.38416100 -4.17782974
3.12351799 -4.44342184 -2.99836946
2.66473484 -4.43116951 -3.22072577
2.32790780 -4.42073727 -3.20536590
1.91729867 -4.41292477 -3.34801197
1.50876784 -4.40734053 -3.49767494
-1.68264437 -4.38386345 -4.32626247
-2.06455231 -4.38220978 -4.39959574
-4.55796146 -4.42843819 -5.11503553
-5.34901524 -4.45045853 -5.24847507
-5.56535673 -4.45458889 -5.25608253
-5.78321362 -4.45911074 -5.26140833
-6.00598907 -4.44793892 -5.26868057
-5.13528299 -4.44018745 -5.23665094
-3.23497367 -4.39928770 -4.75032234
-2.74466228 -4.37771130 -4.57807779
7.53747511 -4.57784605 -2.72266865
7.03842115 -4.55764914 -2.69011903
7.25888109 -4.55956745 -2.78084183
6.76256609 -4.57196617 -2.73921537
6.48635197 -4.57458115 -2.78431153
6.34810781 -4.56905842 -2.71767950
5.89942932 -4.53432703 -2.74781632
6.14030886 -4.56009150 -2.78782034
5.20597363 -4.49533749 -2.72294617
4.58191156 -4.46509266 -2.73106217
-0.38505512 -4.38984632 -3.97226071
1.10181332 -4.40451860 -3.65215611
-2.34858680 -4.38262844 -4.51712751
-2.15580297 -4.38821888 -4.60938215
4.23128462 -4.46398926 -2.88883781
3.81375599 -4.45459604 -3.01266646
3.39623213 -4.44833899 -3.14227819
-3.80469894 -4.42372847 -5.10523081
-5.23823166 -4.44120836 -5.35902786
-5.45405960 -4.45358753 -5.36543846
-5.67249918 -4.46007442 -5.37086916
-5.89443016 -4.44801378 -5.37661362
-4.91788626 -4.43927860 -5.21296072
-5.02740955 -4.44251776 -5.35182667
-3.35972071 -4.41201305 -4.96268320
-2.85357618 -4.39036512 -4.76487780
7.48079634 -4.58219290 -2.86990404
7.20016861 -4.56137991 -2.92473054
6.97765350 -4.56172276 -2.83289838
6.69780064 -4.57380581 -2.88142180
6.27852392 -4.56513357 -2.85717869
6.41704464 -4.57377195 -2.92618251
6.06853199 -4.55205345 -2.92523313
4.78642416 -4.47147465 -2.84235525
5.47943592 -4.50633049 -2.87146044
0.69582260 -4.40169907 -3.81128454
0.29372126 -4.39896536 -3.98073578
-0.07540208 -4.39540863 -4.08696842
-0.47973880 -4.39293385 -4.18285656
-0.99156457 -4.39004469 -4.30228424
-1.39979625 -4.38975096 -4.45691872
2.94043136 -4.44227886 -3.35680270
2.19988251 -4.42190790 -3.47208405
1.79095852 -4.41545868 -3.62296963
1.38457191 -4.41149187 -3.77730584
-1.77886522 -4.38899708 -4.53482866
-4.85575819 -4.43802404 -5.13148022
-4.74815035 -4.44162560 -5.24605513
-4.30313253 -4.43481779 -5.29303169
-5.12483931 -4.44279671 -5.46906805
-5.34183216 -4.44918823 -5.47373581
-5.56057549 -4.45596409 -5.48029661
-5.78143835 -4.45571899 -5.48519945
-4.82803917 -4.44463015 -5.35229540
-4.91620684 -4.44708347 -5.46439171
-2.95714188 -4.40238714 -4.94685650
7.42119551 -4.58086061 -3.01624513
7.13701677 -4.56591702 -3.06693220
6.91402960 -4.56405640 -2.97582698
6.62941313 -4.57106781 -3.02531695
6.34491873 -4.57337809 -3.06878304
6.20663452 -4.56468105 -2.99694586
5.99497890 -4.54679012 -3.06270671
5.75290442 -4.52118683 -3.01985979
5.05912066 -4.47885418 -2.99132109
4.43533230 -4.46978235 -2.99971628
-0.16407815 -4.39932585 -4.30653286
0.97982299 -4.40855885 -3.93577886
-1.87320709 -4.39523745 -4.74316454
-2.45333385 -4.38911963 -4.71796703
-2.25254965 -4.39548588 -4.81523275
4.08567190 -4.46842813 -3.15879965
3.66897869 -4.45583630 -3.28548646
3.21604419 -4.44860363 -3.49219370
-4.62402582 -4.44171047 -5.33834028
-3.53836036 -4.42879057 -5.27344322
-5.00900650 -4.44978666 -5.57809830
-5.22874546 -4.45210886 -5.58237267
-5.44940186 -4.45497799 -5.58937216
-5.66929579 -4.45196247 -5.59415913
-4.71150064 -4.44919729 -5.45437288
-4.80181742 -4.45007133 -5.57035494
-3.06873536 -4.41377640 -5.14490938
7.36026573 -4.57451487 -3.15985608
7.07242775 -4.56824064 -3.20733571
6.84784365 -4.56829786 -3.11907816
6.55631304 -4.56721449 -3.17214346
6.27071810 -4.56235695 -3.21015906
6.13273764 -4.56169701 -3.13648987
5.92045832 -4.54092646 -3.19981241
4.63936472 -4.47611475 -3.11054921
5.33144569 -4.49515295 -3.14044213
0.57746065 -4.40592670 -4.10107279
0.20647837 -4.40221214 -4.20178747
-0.60251147 -4.39855671 -4.46519709
-1.11570430 -4.39593792 -4.58260870
-1.49319339 -4.39496469 -4.66640186
2.48348045 -4.43065119 -3.59297991
2.07286477 -4.42323828 -3.74743843
1.66724527 -4.41862106 -3.90144086
1.26337755 -4.41542053 -4.05926609
-2.55787683 -4.39820671 -4.91695118
-2.35617566 -4.40376997 -5.01637793
-4.43739223 -4.44479132 -5.47921801
-4.03172874 -4.44134092 -5.47293472
-4.89476824 -4.45101070 -5.68709850
-5.10807514 -4.45768118 -5.68780041
-5.33895063 -4.45826006 -5.69796324
-5.56119823 -4.45915461 -5.70652342
-4.59257507 -4.44976759 -5.55262423
-4.68737173 -4.44905996 -5.67176342
7.29895592 -4.57271385 -3.29987931
7.00910568 -4.56858683 -3.34071970
6.77813339 -4.56948709 -3.26308107
6.48001289 -4.55643845 -3.32098198
6.19518328 -4.54426908 -3.34978819
6.05768967 -4.55702209 -3.27519441
5.60363007 -4.51212358 -3.29041672
5.84557247 -4.53200579 -3.33619475
4.91134405 -4.47860813 -3.25930524
4.28953362 -4.47631311 -3.26880908
0.12017015 -4.40623331 -4.42061949
-0.28143194 -4.40595055 -4.59499741
-1.58542717 -4.40086269 -4.87607956
2.76485729 -4.43928099 -3.71420169
0.86216998 -4.41294527 -4.22228193
-1.96662116 -4.40229893 -4.95094633
3.94096017 -4.46606255 -3.42961383
3.49010420 -4.45503759 -3.62980151
-3.23402309 -4.42982388 -5.45074987
-4.99226618 -4.45496225 -5.80162048
-4.78605032 -4.45232630 -5.79256964
-5.22153568 -4.46483755 -5.79693222
-5.45535088 -4.46028805 -5.81951141
-4.57277012 -4.45620584 -5.76687431
-4.47287035 -4.45268011 -5.64585018
-2.66371202 -4.40770960 -5.11521292
7.23698425 -4.57672882 -3.43638921
6.95344925 -4.57038736 -3.45672250
6.69110012 -4.56393385 -3.43382192
6.40287781 -4.55293226 -3.46588159
5.98233509 -4.54355240 -3.41232681
6.12003374 -4.54256725 -3.48891163
5.77070570 -4.52427244 -3.47207069
4.49329138 -4.48970652 -3.37885118
5.18201447 -4.49462938 -3.40894175
0.49086672 -4.40944576 -4.31911087
-0.72319025 -4.40517759 -4.74805689
-1.20739472 -4.40089035 -4.79347849
2.35438943 -4.43086910 -3.87111044
1.94938684 -4.42581415 -4.02516127
1.54679656 -4.42224693 -4.18181562
1.14677405 -4.41988850 -4.34297228
-2.05874348 -4.41047859 -5.15947580
-2.46282434 -4.41289139 -5.21666431
3.04166007 -4.44759560 -3.84296322
-4.15983438 -4.45096111 -5.66975880
-3.75113463 -4.44675016 -5.64417171
-4.89402103 -4.45785236 -5.91412926
-5.10323429 -4.45273495 -5.89206600
-4.67561197 -4.45865440 -5.88926172
-5.34320402 -4.45855951 -5.92329597
-4.45989370 -4.45916986 -5.85345936
-4.35422516 -4.45471859 -5.73238087
-2.77161360 -4.41707993 -5.31293344
7.16720581 -4.58482456 -3.57686949
6.60942459 -4.55918884 -3.58784246
6.32619905 -4.55252647 -3.60846090
5.90733957 -4.53277874 -3.54909158
6.04407072 -4.53723669 -3.62694073
5.69447756 -4.52464867 -3.60697389
5.45236969 -4.51215601 -3.55942488
4.76371622 -4.48686552 -3.52682614
4.14482832 -4.47116613 -3.53816247
0.40704870 -4.41343212 -4.53742218
0.00750346 -4.41267157 -4.71117878
-0.39920628 -4.41325331 -4.88027906
-1.29716980 -4.40586567 -5.00483847
-1.67455578 -4.40760708 -5.08647871
2.63367367 -4.43970203 -3.99484921
0.77656484 -4.41656256 -4.43792915
-2.57127666 -4.42200851 -5.41541195
3.76283145 -4.45632076 -3.77074003
-4.78166866 -4.46316290 -6.00973272
-5.00860548 -4.46307516 -6.02723408
-5.23156166 -4.45300913 -6.02332973
-4.56168890 -4.46108818 -5.97985840
-4.34806538 -4.45609426 -5.93127966
-4.25083113 -4.45809221 -5.79959869
6.88717175 -4.56778288 -3.58266616
7.10853386 -4.58007002 -3.71617007
6.53179598 -4.56248665 -3.72963572
6.81415224 -4.56693411 -3.71762228
6.24939489 -4.54661894 -3.74697280
5.83133364 -4.52948904 -3.68504834
5.96809340 -4.53195810 -3.76363659
5.61801386 -4.52360868 -3.74183631
4.34768200 -4.48404121 -3.64770222
5.03236580 -4.48938560 -3.67621160
-0.81294048 -4.41026735 -4.96036386
-1.75650072 -4.41573572 -5.30082560
2.23054266 -4.43339920 -4.14901352
1.82933879 -4.42963886 -4.30436611
1.43085039 -4.42691851 -4.46390724
1.06266785 -4.42369652 -4.55658340
0.69449514 -4.42047882 -4.65372133
-2.25908160 -4.41754007 -5.31623363
3.31535721 -4.45347500 -3.97500253
2.90891337 -4.44820547 -4.12210226
-3.86335802 -4.45546293 -5.84919548
-3.43688297 -4.45015621 -5.82232141
-2.93160892 -4.42681360 -5.61502314
-4.66724873 -4.46499109 -6.10288286
-4.89108086 -4.46725273 -6.12866497
-5.12263441 -4.45807791 -6.14260340
-4.44763470 -4.46086693 -6.06301737
-4.22717094 -4.46381140 -6.00687027
-4.14744949 -4.46146297 -5.86682940
7.03687906 -4.56704760 -3.83799720
6.45486069 -4.55553770 -3.86666441
6.73719740 -4.56741619 -3.85536194
6.17278719 -4.54058361 -3.88356662
5.75420523 -4.53034735 -3.82054472
5.89007330 -4.52828550 -3.89922762
5.29933691 -4.49336290 -3.82540131
5.54105091 -4.52323961 -3.87636185
4.61766481 -4.48957491 -3.79461861
3.96566105 -4.45689535 -3.87711763
0.29843748 -4.41941261 -4.82779932
-0.10352620 -4.42026711 -5.00006342
-0.48948368 -4.41913271 -5.09293270
-0.90120310 -4.41508532 -5.17324781
-1.38418591 -4.41197634 -5.21713400
2.50981140 -4.44221973 -4.27417803
0.98180115 -4.42767859 -4.77027035
-2.37136936 -4.42632961 -5.51366425
-2.72846651 -4.43339777 -5.71724319
-4.01014900 -4.46082973 -5.94694042
-4.55412006 -4.46600676 -6.19298458
-4.77627134 -4.46846867 -6.22669268
-5.00443172 -4.46442175 -6.24846411
-4.32400846 -4.46473789 -6.14182425
-4.09267426 -4.46362209 -6.08385992
6.94752169 -4.57144737 -3.98481917
6.66229343 -4.56237125 -3.99418807
6.37845182 -4.54645395 -4.00515175
6.09491634 -4.53594542 -4.01892471
5.81132174 -4.52688885 -4.03359795
5.67572784 -4.52459240 -3.95471048
5.46274233 -4.52347040 -4.00985909
4.16711807 -4.46788979 -3.98390818
4.88422728 -4.49264050 -3.94277263
-0.57958627 -4.42460108 -5.30517244
-1.46659923 -4.42008829 -5.43247795
-2.03258824 -4.42172241 -5.42397022
-1.83174789 -4.42481089 -5.51826859
2.11124635 -4.43722200 -4.42749214
1.71405613 -4.43446064 -4.58484697
1.34664655 -4.43095541 -4.67703295
0.59007913 -4.42598677 -4.94177485
-2.24124002 -4.42896318 -5.57556915
-2.14572811 -4.41964483 -5.37020111
3.58682609 -4.44289160 -4.11153364
3.18034744 -4.45619392 -4.25174856
2.78622651 -4.45203924 -4.40205050
-3.86604190 -4.46110821 -6.02801609
-3.54455233 -4.45603895 -6.02685404
-4.43225479 -4.46773291 -6.27808094
-4.66038465 -4.46913528 -6.32184839
-4.88359118 -4.46551275 -6.34874678
-4.19467974 -4.46531153 -6.21799517
-3.93880320 -4.46438360 -6.16571522
6.87629938 -4.57354116 -4.12405252
6.58711815 -4.55726004 -4.13201904
6.30017185 -4.54359865 -4.13988447
6.01595592 -4.53429365 -4.15386677
5.73118401 -4.52802753 -4.16692209
5.59667253 -4.52531433 -4.08867550
5.14694118 -4.49059868 -4.09241152
5.38486242 -4.51914215 -4.14329147
4.43491507 -4.48200798 -4.12821484
0.19671689 -4.42651701 -5.12094641
-0.18932967 -4.42668676 -5.21627426
-0.98679638 -4.42082214 -5.38708735
-2.11429334 -4.43154621 -5.63511038
-1.91644573 -4.43449783 -5.73034143
2.39247346 -4.44642687 -4.55295134
1.26645756 -4.43527126 -4.89019203
0.88055271 -4.43284845 -5.05316830
-2.52411389 -4.43833208 -5.81650782
-3.61265683 -4.45386362 -6.16493177
-3.12411141 -4.44568396 -5.98909235
-4.31020784 -4.46824217 -6.36094666
-4.54118156 -4.47041416 -6.41508913
-4.76173830 -4.46599627 -6.44632673
-4.04002142 -4.46311426 -6.29401588
-3.67969036 -4.44197321 -6.30265617
6.80148602 -4.56613016 -4.26308346
6.50956535 -4.55733728 -4.26719141
6.22071123 -4.54262495 -4.27502489
5.93513823 -4.53587294 -4.28847122
5.65029669 -4.53581667 -4.30065584
5.51748753 -4.52516174 -4.22274828
5.30643272 -4.51017237 -4.27717543
3.78797078 -4.44734287 -4.21429920
4.69766808 -4.49781942 -4.27494621
-0.29821095 -4.43184519 -5.42061615
-0.66564178 -4.43088531 -5.51815796
-1.06711185 -4.42873096 -5.60228062
-1.54959774 -4.42894125 -5.64796686
1.99627328 -4.44256496 -4.70675325
1.62988317 -4.43870735 -4.79752684
0.49295613 -4.43208981 -5.23276567
-2.38803530 -4.44101191 -5.87918472
-2.91402268 -4.44781542 -6.09130764
3.44672298 -4.46350956 -4.38293648
3.05313253 -4.46235275 -4.52993155
2.67223072 -4.45678663 -4.68447924
-4.19448853 -4.46199274 -6.44152546
-4.42013359 -4.47129536 -6.50707388
-4.64475727 -4.47361755 -6.54993200
-3.77682781 -4.45338821 -6.42262936
6.72657347 -4.57157230 -4.40126610
6.42940569 -4.55538130 -4.40046883
6.13901949 -4.54675007 -4.40859365
5.84918213 -4.54039097 -4.42491198
5.56563759 -4.53146839 -4.43806505
5.43692207 -4.50955868 -4.35687065
5.22523594 -4.51498747 -4.40942669
4.95364189 -4.51208735 -4.42472649
3.98833156 -4.46726036 -4.31909180
0.12458826 -4.43263102 -5.34335852
-0.74355656 -4.43863249 -5.72971630
-1.64269948 -4.43756437 -5.86372995
-2.25088859 -4.44420052 -5.93976641
-2.04370379 -4.44347048 -6.02971983
2.27826238 -4.45209074 -4.83091402
1.54951560 -4.44332552 -5.01154661
1.16661000 -4.44074678 -5.17051125
0.78706622 -4.43815613 -5.33574200
-3.22778916 -4.44899035 -6.19432449
-4.30975151 -4.46196508 -6.60679150
-4.03789854 -4.46008635 -6.46247196
-4.11100769 -4.45897007 -6.57568550
-4.52627563 -4.46795845 -6.65066147
-3.83945775 -4.46313190 -6.55782175
6.63944578 -4.56222820 -4.53215075
6.34757376 -4.55390739 -4.53022003
6.05324888 -4.54842806 -4.54192543
5.75967979 -4.54149485 -4.56454229
5.47958994 -4.54116154 -4.57145405
5.35322046 -4.52044201 -4.48890018
5.14358950 -4.52123356 -4.54038477
4.25466490 -4.49011183 -4.46203661
3.64625454 -4.47072649 -4.48356104
-0.09405073 -4.43643188 -5.50656796
-0.38821825 -4.43882895 -5.63163662
-1.14320707 -4.43651438 -5.81925869
1.91277528 -4.44738293 -4.91722250
0.42538291 -4.43693018 -5.45430899
-2.70156121 -4.44679785 -6.18995810
-3.01516914 -4.44873857 -6.29625559
3.30313134 -4.47303391 -4.65273809
3.04458332 -4.47233963 -4.86645651
2.55882740 -4.46239185 -4.96573782
-3.29698801 -4.44410706 -6.33528709
-4.18602943 -4.46039629 -6.69557095
-4.39925194 -4.45826435 -6.74002552
-3.90905118 -4.46239185 -6.68878412
-3.56655145 -4.42257786 -6.53173256
-3.36701465 -4.36970186 -6.47212267
6.55489779 -4.56010294 -4.66344166
6.26541185 -4.55478096 -4.65484953
5.96228027 -4.54719496 -4.68137264
5.66717291 -4.54081869 -4.70532703
5.26919889 -4.53042316 -4.62002802
5.39251852 -4.53774929 -4.70322704
5.06104946 -4.52581024 -4.67063427
3.84667826 -4.48141193 -4.58680153
4.51537895 -4.50616360 -4.60845947
-0.46046686 -4.44705725 -5.83543444
-0.81499320 -4.44640636 -5.94225407
-1.23077726 -4.44136286 -5.99322367
-1.77973831 -4.44142246 -6.17194986
2.19520760 -4.45686674 -5.03826761
1.83265984 -4.45216465 -5.12947655
1.41564703 -4.45140314 -5.39806557
1.08177173 -4.44608498 -5.42802477
0.72053230 -4.44203997 -5.55214787
0.07868844 -4.43976641 -5.57689857
0.36196396 -4.44383669 -5.68014479
-2.55845332 -4.45319462 -6.25293827
-3.08234334 -4.42999935 -6.43241692
-4.05214167 -4.46360207 -6.77869606
-4.26942730 -4.45705080 -6.82524538
-3.42821360 -4.41863489 -6.60451460
-3.63168573 -4.46170330 -6.66727448
-3.14913559 -4.43273497 -6.56881762
6.46864462 -4.55298996 -4.79118967
6.18427706 -4.55370855 -4.77208233
5.84970760 -4.54534817 -4.85109091
5.57787371 -4.54265022 -4.83855009
5.18466330 -4.53312302 -4.74996567
5.30643272 -4.53901434 -4.83272266
4.76189709 -4.51901484 -4.75514603
4.97826195 -4.52909136 -4.79966974
4.11356878 -4.49233627 -4.72977591
3.50019121 -4.47702026 -4.75142813
-0.18731961 -4.44404411 -5.71997738
-0.85822773 -4.45162773 -6.08713436
-2.19287872 -4.46001863 -6.39332199
-2.41339350 -4.45966291 -6.31253099
2.11646581 -4.46158218 -5.24364853
0.65690106 -4.44946527 -5.77399683
-2.79986048 -4.44782257 -6.39369345
2.91526771 -4.47339964 -5.14724398
2.47307897 -4.46636963 -5.17657137
-3.90721369 -4.45679665 -6.86249590
-4.13401079 -4.45354462 -6.90370893
-3.69809747 -4.47409916 -6.80607224
-3.28668308 -4.45072412 -6.67160940
-3.49065757 -4.46327162 -6.74065971
6.37018585 -4.53401899 -4.90405893
6.10573816 -4.55563259 -4.88547993
6.02369165 -4.55538416 -5.00663900
5.76077700 -4.54283428 -4.98374748
5.48942184 -4.54342270 -4.96726608
5.21824932 -4.53937721 -4.96044922
5.09781265 -4.53420019 -4.87747478
4.89403534 -4.52789831 -4.92702484
3.70222330 -4.48111105 -4.85463905
4.37831736 -4.51069403 -4.87882233
0.01303752 -4.44885159 -5.80799961
-0.25511786 -4.45408726 -5.92543125
-0.52683437 -4.45426989 -6.03501225
-1.18933129 -4.44435835 -6.13487864
-0.90014142 -4.45572424 -6.23480272
-1.57727170 -4.44636822 -6.25084496
1.70604968 -4.45956373 -5.49610853
1.01788294 -4.45155478 -5.63735628
0.29739538 -4.45465851 -5.90822363
-2.65475512 -4.46355295 -6.45800209
-2.86764479 -4.45305586 -6.52818251
2.39889669 -4.47094774 -5.36329603
-3.76329827 -4.46711683 -6.94727564
-3.97276402 -4.43034077 -6.99397802
-3.55527759 -4.48030424 -6.88159513
-3.14351654 -4.47623158 -6.73588991
-3.34930778 -4.46436882 -6.81095648
-2.93497014 -4.45773458 -6.66442537
6.28645706 -4.54620266 -5.03014851
5.94016361 -4.55867147 -5.13505650
5.67180443 -4.54610491 -5.11188030
5.39930010 -4.54496670 -5.09493780
5.00670624 -4.53300428 -5.00182104
5.12679529 -4.53864384 -5.08536243
4.64434242 -4.52096033 -5.03848076
3.97109675 -4.49681616 -4.99698687
3.34862185 -4.48292828 -5.01740551
-0.03595191 -4.45695829 -5.96818209
-0.56933945 -4.45936060 -6.17597771
-1.24638760 -4.45280838 -6.36513329
-0.96344703 -4.45929480 -6.45833874
-1.36451948 -4.44204283 -6.06847143
-1.44732201 -4.45182848 -6.29538202
-1.90232193 -4.45467997 -6.48922014
-2.50443459 -4.46773338 -6.51983786
-2.27447295 -4.46675777 -6.60824728
1.99449253 -4.46958351 -5.59312487
0.95621544 -4.46003962 -5.85870743
0.59442025 -4.46133471 -5.99892902
0.25341341 -4.46265268 -6.06137180
-2.72234273 -4.46733332 -6.59295273
2.81799936 -4.46767426 -5.36436081
-3.61991382 -4.47470331 -7.02676058
-3.82385802 -4.45099783 -7.09435511
-3.41207218 -4.47501945 -6.95205116
-3.20662904 -4.46487665 -6.87649822
-3.00100303 -4.46996975 -6.80115366
-2.79283118 -4.46711540 -6.72694016
6.19235134 -4.53856277 -5.15051937
5.85500479 -4.56324291 -5.26698923
5.58086348 -4.55007744 -5.23967314
5.30638409 -4.53991556 -5.21928883
4.90706921 -4.52982664 -5.11845970
5.03326082 -4.53720474 -5.20640469
3.55538607 -4.48823071 -5.12206697
4.23624229 -4.51538277 -5.14618397
-0.30582476 -4.46337366 -6.08302259
-0.61298031 -4.46441269 -6.32275486
-1.68822896 -4.45795727 -6.55706739
-2.32209849 -4.46984625 -6.75242853
-2.57454705 -4.47264338 -6.65449142
1.31728327 -4.45874691 -5.71384573
0.55360830 -4.46855783 -6.14996767
-0.08446502 -4.46678448 -6.13031483
0.20995559 -4.47112274 -6.21393251
3.20275307 -4.48499107 -5.28914928
2.75056386 -4.44724226 -5.51871157
2.28261161 -4.47990179 -5.68841600
-3.68127656 -4.47196007 -7.18353319
-3.47371197 -4.47825623 -7.09571600
-3.26817179 -4.47449589 -7.01775408
-3.06492972 -4.47316456 -6.94036818
-2.86121035 -4.46796608 -6.86229563
-2.65828848 -4.47177267 -6.78322697
6.10659885 -4.53152990 -5.27925444
5.76496458 -4.55826283 -5.39329195
5.48728609 -4.54523277 -5.36342716
5.21329880 -4.54034424 -5.34055328
4.81485367 -4.52618504 -5.23940516
4.94156790 -4.53868866 -5.32694006
4.49824667 -4.52788019 -5.30356216
3.82631969 -4.50803757 -5.26395512
-0.35100141 -4.46946430 -6.23133039
-0.67619753 -4.47170591 -6.54521084
-1.33519435 -4.46376705 -6.66724586
-1.04928756 -4.47333336 -6.75641823
-1.54683745 -4.46418476 -6.59922695
-1.97752154 -4.46446657 -6.71213055
-2.54098582 -4.47640228 -6.83024788
-2.35515785 -4.47356367 -6.90202475
1.61326253 -4.46399546 -5.79601622
1.25612080 -4.46710300 -5.93898773
0.89780319 -4.47043133 -6.08378124
0.51284069 -4.47423553 -6.30105495
0.16667944 -4.47788763 -6.36705971
-0.13007985 -4.47415638 -6.28604174
3.41207147 -4.49743938 -5.39205074
-3.52913761 -4.45138216 -7.24237776
-3.32804775 -4.48054218 -7.16007137
-3.12632394 -4.47964525 -7.08110714
-2.92479038 -4.47383261 -7.00022650
-2.72551966 -4.47078896 -6.91868830
6.01540804 -4.51188087 -5.40789557
5.66966343 -4.56177473 -5.51852131
5.39195156 -4.54685593 -5.48386049
5.12055349 -4.54308653 -5.46132278
4.72787523 -4.53171206 -5.36252928
4.84968758 -4.53779936 -5.44738483
4.09013987 -4.52398300 -5.41148949
-0.39461517 -4.46997404 -6.38230753
-1.75772464 -4.46965981 -6.78191376
-2.02333593 -4.47073030 -6.85933161
-2.46289921 -4.47149420 -7.02341461
-2.59386158 -4.47496891 -6.97227049
1.90509200 -4.47621822 -5.88103199
1.55282402 -4.47257233 -6.01919317
0.86065984 -4.47538996 -6.23423910
0.47075373 -4.48340607 -6.45088387
0.12323897 -4.48129177 -6.51931858
-0.17390931 -4.47528505 -6.43981886
3.09667635 -4.48102188 -5.49871397
2.63562560 -4.48839998 -5.81759644
-3.38245177 -4.44787025 -7.30138397
-3.18480062 -4.48226070 -7.22386169
-2.98461342 -4.47975111 -7.14116573
-2.78572965 -4.47542906 -7.05772924
5.92625570 -4.50197601 -5.53824997
5.56876230 -4.56592703 -5.63825798
5.29523897 -4.55246496 -5.60235310
5.02534914 -4.54212713 -5.57916784
4.64435434 -4.53790188 -5.48796844
4.75938416 -4.54153919 -5.56730032
4.34939861 -4.53004837 -5.56672430
3.68209410 -4.51707792 -5.53204918
-0.45791700 -4.47519827 -6.60560513
-0.75979847 -4.47790813 -6.84120369
-1.40116763 -4.47590303 -6.89165115
-1.11316133 -4.48422718 -6.97858524
-1.61387837 -4.47695684 -6.82415533
-1.80417979 -4.47534657 -6.93042183
-2.14061403 -4.47536039 -6.98043299
-1.99461985 -4.47711420 -7.02989912
-2.32779098 -4.47669029 -7.07500887
-2.64798498 -4.47616768 -7.11282015
-2.51143599 -4.47989798 -7.16655111
1.84758854 -4.48262262 -6.09750319
1.20011163 -4.47621202 -6.16316795
0.82664144 -4.47638941 -6.38477850
0.42625242 -4.48866892 -6.60051584
0.06240381 -4.49220848 -6.74325180
-0.23660026 -4.48327303 -6.66451311
3.30792141 -4.50587368 -5.59659004
3.02924013 -4.48014259 -5.63833904
2.19587326 -4.48717785 -5.96613455
-3.24040675 -4.46421671 -7.36859131
-3.04193902 -4.48764277 -7.28589821
-2.84208608 -4.48120546 -7.19737673
5.81541252 -4.48651981 -5.64809513
5.46624327 -4.55956745 -5.75453520
5.19621277 -4.55217123 -5.72065639
4.92960978 -4.54553556 -5.69636631
4.54777575 -4.53863621 -5.69522715
4.66397524 -4.54195929 -5.68381071
3.94289088 -4.52787113 -5.67703819
-1.44344604 -4.48191977 -7.04137993
-1.15467858 -4.49034309 -7.12625742
-1.65889287 -4.47839880 -6.97579956
-1.84934533 -4.47745943 -7.07787991
-2.18519306 -4.48367071 -7.12621689
-2.03975630 -4.47901773 -7.17604923
-2.37212729 -4.48137140 -7.22097445
-2.69904304 -4.48387194 -7.25319481
-2.55851531 -4.48601437 -7.30976629
1.49936903 -4.46790886 -6.24048281
1.16677117 -4.48034859 -6.31260920
0.80030835 -4.48713493 -6.53692865
0.35881367 -4.49275684 -6.82423162
3.24339652 -4.50587797 -5.73378229
2.91609144 -4.49559116 -5.92243338
2.14116502 -4.49696541 -6.17414236
-3.09502578 -4.47364807 -7.43515921
-2.89524055 -4.48511744 -7.33899021
5.72185326 -4.49044943 -5.77539253
5.36194229 -4.55194902 -5.86837578
5.09653854 -4.55396414 -5.83716249
4.83111811 -4.55446720 -5.81073856
4.19682884 -4.52915478 -5.82914829
3.57843685 -4.51902866 -5.73546362
-0.54040277 -4.48466635 -6.90279818
-0.82223880 -4.48750496 -7.06282711
-1.48686445 -4.48812532 -7.19028759
-1.19530332 -4.49276829 -7.27376270
-1.70411253 -4.48199368 -7.12396812
-1.89410734 -4.47616816 -7.22474766
-2.22891903 -4.48027468 -7.27170324
-2.08367229 -4.48251057 -7.32229853
-2.41653013 -4.48761082 -7.36491537
-2.74969029 -4.48178196 -7.39383793
-2.60567617 -4.49676275 -7.45197344
1.79652405 -4.48185825 -6.31651354
1.46819961 -4.48738861 -6.38703823
1.13675010 -4.48618126 -6.46243668
0.79238880 -4.49413633 -6.69305468
-0.01231973 -4.50151920 -7.03694296
-0.31690052 -4.49106836 -6.96180153
3.13138771 -4.51029015 -6.01501846
2.41540599 -4.49808264 -6.02493191
-2.94335842 -4.45486832 -7.47833633
5.61836052 -4.48262262 -5.89302826
5.25730610 -4.55058908 -5.98198986
4.99372673 -4.55716467 -5.95171642
4.72300339 -4.54775524 -5.91832781
4.43251848 -4.53682518 -5.89151192
3.51634574 -4.52167463 -5.87283516
3.83355832 -4.53204536 -5.87859964
-0.86248153 -4.49243069 -7.20809746
-1.52937853 -4.48943615 -7.33895779
-1.23504603 -4.49483681 -7.42172480
-1.74825466 -4.47761726 -7.27131844
-1.93711102 -4.47924709 -7.37093306
-2.27422452 -4.48818445 -7.41840601
-2.12813354 -4.48951387 -7.46858406
-2.46234608 -4.49665785 -7.51010227
-2.79660296 -4.45505524 -7.52872801
-2.65379691 -4.46930933 -7.58885145
1.76533055 -4.48941803 -6.46147203
1.43909991 -4.49761438 -6.53369331
1.11188471 -4.49372578 -6.61214495
0.57508379 -4.49726343 -6.88027525
0.29144493 -4.50092220 -7.12443495
2.36624646 -4.50347090 -6.21322155
2.08994985 -4.50222826 -6.39701796
5.51104212 -4.47331524 -6.00897408
5.15141010 -4.54795265 -6.09456444
4.89145422 -4.55936337 -6.06107616
4.61929512 -4.54975080 -6.03003263
4.34453106 -4.53381491 -6.01415920
4.07255316 -4.52891779 -6.02105808
3.41370487 -4.52181435 -6.13376760
3.88779926 -4.52961063 -6.09122372
-0.60212576 -4.49268484 -7.12713194
-0.90169668 -4.49772787 -7.35061264
-1.34864283 -4.49582481 -7.55097437
-1.56997621 -4.48848581 -7.48680258
-1.79053438 -4.48081207 -7.41816187
-1.97951841 -4.48683023 -7.51661921
-2.31843066 -4.49670601 -7.56666279
-2.17156553 -4.49423981 -7.61483765
-2.51201844 -4.48343277 -7.65669680
1.73817217 -4.49955177 -6.60183620
1.41299570 -4.49667215 -6.68059731
1.09226465 -4.49975967 -6.75975895
-0.07040642 -4.50465155 -7.25913239
-0.37682909 -4.49809742 -7.18874741
2.59075308 -4.50933647 -6.24569273
2.81318021 -4.51521349 -6.27830505
2.05817318 -4.50837135 -6.55422354
5.39891338 -4.46421623 -6.12027836
5.00036907 -4.56559563 -6.16070557
4.79240084 -4.55710745 -6.17300367
4.52167082 -4.54330683 -6.14417315
4.25840330 -4.53191853 -6.13892412
3.76841736 -4.52744579 -6.31272316
-0.64260834 -4.49899244 -7.27501106
-0.94033694 -4.50257158 -7.49162197
-1.20041752 -4.50492668 -7.58959913
-1.53580463 -4.49196482 -7.65734911
-1.38802576 -4.50113297 -7.70124912
-1.68374431 -4.48880625 -7.61084270
-1.83173120 -4.48503256 -7.56336880
-2.02175784 -4.49395227 -7.66232252
-2.36273646 -4.47325802 -7.71092033
-2.21076822 -4.46360254 -7.75508165
1.71347547 -4.50941133 -6.74200344
1.39122689 -4.50461578 -6.82525682
0.77569222 -4.49136353 -6.92431021
1.06549060 -4.49075890 -6.97960043
0.50802398 -4.50535059 -7.18465710
0.22668639 -4.50995016 -7.34924936
-0.18062590 -4.50806952 -7.40044832
-0.41573361 -4.50415039 -7.34454441
2.97107267 -4.51922321 -6.29554558
2.31434298 -4.50718451 -6.44752312
1.96377826 -4.51377296 -6.64723969
5.28486872 -4.45133924 -6.22504854
5.09736872 -4.52904701 -6.25565004
4.90547562 -4.56030798 -6.27919102
4.69081116 -4.54735088 -6.28383780
4.42305279 -4.54051018 -6.25824833
4.17758512 -4.53061581 -6.26696730
-0.68042982 -4.50600338 -7.41490459
-1.05260944 -4.50711060 -7.62174892
-1.23820424 -4.50876188 -7.73918056
-1.57481730 -4.49520826 -7.80662012
-1.42564619 -4.50040960 -7.85126209
-1.72377622 -4.49295330 -7.75635529
-1.87175202 -4.49013281 -7.70518208
-2.06127810 -4.45908499 -7.80251932
1.69318092 -4.51505280 -6.88609314
1.36506248 -4.51122522 -7.04102182
0.72962046 -4.50820017 -7.22777414
-0.02581082 -4.50963068 -7.43252897
0.12255739 -4.51162910 -7.46819878
-0.45498201 -4.50800371 -7.51580667
-0.20461343 -4.51669979 -7.56296396
2.78377485 -4.52268410 -6.50396776
2.54584169 -4.51212072 -6.48355055
2.28409719 -4.51471424 -6.60886955
1.94305909 -4.52337408 -6.76453400
5.17178154 -4.44906521 -6.33256340
5.02044773 -4.48784733 -6.39984941
4.80242777 -4.55230236 -6.39281893
4.58543253 -4.54303026 -6.39163351
4.31109715 -4.53987837 -6.36403847
4.09580851 -4.53554249 -6.39850235
3.11018324 -4.52850628 -6.35852575
3.32228780 -4.52830505 -6.41609287
-0.71527672 -4.50728607 -7.52807760
-0.90299046 -4.50589705 -7.65022802
-1.08965302 -4.51034594 -7.76997375
-1.27523530 -4.51506233 -7.89190674
-1.60994291 -4.45085478 -7.94755459
-1.45783055 -4.45684338 -7.99604130
-1.76137304 -4.45147943 -7.89361095
-1.90971076 -4.44889069 -7.84196854
1.65921950 -4.52394867 -7.23441362
1.03695321 -4.50401068 -7.27441216
0.45962802 -4.51423693 -7.41659498
0.26858065 -4.51583481 -7.51566792
-0.04735909 -4.51814842 -7.59082603
0.10344559 -4.51837778 -7.61998558
-0.21514282 -4.51868391 -7.72678375
-0.38285303 -4.51209974 -7.70458269
2.93365192 -4.53070259 -6.51217270
2.75314212 -4.53021669 -6.66140079
2.51705956 -4.51994038 -6.64044952
2.10030246 -4.52280045 -6.75892019
2.25469732 -4.52518702 -6.77467728
1.92098534 -4.53097153 -6.91392326
4.90272856 -4.47822475 -6.50125074
4.69484615 -4.55547428 -6.50072384
4.46987820 -4.55007505 -6.49334335
4.00697517 -4.53968477 -6.52534437
3.08021474 -4.53457737 -6.52621031
3.27649903 -4.53307867 -6.57054424
-0.75485241 -4.50532961 -7.66981554
-0.93742418 -4.50776386 -7.79739141
-1.12339187 -4.51577330 -7.92351198
-1.30158722 -4.45231295 -8.02606773
1.34423292 -4.50499535 -7.29472780
0.69417828 -4.52030134 -7.45354843
0.42821601 -4.52307653 -7.55790854
0.25915927 -4.52096701 -7.65797997
-0.06251874 -4.52354193 -7.74619246
0.09054352 -4.52351904 -7.76869059
-0.36615273 -4.51438475 -7.87588644
-0.21972869 -4.51804256 -7.89054537
-0.59983903 -4.50836945 -7.68172836
2.90601587 -4.53609133 -6.67295074
2.72582245 -4.53348064 -6.81861639
2.48957562 -4.52687979 -6.80006075
2.22987771 -4.53036594 -6.94253874
2.07502246 -4.53116941 -6.92514563
1.89240766 -4.53468704 -7.24454403
4.78205442 -4.46614504 -6.59743929
4.57909679 -4.54961777 -6.59784508
4.35487747 -4.55206966 -6.59331226
4.23231745 -4.54088736 -6.49300861
3.66139126 -4.52686596 -6.53278732
3.92043114 -4.53996134 -6.65187025
4.13294363 -4.54425001 -6.60768986
3.20801640 -4.53670883 -6.71878386
3.05589294 -4.53868580 -6.69191551
-0.78839999 -4.50638962 -7.81858635
-0.97157633 -4.52367401 -7.95111990
-1.14532435 -4.43983841 -8.04758739
1.02528465 -4.50063133 -7.50070858
0.66687095 -4.52615213 -7.59717894
0.41866982 -4.52252531 -7.70634079
0.26452726 -4.52164507 -7.81650496
0.08035111 -4.52371883 -7.90929127
-0.07088623 -4.52114439 -7.89903307
-0.22772454 -4.50793982 -8.05220222
-0.37864846 -4.48752069 -8.05306244
-0.50447273 -4.51069117 -7.85860634
-0.49134740 -4.51022625 -7.69314671
-0.64299387 -4.50709391 -7.83766651
2.88011050 -4.53728199 -6.83225012
2.70243120 -4.53745413 -6.97801924
2.46625710 -4.53256321 -6.96344376
2.20745444 -4.54031229 -7.21696329
2.04857588 -4.53810215 -7.24825668
4.66136932 -4.46152592 -6.69445324
4.45997715 -4.55566502 -6.69613457
4.24653006 -4.54725790 -6.69564962
4.03261709 -4.54818058 -6.72482204
3.58830118 -4.53311872 -6.66920376
3.90080905 -4.53453779 -6.82007647
3.03251266 -4.53683138 -6.85075808
3.18800592 -4.53687382 -6.87496090
-0.81851131 -4.50898552 -7.97007561
-0.99053007 -4.42656660 -8.05289173
1.34062600 -4.45532942 -7.51153517
1.11341369 -4.51294804 -7.66491795
0.94580460 -4.52721119 -7.65479326
0.64030552 -4.53059769 -7.73605967
0.40430751 -4.52597094 -7.86657286
0.24440731 -4.50910044 -7.93111658
-0.07615162 -4.50152588 -8.04722977
0.07450192 -4.49810076 -8.05166435
-0.52231848 -4.51761246 -8.00636005
-0.67047036 -4.51922750 -7.99243879
2.85852075 -4.53875113 -6.99057007
2.40754604 -4.53996515 -7.21607113
2.69230676 -4.54161024 -7.13881874
4.53284788 -4.45721245 -6.78081036
4.33597517 -4.54344988 -6.78629923
4.15681028 -4.55033350 -6.82168484
3.67889047 -4.54569340 -6.85751963
3.45524049 -4.53585577 -6.77936649
3.80451226 -4.54339314 -6.95749044
3.34229279 -4.53706694 -6.90379953
3.01351309 -4.53995657 -7.00661039
3.17172599 -4.54248953 -7.03108263
3.49743652 -4.54238892 -6.93422937
-0.83688122 -4.41864443 -8.05843067
1.65245974 -4.52780056 -7.50385952
1.42354584 -4.52292204 -7.65814066
1.26753676 -4.50371408 -7.66026878
0.97661477 -4.52955961 -7.83707952
1.12629902 -4.53907204 -7.82288504
0.69465387 -4.53566313 -7.88025904
0.54737151 -4.53275585 -7.87914848
0.22429013 -4.49657393 -8.04574013
-0.68409628 -4.41860628 -8.06929302
-0.53216976 -4.43236542 -8.08681297
2.85469317 -4.54345417 -7.14568853
2.52822828 -4.54148006 -7.29734516
2.70032215 -4.54443073 -7.29931355
2.35841155 -4.54383326 -7.46506977
2.51751041 -4.54484844 -7.45357656
1.88778722 -4.52955961 -7.49927521
1.58259737 -4.53629208 -7.65504313
1.74028015 -4.53954887 -7.65225697
4.40375948 -4.45232677 -6.86342669
4.05219460 -4.54833078 -6.93238068
3.64692783 -4.55224609 -6.97073269
3.93912292 -4.52818108 -7.01860094
3.33352733 -4.54468679 -7.05646181
3.01337457 -4.54408264 -7.15378761
3.18183351 -4.55403757 -7.24427176
3.48350120 -4.54826593 -7.06562519
1.43801475 -4.54160213 -7.80588675
1.28116822 -4.53249693 -7.81444407
1.14608049 -4.51554060 -7.97869730
0.99401820 -4.51488113 -8.00313663
0.83405972 -4.53832722 -7.85898972
0.53477728 -4.51677322 -8.03630447
0.68979764 -4.51441479 -8.03261280
0.37935206 -4.50877237 -8.03552055
2.86947441 -4.54855299 -7.29687786
2.19996333 -4.54650021 -7.48009872
2.36429000 -4.55661774 -7.62054443
2.51039791 -4.56083393 -7.59704590
2.04344678 -4.54103851 -7.49279737
1.89711702 -4.54413462 -7.65085936
1.75617194 -4.55175495 -7.79913902
1.59784842 -4.55242825 -7.80403423
4.26909208 -4.45186996 -6.93850613
4.14138985 -4.44774389 -7.01515865
3.62859416 -4.54982567 -7.16289282
4.02213049 -4.43862057 -7.09324074
3.76547718 -4.53262329 -7.13646269
3.84198284 -4.52404881 -7.09580660
3.33670115 -4.56073761 -7.22905493
3.48614979 -4.56247091 -7.21080780
1.45622396 -4.50422335 -7.93778276
1.30106628 -4.51700878 -7.96198177
0.83994776 -4.51660061 -8.01616096
3.03025246 -4.54916048 -7.28489113
2.74860907 -4.54053211 -7.47129202
2.90378189 -4.55150366 -7.45672083
2.20914626 -4.54768467 -7.63279390
2.37935257 -4.49132442 -7.76112604
2.52490020 -4.47878599 -7.71575069
2.59608340 -4.55304384 -7.46743107
2.63362050 -4.56076956 -7.54838753
2.05226636 -4.54648876 -7.64592314
1.91658938 -4.54448271 -7.80394363
1.77200830 -4.48738432 -7.91425705
1.61357534 -4.48748684 -7.92300940
3.89720058 -4.42297792 -7.15288448
3.77490568 -4.43402815 -7.21883154
3.21263123 -4.51663446 -7.40222645
3.37015176 -4.47454977 -7.39574337
3.51079202 -4.45658445 -7.33924389
3.05810761 -4.54747677 -7.42529058
2.94001555 -4.45239544 -7.57249403
2.79628444 -4.45652771 -7.61412048
2.22397017 -4.48039246 -7.76586056
2.66711140 -4.47575045 -7.67713785
2.08105469 -4.52136803 -7.82030249
1.92683733 -4.49795341 -7.87343550
3.64778614 -4.44697046 -7.28478241
3.08080959 -4.43914175 -7.51385880
3.22906685 -4.45018721 -7.46895647
2.39646459 -4.50336313 7.63744354
-5.85619688 2.46563411 7.25381422
-5.79431581 2.57825828 7.32760715
-5.96932459 2.52810335 7.30279732
-5.93456888 2.65204740 7.30983686
-5.70402908 2.58701682 7.21610498
-5.79047585 2.46971965 7.14821959
-5.78688192 2.71283984 7.39022779
-5.90311098 2.77712250 7.35488129
-6.09790945 2.56060529 7.29368925
-6.06728888 2.69638228 7.29536438
-6.11509085 2.42501855 7.29792166
-5.98222208 2.41625738 7.31106758
-5.85895395 2.30179977 7.25809813
-5.98123789 2.28905058 7.31830359
-5.79259300 2.30347371 7.13916159
-5.63540745 2.60045958 7.10100985
-5.71338511 2.45992374 7.05153322
-5.63983774 2.71670723 7.27389956
-5.70570278 2.67607641 7.39180326
-6.02583885 2.83110785 7.29610252
-5.77265644 2.84223199 7.47209406
-5.85821486 2.91312551 7.36846876
-6.19651413 2.73035955 7.24387121
-6.22191572 2.58729720 7.23874998
-6.11952019 2.28294611 7.29541302
-6.24091816 2.44136405 7.23953962
-5.85910177 2.15583754 7.25169849
-5.96765041 2.14756632 7.28670025
-5.77029181 2.16346788 7.14551115
-5.71806145 2.29677868 7.02647638
-5.54684401 2.72826314 7.15875435
-5.54556417 2.48773718 7.14378738
-5.61148024 2.33857608 7.09391928
-5.56781435 2.82887125 7.34419775
-5.65219307 2.78943419 7.46662998
-5.98433828 2.96593904 7.30067968
-6.16180849 2.87339854 7.25130415
-5.75901985 2.99416566 7.51605606
-5.83172989 3.05382085 7.39987659
-6.34582472 2.61239958 7.17411375
-6.32258892 2.76172447 7.17839575
-6.24421692 2.28648925 7.23372889
-6.10332441 2.13860607 7.26656532
-6.35675383 2.46376204 7.16323376
-5.95549154 2.03197718 7.35217476
-5.81961966 2.03872228 7.30939388
-5.71894598 2.03227234 7.20241928
-5.69196987 2.15426111 7.02957869
-5.47442818 2.87091231 7.23190832
-5.44868183 2.57474160 7.22614813
-5.49520254 2.90375113 7.43970156
-5.60075045 2.85316634 7.56385803
-5.94510412 3.09667063 7.30993509
-6.12552595 3.01650596 7.25174809
-6.29408598 2.91502142 7.17888975
-5.67596865 2.93229151 7.65133476
-6.45496559 2.63235998 7.08082485
-6.42557430 2.77979493 7.08092451
-6.36615562 2.30682158 7.16101742
-6.22678995 2.11414027 7.21580982
-6.08146572 2.00293374 7.28537035
-6.47022629 2.48429275 7.07649374
-5.93831015 1.91097319 7.41243076
-5.78658772 1.91638958 7.37920046
-5.68379784 1.89925814 7.25322485
-5.64574242 2.02680898 7.07905436
-5.57692194 2.21013665 7.13310719
-5.41530514 2.95644832 7.41961622
-5.38625765 2.44377565 7.25258255
-5.50780630 2.38972211 7.18863535
-5.53369951 2.94241166 7.63174295
-5.81021738 3.19973445 7.42291546
-5.88902998 3.22284818 7.30909872
-6.08422375 3.15560198 7.25381422
-6.26572943 3.08046937 7.16382408
-6.37944889 2.92487383 7.06034565
-5.74567652 3.10632896 7.53141356
-5.65854454 3.09226918 7.63499260
-6.55027199 2.64179254 6.94889355
-6.53338623 2.79343605 6.96887875
-6.46052790 2.34064054 7.06019735
-6.22413158 1.98594892 7.25942802
-6.07733059 1.87631893 7.35847425
-6.56213570 2.49532008 6.95962524
-5.91615725 1.78430963 7.47061872
-5.76468134 1.79110193 7.44733286
-5.65002584 1.75255525 7.32342339
-5.60960817 1.90093184 7.10755682
-5.52385473 2.08445477 7.13876724
-5.46842051 2.26148272 7.21782923
-5.36243248 2.75173044 7.24554396
-5.24093580 2.82638431 7.36605692
-5.27569103 2.49462938 7.32686996
-5.32492161 2.62739849 7.30934572
-5.36056280 2.31085825 7.29777622
-5.41028404 3.12042785 7.49183416
-5.52483940 3.09151602 7.62440920
-6.00826359 3.27185512 7.24460936
-5.74169111 3.30705857 7.38840532
-5.81735468 3.32203913 7.27532768
-6.36202192 3.09603262 7.05217409
-6.49858093 2.94106793 6.97567272
-5.65219307 3.23927140 7.67984009
-5.73233795 3.21849680 7.54682446
-6.66812420 2.68771529 6.86658335
-6.63676596 2.82247996 6.86801004
-6.46126509 2.20162034 7.04872894
-6.35040379 2.19965148 7.14201641
-6.55765676 2.35344172 6.95962524
-6.33465099 2.09247971 7.12296486
-6.34936810 1.95503354 7.15097666
-6.21182489 1.85308182 7.31997728
-6.05424309 1.75442743 7.41385746
-5.88529158 1.65331042 7.46338129
-5.76541948 1.65276980 7.46037722
-5.58563328 1.76796484 7.11582708
-5.65450764 1.60536301 7.36029625
-5.49924088 1.95370626 7.17509842
-5.41618872 2.13240361 7.22235775
-5.28425837 2.80228353 7.51856613
-5.30252171 2.94053268 7.51295424
-5.18594980 2.68191862 7.38692999
-5.24551487 2.35811758 7.36191940
-5.16448450 2.53645420 7.42493439
-5.31148243 2.17739987 7.30703115
-5.36366367 3.25707126 7.52742815
-5.50160360 3.23467278 7.66718769
-5.28214073 3.09391785 7.53761816
-6.11578035 3.33995843 7.15722942
-6.20896912 3.28205991 7.17824888
-5.92152262 3.35040879 7.18651962
-5.68074465 3.32496786 7.51063967
-5.62777424 3.28261209 7.30176258
-5.72943354 3.29313707 7.18110418
-6.44610453 3.09881711 6.96444941
-6.46589279 3.19064331 7.13015079
-6.33834219 3.23279667 7.17765856
-6.57956219 2.95599866 6.86367655
-6.64936876 2.84017587 6.72160435
-6.68180990 2.70394015 6.71471214
-6.54012966 2.21308994 6.94091845
-6.42783976 2.06944084 7.00673676
-6.68481350 2.35280228 6.87406397
-6.70539141 2.48113942 6.87997293
-6.44679356 1.93662202 7.01963472
-6.18066359 1.71829247 7.36576033
-6.02475595 1.62544835 7.43541956
-5.74868155 1.50582409 7.52732706
-5.88598108 1.48716438 7.49631453
-5.47088385 1.81724155 7.18474722
-5.62053823 1.47303665 7.41587639
-5.57815218 1.65803647 7.19990921
-5.59306908 1.59418762 7.33617449
-5.38020277 2.00293374 7.24372339
-5.26963806 2.66919255 7.53382826
-5.18845844 2.79725385 7.64153910
-5.22562504 2.92855406 7.66610336
-5.20165110 2.22037578 7.37732983
-5.13258457 2.40232491 7.43763399
-5.25162029 2.52702165 7.55440331
-5.27953100 2.04295588 7.33056259
-5.25452423 3.23778462 7.56469393
-5.32147503 3.38757157 7.58216953
-5.48117304 3.38233399 7.67949629
-5.22735023 3.07213926 7.67422867
-5.62477350 3.41089225 7.68535423
-5.99684095 3.38015819 7.06236601
-6.28084183 3.39092469 7.27567339
-6.15693378 3.44126534 7.23047972
-5.84994268 3.32359934 7.09643126
-5.57756233 3.34286213 7.42015886
-5.52434731 3.28755403 7.18120098
-5.65243864 3.31087351 7.09150839
-6.51143026 3.08863044 6.86289024
-6.54785919 3.19270515 7.01092005
-6.53752136 3.33863425 7.15447187
-6.41666460 3.35718441 7.24145842
-6.61313629 2.98620582 6.73031664
-6.73473120 2.59447885 6.72209644
-6.69623423 2.60241532 6.86008501
-6.58512640 2.83087492 6.61044550
-6.63144970 2.68633509 6.58809614
-6.66723967 2.20629930 6.88676691
-6.51517200 2.07584071 6.88573217
-6.77977514 2.33315969 6.74882841
-6.87064934 2.41231751 6.82798624
-6.53309107 1.92357695 6.88085985
-6.36591005 1.80985892 7.15412569
-6.46057606 1.79011750 7.04350948
-6.14507055 1.57937050 7.41425228
-6.28886843 1.83146930 7.23707628
-6.30156946 1.69663286 7.29447699
-6.00353909 1.48096144 7.43463182
-5.75680494 1.35281885 7.55312634
-5.87834978 1.32613802 7.49095106
-5.45995474 1.64932346 7.23417282
-5.36829090 1.87927127 7.27655792
-5.62472391 1.35739779 7.48356438
-5.17142630 2.67004538 7.64636326
-5.11599493 2.91156554 7.77174950
-5.06582451 2.77272558 7.73541927
-5.09049463 2.26167941 7.44757938
-5.16216993 2.08430767 7.40283012
-5.19869900 2.38809705 7.55297756
-5.15734577 2.54975152 7.65891743
-5.24384117 1.91461587 7.34666109
-5.25073290 3.20957184 7.70361710
-5.24965143 3.38155198 7.59748030
-5.31340170 3.51923537 7.59408236
-5.46802998 3.51817584 7.67378330
-5.12761116 3.06006932 7.78184032
-5.59267521 3.46214819 7.51664782
-5.58760548 3.55070162 7.69874287
-6.06093979 3.49274492 7.11307049
-6.31643629 3.53436732 7.30707979
-6.16225052 3.55088878 7.34326315
-5.76059484 3.36242056 7.00289679
-5.46113634 3.38161564 7.31480932
-5.52917194 3.46089315 7.20945883
-5.65647697 3.46941471 7.13541985
-6.49439716 3.08474183 6.78949118
-6.61988163 3.33545876 7.03164577
-6.47657633 3.16079521 6.87450790
-6.56474543 3.22946429 6.86756754
-6.55081320 3.49429655 7.13581419
-6.45845985 3.50875330 7.24879169
-6.53481340 2.96914482 6.63756990
-6.85731030 2.64044881 6.77624750
-6.81654930 2.62081575 6.93205690
-6.53230333 2.65621161 6.49776220
-6.48233509 2.80175090 6.53133440
-6.76116753 2.16179514 6.77290010
-6.65502930 2.07214928 6.90931225
-6.80301094 2.49413848 6.93397617
-6.89196730 2.46878386 6.81917524
-6.96261120 2.31066108 6.73548651
-6.83751917 2.28609824 6.61783028
-6.64833546 1.93686748 6.92216158
-6.54377270 1.78445566 6.93880081
-6.36684656 1.67275620 7.17682028
-6.49346066 1.66153359 7.10622787
-6.28734159 1.56661963 7.34602022
-6.11755133 1.43212700 7.34306622
-5.97823524 1.30408216 7.39377260
-5.75045204 1.20670784 7.56218433
-5.86550045 1.18347239 7.49163771
-5.35170031 1.76771939 7.28630638
-5.35253811 1.64922500 7.29812002
-5.61399221 1.20513415 7.54859591
-5.52321434 1.30432928 7.42759323
-5.48264837 1.43778872 7.38628960
-5.04612923 2.68278146 7.73177528
-4.98319101 2.90413833 7.81955147
-4.89920712 2.74701023 7.84381914
-5.13356876 2.25670648 7.56484079
-5.04698086 2.12600660 7.47613096
-5.12254143 1.94922578 7.41951895
-5.14464617 2.40252161 7.67201185
-5.02643347 2.59283423 7.72818136
-5.23232126 1.78854215 7.36699152
-5.28184557 3.35323501 7.72453976
-5.13179779 3.20471287 7.79572344
-5.52547884 3.55544686 7.59644556
-5.49992943 3.61872578 7.50010586
-4.99904966 3.05163527 7.84608459
-5.93279648 3.51939201 7.02091408
-5.87519932 3.40152335 6.93510771
-6.06379461 3.59516001 7.21359491
-6.19119883 3.70003605 7.33489275
-6.33873558 3.67807484 7.30260038
-5.79933691 3.49137044 7.08338594
-5.49795914 3.49106550 7.41228199
-5.71126747 3.57253814 7.23692942
-5.61507320 3.52762794 7.33130169
-6.47731543 3.08084798 6.71608925
-6.64931917 3.48593593 7.03277779
-6.61879730 3.35824227 6.87185001
-6.48671722 3.28160238 6.74710417
-6.41710806 3.18350983 6.76620531
-6.59566116 3.64300036 7.15156698
-6.47933292 3.65854549 7.24214792
-6.43473196 2.94189048 6.56594276
-6.81128120 2.61028624 6.59326410
-6.93602753 2.64888668 6.65859127
-6.59132862 2.51171112 6.44858217
-6.69702196 2.56245685 6.53148270
-6.43970346 2.63589215 6.41259527
-6.38058043 2.78066826 6.45197916
-6.82698584 2.09351420 6.64180517
-6.75535631 2.05068541 6.78230238
-7.01080561 2.43407822 6.73814487
-6.92440987 2.58991671 6.81671381
