-10.99520000 -32.70040000 27.87300000
-58.25680000 -8.10820000 8.82570000
-1.68820000 -0.56780000 20.99690000
-31.01570000 -43.60650000 43.49860000
-55.32650000 -46.33460000 -8.27470000
-0.93460000 -6.67970000 23.86810000
-40.55680000 -1.06760000 25.11560000
-10.82750000 -29.58570000 26.60470000
-58.91090000 -8.66270000 6.18920000
-61.42570000 -40.04990000 28.81250000
-37.53280000 -2.91450000 26.54170000
-58.03970000 -12.34350000 8.83540000
-60.60680000 -38.73510000 27.79930000
-3.89460000 -10.42790000 24.99310000
-13.60140000 -38.38940000 34.29120000
-57.87070000 -38.21260000 27.03680000
-29.58230000 -38.92460000 39.38330000
-37.04540000 -39.29960000 39.50170000
-10.69400000 -38.09110000 34.82420000
-61.91430000 -40.78290000 19.33940000
3.14590000 -7.99530000 23.70580000
-29.60720000 -45.93180000 42.74920000
-43.76840000 -5.57400000 26.10710000
-58.48490000 -10.62180000 4.09280000
-27.03570000 -15.13090000 28.32630000
-3.12070000 -33.05880000 27.34410000
-0.23060000 -28.42600000 25.61950000
-58.06860000 -18.12620000 3.59230000
-54.28000000 -38.29480000 29.52620000
-6.34940000 -36.73750000 30.86350000
-35.59310000 -17.10880000 30.00600000
-34.81660000 -12.49720000 29.26360000
-38.60650000 -47.35060000 1.40810000
-56.56970000 -15.58010000 13.09820000
-50.67030000 -38.06570000 28.03580000
-47.21800000 -14.45700000 26.17840000
-45.62270000 -12.21420000 26.96510000
-54.84780000 -37.67170000 25.93980000
-7.31590000 -38.68760000 36.58460000
-52.90180000 -38.34390000 27.68120000
-4.93240000 -37.75310000 34.02170000
-39.69270000 -9.19630000 28.26710000
-6.09820000 -37.66610000 32.65070000
-19.77850000 -15.25760000 25.91740000
-2.51820000 -38.29280000 35.21930000
-41.54860000 -38.87070000 38.39990000
-3.30410000 -38.04550000 33.46630000
-31.93350000 -47.73890000 24.53590000
-13.74130000 -48.04370000 20.28200000
-53.93370000 -19.30460000 16.04980000
-0.82650000 -37.77850000 31.98620000
-24.50250000 -19.17290000 27.21930000
-56.65490000 -21.12440000 10.46070000
-2.03600000 -38.62880000 33.70760000
-0.34020000 -38.44330000 33.79810000
-28.63410000 -39.43550000 42.29340000
-27.78180000 -40.08370000 43.69000000
-49.42320000 -17.39050000 23.57370000
-32.03960000 -21.20920000 29.57520000
-35.89920000 -38.91300000 37.17970000
-51.44650000 -22.77350000 19.75220000
-28.97040000 -19.68610000 28.46330000
-48.91640000 -23.88450000 24.13110000
-50.46110000 -28.20490000 20.05750000
-21.71650000 -42.20170000 44.39790000
-47.35010000 -28.42060000 24.70400000
-45.02480000 -26.26220000 27.73700000
-46.50950000 -22.88800000 26.78100000
-28.38320000 -21.83180000 27.73860000
-29.01100000 -24.27210000 28.24870000
-32.52560000 -25.39870000 30.03550000
-53.14760000 -26.97760000 15.61550000
-53.21210000 -22.13250000 16.61230000
-42.00740000 -27.04590000 29.15380000
-39.22520000 -29.00360000 29.33600000
-41.53700000 -31.30400000 27.71690000
-42.28350000 -15.03310000 28.53820000
-52.55270000 -32.88210000 12.73360000
-29.74720000 -26.70530000 29.63800000
-53.77710000 -36.47570000 17.68780000
-23.87120000 -22.79990000 26.32630000
-24.65180000 -24.59510000 27.26680000
-60.86720000 -38.56510000 15.71920000
-40.83130000 -33.90060000 28.70370000
-55.09410000 -37.64700000 20.22930000
-61.81710000 -39.37520000 24.49110000
-40.87260000 -24.77790000 30.14480000
-38.11980000 -26.49460000 30.61220000
-42.73820000 -20.04750000 29.30750000
-17.03070000 -40.58440000 44.60040000
-57.95530000 -17.87990000 7.09790000
-36.05900000 -25.17930000 30.81890000
-32.74590000 -28.67360000 30.37340000
-58.91790000 -38.16530000 17.83470000
-35.79620000 -30.55140000 29.91420000
-38.48480000 -14.82370000 29.44340000
-61.72000000 -39.38480000 12.79840000
-38.61010000 -31.57650000 29.04350000
-21.63660000 -26.45430000 28.44850000
-35.48350000 -32.85680000 29.99480000
-56.92010000 -26.57300000 4.72870000
-39.49780000 -35.35770000 30.45290000
-39.60820000 -18.80580000 30.08550000
-52.37080000 -37.45600000 24.87750000
-52.82560000 -37.04740000 22.67440000
-30.68400000 -39.00300000 37.06720000
-38.57770000 -18.54430000 30.75550000
-29.84030000 -31.62840000 30.16980000
-24.52850000 -39.22250000 37.21350000
-13.43200000 -15.13650000 24.19980000
-46.65410000 -38.41440000 32.13860000
-43.09860000 -38.47280000 33.37230000
-26.44880000 -38.22460000 34.93450000
-43.69810000 -23.81400000 28.95200000
-54.88870000 -27.16850000 10.51270000
-43.15340000 -36.11200000 29.15290000
-53.38140000 -30.76030000 10.50480000
-2.26580000 -15.04990000 25.62660000
2.15220000 -11.84370000 24.77320000
-25.33730000 -28.54320000 29.88830000
-22.36410000 -30.58880000 29.71350000
-37.75960000 -37.27590000 33.05740000
-32.50410000 -34.53530000 31.36040000
-35.35920000 -34.24950000 30.74530000
-29.61320000 2.98110000 23.44170000
-24.68020000 -33.27420000 30.09580000
-56.35410000 -36.79000000 12.56540000
-53.12140000 -34.73400000 14.16460000
-25.14300000 0.93620000 23.61630000
0.56420000 -16.63300000 25.30080000
-35.68570000 -37.99790000 34.73400000
-30.30370000 -36.58350000 33.05860000
-39.63550000 -38.71800000 34.75870000
-13.84100000 0.50760000 19.71550000
-54.93630000 -32.72630000 4.13910000
-56.02490000 -34.49540000 4.21450000
-37.30110000 -20.00130000 30.86290000
-6.20410000 -41.97850000 44.83490000
-38.94550000 -22.01370000 30.68180000
-8.90130000 -0.65220000 20.33760000
-58.79110000 -41.46320000 38.05520000
-57.01470000 -40.81930000 39.20210000
-58.62020000 -43.73020000 37.37760000
3.01000000 -44.14960000 44.68140000
-60.15600000 -43.28610000 35.39320000
-21.17010000 3.00130000 21.07590000
-4.69630000 2.69220000 19.43110000
-58.65120000 -37.46940000 8.31480000
-59.32910000 -45.46350000 34.50090000
-61.83680000 -40.94720000 4.76200000
-54.51080000 -44.90000000 38.47820000
-50.57410000 1.61670000 12.40620000
3.97290000 -40.24920000 44.56520000
-53.16800000 -0.64550000 11.36250000
4.43410000 -23.71690000 23.58350000
54.61940000 -40.20120000 12.93360000
53.83460000 -39.40400000 9.63510000
54.01360000 -40.35510000 25.32270000
40.76440000 -44.50870000 44.54410000
44.73780000 -42.77960000 44.03810000
38.78020000 -42.63920000 45.18850000
7.45850000 -38.87030000 37.53510000
7.34280000 -39.11520000 38.85240000
11.54580000 -39.54880000 39.53270000
6.58580000 -39.54940000 35.48800000
8.03530000 -38.83410000 35.83390000
41.55810000 -40.35870000 44.53340000
6.24890000 -1.98960000 20.98440000
11.04510000 -38.86660000 36.06060000
8.21100000 -38.38600000 33.73580000
11.66100000 -47.62670000 41.98950000
26.48820000 -47.30150000 36.23310000
45.17870000 -40.69190000 43.79030000
54.68090000 -42.62730000 18.39900000
5.65570000 -28.28550000 25.67970000
14.23370000 -39.51330000 38.11870000
10.38720000 -24.52810000 23.03220000
21.93280000 -38.84870000 39.98810000
12.58520000 -27.95450000 24.55240000
40.90530000 -45.79630000 43.45880000
36.38600000 -45.31730000 44.73230000
-0.43510000 -48.00900000 20.26660000
-0.82210000 -47.95530000 11.68020000
9.31620000 -48.02020000 18.34650000
48.29820000 -1.72240000 20.82800000
45.20240000 -4.60920000 19.17410000
52.71450000 -2.28680000 21.17210000
12.40210000 -38.51590000 33.76550000
16.48440000 -38.97620000 37.53580000
7.07730000 -38.31660000 32.00910000
8.80180000 -37.91260000 31.93560000
50.08400000 -6.50140000 17.97530000
4.22580000 -37.18300000 30.69720000
13.36420000 -36.57970000 29.18030000
14.86730000 -38.12610000 31.67090000
46.03670000 -44.76870000 43.03250000
8.74700000 -16.24590000 22.98950000
10.84700000 -21.69610000 22.55700000
4.96260000 -38.76770000 32.81140000
53.51300000 -6.82280000 18.57750000
9.34930000 -48.53710000 24.22890000
8.44910000 -48.34150000 25.76480000
11.99810000 -48.22530000 23.29700000
14.07460000 -22.43100000 22.10140000
14.19370000 -18.79700000 23.42810000
12.71560000 -21.21950000 22.63270000
20.62380000 -22.58350000 23.29800000
13.87180000 -47.85200000 9.79120000
18.49730000 -24.15550000 22.73950000
52.91960000 0.65210000 21.67320000
18.30830000 -26.81670000 23.43010000
60.14920000 0.10670000 22.98780000
14.63780000 -47.96400000 23.14610000
20.89030000 -38.94350000 43.18200000
25.16380000 -39.26830000 44.23520000
22.15130000 -47.75370000 28.46620000
61.17690000 -2.40930000 22.86330000
17.86440000 -48.03290000 17.71040000
48.02380000 -45.58260000 39.74230000
21.71340000 -12.19000000 22.95810000
16.11910000 -7.56250000 22.58620000
16.86900000 -12.78790000 23.67120000
60.81890000 -4.83650000 21.55310000
24.41140000 -17.17160000 22.95720000
24.99730000 -10.86630000 21.61750000
28.77530000 -38.73730000 38.13120000
20.62050000 -18.33120000 23.95970000
12.94310000 -0.00870000 20.05160000
0.60540000 -31.41660000 27.06280000
1.13500000 -29.13550000 26.43610000
14.25250000 -16.13200000 23.80250000
13.98350000 -48.08460000 26.64850000
25.18450000 -47.88420000 24.01610000
20.04510000 -47.89810000 22.57170000
6.13540000 -31.73760000 26.48080000
18.59770000 0.07610000 19.30880000
19.43720000 -2.77970000 20.42670000
23.17880000 -38.46910000 32.69510000
37.58670000 -46.37760000 41.28530000
10.12680000 -4.84530000 21.85100000
57.91460000 -8.59280000 18.24910000
1.60820000 -33.19340000 27.22990000
64.22370000 -5.71310000 20.91320000
10.44710000 -34.48360000 27.15400000
39.31370000 -47.09000000 24.73970000
28.11460000 -13.48480000 20.26270000
47.23400000 -41.01190000 42.65200000
47.58770000 -43.30310000 42.51510000
49.19840000 -40.45140000 40.65200000
49.26880000 -42.13600000 40.89250000
50.93030000 -10.50930000 15.18640000
7.64520000 -10.68880000 23.25790000
48.36440000 -12.63890000 13.86290000
49.21470000 -44.53420000 39.92580000
20.91320000 -30.32750000 24.11150000
51.59860000 -43.07710000 37.26390000
51.38880000 -40.76810000 37.62970000
44.93080000 -9.78500000 15.62080000
12.98410000 -9.75990000 23.27870000
30.47050000 -12.37320000 18.36760000
28.26280000 -21.56320000 21.96720000
30.88700000 -18.34840000 18.99870000
17.77920000 -48.10660000 21.93490000
49.93180000 -45.94680000 33.91280000
31.12030000 -22.70900000 19.83660000
19.21680000 -33.73120000 25.31110000
30.64820000 -38.94560000 32.45850000
11.12250000 -13.74580000 23.20160000
51.35310000 -45.18480000 36.24390000
25.07080000 -38.46210000 31.09190000
52.53870000 -12.42150000 13.00710000
52.76510000 -44.52620000 33.33300000
53.27740000 -41.98940000 32.02460000
52.65970000 -45.68010000 29.47840000
49.15340000 -16.75370000 10.40980000
52.36700000 -13.89190000 10.90860000
19.53000000 -48.36040000 19.92890000
56.68070000 -11.34660000 13.29610000
56.85720000 -10.27530000 16.31470000
20.67650000 -47.88020000 18.43700000
35.00630000 -47.53390000 13.33630000
20.27230000 -40.62490000 44.87810000
33.04710000 -39.15460000 33.25480000
39.51180000 -38.99380000 28.19460000
34.56660000 -38.57360000 38.02440000
24.07990000 -27.72350000 23.56270000
44.46270000 -38.76870000 28.45520000
23.43740000 -0.60880000 18.35100000
60.54630000 -9.49800000 16.87890000
51.20290000 -46.44850000 23.26960000
64.62060000 -7.17130000 18.72420000
25.85990000 -24.28710000 23.62270000
53.84420000 -44.30420000 28.33990000
64.18780000 -8.57790000 16.18370000
37.73230000 -38.51850000 24.83150000
29.64320000 -38.02020000 28.53170000
22.33980000 -7.30350000 21.50880000
29.04810000 -36.84810000 25.87940000
35.01180000 -36.87480000 22.33760000
30.07990000 -25.21530000 22.16920000
61.74020000 -9.88210000 13.37000000
20.03330000 -45.93300000 44.41560000
53.69300000 -45.49110000 24.79700000
54.36690000 -44.09370000 22.75740000
26.36180000 -4.19120000 18.86060000
26.63280000 -31.16870000 23.32830000
53.64530000 -46.19380000 17.43690000
54.23920000 -45.58370000 14.18620000
28.82560000 -28.01620000 22.95140000
28.94830000 -0.44020000 16.65620000
36.34840000 -39.70390000 44.80590000
33.32430000 -41.42820000 45.19910000
34.37700000 -16.34910000 16.05580000
32.97130000 -3.39250000 16.69750000
39.26990000 -38.62120000 43.68660000
34.17480000 -38.16150000 41.22650000
32.42380000 -28.90340000 20.06190000
33.12400000 -20.52270000 16.64770000
23.94920000 -36.34780000 26.85640000
33.21380000 -22.94010000 16.92190000
27.46580000 -33.76400000 23.41570000
36.35420000 -22.76740000 13.80200000
30.98970000 -5.16310000 17.07780000
68.88530000 1.57110000 24.65170000
42.03170000 -37.89460000 39.99350000
30.47420000 -31.10980000 21.35650000
40.02950000 -37.63540000 39.00100000
33.16520000 -32.15880000 18.96160000
37.10470000 -0.42580000 17.12050000
43.03520000 -38.25840000 42.69960000
35.21780000 -32.15880000 16.42870000
33.80110000 -27.39350000 18.49650000
30.57610000 -32.89520000 21.46800000
39.90560000 -1.40670000 18.24950000
27.80640000 -35.50870000 24.65900000
45.93640000 -38.38650000 41.11480000
44.36650000 -39.07020000 43.41170000
38.83030000 -20.64680000 13.28920000
47.35350000 -39.42230000 41.44960000
35.18300000 -34.88300000 18.28310000
32.23020000 -35.57980000 22.37250000
31.77060000 -38.49250000 37.35810000
66.10210000 -1.88980000 23.89040000
37.75900000 -14.24580000 14.85480000
67.01730000 -3.34300000 23.03160000
69.12350000 -1.92570000 23.42030000
68.40660000 -3.68780000 21.93810000
36.80020000 -5.19980000 16.87200000
39.87890000 -5.41530000 17.25140000
36.74820000 -31.29980000 13.82160000
39.03510000 -38.26300000 37.18440000
71.87600000 -1.78680000 21.18990000
30.96520000 -38.74800000 35.11800000
32.30900000 -38.77580000 34.78170000
44.28430000 -15.02330000 13.48620000
44.51080000 -18.56710000 11.41730000
68.26530000 -5.56990000 17.92140000
72.66780000 -2.25440000 18.78730000
43.89970000 -1.59720000 19.91640000
23.67730000 -37.62680000 29.32220000
38.67860000 -36.86390000 16.90260000
39.07250000 -37.97610000 20.29520000
46.72100000 -16.85020000 11.75400000
40.53380000 -23.61160000 11.64310000
73.82440000 0.98700000 21.44500000
43.44920000 -38.00900000 36.82180000
74.27210000 -0.26170000 18.84400000
28.76050000 -6.77630000 18.61760000
42.73600000 -4.01220000 18.97760000
32.70890000 -8.64280000 16.75170000
41.17810000 -38.59430000 17.51900000
48.12030000 -38.27480000 33.46080000
41.56740000 -38.03390000 35.97720000
35.38500000 -24.33840000 13.92650000
35.45100000 -26.90950000 15.10040000
69.54390000 -4.98790000 14.08960000
73.18460000 -2.26990000 15.77430000
43.45890000 -38.76110000 17.83680000
37.20940000 -27.33870000 12.84810000
4.96210000 -17.57980000 23.86750000
18.73570000 -43.10690000 44.93870000
37.25750000 -7.60060000 16.57550000
68.14230000 -2.69420000 8.88910000
40.33750000 -11.33480000 15.11720000
50.09550000 -38.46070000 35.02110000
50.40490000 -39.14880000 37.82880000
42.28900000 -7.72750000 16.77400000
49.29430000 -39.02760000 13.31970000
26.28900000 -46.85680000 43.31560000
74.66230000 -0.41430000 16.43440000
52.93620000 -40.10900000 32.58050000
5.44790000 -38.65240000 40.50260000
27.55880000 -43.95460000 45.03130000
52.16820000 -39.07330000 29.94200000
2.70560000 -39.12280000 36.87230000
73.61790000 -1.19740000 13.73790000
51.43370000 -38.82710000 19.59270000
8.14690000 -47.87760000 30.59010000
8.96870000 -48.10480000 27.53600000
68.64640000 -4.73710000 11.62640000
12.30470000 -47.94780000 29.27880000
1.86940000 -38.52460000 34.61760000
10.56130000 -48.88700000 26.23570000
65.64500000 -8.03050000 13.16870000
62.90030000 -8.68950000 10.84460000
-12.70250000 38.74330000 -47.49010000
-8.12530000 38.60480000 -44.57790000
-5.71660000 38.78130000 -47.36320000
-30.27270000 38.44440000 -30.17750000
-31.66340000 38.61030000 -30.29810000
-31.07410000 38.32150000 -28.32310000
-30.80280000 38.77450000 -32.05540000
-5.54700000 38.10740000 -49.41640000
-19.74040000 -10.41370000 -19.61530000
-24.44860000 -3.37140000 -16.91420000
-20.82620000 -3.91960000 -18.89390000
-26.83230000 23.56730000 -10.49480000
-31.21980000 27.25500000 -13.06230000
-24.94200000 27.29060000 -18.34940000
-21.52700000 25.22310000 -17.13690000
2.18020000 39.14990000 -48.96170000
-20.05380000 5.58240000 -14.75010000
-22.92060000 1.67750000 -16.67760000
-24.87240000 6.63190000 -12.86720000
-29.17880000 38.16610000 -30.21710000
-29.71900000 38.05590000 -28.14700000
-27.80880000 37.82010000 -30.04060000
-4.83230000 38.91660000 -45.24930000
-2.58440000 38.55730000 -44.07440000
-2.21620000 39.02870000 -46.64160000
-1.09370000 39.04240000 -44.49040000
-25.41030000 37.64940000 -34.02370000
-25.89060000 37.25180000 -26.32870000
-35.85810000 38.86720000 -34.26500000
-34.94540000 38.32990000 -25.70360000
-33.30450000 38.58060000 -30.91370000
-71.30030000 39.41700000 -16.06200000
-14.64350000 -0.87790000 -19.16590000
-42.81320000 39.05080000 -13.18840000
-69.89350000 42.77840000 -18.54200000
-32.46520000 38.36620000 -27.99540000
-69.78500000 43.51450000 -17.48520000
3.33460000 39.78490000 -47.14400000
-15.53610000 4.07400000 -16.00290000
-69.74190000 41.13440000 -19.86820000
-39.49090000 38.26810000 -15.99700000
-40.85830000 38.15140000 -12.57320000
-10.78160000 4.77220000 -15.55590000
-17.69240000 37.46290000 -31.41720000
-20.54650000 38.01800000 -34.94690000
-19.87870000 37.08640000 -23.78480000
-65.92700000 42.76760000 -11.62900000
10.20080000 38.17090000 -50.10490000
-1.66180000 35.52400000 -51.12550000
-16.79340000 -4.78760000 -20.63930000
-28.42900000 38.73650000 -41.72580000
-29.28250000 38.82880000 -38.97300000
-26.71930000 38.55450000 -39.77730000
-14.87290000 36.41120000 -22.38240000
-15.22750000 36.91210000 -29.61300000
-13.99610000 36.60560000 -26.86350000
-27.45100000 39.26510000 -43.58180000
-37.32110000 37.86220000 -14.80590000
-69.40020000 43.87080000 -15.69970000
-23.13230000 37.86560000 -39.48210000
-23.42000000 37.50910000 -33.19240000
-67.38040000 43.71030000 -16.24870000
-67.97240000 43.39830000 -17.14090000
-67.53340000 43.80020000 -18.04280000
-24.64160000 38.32460000 -43.38090000
-21.77640000 38.31250000 -42.15630000
-62.32520000 42.95660000 -20.51550000
-15.95690000 37.39530000 -37.49490000
-13.40320000 36.75040000 -30.39300000
-32.06340000 29.04440000 -19.53020000
-41.97620000 30.20940000 -22.89970000
-29.45830000 29.37850000 -28.35620000
-25.65960000 38.64520000 -46.74580000
-10.32830000 13.97280000 -14.32950000
-9.52210000 7.90010000 -14.81800000
-15.27570000 7.42100000 -14.62550000
-22.29570000 38.37480000 -46.83650000
-27.81570000 28.48310000 -19.91190000
-20.88230000 21.44950000 -12.16950000
-17.85410000 23.00690000 -16.18940000
-20.89010000 38.87580000 -45.08260000
-19.24420000 38.71470000 -42.58410000
-18.99990000 38.58680000 -46.68440000
-19.39350000 25.19210000 -19.18430000
-38.69140000 30.75600000 -34.62880000
-17.48610000 21.13330000 -13.60150000
-15.34100000 20.98370000 -14.59370000
-68.28790000 36.19970000 -20.45910000
-6.28010000 13.01670000 -14.17270000
-3.42130000 9.60870000 -14.01900000
-17.54290000 38.27450000 -42.76550000
-14.38190000 26.10260000 -20.46640000
-13.92480000 22.75400000 -16.66270000
-15.91280000 28.49820000 -27.78570000
-0.99790000 6.06640000 -14.55650000
-21.18530000 18.33760000 -10.95740000
-23.99970000 18.62530000 -8.31300000
-23.47160000 20.54560000 -9.18590000
-14.70780000 37.92380000 -42.36260000
-12.97880000 37.79460000 -38.34830000
-11.92460000 38.47790000 -40.74320000
-22.93580000 14.57250000 -10.71380000
-33.92510000 28.44810000 -13.81150000
-25.35750000 14.89860000 -7.94300000
-23.52980000 29.13060000 -31.60880000
-31.93700000 37.60070000 -14.22300000
-30.68460000 37.45960000 -14.43670000
-18.84960000 38.39820000 -44.82580000
-17.70560000 28.11130000 -24.41100000
-19.35070000 27.45350000 -22.25480000
-15.33960000 38.56110000 -44.58870000
1.47080000 9.33640000 -13.22430000
-33.00530000 28.16980000 -12.20550000
-17.03210000 19.52700000 -13.04810000
-39.57790000 39.73080000 -36.53990000
-41.06120000 39.62500000 -33.08900000
-41.58120000 38.97050000 -19.77600000
-11.11960000 38.72770000 -43.17230000
4.70840000 5.88230000 -14.15430000
-6.81840000 2.18450000 -17.09660000
-12.70300000 38.48040000 -44.29060000
-18.87120000 14.81070000 -12.76250000
-13.37050000 28.34600000 -25.36580000
-15.90870000 27.86150000 -23.01860000
-44.19040000 40.48800000 -38.92910000
-12.71470000 38.52350000 -46.18510000
-10.94110000 38.03990000 -44.88440000
-49.79610000 40.49320000 -19.72620000
-27.37100000 38.12610000 -34.57870000
-29.26520000 38.41560000 -32.50590000
-41.70520000 39.26550000 -25.01820000
-23.48630000 10.88720000 -11.11640000
-36.48240000 39.46850000 -39.25850000
-39.97260000 40.16570000 -40.63600000
-21.14470000 29.57690000 -40.80750000
-28.82130000 29.74520000 -35.98910000
-39.29720000 38.31640000 -21.43310000
-32.97190000 38.64050000 -34.93770000
-31.85050000 38.78510000 -33.16470000
-12.93070000 17.86120000 -14.05550000
-22.72800000 37.15190000 -25.25910000
-67.76670000 43.58820000 -19.86880000
-31.35490000 31.09420000 -43.42300000
-33.98500000 37.77280000 -18.90600000
-30.51210000 38.77160000 -34.12580000
-31.49370000 37.87010000 -16.53790000
-32.62080000 37.74810000 -16.34320000
-66.29420000 43.48760000 -23.67080000
-62.30680000 43.11530000 -26.84180000
-15.93850000 11.14470000 -13.97430000
-31.82620000 37.71930000 -18.04520000
-1.74250000 -2.04150000 -20.79670000
-28.91500000 38.47850000 -36.00410000
-30.18260000 37.36930000 -16.45630000
-67.46840000 40.79860000 -25.03890000
-66.58280000 42.72550000 -24.97590000
3.64300000 0.26220000 -19.32910000
-11.39200000 22.82520000 -16.90260000
-31.71900000 37.75800000 -22.62310000
-10.99330000 29.96530000 -42.46570000
-15.19320000 28.49750000 -33.94520000
-30.62100000 37.41700000 -19.34870000
-9.35580000 21.46560000 -15.29230000
-1.89150000 25.90090000 -17.84190000
-68.93710000 39.16260000 -21.21100000
-32.02200000 38.70020000 -40.00630000
-30.96830000 38.53680000 -36.29350000
-68.06540000 37.39490000 -23.27690000
-30.02250000 37.49400000 -21.71980000
-4.48720000 22.32790000 -14.83100000
-28.05710000 37.11980000 -20.48930000
-29.14830000 37.61540000 -24.85370000
-58.64900000 1.90330000 -0.60150000
-60.14270000 0.19020000 0.11730000
9.95770000 4.43680000 -15.60050000
-55.79640000 2.73870000 -1.62860000
-63.91610000 40.57360000 -30.68660000
-55.67700000 4.24470000 -1.59620000
-12.79610000 37.04930000 -34.13110000
-11.74080000 36.73750000 -30.91950000
-48.68230000 32.42700000 -33.61950000
-57.94670000 0.31250000 -0.88660000
-9.21840000 -4.95870000 -21.93470000
-67.93750000 39.09590000 -24.66240000
-53.52130000 5.00010000 -1.70460000
0.98300000 22.04350000 -13.09170000
-5.59740000 20.32710000 -14.19030000
-2.73020000 18.82330000 -13.69530000
-49.47460000 4.74730000 -2.58470000
-52.79440000 3.74540000 -2.34960000
1.54210000 23.83290000 -14.39620000
-66.33880000 37.49000000 -27.37500000
3.12070000 25.87200000 -16.70940000
-45.64670000 32.26080000 -38.60780000
-11.99960000 20.30720000 -14.44510000
-11.06830000 37.40290000 -34.93440000
-64.53110000 35.36520000 -26.42810000
-30.70910000 38.26780000 -47.72420000
-9.52880000 18.82560000 -14.28480000
-52.98640000 0.95280000 -2.29240000
-13.98970000 36.75720000 -49.97100000
-29.36780000 36.74980000 -48.82460000
-10.65140000 36.97620000 -31.89280000
-55.78410000 -2.50590000 -0.53960000
-17.61430000 34.56000000 -50.50190000
-30.48560000 34.79380000 -49.03620000
-51.42150000 1.08070000 -3.55960000
-49.94900000 3.29240000 -3.33450000
-53.97030000 -2.16980000 -2.22680000
-54.89530000 41.07500000 -38.21570000
-57.32740000 42.19860000 -34.64350000
-50.23890000 40.75020000 -40.84180000
-48.91010000 41.05040000 -39.49000000
-46.98850000 4.45800000 -4.47260000
-15.08240000 38.01730000 -48.88360000
-3.22490000 -6.85020000 -23.12720000
-49.27480000 2.48240000 -4.75980000
5.72610000 -6.46840000 -23.08340000
-25.68980000 31.50150000 -48.38000000
-30.40330000 31.43490000 -46.26390000
-65.67490000 36.38950000 -27.33210000
-49.37290000 1.10030000 -7.43120000
-22.89690000 32.74050000 -49.89550000
-30.96080000 32.59150000 -48.44520000
-51.77530000 -0.82290000 -5.84880000
-44.10530000 39.92920000 -43.84000000
-41.32570000 40.04370000 -43.15320000
-56.79130000 42.18570000 -29.91580000
-56.29310000 41.82320000 -21.57000000
-50.94660000 -1.91300000 -10.29170000
-19.82330000 30.51970000 -47.04760000
-55.14170000 41.61440000 -27.15650000
-47.73860000 -0.12280000 -11.92670000
-44.98840000 4.35100000 -7.01390000
-18.35310000 31.18530000 -49.22820000
-36.23820000 39.28950000 -45.90220000
-36.88840000 39.79140000 -43.24760000
-48.80070000 40.80120000 -30.41650000
-35.29930000 39.62850000 -45.00690000
-35.22660000 39.99680000 -42.87050000
-33.95230000 39.35370000 -42.68900000
-62.04730000 42.69780000 -30.65740000
-31.27240000 39.24190000 -45.13820000
-33.15540000 39.26250000 -44.36290000
1.35920000 18.27810000 -12.45250000
-60.35340000 41.79540000 -33.82090000
-50.34210000 33.58860000 -40.85980000
-55.59710000 34.45760000 -37.75320000
-54.21710000 35.07720000 -40.05830000
-9.77720000 27.94650000 -30.08520000
-1.60850000 13.77920000 -13.31550000
-28.66600000 36.67870000 -11.65610000
-63.58890000 38.24860000 -31.92750000
-49.05800000 39.48870000 -42.65150000
-36.62280000 7.84550000 -6.66740000
-13.79170000 30.93070000 -48.40680000
-45.25830000 37.34190000 -45.14060000
-50.51910000 37.10130000 -42.67790000
3.46200000 13.78940000 -11.43120000
-26.76030000 36.32280000 -9.87730000
-28.82290000 11.98870000 -4.72600000
-10.59840000 36.38950000 -23.27680000
-12.25160000 36.06910000 -20.42620000
-9.83070000 36.29140000 -20.67270000
-43.37290000 39.17400000 -45.04500000
-12.35380000 36.46230000 -25.41540000
-26.88170000 16.39890000 -5.20770000
-57.14740000 33.76980000 -28.78750000
-25.89350000 36.34770000 -12.18170000
-51.51080000 35.47020000 -42.05080000
-8.86460000 36.52360000 -23.36070000
-21.35660000 35.89420000 -10.25670000
-24.88910000 36.35700000 -16.60330000
-26.36420000 11.40790000 -8.19160000
-7.64690000 36.50820000 -21.24690000
-28.79350000 10.31730000 -7.03760000
-63.33720000 36.68620000 -32.04250000
-62.60020000 35.62840000 -31.55620000
-43.99520000 33.09530000 -44.27440000
-31.58250000 9.10330000 -6.44770000
-8.05690000 33.37540000 -51.27560000
-11.50730000 36.59160000 -28.50490000
-9.81100000 36.59190000 -26.29330000
-9.54340000 31.69640000 -50.40980000
-17.99560000 35.66080000 -8.65300000
-10.41980000 36.71750000 -29.38380000
-6.88320000 36.66650000 -24.52410000
-5.64520000 36.39190000 -18.59470000
-8.78360000 36.86440000 -28.98100000
-44.45640000 34.26850000 -45.31050000
-18.19180000 36.03940000 -13.06250000
-3.15230000 36.49870000 -22.14800000
-3.56540000 36.08860000 -15.77660000
-40.02040000 35.13940000 -47.11290000
-2.06150000 36.32860000 -17.65660000
-39.33420000 39.75490000 -41.87410000
-0.18810000 36.34730000 -15.40090000
-8.88220000 37.83300000 -36.73960000
0.63650000 37.13620000 -24.06630000
-29.31270000 7.66310000 -10.15750000
-6.23930000 37.06520000 -29.12120000
-2.85290000 36.93840000 -26.78400000
-50.29660000 31.90680000 -23.77710000
-41.87060000 4.70980000 -9.06020000
-25.94680000 9.25920000 -10.17000000
-58.51090000 39.01470000 -36.86100000
-5.02380000 38.01170000 -37.25260000
-7.72790000 38.26200000 -41.48050000
-21.85020000 36.63260000 -17.16300000
-50.71580000 32.47070000 -26.43120000
-0.76740000 37.50700000 -29.78710000
-38.40590000 37.16760000 -47.23290000
-59.34900000 36.05250000 -36.25500000
-57.58750000 36.87020000 -38.14330000
-37.15380000 4.74660000 -10.67930000
-18.90020000 36.54090000 -16.40090000
-17.54240000 36.52630000 -19.06390000
-3.29460000 38.51070000 -40.89890000
-31.73670000 5.68420000 -11.43420000
-4.13400000 37.54300000 -32.39420000
-27.81630000 36.80330000 -16.10040000
-23.11490000 8.87900000 -12.00460000
-14.05860000 35.78580000 -16.86190000
-27.02350000 3.88910000 -14.48780000
-12.31180000 27.53580000 -22.95370000
-10.37040000 28.66280000 -25.72590000
-43.45780000 2.11600000 -12.83300000
-8.58220000 28.25130000 -23.64970000
-0.99540000 38.19800000 -35.86090000
-40.57530000 33.29280000 -46.31910000
2.64660000 39.25370000 -41.54000000
-35.28650000 32.40110000 -46.64520000
-39.69080000 2.34820000 -14.23150000
-4.38880000 29.01770000 -26.57570000
-4.99650000 28.74680000 -23.89360000
-1.31790000 28.84640000 -22.01070000
-5.71240000 27.61050000 -20.87400000
-49.47160000 41.28780000 -34.01690000
-31.08460000 39.23610000 -42.21270000
0.05520000 29.18070000 -25.18200000
-43.57040000 0.00270000 -15.28960000
-30.03840000 39.33700000 -40.94890000
-19.39330000 7.76330000 -13.65940000
3.34720000 29.18090000 -22.22430000
-29.24090000 39.20490000 -43.47130000
-31.70470000 39.76520000 -43.58140000
0.50880000 29.63890000 -27.90670000
4.04450000 29.91550000 -24.83690000
-7.54330000 28.28020000 -33.92770000
-13.50770000 35.63780000 -13.60210000
-54.89890000 39.67520000 -39.24010000
-28.62840000 39.10760000 -45.54130000
-12.57000000 35.46110000 -16.70580000
-35.66150000 3.29260000 -13.24870000
-32.24810000 3.72310000 -12.71950000
-28.54800000 1.83170000 -14.58240000
-30.58560000 0.69340000 -15.00080000
-34.87610000 1.87850000 -15.29430000
-9.13050000 37.23260000 -32.43160000
-4.14400000 31.00340000 -46.14220000
-2.62130000 29.92870000 -39.62850000
-46.69190000 -3.66060000 -16.27540000
-41.14020000 -1.15430000 -17.35620000
-2.23930000 29.14320000 -35.36590000
-2.26920000 28.57330000 -32.60790000
-11.35160000 35.77470000 -14.07810000
-0.32760000 29.53150000 -33.19690000
-7.24030000 35.61290000 -9.76280000
-36.25540000 0.28220000 -17.00140000
-37.75900000 -1.58110000 -18.32350000
3.81590000 30.46060000 -35.67320000
-38.84980000 -3.98460000 -19.59270000
-42.66700000 -4.74070000 -19.04530000
-2.45240000 35.79030000 -9.94820000
4.62820000 38.71430000 -35.20840000
3.58810000 36.59430000 -13.02550000
5.35710000 31.05290000 -40.25810000
1.06230000 31.52970000 -45.13770000
-31.93250000 -0.90910000 -16.91850000
-35.81420000 33.66670000 -47.75340000
-10.67900000 26.49360000 -21.11110000
-34.65880000 -2.80340000 -19.09240000
-31.94770000 -5.22830000 -19.66170000
-27.68650000 -3.80130000 -17.38310000
-7.10510000 28.45920000 -28.98760000
-8.85020000 36.16270000 -16.91440000
-11.15280000 35.93430000 -17.87200000
-1.23350000 32.13920000 -50.00540000
-0.20470000 33.17820000 -51.18650000
-25.56450000 19.98880000 -6.14540000
8.31880000 32.82030000 -45.46670000
-1.79830000 29.11620000 -30.28710000
-2.26700000 29.54240000 -27.39700000
-1.62920000 36.17170000 -14.67890000
4.93210000 30.21050000 -27.16010000
2.16270000 29.95170000 -30.14720000
2.78340000 35.13160000 -51.20940000
3.54390000 29.90650000 -32.20220000
-25.43040000 -5.06240000 -17.18140000
8.48960000 35.03080000 -50.37370000
7.71740000 33.94750000 -49.79610000
-31.45430000 38.05520000 -26.03560000
10.51490000 8.85480000 -11.09250000
21.18680000 41.81830000 -39.06660000
42.10900000 46.52160000 -36.98240000
28.96490000 44.07610000 -43.70690000
32.57430000 12.77550000 -8.91860000
36.67250000 11.81490000 -9.92430000
31.59330000 8.75920000 -11.96370000
39.48990000 46.03280000 -39.85570000
57.21010000 41.72880000 -20.77880000
61.73190000 41.93590000 -13.77460000
59.68340000 40.73870000 -13.23620000
60.20620000 43.31390000 -18.75890000
61.42730000 45.33570000 -14.77200000
63.20590000 43.50700000 -10.62480000
10.90080000 26.45410000 -11.25110000
15.26360000 29.35440000 -12.09880000
40.82460000 12.49230000 -10.08600000
39.53500000 9.40480000 -10.83720000
31.65900000 44.02690000 -44.56980000
3.90310000 28.70430000 -20.25070000
6.72680000 29.79350000 -20.99850000
7.85230000 28.07590000 -16.44090000
44.32200000 35.35880000 -8.89300000
32.27540000 38.78920000 -43.11650000
36.79810000 39.56430000 -39.68690000
32.98810000 38.17580000 -39.92120000
19.08190000 7.50840000 -12.35390000
9.33920000 22.38750000 -7.73300000
8.44470000 24.36970000 -9.81220000
11.74780000 25.42080000 -7.80430000
37.41230000 40.11280000 -42.89380000
53.15200000 38.80980000 -14.99340000
20.82540000 42.18410000 -46.19090000
9.73200000 19.96090000 -6.47640000
10.05070000 29.52790000 -16.72120000
44.05120000 12.17120000 -10.32010000
60.43140000 47.87980000 -9.58420000
60.14530000 47.55560000 -13.66570000
44.37530000 7.84230000 -10.95390000
46.57600000 13.52830000 -10.76580000
16.84250000 40.53050000 -48.46270000
22.86540000 40.47300000 -48.05280000
32.24960000 42.89420000 -45.47810000
63.40460000 45.52450000 -7.18460000
57.67900000 47.67250000 -21.78510000
10.41660000 30.70870000 -21.48110000
59.76660000 13.73090000 1.46070000
60.55640000 11.82980000 3.28020000
28.03000000 42.06680000 -27.86440000
34.62590000 42.19590000 -15.73650000
41.83500000 45.56840000 -29.93500000
59.23720000 10.39880000 -0.19430000
59.91950000 9.54340000 2.26110000
61.50690000 9.73620000 5.23580000
27.26080000 39.84110000 -47.18460000
17.97080000 36.72670000 -48.84770000
12.62660000 18.86330000 -1.57740000
24.90840000 37.61040000 -46.72890000
60.31770000 8.01730000 2.93860000
9.07730000 31.07620000 -27.38080000
12.09160000 30.80180000 -18.75190000
13.56150000 15.30550000 -2.90850000
14.79670000 15.62840000 0.78710000
57.93700000 15.11590000 -0.90020000
58.81980000 11.94290000 -1.30210000
10.80110000 18.05470000 -4.93950000
14.65280000 31.01890000 -18.97290000
13.81980000 30.35580000 -17.38710000
56.08770000 13.59070000 -4.52390000
37.34260000 44.31100000 -43.12890000
39.80680000 45.45640000 -40.85170000
16.61320000 30.98840000 -18.69760000
33.02540000 39.83650000 -44.70810000
11.90160000 16.38070000 -3.89390000
57.91960000 8.09540000 -0.86520000
35.09230000 42.17790000 -44.68850000
36.17880000 40.89780000 -43.99560000
50.28820000 47.44870000 -25.27150000
51.24440000 46.51910000 -16.32110000
9.52770000 14.23890000 -7.61360000
60.34130000 4.05450000 1.67040000
11.89710000 14.62920000 -5.47370000
18.35060000 3.06750000 -17.16260000
12.94550000 31.87680000 -27.23500000
63.42890000 3.91060000 4.82560000
13.97000000 31.56280000 -24.62340000
18.07090000 32.84800000 -26.48730000
19.59460000 31.48930000 -18.84160000
12.14750000 37.61280000 -16.07140000
8.93000000 37.78600000 -20.00370000
15.16130000 32.35620000 -26.63950000
17.31050000 32.37550000 -28.49400000
4.97550000 23.20320000 -11.50280000
5.14500000 24.70960000 -13.43440000
57.44450000 4.80640000 -0.83790000
6.18260000 22.21300000 -10.51960000
10.82590000 38.28430000 -22.75810000
8.33280000 39.10220000 -34.95200000
10.60040000 38.98150000 -30.04530000
10.75330000 40.04050000 -37.62170000
17.21750000 39.50090000 -24.66040000
9.93790000 40.10700000 -40.60410000
11.98070000 38.62450000 -25.97960000
65.30560000 1.37740000 5.85430000
61.95070000 1.13650000 2.09290000
63.26380000 -0.76170000 3.79090000
13.39500000 32.35260000 -39.76990000
13.13810000 -0.84720000 -20.44160000
11.86690000 40.36650000 -40.85640000
12.80470000 39.62450000 -35.27850000
12.55130000 -4.02960000 -22.25800000
12.32350000 29.10930000 -14.27740000
18.87740000 33.44310000 -38.76070000
16.97240000 32.24430000 -34.15010000
22.14570000 34.54200000 -37.67250000
54.94330000 8.42800000 -5.30230000
54.68430000 4.28300000 -3.64000000
51.64440000 6.41440000 -7.93590000
49.13780000 8.69580000 -10.07540000
52.24600000 13.40950000 -8.98480000
17.58410000 34.41750000 -44.45220000
13.67060000 39.00650000 -27.19230000
55.89180000 11.33470000 -5.22580000
15.68910000 29.95720000 -14.74370000
19.53950000 30.25180000 -10.82710000
19.09940000 -1.10940000 -20.14060000
50.54320000 47.77890000 -29.48250000
14.89730000 40.35690000 -36.62050000
6.52910000 31.27820000 -35.13660000
11.03860000 31.77690000 -34.74300000
17.50370000 -9.55400000 -23.32420000
18.78250000 -4.72900000 -21.90290000
20.54380000 40.68820000 -30.90480000
25.52930000 8.21010000 -12.19380000
5.56420000 18.85620000 -10.11090000
7.66990000 30.67860000 -29.76310000
9.66190000 31.39580000 -31.12910000
55.30660000 1.06210000 -2.65810000
52.05200000 -2.18660000 -4.45080000
26.23950000 2.95310000 -16.37990000
58.21130000 2.05840000 -0.93090000
7.75040000 16.04920000 -8.31170000
49.47160000 48.03400000 -33.81500000
51.11740000 48.07770000 -32.34190000
51.30930000 48.31270000 -31.04260000
53.54040000 -3.50610000 -2.55890000
7.56370000 30.85020000 -32.48210000
45.40260000 47.01890000 -37.02200000
49.87920000 46.62650000 -34.06040000
6.83850000 13.47510000 -9.77990000
22.19720000 39.27230000 -15.29500000
8.43490000 31.48460000 -33.45250000
12.11930000 34.07240000 -47.68130000
13.83070000 34.05120000 -45.44580000
42.39590000 38.92400000 -27.89800000
51.44470000 42.46080000 -30.76550000
47.46120000 38.46710000 -19.35520000
12.02690000 36.83370000 -50.20770000
46.57970000 43.07540000 -36.98700000
52.63640000 43.44390000 -31.23500000
48.25970000 1.69660000 -9.38100000
44.40120000 40.42230000 -32.75580000
45.54090000 41.73330000 -35.37610000
14.31420000 32.28440000 -28.82610000
46.49280000 -2.94070000 -8.67090000
56.67750000 48.67680000 -21.15580000
60.66100000 -0.61490000 0.78410000
57.21300000 -0.71460000 -1.25080000
58.38140000 -3.69450000 1.10870000
25.71520000 32.15790000 -14.56360000
24.31220000 36.29720000 -42.68390000
36.36840000 6.73690000 -12.05780000
18.63550000 35.81030000 -46.85440000
16.69750000 35.39600000 -48.29400000
54.78330000 48.47690000 -24.43960000
54.26760000 48.88700000 -25.88440000
21.93380000 40.58510000 -27.11160000
55.47040000 48.57090000 -25.05060000
53.15320000 48.50200000 -28.92200000
33.35320000 0.84170000 -15.07820000
28.42500000 -2.65550000 -18.14350000
40.95090000 3.59630000 -11.53980000
55.63520000 47.44260000 -26.45240000
56.98530000 45.25750000 -26.27110000
31.19740000 -9.06670000 -19.07120000
36.76190000 -7.60790000 -15.08290000
59.26230000 45.18690000 -21.41220000
48.92140000 13.34850000 -10.85080000
56.12060000 43.42020000 -26.71370000
58.37410000 42.72540000 -21.83660000
23.63770000 -7.31530000 -21.21110000
45.82280000 4.02060000 -10.74970000
22.50570000 15.37370000 0.78950000
27.30160000 17.42100000 1.14260000
53.09370000 47.16300000 -30.10420000
35.56230000 35.54980000 -20.19920000
39.07970000 -0.46910000 -12.78690000
32.80700000 18.03620000 -1.15800000
24.84900000 15.29360000 -1.35130000
31.71380000 36.87860000 -34.47620000
53.84770000 45.10730000 -30.34650000
28.91630000 37.45870000 -41.68240000
22.91560000 14.44460000 -2.71160000
29.62470000 14.49430000 -6.13120000
44.97050000 23.70780000 1.11270000
47.24530000 24.99920000 1.23430000
48.82850000 22.33290000 0.88360000
36.00520000 17.40930000 -4.94780000
50.01240000 44.61820000 -34.72290000
22.80550000 33.56390000 -27.22950000
42.85180000 -5.47130000 -10.92330000
44.65450000 -0.23130000 -10.43460000
16.00360000 14.87370000 0.69670000
14.91600000 14.13950000 -3.04520000
16.90260000 14.25580000 -1.06530000
13.19930000 12.26270000 -6.73100000
18.01630000 12.98860000 -4.34610000
10.33970000 11.95180000 -8.66800000
39.92440000 19.55180000 -2.82210000
44.56630000 21.87490000 0.41850000
7.39720000 10.35030000 -10.79850000
44.73940000 20.31840000 -1.84680000
46.55640000 21.72350000 -0.25060000
47.97830000 20.00640000 -1.62560000
41.28890000 18.42920000 -4.94550000
11.39200000 40.43460000 -43.49310000
43.48890000 17.74230000 -5.75630000
9.42870000 40.30520000 -44.74150000
46.54200000 18.00530000 -5.87210000
49.11230000 18.55970000 -3.87950000
21.55450000 40.70120000 -29.95370000
39.23750000 16.71480000 -6.95450000
15.64330000 11.21300000 -7.43610000
22.88360000 41.25160000 -31.53560000
40.78940000 14.72380000 -8.79340000
14.38180000 41.40540000 -44.48970000
40.30630000 39.96430000 -35.37420000
40.51500000 40.29130000 -38.55310000
64.40980000 43.54140000 -5.43720000
41.80940000 41.54920000 -39.81300000
64.25210000 41.57230000 -6.12170000
22.20580000 33.65970000 -31.01570000
39.93360000 43.07600000 -42.32870000
10.86590000 40.81450000 -46.75740000
13.98800000 41.01710000 -47.55350000
19.09730000 15.11820000 0.94240000
45.51240000 45.03050000 -38.29570000
42.13420000 42.75810000 -40.74750000
49.85000000 18.04830000 -6.84770000
48.38170000 17.88550000 -8.37900000
19.91370000 14.63420000 -1.18940000
40.21420000 40.31230000 -40.27160000
44.66050000 16.55230000 -7.61270000
38.90280000 40.54680000 -41.62110000
46.75000000 16.98170000 -8.82470000
48.12980000 16.89930000 -10.15430000
50.01990000 17.74120000 -9.79170000
49.66620000 16.73600000 -10.69090000
45.05640000 15.11580000 -9.43310000
22.08230000 11.87860000 -7.15700000
51.98370000 19.22920000 -1.19110000
55.29970000 18.71140000 0.74840000
52.57220000 17.37550000 -3.96150000
54.60910000 15.85390000 -4.65620000
66.92930000 4.56150000 7.12910000
52.39090000 17.36720000 -5.88520000
65.35620000 -2.31570000 6.88940000
52.34970000 16.65490000 -8.35030000
51.01470000 17.90200000 -8.78070000
51.26010000 16.50470000 -9.97270000
-34.66020000 -12.56670000 -21.62870000
-35.02670000 -8.49860000 -21.05260000
-31.75320000 -10.20120000 -21.26890000
-17.65440000 -38.66870000 -35.42940000
-16.61610000 -38.19400000 -33.22600000
-13.45120000 -38.20690000 -35.40720000
-30.95530000 -13.02260000 -21.25920000
-11.47340000 -39.38500000 -36.58180000
-13.15040000 -37.92070000 -31.94940000
-15.85880000 -12.76240000 -22.18630000
-19.70210000 -18.48190000 -20.33740000
-27.44630000 -12.41590000 -20.04860000
-18.31040000 -17.87430000 -21.62670000
-14.51630000 -26.34620000 -22.91540000
-14.55590000 -21.89040000 -23.95460000
-10.82900000 -23.53060000 -24.65150000
-58.47500000 -4.66000000 0.99930000
-41.69460000 -19.65700000 -19.71330000
-44.61860000 -18.99910000 -19.05940000
-42.72120000 -13.11010000 -20.31110000
-12.41730000 -47.71540000 3.06720000
-17.37330000 -47.74820000 -9.40970000
-5.06370000 -47.51860000 3.29400000
-9.92340000 -27.58000000 -23.31500000
-39.70910000 -14.40340000 -20.96360000
-7.37690000 -21.21040000 -25.04970000
-6.59630000 -25.48970000 -24.53300000
-3.99610000 -22.95220000 -24.64090000
-56.80420000 -7.26030000 -0.37270000
-54.09540000 -3.88840000 -4.28570000
-14.71410000 -18.56620000 -23.83330000
-11.48680000 -18.96920000 -24.64810000
-13.28610000 -29.48960000 -21.89420000
-7.69390000 -29.67730000 -22.64950000
-17.92600000 -20.40240000 -22.20080000
-21.44400000 -21.14860000 -19.57950000
-56.10380000 -9.89640000 -4.93690000
-36.38490000 -17.25560000 -20.79620000
-31.86100000 -15.56740000 -20.77510000
7.32130000 -47.73660000 -16.40800000
0.79000000 -47.45650000 2.49840000
-34.36640000 -44.63120000 -36.66150000
-44.18300000 -43.61180000 -35.62680000
-39.95280000 -41.67160000 -36.25250000
-3.14720000 -27.51430000 -23.75630000
-44.94360000 -45.44090000 -34.73880000
-33.62280000 -46.46320000 -34.90060000
-48.27530000 -45.84880000 -33.24060000
-31.57030000 -47.08240000 -22.17420000
-11.07690000 -10.35670000 -23.33580000
-0.03220000 -24.04760000 -23.42280000
-54.11300000 -5.77460000 -7.38640000
-31.98610000 -20.40720000 -19.07470000
-34.27530000 -45.94320000 -36.14980000
-2.62090000 -29.24240000 -22.97420000
-58.28230000 -9.43980000 1.75080000
-6.61730000 -9.87910000 -24.02210000
1.47400000 -26.95200000 -22.56780000
-57.68020000 -11.85300000 -1.34850000
-58.05530000 -12.43310000 1.37590000
-27.26640000 -17.48230000 -19.03080000
3.51610000 -28.58600000 -22.32020000
-11.04310000 -31.28570000 -22.20370000
-12.29500000 -33.62100000 -23.26000000
-16.14850000 -31.86930000 -21.36920000
-31.32900000 -42.16410000 -37.07460000
-35.75980000 -39.77980000 -36.29700000
-57.40280000 -18.53520000 -2.90630000
-7.23710000 -15.44040000 -24.78340000
-1.76800000 -11.26460000 -24.12370000
-57.08940000 -14.11330000 -4.66560000
-3.10060000 -31.44660000 -22.77610000
3.12680000 -32.27090000 -23.18830000
-6.49810000 -34.28900000 -24.74860000
-10.14960000 -36.21740000 -27.42010000
-15.75280000 -35.31460000 -25.23510000
-52.56510000 -3.06900000 -8.44340000
-51.91720000 -5.49230000 -11.89950000
-51.08590000 -28.11960000 -12.90040000
-53.78670000 -22.24930000 -9.90110000
-51.46950000 -21.08580000 -13.79780000
-49.06530000 -23.65630000 -15.94830000
-54.24590000 -8.42530000 -9.46290000
-13.42490000 -37.43740000 -29.48560000
-46.02990000 -27.27170000 -17.16810000
-47.06990000 -20.68820000 -17.85320000
-17.62590000 -45.21290000 -37.01590000
-4.07580000 -36.17880000 -28.32560000
-48.23000000 -29.13190000 -15.14880000
-51.66910000 -29.91440000 -11.04650000
-53.40880000 -29.96510000 -8.12180000
-52.93710000 -26.99440000 -10.36020000
-49.73620000 -4.10600000 -14.16390000
-51.03970000 -6.67410000 -14.05840000
3.84900000 -11.07840000 -23.45220000
-0.41310000 -17.85640000 -24.21900000
5.84750000 -15.00890000 -23.03350000
2.83280000 -34.36080000 -25.15190000
-51.56330000 -32.00730000 -10.96220000
-53.15420000 -31.91300000 -8.69880000
-53.26340000 -9.77830000 -11.82700000
-53.48300000 -33.79900000 -9.75760000
-54.70840000 -33.19000000 -7.01070000
-56.32610000 -17.84430000 -6.47320000
-49.36640000 -31.54880000 -13.19120000
-26.41930000 -21.61610000 -17.18020000
-28.12800000 -24.59460000 -15.92720000
-34.56800000 -25.35010000 -17.08060000
-26.06090000 -24.21870000 -16.21900000
-55.06430000 -13.73770000 -9.22560000
-33.25760000 -26.94370000 -16.51570000
-52.52250000 -37.40350000 -23.37910000
-54.76700000 -37.76660000 -30.15570000
-57.53240000 -37.57060000 -22.13100000
-48.91710000 -34.61040000 -14.32030000
-48.10230000 -33.23980000 -13.72620000
-52.60110000 -35.55340000 -13.97530000
-57.55710000 -37.99010000 -29.26350000
-59.28260000 -37.90480000 -20.23640000
-59.10700000 -38.55580000 -27.87930000
-58.77830000 -39.11490000 -29.97560000
-11.39520000 -36.97000000 -29.70240000
-57.10750000 -38.36270000 -31.22090000
-57.30780000 -39.42650000 -31.90870000
-10.49620000 -37.44440000 -30.04210000
-5.38970000 -37.28970000 -29.87420000
-45.24370000 -29.67960000 -16.31040000
-45.34100000 -32.32420000 -15.15640000
-24.54290000 -22.62970000 -17.14760000
-24.41560000 -19.37880000 -18.00170000
-7.99810000 -37.93360000 -31.93200000
-7.22670000 -37.90570000 -33.89050000
-20.99730000 -25.01690000 -19.41070000
-51.26390000 -13.26360000 -14.64440000
-23.51800000 -25.96750000 -17.43730000
-43.62020000 -34.43600000 -16.54920000
-52.50630000 -36.88700000 -18.43610000
-43.85880000 -36.84810000 -22.96160000
-29.12390000 -26.13270000 -15.91570000
-25.59070000 -26.91350000 -16.88240000
-52.86130000 -16.17040000 -13.01270000
-46.42600000 -36.02910000 -17.92340000
-29.40300000 -27.96180000 -16.84060000
-5.40280000 -38.65160000 -35.63910000
-5.82360000 -47.34730000 6.44010000
-11.15220000 -47.80690000 7.74450000
-37.23220000 -37.74590000 -30.89180000
-3.85580000 -46.83200000 4.71690000
-26.20200000 -30.82210000 -19.26260000
-20.99080000 -28.53280000 -19.36150000
-58.22430000 -37.06270000 -13.54970000
-59.51390000 -37.15130000 -9.10240000
-56.16980000 -34.90310000 -7.86690000
-54.33570000 -38.34420000 -32.34600000
-54.23190000 -39.80660000 -33.39140000
-2.39980000 -37.45910000 -31.41810000
1.72390000 -36.23830000 -28.43250000
-55.26780000 -35.19100000 -10.43830000
-1.44400000 -47.08660000 3.84190000
-0.32490000 -46.73750000 5.12960000
-56.40890000 -25.99980000 -2.06200000
-46.15400000 -38.30000000 -34.17370000
-56.61020000 -27.76380000 1.73160000
-18.54000000 -23.74130000 -21.68460000
-49.26720000 -39.56080000 -34.65910000
3.07480000 -37.87400000 -33.31010000
4.53740000 -36.94880000 -29.37010000
-61.55700000 -40.04900000 -6.57880000
-61.08260000 -38.54460000 1.85540000
-61.10710000 -39.06230000 -12.97150000
-44.02540000 -26.21810000 -17.95590000
-37.20140000 -38.20560000 -34.37750000
-61.46500000 -43.12120000 -14.32640000
-38.86280000 -23.47360000 -19.18460000
-17.68400000 -26.44840000 -21.50900000
-39.96880000 -27.57950000 -17.73440000
-17.35390000 -29.74640000 -20.67420000
-42.21260000 -29.61790000 -17.09400000
-38.56550000 -29.21160000 -17.15130000
-55.07210000 -30.80000000 5.27290000
-61.91410000 -41.41980000 -14.98070000
-20.00970000 -39.96030000 -36.75170000
-55.25580000 -31.33250000 1.61970000
-14.89660000 -47.23020000 -35.44340000
-5.55590000 -43.07430000 -36.98810000
-34.60760000 -30.60330000 -17.36870000
-40.00260000 -36.81560000 -22.99770000
-35.59240000 -37.34450000 -26.74060000
3.17060000 -40.93200000 -36.92020000
4.67960000 -39.55790000 -36.39570000
-31.20620000 -32.37220000 -18.52870000
-60.60300000 -45.34410000 -16.52610000
-60.43540000 -46.05950000 -5.40690000
-37.63780000 -35.80810000 -20.48190000
-34.47630000 -36.76410000 -24.54350000
-55.24010000 -26.59330000 -5.66590000
-31.85190000 -36.59790000 -23.01360000
-27.47740000 -34.29630000 -20.95010000
-20.22610000 -32.67680000 -21.51790000
-30.68010000 -36.85000000 -25.70690000
-60.15530000 -38.94140000 -22.38660000
-60.87980000 -43.61920000 -20.02220000
-60.09350000 -43.78380000 -25.50800000
-39.97010000 -32.06950000 -16.69910000
-59.50350000 -45.15050000 -26.93900000
-59.20340000 -45.70770000 -22.97360000
-24.75220000 -37.49550000 -29.46900000
-39.71670000 -33.63520000 -17.10310000
-60.60360000 -41.00330000 -23.31880000
-59.43400000 -41.02450000 -29.17960000
-58.65230000 -40.83570000 -30.86430000
