-1.47310000 3.26190000 -5.74130000
-0.82600000 3.32580000 -5.70830000
-1.72470000 3.35790000 -5.44950000
-1.23350000 3.34140000 -5.66340000
-2.10420000 3.32110000 -5.66190000
-1.57870000 3.36930000 -5.32220000
-1.12010000 3.38510000 -5.27440000
-1.79490000 3.34020000 -5.23290000
-1.62150000 3.30630000 -5.72770000
-2.36950000 3.28040000 -5.71830000
0.29670000 3.42950000 -5.09090000
-4.18430000 1.49180000 -1.70380000
-4.22720000 1.62880000 -1.95450000
-4.23810000 1.68450000 -1.76720000
-4.26130000 1.64560000 -2.15040000
-4.25870000 1.64560000 -2.56400000
-4.22770000 1.73510000 -2.31080000
-4.27160000 1.88380000 -2.03790000
-4.22320000 1.91460000 -2.22790000
-4.22160000 1.74680000 -2.57550000
-4.18480000 1.81480000 -2.49730000
-4.23600000 1.83200000 -2.76660000
-4.21430000 1.92580000 -2.41670000
-4.22430000 1.91950000 -2.65100000
-4.19670000 1.98080000 -2.24020000
-4.21280000 2.04880000 -2.27400000
-4.26510000 2.06760000 -2.42570000
-4.26620000 2.06680000 -2.78970000
-4.27560000 2.20230000 -2.39550000
-4.26810000 2.14820000 -3.01410000
-4.23200000 2.38600000 -2.37870000
-4.28230000 1.76900000 -3.04720000
-4.25420000 1.84710000 -2.90550000
-4.22830000 1.88960000 -3.02860000
-4.23280000 1.97790000 -2.95190000
-4.26590000 1.98660000 -3.22910000
-4.24300000 2.00350000 -3.12610000
-4.22990000 2.03710000 -3.72230000
-4.24570000 2.28320000 -3.17840000
-4.20740000 2.41500000 -2.89980000
-4.21230000 2.27530000 -3.68330000
-4.24210000 2.57960000 -2.93340000
-4.23800000 2.50660000 -3.22310000
-4.22390000 2.54350000 -3.44720000
-4.20550000 2.61640000 -3.30230000
-4.25850000 2.65840000 -3.14550000
-4.23360000 1.39980000 -0.61010000
-4.21380000 1.41740000 -0.94020000
-4.19820000 1.52840000 -0.92970000
-4.26310000 1.80670000 -1.08310000
-4.20070000 1.52620000 -1.19360000
-4.15550000 1.62210000 -1.16300000
-4.22900000 1.74980000 -1.14980000
-4.26530000 1.96040000 -0.57000000
-4.28500000 1.97810000 -1.00110000
-4.28650000 2.06370000 -1.22960000
-4.28210000 2.20800000 -0.82020000
-4.26520000 2.24730000 -0.99340000
-4.26730000 1.74000000 -1.49490000
-4.22590000 1.58580000 -1.50450000
-4.22340000 1.66380000 -1.35050000
-4.15390000 1.75340000 -1.34730000
-4.18640000 1.84980000 -1.31730000
-4.24830000 1.81410000 -1.44610000
-4.20700000 1.90220000 -1.41630000
-4.26510000 1.99840000 -1.69640000
-4.26610000 1.88530000 -1.77860000
-4.24310000 2.06790000 -1.42890000
-4.26500000 2.09530000 -1.17970000
-4.23100000 2.09590000 -1.09340000
-4.21090000 2.17130000 -1.09370000
-4.19470000 2.19080000 -1.19540000
-4.25640000 2.29700000 -1.31990000
-4.26860000 2.31090000 -1.49610000
-4.22580000 2.28330000 -1.14050000
-4.22030000 2.34350000 -1.27090000
-4.27270000 2.02240000 -1.57720000
-4.22760000 2.18510000 -1.61340000
-4.24250000 2.05170000 -1.86380000
-4.26650000 2.03070000 -1.96750000
-4.23830000 2.17270000 -1.90690000
-4.24990000 2.18320000 -1.74740000
-4.21440000 2.40850000 -1.71610000
-4.21340000 2.29880000 -1.84770000
-4.24250000 2.39800000 -0.30540000
-4.25450000 2.52540000 -0.46530000
-4.25510000 2.45590000 -0.82000000
-4.24100000 2.67290000 -0.75950000
-4.23610000 2.60800000 -1.14090000
-4.19820000 2.68960000 -0.47980000
-4.20060000 2.68940000 -0.27460000
-4.17730000 2.77780000 -0.12670000
-4.16710000 2.79910000 -0.34270000
-4.19560000 2.81010000 -0.80930000
-4.23040000 2.92920000 -1.39270000
-4.24870000 2.45420000 -1.20390000
-4.25660000 2.52510000 -1.38460000
-4.25480000 2.52670000 -1.62540000
-4.21480000 2.56950000 -1.93430000
-4.18720000 2.77890000 -1.52120000
-4.20450000 2.66750000 -1.49850000
-4.22980000 2.60670000 -1.60960000
-4.21350000 2.73170000 -1.80450000
-4.16520000 2.73210000 -1.64860000
-4.21080000 2.82210000 -1.32100000
-4.21140000 2.83600000 -1.82880000
-4.19940000 3.04770000 -1.43890000
-3.92930000 3.23040000 -1.35110000
-3.84760000 3.33840000 -0.47920000
-3.82620000 3.36100000 -1.38230000
-3.68200000 3.38330000 -1.49730000
-3.48970000 3.43150000 -0.98910000
-4.11710000 3.15740000 -1.02860000
-4.15480000 3.09920000 -2.44990000
-3.99370000 3.19340000 -2.03030000
-3.87930000 3.28130000 -2.02050000
-3.79050000 3.37850000 -0.63530000
-1.79020000 3.23650000 -0.20030000
-2.33510000 3.20780000 -0.23450000
-1.94020000 3.21980000 0.21460000
-2.40260000 3.19660000 -1.22310000
-1.94060000 3.22150000 -0.63430000
-2.53220000 3.19380000 -1.04480000
-2.01570000 3.21850000 -1.24850000
-1.61940000 3.23830000 -0.98200000
-3.43990000 3.42080000 -0.24270000
-3.37140000 3.38900000 0.19530000
-3.37000000 3.36830000 0.00570000
-3.13070000 3.36290000 0.12900000
-3.25510000 3.35760000 -0.35580000
-3.07200000 3.39980000 -0.16430000
-2.88790000 3.43220000 0.03690000
-3.34860000 3.37490000 -0.61160000
-3.07160000 3.38760000 -0.42900000
-3.17540000 3.38610000 -0.64560000
-2.75400000 3.47320000 -0.22280000
-2.38190000 3.36020000 0.22720000
-2.39030000 3.24380000 -0.09240000
-2.42400000 3.42990000 0.23990000
-2.51230000 3.46160000 -0.07040000
-2.43650000 3.40780000 -0.09820000
-2.45130000 3.32040000 -0.39520000
-2.48640000 3.45400000 -0.30110000
-2.63220000 3.48770000 -0.36820000
-2.65490000 3.43710000 0.28980000
-2.92450000 3.30690000 -1.09990000
-2.86650000 3.22380000 -1.13010000
-2.96940000 3.22930000 -1.46050000
-2.98810000 3.28880000 -1.32720000
-3.02270000 3.36330000 -1.20210000
-2.45160000 3.21540000 -0.67840000
-2.57850000 3.22930000 -0.96300000
-2.55720000 3.32880000 -0.78900000
-2.74040000 3.26030000 -1.02090000
-2.70270000 3.36280000 -0.93170000
-2.81780000 3.20100000 -1.60880000
-2.71600000 3.20480000 -1.10820000
-2.76180000 3.44930000 -0.85060000
-2.86430000 3.35220000 -1.00420000
-2.94760000 3.40170000 -0.99680000
-2.63690000 3.41810000 -0.80690000
-2.63420000 3.45310000 -0.59280000
-3.18080000 3.35760000 -1.02950000
-3.50180000 3.44110000 -0.21590000
-3.37130000 3.36020000 -1.28560000
-2.90130000 3.44480000 -0.55770000
-2.93280000 3.43440000 -0.85030000
-3.45020000 3.40570000 -1.41180000
-2.50460000 3.39940000 -0.51490000
-4.24040000 2.12370000 -2.11510000
-4.23990000 2.42220000 -1.88940000
-4.25130000 2.27940000 -2.14250000
-4.20340000 2.52470000 -2.34000000
-3.21470000 3.14220000 -2.96660000
-3.03060000 3.25080000 -2.81080000
-2.82020000 3.25340000 -3.00990000
-4.21780000 2.68330000 -2.04850000
-4.18070000 2.66190000 -2.29300000
-4.23250000 2.58950000 -2.68510000
-4.20500000 2.64960000 -2.54950000
-4.19370000 2.77180000 -2.29010000
-4.19660000 2.78170000 -2.62100000
-4.22770000 2.90560000 -2.33070000
-4.07920000 3.14200000 -3.08510000
-3.16950000 3.27780000 -1.73330000
-3.35000000 3.26640000 -1.90290000
-3.20540000 3.32700000 -1.50920000
-3.04010000 3.25700000 -2.38980000
-3.27470000 3.22750000 -2.14580000
-3.40600000 3.21530000 -2.14690000
-3.42610000 3.27120000 -2.03510000
-3.44320000 3.27880000 -2.40830000
-3.40090000 3.34210000 -1.75130000
-3.83230000 3.32970000 -2.43640000
-3.62940000 3.36400000 -2.83450000
-3.47120000 3.37030000 -2.24730000
-3.51090000 3.41080000 -2.17380000
-4.19440000 2.70770000 -2.69600000
-4.23840000 2.76060000 -2.88840000
-4.23070000 2.86730000 -2.72620000
-4.21500000 2.97350000 -3.10030000
-4.21200000 2.79090000 -3.17690000
-4.18190000 2.75460000 -3.40830000
-4.20830000 2.90360000 -3.41900000
-4.15620000 3.05900000 -3.72510000
-3.89670000 3.22910000 -3.10140000
-3.86190000 3.29680000 -2.95890000
-3.80190000 3.32800000 -3.33180000
-3.22860000 3.24220000 -2.46940000
-3.39470000 3.24040000 -2.32020000
-3.43480000 3.21980000 -2.67700000
-3.37580000 3.18990000 -2.68090000
-3.42200000 3.13850000 -2.85640000
-3.26750000 3.18850000 -2.79140000
-3.36730000 3.10400000 -2.89900000
-3.43150000 3.13470000 -3.17960000
-3.37840000 3.08020000 -3.06550000
-3.50110000 3.35010000 -2.82860000
-3.43890000 3.23510000 -3.52020000
-3.50620000 3.34450000 -3.14340000
-2.91810000 3.23440000 -2.32760000
-2.75490000 3.23270000 -2.36160000
-2.56520000 3.18220000 -1.75850000
-2.26550000 3.20870000 -1.66030000
-2.44020000 3.20560000 -2.03210000
-2.54650000 3.21230000 -2.23300000
-2.29460000 3.23390000 -1.85170000
-1.46590000 3.27170000 -0.91870000
-1.58550000 3.30650000 -1.25330000
-1.72120000 3.26310000 -1.44250000
-1.95680000 3.23570000 -1.54580000
-2.15610000 3.28460000 -1.66790000
-2.01870000 3.30330000 -1.60230000
-1.86450000 3.27540000 -1.58090000
-1.82920000 3.37220000 -1.61960000
-2.02440000 3.39690000 -1.62690000
-2.26130000 3.31690000 -1.87730000
-2.13290000 3.39900000 -1.74520000
-1.98690000 3.47650000 -1.69810000
-1.83090000 3.46400000 -1.66880000
-2.02080000 3.47500000 -1.82990000
-2.16670000 3.46740000 -1.93340000
-2.28050000 3.43180000 -2.03780000
-1.87680000 3.50830000 -1.72450000
-1.72970000 3.34960000 -1.56210000
-1.66230000 3.42700000 -1.53870000
-1.67460000 3.45200000 -1.65990000
-1.53360000 3.38780000 -1.23100000
-1.46000000 3.45960000 -1.25880000
-1.51110000 3.50270000 -1.44690000
-1.38550000 3.54530000 -1.51270000
-1.63330000 3.47530000 -1.83820000
-1.72990000 3.53470000 -1.85820000
-1.49640000 3.46900000 -1.85110000
-1.17220000 3.54060000 -1.64000000
-2.04570000 3.52390000 -2.02830000
-2.00650000 3.19130000 -2.80890000
-2.53430000 3.21280000 -2.87580000
-2.17910000 3.19280000 -2.70300000
-2.38200000 3.20180000 -2.65390000
-2.04340000 3.29010000 -2.62900000
-2.04220000 3.20440000 -2.68660000
-1.96050000 3.28680000 -2.68520000
-1.91170000 3.33420000 -2.87360000
-2.39570000 3.26240000 -2.26750000
-2.34300000 3.33030000 -2.12610000
-2.33700000 3.39280000 -2.27460000
-2.23430000 3.49150000 -2.18480000
-2.44190000 3.22920000 -2.39360000
-2.34110000 3.29240000 -2.46410000
-2.30510000 3.42660000 -2.33480000
-2.21410000 3.44350000 -2.38900000
-2.32790000 3.22710000 -2.56010000
-2.21700000 3.26140000 -2.60270000
-2.23070000 3.37800000 -2.51470000
-2.14590000 3.34530000 -2.59610000
-1.98370000 3.45970000 -2.47760000
-2.03840000 3.40250000 -2.56410000
-1.43590000 3.47610000 -2.06550000
-1.22900000 3.48810000 -1.85480000
-1.27130000 3.52320000 -2.01210000
-1.59290000 3.46860000 -2.15310000
-1.27470000 3.53760000 -2.30630000
-1.58060000 3.49130000 -2.38650000
-1.47630000 3.53150000 -2.68970000
-1.69920000 3.47100000 -2.55000000
-1.24360000 3.52800000 -2.71040000
-1.95740000 3.52680000 -2.20110000
-1.62590000 3.52330000 -1.98470000
-1.76330000 3.54340000 -2.12760000
-1.68510000 3.49980000 -2.23310000
-1.83570000 3.50060000 -2.40060000
-1.88520000 3.40290000 -2.58420000
-1.83740000 3.40930000 -2.66490000
-4.20930000 1.86120000 -4.04740000
-4.19100000 1.97570000 -4.01040000
-4.23490000 2.38570000 -3.83510000
-4.22710000 2.05960000 -4.16480000
-4.20190000 2.15660000 -4.02300000
-4.20240000 2.05490000 -4.31060000
-4.18590000 2.25060000 -4.06750000
-4.21230000 2.27770000 -4.15010000
-4.21930000 2.21360000 -4.39760000
-4.25280000 2.56400000 -3.64630000
-4.23400000 2.62590000 -3.48510000
-4.19570000 2.64030000 -3.80950000
-4.22400000 2.53480000 -4.16600000
-4.21610000 2.51650000 -3.93090000
-4.20900000 2.64100000 -4.00580000
-4.16410000 2.74090000 -3.84440000
-4.18490000 2.57710000 -4.33190000
-4.16650000 2.77890000 -4.38940000
-4.17960000 2.26710000 -4.77680000
-4.16650000 2.10660000 -5.07830000
-4.19410000 2.25430000 -5.15180000
-4.12950000 2.10520000 -5.21030000
-4.18230000 2.39160000 -4.97160000
-4.19110000 2.57460000 -4.63670000
-4.17270000 2.48800000 -5.16490000
-4.18400000 2.67740000 -5.00550000
-4.16880000 2.69090000 -4.76360000
-4.18170000 2.88000000 -4.62280000
-4.18140000 2.88860000 -5.03890000
-4.19370000 2.77940000 -3.58240000
-4.17830000 2.85690000 -4.00510000
-4.16350000 3.00730000 -4.48130000
-4.10340000 3.06780000 -4.97140000
-3.96870000 3.12520000 -5.27650000
-3.88560000 3.20440000 -4.19760000
-4.15560000 2.16760000 -5.32340000
-4.15900000 2.37410000 -5.47750000
-4.18120000 2.43980000 -5.41150000
-4.18350000 2.60520000 -5.32760000
-4.13520000 2.60060000 -5.62800000
-4.07510000 2.63700000 -5.94410000
-4.12610000 2.71120000 -5.85250000
-4.13150000 2.62610000 -5.19290000
-4.15150000 2.70950000 -5.27340000
-4.14900000 2.74250000 -5.13690000
-4.16600000 2.81360000 -5.53370000
-4.17400000 2.82110000 -5.33270000
-4.15320000 2.96870000 -5.34330000
-4.13870000 2.90750000 -5.64070000
-4.09560000 2.86930000 -5.82840000
-4.10560000 3.03660000 -5.54190000
-4.07310000 2.98180000 -5.73540000
-3.90860000 3.12080000 -5.64040000
-3.87970000 3.05360000 -5.84940000
-3.79170000 3.23460000 -5.14570000
-3.65360000 3.21710000 -5.64070000
-3.69950000 3.14660000 -5.73610000
-3.95680000 2.71530000 -5.99170000
-3.49600000 2.96790000 -6.01530000
-3.97610000 2.91450000 -5.91810000
-3.72240000 3.01570000 -5.96550000
-3.23940000 3.07500000 -5.98170000
-3.61840000 3.10450000 -5.88130000
-3.27720000 3.08780000 -3.21850000
-3.38320000 3.07780000 -3.43830000
-2.96520000 3.21430000 -3.28690000
-3.24810000 3.10170000 -3.64970000
-3.15740000 3.12770000 -3.52220000
-3.07840000 3.14580000 -3.70060000
-3.36060000 3.12750000 -3.68260000
-2.94060000 3.21670000 -3.68380000
-3.05690000 3.19890000 -3.86780000
-3.18590000 3.16390000 -3.89250000
-3.28090000 3.20650000 -3.88960000
-2.77290000 3.30670000 -3.64130000
-2.95290000 3.31150000 -3.82410000
-2.69360000 3.27900000 -3.46330000
-2.58860000 3.24020000 -3.32610000
-2.56210000 3.34370000 -3.47670000
-2.75870000 3.35530000 -3.69960000
-2.74590000 3.37380000 -3.80820000
-2.35980000 3.38670000 -3.75710000
-3.28490000 3.15330000 -4.62230000
-3.25050000 3.08220000 -4.83040000
-3.36280000 3.11770000 -4.73470000
-3.15610000 3.21890000 -4.67490000
-3.16120000 3.14580000 -4.83020000
-3.10440000 3.26130000 -4.77430000
-3.39780000 3.26610000 -4.51460000
-3.41240000 3.23200000 -4.72620000
-3.33130000 3.26540000 -4.52030000
-3.19690000 3.33640000 -4.52570000
-3.17270000 3.22630000 -3.99840000
-3.09180000 3.26110000 -3.98820000
-3.22160000 3.29810000 -4.02680000
-3.08110000 3.33560000 -4.00550000
-3.00120000 3.29160000 -3.91850000
-2.93800000 3.36420000 -3.94560000
-2.82760000 3.40580000 -4.03110000
-3.15340000 3.38400000 -4.10080000
-2.87950000 3.42260000 -4.29130000
-2.95740000 3.42130000 -4.42520000
-2.21010000 3.43330000 -4.05260000
-2.55920000 3.38770000 -3.91660000
-2.92790000 3.34470000 -4.63100000
-2.98190000 3.30870000 -4.72790000
-2.83030000 3.41320000 -4.58100000
-2.36170000 3.45230000 -4.59950000
-3.83230000 3.28220000 -3.92420000
-3.53100000 3.36550000 -4.23510000
-3.67470000 3.32260000 -4.14240000
-3.51250000 3.39000000 -3.83400000
-3.53250000 3.38480000 -3.41670000
-3.39800000 3.24960000 -3.85030000
-3.43350000 3.33530000 -3.95340000
-3.46290000 3.37140000 -3.74640000
-3.33090000 3.32900000 -4.08820000
-3.43380000 3.35300000 -4.23770000
-3.29340000 3.35620000 -4.28450000
-3.46810000 3.33300000 -4.56260000
-3.49180000 3.33540000 -4.96350000
-3.44320000 3.30930000 -4.94530000
-2.23620000 3.22130000 -3.28320000
-2.21560000 3.18690000 -3.17390000
-2.00210000 3.21950000 -3.25590000
-1.95000000 3.19280000 -3.16030000
-1.93800000 3.22060000 -3.01500000
-1.85740000 3.35860000 -3.08060000
-2.15440000 3.31970000 -3.33990000
-1.96580000 3.35900000 -3.32420000
-2.06130000 3.38380000 -3.43640000
-1.88290000 3.31720000 -3.24230000
-1.78410000 3.40220000 -3.02650000
-1.73340000 3.37930000 -3.24610000
-1.85830000 3.42980000 -3.35910000
-1.73150000 3.44630000 -3.49090000
-1.70200000 3.41390000 -3.36080000
-2.11040000 3.42440000 -3.60200000
-2.42020000 3.23920000 -3.30250000
-2.49680000 3.27110000 -3.40030000
-2.40720000 3.33570000 -3.35940000
-2.43000000 3.40580000 -3.50520000
-2.31610000 3.30590000 -3.30130000
-2.32200000 3.39360000 -3.35440000
-2.22630000 3.40040000 -3.45740000
-1.58910000 3.46740000 -2.93800000
-1.25640000 3.45790000 -3.03810000
-1.00590000 3.50040000 -3.00970000
-1.41730000 3.41870000 -3.29560000
-1.84550000 3.43380000 -3.78570000
-1.67640000 3.42870000 -3.63390000
-1.49720000 3.44310000 -3.80580000
-3.29740000 3.09810000 -4.98390000
-3.16240000 3.09720000 -5.03050000
-3.35670000 3.10800000 -4.92560000
-3.10910000 3.09680000 -4.92400000
-3.04730000 3.22630000 -4.93180000
-3.18320000 3.20120000 -5.18660000
-3.38220000 3.23930000 -5.13570000
-3.10370000 3.12340000 -5.02500000
-3.08180000 3.19680000 -5.04290000
-3.05400000 3.22760000 -5.20300000
-2.97960000 3.27300000 -5.10500000
-3.43600000 3.30880000 -5.30180000
-3.57460000 3.29070000 -5.26490000
-3.35400000 3.26560000 -5.51250000
-2.84960000 3.30580000 -5.22220000
-3.22540000 3.30220000 -5.28610000
-2.71460000 3.34060000 -5.31960000
-2.73680000 3.31560000 -5.44100000
-2.31810000 3.40510000 -4.82920000
-2.03820000 3.38590000 -5.04150000
-2.35930000 3.33080000 -5.03610000
-2.45840000 3.30870000 -5.15070000
-2.81050000 3.32440000 -4.74440000
-3.01210000 3.30010000 -4.86620000
-2.84060000 3.31690000 -4.92490000
-3.20900000 3.22040000 -5.71760000
-3.15000000 3.26960000 -5.65590000
0.91890000 1.86060000 -6.13170000
0.27550000 2.30300000 -6.07440000
0.10740000 2.32390000 -6.09830000
-0.00270000 2.58860000 -6.09840000
0.43330000 2.68620000 -6.04460000
0.63780000 2.48550000 -6.10150000
0.20180000 2.75520000 -6.03930000
-0.30480000 2.82570000 -6.06770000
0.01730000 2.82940000 -6.05890000
0.60630000 2.94640000 -6.05370000
0.65240000 2.83800000 -6.03520000
0.51710000 3.11410000 -5.98980000
-0.14390000 3.05910000 -6.03960000
1.68580000 -3.41280000 6.13500000
0.89710000 -3.15690000 6.15080000
0.53610000 -3.42360000 6.11240000
0.84100000 -3.54690000 6.07900000
0.78450000 -3.57830000 6.02330000
0.24590000 -3.20080000 6.11310000
0.02280000 -2.96280000 6.16260000
0.08640000 -2.88080000 6.14680000
-0.10860000 -3.02370000 6.15840000
0.46080000 -3.18670000 6.11180000
1.47530000 -3.23630000 6.12940000
0.44060000 -2.95450000 6.16300000
0.88860000 -2.76680000 6.21290000
0.58780000 -2.81840000 6.17980000
0.33260000 -2.57170000 6.20520000
-0.30400000 -3.02870000 6.12680000
-0.61800000 -2.94940000 6.16090000
-0.32170000 -2.80990000 6.15870000
-0.49250000 -2.84140000 6.15590000
-0.14610000 -2.58060000 6.20680000
-0.71000000 -2.74930000 6.16150000
-0.44320000 -2.70890000 6.19220000
-0.80450000 -2.57920000 6.20450000
-0.69540000 -2.43300000 6.20940000
-0.29950000 -2.36030000 6.18810000
-0.13050000 -2.26000000 6.22000000
0.17750000 -2.59950000 6.16980000
0.02830000 -2.39510000 6.19670000
0.98010000 -2.43100000 6.23580000
0.40060000 -2.38530000 6.22170000
0.18000000 -2.13740000 6.21380000
0.02580000 -2.07120000 6.22470000
-1.00770000 -2.22200000 6.18430000
-0.89070000 -2.09300000 6.21000000
-0.48080000 -2.07880000 6.17870000
-0.80790000 -1.86140000 6.22310000
-0.90490000 -1.75740000 6.16110000
-0.53480000 -1.94580000 6.22800000
-0.51160000 -1.85400000 6.20980000
-0.64500000 -1.81060000 6.16990000
2.96050000 -3.50250000 5.45050000
3.45230000 -3.58420000 5.71730000
2.60420000 -3.56590000 5.64990000
2.41160000 -3.57950000 6.05910000
3.13270000 -3.55440000 6.11290000
2.29770000 -3.50640000 6.12750000
3.20570000 -3.48960000 6.14340000
2.55600000 -3.33600000 6.14680000
3.53040000 -3.58420000 5.97500000
1.74830000 -3.58700000 5.85660000
2.95170000 -3.46880000 4.94260000
1.42260000 -3.45880000 5.43500000
3.31270000 -3.49200000 4.65460000
3.56450000 -3.56490000 3.94530000
3.61760000 -3.58000000 5.45190000
3.35290000 -3.50310000 5.35890000
3.43990000 -3.50060000 2.11480000
4.10510000 -3.50040000 4.21110000
4.07370000 -3.56440000 3.56340000
4.10910000 -3.52340000 2.68990000
4.12350000 -3.39590000 4.03260000
4.04580000 -3.59450000 2.20410000
4.00070000 -3.58870000 4.43370000
2.35930000 -3.38890000 4.04740000
3.26710000 -3.47200000 1.35050000
3.89040000 -3.59910000 3.45490000
4.08220000 -3.46700000 5.51300000
4.01970000 -3.49740000 5.85060000
3.99520000 -3.56950000 5.72210000
4.03780000 -3.56190000 5.30920000
4.09190000 -3.49470000 4.99760000
3.68060000 -3.59180000 1.85500000
4.05790000 -3.56520000 4.55640000
4.08790000 -3.30120000 5.28680000
4.08960000 -3.25490000 4.96570000
3.53580000 -3.55380000 6.11340000
3.64790000 -3.47540000 6.13360000
3.69280000 -3.56940000 6.06920000
3.80700000 -3.53370000 6.08240000
3.90430000 -3.56160000 5.97070000
3.88050000 -3.43860000 6.06780000
3.96700000 -3.26240000 5.99100000
4.04630000 -3.30680000 5.81910000
3.70850000 -3.14480000 6.11640000
3.83300000 -2.67390000 6.08990000
3.33860000 -3.23370000 6.12760000
3.10980000 -3.08130000 6.14280000
3.39630000 -2.98820000 6.12990000
3.50020000 -2.99460000 6.11200000
3.63010000 -2.94950000 6.09140000
3.73610000 -2.73940000 6.11790000
3.94480000 -1.98260000 6.00620000
4.08340000 -3.17480000 5.60030000
4.05220000 -3.13440000 5.71590000
4.04680000 -2.86610000 5.78890000
4.09970000 -3.01000000 5.24210000
4.09890000 -3.17830000 5.11010000
4.12150000 -2.84490000 5.47040000
4.12460000 -2.83060000 4.98150000
4.08180000 -2.85110000 5.60740000
4.15870000 -2.21660000 5.14910000
4.04140000 -2.80560000 5.69390000
4.01410000 -2.52220000 5.92360000
4.08200000 -2.67240000 5.69160000
4.12290000 -2.42430000 5.56900000
4.15180000 -2.13620000 5.42460000
4.12310000 -3.21190000 4.81640000
4.11580000 -3.08790000 4.61380000
4.11730000 -3.33120000 3.52400000
4.11970000 -3.29270000 4.00300000
4.10050000 -3.23470000 3.98380000
4.13010000 -3.17910000 3.88900000
4.11860000 -3.21600000 3.65240000
4.16180000 -2.96640000 3.90150000
4.13600000 -3.09760000 3.53110000
4.10350000 -3.21240000 3.25120000
4.10290000 -2.96220000 4.92640000
4.07980000 -2.92580000 4.84170000
4.11170000 -2.83160000 4.70320000
4.11950000 -3.09130000 4.23670000
4.16320000 -2.83460000 4.48810000
4.18730000 -2.62100000 4.17260000
4.15100000 -2.26500000 4.96950000
4.16010000 -2.73240000 4.80660000
4.17830000 -2.61910000 4.53710000
4.17760000 -2.33460000 4.56490000
4.19120000 -2.45380000 4.71370000
4.17120000 -2.38640000 4.38760000
4.20130000 -2.19680000 4.66600000
4.12410000 -3.04160000 3.95010000
4.17400000 -2.82520000 3.67190000
4.17790000 -2.57660000 3.83740000
4.12740000 -2.91270000 3.51490000
4.16140000 -2.79960000 3.46410000
4.20280000 -2.24790000 4.31010000
4.20820000 -2.25420000 4.00620000
4.19330000 -2.17210000 3.88540000
4.17560000 -2.42390000 3.55530000
4.22520000 -2.05200000 3.71850000
4.20920000 -2.26880000 3.58740000
4.24440000 -2.03230000 3.50980000
4.12000000 -3.55120000 0.61410000
4.07050000 -3.58980000 0.80010000
4.10540000 -3.56600000 0.15070000
4.15120000 -3.46590000 0.31550000
3.99610000 -3.60020000 0.26390000
4.09830000 -3.58080000 -1.21880000
4.14040000 -3.51760000 -0.54140000
4.13000000 -3.33030000 2.55180000
4.12060000 -3.27090000 3.01500000
4.13970000 -3.07400000 3.16950000
3.57160000 -3.55710000 -0.37060000
4.15190000 -3.10400000 2.73910000
4.11570000 -3.23830000 2.36770000
4.10900000 -3.55160000 1.40360000
4.15250000 -3.32560000 1.55730000
4.14650000 -3.29280000 1.90870000
4.16220000 -3.04870000 2.33390000
4.14690000 -2.97990000 2.70490000
4.12600000 -3.21600000 2.08310000
4.16000000 -3.05300000 2.16530000
4.17920000 -2.81290000 2.38820000
4.16210000 -2.86390000 2.26090000
4.18110000 -3.09780000 2.04060000
4.19080000 -3.08150000 1.07230000
4.19550000 -2.83530000 1.88010000
4.17640000 -2.79450000 1.98970000
4.19590000 -2.71710000 2.21410000
4.17950000 -2.82530000 1.37530000
4.19420000 -2.47860000 2.24710000
4.17840000 -2.55640000 1.91450000
4.16020000 -3.31910000 0.65980000
4.17460000 -2.88510000 0.94140000
4.19700000 -2.69410000 1.13270000
3.47120000 -3.50340000 -1.43890000
3.78550000 -3.60280000 -1.93540000
4.16880000 -3.22300000 0.11340000
4.17780000 -3.26160000 -0.30800000
4.20000000 -3.11940000 0.19630000
4.19810000 -2.94610000 0.52650000
4.19580000 -2.97760000 0.25480000
4.22810000 -2.88430000 0.04810000
4.22010000 -2.71720000 0.89740000
4.22960000 -2.76240000 0.62290000
4.19490000 -2.80100000 0.44510000
4.26000000 -2.54230000 0.96940000
4.27010000 -2.44470000 0.77900000
4.24640000 -2.66140000 0.25380000
4.20920000 -2.75470000 0.24530000
4.26230000 -2.46750000 0.21080000
4.22920000 -2.29380000 0.29040000
4.19920000 -2.53920000 1.54090000
4.22400000 -2.46170000 1.78880000
4.22810000 -2.56950000 1.29500000
4.22460000 -2.40720000 1.37430000
4.22340000 -2.38680000 1.67770000
4.21340000 -2.24920000 1.64840000
4.19280000 -2.29830000 1.50770000
4.22510000 -2.44570000 1.12110000
4.24310000 -2.22320000 1.13160000
4.25320000 -2.21270000 1.45710000
4.24570000 -2.27550000 0.66020000
4.22740000 -2.10640000 0.59200000
4.25300000 -1.99350000 0.57470000
4.27690000 -1.97840000 1.11470000
4.27140000 -1.88750000 0.43260000
4.27700000 -1.86220000 0.83400000
4.23250000 -1.73660000 0.53890000
4.24870000 -1.69210000 0.40230000
4.17890000 -1.61310000 0.60280000
4.17770000 -2.67630000 2.85100000
4.18720000 -2.44580000 2.95440000
4.20050000 -2.55880000 2.69150000
4.20320000 -2.34960000 3.24020000
4.21050000 -2.17110000 3.44860000
4.18540000 -2.19150000 3.27810000
4.23450000 -2.02410000 3.17460000
4.24040000 -2.31240000 2.57200000
4.21130000 -2.14740000 3.12810000
4.21320000 -2.06750000 2.66910000
4.20640000 -1.98580000 2.75660000
4.22090000 -2.42720000 2.08640000
4.24470000 -2.20600000 1.83930000
4.24130000 -2.26140000 2.14610000
4.25630000 -2.34110000 1.92170000
4.23300000 -2.07040000 2.23570000
4.20570000 -2.14370000 1.98120000
4.21930000 -2.02870000 1.97620000
4.20020000 -1.92040000 2.29670000
4.24690000 -1.88580000 2.10260000
4.22410000 -2.00640000 1.77120000
4.25570000 -2.10920000 1.59420000
4.24080000 -2.00800000 1.58510000
4.23840000 -1.82610000 1.85160000
4.25670000 -1.80070000 1.65940000
4.22310000 -1.72610000 1.76980000
4.28160000 -2.08990000 1.33250000
4.28630000 -1.90000000 1.54010000
4.28970000 -1.79710000 1.48130000
4.21340000 -1.58120000 1.11350000
4.23510000 -1.77030000 1.05700000
4.26890000 -1.53590000 1.48840000
4.22580000 -1.70880000 0.74700000
4.25480000 -1.58900000 0.54220000
4.29410000 -1.63970000 0.30360000
1.88070000 -3.55160000 6.09740000
1.32870000 -2.93920000 6.18800000
1.95470000 -3.13860000 6.14790000
2.40410000 -3.21440000 6.13280000
2.19260000 -3.13900000 6.14680000
2.07120000 -3.06670000 6.17930000
1.69600000 -3.11050000 6.12100000
2.69500000 -3.08440000 6.10300000
2.51010000 -3.10850000 6.09780000
2.85720000 -3.08910000 6.13400000
2.73360000 -2.91490000 6.12540000
2.98570000 -2.91980000 6.15170000
2.88190000 -2.81480000 6.17710000
2.41860000 -3.04100000 6.14080000
2.27340000 -2.87590000 6.17420000
2.10430000 -2.80030000 6.15260000
2.58520000 -2.91810000 6.17060000
2.74620000 -2.70280000 6.16550000
2.52370000 -2.59680000 6.15920000
2.95620000 -2.47400000 6.14950000
1.15580000 -2.82850000 6.18140000
1.94310000 -2.79480000 6.16100000
2.00630000 -2.54130000 6.21300000
1.67980000 -2.53060000 6.23440000
1.28530000 -2.63780000 6.22140000
1.14820000 -2.59740000 6.20580000
1.17760000 -2.33200000 6.22190000
1.38070000 -2.41720000 6.23830000
1.68010000 -2.28190000 6.22720000
1.49580000 -2.25950000 6.21200000
1.63330000 -2.13720000 6.17850000
2.16120000 -2.71400000 6.12410000
2.36070000 -2.57260000 6.17960000
2.17790000 -2.61940000 6.16460000
2.25610000 -2.44930000 6.20480000
2.15250000 -2.31860000 6.22930000
2.92180000 -2.39040000 6.18660000
2.62260000 -2.17820000 6.22100000
2.35680000 -2.11270000 6.21920000
1.83380000 -2.18950000 6.18490000
2.05050000 -2.01790000 6.20060000
1.81620000 -2.01980000 6.17840000
2.33810000 -1.75020000 6.23710000
2.93370000 -1.48710000 6.19310000
0.45160000 -2.15360000 6.17920000
0.61830000 -2.09300000 6.18480000
0.38430000 -2.21130000 6.21500000
0.31400000 -1.96660000 6.15970000
-0.20790000 -2.00940000 6.14580000
-0.42480000 -1.77290000 6.17920000
-0.57170000 -1.73410000 6.12370000
-0.62250000 -1.60080000 6.17220000
-0.69080000 -1.67350000 6.11440000
-0.09450000 -2.00610000 6.19040000
0.17350000 -1.94240000 6.20030000
-0.27130000 -1.86210000 6.19160000
-0.21210000 -1.78310000 6.22730000
0.30070000 -1.76260000 6.23730000
0.18540000 -1.61690000 6.25430000
0.44000000 -1.80990000 6.20470000
0.65760000 -1.90790000 6.22030000
-0.02900000 -1.46810000 6.24900000
-0.28290000 -1.47240000 6.23330000
0.16090000 -1.37230000 6.22960000
-0.09160000 -1.32030000 6.20270000
0.26040000 -1.29290000 6.19160000
0.08920000 -0.99510000 6.20870000
1.02260000 -2.14690000 6.21850000
1.16530000 -2.17710000 6.21020000
1.17330000 -2.00990000 6.25040000
1.33790000 -2.20380000 6.24280000
1.45170000 -2.15580000 6.20760000
1.58960000 -2.05610000 6.23160000
0.91780000 -1.79190000 6.24160000
1.16430000 -1.79530000 6.21610000
1.13380000 -1.55760000 6.18200000
1.54880000 -1.62070000 6.24180000
1.66820000 -1.94940000 6.25750000
1.81950000 -1.79090000 6.22230000
1.73020000 -1.70200000 6.25640000
1.94140000 -1.52350000 6.23720000
2.13250000 -1.27430000 6.25470000
1.53840000 -1.39530000 6.20800000
1.76570000 -1.43800000 6.22130000
1.72340000 -1.34460000 6.14970000
1.58380000 -1.31710000 6.17020000
1.72790000 -1.22830000 6.14170000
1.85400000 -1.17010000 6.18940000
1.92930000 -1.13320000 6.22780000
0.70320000 -1.67880000 6.21260000
0.82580000 -1.58750000 6.17750000
0.83820000 -1.39090000 6.22990000
0.44190000 -1.45510000 6.24020000
0.68380000 -1.28650000 6.25200000
1.04940000 -1.42180000 6.20870000
1.26740000 -1.24090000 6.24580000
1.06750000 -1.14900000 6.23720000
0.33840000 -1.18100000 6.19740000
0.50930000 -1.17730000 6.24290000
0.42260000 -1.05460000 6.20040000
0.85310000 -1.01520000 6.23660000
0.51860000 -0.71810000 6.23000000
1.13290000 -1.04580000 6.19830000
0.84160000 -0.85780000 6.20640000
1.55210000 -1.24620000 6.21680000
1.37870000 -0.96680000 6.22620000
1.67720000 -1.06800000 6.24870000
1.81850000 -0.96040000 6.22320000
2.05520000 -0.89830000 6.20860000
1.56970000 -0.76630000 6.25000000
1.78920000 -0.80740000 6.25660000
2.10920000 -0.77500000 6.24190000
1.82530000 -0.48000000 6.23810000
1.13860000 -0.82610000 6.19320000
0.95800000 -0.72720000 6.22380000
1.21170000 -0.53220000 6.20880000
1.39020000 -0.59250000 6.22200000
1.31410000 -0.45040000 6.16270000
1.45680000 -0.45740000 6.18720000
1.62610000 -0.41450000 6.22790000
3.18200000 -2.84050000 6.17030000
3.46160000 -2.77720000 6.13070000
3.44020000 -2.67110000 6.14100000
3.30300000 -2.65400000 6.13350000
3.55200000 -2.84980000 6.04350000
3.58520000 -2.75480000 6.06870000
3.59490000 -2.58270000 6.10810000
3.64140000 -2.35870000 6.14320000
3.37950000 -2.23620000 6.15630000
3.16770000 -2.59520000 6.16120000
3.08860000 -2.20670000 6.19570000
3.47520000 -1.95080000 6.17530000
3.69730000 -1.71780000 6.13720000
4.05570000 -2.02430000 5.84640000
4.06770000 -2.39310000 5.75770000
4.06060000 -2.31470000 5.69280000
4.08640000 -2.18650000 5.71010000
4.09440000 -1.79550000 5.64150000
4.16330000 -1.75600000 5.39250000
4.11400000 -1.58480000 5.70080000
4.17640000 -1.28580000 5.38770000
2.93010000 -1.94310000 6.21870000
3.13920000 -2.09520000 6.16740000
3.14810000 -1.90060000 6.19810000
3.41710000 -1.56750000 6.16330000
3.23240000 -1.58690000 6.20590000
2.90280000 -1.18500000 6.21600000
3.60280000 -1.52210000 6.12960000
4.06160000 -1.30630000 5.85910000
3.98630000 -0.69550000 5.97130000
4.15090000 -1.43670000 5.59450000
4.11190000 -1.27670000 5.64090000
4.07730000 -0.83870000 5.72600000
3.48740000 -1.14010000 6.17120000
3.36570000 -1.19500000 6.15580000
3.25760000 -1.09750000 6.17560000
3.61130000 -1.08010000 6.14740000
3.78590000 -0.85280000 6.11700000
4.20420000 -1.91340000 4.27640000
4.18420000 -1.90430000 4.60790000
4.20060000 -1.81630000 4.72460000
4.15080000 -1.61600000 4.99940000
4.17650000 -1.54520000 5.13130000
4.18040000 -1.48230000 4.74270000
4.21180000 -1.53620000 4.57740000
4.21940000 -2.05210000 4.20070000
4.16500000 -1.86870000 4.40850000
4.21950000 -1.69470000 4.05660000
4.23210000 -1.92830000 3.88740000
4.22720000 -1.82230000 3.62290000
4.24300000 -1.66070000 3.76680000
4.17190000 -1.65240000 4.38710000
4.21540000 -1.51370000 4.37770000
4.17110000 -1.26260000 4.58110000
4.21050000 -1.30910000 4.49220000
4.20420000 -1.41710000 4.25810000
4.22530000 -1.30680000 4.02520000
4.20280000 -1.40610000 3.91810000
4.23360000 -1.27230000 4.20890000
4.19890000 -1.18500000 4.94660000
4.14580000 -1.31700000 4.78570000
4.14590000 -1.21760000 4.75270000
4.18470000 -0.93100000 5.10000000
4.18330000 -0.85680000 4.84000000
4.12050000 -1.20890000 4.63850000
4.21850000 -1.04980000 4.53760000
4.20170000 -0.90020000 4.44980000
4.15840000 -1.12550000 4.65350000
4.20600000 -1.03210000 4.66400000
4.19580000 -0.98800000 4.23990000
4.21030000 -0.85360000 4.12910000
4.17970000 -0.81650000 4.31360000
4.21740000 -0.92830000 3.86690000
4.18310000 -0.63380000 4.70510000
4.12110000 -0.71470000 4.94190000
4.20270000 -0.67970000 4.36980000
4.18070000 -0.74850000 4.02410000
4.18700000 -0.55250000 4.07300000
4.17800000 -0.46140000 4.24700000
4.14560000 -0.85190000 5.51220000
4.15760000 -0.70020000 5.14990000
4.16180000 -0.49790000 5.12640000
4.14910000 -0.50890000 4.94260000
4.11250000 -0.55400000 4.87140000
4.16140000 -0.49580000 4.75380000
4.19820000 -0.37610000 4.45470000
4.17940000 -0.33430000 4.22840000
2.66600000 -1.18440000 6.24100000
2.43190000 -1.11470000 6.23970000
2.54840000 -1.07730000 6.20240000
2.12320000 -1.04920000 6.23710000
2.28010000 -0.94210000 6.19670000
2.56200000 -0.97960000 6.20480000
2.56510000 -0.80060000 6.22600000
2.81670000 -0.72040000 6.22210000
2.46280000 -0.87320000 6.18580000
2.63550000 -0.66400000 6.18280000
2.78510000 -0.53820000 6.20560000
3.47020000 -0.78220000 6.15390000
3.64040000 -0.81490000 6.11510000
3.67360000 -0.54660000 6.13080000
2.91550000 -0.41560000 6.20000000
3.07330000 -0.39240000 6.17830000
3.40120000 -0.35270000 6.17690000
3.19670000 -0.37530000 6.20230000
2.23400000 -0.56080000 6.23070000
2.41320000 -0.71070000 6.23890000
2.42550000 -0.52670000 6.22980000
2.52610000 -0.50130000 6.19540000
2.65720000 -0.47730000 6.16970000
2.36010000 -0.41470000 6.18700000
2.22570000 -0.36850000 6.22170000
2.52830000 -0.29580000 6.18500000
1.80870000 -0.13880000 6.22110000
2.25670000 -0.11300000 6.21100000
2.27160000 0.14090000 6.18500000
2.11670000 0.05930000 6.17320000
2.85360000 -0.30310000 6.14700000
3.00960000 -0.30780000 6.11160000
2.93060000 -0.23310000 6.11460000
3.06020000 -0.23500000 6.13970000
2.62820000 -0.13040000 6.19810000
2.83400000 -0.08130000 6.16110000
3.08260000 -0.12890000 6.17810000
3.25010000 -0.15310000 6.17370000
3.36370000 -0.26600000 6.15210000
3.23640000 0.09460000 6.16530000
3.36700000 -0.09480000 6.11170000
2.72140000 0.10720000 6.17400000
2.99740000 0.13820000 6.17760000
2.53550000 0.19050000 6.18840000
2.77450000 0.29630000 6.14730000
2.60490000 0.25980000 6.13990000
3.16910000 0.40480000 6.14260000
3.90660000 0.10420000 6.03490000
4.05830000 -0.32090000 5.80310000
3.65980000 -0.12250000 6.13020000
3.54230000 -0.13170000 6.11380000
3.49600000 -0.01370000 6.12970000
3.70870000 0.25110000 6.09560000
3.57220000 0.20530000 6.09780000
3.38090000 0.21240000 6.11010000
3.55860000 0.35260000 6.05190000
3.69870000 0.54280000 6.09460000
3.83700000 0.81000000 6.07100000
3.32300000 0.33120000 6.11800000
3.57400000 0.49880000 6.08290000
3.42560000 0.45620000 6.12400000
3.05710000 0.54840000 6.10240000
2.81650000 0.43230000 6.14100000
3.42130000 0.62620000 6.10710000
3.57020000 0.63030000 6.09350000
3.56190000 0.92240000 6.11700000
3.45750000 0.70240000 6.10970000
3.64640000 0.68810000 6.10310000
4.12200000 -0.52550000 5.46670000
4.14600000 -0.30550000 5.33660000
4.18060000 -0.42510000 4.98380000
4.15940000 -0.12930000 5.02530000
4.11980000 0.01850000 5.19040000
4.10470000 0.02090000 5.42940000
4.03880000 0.16360000 5.70960000
4.01030000 0.20800000 5.89910000
4.05630000 0.67010000 5.67900000
4.08950000 0.64450000 5.24620000
4.17290000 -0.26810000 4.66590000
4.13310000 0.02630000 4.87770000
4.14670000 0.23090000 4.76490000
4.18140000 -0.23390000 4.16280000
4.19110000 -0.08790000 4.25950000
4.13960000 0.19540000 4.52240000
4.16210000 0.09610000 4.24510000
4.10360000 0.35890000 4.44130000
4.10050000 0.59270000 4.58550000
3.92580000 1.01300000 6.03660000
4.00260000 0.98970000 5.92500000
4.08820000 0.80750000 4.82530000
4.10310000 0.55310000 4.33090000
4.08070000 0.87490000 4.92270000
4.08270000 0.82420000 4.99390000
4.06420000 1.31140000 4.30980000
4.04680000 1.43310000 4.99930000
4.06100000 1.17120000 5.08130000
4.25350000 -1.86360000 3.34770000
4.26740000 -1.89610000 3.07290000
4.25890000 -1.51260000 3.15230000
4.24760000 -1.89350000 2.73920000
4.25660000 -1.64940000 3.40460000
4.24160000 -1.47790000 3.41290000
4.21240000 -1.52360000 3.67750000
4.20110000 -1.48580000 3.60570000
4.25930000 -1.34310000 3.58520000
4.21080000 -1.32270000 3.75710000
4.23460000 -1.12250000 3.66740000
4.23620000 -1.05760000 3.41840000
4.22800000 -1.58850000 2.79720000
4.21070000 -1.83160000 2.46080000
4.22490000 -1.35390000 2.74020000
4.24470000 -1.77240000 2.38090000
4.27440000 -1.54820000 2.06870000
4.26090000 -1.22680000 2.22700000
4.23860000 -0.85790000 2.62240000
4.21010000 -1.03980000 3.73200000
4.20220000 -0.71060000 3.72890000
4.19380000 -0.91770000 3.29880000
4.20330000 -0.69660000 3.34110000
4.17230000 -0.44820000 3.93760000
4.12910000 -0.37380000 4.06310000
4.19590000 -0.29330000 3.98000000
4.22880000 -0.58010000 3.00350000
4.21340000 -0.21590000 3.58570000
4.23800000 -0.58410000 2.73120000
4.22860000 -0.81030000 2.27960000
4.20700000 -0.73400000 2.57170000
4.23060000 -0.60650000 2.52810000
4.24510000 -0.52600000 2.54210000
4.19070000 -0.64510000 2.41490000
4.18320000 -0.28820000 2.83520000
4.21940000 -0.23630000 3.09450000
4.19390000 -0.12320000 3.22370000
4.19060000 -0.07420000 2.93240000
4.19990000 -0.34800000 2.57020000
4.19550000 -0.17150000 2.70650000
4.19260000 -0.18950000 2.50770000
4.21810000 -0.06580000 2.44060000
4.28260000 -1.61450000 1.71520000
4.26010000 -1.65500000 1.86330000
4.26340000 -1.31690000 1.82320000
4.22980000 -1.41010000 1.16200000
4.25070000 -1.37260000 1.52380000
4.27210000 -1.16040000 1.50790000
4.22340000 -1.18020000 1.64850000
4.25650000 -1.01890000 1.91280000
4.22310000 -0.93770000 2.10470000
4.24990000 -0.95900000 2.02650000
4.20890000 -1.17510000 1.74050000
4.25010000 -0.77950000 1.95100000
4.27380000 -1.04880000 1.65030000
4.24620000 -1.11220000 1.19880000
4.25080000 -0.78550000 1.33920000
4.23750000 -1.02520000 1.76780000
4.26620000 -0.79210000 1.77060000
4.24730000 -0.59870000 1.59320000
4.17490000 -1.62290000 0.75610000
4.18390000 -1.53960000 0.79820000
4.28150000 -1.28310000 1.10050000
4.26690000 -1.38940000 0.96550000
4.23440000 -1.49410000 0.72830000
4.26080000 -1.40330000 0.75560000
4.28920000 -1.49080000 0.56940000
4.28820000 -1.40670000 0.39550000
4.26740000 -1.19330000 0.68640000
4.24550000 -1.15490000 0.85020000
4.19130000 -0.87290000 0.97930000
4.18810000 -1.01860000 0.83350000
4.23590000 -1.04930000 0.74790000
4.23140000 -0.84270000 0.75800000
4.18710000 -0.86210000 0.84260000
4.23220000 -0.61120000 0.89260000
4.21840000 -0.55890000 0.68240000
4.23890000 -0.79040000 0.54790000
4.20980000 -0.80240000 2.03600000
4.20010000 -0.68200000 2.24070000
4.22870000 -0.70780000 2.07300000
4.26530000 -0.64590000 1.98470000
4.21760000 -0.53960000 2.33610000
4.25640000 -0.61970000 2.17760000
4.23310000 -0.41440000 2.26880000
4.22620000 -0.37200000 2.02690000
4.19100000 -0.18090000 2.15810000
4.19720000 -0.07440000 2.21150000
4.23140000 -0.21940000 1.88730000
4.22370000 0.02580000 1.86230000
4.23150000 0.03520000 2.15560000
4.23120000 -0.04490000 1.49540000
4.25360000 -0.39640000 1.42620000
4.22070000 -0.20650000 1.21430000
4.22300000 -0.36960000 1.00830000
4.24590000 -0.35490000 0.79470000
4.23170000 -0.03220000 0.84940000
4.21660000 0.12950000 1.46770000
4.20960000 0.13610000 0.98620000
4.24050000 0.14660000 1.22600000
4.19860000 0.00890000 3.40090000
4.16230000 0.17930000 3.62330000
4.17660000 0.02590000 3.15380000
4.19710000 0.14070000 2.95260000
4.14320000 0.27440000 3.36460000
4.12920000 0.22720000 3.23150000
4.16440000 -0.09050000 2.83610000
4.19940000 0.02800000 2.76440000
4.21280000 0.11220000 2.53730000
4.19090000 0.36110000 2.67450000
4.13880000 0.33250000 3.00710000
4.13960000 0.48880000 3.16850000
4.11510000 0.58110000 3.03910000
4.13720000 0.59330000 2.70240000
4.14580000 0.07060000 4.07900000
4.18540000 0.07060000 3.92670000
4.14520000 0.14590000 3.97660000
4.11620000 0.16900000 4.13640000
4.12610000 0.35460000 4.22410000
4.14390000 0.38860000 3.83240000
4.09560000 0.27650000 4.01580000
4.11410000 0.48190000 4.02980000
4.11960000 0.59630000 3.49980000
4.09230000 0.60760000 3.27760000
4.11410000 0.79670000 3.15080000
4.10850000 0.79910000 3.51500000
4.07070000 1.27360000 3.69910000
4.08120000 1.07350000 3.76570000
4.09040000 1.15890000 1.84710000
4.09040000 1.15320000 1.89550000
4.09070000 1.15460000 1.86240000
4.07990000 1.48350000 3.66750000
4.06220000 1.46370000 4.01370000
4.07200000 1.31530000 3.69180000
4.08010000 1.31940000 3.04640000
4.06080000 1.50920000 3.36810000
4.09110000 1.50570000 2.93360000
4.07710000 1.46280000 2.53880000
4.07640000 1.70130000 3.16160000
4.18510000 0.33410000 2.09460000
4.19590000 0.25420000 1.74090000
4.13640000 0.67480000 2.33320000
4.11710000 0.59770000 2.22560000
4.14520000 0.45800000 2.04770000
4.13550000 0.63540000 1.89870000
4.15200000 0.46230000 1.79000000
4.12840000 0.80210000 1.21750000
4.17980000 0.22590000 1.59570000
4.20040000 0.33990000 1.55510000
4.17770000 0.47870000 1.42020000
4.21220000 0.31670000 0.91290000
4.13620000 0.62250000 1.17430000
4.10580000 1.01470000 1.59270000
4.11760000 0.87280000 2.13440000
4.08430000 1.48030000 1.90030000
4.09360000 1.33560000 2.01510000
4.08880000 1.40340000 1.23190000
4.06780000 1.48160000 1.41300000
4.08380000 1.72960000 1.63930000
4.05790000 1.53400000 1.24260000
4.10490000 1.67940000 1.33960000
4.10620000 0.91740000 2.71630000
4.09640000 1.69640000 2.72010000
4.09810000 1.57180000 2.10490000
4.08620000 1.73830000 2.16890000
4.09610000 1.85130000 2.36800000
4.08920000 1.79900000 1.90420000
4.12390000 1.87390000 1.44860000
-1.03190000 -1.58560000 6.16290000
-1.37490000 -1.39160000 6.20140000
-1.48750000 -1.15860000 6.21220000
-1.14990000 -1.31990000 6.23120000
-1.56130000 -0.97270000 6.22850000
-0.81610000 -1.45180000 6.19840000
-0.63970000 -1.32700000 6.23280000
-0.84010000 -1.23630000 6.18820000
-1.03200000 -1.23210000 6.21550000
-0.75660000 -1.10700000 6.21930000
-1.08210000 -1.06160000 6.16460000
-0.88420000 -0.98910000 6.15040000
-0.74740000 -0.94800000 6.18960000
-0.94260000 -0.79070000 6.17290000
-1.24400000 -0.82660000 6.20530000
-0.22680000 -1.21660000 6.21020000
-0.33290000 -1.22060000 6.24280000
-0.52860000 -1.07480000 6.23810000
-0.39640000 -0.93330000 6.21820000
-0.29820000 -1.04720000 6.18490000
-0.14920000 -1.02750000 6.19090000
-0.95880000 -0.66590000 6.20280000
-0.70070000 -0.71960000 6.20530000
-0.46800000 -0.61030000 6.20900000
-0.63010000 -0.62260000 6.16490000
-0.13720000 -0.72210000 6.23040000
-0.22820000 -0.36130000 6.22850000
0.12850000 -0.51880000 6.23630000
-1.49730000 -0.68180000 6.22910000
-1.20990000 -0.45860000 6.20230000
-1.76460000 -0.22880000 6.21930000
-1.64000000 -0.07290000 6.20550000
-1.31400000 -0.19050000 6.20120000
-0.82900000 -0.54880000 6.18920000
-0.51210000 -0.43400000 6.16620000
-0.92880000 -0.34050000 6.20940000
-0.37130000 -0.20870000 6.18040000
-0.42530000 -0.11730000 6.15510000
-0.51830000 -0.05280000 6.18250000
-0.27760000 -0.20300000 6.20870000
-0.81440000 -0.03800000 6.19210000
-1.31310000 0.06240000 6.17930000
-0.52320000 0.11990000 6.18630000
-0.85920000 0.20330000 6.16190000
0.19670000 -0.85820000 6.20460000
0.32470000 -0.87620000 6.22940000
0.63110000 -0.49840000 6.19650000
0.74870000 -0.36590000 6.20190000
-0.06060000 -0.19470000 6.19230000
0.13030000 -0.15800000 6.19340000
0.40750000 -0.24330000 6.21270000
0.55860000 -0.20410000 6.17440000
0.29360000 -0.11300000 6.16450000
0.41350000 0.04970000 6.15640000
0.99820000 -0.39260000 6.23430000
1.20510000 -0.34470000 6.18280000
0.95660000 -0.12450000 6.20440000
1.12410000 -0.08670000 6.17450000
1.54660000 -0.24200000 6.18810000
1.33590000 -0.18490000 6.19990000
0.53560000 0.08830000 6.18550000
0.65810000 0.34660000 6.15140000
1.58210000 0.13830000 6.18580000
1.10500000 0.15190000 6.18020000
1.50730000 0.44530000 6.15250000
-0.18000000 -0.11280000 6.15370000
-0.09250000 0.03500000 6.13300000
0.22040000 0.07500000 6.15580000
-0.09520000 0.20580000 6.16060000
0.13160000 0.25280000 6.17930000
0.29950000 0.35890000 6.15060000
-0.34650000 0.20410000 6.14640000
-0.45550000 0.40510000 6.13880000
-0.20870000 0.47680000 6.14230000
-0.03190000 0.43050000 6.11410000
0.05560000 0.36630000 6.15830000
0.15450000 0.47320000 6.08990000
0.26610000 0.51270000 6.12480000
0.05270000 0.57060000 6.07850000
-0.02580000 0.67400000 6.10440000
0.24000000 0.70930000 6.10910000
0.98010000 0.56200000 6.11180000
1.75470000 0.86190000 6.12020000
1.45500000 0.83170000 6.11800000
1.50460000 0.76500000 6.11750000
-1.91650000 0.00230000 6.18950000
-1.50740000 -0.02400000 6.15360000
-1.87540000 0.19500000 6.14360000
-1.57370000 0.16290000 6.17490000
-2.12010000 0.18310000 6.19340000
-2.18280000 0.35740000 6.13360000
-1.93060000 0.37640000 6.15230000
-0.90680000 0.44630000 6.13930000
-1.77840000 0.59940000 6.11080000
-0.93690000 0.56240000 6.08960000
-0.94150000 0.69310000 6.08910000
-1.05440000 0.69980000 6.09030000
-0.95320000 0.77580000 6.10690000
-1.11970000 0.76880000 6.10500000
-1.69020000 0.94640000 6.10850000
-1.75900000 0.95640000 6.10840000
-1.45150000 1.45790000 6.14690000
-1.58290000 1.28800000 6.15140000
-0.99210000 1.38120000 6.14030000
-2.09470000 1.41250000 6.13360000
-1.79860000 1.68080000 6.15320000
-1.32230000 1.58090000 6.09400000
-1.53810000 1.71160000 6.12960000
-1.11220000 1.55330000 6.09220000
-1.42390000 1.73950000 6.10780000
-1.13890000 1.63910000 6.11600000
-0.44550000 0.58000000 6.10350000
-0.73460000 0.68080000 6.08690000
-0.61570000 0.79000000 6.11060000
-0.09560000 0.74090000 6.10970000
-0.20020000 0.84280000 6.11400000
-0.40060000 1.03990000 6.11750000
-0.13470000 1.03890000 6.11890000
-0.29920000 1.17430000 6.14790000
1.30190000 1.03350000 6.12650000
0.21300000 1.46560000 6.14570000
0.98750000 1.34900000 6.15340000
0.78860000 1.48490000 6.12550000
-0.30760000 1.46340000 6.14830000
0.47870000 1.77510000 6.15890000
0.60550000 1.73790000 6.13790000
0.16900000 1.73920000 6.16550000
-0.91010000 1.58640000 6.14980000
-0.99130000 1.23560000 6.14980000
-0.66240000 1.78080000 6.16240000
-1.11000000 1.96920000 6.15870000
-0.31550000 1.77470000 6.12990000
-0.14270000 1.84270000 6.15590000
0.12300000 2.02610000 6.16370000
-0.22600000 2.14120000 6.11600000
-0.07360000 2.15270000 6.13480000
0.42480000 2.22740000 6.12540000
0.19900000 2.53490000 6.12490000
-0.31030000 2.51860000 6.12170000
1.82710000 0.04540000 6.17520000
1.98270000 0.01360000 6.20690000
1.79350000 0.21080000 6.14140000
2.05400000 0.24230000 6.16090000
1.92710000 0.22440000 6.12700000
2.02010000 0.39980000 6.09860000
2.24120000 0.28170000 6.14500000
2.26770000 0.40140000 6.09120000
1.83390000 0.43820000 6.15070000
1.57550000 0.66840000 6.11890000
1.91040000 0.60150000 6.11350000
2.03050000 0.57140000 6.07770000
2.38590000 0.46010000 6.12250000
2.28200000 0.57380000 6.11780000
2.15260000 0.71540000 6.11200000
2.49930000 0.57030000 6.12740000
2.68140000 0.54600000 6.09750000
2.89400000 0.54740000 6.10030000
2.90960000 0.58210000 6.10310000
2.97750000 0.73750000 6.11920000
2.53640000 0.66740000 6.10470000
2.29480000 0.65590000 6.11830000
2.30580000 0.69620000 6.10910000
2.30740000 0.71950000 6.11330000
2.12520000 0.82420000 6.11990000
1.22240000 1.34110000 6.14880000
1.62920000 1.38560000 6.14910000
1.21630000 1.36210000 6.15190000
1.79840000 1.61450000 6.15260000
1.53710000 1.57400000 6.11510000
1.70080000 1.07600000 6.13740000
2.04960000 1.11330000 6.14710000
1.66720000 1.18340000 6.15990000
1.25410000 1.18150000 6.15730000
1.98430000 1.40900000 6.14950000
2.00100000 1.32040000 6.15480000
1.95520000 1.53590000 6.15280000
2.42440000 1.43800000 6.15010000
2.55090000 1.57120000 6.16670000
2.41300000 1.79760000 6.12690000
2.15270000 1.80560000 6.15150000
2.25590000 1.88890000 6.12130000
3.26720000 0.82920000 6.11810000
3.21400000 0.81230000 6.11830000
2.11460000 0.87400000 6.11950000
2.10460000 0.91010000 6.12420000
2.08610000 0.97030000 6.13550000
3.27960000 1.14720000 6.15160000
3.62890000 1.11990000 6.14180000
3.44200000 1.34690000 6.13910000
2.99260000 1.38430000 6.15240000
2.75280000 1.18830000 6.16640000
3.07670000 1.26280000 6.15360000
2.93300000 1.55180000 6.15790000
2.68340000 1.73150000 6.14660000
2.46150000 1.95410000 6.15150000
2.62920000 1.81670000 6.16680000
3.67960000 1.37950000 6.13210000
3.58440000 1.45340000 6.09150000
3.23540000 1.44730000 6.12960000
