1.36290000 47.14820000 23.41540000
1.53750000 47.40030000 23.02930000
2.04940000 47.09700000 23.47380000
1.74640000 47.47110000 22.91140000
2.08180000 47.41660000 22.99930000
1.14430000 48.22060000 19.86190000
1.51960000 48.22870000 19.86360000
1.88300000 48.15660000 21.39020000
2.22690000 48.16400000 21.38010000
1.44330000 46.82890000 23.86670000
1.88520000 46.62700000 24.12940000
1.83100000 48.24900000 19.89820000
2.33710000 48.24220000 19.76120000
1.63920000 48.26490000 20.56550000
2.18680000 48.28910000 20.49930000
2.62790000 48.29580000 20.38280000
2.44200000 48.30230000 20.49780000
2.93390000 48.27220000 20.69480000
2.63870000 48.28390000 20.76730000
2.61260000 47.63450000 22.69670000
2.42430000 47.46410000 22.95420000
3.11890000 47.57500000 22.79320000
2.63780000 47.31130000 23.17660000
2.65060000 48.23380000 19.77150000
2.82170000 48.24450000 19.99460000
2.82890000 48.16850000 19.51680000
3.11450000 48.16440000 19.74250000
3.01940000 48.26100000 20.47390000
3.36050000 48.23220000 20.73740000
3.14470000 48.23820000 20.40090000
3.16110000 48.22680000 20.26730000
3.46700000 48.15970000 20.13650000
3.10330000 48.04080000 18.98130000
3.38770000 48.00320000 19.00690000
2.55110000 48.12510000 21.54820000
2.60600000 48.03100000 21.84300000
2.83920000 48.13390000 21.53100000
3.16940000 47.98630000 22.03410000
2.49520000 47.91090000 22.11280000
2.64620000 47.83120000 22.31930000
2.80140000 47.76870000 22.47380000
3.17920000 47.82370000 22.38940000
3.61390000 48.03380000 19.47710000
3.17680000 48.22830000 21.07810000
3.34930000 48.17940000 21.33310000
3.54640000 48.20330000 21.10820000
4.52020000 48.09710000 21.67370000
3.75420000 48.18690000 21.05420000
4.22050000 48.14170000 21.24580000
2.45490000 46.50810000 24.24210000
2.72210000 46.28610000 24.51920000
2.79690000 46.74550000 23.89530000
3.50510000 46.56370000 24.06710000
3.11750000 46.19870000 24.61220000
2.81210000 46.11440000 24.79230000
3.74550000 46.38140000 24.30330000
4.00110000 46.22050000 24.56170000
2.96220000 47.03360000 23.51750000
3.40010000 47.09080000 23.40190000
3.35000000 48.12260000 21.57930000
3.80900000 48.05190000 21.83580000
4.11190000 48.00420000 21.95990000
3.86810000 47.95040000 22.09710000
4.60270000 48.01830000 21.92470000
4.55670000 47.82480000 22.24700000
3.61920000 47.86450000 22.28990000
3.77420000 47.69320000 22.53460000
3.79990000 47.31530000 23.04150000
4.04740000 47.10380000 23.27610000
4.52530000 48.13720000 21.32600000
4.81840000 48.13990000 21.49710000
4.57280000 48.16070000 21.15490000
4.97900000 48.17200000 21.32910000
4.52080000 46.11620000 24.83580000
4.22170000 46.04060000 24.98370000
3.76350000 46.01200000 25.01350000
4.98910000 46.07620000 25.02590000
4.37400000 45.99750000 25.14770000
3.68490000 45.91690000 25.31230000
4.10650000 46.81470000 23.66920000
4.32260000 46.99510000 23.41740000
4.58650000 47.07500000 23.31060000
4.66310000 46.73040000 23.81550000
4.90660000 47.44020000 22.81030000
5.30980000 47.06210000 23.35870000
4.78430000 48.17410000 21.05680000
5.14220000 48.18610000 21.16060000
4.78120000 46.31930000 24.45970000
4.81650000 46.19780000 24.69770000
5.53150000 46.34650000 24.45720000
5.20710000 46.19850000 24.75960000
4.64520000 45.98630000 25.26980000
4.37430000 45.94130000 25.40970000
5.13160000 46.02190000 25.24950000
5.28840000 45.98070000 25.55680000
4.86760000 46.55340000 24.09570000
5.30400000 46.66440000 23.95200000
5.18070000 48.17400000 21.54660000
5.34080000 48.17460000 21.63740000
5.39200000 48.20680000 21.43070000
5.89850000 48.25260000 21.50590000
5.43970000 48.21090000 21.27740000
5.67140000 48.23470000 21.23360000
5.90020000 48.26370000 21.19970000
6.13820000 48.28820000 21.32290000
5.98630000 48.25560000 21.02270000
6.45650000 48.28830000 21.12910000
5.14290000 48.05730000 21.92190000
5.41590000 48.02760000 22.03210000
5.40600000 48.11700000 21.83730000
6.32970000 48.07480000 22.03800000
5.61380000 48.17110000 21.73790000
6.03930000 48.20930000 21.72640000
5.68670000 47.96120000 22.18180000
5.44760000 47.82600000 22.34790000
6.18440000 47.86500000 22.35950000
6.04370000 47.66140000 22.63270000
5.31640000 47.61930000 22.61290000
5.72160000 47.43760000 22.89840000
6.18220000 47.20520000 23.21790000
6.21730000 46.93490000 23.55240000
6.52980000 47.30840000 23.10420000
7.09420000 46.82530000 23.70800000
5.78160000 46.60290000 24.03890000
6.15630000 46.37880000 24.35900000
6.02200000 46.68870000 23.89570000
6.76660000 46.37860000 24.31960000
6.36630000 46.71040000 23.85870000
6.91990000 46.54120000 24.08480000
6.31880000 48.24120000 20.81590000
6.78150000 48.24780000 20.79840000
6.27450000 48.18500000 20.57910000
6.17750000 48.10240000 20.19430000
6.29630000 48.23270000 21.69520000
6.56950000 48.17310000 21.82140000
6.30900000 48.26480000 21.56470000
6.81670000 48.20640000 21.64620000
6.32360000 48.28840000 21.42630000
6.58660000 48.27930000 21.36450000
5.59840000 46.16160000 24.86150000
5.63860000 46.07930000 25.05570000
5.97840000 46.18280000 24.78530000
6.35880000 46.05820000 25.08250000
5.56570000 46.03780000 25.20840000
5.95800000 46.01660000 25.28980000
6.57780000 45.98260000 25.37320000
6.67590000 45.95540000 25.51110000
7.10340000 45.98300000 25.28340000
7.80920000 45.92280000 25.52240000
6.55250000 47.54710000 22.78690000
6.85920000 47.44490000 22.90430000
7.45280000 47.38270000 22.99070000
7.90780000 47.03970000 23.43090000
7.62020000 47.63860000 22.65180000
8.85190000 47.26960000 23.17740000
7.02610000 48.23700000 21.27680000
7.38590000 48.16790000 21.39700000
7.17120000 48.22520000 21.08930000
7.22230000 48.21740000 20.86330000
6.77430000 45.94120000 25.65670000
6.21440000 45.95380000 25.79580000
7.36030000 45.92080000 25.78680000
6.81860000 45.92150000 26.07670000
6.66110000 46.23820000 24.52220000
6.59880000 46.19950000 24.59710000
7.20750000 46.20660000 24.51760000
7.78840000 46.06720000 24.69570000
6.52900000 46.15240000 24.74280000
7.03000000 46.06000000 24.91320000
7.40910000 45.99740000 25.11310000
7.86590000 45.97480000 25.11630000
7.36380000 47.89750000 22.25930000
7.82870000 47.71330000 22.53530000
8.25750000 47.70820000 22.48720000
8.46820000 47.54840000 22.76150000
7.37660000 46.45740000 24.14600000
7.48460000 46.34510000 24.27650000
7.70530000 46.57750000 23.96240000
8.09740000 46.43050000 24.08860000
7.79400000 48.05100000 21.62270000
7.73910000 47.99740000 21.88030000
8.28480000 47.95490000 21.62940000
8.53200000 47.81080000 22.08230000
7.59050000 46.24090000 24.41290000
7.96770000 46.22960000 24.37950000
7.06700000 48.03540000 22.02880000
7.46440000 47.97160000 22.06810000
7.86220000 47.90510000 22.10580000
8.38990000 47.76420000 22.30800000
7.65080000 45.91410000 25.99230000
7.39350000 45.91010000 26.24570000
7.97160000 45.91210000 25.93180000
7.99830000 45.90820000 26.44580000
8.71100000 47.94050000 20.74560000
8.61820000 47.92320000 21.28140000
9.01900000 47.85190000 20.62540000
9.08290000 47.76580000 21.57690000
8.60500000 47.88030000 21.63990000
8.83840000 47.78170000 21.90480000
8.50200000 46.42250000 24.08450000
8.28660000 46.26210000 24.30990000
8.86420000 46.40920000 24.13810000
8.41820000 46.20650000 24.41980000
8.09290000 46.78780000 23.70910000
8.46870000 46.78570000 23.68380000
8.75240000 47.70110000 22.42200000
8.82780000 47.66340000 22.54290000
8.93460000 47.71190000 22.32460000
9.30090000 47.67530000 22.51500000
9.01520000 47.72480000 22.13530000
9.19150000 47.70930000 22.12230000
8.20890000 45.95980000 25.11830000
8.32230000 45.92920000 25.37380000
8.37040000 45.98640000 24.95070000
8.88500000 45.93480000 25.22340000
8.25420000 45.91790000 25.71400000
8.43840000 45.92440000 25.84520000
8.66200000 46.68160000 23.79020000
8.92060000 46.78240000 23.70300000
8.71930000 46.15280000 24.54300000
8.67540000 46.06220000 24.72740000
9.12300000 46.23320000 24.44800000
9.52680000 46.07360000 24.76260000
8.69090000 46.00830000 24.87180000
9.16620000 45.98500000 24.95610000
8.95960000 47.61840000 22.66320000
8.83920000 47.58030000 22.73610000
9.32250000 47.62640000 22.73180000
9.36930000 47.57490000 22.89770000
8.78200000 45.92820000 26.06710000
8.84890000 45.91910000 26.46080000
9.23090000 45.92170000 25.88930000
9.64500000 45.90520000 26.48110000
8.83100000 47.50040000 22.85350000
9.15940000 47.46610000 22.99880000
9.31390000 47.76490000 20.59490000
9.45880000 47.69930000 21.09120000
9.36330000 47.70690000 22.12750000
9.56430000 47.71320000 22.34890000
9.42410000 47.71540000 21.85740000
9.78970000 47.72440000 22.07940000
9.55590000 47.68690000 21.48150000
9.79650000 47.65460000 21.38840000
9.73810000 47.71340000 22.79930000
9.95140000 47.74200000 22.91870000
9.88800000 47.77760000 22.71100000
10.54990000 47.93050000 22.87260000
9.87900000 47.77810000 22.55030000
10.13480000 47.83520000 22.53390000
9.22740000 46.77850000 23.75480000
9.34960000 46.54430000 24.04950000
9.46170000 47.00060000 23.58880000
10.02740000 46.68520000 24.00790000
9.41550000 46.36150000 24.31150000
9.77640000 46.32650000 24.41460000
10.03720000 47.62370000 21.29220000
10.13990000 47.66210000 21.60730000
10.22430000 47.57930000 20.93960000
10.60690000 47.62150000 21.26310000
9.91000000 47.66150000 23.08260000
9.60030000 47.54440000 23.10590000
10.57400000 47.74260000 23.28480000
9.73130000 47.47900000 23.24770000
10.49310000 47.50990000 20.40330000
10.44460000 47.52460000 20.57250000
10.45100000 47.53790000 20.74590000
10.80420000 47.54820000 20.89050000
9.70150000 45.94710000 25.02880000
9.86210000 45.90100000 25.15010000
10.16230000 45.95310000 24.98240000
10.76210000 45.87300000 25.17170000
10.16550000 47.76710000 23.03930000
10.55570000 47.86950000 23.07910000
9.80350000 47.25940000 23.47060000
10.30150000 47.25040000 23.60990000
10.30120000 47.74660000 21.88420000
10.25550000 47.82610000 22.23410000
10.58840000 47.78090000 21.84360000
10.62680000 47.90220000 22.30300000
10.33570000 47.88100000 22.49630000
10.63150000 47.94890000 22.60870000
10.30990000 46.23130000 24.54660000
10.49370000 46.05510000 24.78100000
10.68910000 46.30710000 24.44130000
11.48870000 46.01450000 24.83660000
10.93250000 46.55400000 24.17980000
11.00770000 46.35080000 24.38170000
11.67010000 46.47310000 24.31380000
11.48290000 46.23580000 24.53200000
10.88540000 47.98680000 22.60570000
10.98800000 47.99730000 22.70490000
10.94260000 47.95830000 22.37090000
11.47530000 47.99450000 22.46630000
11.09270000 48.00360000 22.79660000
10.96500000 47.97810000 22.94110000
11.50190000 48.00070000 22.76190000
11.39970000 47.97240000 22.97880000
10.84040000 47.93060000 23.06240000
10.94830000 47.91070000 23.12810000
10.62430000 45.96150000 24.93510000
11.15830000 45.91670000 25.03490000
10.13340000 45.86290000 25.28810000
9.85840000 45.87090000 25.43940000
10.78140000 45.83020000 25.37020000
10.82300000 45.80290000 25.67440000
9.73210000 45.88840000 25.76770000
10.18020000 45.86030000 26.08710000
10.57350000 45.82480000 26.39860000
10.41980000 45.83720000 26.72200000
11.04540000 45.77840000 26.29830000
11.24290000 45.74420000 26.95180000
10.85090000 47.85230000 21.99360000
11.04010000 47.81830000 21.85820000
11.05360000 47.88680000 23.19550000
11.07160000 47.79690000 23.31930000
11.46230000 47.90570000 23.14410000
11.66120000 47.78100000 23.35280000
11.37630000 47.65220000 23.46800000
11.29050000 47.50910000 23.55740000
11.79620000 47.57270000 23.56410000
12.09870000 47.26480000 23.80890000
10.91880000 47.26260000 23.68980000
11.08230000 47.00750000 23.87730000
11.43920000 47.82540000 21.85810000
11.90990000 47.91960000 22.16850000
11.42720000 47.72570000 21.53750000
12.44150000 47.85400000 21.88950000
11.30340000 47.63390000 21.20230000
11.67250000 47.66110000 21.20510000
11.24870000 46.79330000 24.03190000
11.86960000 46.84060000 24.07000000
11.37280000 45.80660000 25.44910000
11.64320000 45.78110000 25.59090000
11.58290000 45.82490000 25.35450000
12.42980000 45.79310000 25.58450000
11.99500000 47.67190000 21.10800000
12.45330000 47.75660000 21.32550000
12.25910000 47.95510000 22.79390000
12.47860000 47.91920000 22.94200000
12.67280000 47.93210000 22.71310000
13.74250000 47.83300000 22.93390000
12.77710000 47.79690000 21.38750000
13.01120000 47.84660000 21.63830000
12.22930000 47.88920000 23.07650000
12.73640000 47.81970000 23.15420000
11.62710000 45.86840000 25.20210000
11.96680000 45.87410000 25.22060000
11.91420000 45.75470000 25.73000000
11.66840000 45.74950000 25.87900000
12.44530000 45.74970000 25.82810000
12.39460000 45.72020000 26.12940000
11.51620000 45.74750000 26.20000000
11.88180000 45.72160000 26.50460000
12.37270000 46.85500000 24.14970000
12.39480000 46.65210000 24.31100000
12.71190000 47.04540000 24.07410000
13.03760000 46.81300000 24.33450000
11.79000000 46.20590000 24.59840000
11.91980000 46.11290000 24.75090000
11.99280000 46.33490000 24.49740000
12.32340000 46.25570000 24.67520000
12.40130000 47.93990000 22.33850000
12.52920000 47.94980000 22.50250000
12.95550000 47.90700000 22.27020000
13.42840000 47.90480000 22.51380000
12.95930000 47.92010000 22.64910000
13.63240000 47.87730000 22.71850000
12.36070000 46.49620000 24.43550000
12.72010000 46.51780000 24.51560000
12.10340000 46.03400000 24.91810000
12.09210000 45.94600000 25.06540000
12.41020000 46.08180000 24.94170000
12.57500000 45.95370000 25.20950000
12.19110000 45.87960000 25.23690000
12.51620000 45.85860000 25.39060000
12.27430000 47.49550000 23.66640000
12.69400000 47.32870000 23.83490000
12.47000000 47.56220000 23.61920000
13.26740000 47.30110000 23.91440000
12.24920000 45.69150000 26.79940000
12.12650000 45.68460000 27.11600000
12.69120000 45.68690000 26.68720000
12.85330000 45.64480000 27.27610000
12.94080000 47.16760000 24.00600000
13.21590000 47.05630000 24.15140000
13.56810000 47.90060000 22.21100000
14.02810000 47.90360000 22.33460000
13.59940000 47.89290000 22.03070000
14.68540000 47.89650000 22.09010000
13.52990000 47.87600000 21.81690000
13.97760000 47.87090000 21.72160000
14.23820000 47.86020000 21.61190000
14.63960000 47.86470000 21.71530000
13.05520000 47.57470000 23.60100000
13.75620000 47.45760000 23.73320000
13.06630000 47.67230000 23.45260000
14.45830000 47.55300000 23.54970000
13.02210000 46.49230000 24.62850000
12.90090000 46.32250000 24.77430000
13.30630000 46.65020000 24.55960000
13.51440000 46.43450000 24.83380000
12.77650000 46.17190000 24.93400000
13.01900000 46.14040000 25.07600000
12.84990000 45.89640000 25.45430000
13.03570000 45.89520000 25.58800000
13.02670000 45.98070000 25.35720000
13.61280000 46.02190000 25.50930000
13.20640000 46.10520000 25.21540000
13.52090000 46.20010000 25.17120000
12.91120000 45.77500000 25.97320000
13.05470000 45.76490000 26.21340000
13.11400000 45.82100000 25.92230000
13.68130000 45.82740000 26.34660000
13.26770000 45.88500000 25.80200000
13.67860000 45.90990000 25.93740000
14.06610000 47.36650000 23.86090000
13.84170000 47.22570000 24.03550000
14.38310000 47.36450000 23.86590000
14.22880000 47.13470000 24.15690000
13.37290000 46.86300000 24.37170000
13.48680000 46.89590000 24.35710000
13.33280000 47.73390000 23.28360000
14.12920000 47.71030000 23.22900000
13.07330000 45.72800000 26.56490000
13.35540000 45.73280000 26.83200000
13.71730000 46.98270000 24.29210000
13.90490000 46.81250000 24.48040000
14.44730000 47.74100000 23.11370000
14.63230000 47.71250000 23.15100000
14.30450000 47.81990000 22.90570000
14.61500000 47.83440000 22.79850000
13.58490000 45.72030000 27.07390000
13.38160000 45.65820000 27.38600000
13.91290000 45.75110000 26.93550000
13.94760000 45.65490000 27.53370000
14.04390000 47.86130000 22.76180000
14.08530000 47.87930000 22.65250000
14.03890000 46.66260000 24.63050000
13.91090000 46.42750000 24.87520000
14.25570000 46.80110000 24.49110000
14.36320000 46.42190000 24.83990000
14.28730000 47.89260000 22.48750000
14.68130000 47.87650000 22.46760000
13.78270000 46.26960000 25.09050000
13.94900000 46.21010000 25.16740000
14.86130000 47.70710000 23.07410000
14.93820000 47.61940000 23.23380000
14.99530000 47.76500000 22.84900000
15.41120000 47.60860000 22.94010000
14.55640000 47.33570000 23.89690000
14.51150000 47.18630000 24.08090000
14.71090000 47.40950000 23.73440000
14.84980000 47.20780000 23.94640000
14.43580000 46.94830000 24.32980000
14.60470000 46.83000000 24.40170000
14.98060000 47.84240000 22.45880000
15.05540000 47.80800000 22.60670000
15.12930000 47.83460000 22.28510000
15.67180000 47.65080000 22.45620000
15.15120000 47.77730000 22.69350000
15.54230000 47.63460000 22.72040000
14.28040000 46.05410000 25.34730000
14.43910000 45.97370000 25.50110000
14.33500000 45.92500000 25.69560000
14.96160000 46.07190000 25.21630000
14.91640000 45.95500000 25.49010000
14.93250000 45.88080000 25.74970000
14.89600000 47.85090000 21.76950000
15.05290000 47.84900000 21.95690000
15.20010000 47.82530000 22.12750000
15.42920000 47.74870000 22.10930000
14.50630000 45.86050000 25.97910000
14.32490000 45.86870000 26.06300000
15.00050000 45.81360000 26.08760000
15.08130000 45.74240000 26.56150000
14.14270000 45.86750000 26.14580000
14.33570000 45.79720000 26.47930000
14.91270000 47.50540000 23.46160000
15.10950000 47.46100000 23.40810000
14.23400000 46.15650000 25.19520000
14.62010000 46.21010000 25.05560000
14.97050000 46.73720000 24.39930000
15.12960000 46.52920000 24.56300000
15.30240000 46.88820000 24.14740000
15.79450000 46.60110000 24.32050000
14.29780000 45.74990000 26.82590000
14.55930000 45.70690000 27.06280000
15.40230000 47.36810000 23.37960000
15.45660000 47.18510000 23.64930000
15.80490000 47.32480000 23.19060000
16.08800000 47.02980000 23.51970000
15.58070000 46.98740000 23.88450000
15.95590000 46.83210000 23.91650000
15.39580000 46.41940000 24.63980000
15.18870000 46.33650000 24.79300000
15.89340000 46.41140000 24.55820000
15.91590000 46.27670000 24.76550000
15.07040000 46.24540000 24.93340000
15.46310000 46.17720000 24.98020000
16.17000000 47.28540000 22.93030000
16.39120000 47.11590000 23.12450000
16.59870000 47.05970000 23.00430000
17.22890000 46.59390000 23.46190000
16.36970000 47.07800000 23.22890000
16.74070000 46.78930000 23.49020000
15.76840000 47.60830000 22.02900000
16.08810000 47.48530000 22.08170000
15.43540000 45.95640000 25.44750000
15.58040000 45.90340000 25.62860000
15.67440000 46.02540000 25.26490000
16.48430000 45.97540000 25.32480000
15.50270000 45.84330000 25.92550000
15.80280000 45.83900000 25.98650000
14.82400000 45.68380000 27.25780000
14.76170000 45.65030000 27.55440000
15.24680000 45.69180000 27.07790000
15.47900000 45.64450000 27.49280000
15.82430000 46.11070000 25.07960000
16.20590000 46.13490000 25.00510000
17.07840000 46.81640000 23.10190000
17.58620000 46.45010000 23.44930000
17.00050000 46.93650000 22.88220000
18.12490000 46.32620000 23.28030000
15.86070000 45.75040000 26.42450000
15.68260000 45.71030000 26.81250000
16.66950000 45.74840000 26.21130000
15.98660000 45.69990000 26.88230000
16.54250000 47.31320000 22.03960000
16.69880000 47.26310000 22.12990000
16.92870000 47.14820000 21.85730000
16.25990000 46.63010000 24.11340000
16.29980000 46.43450000 24.41800000
16.49700000 46.62700000 23.99610000
16.82000000 46.22760000 24.54410000
17.02950000 47.09630000 21.72310000
16.24360000 46.35140000 24.56630000
16.38110000 46.24510000 24.71200000
16.44900000 46.15210000 24.90320000
16.71440000 46.09020000 24.92540000
16.84740000 46.56470000 23.85100000
17.20540000 46.35390000 23.97450000
16.06880000 45.81760000 26.05410000
16.59810000 45.85470000 25.75630000
16.34070000 45.67420000 26.91440000
16.29750000 45.63150000 27.20760000
16.88040000 45.66760000 26.62320000
17.08520000 45.59880000 26.95370000
16.60270000 45.47370000 27.64780000
16.06630000 45.56550000 27.59180000
16.39420000 45.58700000 27.36920000
16.85380000 45.55370000 27.28840000
17.35000000 46.86110000 22.65430000
18.22470000 46.49870000 22.65000000
17.12340000 47.04890000 22.36600000
18.31500000 46.59650000 22.17490000
17.18230000 47.06360000 22.16750000
17.85100000 46.80390000 21.99990000
17.24170000 45.86430000 25.44410000
17.62040000 45.79800000 25.54360000
17.52810000 45.91050000 25.10490000
18.51330000 45.85100000 24.91050000
17.19480000 45.52400000 27.28260000
17.15010000 45.45250000 27.53040000
17.49110000 45.53360000 27.09850000
17.69730000 45.44740000 27.41800000
17.09680000 46.05020000 24.79520000
17.32580000 45.99090000 24.83710000
17.37340000 46.09570000 24.49380000
17.90280000 46.02440000 24.37050000
18.02980000 45.71390000 25.72930000
17.74780000 45.65770000 26.13830000
18.71540000 45.69420000 25.54710000
18.77500000 45.55040000 26.23340000
17.51510000 45.63110000 26.44120000
17.85150000 45.57530000 26.59830000
17.51580000 46.29080000 23.84190000
17.50570000 46.23590000 23.98990000
17.62140000 46.16120000 24.12510000
17.98720000 46.15160000 23.89920000
18.15940000 46.71770000 21.78160000
18.53610000 46.59830000 21.75640000
17.71230000 45.94240000 24.83950000
18.19460000 45.94480000 24.57260000
17.91230000 45.53460000 26.82450000
18.22770000 45.50190000 26.86910000
18.25960000 46.14100000 23.76840000
18.34840000 46.06010000 24.00400000
18.54820000 46.17870000 23.44890000
18.87720000 46.07360000 23.72480000
18.44430000 45.98890000 24.26320000
18.76280000 45.95990000 24.31900000
18.14150000 45.44440000 27.52260000
18.00360000 45.39830000 27.79990000
17.71280000 45.35310000 27.88230000
18.58120000 45.45230000 27.67580000
18.18210000 45.38520000 27.99970000
17.90590000 45.30430000 28.24480000
19.13320000 46.14290000 23.10480000
19.56530000 46.06830000 23.10390000
19.37820000 46.14680000 22.82990000
20.57180000 46.00770000 22.51800000
18.36050000 45.47690000 27.11930000
18.71200000 45.48810000 26.96350000
18.98350000 46.30680000 22.43490000
19.28720000 46.21160000 22.51280000
19.23440000 46.33920000 22.04460000
19.69120000 46.13440000 22.50220000
20.34590000 46.06020000 22.16580000
19.09250000 46.44210000 21.75940000
19.30900000 45.67910000 25.46740000
19.60260000 45.61170000 25.74560000
19.40230000 45.76610000 25.07220000
20.32200000 45.67060000 25.32850000
18.80860000 45.47330000 28.05700000
18.47240000 45.41610000 28.14490000
19.22600000 45.49600000 28.30720000
18.51430000 45.39360000 28.31820000
19.16400000 45.51320000 26.72270000
19.31610000 45.51610000 26.95990000
19.50740000 45.55120000 26.24590000
20.01390000 45.56400000 26.30430000
19.25280000 45.87600000 24.60580000
19.53020000 45.88690000 24.48530000
19.81760000 45.58630000 25.91780000
20.22400000 45.59550000 25.84810000
20.19880000 45.92260000 23.89890000
19.60560000 45.98950000 23.79930000
19.81740000 46.01410000 23.31660000
20.31810000 45.96980000 23.26780000
19.15340000 45.52100000 27.87670000
19.47740000 45.55570000 27.87670000
19.23420000 45.52540000 27.56530000
19.82920000 45.57700000 27.36190000
19.48800000 45.53950000 27.13510000
19.95730000 45.56820000 26.82350000
19.73970000 45.57300000 27.82530000
19.79370000 45.54280000 27.97340000
20.03160000 45.58080000 27.50090000
20.25250000 45.55050000 27.61900000
19.75240000 45.89940000 24.32280000
20.23680000 45.82640000 24.52550000
20.70800000 46.01550000 21.97520000
20.94060000 45.98870000 22.08190000
20.85050000 46.00230000 21.77300000
21.20380000 45.96180000 21.84120000
20.33240000 45.55350000 27.08360000
20.54540000 45.52440000 27.01470000
20.36190000 45.54330000 26.81050000
20.91590000 45.46030000 26.25100000
20.32100000 45.54920000 26.57870000
20.48440000 45.53870000 26.19960000
20.64880000 45.82700000 24.41260000
20.86220000 45.76800000 24.64720000
20.72610000 45.89900000 23.91160000
21.35750000 45.87120000 23.90110000
20.50530000 45.56480000 25.90760000
20.67380000 45.55640000 25.78250000
20.71380000 45.94170000 23.40650000
20.98300000 45.95640000 23.20250000
20.84300000 45.54400000 25.65590000
21.09160000 45.46980000 25.74410000
20.85620000 45.60060000 25.34040000
21.25290000 45.51090000 25.31510000
21.21850000 45.98490000 23.14010000
21.52380000 45.97110000 23.38700000
21.24030000 46.01430000 22.84550000
21.65470000 46.00890000 23.08160000
20.99550000 45.69000000 24.89430000
21.28920000 45.67820000 24.69310000
20.06750000 45.48630000 28.01610000
20.01260000 45.44470000 28.16360000
20.44320000 45.46860000 27.86130000
20.73700000 45.32980000 28.02540000
19.96520000 45.31730000 28.44640000
19.60620000 45.43230000 28.40600000
19.98350000 45.42370000 28.26080000
20.34780000 45.33110000 28.25690000
21.16940000 45.94500000 21.58340000
21.51730000 45.90050000 21.59220000
20.62200000 45.15160000 28.36540000
20.40430000 45.09210000 28.53670000
20.92170000 45.06170000 28.30810000
21.00020000 44.70950000 28.72000000
20.66770000 45.45140000 27.76170000
20.89490000 45.37390000 27.79810000
20.63500000 45.48730000 27.54960000
20.98900000 45.38570000 27.55460000
21.31530000 45.98590000 22.22080000
21.40230000 46.00180000 22.45920000
21.60960000 45.96540000 22.08000000
22.15170000 45.96600000 22.40290000
21.48740000 46.01920000 22.69320000
21.86000000 46.01400000 22.82830000
21.77670000 45.91540000 21.82900000
22.04610000 45.87110000 21.73820000
20.70370000 45.49040000 27.14820000
20.95070000 45.42740000 27.00190000
21.39880000 45.35680000 25.76330000
21.49330000 45.28550000 26.02740000
21.61390000 45.32500000 25.53090000
21.95270000 45.14300000 25.78510000
21.82100000 45.94260000 23.37970000
21.90400000 45.85990000 23.55110000
21.99340000 45.96140000 23.14500000
22.42270000 45.79280000 23.17860000
22.08990000 45.97690000 22.93270000
22.27700000 45.93780000 22.80150000
21.57930000 45.60640000 24.60580000
21.68000000 45.46510000 24.94450000
21.78080000 45.65890000 24.21610000
22.15010000 45.38290000 24.59450000
22.21700000 45.77850000 21.37650000
22.33390000 45.75500000 21.40590000
21.98770000 45.72500000 23.84240000
22.27810000 45.59710000 23.87610000
21.11170000 45.28020000 27.81670000
21.15780000 45.18650000 27.95630000
21.25010000 45.24580000 27.72900000
21.50440000 45.04030000 27.85520000
21.38820000 45.20940000 27.64570000
21.60270000 45.09710000 27.61420000
21.30220000 45.27490000 27.45810000
21.68400000 45.11820000 27.27320000
21.80320000 45.33650000 25.22630000
22.07890000 45.22490000 25.22100000
22.40420000 45.89940000 22.63180000
22.61720000 45.76600000 22.70030000
22.42680000 45.87780000 22.34380000
22.72570000 45.70490000 22.30910000
22.45110000 45.69200000 21.33460000
22.46030000 45.75180000 21.72870000
21.19090000 45.33850000 27.08570000
21.33940000 45.29160000 26.79560000
22.49720000 45.78450000 21.95850000
22.67150000 45.66450000 21.79750000
21.55960000 45.22990000 26.45750000
21.85420000 45.10890000 26.50830000
21.82340000 44.96820000 27.49140000
21.86910000 44.86400000 27.57660000
21.98650000 44.91080000 27.24070000
22.22060000 44.66270000 27.21500000
21.84720000 44.71760000 27.82400000
21.64200000 44.72450000 28.11960000
21.97370000 44.54860000 27.83560000
21.73260000 44.42660000 28.40570000
22.12090000 44.97930000 26.35930000
22.14980000 44.91800000 26.63440000
22.27610000 44.96280000 25.83340000
22.60650000 44.71260000 25.88570000
22.18730000 44.84660000 26.83330000
22.41760000 44.68510000 26.59350000
22.90450000 45.52420000 21.88630000
23.08280000 45.45640000 22.24830000
23.08310000 45.36420000 21.71470000
22.04080000 44.40020000 27.88260000
21.93000000 44.26670000 28.26640000
22.21080000 44.37770000 27.57260000
22.14370000 44.09160000 27.99940000
22.28480000 45.06870000 25.37980000
22.42560000 45.04660000 25.17740000
22.56200000 45.39010000 24.00640000
22.61910000 45.17330000 24.45960000
22.83150000 45.33000000 23.74720000
23.16840000 44.86620000 24.33500000
22.41530000 44.29240000 27.24130000
22.46730000 44.10910000 27.28690000
22.53270000 44.38340000 26.86940000
22.79780000 44.05710000 26.66670000
22.63520000 45.00370000 24.92340000
22.87950000 44.76490000 25.13100000
22.58560000 44.48820000 26.52450000
22.77900000 44.35680000 26.26250000
23.31330000 45.18320000 21.56770000
23.39940000 45.25510000 22.53900000
23.30680000 45.31700000 22.66170000
23.74490000 45.01430000 22.59890000
24.05500000 44.77970000 22.98910000
23.05870000 45.47090000 22.80460000
23.21750000 45.30560000 23.11810000
22.47900000 43.96070000 27.33730000
22.35950000 43.87480000 27.62860000
22.61900000 43.85510000 27.11240000
22.50370000 43.70500000 27.42700000
23.98070000 44.86010000 22.49390000
24.26530000 44.67460000 22.53960000
22.67610000 43.70180000 27.11240000
22.60590000 43.55120000 27.34750000
22.82850000 43.70550000 26.90140000
22.79390000 43.29040000 27.39350000
23.04480000 44.16840000 26.10660000
23.15600000 43.91900000 26.29080000
23.11320000 44.26560000 25.81110000
23.66480000 43.74920000 25.84850000
23.13280000 44.44770000 25.37540000
23.43270000 44.34580000 25.02340000
23.07160000 43.71380000 26.59850000
23.16250000 43.54170000 26.65470000
23.23360000 45.16210000 23.50780000
23.63190000 44.85250000 23.60590000
23.22260000 43.37100000 26.78220000
23.11020000 43.17170000 27.16450000
23.44120000 43.38410000 26.55400000
23.45500000 43.02110000 27.06520000
23.82630000 44.30400000 24.45370000
24.18240000 44.04740000 24.44600000
23.91430000 44.52840000 23.85420000
23.58140000 43.39990000 26.42460000
23.70770000 43.19990000 26.65510000
23.80750000 43.48640000 26.15890000
24.03450000 43.26010000 26.37070000
24.00030000 44.63210000 23.50300000
24.39170000 44.49840000 23.11780000
24.56740000 44.48140000 22.49690000
24.65400000 44.41250000 22.67290000
24.68890000 44.36230000 22.82280000
24.54740000 43.87020000 24.33280000
24.55000000 43.65770000 24.88150000
24.21660000 43.37700000 26.04560000
24.50170000 43.17120000 26.18140000
24.45020000 43.37620000 25.80230000
25.15280000 42.97650000 25.95910000
24.71760000 43.43070000 25.29110000
25.16150000 43.28720000 25.09170000
25.42410000 43.16060000 25.10320000
25.52220000 42.92350000 25.62550000
25.54150000 43.21450000 24.77280000
25.88560000 42.77940000 25.45590000
24.78890000 42.91170000 26.44410000
24.52290000 42.90480000 26.65700000
25.22910000 42.66620000 26.54720000
25.17190000 42.43080000 27.02900000
25.54450000 42.45170000 26.67700000
25.67250000 42.23170000 26.98410000
25.62280000 42.52870000 26.42550000
26.00370000 42.08650000 26.89700000
25.68720000 43.17790000 24.64980000
25.92680000 42.95310000 24.91060000
25.67880000 42.64680000 26.09050000
25.97820000 42.37760000 26.27920000
26.24490000 42.69610000 25.04420000
26.37700000 42.51180000 25.28840000
27.21430000 40.87840000 27.72000000
26.57760000 41.53660000 27.25700000
26.41540000 41.88550000 26.72610000
26.57560000 41.81870000 26.60690000
26.53520000 42.27730000 25.58830000
26.46810000 42.18660000 25.91380000
28.33400000 47.33260000 28.02750000
27.67920000 48.05990000 26.69120000
27.25040000 48.62880000 27.55110000
27.29280000 48.63380000 28.55680000
26.78810000 49.16390000 27.19020000
26.41640000 49.71800000 29.07520000
27.50990000 41.09890000 26.41570000
27.49010000 40.94760000 26.81470000
28.67000000 46.77720000 24.10200000
29.34850000 45.94870000 23.67740000
28.29640000 47.23960000 24.99330000
29.08430000 46.27900000 24.72170000
28.16710000 47.43500000 25.97420000
28.71990000 46.77090000 26.01770000
29.86030000 45.30320000 23.51560000
29.78430000 45.39700000 24.26030000
29.35750000 45.96090000 25.38780000
29.62380000 45.64440000 25.78850000
30.26740000 44.86300000 26.28570000
31.10230000 43.78820000 25.45580000
30.11590000 45.10870000 27.75860000
29.42290000 46.07030000 30.15950000
30.11160000 45.17800000 29.34620000
30.44080000 44.87440000 32.09620000
31.15990000 43.88950000 29.89800000
31.49290000 43.25990000 24.70590000
-34.23980000 42.55330000 21.18410000
-33.86560000 43.15500000 21.93140000
-34.56210000 42.06190000 20.99480000
-33.17910000 44.08230000 20.09930000
-32.95610000 44.46030000 20.83440000
-31.97410000 46.01470000 23.24950000
-32.10720000 45.75240000 21.66280000
-32.61900000 44.99700000 21.66320000
-32.83210000 44.69810000 22.28060000
-33.26320000 44.07390000 22.48900000
-33.02280000 44.46590000 23.03250000
-32.65410000 45.06070000 23.72930000
-31.99160000 46.07480000 24.35820000
-33.08870000 44.46130000 24.08780000
-32.20370000 45.85200000 25.37330000
-31.56870000 46.51440000 21.55390000
-31.39460000 46.71510000 20.69140000
-31.27920000 46.96890000 22.46470000
-31.13410000 47.03160000 19.96470000
-31.34170000 47.13430000 26.10860000
-31.55990000 46.71520000 24.60920000
-31.69380000 46.55660000 25.01260000
-31.75400000 46.53550000 25.86130000
-31.25270000 47.08730000 23.66300000
-30.89110000 47.58360000 23.33130000
-30.38430000 48.21390000 22.08800000
-30.25020000 48.43310000 22.55350000
-29.65720000 43.33860000 21.81520000
-29.73850000 43.21620000 22.09330000
-29.47110000 43.61700000 21.96740000
-29.38110000 43.71310000 22.78840000
-29.31500000 43.81930000 21.81580000
-29.18330000 43.95610000 22.05390000
-30.19920000 42.63960000 23.28320000
-29.74450000 43.24700000 22.97660000
-29.62840000 43.37250000 23.29930000
-29.78790000 43.14220000 23.50160000
-29.40470000 43.62790000 23.33470000
-29.45910000 43.46790000 23.76430000
-28.67270000 44.32460000 20.61810000
-28.72540000 44.36140000 21.26300000
-28.50780000 44.41600000 20.45150000
-28.52120000 44.50060000 21.26610000
-29.00000000 44.11770000 22.29360000
-28.97900000 44.10860000 22.75990000
-28.82950000 44.28200000 22.01990000
-28.60670000 44.42550000 22.70470000
-28.70270000 44.39670000 21.80210000
-28.54530000 44.50610000 21.93140000
-28.94930000 44.11150000 23.07450000
-29.10820000 43.94940000 23.23030000
-28.77410000 44.24490000 23.21240000
-28.90430000 44.07100000 23.57230000
-29.21790000 43.81720000 23.39780000
-29.12830000 43.83820000 23.66750000
-28.68400000 44.27300000 23.44860000
-28.72860000 44.16610000 23.77190000
-28.58500000 44.34390000 23.40060000
-28.55140000 44.23200000 23.96970000
-28.37340000 44.51350000 20.54240000
-28.35130000 44.59750000 21.16830000
-28.40350000 44.58550000 21.72640000
-28.36370000 44.58550000 21.95760000
-28.48500000 44.41300000 23.35970000
-28.40710000 44.40220000 23.61080000
-28.42110000 44.50110000 22.94170000
-28.23540000 44.55070000 23.15010000
-28.33370000 44.57650000 22.34720000
-28.21040000 44.63190000 22.12960000
-27.67630000 44.77150000 21.41380000
-27.99110000 44.73750000 21.31490000
-27.89320000 44.74990000 20.92770000
-27.72640000 44.75260000 20.75060000
-28.08880000 44.68740000 21.90420000
-28.02960000 44.67350000 22.34810000
-28.27050000 44.42230000 23.77890000
-28.26220000 44.35470000 24.02590000
-28.10550000 44.50560000 23.67890000
-27.82420000 44.47940000 24.04020000
-27.46820000 44.72490000 20.27340000
-27.26200000 44.72040000 20.19330000
-27.92910000 44.55710000 23.61970000
-27.66070000 44.57100000 23.71290000
-27.91910000 44.59850000 23.30110000
-27.50300000 44.63540000 23.33960000
-27.89860000 44.65880000 22.75750000
-27.67020000 44.69960000 22.56120000
-27.11380000 44.73610000 22.02850000
-27.37040000 44.71280000 22.49990000
-26.67960000 44.70410000 22.44440000
-27.10800000 44.68260000 22.92630000
-26.87210000 44.71890000 20.03530000
-26.72560000 44.74010000 20.45540000
-26.51170000 44.68980000 19.45000000
-26.01390000 44.71840000 19.75380000
-25.19770000 44.67620000 21.14430000
-26.43240000 44.72500000 21.20310000
-26.27490000 44.72420000 20.69940000
-25.63610000 44.70640000 20.37280000
-26.53850000 44.72180000 21.65630000
-26.06800000 44.69380000 21.87180000
-26.40570000 44.68200000 19.10450000
-26.12840000 44.70660000 19.18800000
-26.79720000 44.67760000 23.15110000
-26.92490000 44.65090000 23.43750000
-26.39720000 44.69210000 22.84250000
-26.12860000 44.68790000 23.32650000
-27.21030000 44.60480000 23.65770000
-27.00730000 44.60070000 23.71150000
-25.75150000 44.73790000 19.35290000
-25.46250000 44.74770000 19.72440000
-26.75320000 44.61190000 23.75710000
-26.92340000 44.57210000 23.94850000
-26.17110000 44.67150000 23.69720000
-26.03700000 44.65270000 23.98750000
-26.80820000 44.53320000 24.16500000
-27.09910000 44.45750000 24.35040000
-26.25320000 44.55370000 24.30900000
-26.27460000 44.41620000 24.77790000
-25.29190000 44.72710000 20.13900000
-25.02060000 44.73720000 20.43610000
-25.96520000 44.68650000 22.30750000
-25.63620000 44.68090000 22.26240000
-25.38350000 44.68900000 22.33160000
-25.41560000 44.71380000 22.92240000
-25.06660000 44.69530000 21.95970000
-24.83810000 44.75090000 22.70120000
-24.65850000 44.95850000 19.62060000
-24.71620000 44.85810000 20.06900000
-24.51250000 45.04670000 19.56310000
-24.54640000 44.93610000 20.15160000
-24.82340000 44.75930000 20.82980000
-24.77610000 44.74510000 21.29400000
-24.72540000 44.80100000 20.72500000
-24.42730000 44.87140000 21.54940000
-24.67730000 44.82230000 20.59230000
-24.53600000 44.87650000 20.77770000
-25.71860000 44.57550000 24.60810000
-25.45850000 44.51610000 25.05150000
-25.40420000 44.63780000 24.60840000
-24.74930000 44.60450000 25.28110000
-24.20220000 45.36390000 18.62860000
-23.91490000 45.43600000 18.99870000
-24.31420000 45.15980000 19.53420000
-24.28580000 45.10980000 19.96100000
-24.11420000 45.31060000 19.26400000
-23.91800000 45.35180000 19.72420000
-23.83070000 45.44780000 19.21780000
-23.58590000 45.53300000 19.47690000
-25.61030000 44.73150000 23.79270000
-25.32380000 44.75410000 23.99710000
-25.36120000 44.75760000 23.67630000
-24.62560000 44.83490000 23.99130000
-24.85940000 44.71780000 21.91130000
-24.61520000 44.77000000 22.38400000
-24.79810000 44.72560000 21.67040000
-24.45010000 44.80200000 22.20210000
-24.70900000 44.75000000 21.62100000
-24.52230000 44.79860000 21.88570000
-24.33300000 45.02370000 20.50590000
-24.15240000 45.12930000 20.58700000
-25.19720000 44.75450000 23.37430000
-24.68470000 44.80350000 23.41680000
-25.03460000 44.70580000 24.62390000
-24.50510000 44.72830000 24.96750000
-25.11250000 44.74650000 24.33770000
-24.25740000 44.82960000 24.64260000
-24.98130000 44.78310000 24.21650000
-24.39280000 44.85340000 24.32260000
-22.91260000 45.57590000 21.71510000
-23.66270000 45.23510000 21.66170000
-23.56480000 45.34430000 21.34560000
-23.15500000 45.56590000 21.19410000
-23.83330000 45.25030000 21.08330000
-23.35680000 45.54740000 20.64990000
-24.32220000 44.84980000 22.07010000
-24.13240000 44.88160000 22.34830000
-24.12060000 44.93940000 22.01430000
-23.73950000 45.01520000 22.42800000
-24.07740000 44.88850000 23.56930000
-23.79860000 44.94160000 23.98930000
-23.97300000 44.89160000 23.26010000
-22.90100000 45.07880000 23.92780000
-24.09230000 44.86420000 22.90220000
-23.78970000 44.92020000 22.96280000
-23.90840000 45.26700000 20.62320000
-23.64950000 45.45430000 20.15350000
-23.46740000 45.56470000 19.83510000
-23.24580000 45.64280000 20.04220000
-23.74870000 45.13770000 21.91490000
-23.38040000 45.26270000 22.09960000
-23.83940000 44.93130000 24.26450000
-23.57230000 44.94290000 24.41850000
-23.74380000 44.94280000 22.82680000
-23.35690000 45.03130000 23.09820000
-22.97890000 45.72370000 20.33360000
-22.89970000 45.72210000 20.77320000
-22.80860000 45.78030000 20.11730000
-22.38060000 45.86510000 20.96470000
-22.86370000 45.70190000 21.10790000
-22.64240000 45.75480000 21.32680000
-24.07580000 44.74010000 25.21430000
-24.05610000 44.65610000 25.53250000
-23.76880000 44.80970000 25.06270000
-23.36420000 44.75260000 25.59880000
-23.02950000 45.31550000 22.45270000
-23.07270000 45.18800000 22.84050000
-22.66580000 45.47840000 22.43860000
-22.45570000 45.36800000 23.11650000
-23.44180000 44.89830000 24.75510000
-23.04390000 44.95000000 24.78210000
-22.67590000 45.80050000 19.78560000
-22.45170000 45.84330000 20.00090000
-22.47170000 45.78620000 21.52640000
-22.48520000 45.71580000 21.85170000
-22.16440000 45.85450000 21.57870000
-22.08770000 45.78000000 22.09030000
-23.00730000 45.13270000 23.22330000
-22.59700000 45.22370000 23.53910000
-22.28330000 45.87990000 20.21090000
-22.05780000 45.91760000 20.82290000
-22.18550000 45.88030000 19.93930000
-21.76700000 45.94760000 20.75980000
-22.00840000 45.89020000 19.91440000
-21.67980000 45.93640000 20.41470000
-22.64870000 45.05400000 24.77790000
-22.58510000 45.04460000 25.13970000
-22.34590000 45.19260000 24.39820000
-22.02720000 45.26390000 24.81400000
-22.45370000 45.60640000 22.30200000
-22.26300000 45.58640000 22.61610000
-22.07210000 45.56290000 22.92900000
-22.09370000 45.43570000 23.35790000
-21.82790000 45.67350000 22.78040000
-21.67760000 45.51400000 23.61430000
-22.26760000 45.31870000 23.62170000
-22.20780000 45.30830000 23.81290000
-22.51330000 45.05710000 25.43140000
-22.87140000 44.89330000 25.82310000
-22.17420000 45.18300000 25.39630000
-22.48490000 45.04030000 26.06270000
-21.60540000 45.91610000 21.88170000
-21.34770000 45.89180000 22.31470000
-21.44660000 45.94820000 21.76880000
-20.44530000 45.99260000 22.66470000
-21.54580000 45.95580000 21.45470000
-21.11760000 45.99060000 21.67550000
-22.10620000 45.30720000 24.09210000
-21.84850000 45.38170000 24.26460000
-21.96120000 45.25650000 25.47090000
-22.01530000 45.24230000 25.85580000
-21.80510000 45.32870000 25.15330000
-21.64290000 45.36510000 25.68910000
-21.73720000 45.39270000 24.67400000
-21.58630000 45.44120000 24.61580000
-22.07770000 45.25730000 26.27820000
-22.34200000 45.15370000 26.57280000
-21.96740000 45.32180000 26.47480000
-22.27970000 45.24430000 27.12740000
-21.36880000 45.79090000 22.73270000
-21.01900000 45.76780000 23.13340000
-20.78220000 45.73540000 23.50900000
-21.03770000 45.60440000 23.95090000
-20.35630000 45.84140000 23.48480000
-20.45810000 45.68190000 24.25600000
-21.25730000 45.50830000 24.50610000
-21.06380000 45.50960000 24.94660000
-20.91540000 45.51790000 25.31550000
-21.16130000 45.46180000 25.84110000
-20.57130000 45.60210000 25.10620000
-20.58250000 45.57000000 25.96930000
-21.92060000 45.36220000 26.73080000
-22.03650000 45.35840000 27.13670000
-21.71910000 45.39230000 26.52510000
-21.79520000 45.40250000 27.21160000
-20.12230000 45.75630000 19.85270000
-20.37530000 45.83230000 20.34680000
-19.45610000 45.70430000 19.90950000
-19.49960000 45.78960000 20.69330000
-20.68690000 46.02740000 21.88370000
-20.13290000 46.06170000 22.42930000
-20.91130000 46.01670000 21.45110000
-19.93920000 46.06630000 22.12040000
-21.13330000 45.98960000 21.00800000
-20.70780000 45.98270000 21.09050000
-20.30040000 45.91900000 20.95550000
-19.75340000 45.93200000 21.38860000
-21.40500000 45.43710000 26.33780000
-21.27380000 45.46810000 26.62550000
-21.13610000 45.47550000 26.88040000
-21.33440000 45.43160000 27.27580000
-20.71490000 45.53280000 26.74610000
-20.77330000 45.48720000 27.34440000
-19.98620000 45.93630000 23.45700000
-19.88490000 45.89790000 23.78020000
-19.82740000 46.04190000 23.10010000
-19.37680000 46.07350000 23.47540000
-19.78660000 46.08360000 22.80780000
-19.55760000 46.09990000 22.82810000
-19.38700000 45.97100000 21.84320000
-19.34110000 46.06170000 22.43120000
-19.12100000 45.91130000 21.67220000
-18.75390000 46.03310000 22.80800000
-19.83050000 45.87930000 24.03120000
-20.07630000 45.77250000 24.40490000
-19.61070000 45.94810000 24.07800000
-19.85900000 45.83080000 24.58370000
-20.28460000 45.68800000 24.89250000
-20.17830000 45.70900000 25.15470000
-19.99620000 45.74530000 25.28380000
-19.98370000 45.71980000 25.61210000
-19.71580000 45.84420000 24.89400000
-19.47300000 45.85050000 25.27160000
-19.54210000 45.93660000 24.42240000
-19.39520000 45.96830000 24.38850000
-18.75880000 45.86430000 21.60340000
-18.37200000 45.89630000 22.10020000
-18.77760000 45.77320000 20.99450000
-18.01370000 45.77840000 21.54160000
-18.91000000 45.71090000 20.33840000
-18.62560000 45.70660000 20.35750000
-19.20610000 45.88700000 26.85510000
-19.99630000 45.69040000 27.10750000
-20.20520000 45.64830000 26.76460000
-19.88310000 45.73020000 26.49740000
-19.31970000 46.09770000 22.81970000
-19.09920000 46.08920000 23.10950000
-19.18110000 45.98840000 24.32510000
-19.05790000 45.94160000 24.73600000
-19.02720000 46.04740000 23.83450000
-18.65670000 45.99570000 24.28770000
-18.36600000 45.71760000 20.54450000
-17.91700000 45.74940000 21.22990000
-19.71860000 45.75950000 25.77390000
-19.72090000 45.74970000 25.99390000
-19.27560000 45.84670000 25.68570000
-19.11890000 45.86530000 25.94850000
-19.56570000 45.79410000 26.28900000
-19.08450000 45.89000000 26.32960000
-18.94060000 46.06900000 23.44680000
-18.66840000 46.03200000 23.63440000
-18.80880000 45.92780000 25.04140000
-18.86050000 45.89610000 25.40640000
-18.41880000 45.94950000 24.95720000
-18.23670000 45.92690000 25.65680000
-18.89220000 45.89010000 25.62880000
-18.68790000 45.91300000 25.81260000
-18.21290000 45.96700000 24.14810000
-18.00320000 45.92830000 24.72260000
-17.96230000 45.93070000 24.04750000
-17.12480000 45.80230000 25.36850000
-17.99620000 45.91980000 25.07220000
-17.65570000 45.88400000 25.54130000
-18.67550000 45.93530000 26.28760000
-18.73930000 45.92480000 26.14400000
-17.95640000 45.86280000 22.45510000
-17.89270000 45.88490000 23.00460000
-17.55620000 45.77760000 22.35300000
-17.05090000 45.71740000 23.16500000
-18.68050000 45.94570000 26.50550000
-18.91670000 45.93160000 26.92880000
-18.37370000 45.94300000 26.40440000
-18.66200000 45.92510000 27.05040000
-17.68310000 45.87150000 23.76620000
-17.15050000 45.76510000 24.17270000
-16.83120000 45.77200000 20.25630000
-16.78550000 45.77010000 20.75580000
-17.19420000 45.73410000 21.65820000
-17.49250000 45.74250000 21.72050000
-16.54530000 45.68690000 22.37480000
-17.33320000 45.73740000 22.04040000
-17.32370000 45.87370000 26.04530000
-17.51180000 45.90300000 26.30740000
-16.94480000 45.84650000 26.25020000
-16.75610000 45.86180000 26.97720000
-17.87060000 45.92620000 26.55000000
-17.75540000 45.91480000 26.95560000
-17.23420000 45.73440000 22.36600000
-16.82500000 45.68510000 22.78310000
-16.30150000 45.58580000 23.23630000
-16.14570000 45.53640000 23.59940000
-15.95780000 45.53560000 23.28920000
-15.31120000 45.39460000 23.98530000
-16.70430000 45.64940000 24.40020000
-16.48220000 45.60020000 24.91910000
-16.43600000 45.57010000 24.01460000
-15.86830000 45.42790000 24.65230000
-16.74480000 45.74960000 21.31850000
-16.13780000 45.74990000 21.32140000
-16.04490000 45.49210000 23.95930000
-15.59510000 45.39680000 24.32630000
-15.44350000 45.75600000 21.09800000
-15.35240000 45.72370000 21.50340000
-15.33070000 45.67530000 21.98350000
-15.76920000 45.61420000 22.68590000
-14.82930000 45.66170000 21.89770000
-15.25370000 45.57490000 22.81900000
-15.72160000 45.52970000 23.23480000
-15.31790000 45.47970000 23.46180000
-16.66900000 45.82430000 26.36620000
-16.37050000 45.80840000 26.70170000
-16.58080000 45.76940000 26.02160000
-16.06040000 45.73380000 26.40300000
-16.20760000 45.53370000 25.09870000
-16.31180000 45.59630000 25.35710000
-15.79730000 45.42280000 24.96480000
-15.64320000 45.44350000 25.28570000
-16.31510000 45.65910000 25.70970000
-15.88960000 45.59690000 25.82930000
-15.92420000 45.74570000 26.84370000
-15.86120000 45.73460000 27.00580000
-15.55100000 45.68200000 26.71790000
-14.97950000 45.58010000 26.96470000
-15.96890000 45.74030000 27.15760000
-16.47850000 45.80240000 27.25270000
-15.65060000 45.66440000 27.21980000
-16.30500000 45.72250000 27.44590000
-14.93410000 45.56430000 22.91150000
-15.05350000 45.48980000 23.41520000
-14.58460000 45.57250000 22.98820000
-14.93570000 45.45000000 23.64770000
-14.66260000 45.63530000 22.16390000
-14.32220000 45.67260000 21.77910000
-13.99520000 45.71110000 21.47910000
-13.97130000 45.69080000 21.93640000
-14.97870000 45.49080000 27.32060000
-15.39520000 45.57510000 27.33650000
-15.03920000 45.36680000 27.68940000
-15.68150000 45.56900000 27.53670000
-14.88550000 45.40290000 23.94850000
-15.04380000 45.34770000 24.30920000
-14.73100000 45.43970000 23.84400000
-14.82650000 45.34090000 24.51660000
-15.41620000 45.56040000 25.97970000
-15.30840000 45.62050000 26.34620000
-15.10710000 45.46420000 25.73010000
-14.43080000 45.51840000 26.28650000
-15.29700000 45.34910000 24.49100000
-15.31850000 45.34940000 24.64610000
-15.47690000 45.36560000 24.96600000
-15.24850000 45.36360000 25.17470000
-15.38180000 45.35440000 24.88610000
-14.78040000 45.33860000 25.14530000
-14.98460000 45.40040000 25.51100000
-14.60940000 45.41500000 25.67220000
-15.22580000 45.33840000 24.79920000
-14.88890000 45.32500000 24.84800000
-15.17530000 45.62380000 26.58480000
-14.74180000 45.56320000 26.63250000
-14.52190000 45.48470000 23.76100000
-14.42060000 45.45420000 24.09280000
-14.33460000 45.56540000 23.39100000
-14.01680000 45.57430000 23.71540000
-14.10350000 45.62400000 23.13840000
