-5.47510000 3.07490000 -0.12750000
-5.56110000 3.14510000 -0.11550000
-5.61230000 3.24160000 -0.10130000
-5.55540000 3.11400000 0.18520000
-5.61190000 3.20940000 0.20120000
-5.63560000 3.31680000 0.21450000
-5.61180000 3.19380000 0.48120000
-5.63600000 3.30320000 0.49630000
-5.63440000 3.40880000 0.51050000
-5.63950000 3.29590000 0.74900000
-5.61610000 3.18720000 0.74060000
-5.62320000 3.18890000 0.97860000
-5.56710000 3.08170000 0.72640000
-5.57590000 3.08000000 0.97400000
-5.59080000 3.08230000 1.21680000
-5.63590000 3.19690000 1.20630000
-5.60710000 3.08830000 1.46840000
-5.65300000 3.20420000 1.45330000
-5.62370000 3.10390000 1.73590000
-5.67040000 3.21790000 1.71850000
-5.67380000 3.33050000 1.70430000
-5.62250000 3.41900000 1.69530000
-5.69410000 3.24440000 2.00070000
-5.69780000 3.35510000 1.98850000
-5.64140000 3.43780000 1.98560000
-5.54890000 3.47740000 1.98960000
-5.53160000 3.46480000 1.69440000
-5.73670000 3.38880000 2.28820000
-5.66780000 3.46320000 2.28950000
-5.57120000 3.49870000 2.29740000
-5.46580000 3.50820000 2.30820000
-5.44340000 3.48950000 1.99670000
-5.69700000 3.50260000 2.60640000
-5.59840000 3.52890000 2.61680000
-5.49310000 3.53460000 2.62980000
-5.38480000 3.53150000 2.64360000
-5.35620000 3.50680000 2.32010000
-5.63410000 3.55610000 2.93960000
-5.52990000 3.56140000 2.95400000
-5.42190000 3.55790000 2.96930000
-5.30990000 3.55050000 2.98520000
-5.27230000 3.52450000 2.65790000
-5.57630000 3.58900000 3.27710000
-5.46670000 3.58500000 3.29470000
-5.35370000 3.57730000 3.31260000
-5.23210000 3.56690000 3.33130000
-5.19010000 3.54070000 3.00190000
-5.51680000 3.61760000 3.62260000
-5.40160000 3.60910000 3.64230000
-5.27710000 3.59780000 3.66270000
-5.13000000 3.58320000 3.68510000
-5.08940000 3.55330000 3.35180000
-5.44630000 3.64710000 3.97980000
-5.31640000 3.63410000 4.00080000
-5.16750000 3.61820000 4.02350000
-4.98710000 3.59890000 4.04880000
-4.95260000 3.56510000 3.71010000
-5.35340000 3.67700000 4.34580000
-5.20090000 3.65930000 4.36700000
-5.01830000 3.63770000 4.39090000
-4.79520000 3.61400000 4.41830000
-4.76940000 3.57740000 4.07660000
-5.22730000 3.70730000 4.71470000
-5.03870000 3.68470000 4.73610000
-4.81030000 3.65780000 4.76130000
-4.54390000 3.62630000 4.78910000
-4.52890000 3.58790000 4.44650000
-5.04840000 3.73210000 5.08530000
-4.81670000 3.70350000 5.10800000
-4.55140000 3.67090000 5.13450000
-4.81410000 3.75180000 5.46010000
-4.54670000 3.71920000 5.48540000
-4.24730000 3.68130000 5.51360000
-4.24930000 3.63400000 5.16300000
-4.24900000 3.58810000 4.81710000
-3.93110000 3.59680000 5.19110000
-3.93090000 3.54800000 4.84410000
-3.92750000 3.51220000 4.49850000
-4.23990000 3.55510000 4.47300000
-4.23010000 3.52320000 4.13030000
-4.51150000 3.55280000 4.10470000
-4.49320000 3.51950000 3.76400000
-4.74360000 3.54400000 3.73680000
-4.71720000 3.51630000 3.39890000
-4.91830000 3.53640000 3.37470000
-4.88720000 3.51320000 3.04040000
-5.05240000 3.52840000 3.02010000
-5.01690000 3.50290000 2.68900000
-5.15240000 3.51500000 2.67280000
-5.12010000 3.49080000 2.34620000
-5.24180000 3.50020000 2.33270000
-5.21580000 3.48170000 2.01570000
-5.33210000 3.48870000 2.00560000
-5.31120000 3.47590000 1.70250000
-5.42450000 3.47770000 1.69740000
-5.40760000 3.46970000 1.40500000
-3.60270000 3.51100000 4.86760000
-3.60270000 3.55400000 5.21800000
-3.26890000 3.52380000 5.24030000
-3.60150000 3.59940000 5.57160000
-3.26660000 3.57170000 5.59680000
-2.93260000 3.54490000 5.61720000
-3.26300000 3.62330000 5.95780000
-2.92910000 3.59860000 5.98040000
-2.59720000 3.57230000 5.99780000
-2.92550000 3.65170000 6.34860000
-2.59380000 3.62740000 6.36760000
-2.26430000 3.60070000 6.38040000
-2.59130000 3.68250000 6.74170000
-2.26140000 3.65720000 6.75500000
-1.93260000 3.62940000 6.76310000
-2.25950000 3.71940000 7.13230000
-1.92950000 3.68980000 7.13990000
-1.59960000 3.65770000 7.14280000
-1.92710000 3.75680000 7.51730000
-1.59460000 3.72230000 7.51870000
-1.26150000 3.68580000 7.51540000
-1.58890000 3.79150000 7.89250000
-1.25200000 3.75450000 7.88660000
-0.91390000 3.71640000 7.87740000
-1.24110000 3.82540000 8.25230000
-0.89780000 3.78730000 8.24060000
-0.55320000 3.74760000 8.22680000
-0.88210000 3.85630000 8.59670000
-0.53150000 3.81670000 8.58160000
-0.17970000 3.77400000 8.56350000
-0.51220000 3.88230000 8.92480000
-0.15260000 3.84010000 8.90410000
0.20890000 3.79660000 8.87990000
-0.12730000 3.89720000 9.21220000
0.24400000 3.85290000 9.17890000
0.61710000 3.80910000 9.13900000
0.27660000 3.90520000 9.44880000
0.65870000 3.85860000 9.39440000
1.03850000 3.80990000 9.34050000
0.69390000 3.89890000 9.60280000
1.07910000 3.84880000 9.54220000
1.45790000 3.78710000 9.46750000
1.11140000 3.87850000 9.69690000
1.49500000 3.81810000 9.62750000
1.14240000 3.90560000 9.84000000
1.53070000 3.84760000 9.76770000
1.17010000 3.92550000 9.97800000
1.56420000 3.87550000 9.90560000
1.95180000 3.80640000 9.82110000
1.59570000 3.88470000 10.03780000
1.98720000 3.81240000 9.95240000
2.37240000 3.73840000 9.86050000
1.99940000 3.73490000 10.04670000
2.38510000 3.65750000 9.95040000
2.76430000 3.58590000 9.84200000
2.37340000 3.53150000 9.98370000
2.75080000 3.45680000 9.87030000
3.12340000 3.38600000 9.74450000
2.73680000 3.32680000 9.90050000
3.10960000 3.25580000 9.77710000
3.47450000 3.18040000 9.63760000
3.09300000 3.12470000 9.80260000
3.45580000 3.05140000 9.65870000
3.81540000 2.97270000 9.51080000
3.42050000 2.93470000 9.63580000
3.77430000 2.85480000 9.48460000
4.12020000 2.77930000 9.30840000
3.70950000 2.79090000 9.38650000
4.05080000 2.71620000 9.21470000
4.39290000 2.64390000 9.02880000
4.46700000 2.70950000 9.11690000
4.73920000 2.57610000 8.83270000
4.82200000 2.63680000 8.92340000
5.09040000 2.50670000 8.61660000
5.16980000 2.59060000 8.67770000
5.44990000 2.44290000 8.36220000
5.52650000 2.53710000 8.40010000
5.78210000 2.36160000 8.04410000
5.86550000 2.45830000 8.06640000
5.97580000 2.29240000 7.63990000
6.06360000 2.37890000 7.65100000
6.07920000 2.23860000 7.24020000
6.14770000 2.32320000 7.23750000
6.15870000 2.19610000 6.86050000
6.21860000 2.27970000 6.85490000
6.23100000 2.15830000 6.49710000
6.28700000 2.24470000 6.49190000
6.29780000 2.12620000 6.14670000
6.35290000 2.22000000 6.14240000
6.34450000 2.10290000 5.80580000
6.39180000 2.20210000 5.80230000
6.36840000 2.08410000 5.47160000
6.41220000 2.18370000 5.46840000
6.39120000 2.06740000 5.14040000
6.43030000 2.16820000 5.13900000
6.44590000 2.27370000 5.13540000
6.45220000 2.15170000 4.80780000
6.46640000 2.25700000 4.80640000
6.44680000 2.35950000 4.80220000
6.48900000 2.23920000 4.47720000
6.46370000 2.34210000 4.47510000
6.39920000 2.42850000 4.47160000
6.48700000 2.32740000 4.14930000
6.42950000 2.42300000 4.14810000
6.31980000 2.46170000 4.14650000
6.44040000 2.39410000 3.82520000
6.33920000 2.44390000 3.82440000
6.22000000 2.46150000 3.82410000
6.37160000 2.44780000 3.50420000
6.25120000 2.46650000 3.50220000
6.12210000 2.47840000 3.49960000
6.29160000 2.48170000 3.17860000
6.15990000 2.48710000 3.17450000
6.02430000 2.49720000 3.17060000
6.20260000 2.49580000 2.84710000
6.06710000 2.50760000 2.84310000
5.91470000 2.52830000 2.83950000
6.10340000 2.51200000 2.51340000
5.96410000 2.52470000 2.51100000
5.76380000 2.54830000 2.51040000
5.99320000 2.51410000 2.18130000
5.79540000 2.53070000 2.18280000
5.56180000 2.55220000 2.18610000
5.82280000 2.49920000 1.85470000
5.59350000 2.52430000 1.85870000
5.34460000 2.55110000 1.86440000
5.62850000 2.51500000 1.52840000
5.37330000 2.53800000 1.53470000
5.10710000 2.56430000 1.54250000
5.40580000 2.53840000 1.20270000
5.14200000 2.55980000 1.21020000
4.86060000 2.58620000 1.21970000
5.18090000 2.56160000 0.87640000
4.90180000 2.58400000 0.88540000
4.60130000 2.61060000 0.89650000
4.94120000 2.58650000 0.55080000
4.64410000 2.61010000 0.56120000
4.33280000 2.63570000 0.57330000
4.68820000 2.61550000 0.22610000
4.37460000 2.63890000 0.23780000
4.05440000 2.66730000 0.25100000
4.41530000 2.65180000 -0.09680000
4.09240000 2.68370000 -0.08350000
3.76830000 2.72520000 -0.06860000
4.12920000 2.70950000 -0.41640000
3.80410000 2.75720000 -0.40050000
3.47700000 2.79360000 -0.38550000
3.83770000 2.78920000 -0.73150000
3.50850000 2.82330000 -0.71630000
3.17850000 2.85500000 -0.70120000
3.53890000 2.85890000 -1.04560000
3.20720000 2.89260000 -1.02940000
2.87430000 2.92210000 -1.01370000
3.23540000 2.94110000 -1.35510000
2.90020000 2.97090000 -1.33820000
2.56440000 2.99630000 -1.32250000
2.92510000 3.02540000 -1.66050000
2.58680000 3.05110000 -1.64360000
2.24820000 3.07450000 -1.62800000
2.60790000 3.10750000 -1.96290000
2.26710000 3.13120000 -1.94620000
1.92630000 3.15410000 -1.93110000
2.28400000 3.18870000 -2.26230000
1.94090000 3.21140000 -2.24620000
1.59820000 3.23420000 -2.23170000
1.95420000 3.27110000 -2.55910000
1.60940000 3.29420000 -2.54380000
1.26530000 3.31800000 -2.53040000
1.61860000 3.36200000 -2.85220000
1.27320000 3.38650000 -2.83860000
0.92850000 3.41170000 -2.82670000
1.27890000 3.45800000 -3.14420000
0.93330000 3.48410000 -3.13230000
0.58880000 3.51210000 -3.12210000
0.93680000 3.55940000 -3.43580000
0.59220000 3.58820000 -3.42640000
0.24880000 3.61500000 -3.41990000
0.59490000 3.66650000 -3.72950000
0.25160000 3.69270000 -3.72440000
-0.09090000 3.71870000 -3.72090000
0.25380000 3.77810000 -4.02640000
-0.08810000 3.80280000 -4.02480000
-0.42970000 3.82740000 -4.02410000
-0.08560000 3.89360000 -4.32730000
-0.42590000 3.91730000 -4.32840000
-0.76650000 3.94070000 -4.32980000
-0.42220000 4.01050000 -4.63330000
-0.76080000 4.03350000 -4.63610000
-1.10040000 4.05640000 -4.63910000
-0.75470000 4.12690000 -4.94460000
-1.09200000 4.14870000 -4.94860000
-1.43110000 4.17040000 -4.95310000
-1.08220000 4.24270000 -5.26070000
-1.41870000 4.26360000 -5.26530000
-1.75760000 4.28620000 -5.27090000
-1.40430000 4.36440000 -5.57820000
-1.74020000 4.39020000 -5.58130000
-2.07940000 4.41310000 -5.58820000
-1.72070000 4.49880000 -5.89320000
-2.05710000 4.52200000 -5.89750000
-2.39720000 4.53420000 -5.91030000
-2.03310000 4.62850000 -6.21000000
-2.37080000 4.63740000 -6.21950000
-2.71090000 4.64260000 -6.23840000
-2.34500000 4.74590000 -6.52740000
-2.68180000 4.74950000 -6.54210000
-3.01820000 4.75640000 -6.56940000
-2.65560000 4.86320000 -6.84070000
-2.98570000 4.87060000 -6.86250000
-3.30970000 4.89110000 -6.90580000
-2.95720000 4.98390000 -7.14660000
-3.26610000 5.00350000 -7.18610000
-3.55400000 5.04210000 -7.26560000
-3.68590000 5.20820000 -7.65800000
-3.48250000 5.29820000 -7.92500000
-3.64800000 5.36160000 -8.07320000
-3.19830000 5.35460000 -8.11730000
-3.34070000 5.44060000 -8.29700000
-3.47910000 5.52490000 -8.45120000
-2.99240000 5.50000000 -8.45740000
-3.11150000 5.59390000 -8.63970000
-3.22350000 5.67770000 -8.79440000
-2.73320000 5.64620000 -8.78770000
-2.82890000 5.73870000 -8.96060000
-2.90470000 5.80860000 -9.08870000
-2.42530000 5.78050000 -9.08830000
-2.48920000 5.85560000 -9.23000000
-2.54130000 5.91650000 -9.34480000
-2.06480000 5.88690000 -9.33830000
-2.10670000 5.94770000 -9.45730000
-2.14540000 6.00380000 -9.56820000
-1.67230000 5.97360000 -9.55430000
-1.70380000 6.02800000 -9.66660000
-1.73400000 6.08030000 -9.77630000
-1.26940000 6.05530000 -9.74570000
-1.29380000 6.10910000 -9.85710000
-1.31730000 6.15840000 -9.96490000
-0.85520000 6.13040000 -9.91740000
-0.87180000 6.17950000 -10.02310000
-0.88740000 6.21990000 -10.12620000
-0.41760000 6.19860000 -10.06960000
-0.42540000 6.24430000 -10.17600000
-0.43210000 6.26570000 -10.28300000
0.04060000 6.27170000 -10.20400000
0.04190000 6.29960000 -10.31500000
0.04540000 6.24490000 -10.40700000
0.04170000 6.21790000 -10.09470000
-0.40870000 6.14580000 -9.96180000
0.04230000 6.15960000 -9.98390000
-0.40020000 6.08850000 -9.85000000
0.04290000 6.09920000 -9.87080000
0.49010000 6.09960000 -9.87910000
0.04480000 6.03360000 -9.74920000
0.48160000 6.03130000 -9.75390000
0.91190000 6.00830000 -9.70680000
0.46640000 5.94040000 -9.58100000
0.88470000 5.91820000 -9.53850000
1.29760000 5.87500000 -9.47930000
0.85180000 5.81380000 -9.34120000
1.25000000 5.77220000 -9.28620000
1.64160000 5.71890000 -9.20430000
1.19890000 5.65940000 -9.06720000
1.57520000 5.61090000 -8.99490000
1.94510000 5.56090000 -8.89710000
2.02520000 5.66420000 -9.10140000
2.30050000 5.51430000 -8.77600000
2.39920000 5.61510000 -8.97820000
2.64940000 5.45660000 -8.64580000
2.75980000 5.55480000 -8.84210000
2.98230000 5.38420000 -8.50360000
3.10880000 5.47960000 -8.69800000
3.30370000 5.30060000 -8.34550000
3.44200000 5.39140000 -8.53410000
3.61070000 5.20110000 -8.16480000
3.76510000 5.28660000 -8.34660000
3.89590000 5.08500000 -7.96330000
4.07640000 5.15710000 -8.14030000
4.15100000 4.94760000 -7.73480000
4.36100000 5.01390000 -7.90680000
4.37260000 4.80090000 -7.47690000
4.59770000 4.85610000 -7.63270000
4.81210000 4.90790000 -7.77930000
4.80010000 4.69420000 -7.33740000
5.02350000 4.73560000 -7.47130000
5.20760000 4.77140000 -7.58110000
5.20550000 4.57920000 -7.14790000
5.39900000 4.60520000 -7.24870000
5.55570000 4.63160000 -7.33120000
5.57010000 4.46930000 -6.90350000
5.74290000 4.49030000 -6.98280000
5.88640000 4.51310000 -7.04650000
5.90900000 4.34320000 -6.62990000
6.06400000 4.36190000 -6.68950000
6.20500000 4.38080000 -6.74340000
6.01870000 4.53800000 -7.10320000
6.33680000 4.39320000 -6.79770000
6.36830000 4.21270000 -6.38150000
6.50780000 4.22140000 -6.43050000
6.63560000 4.21310000 -6.48420000
6.64970000 4.05010000 -6.05410000
6.78830000 4.04700000 -6.09650000
6.90320000 4.01160000 -6.14650000
6.73530000 4.16640000 -6.54390000
6.94600000 3.91160000 -6.19970000
6.77240000 4.06500000 -6.60120000
6.93280000 3.78560000 -6.24610000
6.75770000 3.93980000 -6.64820000
6.89620000 3.65560000 -6.28780000
6.71920000 3.81090000 -6.68760000
6.83610000 3.52420000 -6.32310000
7.01380000 3.49630000 -5.87280000
6.95010000 3.36860000 -5.91140000
6.83640000 3.27050000 -5.92460000
6.72190000 3.42160000 -6.32520000
6.67770000 3.23270000 -5.89880000
6.55810000 3.39580000 -6.27860000
6.50130000 3.22080000 -5.85390000
6.38070000 3.38630000 -6.21830000
6.31330000 3.21410000 -5.79650000
6.18790000 3.37340000 -6.14620000
6.10760000 3.20280000 -5.72320000
6.40580000 3.06210000 -5.43520000
6.21080000 3.05820000 -5.37730000
5.99160000 3.04670000 -5.29680000
6.29410000 2.91570000 -5.02650000
6.09100000 2.90940000 -4.96230000
5.87110000 2.88830000 -4.86970000
6.17210000 2.77720000 -4.62260000
5.96790000 2.76430000 -4.54720000
5.76370000 2.73540000 -4.45490000
6.04800000 2.64430000 -4.22200000
5.85380000 2.62160000 -4.14580000
5.66980000 2.57040000 -4.07080000
5.93000000 2.50870000 -3.83440000
5.75350000 2.45930000 -3.77170000
5.60750000 2.35460000 -3.73270000
5.51720000 2.46700000 -4.02200000
5.53750000 2.18390000 -3.74280000
5.69960000 2.23950000 -3.44320000
5.65410000 2.07150000 -3.46310000
5.67180000 1.88680000 -3.51550000
5.54150000 1.99170000 -3.79200000
5.71230000 1.69530000 -3.58500000
5.58630000 1.79390000 -3.86330000
5.76530000 1.49090000 -3.66470000
5.65040000 1.58360000 -3.95090000
5.82540000 1.25300000 -3.75360000
5.72330000 1.34530000 -4.04840000
5.87070000 0.97020000 -3.84460000
5.79360000 1.06610000 -4.15040000
5.88170000 0.64160000 -3.92870000
5.82970000 0.73510000 -4.24340000
5.87360000 0.28850000 -4.00460000
5.81870000 0.37750000 -4.32400000
5.85820000 -0.06560000 -4.07370000
5.79870000 0.01640000 -4.40320000
5.85370000 -0.41400000 -4.13530000
5.78350000 -0.33630000 -4.47250000
5.85140000 -0.75840000 -4.19060000
5.77200000 -0.68420000 -4.53280000
5.85840000 -1.09880000 -4.23910000
5.76980000 -1.02780000 -4.58530000
5.67240000 -0.94880000 -4.92880000
5.76810000 -1.36870000 -4.63300000
5.66400000 -1.29310000 -4.97860000
5.55200000 -1.21170000 -5.31780000
5.69460000 -1.63310000 -5.03430000
5.55130000 -1.56220000 -5.36630000
5.42740000 -1.48170000 -5.69900000
5.59140000 -1.90580000 -5.42250000
5.45530000 -1.83280000 -5.75350000
5.31810000 -1.75630000 -6.07700000
5.49380000 -2.18150000 -5.80820000
5.34080000 -2.11210000 -6.12710000
5.19020000 -2.04080000 -6.43960000
5.37200000 -2.46740000 -6.17870000
5.20720000 -2.40170000 -6.48450000
5.04010000 -2.33450000 -6.78160000
5.05640000 -1.96850000 -6.75300000
4.91750000 -2.26260000 -7.09370000
4.95270000 -1.89650000 -7.07570000
4.79690000 -2.19400000 -7.40400000
4.82070000 -1.82790000 -7.38490000
4.62910000 -2.13860000 -7.69090000
4.64050000 -1.77190000 -7.66840000
4.44850000 -2.09910000 -7.97000000
4.44500000 -1.73200000 -7.94170000
4.26090000 -2.07890000 -8.24130000
4.23720000 -1.71680000 -8.20640000
4.03720000 -2.08410000 -8.48480000
4.28110000 -2.43570000 -8.27340000
4.06300000 -2.43730000 -8.51970000
3.82110000 -2.46210000 -8.74610000
3.78010000 -2.11750000 -8.69940000
3.52880000 -2.51690000 -8.91460000
3.49970000 -2.16620000 -8.87290000
3.21060000 -2.57200000 -9.00860000
3.18910000 -2.20650000 -8.97470000
2.90120000 -2.59450000 -9.11050000
2.88140000 -2.22010000 -9.08940000
2.59060000 -2.58670000 -9.21940000
2.59990000 -2.20470000 -9.23830000
2.29470000 -2.56430000 -9.32240000
2.35920000 -2.18350000 -9.38680000
2.05640000 -2.54850000 -9.49920000
2.17610000 -2.16430000 -9.55110000
1.78890000 -2.52620000 -9.59830000
1.91360000 -2.12850000 -9.59850000
2.00590000 -2.89860000 -9.38030000
1.72560000 -2.90360000 -9.46510000
2.06500000 -3.28450000 -9.34290000
1.78400000 -3.31980000 -9.38080000
1.48890000 -3.37970000 -9.38450000
1.83180000 -3.71480000 -9.39770000
1.52750000 -3.76310000 -9.43670000
1.20710000 -3.82250000 -9.51150000
1.55060000 -4.13790000 -9.46810000
1.21900000 -4.18430000 -9.52810000
0.86960000 -4.24230000 -9.58630000
0.86660000 -3.89500000 -9.56440000
0.49850000 -4.30620000 -9.62660000
0.50580000 -3.98760000 -9.60390000
0.11370000 -4.37740000 -9.72770000
0.11890000 -4.09340000 -9.68580000
-0.30420000 -4.44840000 -9.75870000
-0.29690000 -4.19200000 -9.76710000
-0.72140000 -4.51240000 -9.81650000
-0.72510000 -4.25090000 -9.84010000
-0.72270000 -4.07360000 -9.80480000
-1.14460000 -4.31970000 -9.91420000
-1.16120000 -4.14810000 -9.88510000
-1.17040000 -3.99860000 -9.84120000
-1.60840000 -4.22310000 -9.92510000
-1.63660000 -4.07920000 -9.84730000
-1.64280000 -3.95470000 -9.78070000
-1.17330000 -3.86870000 -9.78860000
-1.63730000 -3.84040000 -9.72070000
-1.17140000 -3.74960000 -9.73650000
-1.61270000 -3.72900000 -9.68090000
-1.16660000 -3.61860000 -9.71470000
-1.60260000 -3.61220000 -9.69650000
-1.16490000 -3.50890000 -9.78100000
-1.59250000 -3.49580000 -9.74750000
-1.15980000 -3.42740000 -9.84660000
-1.59080000 -3.38340000 -9.81130000
-1.18570000 -3.32140000 -9.91030000
-1.59610000 -3.25680000 -9.85520000
-1.21150000 -3.18600000 -9.93500000
-1.60730000 -3.10430000 -9.86800000
-1.99000000 -3.22620000 -9.73900000
-1.99100000 -3.08360000 -9.75810000
-1.99940000 -2.92060000 -9.75520000
-2.38570000 -3.04790000 -9.65600000
-2.38960000 -2.87980000 -9.66600000
-2.41120000 -2.68930000 -9.68920000
-2.75510000 -2.84340000 -9.55660000
-2.76880000 -2.64990000 -9.58310000
-2.79900000 -2.45440000 -9.65110000
-2.45820000 -2.49650000 -9.75430000
-2.81940000 -2.25990000 -9.71200000
-3.16570000 -2.42900000 -9.53730000
-3.19560000 -2.24080000 -9.61330000
-3.56700000 -2.41250000 -9.44130000
-3.60410000 -2.21200000 -9.54850000
-3.95300000 -2.42950000 -9.39360000
-3.99170000 -2.19520000 -9.51620000
-4.29730000 -2.41340000 -9.37990000
-4.32720000 -2.15320000 -9.48250000
-4.57990000 -2.38870000 -9.35390000
-4.59100000 -2.11800000 -9.45960000
-4.58410000 -1.87360000 -9.55230000
-4.83470000 -2.11200000 -9.40530000
-4.82790000 -1.86450000 -9.53280000
-4.76770000 -1.61020000 -9.62920000
-5.01270000 -1.78620000 -9.37550000
-4.93090000 -1.55290000 -9.49870000
-4.92450000 -1.35860000 -9.61880000
-5.17450000 -1.46910000 -9.26290000
-5.15740000 -1.30570000 -9.45480000
-5.21340000 -1.15960000 -9.52550000
-5.44500000 -1.11310000 -9.21160000
-5.66230000 -1.02740000 -8.89100000
-5.24810000 -1.67990000 -9.16180000
-5.04920000 -2.01190000 -9.24920000
-5.31390000 -1.89050000 -9.09040000
-5.58760000 -1.78550000 -8.85150000
-5.33910000 -2.14820000 -8.98760000
-5.58080000 -2.05240000 -8.75190000
-5.79060000 -2.01830000 -8.46460000
-5.81680000 -1.73620000 -8.51090000
-5.91880000 -2.03720000 -8.13730000
-5.95710000 -1.77780000 -8.14390000
-5.96910000 -2.06040000 -7.77790000
-6.01470000 -1.81060000 -7.75590000
-6.03760000 -1.59670000 -7.74850000
-6.08390000 -1.81220000 -7.38150000
-6.13310000 -1.57890000 -7.38950000
-6.22030000 -1.43330000 -7.39290000
-6.11290000 -1.44070000 -7.74900000
-6.30100000 -1.29310000 -7.38700000
-6.18450000 -1.30210000 -7.74450000
-6.31950000 -1.13860000 -7.35260000
-6.21380000 -1.15070000 -7.70800000
-6.12910000 -1.13980000 -8.02990000
-6.03360000 -1.06580000 -8.26910000
-6.17640000 -0.99240000 -7.61900000
-6.06840000 -0.98280000 -7.88240000
-5.97640000 -0.92790000 -8.07420000
-5.97880000 -0.86440000 -7.71910000
-5.89760000 -0.81310000 -7.88020000
-5.87720000 -0.73830000 -7.52740000
-5.82920000 -0.70340000 -7.67700000
-5.74380000 -0.60390000 -7.32930000
-5.69670000 -0.58760000 -7.47760000
-5.55660000 -0.50650000 -7.14420000
-5.52340000 -0.46660000 -7.30470000
-5.33170000 -0.50940000 -7.02350000
-5.29820000 -0.44940000 -7.20900000
-5.15280000 -0.53240000 -6.96320000
-5.11200000 -0.46030000 -7.15700000
-5.00770000 -0.55980000 -6.92020000
-4.96160000 -0.47000000 -7.12290000
-4.87120000 -0.57590000 -6.88400000
-5.06760000 -0.63700000 -6.66840000
-4.94230000 -0.66190000 -6.62420000
-4.82750000 -0.64650000 -6.58000000
-4.83100000 -0.65480000 -6.19220000
-4.83900000 -0.71510000 -5.82330000
-4.84360000 -0.59640000 -5.86970000
-4.81280000 -0.54710000 -6.19460000
-4.86810000 -0.46870000 -5.89860000
-4.80250000 -0.42350000 -6.20340000
-4.87280000 -0.29670000 -5.94150000
-4.75440000 -0.44430000 -5.63570000
-4.77240000 -0.25820000 -5.69340000
-4.74030000 -0.06680000 -5.77250000
-4.56910000 -0.16300000 -5.52670000
-4.56620000 0.02270000 -5.60320000
-4.56250000 0.24060000 -5.69720000
-4.40640000 0.16570000 -5.45210000
-4.47150000 0.39640000 -5.53040000
-4.54470000 0.64320000 -5.63850000
-4.39690000 0.56750000 -5.36750000
-4.46650000 0.80200000 -5.45120000
-4.48710000 1.04280000 -5.55890000
-4.38690000 0.95160000 -5.25430000
-4.38250000 1.18310000 -5.31000000
-4.33780000 1.43590000 -5.37520000
-4.27810000 1.29770000 -5.02740000
-4.20940000 1.54370000 -5.07850000
-4.04600000 1.75560000 -5.21430000
-4.04390000 1.61170000 -4.81280000
-3.86500000 1.83060000 -4.98430000
-3.71750000 2.05240000 -5.22360000
-3.86140000 1.91460000 -5.43670000
-3.61670000 2.26850000 -5.48310000
-3.75830000 2.11720000 -5.68240000
-3.59090000 2.19910000 -5.03430000
-3.47990000 2.41210000 -5.31640000
-3.37000000 2.55030000 -5.19470000
-3.25900000 2.70430000 -5.47840000
-3.26200000 2.68050000 -5.09660000
-3.15110000 2.81620000 -5.38180000
-3.15970000 2.80780000 -5.01320000
-3.04920000 2.92760000 -5.29750000
-3.08280000 2.93930000 -4.95350000
-2.96680000 3.04150000 -5.22810000
-3.04210000 3.08030000 -4.90880000
-3.19260000 2.83540000 -4.65850000
-3.13870000 2.98220000 -4.62430000
-3.12300000 3.12910000 -4.60470000
-3.20860000 2.87700000 -4.33550000
-3.17730000 3.03520000 -4.31520000
-3.20630000 3.18650000 -4.31210000
-3.25490000 2.93590000 -4.04420000
-3.26390000 3.08990000 -4.03020000
-3.33870000 3.21670000 -4.03990000
-3.33280000 2.99130000 -3.76520000
-3.38540000 3.12860000 -3.76010000
-3.50090000 3.21390000 -3.78330000
-3.44050000 3.02930000 -3.49400000
-3.54110000 3.12860000 -3.50310000
-3.67890000 3.18610000 -3.53110000
-3.56970000 3.04060000 -3.22320000
-3.69600000 3.10930000 -3.23740000
-3.85070000 3.15180000 -3.26400000
-3.69120000 3.03410000 -2.93580000
-3.83880000 3.08200000 -2.95200000
-4.01250000 3.11430000 -2.97770000
-3.80790000 3.01330000 -2.63220000
-3.97740000 3.04750000 -2.65070000
-4.17070000 3.07810000 -2.67450000
-3.93090000 2.98220000 -2.31910000
-4.12110000 3.01480000 -2.33810000
-4.33350000 3.05270000 -2.35850000
-4.06740000 2.95620000 -2.00090000
-4.27810000 2.99710000 -2.01910000
-4.50970000 3.04580000 -2.03570000
-4.22530000 2.94660000 -1.68380000
-4.45740000 2.99740000 -1.70130000
-4.69520000 3.03970000 -1.71450000
-4.41320000 2.95650000 -1.37530000
-4.65230000 2.99460000 -1.39040000
-4.85990000 3.02510000 -1.39750000
-4.61530000 2.95810000 -1.07290000
-4.82400000 2.99020000 -1.08090000
-5.00330000 3.01850000 -1.08290000
-4.79330000 2.96350000 -0.76910000
-4.97450000 2.99590000 -0.77090000
-5.13310000 3.02560000 -0.76800000
-4.95070000 2.97630000 -0.46340000
-5.10910000 3.00820000 -0.45930000
-5.25000000 3.03730000 -0.45200000
-5.09000000 2.98350000 -0.15630000
-5.23040000 3.01140000 -0.14780000
-5.35860000 3.03900000 -0.13790000
-5.22110000 2.97510000 0.14630000
-5.35170000 3.00340000 0.15710000
-5.47010000 3.04050000 0.16970000
-5.35630000 2.96650000 0.43730000
-5.47560000 3.01140000 0.44860000
-5.56370000 3.09020000 0.46380000
-5.48290000 2.99440000 0.71480000
-5.36450000 2.94160000 0.70740000
-5.37430000 2.92930000 0.97100000
-5.49410000 2.98680000 0.97080000
-5.38500000 2.92710000 1.23340000
-5.50690000 2.98680000 1.22450000
-5.39960000 2.93080000 1.50020000
-5.52170000 2.99270000 1.48420000
-5.42180000 2.93970000 1.77520000
-5.54050000 3.00680000 1.75520000
-5.45310000 2.95740000 2.06000000
-5.56860000 3.02980000 2.03820000
-5.64780000 3.12970000 2.01770000
-5.60650000 3.06320000 2.33370000
-5.68150000 3.16660000 2.31440000
-5.72550000 3.28000000 2.29890000
-5.71880000 3.20800000 2.62400000
-5.75490000 3.31990000 2.61240000
-5.76100000 3.42750000 2.60450000
-5.78780000 3.35550000 2.93000000
-5.79220000 3.46210000 2.92370000
-5.73060000 3.53320000 2.92730000
-5.84270000 3.49000000 3.24090000
-5.78390000 3.56400000 3.24560000
-5.68340000 3.58610000 3.26020000
-5.83660000 3.58820000 3.56880000
-5.73600000 3.61660000 3.58430000
-5.62790000 3.62170000 3.60300000
-5.79160000 3.65350000 3.91920000
-5.68180000 3.66180000 3.93890000
-5.56680000 3.65710000 3.95940000
-5.73550000 3.70490000 4.28870000
-5.61430000 3.70160000 4.30720000
-5.48830000 3.69120000 4.32610000
-5.65240000 3.75060000 4.66390000
-5.52190000 3.74020000 4.67980000
-5.38330000 3.72550000 4.69650000
-5.54180000 3.78930000 5.03900000
-5.40130000 3.77450000 5.05220000
-5.24390000 3.75600000 5.06690000
-5.40810000 3.82190000 5.41240000
-5.25170000 3.80430000 5.42400000
-5.05150000 3.78050000 5.43960000
-5.25100000 3.85120000 5.78620000
-5.05390000 3.82950000 5.79910000
-4.81160000 3.80140000 5.81720000
-4.54440000 3.76850000 5.84060000
-5.05330000 3.87650000 6.16200000
-4.80840000 3.85030000 6.17740000
-4.53850000 3.81260000 6.19990000
-4.81230000 3.89390000 6.53810000
-4.53670000 3.86000000 6.55920000
-4.24120000 3.82260000 6.58820000
-4.24500000 3.76730000 6.22840000
-4.24710000 3.71990000 5.86970000
-3.92920000 3.73140000 6.26060000
-3.93060000 3.67940000 5.90020000
-3.93120000 3.63700000 5.54320000
-3.59850000 3.64830000 5.93070000
-3.59530000 3.70030000 6.29390000
-3.25960000 3.67430000 6.32400000
-3.59110000 3.75800000 6.66180000
-3.25610000 3.72920000 6.69530000
-2.92270000 3.70670000 6.72200000
-3.25440000 3.78780000 7.07160000
-2.92160000 3.76930000 7.09900000
-2.59010000 3.74660000 7.11910000
-2.92570000 3.83220000 7.47900000
-2.59230000 3.81170000 7.49860000
-2.25950000 3.78740000 7.51100000
-2.59870000 3.87750000 7.87760000
-2.26160000 3.85440000 7.88930000
-1.92510000 3.82580000 7.89370000
-2.26730000 3.92180000 8.26240000
-1.92460000 3.89440000 8.26590000
-1.58300000 3.86170000 8.26170000
-1.92640000 3.96050000 8.62640000
-1.57830000 3.92840000 8.62250000
-1.23100000 3.89330000 8.61090000
-1.57740000 3.99040000 8.96160000
-1.22390000 3.95630000 8.95430000
-0.86930000 3.92060000 8.94080000
-1.22220000 4.01370000 9.26420000
-0.86110000 3.97900000 9.25400000
-0.49560000 3.94060000 9.23750000
-0.85630000 4.03260000 9.53390000
-0.48190000 3.99270000 9.51310000
-0.10420000 3.95010000 9.48720000
-0.47380000 4.03140000 9.70940000
-0.08610000 3.98980000 9.68480000
0.30310000 3.94360000 9.64770000
-0.07140000 4.02220000 9.84180000
0.32520000 3.97330000 9.80090000
0.72000000 3.92800000 9.75460000
0.34630000 4.00150000 9.94490000
0.74600000 3.95360000 9.89930000
0.36760000 4.02580000 10.08600000
0.76970000 3.96800000 10.03410000
0.38650000 4.03290000 10.22450000
0.79080000 3.96940000 10.16480000
1.19490000 3.92750000 10.10870000
0.80180000 3.91260000 10.27300000
1.20770000 3.86880000 10.21100000
1.60810000 3.81130000 10.13810000
1.20240000 3.75090000 10.24820000
1.59940000 3.68950000 10.17070000
1.99060000 3.61350000 10.08490000
1.58850000 3.56750000 10.19650000
1.97950000 3.48940000 10.11550000
2.36140000 3.40490000 10.01660000
1.96770000 3.36790000 10.14240000
2.34910000 3.27890000 10.04880000
2.72260000 3.19720000 9.93020000
2.32690000 3.15600000 10.04680000
2.69860000 3.07350000 9.92580000
3.06370000 3.00230000 9.78850000
2.65470000 3.00180000 9.83070000
3.01240000 2.93300000 9.69110000
3.36340000 2.86550000 9.54170000
2.95470000 2.89590000 9.56120000
3.29890000 2.82640000 9.41580000
3.63860000 2.75370000 9.26280000
3.22870000 2.79270000 9.27430000
3.56200000 2.72240000 9.12520000
3.89280000 2.65250000 8.96610000
3.97460000 2.68040000 9.09670000
4.22270000 2.58610000 8.79370000
4.31040000 2.61070000 8.91710000
4.55370000 2.52850000 8.60430000
4.64910000 2.54640000 8.72310000
4.88770000 2.46760000 8.40210000
4.99130000 2.48270000 8.51420000
5.22110000 2.39480000 8.18050000
5.34120000 2.40810000 8.27750000
5.52280000 2.31140000 7.90070000
5.65870000 2.32300000 7.97950000
5.71740000 2.23910000 7.55770000
5.85560000 2.24960000 7.60620000
5.84880000 2.17630000 7.20000000
5.97520000 2.19230000 7.22610000
5.95400000 2.11570000 6.84280000
6.06780000 2.14230000 6.85600000
6.04430000 2.05280000 6.49020000
6.14870000 2.09340000 6.49660000
6.12170000 1.98960000 6.14360000
6.22250000 2.04570000 6.14780000
6.17720000 1.94290000 5.80250000
6.27400000 2.01420000 5.80700000
6.21370000 1.91360000 5.46620000
6.30400000 1.99260000 5.47170000
6.24790000 1.89180000 5.13170000
6.33020000 1.97450000 5.13840000
6.28620000 1.87030000 4.79510000
6.36420000 1.95350000 4.80350000
6.41910000 2.04900000 4.80740000
6.40400000 1.92940000 4.46860000
6.45350000 2.02720000 4.47400000
6.48140000 2.13240000 4.47650000
6.49040000 2.00620000 4.14180000
6.50980000 2.11310000 4.14610000
6.50760000 2.22110000 4.14860000
6.54110000 2.09850000 3.81740000
6.53840000 2.20660000 3.82240000
6.50500000 2.30970000 3.82460000
6.57360000 2.19880000 3.49850000
6.54380000 2.30530000 3.50340000
6.47780000 2.39720000 3.50540000
6.57550000 2.30100000 3.17970000
6.50680000 2.39120000 3.18230000
6.41150000 2.45860000 3.18200000
6.55290000 2.40050000 2.85590000
6.45380000 2.46430000 2.85490000
6.33200000 2.48530000 2.85130000
6.48900000 2.47880000 2.52000000
6.36610000 2.50150000 2.51810000
6.23780000 2.51360000 2.51630000
6.38170000 2.47950000 2.18100000
6.25850000 2.49540000 2.18170000
6.12940000 2.50740000 2.18170000
6.27490000 2.46160000 1.84750000
6.14580000 2.47000000 1.84980000
6.01120000 2.48360000 1.85200000
6.16000000 2.46820000 1.51690000
6.02490000 2.47970000 1.52010000
5.85300000 2.49490000 1.52380000
6.05080000 2.48740000 1.18800000
5.87590000 2.50120000 1.19180000
5.65580000 2.51810000 1.19660000
5.89550000 2.50800000 0.85900000
5.68150000 2.52400000 0.86350000
5.44160000 2.54180000 0.86920000
5.72000000 2.53060000 0.52960000
5.47730000 2.54800000 0.53520000
5.21740000 2.56670000 0.54230000
5.51850000 2.55700000 0.20110000
5.26000000 2.57510000 0.20780000
4.98440000 2.59440000 0.21610000
5.30520000 2.58560000 -0.12590000
5.02770000 2.60510000 -0.11800000
4.72990000 2.62680000 -0.10830000
5.07240000 2.61840000 -0.45130000
4.77050000 2.64220000 -0.44190000
4.45290000 2.67020000 -0.43040000
4.81090000 2.68190000 -0.77250000
4.49120000 2.71810000 -0.76000000
4.16580000 2.75390000 -0.74620000
4.52850000 2.76650000 -1.08940000
4.20000000 2.79130000 -1.07660000
3.86990000 2.82390000 -1.06160000
4.23390000 2.83620000 -1.40600000
3.90220000 2.86970000 -1.39000000
3.56940000 2.90620000 -1.37280000
3.93390000 2.92420000 -1.71680000
3.59890000 2.95990000 -1.69810000
3.26260000 2.99520000 -1.67890000
3.62760000 3.01570000 -2.02260000
3.28870000 3.05070000 -2.00150000
2.94860000 3.08140000 -1.98140000
3.31350000 3.10730000 -2.32280000
2.97060000 3.13850000 -2.30050000
2.62720000 3.16500000 -2.28030000
2.99070000 3.20080000 -2.61660000
2.64470000 3.22650000 -2.59490000
2.29920000 3.24920000 -2.57590000
2.66050000 3.29780000 -2.90510000
2.31240000 3.31810000 -2.88530000
1.96510000 3.33900000 -2.86790000
2.32310000 3.39410000 -3.19080000
1.97370000 3.41220000 -3.17320000
1.62560000 3.43360000 -3.15780000
1.97990000 3.49030000 -3.47500000
1.63050000 3.50710000 -3.46070000
1.28260000 3.53080000 -3.44770000
1.63390000 3.59320000 -3.75830000
1.28560000 3.61530000 -3.74640000
0.93930000 3.64050000 -3.73660000
1.28620000 3.70680000 -4.04180000
0.94060000 3.73020000 -4.03430000
0.59640000 3.75390000 -4.02910000
0.93870000 3.82210000 -4.33050000
0.59640000 3.84610000 -4.32780000
0.25490000 3.86980000 -4.32680000
0.59340000 3.93920000 -4.62650000
0.25460000 3.96340000 -4.62810000
-0.08390000 3.98720000 -4.63050000
0.25230000 4.05860000 -4.93100000
-0.08300000 4.08200000 -4.93590000
-0.41850000 4.10480000 -4.94050000
-0.08250000 4.17940000 -5.24480000
-0.41450000 4.20100000 -5.25110000
-0.74760000 4.22210000 -5.25620000
-0.40970000 4.30260000 -5.56550000
-0.73920000 4.32270000 -5.57110000
-1.07060000 4.34280000 -5.57510000
-0.72960000 4.42910000 -5.89020000
-1.05750000 4.44840000 -5.89280000
-1.38780000 4.47180000 -5.89320000
-1.04370000 4.56170000 -6.21460000
-1.37040000 4.58260000 -6.21250000
-1.69940000 4.61100000 -6.20780000
-1.35220000 4.71590000 -6.52990000
-1.67830000 4.73490000 -6.52340000
-2.00990000 4.74150000 -6.52270000
-1.66430000 4.85370000 -6.84760000
-1.99270000 4.85520000 -6.83890000
-2.32380000 4.85880000 -6.83450000
-1.98800000 4.96850000 -7.16030000
-2.31330000 4.97240000 -7.14380000
-2.63730000 4.97760000 -7.13640000
-2.31960000 5.08300000 -7.45610000
-2.63460000 5.08620000 -7.43030000
-2.35540000 5.19330000 -7.76990000
-2.66680000 5.19090000 -7.72440000
-2.75150000 5.29560000 -8.00800000
-2.42610000 5.31140000 -8.07220000
-2.52270000 5.42910000 -8.34570000
-2.87020000 5.39880000 -8.24830000
-2.03190000 5.19240000 -7.81210000
-2.08970000 5.32060000 -8.12590000
-2.16720000 5.45120000 -8.41780000
-2.25670000 5.57030000 -8.67990000
-2.62940000 5.54140000 -8.58140000
-1.74720000 5.32940000 -8.17070000
-1.80900000 5.46830000 -8.47370000
-1.87680000 5.59640000 -8.74810000
-1.94810000 5.71000000 -8.98720000
-2.34500000 5.68320000 -8.90250000
-1.44570000 5.48220000 -8.51780000
-1.49530000 5.61380000 -8.79900000
-1.54660000 5.72930000 -9.04580000
-1.59580000 5.82960000 -9.25750000
-2.01290000 5.80890000 -9.18550000
-1.11490000 5.61750000 -8.84290000
-1.14840000 5.73780000 -9.10000000
-1.18300000 5.84240000 -9.31810000
-1.21620000 5.93210000 -9.49780000
-1.63900000 5.91440000 -9.43240000
-0.75310000 5.73960000 -9.13800000
-0.77350000 5.84930000 -9.36190000
-0.79750000 5.94530000 -9.55080000
-0.81850000 6.01880000 -9.69510000
-1.24340000 5.99820000 -9.62980000
-0.36630000 5.85410000 -9.39500000
-0.37730000 5.95080000 -9.58370000
-0.38930000 6.02700000 -9.73170000
-0.83780000 6.07650000 -9.80870000
0.04680000 5.95560000 -9.60270000
0.04250000 5.84920000 -9.39610000
0.44900000 5.83720000 -9.37800000
0.03560000 5.72980000 -9.16280000
0.42600000 5.71990000 -9.14850000
0.81370000 5.69630000 -9.11640000
0.40150000 5.58450000 -8.89250000
0.77410000 5.56310000 -8.86540000
1.14280000 5.53100000 -8.82100000
0.73140000 5.41300000 -8.56850000
1.08380000 5.38820000 -8.52940000
1.42850000 5.35540000 -8.46850000
1.50480000 5.48900000 -8.75840000
1.76470000 5.31990000 -8.38910000
1.85560000 5.44790000 -8.66330000
2.09340000 5.27880000 -8.29000000
2.19840000 5.40340000 -8.54960000
2.40950000 5.22820000 -8.18440000
2.53310000 5.34900000 -8.42880000
2.71370000 5.16650000 -8.06210000
2.85140000 5.28230000 -8.29660000
3.00330000 5.09490000 -7.92230000
3.15860000 5.20290000 -8.14420000
3.26600000 5.01100000 -7.75990000
3.44340000 5.11030000 -7.97040000
3.49880000 4.91280000 -7.57430000
3.70420000 5.00260000 -7.77450000
3.69720000 4.80430000 -7.36880000
3.93210000 4.87840000 -7.55650000
3.86100000 4.69430000 -7.14360000
4.12750000 4.74560000 -7.31310000
3.99840000 4.59000000 -6.89460000
4.29070000 4.62690000 -7.04400000
4.55880000 4.65560000 -7.19490000
4.42670000 4.52240000 -6.75550000
4.71590000 4.55240000 -6.88620000
4.97370000 4.56240000 -7.02100000
4.85060000 4.41280000 -6.58400000
5.12730000 4.43680000 -6.69750000
5.36260000 4.44960000 -6.80710000
5.26350000 4.28550000 -6.38390000
5.51510000 4.30830000 -6.47440000
5.72860000 4.32620000 -6.55840000
5.63730000 4.16010000 -6.14470000
5.86420000 4.17230000 -6.21740000
6.05340000 4.18520000 -6.27970000
5.96710000 4.01630000 -5.87690000
6.17080000 4.02500000 -5.93000000
6.34660000 4.03440000 -5.97470000
6.21850000 4.19910000 -6.33290000
6.50310000 4.04340000 -6.01470000
6.43720000 3.87410000 -5.61250000
6.59590000 3.87740000 -5.64250000
6.74370000 3.87900000 -5.67000000
6.63480000 3.71910000 -5.26330000
6.77970000 3.71520000 -5.27880000
6.91860000 3.70670000 -5.29370000
6.88590000 3.87400000 -5.69750000
7.04680000 3.68020000 -5.31250000
7.01140000 3.84340000 -5.73240000
7.11290000 3.58610000 -5.35660000
7.07340000 3.75370000 -5.77770000
7.09690000 3.46280000 -5.40670000
7.05390000 3.62720000 -5.82680000
7.06000000 3.33570000 -5.45530000
7.12710000 3.30060000 -5.00370000
7.08800000 3.17620000 -5.05250000
7.02740000 3.06030000 -5.09490000
6.99920000 3.21400000 -5.49710000
6.93340000 2.97150000 -5.12110000
6.89710000 3.12050000 -5.51890000
6.80160000 2.92750000 -5.12230000
6.75240000 3.07750000 -5.50950000
6.64700000 2.91460000 -5.10400000
6.58560000 3.06480000 -5.47920000
6.47770000 2.91480000 -5.07180000
6.69160000 2.77210000 -4.73050000
6.53310000 2.77390000 -4.70840000
6.36070000 2.77840000 -4.67380000
6.57490000 2.64110000 -4.34660000
6.41310000 2.64810000 -4.32160000
6.23740000 2.65120000 -4.28180000
6.45230000 2.52560000 -3.97080000
6.28810000 2.53170000 -3.94130000
6.11230000 2.52840000 -3.89540000
6.32620000 2.41930000 -3.60140000
6.16290000 2.41720000 -3.56690000
5.99400000 2.39680000 -3.52000000
6.20400000 2.31310000 -3.23780000
6.04910000 2.29050000 -3.20210000
5.90200000 2.23500000 -3.16550000
5.83070000 2.34500000 -3.47110000
5.79070000 2.12670000 -3.14960000
5.96810000 2.12820000 -2.85730000
5.87980000 2.01340000 -2.85540000
5.86190000 1.85640000 -2.88900000
5.76340000 1.96270000 -3.17720000
5.88230000 1.68700000 -2.94190000
5.78540000 1.78620000 -3.23050000
5.90780000 1.51190000 -3.00050000
5.82370000 1.60250000 -3.29830000
5.93930000 1.31200000 -3.06560000
5.86370000 1.39840000 -3.37030000
5.95950000 1.07010000 -3.13670000
5.90200000 1.16090000 -3.44890000
5.96600000 0.78300000 -3.21090000
5.92330000 0.87590000 -3.53040000
5.96710000 0.46420000 -3.28260000
5.92730000 0.55110000 -3.60870000
5.96640000 0.12670000 -3.34690000
5.92320000 0.20590000 -3.67860000
5.96000000 -0.21660000 -3.40200000
5.91210000 -0.14230000 -3.73910000
5.95340000 -0.55700000 -3.44910000
5.90940000 -0.48700000 -3.79450000
5.96600000 -0.89430000 -3.49320000
5.92610000 -0.82720000 -3.84540000
5.98810000 -1.22820000 -3.53340000
5.93370000 -1.16500000 -3.88870000
6.01210000 -1.56050000 -3.57270000
5.95410000 -1.49980000 -3.93130000
5.87180000 -1.43650000 -4.28520000
5.97440000 -1.83310000 -3.97200000
5.89720000 -1.77090000 -4.33130000
5.79360000 -1.70610000 -4.68380000
5.92560000 -2.10470000 -4.37500000
5.84240000 -2.03940000 -4.73540000
5.72510000 -1.97350000 -5.08380000
5.86790000 -2.37730000 -4.77730000
5.76310000 -2.31310000 -5.13240000
5.63550000 -2.24830000 -5.47630000
5.80430000 -2.65230000 -5.17980000
5.67470000 -2.59200000 -5.52680000
5.53050000 -2.53070000 -5.86070000
5.70970000 -2.93650000 -5.57670000
5.56170000 -2.88120000 -5.91230000
5.40360000 -2.82340000 -6.23190000
5.59310000 -3.23230000 -5.96800000
5.44040000 -3.17960000 -6.29100000
5.28370000 -3.12160000 -6.59630000
5.24020000 -2.76190000 -6.53670000
5.12290000 -3.05730000 -6.88770000
5.07380000 -2.69660000 -6.82990000
4.97610000 -2.98410000 -7.17980000
4.92950000 -2.62560000 -7.12930000
4.83980000 -2.90870000 -7.47550000
4.80880000 -2.55380000 -7.43650000
4.66460000 -2.84660000 -7.75450000
4.64380000 -2.49630000 -7.72210000
4.51670000 -2.79930000 -8.04850000
4.47520000 -2.45490000 -8.00640000
4.32190000 -2.77880000 -8.31530000
4.55010000 -3.13540000 -8.08400000
4.36440000 -3.11680000 -8.35210000
4.17060000 -3.11820000 -8.60950000
4.10970000 -2.78060000 -8.56740000
3.93670000 -3.14440000 -8.84200000
3.87040000 -2.80570000 -8.79660000
3.63750000 -3.20640000 -8.97410000
3.57660000 -2.85790000 -8.94780000
3.32510000 -3.29360000 -9.05720000
3.25620000 -2.93160000 -9.03340000
3.01070000 -3.32870000 -9.11280000
2.94530000 -2.96300000 -9.11490000
2.68160000 -3.31850000 -9.17150000
2.62840000 -2.94980000 -9.21560000
2.36240000 -3.29090000 -9.26020000
2.30430000 -2.92200000 -9.27410000
2.74720000 -3.68670000 -9.16190000
2.42210000 -3.66780000 -9.24680000
2.12610000 -3.67960000 -9.33460000
2.46280000 -4.03940000 -9.23940000
2.16330000 -4.06410000 -9.31500000
1.86250000 -4.09850000 -9.39260000
2.18070000 -4.43450000 -9.22750000
1.88250000 -4.46820000 -9.34660000
1.55760000 -4.49890000 -9.42280000
1.90080000 -4.81190000 -9.31210000
1.57780000 -4.82930000 -9.43580000
1.22490000 -4.85820000 -9.50610000
1.22140000 -4.53920000 -9.50500000
0.85900000 -4.89080000 -9.57940000
0.86400000 -4.59230000 -9.56740000
0.47930000 -4.92830000 -9.64470000
0.49000000 -4.64790000 -9.63580000
0.09140000 -4.96050000 -9.72980000
0.10200000 -4.69270000 -9.72240000
-0.31190000 -4.98960000 -9.76110000
-0.30300000 -4.73470000 -9.77330000
-0.70540000 -5.03760000 -9.85110000
-0.70620000 -4.79080000 -9.85670000
-1.09570000 -5.08610000 -9.92060000
-1.10550000 -4.84510000 -9.91830000
-1.12590000 -4.58100000 -9.87490000
-1.49930000 -4.91420000 -9.95950000
-1.52750000 -4.66530000 -9.90680000
-1.55500000 -4.41530000 -9.95730000
-1.91850000 -4.74780000 -9.97780000
-1.96100000 -4.49410000 -10.00760000
-2.02940000 -4.23710000 -9.97940000
-2.33790000 -4.53470000 -10.06390000
-2.41740000 -4.25000000 -10.03120000
-2.08170000 -4.02500000 -9.90510000
-2.08810000 -3.88430000 -9.82090000
-2.07250000 -3.77530000 -9.74700000
-2.44450000 -3.64590000 -9.60700000
-2.03790000 -3.68390000 -9.67570000
-2.39530000 -3.54040000 -9.53360000
-2.00420000 -3.57860000 -9.62990000
-2.36680000 -3.41970000 -9.50810000
-1.98930000 -3.46120000 -9.64710000
-2.37040000 -3.30240000 -9.55610000
-1.98940000 -3.34820000 -9.69790000
-2.38180000 -3.18730000 -9.62010000
-2.73020000 -3.26600000 -9.43230000
-2.74150000 -3.14570000 -9.49010000
-2.75140000 -3.01250000 -9.54410000
-3.08960000 -3.12540000 -9.37860000
-3.10590000 -2.98530000 -9.43320000
-3.11790000 -2.82080000 -9.45260000
-3.45730000 -2.98480000 -9.31940000
-3.47420000 -2.82070000 -9.34480000
-3.50410000 -2.61790000 -9.35530000
-3.12890000 -2.62950000 -9.45560000
-3.84310000 -2.84390000 -9.23110000
-3.89090000 -2.66040000 -9.26460000
-4.23860000 -2.84540000 -9.18230000
-4.26030000 -2.64590000 -9.26530000
-4.56380000 -2.83080000 -9.16600000
-4.56930000 -2.62420000 -9.24880000
-4.85370000 -2.81290000 -9.12600000
-4.83350000 -2.59040000 -9.18700000
-4.82170000 -2.35380000 -9.27770000
-5.10500000 -2.51160000 -9.09000000
-5.06960000 -2.25570000 -9.14860000
-5.36960000 -2.42290000 -8.92530000
-5.14480000 -2.76900000 -9.04430000
-5.40560000 -2.70390000 -8.88620000
-5.62390000 -2.65840000 -8.69460000
-5.59430000 -2.35670000 -8.71060000
-5.78800000 -2.63080000 -8.45340000
-5.77500000 -2.32600000 -8.44910000
-5.87560000 -2.62130000 -8.16770000
-5.88460000 -2.32410000 -8.14450000
-5.89420000 -2.62270000 -7.85600000
-5.92310000 -2.33530000 -7.81150000
-5.88310000 -2.63350000 -7.54070000
-5.93770000 -2.36350000 -7.48900000
-6.03230000 -2.09220000 -7.43630000
-5.95110000 -2.42490000 -7.19960000
-6.09730000 -2.16930000 -7.15820000
-6.18320000 -1.87920000 -7.09240000
-5.99540000 -2.24500000 -6.88720000
-6.08040000 -1.96070000 -6.82810000
-6.19990000 -1.75720000 -6.71310000
-6.23350000 -1.63260000 -7.03610000
-6.28370000 -1.59730000 -6.64250000
-6.30340000 -1.47230000 -7.01010000
-6.33610000 -1.44020000 -6.58650000
-6.36070000 -1.34520000 -6.98100000
-6.35150000 -1.27280000 -6.54670000
-6.36960000 -1.19650000 -6.94880000
-6.33000000 -1.08640000 -6.52550000
-6.32590000 -1.02480000 -6.93320000
-6.27810000 -0.98560000 -7.29320000
-6.23270000 -0.86200000 -6.87230000
-6.18980000 -0.82490000 -7.20770000
-6.08540000 -0.84990000 -7.49560000
-6.06060000 -0.68620000 -7.08280000
-5.96870000 -0.71570000 -7.33160000
-5.86850000 -0.59030000 -6.91710000
-5.81130000 -0.58410000 -7.14460000
-5.65730000 -0.56310000 -6.72370000
-5.60540000 -0.52530000 -6.94830000
-5.45790000 -0.60750000 -6.55480000
-5.39720000 -0.55180000 -6.80460000
-5.29300000 -0.67070000 -6.42700000
-5.22200000 -0.59790000 -6.71410000
-5.54390000 -0.70980000 -6.30920000
-5.38020000 -0.80270000 -6.14630000
-5.64890000 -0.86810000 -6.12310000
-5.47780000 -0.97460000 -5.94240000
-5.77030000 -1.05090000 -5.98580000
-5.57070000 -1.16110000 -5.80410000
-5.37820000 -1.17940000 -5.59800000
-5.64900000 -1.30610000 -5.74160000
-5.45500000 -1.31790000 -5.51800000
-5.27690000 -1.25260000 -5.19740000
-5.19840000 -1.13990000 -5.29280000
-5.12800000 -1.14550000 -4.75410000
-5.04840000 -1.01550000 -4.90490000
-4.98300000 -0.99990000 -4.31600000
-4.89900000 -0.85110000 -4.52740000
-4.79970000 -0.75650000 -4.72360000
-4.67640000 -0.69850000 -4.20440000
-4.60270000 -0.59950000 -4.42830000
-4.51800000 -0.52520000 -4.65250000
-4.70120000 -0.68800000 -4.90950000
-4.42920000 -0.47250000 -4.84160000
-4.60360000 -0.63020000 -5.04920000
-4.35710000 -0.40000000 -5.01560000
-4.52180000 -0.58000000 -5.21030000
-4.67840000 -0.71020000 -5.49170000
-4.50660000 -0.48760000 -5.35400000
-4.69430000 -0.56900000 -5.58740000
-4.55310000 -0.34320000 -5.45920000
-4.31900000 -0.30420000 -5.16720000
-4.34840000 -0.20350000 -5.29290000
-4.37210000 -0.03260000 -5.37430000
-4.20370000 0.02220000 -5.13940000
-4.24060000 0.17680000 -5.22590000
-4.31420000 0.35140000 -5.29470000
-4.15660000 0.38090000 -5.06380000
-4.25900000 0.53430000 -5.12970000
-4.34680000 0.72360000 -5.18190000
-4.30080000 1.05620000 -5.00580000
-4.20100000 1.11290000 -4.77020000
-4.14810000 1.35670000 -4.74720000
-4.05890000 1.09960000 -4.56530000
-3.99090000 1.35600000 -4.55260000
-3.94310000 1.06780000 -4.41700000
-3.88450000 1.33960000 -4.38300000
-3.89530000 1.02890000 -4.25100000
-3.85460000 1.32320000 -4.21060000
-3.91530000 0.98880000 -4.06750000
-3.90520000 1.28980000 -4.02080000
-3.84690000 1.61330000 -3.98600000
-3.94760000 1.22680000 -3.80900000
-3.92140000 1.53810000 -3.76200000
-3.83300000 1.83930000 -3.72130000
-3.72820000 1.89850000 -3.94360000
-3.66590000 2.07540000 -3.68110000
-3.58060000 2.13230000 -3.90740000
-3.52180000 2.24670000 -3.63650000
-3.46770000 2.33710000 -3.88110000
-3.42620000 2.43090000 -4.12360000
-3.40650000 2.50980000 -3.84930000
-3.34670000 2.60830000 -4.09420000
-3.27600000 2.71590000 -4.36380000
-3.36600000 2.53850000 -4.38660000
-3.27720000 2.67770000 -4.71020000
-3.29040000 2.77630000 -4.06890000
-3.35470000 2.67880000 -3.81980000
-3.33300000 2.83780000 -3.79040000
-3.41420000 2.58270000 -3.56850000
-3.39960000 2.73700000 -3.53800000
-3.40140000 2.88760000 -3.51160000
-3.44520000 2.64070000 -3.27030000
-3.44210000 2.79290000 -3.24500000
-3.48140000 2.93310000 -3.22610000
-3.46080000 2.69980000 -2.96080000
-3.49450000 2.84160000 -2.94220000
-3.57400000 2.95600000 -2.93230000
-3.48320000 2.75110000 -2.63930000
-3.55410000 2.87390000 -2.62610000
-3.66470000 2.96040000 -2.62310000
-3.52250000 2.78580000 -2.30560000
-3.62580000 2.88310000 -2.30020000
-3.76480000 2.94380000 -2.30520000
-3.58090000 2.80400000 -1.96890000
-3.71590000 2.87510000 -1.97240000
-3.87930000 2.91960000 -1.98410000
-3.66770000 2.81160000 -1.63470000
-3.82940000 2.86230000 -1.64730000
-4.01560000 2.90310000 -1.66480000
-3.78950000 2.81270000 -1.30950000
-3.97410000 2.85750000 -1.33150000
