-4.99370000 2.23770000 -2.04880000
-4.79400000 2.23370000 -2.09070000
-4.51070000 2.25110000 -2.35860000
-4.66200000 2.26960000 -2.07110000
-4.83850000 2.26760000 -1.88570000
-4.91850000 2.24910000 -1.79600000
-4.76940000 2.19380000 -2.67410000
-4.70990000 2.15490000 -2.77370000
-4.78340000 2.17050000 -2.76010000
-4.80330000 2.25380000 -3.02270000
-4.55570000 2.29600000 -3.28230000
-4.77920000 2.27490000 -3.27430000
-4.66920000 2.12900000 -2.89650000
-4.55610000 2.15990000 -3.05460000
-4.59690000 2.20160000 -3.11790000
-4.59930000 2.26120000 -3.18170000
-4.69280000 2.15720000 -2.96660000
-4.75240000 2.17560000 -2.88860000
-4.81080000 2.21870000 -2.86790000
-4.70140000 2.21740000 -3.03390000
-5.15610000 2.07900000 -2.71920000
-5.11240000 2.19430000 -2.69440000
-5.12380000 2.15500000 -2.81490000
-4.81510000 2.19520000 -2.55880000
-4.87750000 2.21330000 -2.63460000
-4.90690000 2.23090000 -2.79650000
-5.03680000 2.23170000 -2.65210000
-5.03410000 2.23040000 -2.91300000
-5.05660000 2.20400000 -2.99910000
-4.94180000 2.23640000 -3.25040000
-4.65460000 2.21980000 -2.56170000
-4.70310000 2.18080000 -2.38780000
-4.53290000 2.22280000 -2.58150000
-4.66650000 2.22900000 -2.66240000
-4.53760000 2.21690000 -2.46290000
-4.20750000 2.27150000 -2.51250000
-4.45270000 2.22520000 -2.86190000
-4.41740000 2.24870000 -2.76080000
-4.88860000 2.20430000 -2.40630000
-3.21770000 2.23320000 -2.79500000
-3.36330000 2.23840000 -2.89640000
-3.31890000 2.26030000 -2.69320000
-3.27860000 2.25390000 -2.92860000
-3.12240000 2.31300000 -2.94330000
-3.02370000 2.24390000 -2.78780000
-2.76340000 2.24620000 -2.78890000
-2.94770000 2.23810000 -2.70300000
-2.65300000 2.24510000 -2.66770000
-2.71670000 2.28260000 -2.83740000
-2.97770000 2.29590000 -2.86330000
-2.60220000 2.26920000 -2.74460000
-2.57160000 2.30730000 -2.77410000
-2.72080000 2.26590000 -2.56490000
-3.19710000 2.27220000 -2.24410000
-3.05840000 2.28270000 -2.35240000
-3.16860000 2.25470000 -2.51770000
-2.98560000 2.28050000 -2.53800000
-2.86710000 2.28050000 -2.58940000
-2.89040000 2.33240000 -2.43690000
-2.00750000 2.25210000 -2.66620000
-1.96150000 2.28380000 -2.54660000
-1.84850000 2.26140000 -2.79470000
-2.13900000 2.27000000 -2.55790000
-2.28800000 2.27410000 -2.49770000
-1.97110000 2.30360000 -2.86380000
-2.16460000 2.31920000 -2.71220000
-1.85580000 2.27160000 -2.91820000
-2.14390000 2.28080000 -2.64450000
-2.36360000 2.27680000 -2.60760000
-2.33840000 2.31690000 -2.68590000
-1.51420000 2.33380000 -2.54260000
-1.76650000 2.29960000 -2.59170000
-1.74100000 2.31400000 -2.18920000
-1.62250000 2.33340000 -2.71250000
-2.03800000 2.30640000 -2.06020000
-1.96380000 2.32460000 -2.14380000
-2.12020000 2.32190000 -2.17170000
-2.01090000 2.34920000 -2.22670000
-1.94530000 2.30660000 -1.83700000
-2.21000000 2.31360000 -1.92280000
-1.91400000 2.32740000 -2.39980000
-2.08720000 2.32260000 -2.35310000
-2.19370000 2.30710000 -2.28210000
-1.84890000 2.32820000 -2.30870000
-2.96690000 2.29090000 -2.06010000
-3.02500000 2.29730000 -1.78440000
-2.84380000 2.30790000 -1.65300000
-2.22600000 2.30740000 -1.51120000
-2.62330000 2.29820000 -1.67490000
-2.54450000 2.30690000 -1.19850000
-2.45550000 2.31250000 -2.04860000
-2.47120000 2.30800000 -1.79960000
-2.81150000 2.30960000 -1.36250000
-2.73390000 2.31990000 -0.88040000
-2.69110000 2.31570000 -1.99920000
-2.94310000 2.33300000 -1.56220000
-2.46360000 2.28860000 -2.35650000
-2.73160000 2.30150000 -2.43970000
-2.71690000 2.30890000 -2.29190000
-2.50750000 2.26670000 -2.61380000
-2.90550000 2.31160000 -2.29200000
-2.79480000 2.30060000 -2.16870000
-3.13940000 2.28870000 -1.97360000
-4.89910000 1.99790000 -1.07440000
-4.83870000 2.05850000 -1.24820000
-4.84700000 2.06070000 -1.38620000
-4.89820000 2.13530000 -0.99230000
-4.78700000 2.13910000 -1.30820000
-4.82430000 2.14470000 -1.15920000
-4.74030000 2.18210000 -1.16370000
-4.58900000 2.21360000 -1.19050000
-4.63590000 2.23540000 -1.31650000
-4.76780000 2.18720000 -1.37910000
-4.38750000 2.29780000 -1.21130000
-4.86200000 2.21630000 -0.92350000
-4.65790000 2.22910000 -1.02240000
-4.75640000 2.24690000 -0.90420000
-4.58580000 2.21450000 -1.11310000
-4.54590000 2.26600000 -0.91870000
-4.38520000 2.31710000 -0.84070000
-4.43300000 2.29140000 -1.07160000
-4.16880000 2.34420000 -1.07190000
-4.70710000 2.26840000 -0.69300000
-4.59050000 2.27110000 -0.60820000
-3.58710000 2.23920000 -0.80960000
-3.70150000 2.23230000 -0.92140000
-3.85270000 2.23860000 -0.83950000
-3.35130000 2.26640000 -0.77230000
-3.17760000 2.30180000 -0.81360000
-3.25880000 2.26740000 -0.96520000
-3.06770000 2.28260000 -1.02080000
-3.05380000 2.34380000 -0.71140000
-3.35810000 2.33070000 -0.27760000
-3.82200000 2.28530000 -0.60130000
-3.59030000 2.31610000 -0.27850000
-3.41740000 2.24880000 -0.84970000
-3.45910000 2.29220000 -0.61050000
-3.44040000 2.29370000 -0.96390000
-3.66060000 2.26880000 -0.96830000
-3.28590000 2.29960000 -1.05650000
-3.70950000 2.33450000 -1.06250000
-3.17950000 2.33080000 -0.65390000
-3.18570000 2.32160000 -0.51670000
-4.57850000 2.31720000 -0.08330000
-4.33280000 2.34560000 -0.02920000
-4.45410000 2.33390000 -0.28760000
-4.58600000 2.29520000 -0.36500000
-3.95360000 2.20720000 0.27000000
-3.80490000 2.06640000 0.30280000
-3.85780000 2.20400000 0.16390000
-3.92790000 2.25060000 0.11560000
-3.72840000 2.27330000 0.10870000
-4.03090000 2.26950000 0.25630000
-4.05060000 2.30210000 0.10900000
-4.02540000 2.27670000 -0.02580000
-3.91920000 2.27670000 0.00090000
-3.91340000 2.27960000 -0.22930000
-3.74720000 2.30440000 -0.07260000
-4.14510000 2.31890000 0.23960000
-4.13030000 2.28680000 0.39720000
-4.29970000 2.32610000 0.22370000
-4.29820000 2.33000000 0.39140000
-4.59320000 2.33130000 0.29770000
-4.23550000 2.34900000 0.57820000
-4.20400000 2.20550000 -0.26930000
-4.25200000 2.22490000 -0.26210000
-4.18470000 2.26200000 -0.09110000
-4.10810000 2.24340000 -0.29820000
-4.11810000 2.28440000 -0.03230000
-4.33890000 2.29540000 -0.24550000
-4.26670000 2.30230000 -0.09320000
-4.38010000 2.34470000 0.06910000
-4.51230000 2.30960000 0.13010000
-4.22910000 2.34630000 0.13050000
-4.08010000 2.24590000 -0.55940000
-4.16260000 2.22620000 -0.62480000
-4.17660000 2.20090000 -0.40590000
-4.21080000 2.21800000 -0.56680000
-4.27610000 2.29790000 -0.66350000
-3.96730000 2.24130000 -0.90200000
-3.91710000 2.30800000 -1.04250000
-4.00380000 2.29440000 -0.97450000
-4.09500000 2.26530000 -0.81520000
-4.19900000 2.32580000 -0.90650000
-4.35690000 2.31720000 -0.66560000
-4.03440000 2.25930000 -0.71990000
-4.00290000 2.27530000 -0.58590000
-4.24300000 2.20540000 -0.42150000
-4.29180000 2.25910000 -0.44890000
-4.38830000 2.31570000 -0.42970000
-3.91810000 2.27430000 -0.46220000
-3.55410000 2.27570000 -1.93040000
-3.27370000 2.26950000 -1.98650000
-3.44020000 2.29570000 -1.98530000
-3.99440000 2.17100000 -1.63360000
-3.95600000 2.17650000 -1.73790000
-4.09300000 2.11660000 -1.65550000
-3.77000000 2.22510000 -1.91140000
-3.70830000 2.26050000 -1.95310000
-3.85920000 2.23270000 -1.93890000
-3.87370000 2.29430000 -2.01970000
-3.54040000 2.32010000 -2.08370000
-3.96600000 2.21050000 -1.87220000
-4.16010000 2.14140000 -1.74930000
-4.11370000 2.19510000 -1.90290000
-3.73380000 2.23300000 -1.86260000
-3.84310000 2.24820000 -1.72170000
-4.06270000 2.27720000 -2.00570000
-3.85070000 2.31500000 -2.13060000
-4.07580000 2.31230000 -2.11720000
-3.72580000 2.27070000 -1.77460000
-3.75930000 2.32400000 -1.61820000
-3.56500000 2.29460000 -1.73960000
-3.49530000 2.26090000 -1.83770000
-3.48880000 2.22730000 -3.01640000
-3.53650000 2.25970000 -2.83170000
-3.67810000 2.28860000 -2.74650000
-3.44930000 2.30180000 -2.66530000
-3.29550000 2.29170000 -2.47690000
-3.61600000 2.28190000 -2.64010000
-3.77110000 2.26190000 -2.58220000
-3.73360000 2.28840000 -2.43480000
-4.00070000 2.30880000 -2.34960000
-3.34260000 2.30580000 -2.34550000
-3.30980000 2.30950000 -2.13620000
-4.33430000 2.00000000 -1.72960000
-4.41600000 1.97180000 -1.74520000
-4.33970000 2.00190000 -1.67100000
-4.34420000 2.04390000 -1.78310000
-4.42390000 1.99760000 -1.83490000
-4.48850000 2.06200000 -1.90110000
-4.47340000 1.99590000 -1.79480000
-4.52630000 2.09040000 -1.79440000
-4.44640000 2.02980000 -1.65600000
-4.50610000 2.05510000 -1.68360000
-4.54490000 2.10640000 -1.62020000
-4.27080000 2.13690000 -1.79480000
-4.36050000 2.11410000 -1.84520000
-4.21920000 2.08230000 -1.62830000
-4.34630000 2.05100000 -1.60030000
-4.25640000 2.10330000 -1.49600000
-4.45650000 2.05700000 -1.52260000
-4.52230000 2.10310000 -1.51020000
-4.34680000 2.10530000 -1.45610000
-4.43470000 2.11220000 -1.44580000
-4.50310000 2.16290000 -1.45800000
-4.29270000 2.17970000 -1.99640000
-4.31510000 2.25200000 -2.10970000
-4.39590000 2.17140000 -1.99810000
-4.43970000 2.07690000 -1.91200000
-4.47330000 2.20160000 -2.01890000
-4.53350000 2.21000000 -1.97010000
-4.57520000 2.21280000 -1.84210000
-4.51780000 2.27260000 -2.09420000
-4.41860000 2.28850000 -2.21030000
-4.15490000 2.22410000 -2.01010000
-4.17620000 2.27800000 -2.08260000
-4.61290000 2.22070000 -1.70840000
-4.89210000 2.15630000 -1.53450000
-4.87990000 2.21520000 -1.58980000
-4.74170000 2.25810000 -1.52670000
-4.72410000 2.27880000 -1.67330000
-4.55790000 2.15960000 -1.57020000
-4.59870000 2.22800000 -1.56510000
-4.52630000 2.23770000 -1.41200000
-4.61550000 2.26110000 -1.47480000
-4.63680000 2.27560000 -1.86190000
-4.70280000 2.28630000 -1.91100000
-4.18380000 2.19880000 -1.44340000
-4.10340000 2.14560000 -1.54200000
-4.00420000 2.26320000 -1.46380000
-4.44350000 2.20320000 -1.40740000
-4.29450000 2.24130000 -1.38150000
-4.07260000 2.30080000 -1.36090000
-3.92060000 2.33650000 -1.36900000
-4.21430000 2.30740000 -1.29820000
-4.42820000 2.26340000 -1.34240000
-4.10010000 2.34210000 -1.20960000
-4.53700000 2.27310000 -1.31580000
-4.35630000 2.29100000 -2.32460000
-3.35190000 2.35710000 -1.21470000
-3.30490000 2.33010000 -1.45340000
-3.38740000 2.35740000 -1.46990000
-3.25760000 2.26240000 -1.70210000
-3.15530000 2.26740000 -1.64380000
-3.49340000 2.34310000 -1.60110000
-3.34850000 2.30090000 -1.65470000
-3.04000000 2.31450000 -1.56180000
-3.17220000 2.24210000 -1.30440000
-3.13910000 2.24730000 -1.39710000
-3.25290000 2.28250000 -1.43120000
-3.59430000 2.35670000 -1.30700000
-3.42150000 2.34470000 -1.06990000
-3.73880000 2.35270000 -1.13700000
-3.72780000 2.35040000 -1.49640000
-2.99620000 2.28520000 -1.34070000
-3.00940000 2.31090000 -1.44620000
-2.91260000 2.30030000 -1.01430000
-3.21190000 2.26900000 -1.13150000
-3.29100000 2.33430000 -1.16470000
-3.44170000 2.27530000 -5.04900000
-3.59910000 2.26900000 -4.66190000
-3.16970000 2.29010000 -4.99260000
-3.60800000 2.28470000 -4.92640000
-3.88570000 2.27280000 -4.80070000
-3.80060000 2.28160000 -4.63640000
-2.57840000 2.29580000 -4.25980000
-2.78190000 2.27860000 -4.25090000
-2.74390000 2.31410000 -4.13540000
-2.66040000 2.28150000 -4.35870000
-2.79310000 2.26230000 -4.38810000
-2.63210000 2.29950000 -4.62830000
-2.82650000 2.30320000 -4.55980000
-2.55550000 2.31210000 -4.85520000
-2.72630000 2.31240000 -4.86960000
-2.35770000 2.31370000 -4.59340000
-2.25660000 2.29830000 -4.26600000
-3.20660000 2.28620000 -3.87460000
-3.71600000 2.28970000 -4.01800000
-3.67270000 2.31900000 -3.73830000
-3.34060000 2.31110000 -3.63310000
-3.01900000 2.31660000 -3.69090000
-3.20460000 2.32620000 -3.59920000
-3.53990000 2.32650000 -3.42850000
-3.30260000 2.29020000 -4.74610000
-3.07130000 2.30710000 -4.86480000
-3.13150000 2.26690000 -4.39080000
-2.95400000 2.26560000 -4.42690000
-3.24180000 2.27480000 -4.55900000
-3.00390000 2.29770000 -4.64460000
-3.39870000 2.28620000 -4.46130000
-3.36730000 2.29700000 -4.31370000
-3.10890000 2.31110000 -4.24410000
-3.09360000 2.32650000 -4.10030000
-3.50330000 2.31990000 -4.19180000
-3.77990000 2.26940000 -4.33630000
-3.76460000 2.30140000 -4.24020000
-3.57580000 2.26470000 -4.46750000
-3.02300000 2.30260000 -3.96290000
-2.69620000 2.33320000 -3.95830000
-2.70990000 2.30090000 -3.77100000
-2.87940000 2.30100000 -5.48910000
-2.65890000 2.30550000 -5.56440000
-2.95040000 2.29590000 -5.70650000
-2.55150000 2.15150000 -6.53340000
-2.55880000 2.23020000 -6.45030000
-2.78890000 2.15230000 -6.38640000
-2.86790000 2.23040000 -6.23160000
-3.07740000 2.10490000 -6.21210000
-2.96590000 2.18260000 -6.23710000
-3.21230000 2.17450000 -6.07960000
-3.17110000 2.23980000 -6.01350000
-2.85990000 2.26930000 -5.98410000
-2.30030000 2.32800000 -6.05550000
-2.41070000 2.30740000 -6.07880000
-2.52990000 2.29840000 -5.83290000
-2.57580000 2.28060000 -6.06760000
-2.66630000 2.26770000 -6.25990000
-3.42450000 2.14080000 -5.91150000
-3.67480000 2.10670000 -5.67150000
-3.66970000 2.16490000 -5.63890000
-3.33890000 2.21530000 -5.88950000
-3.50960000 2.22090000 -5.72980000
-3.22660000 2.26530000 -5.73160000
-3.48700000 2.25120000 -5.54630000
-3.53660000 2.25240000 -5.59300000
-3.86110000 2.12260000 -5.42040000
-4.02090000 2.08350000 -5.17940000
-3.70460000 2.21210000 -5.49810000
-3.91860000 2.16700000 -5.29330000
-3.92830000 2.22340000 -5.14110000
-3.75280000 2.23510000 -5.32600000
-3.20860000 2.29910000 -5.15620000
-3.35660000 2.30900000 -5.14230000
-3.30080000 2.31160000 -5.29840000
-3.48530000 2.28480000 -5.25770000
-3.30660000 2.28070000 -5.46400000
-3.14640000 2.28910000 -5.37150000
-3.76080000 2.26580000 -5.11510000
-2.43150000 2.30320000 -5.77820000
-2.48060000 2.29120000 -5.56980000
-2.22480000 2.31640000 -5.41380000
-2.42910000 2.32210000 -5.17520000
-2.61590000 2.30560000 -5.14630000
-2.54030000 2.33170000 -5.06310000
-2.73190000 2.29800000 -5.28930000
-2.38030000 2.30310000 -5.29720000
-2.25060000 2.30300000 -5.07850000
-2.43750000 2.32690000 -5.00610000
-2.14020000 2.31710000 -4.70850000
-2.20840000 2.31820000 -5.96500000
-2.35660000 2.32860000 -5.90380000
-4.49590000 2.10290000 -4.27440000
-4.47660000 2.16930000 -4.25350000
-4.76310000 2.09350000 -3.81870000
-4.68470000 2.15570000 -3.88530000
-4.44420000 2.20170000 -4.22940000
-4.46150000 2.20220000 -4.12430000
-4.61300000 2.19420000 -3.90540000
-4.26380000 2.23560000 -4.10620000
-4.25650000 2.21800000 -4.19180000
-4.43070000 2.21040000 -3.93970000
-4.10900000 2.28410000 -4.14040000
-4.48080000 2.26640000 -3.75760000
-4.46440000 2.19040000 -4.01340000
-4.63400000 2.20150000 -3.72750000
-4.32000000 2.16830000 -4.55500000
-4.14600000 2.16490000 -4.87360000
-4.15720000 2.09780000 -4.89680000
-4.06010000 2.20650000 -4.95610000
-4.17330000 2.22240000 -4.67120000
-3.96680000 2.25470000 -4.33380000
-4.17810000 2.24030000 -4.40990000
-3.96510000 2.24430000 -4.90750000
-4.10030000 2.24940000 -4.58650000
-4.29120000 2.24400000 -4.43710000
-4.30720000 2.23100000 -4.50420000
-4.83500000 1.98660000 -3.71330000
-4.77210000 2.15740000 -3.67990000
-4.77230000 2.22580000 -3.51990000
-4.38110000 2.26370000 -3.26750000
-4.21680000 2.26300000 -3.27310000
-4.24770000 2.30830000 -3.37500000
-4.13470000 2.32870000 -3.59650000
-4.40810000 2.30370000 -3.50300000
-4.29750000 2.29360000 -3.82000000
-3.98730000 2.30530000 -4.08750000
-3.89480000 2.30210000 -3.85530000
-4.54490000 2.28870000 -3.57600000
-3.66620000 2.28070000 -3.10240000
-3.92150000 2.27840000 -3.17880000
-3.89840000 2.31130000 -3.24420000
-3.32100000 2.32330000 -3.12760000
-3.87490000 2.32310000 -3.33940000
-1.93700000 2.27090000 -3.75090000
-2.07170000 2.27620000 -3.82030000
-1.99240000 2.25550000 -3.62030000
-1.87550000 2.27800000 -3.46380000
-2.03780000 2.27630000 -3.53040000
-1.99690000 2.32010000 -3.40000000
-2.11280000 2.29490000 -3.61130000
-2.18610000 2.33340000 -3.63930000
-2.18900000 2.30410000 -3.79010000
-2.31080000 2.34230000 -3.71450000
-2.20840000 2.32760000 -3.49900000
-2.43280000 2.33630000 -3.20940000
-2.23470000 2.31030000 -3.36400000
-2.63780000 2.30620000 -3.59570000
-1.98520000 2.33820000 -3.21870000
-1.92650000 2.30060000 -4.06940000
-2.25340000 2.27270000 -4.02370000
-1.96290000 2.32020000 -4.37710000
-2.41410000 2.33030000 -3.85780000
-2.32760000 2.28920000 -3.94260000
-2.56410000 2.29360000 -4.02350000
-2.54360000 2.27440000 -4.12770000
-1.77380000 2.34110000 -4.05800000
-1.76110000 2.31350000 -3.93170000
-2.81320000 2.34090000 -3.37450000
-3.07280000 2.32770000 -3.23960000
-3.33100000 2.29020000 -3.03830000
-2.60980000 2.33400000 -2.89840000
-1.65360000 2.29800000 -2.95920000
-1.83350000 2.31590000 -3.15190000
-1.93620000 2.33130000 -3.00000000
-1.63850000 2.29980000 -3.42550000
-1.78070000 2.29780000 -3.34050000
-1.67280000 2.30730000 -3.60920000
-1.91230000 2.33500000 -3.27020000
-2.14320000 2.35040000 -2.96400000
-2.16360000 2.34720000 -2.83410000
-3.48260000 2.28860000 -3.11180000
-0.17730000 1.62390000 -7.33510000
0.09920000 1.53220000 -7.31770000
-0.45870000 1.53420000 -7.34130000
-0.81610000 1.38050000 -7.29120000
-1.01380000 1.83840000 -7.20500000
-0.72750000 1.98010000 -7.27070000
0.35430000 1.80570000 -7.26320000
0.30640000 2.09860000 -7.25950000
0.64340000 2.10830000 -7.17750000
0.23120000 2.16190000 -7.24230000
0.01070000 2.10610000 -7.29960000
-0.39400000 2.10050000 -7.30880000
-0.15240000 2.14640000 -7.29460000
-0.74920000 2.12920000 -7.25360000
-0.46840000 2.16450000 -7.27750000
-0.12320000 2.22250000 -7.22560000
-0.62330000 2.22760000 -7.20900000
-0.24680000 2.25980000 -7.17520000
-0.71230000 2.27140000 -7.10640000
0.48560000 2.24440000 -7.11960000
0.22750000 2.27970000 -7.09670000
-0.41220000 2.35500000 -6.64390000
-0.06080000 2.33010000 -6.81220000
-0.36490000 2.32620000 -6.80920000
-0.28250000 2.29970000 -7.01360000
-0.61330000 2.30740000 -6.71690000
-0.63700000 2.30250000 -6.96890000
-0.01380000 2.31490000 -7.00160000
-1.53970000 1.97320000 -7.00950000
-1.10920000 2.12680000 -7.16680000
-1.55230000 2.12130000 -7.00500000
-1.47060000 2.18710000 -7.00790000
-1.05420000 2.19700000 -7.14600000
-1.93470000 2.14370000 -6.84390000
-1.85520000 2.21030000 -6.82720000
-1.44070000 2.24700000 -6.94740000
-1.53610000 2.29420000 -6.78980000
-1.27290000 2.28480000 -6.92760000
-1.84820000 2.25810000 -6.76460000
-1.00290000 2.29080000 -6.93370000
-0.84290000 2.22700000 -7.16090000
-1.03150000 2.26320000 -7.08240000
-1.14480000 2.31120000 -6.78190000
-1.31060000 2.33300000 -6.79640000
-1.06820000 2.30310000 -6.68030000
-1.27640000 2.33510000 -6.64670000
-0.65160000 2.29680000 -6.81650000
-0.39970000 2.35630000 -6.50560000
-0.57660000 2.33350000 -6.52600000
0.98500000 2.13240000 -7.05120000
0.70650000 2.20010000 -7.11230000
0.77850000 2.29200000 -6.94070000
0.87930000 2.27030000 -6.99740000
0.63990000 2.28610000 -6.90980000
0.42400000 2.30680000 -6.84310000
1.12750000 2.21210000 -6.95120000
1.15380000 2.26270000 -6.89610000
1.00030000 2.29880000 -6.80950000
1.22490000 2.29380000 -6.81680000
1.41770000 2.27960000 -6.73260000
1.33690000 2.24070000 -6.83170000
1.16520000 2.31330000 -6.73550000
1.02060000 2.32380000 -6.58020000
0.81040000 2.32050000 -6.73510000
0.76580000 2.32760000 -6.50310000
0.74460000 2.33960000 -6.33020000
0.87650000 2.30990000 -6.91950000
0.55340000 2.32640000 -6.64150000
0.21440000 2.32440000 -6.57440000
0.40450000 2.35470000 -6.48390000
0.29880000 2.33770000 -6.41220000
0.20680000 2.33340000 -6.72750000
-0.19280000 2.33860000 -6.63760000
0.09020000 2.32560000 -6.36170000
0.54030000 2.36380000 -6.45480000
0.46420000 2.36520000 -6.31860000
1.34580000 2.34960000 -6.37380000
1.22430000 2.31160000 -6.51040000
1.47540000 2.34050000 -6.22540000
1.32860000 2.35870000 -6.20760000
1.19620000 2.33850000 -6.23910000
-4.99390000 2.01890000 -0.56230000
-5.00340000 2.09360000 -0.33310000
-4.99990000 2.13300000 0.17940000
-4.99020000 2.17830000 -0.02590000
-4.98300000 2.15800000 -0.26790000
-4.94680000 2.11000000 -0.83720000
-4.95280000 2.19300000 -0.61890000
-4.91850000 2.20590000 -0.78040000
-4.86850000 2.25060000 -0.67300000
-4.94190000 2.21190000 -0.50890000
-4.91990000 2.21740000 -0.31580000
-4.80290000 2.26490000 -0.51550000
-4.79180000 2.24860000 -0.33960000
-4.95490000 2.24330000 0.19630000
-4.73350000 2.30440000 0.17990000
-4.90390000 2.27630000 0.38830000
-4.78130000 2.29990000 0.41940000
-4.75430000 2.25560000 -0.13670000
-4.93740000 2.23950000 0.01930000
-4.85820000 2.25040000 -0.01360000
-4.94850000 2.23810000 0.43220000
-4.67720000 2.29200000 0.64230000
-4.47310000 2.33450000 0.51040000
-4.60450000 2.29910000 0.57430000
1.00750000 2.36370000 -2.12060000
1.15210000 2.31410000 -2.20630000
1.05160000 2.29920000 -2.22600000
1.10770000 2.38740000 -2.07100000
1.16720000 2.36390000 -2.14560000
0.74060000 2.32870000 -2.12750000
0.82790000 2.33310000 -2.08290000
0.87570000 2.38040000 -2.00670000
0.79120000 2.34300000 -1.98980000
0.90550000 2.40600000 -1.90480000
-0.40710000 2.32520000 -0.39430000
-0.26190000 2.29740000 -0.50520000
-0.49320000 2.27870000 -0.43220000
-0.50240000 2.30520000 -0.31960000
-0.59150000 2.28770000 -0.32650000
-0.73760000 2.32370000 -0.34400000
-0.64390000 2.29510000 -0.00640000
-0.55500000 2.31390000 -0.70810000
-1.21090000 2.35210000 -2.26830000
-0.92570000 2.35330000 -2.40810000
-1.08640000 2.37370000 -2.15120000
-0.87950000 2.35420000 -2.20710000
-0.62140000 2.36570000 -2.49860000
-0.62790000 2.35430000 -2.18120000
-0.42200000 2.37180000 -2.41130000
-0.15900000 2.37190000 -2.20070000
-0.46540000 2.35480000 -1.99140000
-0.32640000 2.37360000 -2.03440000
-0.35720000 2.35490000 -2.38990000
-0.05200000 2.36450000 -2.49860000
-0.86900000 2.35710000 -1.67960000
-0.98710000 2.34190000 -1.98990000
-0.64430000 2.36160000 -1.72770000
-1.13370000 2.33520000 -1.67530000
-0.96640000 2.34250000 -1.35400000
0.10690000 2.36930000 -2.29230000
0.54330000 2.37400000 -2.37300000
0.35480000 2.37740000 -2.49190000
0.13040000 2.37250000 -1.70890000
-0.13440000 2.37090000 -1.87530000
-0.02540000 2.37970000 -1.62100000
-0.02760000 2.37330000 -2.04040000
0.33740000 2.36180000 -2.03880000
0.70170000 2.33600000 -1.55820000
0.72310000 2.35760000 -1.72770000
0.60140000 2.35470000 -1.71180000
0.48490000 2.35660000 -1.84240000
0.38870000 2.37450000 -1.68090000
0.69960000 2.33880000 -1.27970000
0.43480000 2.35470000 -1.37100000
0.60640000 2.36520000 -1.88200000
0.80410000 2.33930000 -2.30040000
0.78150000 2.38790000 -1.69690000
0.77930000 2.37170000 -1.87030000
-0.05010000 2.36260000 -1.39080000
0.32980000 2.37400000 -1.46100000
0.23020000 2.35780000 -1.22490000
-0.58900000 2.35150000 -1.33700000
-0.41050000 2.36080000 -1.29150000
-0.36860000 2.35960000 -1.48790000
-0.54270000 2.37380000 -1.59340000
-0.77660000 2.35320000 -1.17090000
-0.55860000 2.34160000 -1.02920000
-0.50630000 2.35750000 -1.17470000
-0.08880000 2.30970000 -0.93760000
-0.34940000 2.27630000 -0.65440000
-0.08210000 2.29690000 -0.63390000
-0.34740000 2.31050000 -0.87040000
-0.19430000 2.35330000 -1.22600000
-0.23410000 2.34510000 -1.06180000
-0.32440000 2.38500000 -1.10670000
-0.42100000 2.35000000 -1.00920000
-0.30520000 2.37450000 -1.26330000
-0.41240000 2.38770000 -1.13430000
0.26060000 2.31770000 -0.99340000
0.19480000 2.29760000 -0.83320000
-0.66120000 2.35370000 -0.73230000
-0.98850000 2.35680000 -0.70780000
-0.84660000 2.35920000 -0.60220000
-0.21930000 2.36050000 -1.60430000
-0.28320000 2.37390000 -1.86640000
-0.21520000 2.39950000 -2.03810000
1.41680000 2.35130000 -0.21300000
1.31130000 2.34060000 -0.19470000
1.39220000 2.35660000 0.16970000
2.16120000 2.25520000 0.17750000
2.16750000 2.25920000 -0.07270000
2.09260000 2.26000000 -0.05890000
2.11510000 2.27970000 0.16240000
2.05340000 2.29600000 -0.09030000
2.01340000 2.34920000 0.00410000
1.92390000 2.37320000 0.11170000
1.79860000 2.33330000 -0.07650000
1.78750000 2.32780000 0.22990000
1.30020000 2.33620000 0.27130000
1.34980000 2.31110000 0.47230000
1.57200000 2.32620000 0.32050000
1.56400000 2.35180000 0.44110000
1.67350000 2.32410000 0.38830000
1.49700000 2.35360000 0.53560000
1.69300000 2.28300000 -0.13460000
1.63470000 2.28190000 -0.19100000
1.61860000 2.28770000 0.03530000
1.56930000 2.31820000 -0.13060000
1.68410000 2.29250000 0.06740000
1.49830000 2.35610000 0.10760000
1.64780000 2.28190000 0.24640000
1.73430000 2.29350000 0.33070000
1.90620000 2.29780000 -2.11430000
1.67840000 2.24250000 -2.01650000
1.74440000 2.28820000 -1.94730000
2.60430000 2.32240000 -1.81770000
2.38240000 2.28590000 -1.98470000
2.46580000 2.28740000 -1.78600000
2.42230000 2.30970000 -1.77450000
2.33570000 2.36350000 -1.89520000
1.93410000 2.32950000 -1.43140000
1.96370000 2.32380000 -1.56250000
1.88260000 2.29730000 -1.52440000
1.86110000 2.33360000 -1.92850000
2.11990000 2.34260000 -2.08990000
2.07850000 2.38510000 -1.82090000
1.89780000 2.34150000 -1.71810000
2.28210000 2.40030000 -1.78510000
2.24640000 2.36970000 -2.00180000
1.85320000 2.30610000 -1.64970000
2.10130000 2.37050000 -1.55310000
1.78930000 2.25630000 -1.08470000
1.62580000 2.24590000 -1.10400000
1.75620000 2.24620000 -1.00980000
1.48390000 2.24710000 -1.02760000
1.41180000 2.25160000 -1.20020000
1.49420000 2.28040000 -1.24850000
1.61680000 2.26110000 -1.02180000
1.58380000 2.31080000 -0.92280000
1.11240000 2.27030000 -0.68340000
1.26070000 2.29780000 -0.63210000
1.20500000 2.27600000 -0.73830000
1.06440000 2.29460000 -0.58560000
1.42240000 2.26870000 -1.03710000
1.28780000 2.30750000 -1.20600000
1.13420000 2.29220000 -0.93580000
1.11510000 2.32670000 -1.13130000
0.85830000 2.32880000 -1.31880000
1.26090000 2.32460000 -0.89950000
1.26440000 2.34510000 -1.08010000
1.48290000 2.28790000 -0.89850000
1.38540000 2.30960000 -0.97200000
1.40610000 2.28900000 -0.78640000
1.35640000 2.32240000 -0.87180000
1.53710000 2.22240000 -1.96960000
1.61370000 2.25190000 -2.06450000
1.38640000 2.29360000 -2.02370000
1.37030000 2.27390000 -1.94480000
1.43380000 2.27440000 -1.90510000
1.26180000 2.30820000 -1.83260000
1.55350000 2.33720000 -2.17610000
1.30510000 2.35580000 -2.15630000
1.58960000 2.25350000 -1.89440000
1.54300000 2.32570000 -1.83010000
1.70730000 2.30990000 -1.80210000
1.78160000 2.27980000 -2.13740000
1.42510000 2.33650000 -1.84630000
1.30190000 2.34330000 -1.76070000
1.53210000 2.36630000 -1.76820000
1.37980000 2.35800000 -1.59460000
1.55350000 2.38320000 -1.57480000
1.04170000 2.36250000 -1.47130000
1.04890000 2.33190000 -1.63860000
0.90520000 2.39710000 -1.66460000
1.26730000 2.29990000 -1.50150000
1.13760000 2.29930000 -1.69490000
1.23640000 2.28550000 -1.39760000
1.02700000 2.36990000 -1.32960000
1.16370000 2.31340000 -1.87280000
1.02720000 2.35540000 -1.79710000
1.04240000 2.38540000 -1.94230000
1.59830000 2.36260000 -1.34990000
1.78220000 2.28950000 -1.18660000
1.63770000 2.31540000 -1.22830000
1.87460000 2.33880000 -1.28780000
1.75310000 2.35370000 -1.31630000
1.80430000 2.30780000 -1.59920000
1.83650000 2.33510000 -1.40420000
1.74900000 2.35360000 -1.56050000
1.63770000 2.38090000 -1.61430000
1.73360000 2.37980000 -1.43620000
1.69520000 2.32950000 -1.72250000
2.08770000 2.31660000 -0.80620000
2.14410000 2.35990000 -0.97860000
2.03120000 2.34910000 -0.95270000
2.19850000 2.32490000 -0.88470000
2.83060000 2.24580000 -0.82160000
2.75070000 2.28340000 -0.87270000
2.73230000 2.26520000 -0.71770000
2.86750000 2.28160000 -0.99620000
2.89860000 2.29600000 -0.69460000
2.88440000 2.31250000 -0.59880000
2.78930000 2.31990000 -0.61060000
2.71430000 2.33340000 -0.54000000
2.62080000 2.28380000 -0.67300000
2.52440000 2.30330000 -0.44560000
2.71310000 2.33720000 -0.92550000
2.64750000 2.33070000 -0.79740000
2.48340000 2.30040000 -0.72050000
2.55700000 2.35250000 -0.82860000
2.36980000 2.27960000 -0.38410000
2.45910000 2.31660000 -0.19260000
2.25920000 2.28730000 -0.18920000
2.17520000 2.29630000 -0.23200000
2.32940000 2.28380000 -0.50140000
2.28470000 2.30670000 -0.37410000
2.27980000 2.32540000 -0.55930000
2.14490000 2.33370000 -0.32460000
2.20670000 2.34790000 -0.43250000
2.38790000 2.26080000 -0.61960000
2.32330000 2.28780000 -0.66920000
2.34920000 2.32590000 -0.90100000
2.26590000 2.30980000 -0.90030000
2.48610000 2.37110000 -0.96300000
2.02190000 2.28870000 -0.71630000
2.15390000 2.32360000 -0.74340000
2.12020000 2.34490000 -0.52400000
2.23340000 2.32610000 -0.67350000
2.46870000 2.26150000 -0.60820000
2.68190000 2.25730000 -1.36930000
2.52600000 2.25950000 -1.55380000
2.63730000 2.30250000 -1.28210000
2.71380000 2.30170000 -1.52040000
2.74780000 2.26340000 -1.33610000
2.51150000 2.31770000 -1.33370000
2.38780000 2.32140000 -1.29290000
2.40140000 2.28830000 -1.42870000
2.46650000 2.35700000 -1.21620000
2.43300000 2.28850000 -1.56360000
2.56030000 2.26690000 -1.62220000
2.36770000 2.36090000 -1.63990000
2.32840000 2.30350000 -1.45810000
2.57420000 2.30040000 -1.72870000
2.37320000 2.36870000 -1.75690000
2.75800000 2.36720000 -1.63660000
2.22690000 2.30870000 -1.33600000
2.26840000 2.29620000 -1.27450000
2.26300000 2.34640000 -1.47600000
2.15370000 2.35320000 -1.38860000
2.03080000 2.36430000 -1.36410000
2.08160000 2.37500000 -1.16530000
2.21130000 2.35340000 -1.15470000
2.29650000 2.32740000 -1.13150000
2.40960000 2.36010000 -1.11750000
2.24420000 2.39100000 -1.62090000
2.84610000 2.30900000 -1.12030000
2.76820000 2.30030000 -1.20430000
2.72510000 2.34130000 -1.09220000
2.60670000 2.37300000 -1.05780000
1.66620000 2.33100000 -0.39540000
1.75080000 2.36490000 -0.59620000
1.63470000 2.34670000 -0.65370000
1.92500000 2.29200000 -0.88870000
1.80480000 2.28810000 -0.92650000
1.90700000 2.32320000 -1.08700000
1.52070000 2.29700000 -0.75360000
1.70300000 2.32470000 -0.94310000
1.78980000 2.33950000 -0.87380000
1.71170000 2.36180000 -0.84980000
1.90850000 2.29690000 -0.81120000
1.94390000 2.29600000 -0.63380000
1.86310000 2.34830000 -0.65120000
1.89680000 2.30270000 -0.49690000
1.83130000 2.35190000 -0.77390000
1.81180000 2.33140000 -0.46010000
1.54740000 2.30460000 -0.44070000
1.40060000 2.25780000 -0.60010000
1.42510000 2.25360000 -0.46220000
1.29530000 2.27880000 -0.49820000
1.24550000 2.28130000 -0.38990000
1.44580000 2.28810000 -0.35350000
1.29200000 2.30090000 -0.32540000
1.17960000 2.28350000 -0.27560000
1.12580000 2.31120000 -0.43200000
1.21350000 2.31660000 -0.52870000
1.56510000 2.29700000 -0.31480000
1.49350000 2.33610000 -0.23610000
2.04310000 2.32870000 -0.39830000
1.99100000 2.30370000 -0.51500000
2.04360000 2.29970000 -0.22190000
1.95260000 2.31680000 -0.16650000
1.91130000 2.27060000 -0.30140000
1.78680000 2.28870000 -0.32610000
1.79330000 2.29340000 -0.26190000
1.87290000 2.33430000 -0.16180000
0.38460000 2.28130000 -0.37340000
0.04830000 2.25360000 -0.25900000
0.15250000 2.28220000 -0.22840000
0.36740000 2.29960000 0.29290000
0.47430000 2.30600000 0.11650000
0.30310000 2.29320000 0.20130000
0.37150000 2.30890000 0.12090000
0.58670000 2.25380000 -0.33850000
0.48330000 2.31270000 -0.23450000
0.55240000 2.27140000 -0.21910000
0.61580000 2.26880000 -0.19920000
0.31870000 2.33690000 -0.17180000
0.78540000 2.27090000 -0.28910000
0.75220000 2.31510000 -0.14060000
0.56790000 2.28690000 -0.04450000
0.52050000 2.32060000 -0.10750000
0.75280000 2.34060000 0.07660000
0.63280000 2.30430000 0.05150000
0.55010000 2.32180000 0.13930000
0.47210000 2.33240000 0.01970000
0.41680000 2.36650000 -0.03290000
0.34080000 2.34920000 0.06160000
0.44630000 2.35710000 -0.13420000
-0.03840000 2.24260000 0.52260000
-0.07250000 2.20230000 0.60730000
-0.01140000 2.22820000 0.68890000
-0.27530000 2.21490000 0.61340000
-0.20540000 2.23800000 0.52700000
-0.29700000 2.25960000 0.44680000
-0.44920000 2.25210000 0.77510000
-0.28950000 2.22950000 0.71930000
-0.39950000 2.24210000 0.65530000
-0.53810000 2.27150000 0.73080000
-0.43820000 2.29720000 0.39630000
-0.52990000 2.25360000 0.32660000
-0.52210000 2.27610000 0.58590000
-0.43220000 2.27720000 0.55970000
-0.34500000 2.30550000 0.32210000
-0.13220000 2.20330000 0.70330000
-0.15200000 2.24990000 0.82230000
-0.07370000 2.24480000 0.77910000
-0.28230000 2.27790000 0.82710000
-0.13930000 2.20910000 0.60340000
-0.35740000 2.30310000 0.91790000
-0.23030000 2.32510000 0.97580000
-0.05490000 2.26740000 0.04400000
-0.20490000 2.27160000 0.10510000
-0.16740000 2.26830000 0.17710000
0.16350000 2.31610000 -0.06450000
0.05270000 2.26630000 -0.00900000
0.20680000 2.27420000 -0.43170000
0.02260000 2.31030000 -0.44640000
-0.02800000 2.27210000 -0.32870000
-0.08340000 2.24310000 -0.16040000
-0.12370000 2.27750000 -0.22910000
-0.21200000 2.29740000 -0.08650000
-0.15910000 2.33550000 -0.35570000
-0.02100000 2.24390000 -0.05240000
-0.46760000 2.33270000 -0.06410000
-0.55610000 2.30000000 -0.15560000
-0.49910000 2.28220000 0.07910000
-0.67610000 2.25840000 0.33160000
-0.41630000 2.30970000 0.17120000
-0.37010000 2.33830000 0.05680000
-0.30980000 2.34650000 -0.41040000
-0.46290000 2.34860000 -0.22540000
-0.29740000 2.36810000 -0.34920000
-0.15270000 2.33420000 -0.46660000
-0.27690000 2.35160000 -0.23140000
-0.38970000 2.36880000 -0.24260000
-0.02670000 2.27940000 0.16530000
0.06210000 2.25770000 0.24780000
0.14140000 2.27900000 0.11920000
-0.11800000 2.27690000 0.35960000
0.20040000 2.31660000 0.07630000
0.17240000 2.27570000 0.23350000
0.28010000 2.32980000 0.34930000
0.17200000 2.32120000 0.39100000
0.01810000 2.26800000 0.41210000
0.12240000 2.32660000 0.50540000
0.07320000 2.27950000 0.66980000
0.26810000 2.35630000 -0.00490000
0.61380000 2.35220000 0.79550000
0.68560000 2.33880000 0.76700000
0.50820000 2.37420000 0.58120000
1.21190000 2.29510000 0.83180000
1.30580000 2.30040000 0.81080000
1.22330000 2.26450000 0.74280000
1.15180000 2.30500000 0.77600000
1.11580000 2.32760000 0.90570000
1.06030000 2.35120000 0.80930000
0.90950000 2.34310000 1.34960000
0.94790000 2.32070000 1.17810000
0.83450000 2.30360000 1.18660000
0.74200000 2.33100000 1.13560000
0.79690000 2.34190000 1.29510000
0.64380000 2.34840000 1.28300000
0.67630000 2.36310000 1.46920000
0.72790000 2.34540000 0.55750000
0.82090000 2.35140000 0.63080000
0.79500000 2.31520000 1.01010000
0.88210000 2.35030000 0.87430000
0.66370000 2.36500000 1.01590000
0.57260000 2.36980000 0.92680000
0.94220000 2.31320000 1.01610000
1.06100000 2.35510000 1.18230000
0.83580000 2.32700000 0.37710000
1.00390000 2.36470000 0.40150000
0.90070000 2.34260000 0.23930000
1.18220000 2.31270000 -0.05180000
1.10250000 2.26870000 -0.22000000
0.99440000 2.28230000 -0.29430000
1.07030000 2.29400000 -0.13350000
0.96640000 2.31030000 -0.21950000
1.00940000 2.33430000 -0.11620000
0.90320000 2.35470000 -0.07280000
1.13130000 2.30570000 0.10460000
1.08100000 2.32270000 0.13350000
0.99830000 2.35250000 0.09010000
0.88030000 2.36310000 0.11800000
1.11070000 2.35160000 0.29790000
0.44110000 2.31940000 0.30330000
0.52670000 2.36410000 0.33900000
0.63640000 2.36210000 0.25700000
0.74050000 2.33660000 0.26080000
0.65270000 2.37830000 0.47320000
1.24020000 2.30090000 0.44530000
1.14770000 2.34630000 0.50310000
1.18230000 2.29300000 0.62150000
1.19720000 2.32450000 0.30130000
1.02500000 2.36990000 0.62220000
1.28220000 2.28710000 0.64900000
1.39410000 2.33890000 0.72920000
0.13160000 2.33680000 1.08080000
0.23060000 2.31220000 1.12120000
0.17310000 2.28890000 1.00440000
0.15380000 2.26830000 0.84180000
0.04510000 2.27770000 0.78760000
0.08700000 2.30340000 0.86380000
0.17570000 2.33990000 0.62390000
0.23390000 2.31170000 0.72670000
0.22170000 2.26960000 0.88480000
0.46040000 2.35010000 0.81070000
0.33510000 2.30990000 0.82130000
0.37610000 2.34130000 1.04150000
0.36390000 2.35120000 0.62220000
0.01210000 2.34710000 1.02500000
-0.15600000 2.31820000 1.05330000
-0.15660000 2.30870000 1.20610000
-0.35800000 2.28210000 1.31250000
-0.24800000 2.28960000 1.23040000
-0.34510000 2.31900000 1.23120000
-0.45980000 2.31970000 1.17570000
-0.45290000 2.28650000 0.97620000
-0.27880000 2.34150000 1.10410000
-0.09730000 2.33370000 1.30860000
0.10070000 2.36780000 1.24860000
0.04260000 2.36670000 1.36890000
-0.00690000 2.30380000 0.84740000
-0.11550000 2.30630000 0.93960000
0.54100000 2.36950000 1.14090000
0.34530000 2.35210000 1.21650000
0.40890000 2.34300000 1.31000000
0.36590000 2.30060000 1.43690000
0.24990000 2.32400000 1.32630000
0.24410000 2.30500000 1.47670000
0.18150000 2.34220000 1.38210000
0.52450000 2.33130000 1.39970000
0.27490000 2.36790000 0.51680000
0.39500000 2.35340000 0.48450000
0.88220000 2.30370000 -1.00760000
0.48350000 2.35300000 -1.18310000
0.63040000 2.33850000 -0.98770000
0.50080000 2.32730000 -0.59450000
0.55000000 2.29160000 -0.72440000
0.33320000 2.33870000 -0.66980000
0.49020000 2.30680000 -0.80340000
0.24600000 2.31930000 -0.51990000
0.08120000 2.34430000 -0.55990000
0.17990000 2.30670000 -0.73860000
0.42010000 2.33160000 -0.90880000
0.16220000 2.33730000 -0.66520000
0.50580000 2.35940000 -0.99100000
0.81330000 2.28470000 -0.69330000
1.07790000 2.32920000 -0.49640000
0.84660000 2.31780000 -0.51270000
0.71930000 2.30060000 -0.45230000
0.89510000 2.27690000 -0.36010000
0.90330000 2.27480000 -0.85790000
0.53030000 2.27540000 -0.42550000
0.85470000 2.36550000 -1.42820000
0.83870000 2.39900000 -1.57770000
0.78030000 2.38130000 -4.30290000
0.72860000 2.37030000 -3.96910000
0.29580000 2.36960000 -3.93060000
0.22430000 2.37770000 -3.69980000
0.89270000 2.39860000 -3.55730000
0.81340000 2.37920000 -3.47930000
1.05620000 2.39200000 -3.61320000
1.11570000 2.37230000 -3.83290000
1.38530000 2.37670000 -4.25880000
0.98400000 2.36570000 -4.17280000
0.88100000 2.36990000 -3.85010000
0.98220000 2.39060000 -3.80630000
1.40340000 2.37490000 -3.95300000
0.96430000 2.40780000 -3.70030000
0.77870000 2.38240000 -3.66490000
0.53300000 2.36740000 -3.62750000
0.55240000 2.38260000 -3.34740000
0.64520000 2.37200000 -3.08710000
0.47810000 2.38140000 -3.11160000
1.94260000 2.36790000 -2.83610000
1.74270000 2.37930000 -3.02140000
1.77580000 2.37850000 -2.72200000
1.66040000 2.37600000 -2.66410000
1.47770000 2.37100000 -2.77050000
1.83520000 2.38020000 -3.94110000
2.00000000 2.38880000 -3.72510000
1.81050000 2.40390000 -3.64110000
1.39100000 2.38470000 -3.37410000
1.68270000 2.38010000 -3.40910000
1.26910000 2.37240000 -3.52730000
1.56360000 2.38600000 -3.78390000
1.68260000 2.38640000 -4.00380000
1.85710000 2.37630000 -3.29560000
2.17920000 2.37730000 -3.36060000
2.00400000 2.39680000 -3.50700000
2.27480000 2.38530000 -3.16930000
2.02660000 2.39180000 -3.19900000
2.07240000 2.38910000 -2.96660000
1.84620000 2.41050000 -3.48820000
1.40600000 2.38680000 -3.12490000
0.85480000 2.37130000 -2.53750000
0.64880000 2.37570000 -2.62650000
0.81490000 2.40380000 -2.72790000
1.03290000 2.38590000 -3.27270000
0.75740000 2.39000000 -2.88350000
1.20100000 2.36800000 -2.66970000
1.00680000 2.38710000 -2.81690000
1.26430000 2.37170000 -2.89660000
1.42610000 2.30200000 -2.37100000
1.55430000 2.31670000 -2.51280000
1.34970000 2.28860000 -2.39310000
1.47160000 2.33450000 -2.59630000
1.12770000 2.33780000 -2.45550000
1.22040000 2.28340000 -2.28700000
1.30020000 2.30620000 -2.25410000
1.07390000 2.30390000 -2.31020000
1.64860000 2.38780000 -4.95490000
1.52210000 2.37840000 -5.10290000
1.15070000 2.37490000 -4.83050000
1.03240000 2.38910000 -4.55890000
1.13440000 2.39870000 -4.53110000
1.30760000 2.37260000 -4.59630000
1.57320000 2.37450000 -4.63510000
1.95960000 2.37420000 -4.23910000
1.77890000 2.37470000 -4.39520000
1.96730000 2.40370000 -4.47280000
1.92760000 2.37540000 -4.61720000
1.18400000 2.36720000 -4.37680000
1.69610000 2.34820000 -5.37970000
1.29760000 2.35780000 -5.19600000
0.95010000 2.36500000 -4.37810000
0.73720000 2.36410000 -4.54530000
0.95510000 2.36270000 -4.63210000
1.07170000 2.38370000 -4.40450000
-0.42710000 2.36370000 -3.03010000
0.04300000 2.37050000 -3.15040000
-0.03090000 2.36080000 -3.30550000
-0.13180000 2.36370000 -3.03740000
-0.27300000 2.35250000 -3.07000000
0.25140000 2.38270000 -3.39970000
0.17200000 2.37520000 -3.04990000
0.32220000 2.37220000 -2.79140000
0.04220000 2.36490000 -2.81360000
-0.21150000 2.37240000 -2.75460000
-0.04220000 2.37950000 -2.80560000
-0.07470000 2.39950000 -2.92770000
-0.36280000 2.37160000 -2.73460000
0.04050000 2.39080000 -3.70820000
0.08840000 2.39180000 -3.84730000
-0.75470000 2.36100000 -2.70440000
-0.84930000 2.35600000 -2.98620000
-0.80530000 2.34240000 -2.87500000
0.12200000 2.38470000 -2.49150000
2.27750000 2.36650000 -2.77950000
2.26510000 2.37390000 -2.99810000
2.32640000 2.33040000 -2.60970000
1.99310000 2.33100000 -2.64780000
2.12710000 2.31950000 -2.52690000
2.36120000 2.36440000 -2.47340000
2.10580000 2.36820000 -2.44310000
1.88760000 2.37070000 -2.47630000
1.76410000 2.35690000 -2.54190000
1.72840000 2.38890000 -2.45750000
1.64700000 2.35220000 -2.50410000
2.02720000 2.39550000 -2.38230000
1.59140000 2.38240000 -2.31370000
1.98150000 2.33000000 -2.50080000
1.90080000 2.35020000 -2.26520000
2.22210000 2.33750000 -2.23420000
1.80260000 2.38630000 -2.32850000
2.02800000 2.32640000 -2.20030000
1.95050000 2.32040000 -2.55850000
2.33930000 2.27690000 -2.10070000
2.39050000 2.27420000 -2.17110000
2.20310000 2.33100000 -2.17950000
2.35460000 2.34910000 -2.33860000
2.47910000 2.33100000 -2.29070000
2.50460000 2.26320000 -2.10530000
2.54930000 2.36890000 -2.38700000
1.51530000 2.36430000 -2.34850000
-2.29850000 2.31680000 -0.72640000
-2.41980000 2.32010000 -0.94680000
-2.43540000 2.32070000 -0.56060000
-2.75890000 2.31200000 -0.47390000
-2.08970000 2.25400000 -0.14330000
-2.29220000 2.26080000 -0.26810000
-2.23420000 2.24360000 -0.10420000
-2.03670000 2.29070000 -0.22610000
-2.09910000 2.31170000 -0.36510000
-2.03000000 2.31700000 -0.70810000
-2.18850000 2.33930000 -0.62150000
-2.00850000 2.32390000 -0.52320000
-1.75060000 2.33860000 -0.62650000
-1.96520000 2.33710000 -0.82650000
-2.12890000 2.34060000 -0.48600000
-2.54480000 2.29430000 -0.21650000
-2.40420000 2.25910000 -0.23900000
-2.51280000 2.29770000 -0.42310000
-2.41890000 2.27570000 -0.01020000
-2.20290000 2.28670000 0.13380000
-2.56320000 2.32070000 0.15700000
-2.41040000 2.31810000 0.23320000
-2.27850000 2.33490000 -0.48030000
-1.22600000 2.33630000 0.38120000
-1.45000000 2.34440000 0.34250000
-1.38580000 2.36440000 0.50280000
-1.56200000 2.35830000 0.47470000
-1.69030000 2.35860000 0.11450000
-1.52630000 2.33870000 0.01840000
-1.56950000 2.34800000 -0.27380000
-1.30150000 2.34130000 -0.87240000
-1.48450000 2.35390000 -0.45660000
-1.31730000 2.35920000 -0.49760000
-1.36680000 2.38400000 -0.33030000
-1.38000000 2.35200000 -0.20580000
-0.95090000 2.34750000 -0.14130000
-1.22440000 2.33760000 0.06440000
-1.11240000 2.35040000 0.18270000
-1.17460000 2.33340000 -0.16450000
-1.17330000 2.34730000 -0.54750000
-1.27140000 2.36510000 -0.29970000
-0.84460000 2.33970000 -0.09630000
-2.59940000 2.32500000 0.74300000
-2.21880000 2.33060000 0.53270000
-2.44250000 2.32600000 0.57510000
-2.10920000 2.32550000 0.63800000
-2.31580000 2.35110000 0.39370000
-2.40980000 2.34480000 0.46530000
-1.96650000 2.31610000 0.08670000
-1.95280000 2.34230000 0.29630000
-2.19530000 2.32970000 0.34980000
-1.78240000 2.34630000 0.83610000
-2.02760000 2.33870000 0.70810000
-1.95270000 2.33730000 0.93180000
-1.76360000 2.34190000 0.42280000
-1.49700000 2.37220000 0.61460000
-1.69720000 2.33880000 0.62080000
-1.59250000 2.33800000 0.81280000
-2.13580000 2.25500000 0.00720000
-1.98640000 2.29120000 -0.05960000
-1.82830000 2.33480000 -0.12630000
-1.89440000 2.32010000 -0.28870000
-1.78840000 2.32810000 -1.82980000
-1.74220000 2.32090000 -1.42350000
-1.54810000 2.33340000 -1.83440000
-1.45670000 2.34460000 -1.68390000
-1.91610000 2.32040000 -1.33220000
-2.06930000 2.32560000 -1.54160000
-1.38350000 2.33410000 -1.48560000
-1.16460000 2.34080000 -1.47270000
-1.11060000 2.35610000 -1.36500000
-1.27880000 2.36080000 -1.12590000
-1.35700000 2.34990000 -1.27180000
-1.40230000 2.34330000 -1.08250000
-1.23760000 2.38060000 -1.25390000
-1.78990000 2.33860000 -1.02030000
-2.04050000 2.31820000 -1.19210000
-1.51700000 2.35440000 -0.87900000
-1.22320000 2.34500000 -2.02360000
-2.20270000 2.30980000 -1.09650000
-2.16880000 2.33050000 -1.30810000
-2.05720000 2.34310000 -1.37620000
-1.09580000 2.35620000 -1.08270000
-3.53810000 2.04010000 0.55750000
-3.62470000 2.01110000 0.49480000
-3.54050000 2.02310000 0.67510000
-3.61870000 2.02770000 0.39950000
-3.50870000 2.07720000 0.67860000
-3.53260000 2.12950000 0.48700000
-3.57530000 2.06850000 0.41900000
-3.49570000 2.32200000 0.05530000
-3.31570000 2.32110000 0.24310000
-3.47370000 2.29450000 0.25670000
-3.26860000 2.33090000 0.05360000
-3.07710000 2.31940000 0.02960000
-2.94330000 2.32560000 0.29020000
-2.82560000 2.32770000 0.43140000
-2.90080000 2.33080000 -0.18910000
-3.30020000 2.29450000 0.68250000
-3.47130000 2.24750000 0.47300000
-3.38160000 2.27710000 0.71270000
-3.36080000 2.28510000 0.50670000
-3.11980000 2.31460000 0.63010000
-3.01180000 2.32820000 0.80680000
-3.09650000 2.31030000 0.91270000
-3.07620000 2.33710000 0.19510000
-3.16690000 2.35450000 0.27350000
-3.18900000 2.33360000 0.38860000
-3.13580000 2.32080000 -0.20020000
-3.01710000 2.31730000 -0.41040000
-2.92600000 2.32390000 -0.71100000
-3.04030000 2.34000000 -0.56300000
-3.75370000 2.02620000 0.41940000
-3.69650000 2.05010000 0.56450000
-3.84470000 2.09210000 0.50570000
-3.69580000 2.00290000 0.33450000
-3.68930000 2.03730000 0.28340000
-3.77580000 2.08170000 0.25580000
-3.72490000 2.14810000 0.23310000
-3.63220000 2.10390000 0.31550000
-3.89670000 2.10460000 0.39180000
-3.82210000 2.12850000 0.61980000
-3.90440000 2.13430000 0.56410000
-4.00180000 2.20840000 0.47550000
-3.97920000 2.23570000 0.57590000
-3.58340000 2.04940000 0.68830000
-3.49000000 2.17070000 0.63040000
-3.55820000 2.20050000 0.39280000
-3.80490000 2.18530000 0.66270000
-3.94890000 2.27800000 0.64130000
-3.79440000 2.27350000 0.72110000
-3.74910000 2.22840000 0.17860000
-3.63280000 2.21710000 0.28110000
-3.55520000 2.26950000 0.29330000
-4.11130000 2.31690000 0.55790000
-3.97650000 2.33110000 0.69450000
-3.79310000 2.32830000 0.79470000
-3.93370000 2.36120000 0.79710000
-3.46560000 2.15480000 0.76070000
-3.45170000 2.23310000 0.65600000
-2.87410000 2.31660000 0.89220000
-0.93480000 2.27270000 0.63550000
-0.67930000 2.23740000 0.46450000
-0.83290000 2.31400000 0.30480000
-0.66980000 2.25090000 0.58170000
-0.89310000 2.30100000 0.75760000
-1.22720000 2.32180000 0.61670000
-1.12160000 2.31210000 1.13150000
-1.20620000 2.28860000 0.91640000
-1.34180000 2.31840000 0.98530000
-1.36680000 2.32270000 0.75620000
-1.08110000 2.28920000 0.87540000
-1.11140000 2.27390000 0.71320000
-1.02350000 2.33170000 0.31970000
-0.62520000 2.23440000 0.85910000
-0.71850000 2.20320000 1.01930000
-0.67000000 2.19970000 1.13110000
-0.54530000 2.23920000 0.88530000
-0.74610000 2.19450000 1.18570000
-0.80090000 2.24720000 1.03870000
-0.74860000 2.26100000 0.87650000
-0.76890000 2.29840000 0.82700000
-0.90640000 2.31090000 0.98180000
-0.56290000 2.25290000 1.07720000
-0.75770000 2.30260000 0.74970000
-0.98130000 2.32860000 0.95860000
-1.04320000 2.33330000 1.20970000
-0.74480000 2.31380000 0.13310000
-0.83480000 2.35380000 0.07080000
-1.80480000 2.35440000 1.05030000
-0.41410000 2.33310000 1.21460000
2.82270000 2.34720000 0.11460000
2.67820000 2.31930000 0.01850000
2.64220000 2.32460000 0.22240000
2.55100000 2.33210000 0.02210000
2.49630000 2.34610000 0.19470000
2.49370000 2.30010000 0.44170000
2.46700000 2.32110000 0.35090000
2.35130000 2.31170000 0.29570000
2.32030000 2.27890000 0.47150000
2.38110000 2.32890000 -0.07290000
2.30350000 2.30980000 0.07610000
2.99620000 2.30950000 0.61410000
2.86800000 2.30960000 0.59630000
2.87680000 2.32370000 0.75020000
3.16040000 2.24200000 0.51120000
3.08990000 2.32810000 0.43190000
3.06980000 2.28680000 0.53140000
3.18920000 2.32070000 0.30560000
3.21390000 2.31950000 0.14700000
3.10920000 2.34320000 0.06070000
3.10830000 2.36460000 0.18720000
3.08150000 2.36670000 0.33190000
2.98610000 2.34020000 0.49040000
2.79890000 2.32750000 0.52140000
2.87510000 2.35750000 0.34190000
2.37290000 2.30630000 0.67670000
2.50040000 2.31610000 0.59670000
2.65760000 2.31440000 0.42770000
2.75620000 2.31970000 0.75560000
2.61070000 2.35170000 0.66220000
2.65750000 2.35240000 0.75420000
2.61870000 2.33480000 0.98340000
2.47270000 2.34560000 0.81750000
2.54780000 2.35610000 0.92420000
1.97860000 2.34660000 0.96920000
1.79520000 2.30090000 0.87640000
1.82220000 2.30550000 1.01570000
1.50480000 2.30800000 1.19910000
1.69790000 2.31030000 0.91870000
1.51900000 2.30400000 1.05860000
1.60010000 2.33880000 0.88140000
1.72100000 2.32450000 1.08300000
1.60580000 2.34070000 1.26190000
2.01280000 2.33050000 1.09330000
2.15720000 2.35380000 0.86180000
2.36390000 2.30220000 1.04190000
