11.73250000 -16.14170000 -26.34440000
9.41840000 -16.12680000 -27.21310000
13.97100000 -16.14160000 -25.27320000
13.40640000 -17.02020000 -24.16300000
16.14750000 -16.14700000 -23.98860000
16.75940000 -15.03930000 -24.94570000
14.50460000 -15.03890000 -26.29140000
18.90830000 -15.02760000 -23.40000000
19.49870000 -13.73050000 -24.18330000
17.29290000 -13.74250000 -25.78230000
21.60120000 -13.72050000 -22.36180000
20.92000000 -15.01250000 -21.66810000
22.80790000 -14.99580000 -19.72780000
23.52910000 -13.70240000 -20.36980000
24.49670000 -14.97270000 -17.63250000
25.28990000 -13.69020000 -18.18140000
25.99980000 -14.96060000 -15.36730000
26.83620000 -13.68020000 -15.84430000
27.27820000 -14.95310000 -12.96980000
28.15620000 -13.67240000 -13.35710000
28.32330000 -14.95570000 -10.45170000
29.22930000 -13.66770000 -10.76530000
30.06820000 -13.67650000 -8.08340000
30.02570000 -12.28220000 -11.02830000
30.89260000 -12.29060000 -8.28520000
31.51380000 -12.31290000 -5.48320000
30.65970000 -13.70910000 -5.35900000
31.87730000 -12.36620000 -2.63710000
31.00540000 -13.76510000 -2.60050000
31.98350000 -12.44110000 0.21690000
32.62480000 -10.91330000 -2.67450000
32.73770000 -10.98540000 0.25820000
32.58000000 -11.07730000 3.17640000
33.36360000 -9.50160000 0.29510000
33.19990000 -9.58740000 3.28470000
32.75050000 -9.68840000 6.23530000
33.70130000 -8.10110000 3.38330000
33.24560000 -8.19560000 6.37250000
32.51000000 -8.30450000 9.30180000
32.87800000 -6.85350000 9.44620000
33.62210000 -6.74980000 6.49200000
31.86230000 -6.95670000 12.33010000
32.12260000 -5.57640000 12.45450000
33.14410000 -5.47780000 9.55860000
30.83650000 -5.68330000 15.26540000
31.03510000 -4.35630000 15.38400000
32.33180000 -4.25380000 12.55920000
29.47450000 -4.43470000 18.09830000
29.28740000 -5.77290000 17.96590000
27.69630000 -4.51530000 20.68700000
27.51500000 -5.87420000 20.53210000
25.69280000 -4.61380000 23.12820000
25.51970000 -5.97600000 22.94640000
23.46800000 -4.71810000 25.40200000
23.31050000 -6.08080000 25.19390000
21.03320000 -4.80360000 27.46460000
20.89680000 -6.16340000 27.23290000
18.41740000 -4.85650000 29.27800000
18.29860000 -6.21930000 29.03210000
15.64460000 -4.91270000 30.81310000
15.54950000 -6.27600000 30.55590000
12.77100000 -4.98730000 32.07920000
12.70430000 -6.35510000 31.81460000
9.83020000 -5.06780000 33.09490000
9.79320000 -6.44960000 32.82250000
6.84620000 -5.14380000 33.83830000
6.82730000 -6.53360000 33.56080000
3.82200000 -6.59110000 34.01910000
3.81770000 -5.18690000 34.30280000
0.79240000 -6.63550000 34.22340000
0.76190000 -5.23830000 34.50280000
-2.29890000 -5.29010000 34.43890000
-2.24570000 -6.70300000 34.15740000
-5.34560000 -5.34330000 34.08950000
-5.26430000 -6.77370000 33.80700000
-8.35290000 -5.39990000 33.46970000
-8.24670000 -6.83420000 33.18720000
-11.27950000 -5.47170000 32.57390000
-11.14640000 -6.91710000 32.28600000
-14.09980000 -5.55330000 31.41900000
-13.94040000 -7.01180000 31.12800000
-16.81020000 -5.64220000 30.02080000
-16.63080000 -7.07290000 29.74190000
-19.39470000 -5.70520000 28.39950000
-19.19590000 -7.14210000 28.13270000
-21.81190000 -5.74860000 26.54550000
-21.59900000 -7.18730000 26.29960000
-24.05380000 -5.76250000 24.48600000
-23.82690000 -7.20170000 24.26790000
-26.12720000 -5.76430000 22.25880000
-25.88350000 -7.20000000 22.05950000
-27.74870000 -7.20570000 19.69130000
-28.01780000 -5.76460000 19.86760000
-29.69220000 -5.79070000 17.30980000
-29.40320000 -7.21210000 17.16080000
-30.83790000 -7.21120000 14.48790000
-31.13740000 -5.79350000 14.61810000
-32.02850000 -7.19730000 11.72350000
-32.33290000 -5.78100000 11.82960000
-32.95810000 -7.19090000 8.89550000
-33.26430000 -5.75250000 8.97590000
-33.62550000 -7.17510000 6.02030000
-33.93100000 -5.72760000 6.07700000
-34.02440000 -7.12310000 3.10610000
-34.33600000 -5.68920000 3.13370000
-34.15630000 -7.04550000 0.14940000
-34.47940000 -5.61090000 0.15600000
-34.01620000 -6.95170000 -2.82800000
-34.33650000 -5.53900000 -2.84940000
-33.58260000 -8.41090000 -2.81620000
-33.16540000 -8.33420000 -5.72310000
-33.59700000 -6.85360000 -5.77600000
-32.63260000 -9.83980000 -5.65730000
-32.49300000 -8.28230000 -8.56640000
-31.97610000 -9.77610000 -8.45810000
-31.36230000 -11.27830000 -8.32260000
-31.09640000 -9.73540000 -11.18170000
-30.49250000 -11.24510000 -11.00150000
-29.79830000 -12.72140000 -10.78530000
-29.42310000 -11.21740000 -13.60460000
-28.74910000 -12.69000000 -13.33560000
-27.95390000 -14.09180000 -13.02100000
-27.48620000 -12.68150000 -15.80630000
-26.73020000 -14.07100000 -15.42200000
-25.82470000 -15.31840000 -14.97670000
-25.28920000 -14.06590000 -17.72050000
-24.44050000 -15.30320000 -17.18240000
-23.46750000 -16.34630000 -16.57580000
-22.84400000 -15.28750000 -19.26080000
-21.91980000 -16.33380000 -18.59380000
-20.95630000 -17.17380000 -17.86110000
-20.22880000 -16.30250000 -20.44750000
-19.35850000 -17.13960000 -19.62520000
-18.48220000 -17.79920000 -18.82100000
-17.58800000 -17.09390000 -21.26610000
-16.79560000 -17.75100000 -20.37680000
-16.10300000 -18.29870000 -19.57560000
-14.98130000 -17.70680000 -21.75990000
-14.36130000 -18.24680000 -20.89350000
-13.78780000 -18.85840000 -20.13420000
-12.49330000 -18.21070000 -22.06090000
-11.99590000 -18.82190000 -21.23700000
-11.62740000 -19.59730000 -20.67090000
-10.10140000 -18.81000000 -22.16930000
-9.79330000 -19.59150000 -21.56150000
-9.64400000 -20.46860000 -21.33910000
-7.88360000 -19.59040000 -22.25830000
-7.75460000 -20.46730000 -22.00430000
-7.68830000 -21.20930000 -21.99480000
-5.82140000 -20.46820000 -22.48710000
-5.92570000 -19.64720000 -22.75980000
-3.94420000 -19.72810000 -23.13630000
-4.09950000 -18.93930000 -23.80310000
-6.12410000 -18.88410000 -23.41770000
-2.05980000 -18.96800000 -24.05550000
-2.21060000 -18.29340000 -25.02720000
-4.32380000 -18.28130000 -24.75850000
-0.07510000 -18.29810000 -25.13500000
-0.13740000 -17.69040000 -26.24540000
-2.36780000 -17.68390000 -26.12830000
2.09670000 -17.69410000 -26.16790000
2.13570000 -16.97510000 -27.41710000
-0.20250000 -16.97760000 -27.49180000
4.46830000 -16.96250000 -27.15280000
4.61640000 -16.09130000 -28.35430000
2.17280000 -16.08990000 -28.64550000
7.04310000 -16.10330000 -27.87460000
7.26520000 -14.99860000 -28.98810000
4.75190000 -14.98780000 -29.47490000
9.75240000 -15.02340000 -28.31440000
10.04030000 -13.73620000 -29.29590000
7.46400000 -13.70990000 -29.98950000
12.55320000 -13.75070000 -28.37600000
12.15970000 -15.03600000 -27.42290000
14.96020000 -13.74960000 -27.20270000
15.38100000 -12.35610000 -27.99410000
12.88060000 -12.36650000 -29.24300000
17.75410000 -12.33420000 -26.52590000
18.16490000 -10.86980000 -27.14240000
15.73040000 -10.90520000 -28.68640000
20.47960000 -10.86280000 -25.42710000
20.04030000 -12.32890000 -24.84320000
22.67690000 -10.86580000 -23.49720000
22.18270000 -12.32490000 -22.97350000
24.69660000 -10.86220000 -21.38360000
24.16890000 -12.31400000 -20.91000000
26.54110000 -10.85730000 -19.07440000
25.96560000 -12.30650000 -18.66810000
27.56090000 -12.30090000 -16.25580000
28.16890000 -10.85380000 -16.60740000
28.91430000 -12.29320000 -13.70110000
29.56090000 -10.84650000 -13.98840000
30.70410000 -10.83510000 -11.26370000
30.08890000 -9.36960000 -14.23180000
31.26790000 -9.35700000 -11.45470000
31.60630000 -10.83660000 -8.45520000
32.19870000 -9.36200000 -8.59090000
32.24680000 -10.86580000 -5.58210000
32.86120000 -9.38260000 -5.66250000
33.24860000 -9.43660000 -2.69190000
33.36610000 -7.90600000 -5.71820000
33.75900000 -7.96150000 -2.69400000
33.86960000 -8.03040000 0.35310000
34.14840000 -6.53670000 -2.68880000
34.25940000 -6.59040000 0.40610000
34.08270000 -6.66660000 3.47350000
34.54070000 -5.22870000 0.44940000
34.36000000 -5.30600000 3.54850000
33.89450000 -5.38150000 6.58730000
34.58180000 -3.99940000 3.60930000
34.11400000 -4.06360000 6.66390000
33.36080000 -4.15580000 9.64950000
33.57860000 -2.90330000 9.73130000
34.34200000 -2.77750000 6.73890000
32.54530000 -2.97910000 12.65910000
32.78420000 -1.83730000 12.76220000
33.82500000 -1.75200000 9.82070000
31.47420000 -1.89520000 15.63610000
31.23480000 -3.06650000 15.50460000
29.90070000 -1.92020000 18.39370000
29.66200000 -3.13290000 18.23500000
28.09890000 -1.99900000 21.00960000
27.87900000 -3.19570000 20.83530000
26.06100000 -2.06980000 23.48930000
25.85930000 -3.30900000 23.29470000
23.77010000 -2.16420000 25.79820000
23.61030000 -3.39730000 25.58850000
21.26060000 -2.28140000 27.87700000
21.14520000 -3.47470000 27.66640000
18.50400000 -3.52320000 29.49470000
18.59710000 -2.30040000 29.71700000
15.71340000 -3.58510000 31.03790000
15.78310000 -2.32610000 31.27480000
12.86450000 -2.41130000 32.54890000
12.81770000 -3.67410000 32.30690000
9.85630000 -3.73350000 33.32310000
9.88160000 -2.45060000 33.57250000
6.85460000 -3.79950000 34.06490000
6.86360000 -2.51900000 34.31040000
3.80320000 -3.84170000 34.53030000
3.79100000 -2.54060000 34.77710000
0.72470000 -3.87250000 34.73000000
0.68440000 -2.56540000 34.97540000
-2.35540000 -3.90030000 34.66510000
-2.41050000 -2.56210000 34.91250000
-5.47590000 -2.61300000 34.54920000
-5.41280000 -3.95080000 34.30840000
-8.52380000 -2.64510000 33.92490000
-8.44190000 -3.98670000 33.68800000
-11.48890000 -2.69330000 33.03610000
-11.38830000 -4.04310000 32.79930000
-14.33540000 -2.78480000 31.88350000
-14.22320000 -4.13140000 31.65080000
-17.07900000 -2.92950000 30.46310000
-16.94860000 -4.25360000 30.24660000
-19.69760000 -3.01630000 28.81090000
-19.55110000 -4.32970000 28.61000000
-22.15710000 -3.03860000 26.91910000
-21.98600000 -4.35600000 26.73790000
-24.24230000 -4.36690000 24.65580000
-24.43860000 -3.01850000 24.82530000
-26.33020000 -4.35790000 22.41160000
-26.54020000 -3.00380000 22.56980000
-28.44990000 -3.02810000 20.14360000
-28.23120000 -4.37190000 20.00100000
-30.14730000 -3.06880000 17.54840000
-29.91970000 -4.39530000 17.42670000
-31.61040000 -3.07680000 14.82120000
-31.37250000 -4.40580000 14.71760000
-32.57330000 -4.38580000 11.91210000
-32.81910000 -3.05340000 11.99210000
-33.50350000 -4.36480000 9.03940000
-33.74810000 -3.03410000 9.09990000
-34.17470000 -4.32200000 6.11560000
-34.42170000 -2.98850000 6.15270000
-34.58640000 -4.26940000 3.15250000
-34.83860000 -2.91820000 3.16450000
-34.72920000 -4.21580000 0.15260000
-34.98520000 -2.85390000 0.15010000
-34.58860000 -4.14710000 -2.87030000
-34.84290000 -2.82070000 -2.88950000
-34.16560000 -4.07210000 -5.85460000
-34.43030000 -2.75050000 -5.88960000
-33.90780000 -5.46180000 -5.81830000
-33.22150000 -5.38970000 -8.71070000
-33.48060000 -4.01790000 -8.75600000
-32.91180000 -6.80250000 -8.65180000
-32.30110000 -5.34370000 -11.52030000
-31.99890000 -6.75940000 -11.44430000
-31.60240000 -8.22290000 -11.33290000
-30.86930000 -6.73040000 -14.14610000
-30.48980000 -8.20590000 -14.00950000
-30.00390000 -9.71660000 -13.82760000
-29.16510000 -8.20640000 -16.58520000
-28.69980000 -9.71440000 -16.37440000
-28.13850000 -11.21410000 -16.11540000
-27.18340000 -9.71200000 -18.80200000
-26.64260000 -11.21330000 -18.50490000
-26.01420000 -12.68250000 -18.15140000
-24.94140000 -11.21140000 -20.76100000
-24.34000000 -12.67050000 -20.35780000
-23.65130000 -14.05160000 -19.85770000
-22.48390000 -12.65020000 -22.40480000
-21.82550000 -14.02720000 -21.85660000
-21.07610000 -15.25820000 -21.18970000
-19.85550000 -13.99340000 -23.67440000
-19.15310000 -15.22380000 -22.95840000
-18.40070000 -16.25990000 -22.13540000
-17.10710000 -15.19050000 -24.53060000
-16.40720000 -16.22500000 -23.66330000
-15.68610000 -17.05180000 -22.72290000
-14.30060000 -16.20100000 -24.98900000
-13.67030000 -17.02440000 -23.98530000
-13.05630000 -17.67360000 -22.96380000
-11.55900000 -17.02010000 -25.03840000
-11.01640000 -17.66730000 -23.97600000
-10.53610000 -18.20380000 -23.02680000
-8.90120000 -17.67430000 -24.79040000
-8.49770000 -18.22280000 -23.79110000
-8.13830000 -18.83100000 -22.89420000
-6.41310000 -18.25240000 -24.34970000
-6.74300000 -17.68500000 -25.38780000
-4.56970000 -17.69020000 -25.82700000
-4.84090000 -16.99160000 -27.04960000
-7.11460000 -17.01010000 -26.56760000
-2.54350000 -16.97610000 -27.36490000
-2.72100000 -16.10420000 -28.60180000
-5.12390000 -16.12790000 -28.27350000
-0.27060000 -16.09420000 -28.72960000
-0.34450000 -15.00020000 -29.87010000
-2.88350000 -15.02450000 -29.74550000
2.20990000 -14.98360000 -29.77550000
2.23310000 -13.69580000 -30.78710000
-0.41030000 -13.72170000 -30.88310000
4.86250000 -13.69770000 -30.48610000
4.93640000 -12.29390000 -31.38340000
2.23160000 -12.30090000 -31.68520000
7.62130000 -12.30790000 -30.87300000
7.75610000 -10.83670000 -31.63260000
4.99500000 -10.82610000 -32.15470000
10.48580000 -10.87620000 -30.91940000
10.28620000 -12.33970000 -30.16680000
13.17820000 -10.91170000 -29.98560000
13.40660000 -9.41570000 -30.59380000
10.64950000 -9.37120000 -31.54390000
16.00300000 -9.40770000 -29.26330000
16.20490000 -7.89970000 -29.70990000
13.56660000 -7.90810000 -31.06400000
18.72120000 -7.88470000 -28.09290000
18.48190000 -9.37870000 -27.66740000
21.13350000 -7.87880000 -26.29520000
20.84600000 -9.36870000 -25.90690000
23.40210000 -7.88480000 -24.29620000
23.08440000 -9.37240000 -23.93550000
25.49480000 -7.88640000 -22.09310000
25.14370000 -9.37160000 -21.77020000
27.39560000 -7.88420000 -19.69440000
27.00870000 -9.37650000 -19.41850000
29.06890000 -7.89890000 -17.13430000
28.66940000 -9.37140000 -16.89700000
30.51710000 -7.89050000 -14.43250000
29.38300000 -6.44180000 -17.32240000
30.84040000 -6.45620000 -14.58960000
32.06960000 -6.45790000 -11.74230000
31.72380000 -7.88370000 -11.61550000
33.04820000 -6.47450000 -8.79670000
32.68050000 -7.89880000 -8.70510000
33.74490000 -6.49210000 -5.77110000
33.31030000 -5.11940000 -8.86830000
34.02420000 -5.14230000 -5.80550000
34.43110000 -5.18910000 -2.68140000
34.25670000 -3.82470000 -5.82970000
34.65970000 -3.88400000 -2.67980000
34.76290000 -3.93420000 0.47990000
34.89470000 -2.62320000 -2.68720000
34.98500000 -2.70360000 0.51040000
34.80330000 -2.75920000 3.66600000
35.20660000 -1.70970000 0.53520000
35.02390000 -1.75300000 3.71490000
34.54160000 -1.86040000 6.79870000
34.70240000 -1.19250000 6.84300000
35.19260000 -1.07150000 3.74730000
33.95220000 -1.19920000 9.86590000
34.81910000 -0.66030000 6.87580000
34.05280000 -0.70260000 9.90160000
33.01920000 -0.69530000 12.86850000
32.91870000 -1.23290000 12.82110000
31.62810000 -1.20510000 15.71740000
31.72830000 -0.61000000 15.77410000
30.16160000 -0.61410000 18.55970000
30.05790000 -1.21480000 18.49310000
28.35710000 -0.69240000 21.20570000
28.24800000 -1.30540000 21.12150000
26.29200000 -0.77740000 23.71740000
26.19120000 -1.38060000 23.61670000
23.96430000 -0.85380000 26.05330000
23.87630000 -1.46960000 25.93720000
21.36450000 -1.43610000 28.05150000
21.43520000 -0.82680000 28.17170000
18.67370000 -1.47550000 29.89550000
18.73380000 -0.86030000 30.02400000
15.84230000 -1.48270000 31.46100000
15.88320000 -0.87320000 31.59370000
12.91330000 -1.44260000 32.76730000
12.93920000 -0.88230000 32.89550000
9.93460000 -0.95750000 33.93700000
9.91290000 -1.51690000 33.79790000
6.87720000 -1.47800000 34.56400000
6.88430000 -0.95070000 34.69600000
3.77890000 -1.56020000 35.01220000
3.76670000 -0.97150000 35.15480000
0.65550000 -1.58540000 35.20350000
0.64000000 -1.02720000 35.33460000
-2.44740000 -1.63090000 35.12160000
-2.47460000 -1.03800000 35.25820000
-5.53730000 -1.55030000 34.78480000
-5.57460000 -0.96440000 34.91570000
-8.62960000 -1.05450000 34.27510000
-8.58700000 -1.70620000 34.12870000
-11.61240000 -1.10950000 33.38370000
-11.56340000 -1.75180000 33.23690000
-14.48840000 -1.13740000 32.23340000
-14.42390000 -1.81140000 32.08370000
-17.27920000 -1.10500000 30.82380000
-17.19670000 -1.84030000 30.67330000
-19.94250000 -1.15770000 29.14070000
-19.84380000 -1.90230000 29.00210000
-22.44800000 -1.18640000 27.21600000
-22.32590000 -1.90700000 27.09940000
-24.62750000 -1.90850000 24.98610000
-24.75510000 -1.19690000 25.09520000
-26.86620000 -1.25440000 22.80810000
-26.73600000 -1.94090000 22.71220000
-28.78990000 -1.28700000 20.36110000
-28.65660000 -1.95540000 20.27810000
-30.51920000 -1.25940000 17.75420000
-30.36420000 -2.00580000 17.66790000
-32.00620000 -1.26190000 15.01030000
-31.84580000 -1.99180000 14.92890000
-33.23990000 -1.22890000 12.14870000
-33.06820000 -1.95430000 12.08560000
-34.00890000 -1.89530000 9.15640000
-34.18230000 -1.17660000 9.19310000
-34.67730000 -1.87120000 6.18630000
-34.84770000 -1.16900000 6.19910000
-35.08690000 -1.83120000 3.17520000
-35.24470000 -1.17930000 3.17780000
-35.36660000 -1.19160000 0.13780000
-35.20990000 -1.85600000 0.14380000
-35.22470000 -1.16890000 -2.91530000
-35.07260000 -1.81270000 -2.90620000
-34.82400000 -1.13900000 -5.92790000
-34.66880000 -1.75680000 -5.91600000
-34.17320000 -1.12000000 -8.87320000
-34.01560000 -1.69930000 -8.84870000
-33.76100000 -2.69470000 -8.80560000
-33.10400000 -1.66790000 -11.71940000
-32.83340000 -2.69170000 -11.64830000
-32.55710000 -3.97710000 -11.58050000
-31.67540000 -2.66050000 -14.41540000
-31.40610000 -3.94060000 -14.31930000
-31.15660000 -5.32790000 -14.23930000
-30.04700000 -3.94860000 -16.95490000
-29.80990000 -5.31670000 -16.85720000
-29.53260000 -6.72360000 -16.74200000
-28.25560000 -5.32610000 -19.35220000
-27.98280000 -6.73790000 -19.21800000
-27.63030000 -8.21140000 -19.03840000
-26.23300000 -6.74220000 -21.56070000
-25.89550000 -8.20940000 -21.36100000
-25.46380000 -9.71340000 -21.09610000
-23.98050000 -8.20300000 -23.53810000
-23.56350000 -9.70670000 -23.24160000
-23.05970000 -11.19450000 -22.86420000
-21.48600000 -9.67430000 -25.21590000
-21.00810000 -11.16820000 -24.79150000
-20.46540000 -12.61920000 -24.28380000
-18.80360000 -11.13100000 -26.52700000
-18.30110000 -12.58810000 -25.97280000
-17.73970000 -13.96050000 -25.31060000
-16.00620000 -12.55250000 -27.45970000
-15.49790000 -13.92790000 -26.74740000
-14.92060000 -15.16300000 -25.92100000
-13.14550000 -13.90120000 -27.98500000
-12.65060000 -15.14730000 -27.09790000
-12.10540000 -16.19330000 -26.10650000
-10.29410000 -15.13230000 -28.07710000
-9.82380000 -16.18350000 -27.03310000
-9.35070000 -17.01490000 -25.91740000
-7.49020000 -16.15890000 -27.75580000
-7.86560000 -15.09660000 -28.85040000
-5.39660000 -15.05450000 -29.40460000
-5.64780000 -13.78690000 -30.40270000
-8.21080000 -13.84070000 -29.81790000
-3.04240000 -13.75250000 -30.75700000
-3.20760000 -12.35950000 -31.63690000
-5.89360000 -12.40270000 -31.25120000
-0.48740000 -12.33030000 -31.77700000
-0.57400000 -10.87130000 -32.54230000
-3.35320000 -10.90940000 -32.38310000
2.21530000 -10.83810000 -32.45920000
2.19010000 -9.34580000 -33.09470000
-0.65530000 -9.37960000 -33.17280000
5.03280000 -9.32360000 -32.79080000
5.05010000 -7.82790000 -33.30020000
2.16220000 -7.85710000 -33.60520000
7.92020000 -7.82340000 -32.76450000
7.85200000 -9.33240000 -32.25990000
10.76670000 -7.86690000 -32.03260000
10.83810000 -6.39680000 -32.39980000
7.95840000 -6.37310000 -33.15200000
13.65700000 -6.43250000 -31.40320000
13.69840000 -5.03320000 -31.63400000
10.86230000 -5.00430000 -32.66510000
16.41130000 -5.04180000 -30.27140000
16.33260000 -6.42790000 -30.03920000
18.99150000 -5.06130000 -28.65540000
18.88530000 -6.43540000 -28.41690000
21.46050000 -5.06310000 -26.83290000
21.32780000 -6.43120000 -26.60440000
23.79460000 -5.06930000 -24.79180000
23.63210000 -6.43070000 -24.58220000
25.95350000 -5.07750000 -22.53820000
25.76350000 -6.44410000 -22.34370000
27.89750000 -5.08800000 -20.08440000
27.68560000 -6.44570000 -19.91480000
29.60310000 -5.09490000 -17.46640000
29.78830000 -3.76890000 -17.59620000
28.06890000 -3.76410000 -20.23520000
31.26670000 -3.77090000 -14.81320000
31.07550000 -5.09040000 -14.70720000
32.51380000 -3.79340000 -11.91990000
32.31240000 -5.11610000 -11.83780000
33.52930000 -3.79500000 -8.92540000
32.73410000 -2.53640000 -12.01530000
33.76260000 -2.54320000 -8.98660000
34.49650000 -2.56520000 -5.87000000
33.97100000 -1.64480000 -9.04930000
34.70260000 -1.66000000 -5.90150000
35.10690000 -1.68000000 -2.69220000
34.84960000 -1.05550000 -5.93510000
35.26760000 -1.03750000 -2.69390000
35.38220000 -1.01380000 0.55220000
35.39300000 -0.48970000 -2.69870000
35.50710000 -0.47670000 0.56570000
35.31230000 -0.53770000 3.76830000
35.60240000 0.01320000 0.57650000
35.40330000 -0.05170000 3.78550000
34.91080000 -0.17320000 6.90020000
34.98740000 0.27080000 6.92260000
35.46590000 0.38550000 3.79560000
34.19160000 0.20540000 9.95870000
34.12870000 -0.23600000 9.93240000
33.09230000 -0.20420000 12.90420000
33.15220000 0.24640000 12.93570000
31.78750000 -0.11290000 15.81140000
31.82200000 0.32540000 15.83630000
30.25990000 0.32670000 18.62790000
30.22290000 -0.11460000 18.59970000
28.46900000 0.25970000 21.30300000
28.42540000 -0.18300000 21.26130000
26.39120000 0.16890000 23.83260000
26.35220000 -0.28360000 23.78340000
24.05190000 0.14170000 26.18950000
24.01910000 -0.33250000 26.13300000
21.48120000 -0.28930000 28.25770000
21.51130000 0.18700000 28.32330000
18.77640000 -0.31310000 30.12270000
18.80890000 0.18060000 30.20480000
15.91300000 -0.32410000 31.70260000
15.93790000 0.17030000 31.79690000
12.95660000 -0.37600000 33.00160000
12.97090000 0.09980000 33.09520000
9.96500000 0.01790000 34.14540000
9.95150000 -0.44810000 34.05000000
6.88800000 -0.45270000 34.80820000
6.89010000 0.01200000 34.91280000
3.75430000 -0.44980000 35.26420000
3.74290000 0.00090000 35.35400000
0.62360000 -0.51440000 35.43990000
0.60950000 -0.04620000 35.52190000
-2.49450000 -0.50120000 35.36990000
-2.51380000 -0.03480000 35.46260000
-5.60160000 -0.45290000 35.01830000
-5.62650000 -0.00150000 35.10450000
-8.68560000 -0.05880000 34.45770000
-8.66050000 -0.51550000 34.37880000
-11.68440000 -0.06710000 33.59240000
-11.65300000 -0.54550000 33.50320000
-14.58290000 -0.06560000 32.44870000
-14.54200000 -0.55060000 32.35680000
-17.38480000 -0.02750000 31.01440000
-17.33770000 -0.52010000 30.93530000
-20.08140000 -0.01370000 29.32030000
-20.02130000 -0.54070000 29.24180000
-22.61590000 -0.06710000 27.37580000
-22.54080000 -0.58000000 27.30730000
-24.92630000 -0.14060000 25.23170000
-24.84880000 -0.64330000 25.16980000
-27.04350000 -0.18220000 22.93410000
-26.96580000 -0.67740000 22.88050000
-28.89480000 -0.68490000 20.42610000
-28.97240000 -0.17890000 20.47250000
-30.62360000 -0.67440000 17.81170000
-30.69990000 -0.15210000 17.85230000
-32.20060000 -0.13300000 15.11060000
-32.12010000 -0.65830000 15.06900000
-33.45330000 -0.10320000 12.23580000
-33.36370000 -0.62560000 12.19860000
-34.40780000 -0.08070000 9.23740000
-34.31080000 -0.58760000 9.21880000
-35.07400000 -0.09310000 6.21390000
-34.97790000 -0.58570000 6.20680000
-35.45490000 -0.17670000 3.17890000
-35.36510000 -0.63910000 3.17810000
-35.57410000 -0.16690000 0.12910000
-35.48580000 -0.64500000 0.13330000
-35.42570000 -0.14640000 -2.92590000
-35.34090000 -0.62050000 -2.92200000
-35.03640000 -0.15240000 -5.94230000
-34.94580000 -0.61220000 -5.93650000
-34.40350000 -0.16400000 -8.90990000
-34.30230000 -0.61250000 -8.89340000
-33.50300000 -0.15890000 -11.82230000
-33.39970000 -0.59250000 -11.79480000
-33.27330000 -1.06850000 -11.76250000
-32.22330000 -0.62900000 -14.62440000
-32.08630000 -1.13700000 -14.57280000
-31.91540000 -1.74170000 -14.50720000
-30.68340000 -1.17860000 -17.26630000
-30.53690000 -1.72500000 -17.19020000
-30.31170000 -2.63450000 -17.07660000
-28.95900000 -1.71560000 -19.73100000
-28.74540000 -2.64070000 -19.60430000
-28.49060000 -3.95250000 -19.46840000
-26.97920000 -2.66500000 -21.98520000
-26.73580000 -3.95070000 -21.83960000
-26.49920000 -5.33200000 -21.71140000
-24.78690000 -3.95220000 -24.06930000
-24.55800000 -5.32460000 -23.92520000
-24.30310000 -6.72910000 -23.75960000
-22.44500000 -5.30030000 -25.96840000
-22.19850000 -6.70920000 -25.78900000
-21.88500000 -8.18270000 -25.54500000
-19.91940000 -6.68230000 -27.62450000
-19.61780000 -8.13990000 -27.35460000
-19.24280000 -9.63960000 -26.98520000
-17.20110000 -8.11110000 -28.94650000
-16.85450000 -9.59750000 -28.54840000
-16.45520000 -11.09120000 -28.05540000
-14.34280000 -9.55980000 -29.89850000
-13.99110000 -11.05630000 -29.36820000
-13.59580000 -12.52000000 -28.73910000
-11.43680000 -11.02250000 -30.46470000
-11.09860000 -12.49110000 -29.80010000
-10.71920000 -13.88190000 -29.00660000
-8.52920000 -12.44580000 -30.64080000
-8.81260000 -10.98080000 -31.33710000
-6.10920000 -10.94040000 -31.97840000
-6.29990000 -9.44410000 -32.58770000
-9.06380000 -9.47880000 -31.92730000
-3.48990000 -9.41660000 -33.00410000
-3.61590000 -7.91970000 -33.50910000
-6.47010000 -7.94570000 -33.09260000
-0.73730000 -7.88140000 -33.68080000
-0.80540000 -6.43200000 -34.06970000
-3.73020000 -6.45470000 -33.90100000
2.12650000 -6.39660000 -34.00310000
2.08630000 -5.00320000 -34.29670000
-0.87100000 -5.03710000 -34.35960000
5.03670000 -4.97830000 -33.99010000
5.05110000 -6.37210000 -33.69540000
7.96660000 -4.99500000 -33.44260000
7.95760000 -3.65740000 -33.67870000
5.01700000 -3.63460000 -34.23290000
10.86110000 -3.65990000 -32.88020000
10.86880000 -2.32680000 -33.12480000
7.95430000 -2.38360000 -33.93030000
13.74970000 -2.41180000 -32.04060000
13.71940000 -3.69480000 -31.82030000
16.52870000 -2.40550000 -30.70000000
16.46360000 -3.69630000 -30.46770000
19.16350000 -2.43960000 -29.09670000
19.07250000 -3.72690000 -28.86190000
21.66650000 -2.49570000 -27.24160000
21.55930000 -3.75700000 -27.02650000
24.03840000 -2.50840000 -25.16480000
23.91400000 -3.76280000 -24.97120000
26.25110000 -2.48830000 -22.88150000
26.10120000 -3.76220000 -22.70320000
28.24410000 -2.49540000 -20.39770000
28.40780000 -1.51110000 -20.55130000
26.39250000 -1.50100000 -23.05020000
30.17290000 -1.53610000 -17.87590000
29.98520000 -2.50650000 -17.73720000
31.68550000 -1.54890000 -15.05140000
31.47510000 -2.51370000 -14.93560000
32.95710000 -1.57220000 -12.10740000
33.12020000 -0.91490000 -12.17310000
31.84360000 -0.88670000 -15.13480000
34.13210000 -0.99000000 -9.10560000
34.25070000 -0.42500000 -9.14670000
33.24000000 -0.34460000 -12.22870000
34.96980000 -0.49900000 -5.95920000
35.06060000 -0.00920000 -5.97660000
34.33190000 0.05410000 -9.17850000
35.48670000 -0.00400000 -2.70430000
35.13520000 0.43300000 -5.99900000
35.56570000 0.43720000 -2.70780000
35.66180000 0.45280000 0.58340000
35.36610000 0.75920000 -2.68990000
35.45670000 0.76540000 0.58660000
35.33730000 0.72510000 3.78450000
35.03520000 0.77890000 0.58190000
34.92410000 0.77580000 3.74350000
34.56520000 0.76930000 6.84280000
34.97240000 0.67070000 6.92410000
33.81790000 0.76500000 9.85560000
34.19570000 0.61960000 9.96390000
33.12720000 0.63670000 12.93560000
32.77260000 0.76960000 12.79940000
31.74090000 0.70670000 15.80420000
31.40080000 0.77880000 15.64320000
30.18600000 0.72070000 18.58910000
29.86170000 0.77690000 18.40010000
28.12550000 0.77130000 21.07050000
28.41710000 0.66580000 21.27530000
26.10630000 0.76130000 23.60330000
26.36180000 0.59540000 23.82140000
24.02480000 0.58320000 26.18130000
23.77970000 0.75690000 25.94300000
21.48570000 0.63030000 28.31800000
21.23390000 0.76440000 28.02910000
18.81560000 0.65570000 30.24640000
18.56560000 0.76500000 29.89900000
15.96170000 0.63540000 31.89040000
15.76260000 0.76130000 31.52970000
12.98690000 0.54810000 33.18940000
12.85360000 0.75200000 32.88500000
9.89580000 0.74340000 34.00890000
9.98240000 0.45660000 34.24740000
6.89890000 0.44420000 35.03970000
6.83820000 0.74870000 34.82370000
3.73190000 0.43080000 35.45390000
3.69590000 0.75840000 35.25000000
0.59760000 0.39130000 35.58660000
0.58220000 0.74980000 35.42880000
-2.52960000 0.39900000 35.54620000
-2.52950000 0.74970000 35.39430000
-5.65090000 0.42410000 35.17880000
-5.63150000 0.73440000 35.00160000
-8.68140000 0.70260000 34.37840000
-8.70620000 0.37470000 34.51620000
-11.67860000 0.71020000 33.55390000
-11.70590000 0.36670000 33.65450000
-14.61580000 0.37700000 32.50680000
-14.57980000 0.71660000 32.40600000
-17.41510000 0.42310000 31.06450000
-17.34550000 0.73300000 30.94040000
-20.04140000 0.74390000 29.24070000
-20.12540000 0.44750000 29.37220000
-22.58970000 0.72200000 27.32090000
-22.67380000 0.39270000 27.42730000
-24.93700000 0.67830000 25.21620000
-24.98870000 0.30800000 25.27830000
-27.07920000 0.65460000 22.93900000
-27.11220000 0.27500000 22.98050000
-29.03740000 0.28370000 20.50860000
-28.98830000 0.66730000 20.46090000
-30.75040000 0.31260000 17.87560000
-30.64950000 0.69050000 17.80820000
-32.11840000 0.70460000 15.06810000
-32.25170000 0.34760000 15.13750000
-33.39250000 0.71150000 12.21890000
-33.51780000 0.37220000 12.26280000
-34.38820000 0.74120000 9.22780000
-34.47940000 0.38100000 9.25180000
-35.07460000 0.71280000 6.20550000
-35.14310000 0.34910000 6.22020000
-35.51550000 0.63780000 3.17690000
-35.52860000 0.25650000 3.17960000
-35.66180000 0.64430000 0.11980000
-35.64140000 0.25370000 0.12280000
-35.47760000 0.66720000 -2.92490000
-35.48400000 0.26850000 -2.92850000
-35.11590000 0.66810000 -5.94290000
-35.10410000 0.26560000 -5.94510000
-34.50080000 0.65180000 -8.92430000
-34.48210000 0.25150000 -8.92150000
-33.59570000 0.64680000 -11.84340000
-33.58460000 0.24880000 -11.84470000
-32.43000000 0.65080000 -14.69390000
-32.42090000 0.25150000 -14.69700000
-32.33610000 -0.16550000 -14.66630000
-30.99050000 0.20330000 -17.41800000
-30.91570000 -0.21490000 -17.38360000
-30.81440000 -0.66710000 -17.33350000
-29.29900000 -0.26170000 -19.93810000
-29.20610000 -0.70310000 -19.88350000
-29.09350000 -1.17440000 -19.81450000
-27.42460000 -0.69410000 -22.27580000
-27.32220000 -1.15550000 -22.20750000
-27.18760000 -1.73180000 -22.11740000
-25.35790000 -1.17020000 -24.47000000
-25.22250000 -1.75720000 -24.37410000
-25.02490000 -2.66580000 -24.23080000
-23.08390000 -1.73510000 -26.46060000
-22.89150000 -2.62760000 -26.30670000
-22.66010000 -3.93220000 -26.12550000
-20.57270000 -2.59250000 -28.16080000
-20.35820000 -3.89330000 -27.98100000
-20.15630000 -5.27210000 -27.82160000
-17.90200000 -3.85800000 -29.63010000
-17.70980000 -5.24430000 -29.46550000
-17.48500000 -6.64620000 -29.25320000
-15.12220000 -5.22060000 -30.89610000
-14.92300000 -6.61400000 -30.66120000
-14.65670000 -8.06950000 -30.33140000
-12.24430000 -6.57600000 -31.85940000
-12.01150000 -8.02730000 -31.49360000
-11.73940000 -9.52100000 -31.02720000
-9.27870000 -7.98840000 -32.42000000
-9.47130000 -6.53070000 -32.80940000
-6.62490000 -6.49020000 -33.48650000
-6.74670000 -5.09990000 -33.76730000
-9.62810000 -5.13310000 -33.08050000
-3.82060000 -5.06040000 -34.18740000
-3.90670000 -3.70540000 -34.42210000
-6.85290000 -3.75450000 -33.98220000
-0.93560000 -3.68160000 -34.60030000
-0.99440000 -2.41110000 -34.85990000
-3.99410000 -2.43220000 -34.67530000
2.00930000 -2.37840000 -34.80390000
2.04530000 -3.65300000 -34.53880000
5.00430000 -2.36940000 -34.49560000
5.00130000 -1.53200000 -34.70990000
1.98930000 -1.55720000 -35.01720000
7.97080000 -1.34680000 -34.18510000
4.99990000 -0.91160000 -34.87950000
7.98730000 -0.81920000 -34.32190000
10.92410000 -0.94310000 -33.44930000
10.89640000 -1.55900000 -33.30190000
13.81410000 -0.86910000 -32.40270000
13.79270000 -1.44150000 -32.26620000
16.62760000 -0.85990000 -31.06060000
16.59110000 -1.45440000 -30.92180000
19.31090000 -0.81180000 -29.46440000
19.25360000 -1.44810000 -29.32350000
21.85500000 -0.77670000 -27.60840000
21.78410000 -1.45580000 -27.46310000
24.24940000 -0.80710000 -25.49190000
24.16430000 -1.49790000 -25.35990000
26.48370000 -0.83300000 -23.17080000
26.55100000 -0.27450000 -23.26220000
24.30800000 -0.22570000 -25.59560000
28.59950000 -0.30430000 -20.74570000
28.51430000 -0.86750000 -20.65830000
30.41180000 -0.31750000 -18.06060000
30.30390000 -0.89210000 -17.97800000
31.96280000 -0.30350000 -15.20880000
32.05220000 0.20340000 -15.26460000
30.49530000 0.17440000 -18.12680000
33.32430000 0.14600000 -12.27150000
33.37180000 0.59410000 -12.29980000
32.06270000 0.62690000 -15.28370000
34.39850000 0.50090000 -9.20700000
34.11160000 0.75340000 -9.14100000
33.00260000 0.76120000 -12.17770000
34.93800000 0.75610000 -5.96840000
34.51510000 0.77830000 -5.90160000
33.69750000 0.77960000 -9.03940000
34.94460000 0.77810000 -2.65260000
34.09480000 0.78410000 -5.82900000
34.51680000 0.78390000 -2.62220000
34.60800000 0.78390000 0.57270000
34.17450000 0.78740000 0.55560000
34.07850000 0.78790000 -2.60250000
34.08050000 0.78580000 3.64620000
34.50600000 0.78260000 3.69810000
33.72820000 0.78520000 6.66810000
34.14730000 0.78160000 6.75450000
32.99630000 0.78610000 9.61570000
33.40850000 0.78180000 9.73590000
31.97050000 0.78640000 12.49550000
32.37350000 0.78250000 12.65340000
31.03090000 0.78350000 15.46210000
30.65480000 0.78700000 15.27740000
29.16080000 0.78640000 17.98840000
29.51210000 0.78270000 18.19530000
27.44660000 0.78570000 20.59800000
27.78850000 0.78170000 20.83600000
25.78100000 0.78030000 23.33070000
25.45220000 0.78480000 23.06020000
23.46900000 0.77970000 25.63910000
23.14160000 0.78400000 25.33360000
20.93800000 0.78000000 27.69260000
20.63580000 0.78470000 27.34570000
18.29610000 0.78080000 29.51580000
18.00480000 0.78590000 29.13740000
15.53530000 0.77950000 31.12900000
15.31510000 0.78460000 30.71180000
12.51720000 0.78320000 32.05950000
12.68590000 0.77760000 32.47870000
9.62880000 0.78300000 33.17880000
9.75970000 0.77710000 33.59650000
6.64530000 0.78400000 33.97000000
6.73940000 0.77810000 34.40060000
3.63960000 0.77830000 34.82360000
3.59070000 0.78430000 34.38980000
0.56040000 0.77690000 35.00460000
0.54150000 0.78370000 34.57900000
-2.51510000 0.77670000 34.97180000
-2.50500000 0.78350000 34.54770000
-5.57440000 0.77570000 34.59050000
-5.52500000 0.78350000 34.17170000
-8.58640000 0.77190000 33.97680000
-8.50060000 0.78270000 33.56230000
-11.55060000 0.77190000 33.15580000
-11.42820000 0.78230000 32.74710000
-14.41130000 0.77460000 32.01820000
-14.24180000 0.78220000 31.62150000
-17.14400000 0.77600000 30.56040000
-16.93620000 0.78240000 30.16550000
-19.79310000 0.77620000 28.87940000
-19.54640000 0.78320000 28.50620000
-22.03380000 0.78380000 26.65810000
-22.32080000 0.77380000 26.99000000
-24.34860000 0.78370000 24.61510000
-24.64710000 0.77190000 24.92060000
-26.44040000 0.78330000 22.37960000
-26.76360000 0.77000000 22.66920000
-28.64650000 0.77100000 20.21070000
-28.28550000 0.78260000 19.95020000
-30.27860000 0.77380000 17.58040000
-29.89370000 0.78270000 17.34330000
-31.72470000 0.77500000 14.86690000
-31.32610000 0.78370000 14.65960000
-32.56840000 0.78430000 11.89090000
-32.98180000 0.77350000 12.05710000
-33.55450000 0.78370000 8.99360000
-33.97350000 0.77500000 9.11360000
-34.26540000 0.78280000 6.07490000
-34.67350000 0.77250000 6.13880000
-34.74090000 0.78170000 3.10750000
-35.13910000 0.76450000 3.14230000
-34.88880000 0.78090000 0.12130000
-35.28530000 0.76270000 0.12270000
-34.72420000 0.78070000 -2.86230000
-35.11350000 0.76770000 -2.89570000
-34.37900000 0.77960000 -5.82440000
-34.76920000 0.76700000 -5.88820000
-33.78980000 0.77920000 -8.73580000
-34.17140000 0.76660000 -8.83760000
-32.90750000 0.77920000 -11.59340000
-33.27560000 0.76730000 -11.72800000
-31.77230000 0.77910000 -14.37920000
-32.12590000 0.76810000 -14.54730000
-30.40290000 0.77980000 -17.05100000
-30.74450000 0.76410000 -17.25810000
-31.00360000 0.61010000 -17.41710000
-29.17180000 0.75740000 -19.81470000
-29.39240000 0.56770000 -19.97740000
-29.36990000 0.15620000 -19.97370000
-27.59530000 0.55770000 -22.37890000
-27.57670000 0.15260000 -22.37280000
-27.51030000 -0.26340000 -22.33040000
-25.61560000 0.18410000 -24.64340000
-25.54930000 -0.23230000 -24.60150000
-25.46470000 -0.67680000 -24.54430000
-23.41060000 -0.19680000 -26.72860000
-23.32530000 -0.64750000 -26.66160000
-23.21520000 -1.15760000 -26.57440000
-20.98160000 -0.62650000 -28.56640000
-20.88160000 -1.11270000 -28.46070000
-20.75980000 -1.67510000 -28.33510000
-18.37010000 -1.10950000 -30.12740000
-18.24930000 -1.71140000 -29.97830000
-18.09100000 -2.55960000 -29.80970000
-15.63320000 -1.53170000 -31.48820000
-15.45230000 -2.60840000 -31.25140000
-15.29050000 -3.86900000 -31.06600000
-12.71860000 -2.54610000 -32.50240000
-12.56670000 -3.83250000 -32.30000000
-12.42510000 -5.18410000 -32.11390000
-9.75320000 -3.79570000 -33.27910000
-9.87210000 -2.53900000 -33.49320000
-6.95900000 -2.51080000 -34.20590000
-7.04180000 -1.62000000 -34.41970000
-9.97730000 -1.64650000 -33.69740000
-4.05910000 -1.64820000 -34.87280000
-4.10600000 -1.09690000 -35.03080000
-7.09990000 -1.05970000 -34.57520000
-1.07840000 -0.98810000 -35.24530000
-1.04390000 -1.50620000 -35.09640000
1.97200000 -0.96780000 -35.18190000
1.95290000 -0.47570000 -35.31500000
-1.10920000 -0.51630000 -35.37670000
4.99360000 -0.44250000 -35.00370000
4.98640000 -0.02410000 -35.11250000
1.93310000 -0.04400000 -35.42500000
8.00300000 0.06200000 -34.54600000
7.99700000 -0.35400000 -34.43950000
10.95280000 0.01040000 -33.66170000
10.94110000 -0.43250000 -33.56490000
13.83780000 0.05640000 -32.60040000
13.82790000 -0.38080000 -32.50940000
16.67060000 0.10320000 -31.27560000
16.65140000 -0.34690000 -31.17370000
19.38190000 0.18160000 -29.67720000
19.34800000 -0.27730000 -29.57720000
21.95610000 0.24790000 -27.81500000
21.90860000 -0.21110000 -27.71890000
24.35420000 0.24170000 -25.67800000
24.30490000 0.64260000 -25.65530000
21.94640000 0.63610000 -27.84020000
26.57630000 0.65170000 -23.34110000
26.60010000 0.21170000 -23.33590000
28.65080000 0.62730000 -20.82020000
28.66570000 0.18290000 -20.81470000
30.49310000 0.60930000 -18.14020000
30.14310000 0.76840000 -17.94070000
28.35610000 0.77750000 -20.61560000
31.68410000 0.76510000 -15.11230000
31.27070000 0.78170000 -14.93080000
29.74180000 0.78280000 -17.70900000
32.59380000 0.78060000 -12.03600000
32.18010000 0.78520000 -11.89770000
30.84830000 0.78610000 -14.73830000
33.28350000 0.78490000 -8.92930000
32.86830000 0.78890000 -8.82940000
31.77650000 0.78910000 -11.76480000
33.67130000 0.78800000 -5.76450000
33.24370000 0.79300000 -5.70500000
32.47050000 0.79380000 -8.73600000
33.64720000 0.79290000 -2.57650000
32.82350000 0.79970000 -5.64000000
33.22700000 0.80010000 -2.54380000
33.35140000 0.79990000 0.54300000
33.75700000 0.79200000 0.55060000
33.25900000 0.79650000 3.55640000
33.66140000 0.78990000 3.60140000
32.91050000 0.79510000 6.50260000
33.31190000 0.78920000 6.58750000
32.18940000 0.79560000 9.37270000
32.58820000 0.79020000 9.49300000
31.18710000 0.79650000 12.17460000
31.56430000 0.79070000 12.33580000
29.90760000 0.79770000 14.90860000
30.27980000 0.79130000 15.09410000
28.80580000 0.79070000 17.77930000
28.43620000 0.79720000 17.57860000
27.10020000 0.79000000 20.36160000
26.74920000 0.79600000 20.13020000
25.10450000 0.78890000 22.80200000
24.77350000 0.79480000 22.53240000
22.81450000 0.78810000 25.03000000
22.50350000 0.79390000 24.72810000
20.33640000 0.78920000 27.01730000
20.06640000 0.79540000 26.69920000
17.75310000 0.79090000 28.77770000
17.53070000 0.79700000 28.44730000
14.89310000 0.79540000 29.95650000
15.08610000 0.78940000 30.32080000
12.17540000 0.79320000 31.24420000
12.35120000 0.78740000 31.63870000
9.35840000 0.79220000 32.34070000
9.50220000 0.78680000 32.75630000
6.54820000 0.78770000 33.53810000
6.45020000 0.79290000 33.11630000
3.53250000 0.78820000 33.94900000
3.47620000 0.79320000 33.52590000
0.51860000 0.78760000 34.14850000
0.50280000 0.79260000 33.72470000
-2.47310000 0.79240000 33.70420000
-2.48300000 0.78750000 34.12640000
-5.46740000 0.78760000 33.75390000
-5.41920000 0.79240000 33.33660000
-8.42200000 0.78710000 33.14010000
-8.33590000 0.79200000 32.72680000
-11.30100000 0.78640000 32.33600000
-11.17930000 0.79130000 31.92550000
-14.08820000 0.78560000 31.21260000
-13.92910000 0.79010000 30.81390000
-16.73990000 0.78600000 29.75250000
-16.54630000 0.79040000 29.38160000
-19.27980000 0.78730000 28.13450000
-19.04300000 0.79180000 27.78170000
-21.48270000 0.79210000 25.99360000
-21.75240000 0.78780000 26.31820000
-23.75420000 0.79150000 23.99630000
-24.04590000 0.78740000 24.30630000
-26.10780000 0.78710000 22.09280000
-25.78640000 0.79130000 21.80800000
-27.92360000 0.78630000 19.67770000
-27.56860000 0.79070000 19.41440000
-29.50840000 0.78640000 17.09410000
-29.15480000 0.79070000 16.87400000
-30.93010000 0.78740000 14.45030000
-30.56250000 0.79180000 14.25690000
-32.16120000 0.78830000 11.70560000
-31.78370000 0.79240000 11.54410000
-32.73390000 0.79090000 8.76610000
-33.12880000 0.78720000 8.88460000
-33.46660000 0.78980000 5.92770000
-33.85930000 0.78640000 6.00240000
-33.93570000 0.78870000 3.04010000
-34.34100000 0.78560000 3.07080000
-34.08580000 0.78720000 0.11990000
-34.49110000 0.78460000 0.12260000
-34.33080000 0.78380000 -2.83440000
-33.93330000 0.78660000 -2.81410000
-33.58470000 0.78660000 -5.69730000
-33.98580000 0.78320000 -5.76080000
-33.01690000 0.78600000 -8.53340000
-33.40460000 0.78260000 -8.63730000
-32.16080000 0.78510000 -11.32320000
-32.53640000 0.78200000 -11.45920000
-31.03950000 0.78500000 -14.02720000
-31.41070000 0.78190000 -14.20380000
-29.70620000 0.78600000 -16.62990000
-30.05770000 0.78280000 -16.84280000
-28.19290000 0.78720000 -19.09250000
-28.51780000 0.78390000 -19.34080000
-28.84600000 0.77980000 -19.58100000
-26.76870000 0.78430000 -21.67420000
-27.07980000 0.78010000 -21.93320000
-27.38360000 0.75160000 -22.19400000
-25.13260000 0.78020000 -24.14430000
-25.41890000 0.75910000 -24.42430000
-25.63920000 0.58990000 -24.64490000
-23.28810000 0.76570000 -26.52370000
-23.50410000 0.62400000 -26.78070000
-23.47950000 0.21780000 -26.77570000
-21.16450000 0.63560000 -28.72850000
-21.13220000 0.22840000 -28.70800000
-21.06320000 -0.18830000 -28.64230000
-18.61450000 0.27090000 -30.40460000
-18.55020000 -0.14740000 -30.33540000
-18.46980000 -0.60530000 -30.24460000
-15.89570000 -0.04160000 -31.84520000
-15.82800000 -0.47510000 -31.75700000
-15.74150000 -0.96550000 -31.64030000
-13.01830000 -0.50880000 -33.00940000
-12.93750000 -1.02910000 -32.87380000
-12.84490000 -1.64400000 -32.70720000
-10.05130000 -1.02890000 -33.86530000
-10.11900000 -0.50030000 -34.00870000
-7.15380000 -0.55840000 -34.71250000
-7.20040000 -0.11810000 -34.82080000
-10.17400000 -0.04740000 -34.11800000
-4.19130000 -0.15780000 -35.28140000
-4.15110000 -0.60590000 -35.16800000
-1.13950000 -0.09350000 -35.48470000
-1.17000000 0.29760000 -35.57770000
-4.22960000 0.25370000 -35.37450000
1.91410000 0.34610000 -35.52920000
1.88420000 0.66850000 -35.50560000
-1.19620000 0.64160000 -35.58660000
4.93670000 0.68240000 -35.13770000
4.97560000 0.37560000 -35.21740000
7.95020000 0.72150000 -34.51980000
8.00880000 0.45410000 -34.65380000
10.88590000 0.71020000 -33.59930000
10.96140000 0.42240000 -33.74880000
13.73310000 0.73200000 -32.47880000
13.84560000 0.46770000 -32.68500000
16.54080000 0.75170000 -31.14060000
16.69360000 0.51920000 -31.37790000
19.19350000 0.76220000 -29.47140000
19.41500000 0.59870000 -29.77030000
21.69390000 0.76810000 -27.55230000
21.41090000 0.78090000 -27.24220000
18.94810000 0.77940000 -29.14450000
23.73090000 0.78230000 -25.12160000
24.04910000 0.77780000 -25.41770000
25.96080000 0.78270000 -22.84320000
26.30150000 0.77910000 -23.12050000
27.98380000 0.78320000 -20.35720000
27.60340000 0.78580000 -20.09240000
25.61870000 0.78500000 -22.56240000
29.32800000 0.78670000 -17.46860000
28.93800000 0.79100000 -17.25320000
27.24190000 0.78960000 -19.84490000
30.47070000 0.79000000 -14.57660000
30.11220000 0.79530000 -14.42180000
28.60020000 0.79660000 -17.07270000
31.39710000 0.79440000 -11.63860000
31.02720000 0.80430000 -11.51980000
29.75900000 0.80850000 -14.27320000
32.07050000 0.80130000 -8.65050000
31.68440000 0.82860000 -8.55910000
30.66910000 0.86030000 -11.40590000
32.41480000 0.82870000 -5.57440000
32.13350000 1.06290000 -5.52800000
31.41160000 1.06600000 -8.49560000
32.54000000 1.05190000 -2.49210000
32.81520000 0.82910000 -2.51290000
32.66690000 1.02840000 0.52330000
32.95370000 0.83100000 0.53390000
32.53560000 0.96680000 3.47220000
32.86210000 0.81750000 3.51100000
32.16670000 0.93950000 6.35060000
32.51550000 0.81090000 6.41970000
31.42730000 0.89060000 9.15110000
31.79190000 0.80510000 9.25740000
30.80550000 0.81140000 12.03230000
30.45870000 0.92910000 11.91070000
29.53660000 0.81600000 14.73330000
29.19260000 0.93520000 14.57610000
28.07530000 0.81380000 17.36660000
27.73390000 0.92880000 17.17690000
26.40260000 0.81010000 19.89590000
26.07090000 0.91230000 19.67300000
24.44620000 0.80810000 22.25890000
24.12820000 0.90000000 21.99950000
22.20160000 0.80600000 24.42930000
21.91900000 0.89200000 24.15020000
19.79570000 0.80810000 26.38630000
19.56480000 0.91420000 26.11670000
17.30770000 0.81100000 28.12200000
17.11690000 0.93430000 27.85400000
14.70120000 0.80350000 29.59550000
14.52750000 0.87770000 29.27820000
12.00420000 0.80080000 30.85300000
11.83920000 0.83190000 30.48470000
9.07440000 0.80920000 31.52650000
9.21410000 0.79960000 31.93030000
6.35360000 0.80230000 32.70530000
6.25650000 0.82800000 32.30190000
3.42040000 0.80180000 33.11490000
3.36760000 0.82230000 32.70350000
0.48060000 0.80070000 33.30400000
0.46500000 0.82030000 32.88420000
-2.42530000 0.82940000 32.86590000
-2.44580000 0.80070000 33.28180000
-5.36410000 0.79900000 32.92710000
-5.30490000 0.82000000 32.51950000
-8.23700000 0.79830000 32.32370000
-8.14520000 0.81550000 31.92000000
-10.92570000 0.81390000 31.12630000
-11.05520000 0.79770000 31.52450000
-13.76710000 0.79720000 30.42270000
-13.60560000 0.81650000 30.03830000
-16.35350000 0.79790000 29.02160000
-16.16200000 0.82860000 28.66700000
-18.82380000 0.79880000 27.44000000
-18.60760000 0.83160000 27.10580000
-20.97480000 0.82560000 25.35960000
-21.22700000 0.79830000 25.67270000
-23.17830000 0.81670000 23.40090000
-23.46450000 0.79730000 23.69550000
-25.16210000 0.81900000 21.25960000
-25.47210000 0.79750000 21.53130000
-27.24050000 0.79750000 19.17200000
-26.91730000 0.82640000 18.93510000
-28.81150000 0.79690000 16.66430000
-28.47110000 0.82140000 16.45890000
-29.85710000 0.81510000 13.90290000
-30.20810000 0.79760000 14.07650000
-31.06100000 0.81530000 11.27540000
-31.42100000 0.79840000 11.40680000
-31.98690000 0.81000000 8.56050000
-32.35960000 0.79640000 8.66160000
-32.68180000 0.80750000 5.79140000
-33.07040000 0.79480000 5.86120000
-33.11420000 0.80410000 2.97150000
-33.52250000 0.79350000 3.01130000
-33.24240000 0.80290000 0.11690000
-33.66510000 0.79170000 0.11700000
-33.10810000 0.80200000 -2.73410000
-33.52000000 0.79140000 -2.77840000
-32.78190000 0.80090000 -5.56250000
-33.18300000 0.79150000 -5.62900000
-32.23140000 0.80000000 -8.32800000
-32.62470000 0.79100000 -8.42520000
-31.38920000 0.80020000 -11.04000000
-31.77520000 0.79040000 -11.17630000
-30.31420000 0.80070000 -13.68500000
-30.67760000 0.79010000 -13.85310000
-29.01160000 0.80110000 -16.22540000
-29.35530000 0.79090000 -16.42400000
-27.53370000 0.80190000 -18.63750000
-27.86270000 0.79200000 -18.86310000
-25.84720000 0.80190000 -20.89900000
-26.14950000 0.79240000 -21.15650000
-26.45670000 0.78770000 -21.41130000
-24.25990000 0.79250000 -23.29100000
-24.54530000 0.78780000 -23.57740000
-24.84300000 0.78430000 -23.86030000
-22.49040000 0.78840000 -25.59820000
-22.76260000 0.78470000 -25.90900000
-23.02560000 0.78060000 -26.21890000
-20.47900000 0.78500000 -27.75900000
-20.72360000 0.78100000 -28.09180000
-20.95510000 0.76640000 -28.42690000
-18.23310000 0.78100000 -29.70940000
-18.43690000 0.76320000 -30.06440000
-18.62920000 0.64200000 -30.39570000
-15.77770000 0.76660000 -31.47780000
-15.93130000 0.67610000 -31.83310000
-15.95410000 0.36610000 -31.91400000
-13.12470000 0.68570000 -33.10530000
-13.13740000 0.37250000 -33.18960000
-13.08310000 -0.04640000 -33.11160000
-10.22210000 0.35830000 -34.20120000
-10.23140000 0.67430000 -34.14530000
-7.26280000 0.64010000 -34.89690000
-7.24350000 0.29640000 -34.91220000
-4.26170000 0.62600000 -35.40460000
-4.24390000 0.75910000 -35.03030000
-7.22180000 0.76120000 -34.52110000
-1.21850000 0.76110000 -35.21940000
-1.23630000 0.77900000 -34.82920000
-4.23150000 0.77870000 -34.62660000
1.78200000 0.77970000 -34.74770000
1.83360000 0.76530000 -35.13590000
4.76840000 0.77990000 -34.38890000
