-4.43521452 -2.80938625 19.34858513
-3.91865516 -2.90486574 19.32898903
-1.74393785 -3.03375030 19.42582893
4.54664993 -3.03535771 19.08732605
5.74451637 -3.01489234 18.88860130
0.47375101 -3.01849532 19.57143402
2.87332106 -3.01551509 19.41700363
1.73402250 -2.66555977 -19.82699966
-0.22671720 -2.76783490 -19.89789200
-2.68182611 -2.84264135 -19.69239998
-3.92624164 -2.82381296 -19.47745895
-1.74797821 -2.65154171 -19.88939667
4.34509945 -2.71732759 -19.50661469
4.97852993 -2.99970579 -19.17823410
6.40591478 -2.80629206 -18.89144897
7.04605627 -3.04105830 -18.58016014
8.05644703 -2.76624298 -18.27422142
11.83334351 -2.93978930 -16.14345169
11.45760822 -2.88941526 -16.42037010
8.55710316 -2.96438098 -18.02132225
9.93158054 -2.73430252 -17.41360283
10.79133415 -2.89644504 -16.80781364
13.83977127 -3.16281271 -14.22206116
14.31107903 -2.65862274 -14.18249416
14.77845287 -2.72577572 -13.72881889
-3.17389631 2.90744376 -19.68685913
-1.99642467 3.03818321 -19.80516815
-0.36388919 3.08535576 -19.88438034
3.68100381 2.79649758 -19.69314957
4.94808865 3.03889871 -19.38536453
6.30467796 3.44990039 -18.32361984
5.50459814 2.55937099 -19.29450035
6.95691013 2.76827884 -18.84878922
7.40306139 3.06221819 -18.54973030
8.36983681 2.76435924 -18.32182693
9.97347736 2.79037857 -17.48180389
10.32056904 3.04048347 -17.14269257
11.68233681 2.85288715 -16.35741615
-3.47650027 3.07177162 -19.59601212
1.19531488 3.21690202 -19.85205269
3.10487962 3.25303459 -19.57027054
19.94686127 2.96511149 -0.37049341
19.86829567 2.91764951 1.87430131
19.66731262 2.92499995 3.37811589
17.33094406 2.59170508 -10.19820404
17.89456177 2.99666405 -8.83807182
8.97843838 2.80204797 -18.03739548
9.62569904 2.56429386 -17.70143700
11.22607422 2.98811197 -16.59601402
10.84338093 3.22677517 -16.48512650
11.52460003 3.09648967 -16.29601288
11.82435417 3.11624789 -16.09142876
11.87756634 3.17016768 -15.95352268
12.22854805 3.20043063 -15.60810375
12.84353638 3.15626216 -15.18305874
14.36003113 2.91874599 -13.99856567
14.72118282 3.12511706 -13.27925777
15.62437248 2.82286263 -12.57126713
16.18418694 3.02511430 -11.67329025
16.93244553 2.93460512 -10.78177071
17.40724182 3.20537090 -9.35520744
18.55110550 2.94928074 -7.70601702
19.10973167 2.93332672 -6.04895115
19.52720070 2.91860962 -4.60258102
19.81148338 2.91950464 -2.72023201
20.01121902 -3.09028864 0.20398620
20.09690285 -3.06967378 -0.35848320
20.01148605 -3.08395100 0.53622329
20.00799370 -3.07482100 1.35909295
12.16045189 -2.87966633 -15.96282005
12.85310650 -2.90028191 -15.39056492
13.45736980 -2.67531872 -14.94861984
13.82503986 -2.85657692 -14.60396767
14.88543415 -2.84187174 -13.57275581
15.17763901 -2.83781815 -13.26390743
15.46667767 -2.69353771 -12.96155643
15.21016216 -3.13699460 -12.99385262
15.51131248 -3.12835646 -12.69030285
15.71854305 -3.13038611 -12.39611053
15.81171227 -3.15509152 -12.16193867
15.99853992 -3.12645340 -11.94855213
16.69223404 -3.01702404 -11.17581177
16.51997948 -3.11923718 -11.33238316
17.25185585 -3.10907888 -10.21118546
17.43002129 -3.17332268 -9.80851364
17.67143250 -3.10330701 -9.52546597
17.87065887 -3.10054231 -9.09616566
17.98812866 -2.94885230 -8.86174679
18.46215439 -3.09532166 -7.67468739
18.79290962 -3.06262374 -6.99601364
18.84732819 -3.08694959 -6.80202150
19.02945137 -3.08447099 -6.24603987
19.11143112 -3.11188912 -5.88173103
19.16256332 -3.08257699 -5.79601336
19.32752228 -3.08028960 -5.34601355
19.41070938 -3.05775714 -5.16369534
19.55348015 -3.07386589 -4.60612726
19.75364304 -2.88183379 -4.07601023
19.82612228 -3.07297206 -3.19610763
20.03557014 -3.09188008 -1.82066405
-19.82375526 3.27734876 1.25398624
-19.83496857 3.27722526 0.21567120
-19.79645729 3.11302781 2.05068898
-19.70038795 3.15121531 2.93693590
-19.68176460 3.33909869 2.15398645
-19.40144730 3.26739693 4.36044312
-18.94240379 3.32881975 5.88242102
-18.35527420 3.29616499 7.51559114
-16.64795494 3.16944122 10.79409885
-16.92500305 3.31755424 10.27283382
-16.12149620 3.32573676 11.49327469
-14.46459389 3.28877902 13.41959286
-15.41817284 3.07958674 12.39790440
-13.04301929 3.37010074 14.65958881
-12.10853481 3.28164840 15.38940907
-12.31076527 3.38084912 15.08714581
-11.65859413 3.44858098 15.48106003
-11.58184338 3.39180112 15.73805904
-10.63245869 3.40485859 16.40390396
-19.52696228 3.49925876 1.52801728
-17.88305092 3.44426560 8.15398502
-18.18255424 3.40633750 7.70398664
-17.58440971 3.53385901 8.45431995
-17.57829857 3.15867114 9.22850895
-17.58319664 3.45680332 8.90398693
-16.98369217 3.49658108 9.80398560
-17.28280258 3.43050385 9.50398540
-15.05105782 3.54263186 12.33699417
-15.86337662 -3.04391170 11.30642414
-16.24490547 -2.46464062 11.54669476
-16.19962120 -2.79714417 11.40979004
-15.33630753 -2.89289618 12.34708214
-14.22781277 -2.97272944 13.45600033
-19.94187546 -2.74093270 -1.90084565
-20.13347816 -2.71606088 -0.06700380
-13.71642113 -2.92476630 14.11330032
-12.68545246 -2.88008809 15.10395145
-11.51201725 -2.95413709 15.87302303
-10.49037170 -3.04089332 16.36022949
-11.13887691 -2.57603645 16.47257233
-10.55043030 -2.88684893 16.66902161
-9.37542534 -2.94765639 17.20624733
-8.38264179 -2.94942999 17.63417435
-7.32687140 -2.90060663 18.23309135
-5.55892849 -3.01631761 18.70156670
-4.74350357 -2.92152381 19.10398865
-4.29278994 -2.96983671 19.10398865
-20.00295258 -2.74157906 1.23832774
-19.79982567 -2.57486033 2.76706982
-19.65280342 -2.72490358 3.57281899
-19.28548241 -2.84478450 4.81132174
-19.01839447 -2.70409632 5.63864088
-18.49146080 -2.71555138 7.19806814
-17.65539360 -2.73192430 9.10726166
-17.06963730 -2.63915539 10.31616688
6.25669575 3.22200060 18.67415619
5.46465349 3.22364855 18.96895790
17.38653755 2.92871141 9.84431648
16.28484535 2.88438845 11.56491470
14.43385887 2.91642380 13.84552002
13.75419998 3.14428592 14.25039387
15.29462433 3.00836921 12.77092552
11.95807934 3.11373925 15.83334827
19.37365913 2.91798806 4.84640026
18.66352081 2.90641260 7.16734457
18.55687141 2.61615896 7.77119637
17.89346504 2.31322551 9.16845322
18.06447220 3.08045888 7.92605925
7.22205734 3.27704763 18.18412018
10.45092297 3.26254678 16.54807091
9.58852386 3.11808372 17.34121323
8.04596519 3.31125307 17.74174500
-0.48081630 3.40376449 19.40398788
0.19486530 3.35929775 19.40398788
0.87058711 3.31193972 19.46181870
1.82760632 3.35680389 19.20948410
3.13978720 3.33404040 19.18804741
4.15725279 3.36231089 18.95825005
16.70211029 -2.75708675 11.23159695
17.41233826 -3.10669231 9.70508575
15.21104813 -3.11132121 12.68704700
15.87001514 -2.93491983 12.17553711
11.10762310 -3.19437265 16.16009140
11.31157684 -3.48280883 16.07276726
11.59786034 -2.66954851 16.31973457
11.95399570 -3.11911654 15.72898483
9.87253761 -2.90918469 17.27137184
9.81007004 -3.07827640 17.00398445
10.10949326 -3.03465605 17.00398445
19.71147346 -3.10905504 3.50398946
19.78257370 -2.87349939 4.02099228
19.71419144 -3.07492661 3.80398583
18.23047829 -3.09550571 8.30398560
18.51515388 -3.08801365 7.68895006
18.90785789 -2.80665660 7.26050711
17.94433022 -2.94572258 8.98181915
6.20811415 -2.96222520 18.83207512
7.21938372 -2.49770999 18.67510414
6.50758791 -2.92218065 18.76951599
6.80805588 -2.95390439 18.61778831
9.25105858 -2.94458890 17.60398483
9.05889130 -2.99852538 17.63518906
19.69731522 -2.77522326 4.58500338
-16.98504448 3.04875636 -10.36468983
-16.27459335 2.58660150 -11.53636360
-14.46867943 3.04953814 -13.68346119
-13.42337322 3.15490150 -14.55751801
-4.75674152 3.18629932 -19.28602219
-3.92829108 3.19778943 -19.44207954
-13.08131790 3.35253191 -14.77032757
-12.93653774 3.01457524 -15.10768127
-12.62712479 3.37716508 -15.09601307
-12.38553429 3.22797418 -15.40843201
-11.91674995 3.09628940 -15.89693642
-17.09381676 3.31812859 -9.87252235
-15.98128510 3.00907612 -11.89904594
-15.70126629 3.35136700 -11.91816235
-15.35488224 3.33933330 -12.39601326
-15.17902470 2.75734615 -12.91713333
-14.94398117 3.35227656 -12.88423157
-9.64933395 3.15928221 -17.28193283
-8.91977692 3.14046812 -17.76256180
-10.56396580 3.13349199 -16.79518318
-7.83080626 3.35203862 -18.09601212
-8.08415222 2.97444415 -18.20181274
-7.56970358 3.14739656 -18.38651657
-6.70300484 3.15930629 -18.71340561
-11.39656448 3.46399045 -15.86073208
-6.37530231 3.27456450 -18.72875786
-5.87795925 3.16028929 -18.99601173
-5.42776012 3.17706418 -19.13548470
-17.87816238 3.21281886 -8.71076202
-18.31167030 3.26977491 -7.62120438
-18.98706245 3.28289676 -5.58403540
-18.74399376 3.29717541 -6.37609673
-19.09683990 2.91780758 -5.55521727
-19.04923058 3.46587181 -4.52329779
-19.47448730 3.12461019 -4.02401829
-19.68246460 3.30041075 -2.14133501
-16.82091904 -2.86328554 -11.09053802
-17.41329384 -2.85535169 -10.08764076
-15.58454037 -2.99104023 -12.61696053
-7.05602312 -2.94810247 -18.34036827
-7.75843620 -2.95351291 -18.29125977
-6.02015543 -2.92983890 -18.97764206
-5.28200006 -2.85454988 -19.24504852
-18.51019287 -2.88216066 -7.81875467
-19.07714462 -2.84782505 -6.38032007
-19.63899612 -2.72098231 -3.95502472
-19.82836914 -2.72329116 -2.87101340
-11.12741756 -2.80544472 -16.47912979
-11.78069019 -2.78822279 -16.09783363
-11.97526169 -2.89281559 -15.77440643
-12.72330570 -2.88683796 -15.33450031
-13.48453522 -2.93970561 -14.56054115
-15.10848427 -3.03218126 -12.83665752
-16.32205200 -2.97301960 -11.50104046
-8.99716282 -2.89192510 -17.62845993
-10.14253998 -2.90194821 -17.02649879
-19.09850502 -3.00235629 -5.57451773
6.90093851 -6.15866804 12.47053814
16.80540466 3.18227220 10.25065517
-1.17182398 5.97820044 14.31121445
-2.35328245 3.43838310 -19.24273872
-19.68288994 3.42024660 0.05398620
9.69985867 -5.70112514 12.12331104
-0.48291749 6.36997700 7.03349686
-0.81225812 3.57094669 18.94877052
0.40573439 3.52873540 18.99798012
-1.53593516 6.26179600 -4.83746958
-1.76456034 6.26764631 -4.04001951
17.84964371 4.39250231 -0.86019778
17.44528580 3.69867778 6.72480011
8.10834122 -5.48828840 9.76749039
13.21540928 6.13239336 -0.26304689
2.04929256 3.54453635 -19.16945076
17.24091911 -3.65071297 8.18321037
17.31281281 -3.22402692 9.50398540
13.29180527 -5.86891508 -0.70440239
13.45326328 -6.16351461 0.51837808
-14.91731834 -6.14484072 0.15480870
-14.44684982 -6.35282660 -0.09601380
-0.23889451 -5.29927397 -0.16750470
-16.86504745 -5.08518791 0.64717889
-2.33897853 -3.41381073 -18.93605423
-18.68641853 -3.70015359 0.04514580
17.39509773 -3.54397869 -8.26445770
1.65403736 -3.31810856 -19.14828491
-4.21654940 -3.05432892 -19.20205116
-3.69142556 -3.06406736 -19.29601097
-1.82366610 -5.73016644 -12.86782169
16.20665550 -5.54270983 -0.65769780
16.99577713 -5.00278711 -2.76175237
17.33539772 -4.82859135 -2.19606042
3.21976447 -5.74853182 14.90200996
-10.55654049 -5.62718296 0.20397060
-10.33785915 -5.63452005 0.59553748
-9.82323647 -5.60928392 -0.86599803
-9.12069416 -5.64313936 -0.18167700
-5.09576559 -5.65689564 0.35850811
-4.20567989 -5.65767288 -0.17963099
-2.91247702 -5.65558910 -0.72052228
-2.40099597 -5.65327501 0.88650030
-1.37561703 -5.66704702 12.87470627
11.46063137 5.77213097 9.05398655
11.18696690 5.80766726 9.24526978
11.84634399 5.60485363 9.35312462
-12.57395649 6.39637184 -4.46469164
5.39609194 3.37297320 -18.72957802
0.04564350 -5.93255234 14.88677025
12.53345013 6.07054853 5.45398521
12.90122318 6.00147533 5.43203306
-11.58127403 3.35979652 -15.95319080
4.22880888 3.39264894 -19.05098534
-13.36268425 6.36224651 -2.67915320
13.45065212 5.84015465 5.60413218
-12.78160286 3.37501717 -14.94771862
13.59065628 5.84100580 5.30398655
13.71401215 5.84646702 4.86968946
13.99738693 5.72507715 5.17765236
5.64265728 3.55322909 -18.32976341
-12.18182564 3.39540148 -15.42713165
14.40949821 5.65205717 4.65787745
-11.87966442 3.38603997 -15.69068336
-12.04920673 3.52216291 -15.18556595
13.28505611 5.74206972 6.57782364
12.98572922 5.90942812 6.05398655
13.28639030 5.84966946 5.83465338
-13.49803066 6.39886093 1.93366861
-16.38654137 3.34429646 -10.96390820
-13.43264866 6.41168404 0.34194449
-16.38550568 3.60322618 -10.21661949
-12.40997314 6.43603373 -3.72145629
-16.44791412 3.62403154 -9.99591255
-14.91640091 6.07705402 0.50440830
-16.61819267 3.62184000 -9.69601345
-1.35507905 5.19358397 -16.71297073
-16.53191757 3.45333147 -10.40880108
12.50185871 5.82602835 7.40402985
12.31247234 5.77899075 7.89386606
12.99765110 5.66835594 7.45559120
-14.27757454 3.42297244 -13.50680256
-15.48211098 3.39306116 -12.09601307
7.97721863 3.25118756 -18.00578880
-15.18230057 3.40877604 -12.43922520
-14.88301945 3.46275091 -12.69601345
8.97741413 3.54865384 -16.92690849
-14.47231865 3.65160155 -12.69601345
7.20808840 5.45222282 13.70390987
-14.28584480 3.65243578 -12.89498806
8.69828033 3.07021284 -17.94038582
-14.40238285 6.14464998 2.86685181
9.68767643 3.29315400 -17.09635544
7.12100124 5.28948784 14.18949223
-13.38223457 3.41660047 -14.32586861
-13.60064983 3.36362004 -14.19597244
-13.67969036 3.46919847 -13.88888168
-12.50173950 3.71457028 -14.35258389
-13.04039860 3.44926977 -14.57101345
4.28356791 -5.68902636 12.27083969
-14.37889862 6.07643843 3.94953251
-13.29049873 3.81820798 -13.46635056
1.15557122 5.51948881 -15.95956039
4.17581987 -5.53099394 12.04803467
2.24371481 6.05579233 13.81446743
-0.06949080 5.39580345 15.78128719
6.66897917 -5.64941740 11.25519085
-8.80554676 6.45148659 -7.27164745
0.36328799 5.16113997 16.31196404
-12.74714565 6.46459675 4.07058668
-15.44125652 3.63816381 -11.49601364
7.00596189 -5.46565723 10.60430622
-15.48369598 3.50730968 -11.79601383
10.23986053 3.61449623 -16.10387230
6.10867643 -5.48101997 10.11114693
10.31617737 3.69538641 -15.92467785
10.64029789 3.70025611 -15.69629097
-16.08418846 3.51506066 -10.89629269
10.91787529 3.57711625 -15.69601345
-15.64374542 3.63535523 -11.19601345
3.23229098 5.42263746 -15.82825947
-15.48550224 3.63754916 -11.43996811
-14.78097248 3.66336727 -12.20945835
7.35225010 -5.46877909 9.38063240
-15.83994102 3.70730209 -10.71024036
1.91128981 5.25039244 15.94097233
11.47589684 3.45598412 -15.51977158
-16.30963707 3.83001351 -9.62289047
11.81845093 3.54190969 -15.09601307
5.99670887 -5.53606939 11.37021923
-10.57422638 6.45547819 -6.93204594
2.89018011 5.72239733 -15.06392956
3.07836604 5.01517534 16.20626068
4.78251791 -5.48623466 10.25069141
-13.44346142 5.98919678 7.02862215
-0.90169889 4.97619343 16.70324707
4.38200712 -5.46507978 11.47106457
-9.75772572 3.48840618 -16.78561783
-9.41044331 3.42177987 -17.19601250
-9.18196964 3.42503572 -17.32021713
-13.42711544 6.14637136 5.77685976
0.36024240 4.45551443 17.50968170
-11.54771233 6.46786213 -4.58992672
-12.38871956 6.44966936 4.88668013
5.47222567 6.06881475 12.53852558
-6.30518627 3.68919754 -18.04946327
-8.68322086 3.43191028 -17.55581093
-7.93670082 3.45229554 -17.90694427
-8.88291550 3.49690008 -17.27101326
5.83710337 5.24386930 14.87069416
-9.45488071 6.45928001 -4.93414068
7.59018040 5.58004093 13.10355949
6.49741411 5.83302021 12.93807125
2.07172990 -5.69711590 12.81781864
-8.10812759 3.69002843 -17.24116707
6.76544714 5.52603817 13.73794460
2.99405217 -5.45830870 12.06560898
-6.70059681 3.91346526 -17.52413559
2.95591617 5.48516703 15.30084801
6.17957735 5.50532007 14.07010937
14.72425556 3.32374883 -12.67996693
4.37425613 4.88044739 16.16169739
6.72891760 5.55074024 -14.33153248
7.99752855 5.40148878 13.34599209
-11.01645279 3.43580818 -16.17959595
1.87666500 -5.46113777 11.95273304
4.38532400 4.75726223 16.38696861
13.74053764 3.41219664 -13.59245777
4.54563189 5.18685389 15.46117496
0.10686240 -5.65949583 12.90603447
-10.08186054 3.41246796 -16.77648163
4.92713594 4.82075739 16.10398674
1.78606713 -5.48092365 11.45802307
1.50864446 -5.49824190 12.50535393
-9.72591782 3.83055830 -16.10295486
-11.61945343 6.33925438 7.56794167
6.29781771 5.27551699 14.58930588
-11.15002155 3.70729971 -15.36232376
5.79819345 4.96082592 15.50398636
6.09686852 5.05846357 15.20398617
6.41928768 5.06029940 15.05398655
0.55381292 5.67938232 15.15509987
7.28654718 5.07277679 14.61071873
6.77151251 5.08878613 14.82152843
-11.72603798 5.89810085 9.72348499
2.69863677 -5.48886251 9.87575626
-10.59152603 6.48309278 -5.32963133
15.77180862 3.19406557 -11.82022381
5.65875101 4.82853937 15.80269527
-10.12431145 6.47230101 -4.89601278
19.61556625 3.19643903 -1.01485825
1.29280055 -5.48700619 10.47111607
-8.98928833 6.43360853 -3.96934509
-5.59631538 3.43894839 -18.76032066
5.06127071 5.70158386 -14.53786182
19.48020554 3.20201659 1.50423872
10.18000793 5.40104961 11.79148483
-0.61213112 -5.47900820 10.99050426
11.40367031 5.50230646 10.30056477
-8.03586197 6.41701126 0.01648770
11.54660225 5.51262617 10.10398674
-7.59180117 5.89916611 -13.00785637
12.01742840 5.42189121 9.91651535
16.32895470 3.48169780 -10.06672001
16.71214676 3.22658491 -10.48124027
4.00129747 5.78680563 14.20360947
-9.42864418 6.45801401 -3.56645036
11.49297714 5.37637711 10.70398521
5.08686018 5.26015425 15.21687698
-3.98428941 3.39638901 -19.19202423
-3.11124349 3.44906735 -19.18140221
9.83122540 5.54080820 11.60315990
-1.56748104 -5.50096893 9.77497864
-10.01543045 5.88180113 -11.41738129
10.74318027 5.35801840 11.45401096
19.20994568 3.21868539 3.20398641
19.54749680 3.05018902 3.00979733
11.65691090 5.28013372 10.85500050
-10.28621387 6.48121357 -3.51703739
11.37042809 5.10391617 11.63301182
7.72706318 5.74583149 -13.10219765
-10.52251530 6.17814016 -9.65171623
19.32185936 3.11288095 3.78491640
-9.78956604 6.17230940 -10.32071114
-6.80792570 6.38280153 2.26321030
-6.01188707 6.37304640 2.94273567
9.62231636 5.17098761 12.91693306
-7.80790997 6.18700790 -11.70906067
7.76960564 5.73594236 12.45773411
18.92046547 3.16385317 5.27156305
14.53501701 -5.34932327 7.92865419
18.51023865 3.14988446 6.61445379
-8.21347046 6.28116894 -10.94096565
9.42563057 5.69667530 11.37962532
9.37381077 4.85473490 13.85944366
9.23972130 5.59551907 11.90398502
-5.62432480 6.33877611 -0.11657850
-8.54694080 6.42180300 -2.04721761
17.99359322 3.28660226 -7.77490997
10.57504368 5.83811998 9.76406002
-8.70737076 6.35207510 -10.03091812
11.11394024 5.66491938 9.95398521
10.83016777 5.48982000 10.94223499
18.24279594 3.44781065 -6.20409775
-16.81799507 3.69278646 -9.08408546
13.67154026 4.90331745 9.63904381
-5.44772196 6.33800840 1.46601689
-17.74984169 3.56700540 -7.57809448
15.46873474 -5.45939255 5.34943581
8.65168667 5.67559195 12.07927036
18.66967773 3.19916368 -6.57923698
8.19028664 5.54746294 12.80398560
9.55263042 5.16722393 -13.70477295
-17.05886841 3.84830809 -8.04634380
-3.64009690 6.29469347 0.24604410
9.57788658 -5.69449043 8.83822632
18.70303535 3.38067174 -5.09624720
-5.67663670 5.91903973 -13.79021835
-1.32501936 6.27757788 0.86426818
9.30512428 -5.56906986 8.97142696
9.93150902 5.63627386 -11.89293194
-17.94536400 3.77602744 -6.06029224
-5.11116838 6.35962725 -11.89502144
8.54628849 -5.47784138 8.23039436
9.18844891 5.91395521 -11.41130447
10.24317932 -5.51090717 7.36065197
19.28040695 3.18103862 -4.41529274
9.60534096 -5.48045778 7.68587589
-4.23285007 6.26211214 -12.83059788
11.26012707 5.51484013 -10.90781593
18.84825134 3.53797865 -2.71820688
-2.46181560 6.28148127 -12.88569641
19.50420761 3.16684222 -2.69074345
10.69246578 5.79295492 -10.31015682
-13.96097183 4.11697102 -12.22165585
11.27715874 5.67813396 -10.19716835
10.91145039 5.91838217 -9.36318970
11.52974033 -5.84615564 6.53637981
11.21706295 -5.60185575 6.54928255
-18.78355026 3.79475427 -2.98137689
11.54038715 5.51056814 -10.59549141
-7.23634529 6.42867613 4.22487020
-19.32918549 3.50042367 -2.99660659
-19.08617783 3.66509724 -2.60865831
-11.54306507 4.69446945 -13.40217972
-6.42427492 6.31943226 -11.69314194
11.79661846 -5.69088173 5.86505175
-18.42545319 3.81118131 -4.42601347
-4.73827362 6.35859823 3.16772461
-18.55825615 3.89495993 -3.39601350
-3.22656322 6.31885433 -12.23883915
-18.55353165 3.94233966 -3.09601355
11.85634232 -5.54415655 4.88742638
11.76583195 -5.49748468 4.22738600
-14.11050797 4.74739361 -10.68593884
-13.32106113 4.75501013 -11.56812382
11.17719364 -5.53438807 5.97704172
-19.08701134 3.72138190 -1.67101383
-15.30908108 3.88116670 -11.05144405
-19.38605309 3.59472203 -1.29600835
-2.29057407 6.30153942 2.38414407
-11.78448486 5.39657927 -11.48777771
-3.42892146 6.33749676 3.62106395
-19.40041351 3.59999418 -0.84601378
8.88597202 -5.51486921 5.60177469
-1.20943320 6.31506395 4.03722048
-18.88091850 3.87907910 -1.23278344
-0.89605170 6.27726412 -12.27371025
-8.00055790 4.37711000 -16.26152992
-2.78840089 6.33641720 -11.13673210
-10.21710014 4.45552826 -14.84044933
-1.04006791 3.44810700 -19.46988869
-6.41360998 4.96926165 -15.98852921
10.50904655 -5.51894188 4.43579102
-8.12386990 4.86413860 -15.38909626
-8.25170994 5.30675459 -14.35496807
-10.98297405 6.44353104 7.33313799
-10.59954834 6.29343796 9.05306244
-1.14571953 3.84500313 -18.83275032
-12.13547611 5.86924314 -9.20902443
0.85751158 3.84725308 -18.83725166
-11.57703876 6.20027590 -8.28688622
-2.37302709 4.65761232 -17.57188416
-14.33318901 5.74252987 -6.36633968
-6.85105705 6.44236803 7.76250410
-13.09502888 5.93609285 -7.57145739
-4.14491653 3.99763083 -18.18239212
16.18747902 -5.47184086 2.52647328
-4.81918955 4.62988138 -17.17661667
12.98628712 -5.73709393 2.25797009
13.21323967 -5.78804970 0.88148910
-14.31265736 5.86010647 -5.55474472
-4.02665567 6.37455702 5.03424549
11.35500336 5.79946184 -9.50132179
-6.11147118 6.42400694 6.10382938
3.92854071 3.73850679 -18.55358887
12.36942768 -5.59441996 3.92279816
-13.49569130 6.03032780 -6.07169390
11.63506889 5.87617159 -8.64704895
-16.09526062 4.15600300 -9.12868690
11.87817955 5.81601191 -8.64601326
12.16447067 5.59416389 -9.46603298
-16.39304161 4.17494202 -8.49601364
-12.23441601 6.34834576 -5.75988626
11.31296444 5.99287939 -8.16565895
-13.41962433 6.11230326 -5.64601374
-16.39459229 4.26946926 -8.19570255
-12.58244514 6.24029589 -6.27494431
-2.89606142 6.35741949 5.51281214
-9.99347782 5.03524590 -13.87607574
-16.61740112 4.31493616 -7.53085184
-13.64241600 6.09989166 -5.20679808
11.97415066 -5.51074934 3.09536433
-16.14141655 4.60928535 -7.54351807
-13.12219715 6.25784588 -4.89597464
12.08691120 5.82028627 -8.32526112
12.13137054 5.83194351 -8.19601345
12.08590698 5.89033365 -7.89601374
12.37716293 -5.50947666 0.37921020
11.79684734 6.04298401 -7.01771402
-16.68603325 4.48402882 -6.76261806
7.38391447 3.55307698 -17.66009712
12.16469574 5.97447824 -7.10666180
-17.11472321 4.32884693 -6.25166559
12.69347286 5.76649141 -7.70216894
7.58008480 4.50653219 -16.22947121
-17.50150871 4.35981464 -5.02442217
9.56577206 -5.49404955 3.54609609
-12.94451237 6.46900272 -0.60776371
-15.13003063 5.84330845 -3.44887280
-17.11747932 4.51500082 -5.49601364
-17.26684380 4.48081636 -5.21396923
12.53712940 5.93803453 -6.79675913
-11.30063820 6.53029966 -0.84224820
12.45897293 6.03226423 -5.83351374
12.23364353 6.05451632 -5.94601345
6.86182928 -5.54444742 4.32416630
-16.35346413 4.22556829 -8.41760063
11.83236790 6.11664724 -5.49601364
12.12818909 6.08237219 -5.64380026
11.91266251 6.11807346 -5.19601154
-5.01478815 6.42376423 7.46143484
12.24394608 6.11377811 -4.69360065
9.98692703 3.99197268 -15.69672680
10.16450119 3.81520820 -15.84601307
10.55493641 -5.47752428 2.47327471
13.43793106 5.24265385 -9.31753159
-16.24095345 4.73835421 -6.82513189
-12.59403133 6.49601316 1.77801299
-16.99837685 4.55541134 -5.67261600
13.65874100 5.36386776 -8.43022060
-5.68521881 6.45634556 9.16216183
-13.53968716 6.20719528 -4.42938375
-16.38807297 4.94515562 -5.54465055
-16.69947243 4.64732981 -6.09595585
-17.29808998 4.53264189 -4.89601374
-16.96848106 4.79673958 -4.54978037
9.13212872 -5.49380589 2.80907917
-16.70854378 4.82099867 -5.28590345
-16.40470123 5.01547194 -5.19601345
-16.16493416 5.14253426 -5.23632383
11.12075520 3.67539477 -15.39230919
-17.95163918 4.21428347 -4.18544531
6.76452732 -5.54091883 2.52654576
-18.19271469 4.12228441 -3.69606757
12.76260471 -5.54867935 1.34822404
-18.07485199 4.26375055 -3.34562159
-17.89489555 4.29217291 -3.99603486
-17.59681320 4.44076061 -4.29600525
-17.44670868 4.50222254 -4.53205156
12.52567387 3.55905747 -14.45995235
-13.37976170 5.38113880 -9.68764782
-14.93688774 5.01098537 -8.55145073
13.97511101 5.54159880 -6.77102327
-11.36468601 6.51057577 4.10284758
-15.30379677 5.88640261 -1.69602334
-2.54410148 6.39107656 6.75979328
-3.18820024 6.42832041 8.77093983
-1.96998215 6.41210747 8.83838272
-14.30001163 6.16018391 -2.49904180
-14.33114910 6.22219849 -0.98324072
14.76879120 3.60280943 -11.92275524
-8.84822178 6.45845509 2.20207357
8.12286091 -5.52246666 0.97303140
-10.63365555 6.51144552 0.41507971
11.76592159 6.11861229 -4.05910397
-10.77573013 6.37168360 -7.98595810
15.74473667 3.67853618 -10.40633965
-17.95382881 4.54424143 -1.83260727
-10.52673340 6.14794016 9.92584801
-8.76029301 6.41916943 9.93181324
-10.14239120 6.50549841 2.63220072
-8.89947033 6.17474985 11.10050774
-8.29236984 6.40047550 -9.53269005
10.65403652 -5.48881483 0.06655140
-16.95955276 5.21935368 -0.86650890
13.30599976 5.91953087 -5.25376749
17.18571854 3.55588078 -8.21419716
-0.09834390 4.39762211 -18.11029625
15.38879967 5.21718645 -5.66015053
13.84491920 5.76464891 -5.15264845
-11.17339230 6.50799322 2.73424506
6.23496914 -5.50050497 7.57428789
13.32872105 6.01454687 -4.05701208
1.19391632 4.57978487 -17.81373215
14.58537483 5.72470999 -3.24665904
16.92689514 3.57319450 8.24761200
2.46737194 4.09841204 -18.33133507
-7.49946070 6.34537363 11.24440193
15.90894127 5.24430418 -3.57868958
-6.99925804 6.25398016 11.95992374
4.31371307 4.32782936 -17.66426659
-6.67832327 6.39190149 -10.52125168
13.72679234 6.04350376 -1.93591559
6.12669754 4.34424925 -17.07505226
1.75765800 3.79180861 18.36182976
18.12478447 3.95429635 -3.96119332
-7.18181086 6.41954947 -8.04343414
2.50677729 4.97042179 -17.01715469
15.28773212 5.60419369 -1.73159099
0.57717568 5.13079500 -16.89196014
-4.95659971 6.45435333 9.19704437
-4.40072489 6.33510828 -7.73872566
-6.12563801 6.44146252 11.05075645
4.03707409 -5.52419567 7.41871119
14.91515541 5.75753164 -0.85455781
3.87281060 3.57064581 18.39132500
-4.72198009 6.45228291 10.92880535
5.90489292 3.48277235 18.05453682
5.15449333 3.54532361 18.17942429
7.18621683 -5.50514555 6.61412096
-11.29642773 6.49245977 5.80702496
-4.86119843 6.37964630 -9.80900097
-2.61101460 6.42075253 10.69498158
7.78314400 3.65356159 16.98875809
-9.97303963 6.50050735 6.31066704
4.41900587 5.02269173 -16.43624306
-19.41130829 3.59994960 -0.06546150
-19.68280602 3.41409993 1.25398624
9.62641430 4.21188498 -15.57406902
-1.97246826 6.41853428 11.77998161
10.05427456 4.84228468 -14.11310196
-19.05077934 3.79602003 0.68739212
10.00501919 4.51897192 -14.79640388
10.11970711 4.64483500 -14.47939110
6.02143812 4.97053766 -16.03783035
-7.75360537 6.45018196 5.64371872
-19.35488892 3.56832051 2.30390739
-9.11636257 6.48433352 5.44534969
10.54278851 4.25377035 -14.88310623
-5.54652452 6.33948517 -6.06085730
-16.21144676 5.57675648 0.67810708
-4.68338299 6.37187576 12.28532887
6.14013767 5.20221853 -15.51744366
-19.38373566 3.47922111 3.05300403
-18.85928154 3.83836555 2.17883229
11.66748619 4.43974352 -13.62830448
-19.38246918 3.39190984 3.80398655
-4.70966578 6.31358051 -4.42354012
-19.08519936 3.53286099 3.95437193
-18.54523468 3.84222341 4.03828144
-19.01408005 3.54636264 4.32898664
-19.08380890 3.48390412 4.70373869
-15.96163273 5.59865475 2.49081230
-9.99066544 6.47248316 7.91608429
-4.22904921 5.97444296 14.04000378
-8.56346512 6.45444822 8.01017189
15.38263226 3.38754392 11.61161613
11.92240143 4.83652639 -12.48060799
15.98585415 3.46494269 10.33914089
-19.08320045 3.44663668 5.00398636
-18.69904137 3.56454730 5.76089287
-2.69403386 6.40468454 12.26506329
13.20833397 3.40140033 14.05543804
-18.74740410 3.59230733 5.30398655
4.23347759 -5.55381346 4.70935965
-18.68739700 3.59313941 5.60398626
-18.63592720 3.64638638 5.26097679
-7.91918802 6.45296621 9.43303394
14.53761292 3.50377917 12.31221199
-17.96903992 3.99124265 5.43768501
-3.44044590 6.24486828 13.22482586
-17.97183418 3.73260593 6.75269270
13.00826836 4.41071320 -12.36841869
3.43382978 -5.50432301 8.67400742
-18.25650215 3.59911537 6.80398655
-18.18542671 3.61344123 6.87136364
-18.48463058 3.55388808 6.45454884
-18.07696342 3.58264041 7.28259277
8.75887680 5.02619696 -14.65802860
14.53160667 3.31581926 13.03159237
-8.77234364 6.42489767 -4.76149368
-8.02313995 6.39738464 -4.29597855
-18.18390083 3.50339246 7.40398550
-15.28408718 5.66476965 4.59259272
-8.32923889 6.41253233 -3.81061077
10.15500546 5.21212339 -13.07231712
1.23437130 -5.51970816 8.69269657
9.99690437 5.08290052 -13.59601307
-7.57284975 6.38542461 -3.69601345
14.37497997 4.84681082 -9.32592392
-7.72285748 6.39019537 -3.99601841
-17.08193588 4.06295824 7.42656565
13.92937851 4.45711184 -11.10637569
15.04223633 4.40781069 -9.61289597
9.87748528 3.44766426 16.35044479
-17.44303703 3.65394068 8.29166317
-16.17086220 3.96245599 9.52050781
10.67296982 5.01072121 -13.22101307
-16.26285362 5.26683092 4.44583511
-17.02352524 3.61433601 9.31868744
10.59659863 5.10907984 -12.99601364
-14.32753944 5.90808678 5.40208483
11.23500824 5.37855721 -11.44912148
2.31850362 -5.54335785 6.26189089
11.12310696 5.25291252 -12.04088402
11.12211418 5.07552004 -12.62101364
-14.61287308 5.61030245 6.66717196
11.57254505 5.04759407 -12.24601364
11.77414703 3.29459381 15.55888271
-16.98197937 3.37319303 10.10398483
-16.54541206 3.61116028 10.18616486
0.13586789 -5.54870844 7.67491627
11.64404202 5.30075693 -11.34601307
-5.67256737 6.32872820 -1.53168929
12.00320053 5.11610317 -11.58312225
8.88990879 3.38658929 17.12312126
12.53571033 5.16666079 -10.80565071
-16.04045677 3.52897811 11.15286255
-14.84403992 3.90858412 11.45082569
-15.55870152 3.58056450 11.62515163
-6.75525761 6.35901260 -4.22339296
-1.84977782 -5.58136654 6.50400352
-13.98781109 5.53688145 8.34241295
-5.33518648 6.32352877 -4.40531874
-5.02157927 6.31150818 -3.84601355
-6.80600739 6.35807753 -3.08316851
-14.05712700 3.85985875 12.51023293
19.04944420 3.51932740 -0.83614469
-14.58571911 3.65043759 12.58514977
-12.49974728 6.06240940 8.16576672
-14.48431206 3.60995531 12.80398560
-14.28527641 3.62958431 12.98210526
-4.33465767 6.30622911 -3.58455563
-13.03883171 5.53306627 9.66888905
19.00869751 3.50374961 0.75938940
-14.28318882 3.47907281 13.40398693
18.71815491 3.61112380 2.30398655
-5.59043884 6.32929802 -3.13628793
-13.83309078 3.47513461 13.85398483
-3.92004919 6.29808998 -4.96639204
16.90717888 4.13017035 -7.01364326
2.09504318 6.21862555 -0.08738250
-4.15929699 6.30092335 -4.14601374
-0.26421449 6.25899792 -0.15569070
-3.37098265 6.29029894 -3.84599829
18.33790207 3.86827350 2.65902400
-12.84497929 3.88774920 13.66201401
-2.56562042 6.27613544 -4.57359409
19.02090073 3.41515851 2.15398645
18.94395638 3.33065510 3.46396613
18.74902153 3.53898358 2.69332051
-11.63290691 4.12847090 14.17988682
16.64883041 4.76695299 -4.71499062
-2.76817775 6.27407789 -3.66939926
16.93215370 4.73926973 -3.75031400
2.14215326 6.22974110 1.75724936
18.36415291 3.47850394 5.03189039
-11.63742256 3.76795101 14.90009880
-0.02828490 6.26843357 2.21047211
0.33179250 6.27635288 2.98675179
-10.68988037 3.95165515 15.14691830
17.62574387 3.38219166 7.50193071
17.30416870 3.23689508 8.94854832
-0.28119871 -5.59742022 5.17013597
-9.62567616 3.78358269 16.05919456
15.22463894 4.87502766 -7.78018332
-3.57573509 6.28721905 -2.52951908
-8.91572189 4.17104626 15.77154446
-8.20465851 3.76158023 16.82500458
-2.51361203 6.26294756 -1.16938257
-7.85281563 4.11025190 16.35308647
-18.01333427 4.57211161 -0.20828520
-3.54977322 5.99214935 -14.19958687
-1.15726411 5.77833462 -15.20884418
-7.10173082 3.75594640 17.22897339
0.82188362 6.07925367 -14.18043900
-12.52536106 5.71697950 9.51074600
2.58146167 6.27902746 4.04314899
-11.87455845 5.59314537 10.59317303
-1.83985293 6.13780165 -13.82922745
-17.70669174 4.68797731 2.34648037
-11.32433510 5.42105150 11.59532166
-6.19464445 3.83081698 17.41878319
-12.58094311 5.35174942 10.78783989
-4.88063288 3.98332548 17.60289764
-6.49770832 4.52988291 16.23625565
1.97033608 6.16620588 -13.55687618
-9.84962273 5.80502033 11.78736210
3.79192019 6.20337486 0.51863879
-3.41712666 3.77201724 18.16689110
-16.98653603 4.83364010 4.70132303
-0.47440469 6.23942089 -13.19733524
4.72019577 -5.56988525 3.07098150
-9.27580357 5.31120634 13.38883305
-2.91913939 3.60633898 18.65835381
3.24392200 6.18523550 -13.06678009
7.14880037 6.19835949 -0.12596101
3.17290211 6.23524809 -11.48383904
-8.24902821 5.96472931 12.33235550
16.70766258 5.00121117 -1.59990418
-8.05867577 5.56514168 13.55395794
-6.70201635 5.21092081 14.91114902
-6.40023518 5.92737246 13.41213989
0.50358957 6.27794933 -11.50300503
-6.20123959 5.62683916 14.30294132
-17.08045769 5.13441944 1.38430917
-5.74630404 5.99420834 13.37079144
-14.06678295 4.54756880 11.02151489
1.75832939 6.25116014 -12.61415195
6.74263096 6.21148539 1.54919195
1.08481467 6.25232744 -9.18992996
2.83195019 6.24294662 -9.44827080
-12.07703018 4.76415014 12.54474926
3.40105915 6.00559759 -13.93848419
8.64975357 6.23838854 3.34649229
-0.83459461 3.79500270 18.39421272
-4.01935101 5.60921764 14.93964195
-1.18130553 6.33408642 4.95327187
3.11411738 -5.59672213 0.59778750
-5.08195066 5.47575665 15.02768993
5.15136671 6.16355801 -12.42895126
0.58078742 3.80531859 18.39840889
5.02054930 6.04999352 -13.22528076
0.55207407 3.59553337 18.80293655
0.69909811 6.31851435 5.20086193
1.55326235 4.25259113 17.69911003
-15.73159218 5.01697540 7.17945194
2.36057663 4.04406738 17.90398598
2.69478369 4.23037148 17.58078194
-1.70045340 5.58116102 15.36961079
0.76072228 6.33482552 6.06011820
2.94353461 3.89236450 18.04820061
-13.89871120 5.20946836 9.52921295
5.20997763 6.20408154 -11.76473141
-10.32095146 4.56120872 14.30777454
6.28338909 4.30400038 16.52940369
3.26685357 4.14901447 17.59117699
3.40851998 4.19963598 17.48601341
6.04899073 6.22387028 -10.37213421
4.19997358 3.85666227 17.80874443
2.02594137 -5.59149790 3.15604734
4.00481415 4.21300602 17.33144379
-8.30807781 5.01626825 14.66249180
5.21602249 4.58606529 16.39987946
-13.37310219 5.09682655 10.47481728
2.83230329 6.30824423 5.95477295
6.54981852 6.12611628 -12.04613686
-12.72761631 4.93257427 11.59091854
7.31611872 6.19125223 -10.85495949
7.99480915 6.15353537 -10.94260693
6.76921129 3.66394830 17.33704567
1.28601086 6.39796972 9.16893864
-0.08860050 6.39033127 8.29271030
2.25766945 6.35229158 7.29844761
-4.69161844 4.89829206 16.22678566
13.59357929 6.07195807 2.22498488
-10.99950886 5.24420595 12.42883396
1.10275412 -5.61392927 1.99209845
2.08426523 6.37976408 8.81712437
14.17413521 6.00470686 1.07621193
13.99579239 5.97612524 2.70908451
12.55244160 3.67121196 13.87408352
-9.64209938 5.12772655 13.69528770
3.43032336 6.36901569 8.74958611
-1.81087744 -5.63756847 1.94627368
-0.27850351 -5.63655710 0.97494811
14.18306828 4.34610319 10.68586636
15.32249451 5.54903650 2.33599806
12.83168697 4.56616735 11.68966675
-3.23012710 4.57368517 17.04700851
3.68451619 6.28547716 5.18204832
2.09968328 -5.60503006 0.54289591
-2.01243544 4.23601246 17.70362854
15.24402332 4.09606361 9.75139523
5.12213516 6.25148964 4.06790686
-1.10825789 6.30274773 -9.82591057
14.94109154 5.58758116 3.49042106
12.68673325 6.12849760 4.10398626
1.55467045 -5.63207388 -0.22554840
13.40702534 3.81510663 12.77066135
12.76224422 6.07702875 4.79031372
13.76070595 5.98386383 3.53466964
14.42245293 3.79068041 11.72929573
7.02627850 6.25598621 4.60506344
16.78103447 4.91975212 2.00398612
16.65072823 5.00722361 1.73738134
-6.29217100 5.00671816 15.54645252
8.39095306 6.30081034 7.19983292
0.64394611 -5.61305285 0.53611380
16.75004387 4.90333700 2.48867798
17.20322609 4.69133615 1.97592807
16.56172752 4.94653034 3.05398655
9.28022385 3.80401039 15.88946247
-3.65558791 5.12352800 16.08731651
0.00968970 6.24601698 -7.75142813
16.85453033 4.73515558 3.55541801
4.90860701 6.31132746 6.73879242
11.92383480 3.45922375 14.84622574
10.81063271 3.57382059 15.34877396
12.53123283 5.98746872 6.46929741
-1.00514555 -5.62017202 0.85805309
10.31452656 6.16353035 7.85766459
14.76222706 5.30327082 6.26207590
17.01928711 4.26321697 5.77237844
11.41842556 6.00202703 7.91454220
12.38619137 5.87193155 7.35793400
-1.32741845 -5.66626167 0.04448910
15.51412678 4.81737757 6.92520618
12.19257736 5.82161379 7.85340977
11.87938213 5.81727076 8.30398655
-1.93862820 6.26891422 -5.94602633
17.72477150 4.33917522 2.30387020
9.33689213 6.11892462 9.53063869
18.44394493 3.90366101 1.47274983
0.15741269 6.23264837 -6.21842575
11.20053291 5.84537554 9.05398560
11.66171265 5.81429911 8.60398674
11.78670406 5.83076382 8.37062073
11.48659134 5.83684063 8.71696663
18.11188507 4.05896664 2.45398641
13.60479450 5.10027790 8.99837399
17.92275620 3.99595761 4.13708591
16.01854897 4.17697906 8.12007713
1.72057474 6.22183132 -7.11029387
16.31165504 5.21477270 0.36808950
1.46287739 6.20257664 -5.41348696
-3.23605180 -5.52789116 12.35727882
10.28779793 6.21395302 1.78817368
15.09181690 5.47837257 4.09721661
4.18761778 6.23725224 -9.25934887
15.96191597 5.18883228 3.37568426
16.44282722 5.05482101 2.45212269
16.29357719 5.04580212 3.38718128
3.17434835 6.20990324 -7.53521872
15.67950439 5.25308752 3.88811517
11.92738056 6.15859222 -0.11211990
16.08825684 4.90992403 5.06900454
12.11442184 6.17176342 1.54864085
7.93678761 6.20752811 -9.45501995
12.53200722 6.17575073 2.15396452
9.02885818 6.19533825 -0.28665149
4.30347013 4.56997824 16.70398521
6.66586399 4.78592825 15.54834175
5.50156736 4.76774025 15.98898792
-3.10290456 -5.77561522 12.70050240
9.47713661 6.24829578 3.77197313
-4.61975574 -5.62538338 12.04897785
3.48563910 4.37361956 17.19835854
3.29407859 6.18910551 -6.12134218
3.88957524 4.49450350 16.92024422
4.52684784 4.48471642 16.78000450
4.15524054 4.44126320 16.93776703
-9.97430038 3.37917471 -16.89601326
6.93527412 6.19101667 -6.60240936
12.00564098 6.16059017 4.65608025
-5.17695713 -5.56294203 11.84071732
-8.43114471 3.37232876 -17.79601288
-2.34501910 -5.45706940 11.85965919
12.55237103 6.15498400 0.63289440
-10.61399364 3.35173297 -16.55926132
13.05263805 6.15776014 1.50434792
10.95084000 4.46559668 13.56995010
11.05052853 4.90460443 12.49181652
12.12402344 6.18230104 3.15148258
12.82050133 6.13866568 3.19715071
12.78546906 6.14147329 3.72035456
11.99293232 4.49627352 12.65912151
-1.09808218 6.24311590 -3.89924884
-3.18407559 -5.54662371 8.72869682
-0.08425860 6.22546577 -4.09591007
13.67275047 4.72072697 10.25812435
0.35531819 6.21981907 -3.54553437
-1.27025402 6.25375462 -3.69598889
-0.82014871 6.23748446 -3.54601359
-1.07760715 6.24499416 -2.78908658
12.24868393 4.89982128 11.35943985
0.23014140 6.22385406 -3.24601340
9.16048813 4.55728817 14.63624191
9.98374367 6.24906921 5.70275354
1.09501445 6.20681429 -3.75352669
11.66376877 6.15939903 5.96469450
1.27964580 6.22084665 -2.35241580
2.08298063 6.20142412 -3.31864309
2.34146380 6.20004129 -2.86243272
-0.70718402 6.24263430 -1.50572038
17.40059662 4.67779303 0.25090739
7.13091230 6.30521154 8.65323830
17.23328018 4.70235109 1.55110288
17.65543175 4.44373417 1.60631847
17.44393921 4.50550795 2.47680426
0.46075350 3.48643923 -19.46651077
-0.68402368 6.41647243 10.17443085
2.56434059 6.20499563 -1.88193750
0.80096489 6.41282845 11.42988300
4.05019903 6.18157101 -4.77417946
1.32628107 6.40883446 10.26830769
3.65253592 6.19160604 -2.49601030
5.03114796 6.18297625 -2.49600220
5.99237108 6.18547106 -3.72747159
-0.21168301 6.39544487 12.07566929
5.38610792 6.18564939 -2.91688824
7.20298100 6.17616701 -4.10571623
-1.21724164 6.32419872 13.02258873
4.19871855 6.19044018 -2.01690412
0.65332562 6.33504200 12.80095291
4.01117325 6.18974447 -2.89359641
2.29367757 6.31875563 12.57852554
5.27356243 6.18871784 -0.92922002
0.66770041 6.10857916 13.81344604
6.08122253 6.18402433 -2.19601107
5.43495703 6.18846464 -1.88813365
6.68273592 6.18547106 -1.97877300
5.26305532 6.33141375 10.37907887
7.24396372 6.18839598 -2.39319158
3.41123700 6.38755846 10.85821819
9.66838169 6.12031984 -9.36672401
-7.97602367 -5.96293211 12.83590984
6.84872437 6.16386557 11.20385361
4.57342291 6.29174328 11.70331287
7.02134418 6.22476530 -8.85658836
10.48936939 6.10472727 -7.52387619
8.18959141 6.16809893 -5.84198952
4.16582775 6.14247799 12.85118771
11.10527229 6.13639641 -4.48679829
7.37851429 6.01472712 11.62884140
9.28470993 6.15810823 -6.64952183
11.41524124 6.10787773 -6.33009052
11.76718044 6.12799072 -4.91025305
8.33751583 6.15078163 10.08268738
9.86631012 6.15978575 -4.24356461
8.78147411 6.18516541 -2.94600153
8.22010708 6.17726898 -3.39600420
9.08158875 6.17958069 -3.24598503
9.98164082 6.18212366 -3.39600325
9.61305046 6.18868876 -3.09602213
9.77912045 6.18968153 -2.44899201
10.28189182 6.16732311 -3.69601345
10.88224125 6.14635181 -3.99601340
11.18236923 6.13919687 -3.99601340
11.03362560 6.14246416 -3.65769696
10.43187809 6.16937351 -3.39601326
10.94840240 5.99189329 -3.19987178
10.91284084 5.91511011 -2.14466691
12.57636166 6.14156675 -3.88686275
11.92567825 6.11036682 -3.13490129
7.81087065 6.17905188 -2.86994219
-6.47353029 5.31454706 -15.19950676
11.56159496 5.97622824 -2.11442757
11.93245220 6.13654995 -1.59600568
12.52466679 6.13156128 -1.59751952
11.60417271 6.15335083 -0.57728761
12.53240967 6.14489603 -0.69599640
-4.21181250 5.17841482 -16.32689285
-3.56896353 5.68837070 -15.13940048
-9.04799080 -5.76833153 12.61522198
-10.83070087 5.33061552 -12.52992821
-9.35147953 -5.99370575 11.90399837
-9.03395557 5.55463839 -13.19213104
-6.28594446 -5.76151848 11.51468468
-15.33775330 5.29382658 -6.50372648
-6.20567560 -5.52464104 10.90744972
-15.90078163 5.18610191 -5.71462822
-15.07680702 5.49588680 -6.12396479
-7.59615803 -5.67621803 10.31770611
-14.52615356 5.75111723 -5.79602289
-14.99420547 5.59046507 -5.74835682
-7.55102015 -5.59141159 9.89678764
-16.53629875 5.30796432 -2.78053689
-15.62535572 5.45395565 -4.93904686
-1.36263752 -6.10110617 -13.27220917
0.08533650 -5.72987127 -13.01789379
17.93570137 -3.50336003 7.29531717
-0.35741609 -5.60751438 -12.62574100
-8.32026100 -5.87142038 10.12238407
0.29955089 -5.58549738 -10.95198059
-19.74377441 -3.02474999 1.18535304
-9.64904404 -6.16141272 11.25196075
-10.02094460 -6.07104826 11.14054108
-9.80876160 -5.91893339 11.71680737
1.36617362 -5.68777323 -12.80463505
-10.40017986 -6.11089087 10.68289852
2.32789707 -5.97684526 -13.03353119
-19.15614128 -3.27824545 1.69756949
-1.03175223 -4.11182165 17.96318626
-10.70044708 -6.19726753 10.10406017
6.53260088 -3.45846701 17.77105141
-11.14969826 -6.12454748 9.80398655
1.27516055 -5.58891487 -12.23538113
0.91575509 -4.14666796 17.92861938
-11.13706589 -5.92904949 10.41022682
-19.33058548 -3.03876901 3.23355222
-2.67129278 -5.58155489 -9.94948673
-11.82429409 -4.41244793 -13.29601383
6.22196150 -3.12865329 18.48245049
-12.67435265 -4.42600870 -12.50550556
-11.63091564 -4.57931328 -13.16710377
-11.99622345 -4.93178892 -12.12499905
16.13170433 -3.55816889 10.30276203
-5.99379396 -5.60858154 8.06703091
16.82373238 -3.50206780 9.36825943
17.01361656 -3.28410459 9.80398560
16.86297417 -3.23882842 10.25398636
-14.45488453 -4.58311892 -10.09294128
16.41394806 -3.31212807 10.70398521
-14.88610172 -4.48306465 -9.69601345
-0.02932170 -5.61091661 -8.81910515
-13.94555187 -5.45915604 -8.40687656
15.45346642 -3.35025430 11.78266525
16.26309967 -3.25197911 11.07898521
-13.11700821 -4.45163345 -11.98586178
-18.62770462 -3.03161812 5.92115831
16.10736847 -3.12504005 11.60117435
-13.91773605 -4.35890150 -11.27406406
15.84550285 -3.19519019 11.75398540
15.81155777 -3.14397860 11.94342804
-13.22201443 -5.12124348 -10.42243099
-12.90871716 -4.99934912 -11.05581856
16.45648575 -3.11743569 11.20641899
-7.52716017 -6.15426493 -11.71457291
1.82912195 -5.59669209 -10.04682541
13.90722561 -6.42790222 1.35598624
14.60283947 -3.52704453 12.41182995
-6.85326099 -6.23004389 -12.32053280
-13.07812595 -5.26214790 9.94884777
14.65186977 -6.24606514 0.68649089
-17.85441017 -3.19817829 7.14803600
13.17630196 -6.19561052 2.56841874
-11.92187500 -5.81547022 9.82576847
3.78610826 -4.48181963 17.14408112
13.45598030 -6.38692856 2.28412914
-10.60677433 -3.96155691 -14.96263885
14.05410576 -6.38263273 2.25116420
4.30379438 -3.85374594 17.87014008
-11.53705120 -5.44295549 11.23265648
5.28159285 -5.90348482 -14.28937531
-3.65670252 -5.61968565 5.66537952
15.31654358 -3.13592172 12.50398540
15.51158428 -3.14792299 12.24001312
-17.32786751 -3.00263190 9.22246075
-5.87967920 -6.28621387 -13.06604385
-1.08809280 -5.61184311 4.18966913
15.10508633 -3.13885403 12.80398560
3.06889200 -5.84922695 -12.74488354
15.05275059 -5.97728920 2.79590130
3.04867387 -5.57688093 -11.78177452
15.65324593 -5.80577993 0.88224512
3.34121132 -5.66735029 -12.38607216
-16.50159264 -3.50216603 8.90915489
-6.34070110 -6.07205963 -11.88865948
-5.38592482 -6.30855799 -12.76806164
-16.81421089 -2.97797036 10.19204044
-8.26154327 -4.53299618 -15.57493401
13.29905701 -6.40462637 3.21124983
10.63173389 -4.41242170 14.26574802
12.56930828 -6.18135214 4.57833290
-5.02564764 -6.11345434 -12.47260284
-10.79554462 -4.87243223 13.11237335
13.37914276 -6.45177698 3.71166110
9.43892384 -3.43385458 16.52820015
-3.70337820 -6.22342634 -13.93829060
-7.71610451 -4.98133183 -15.13079071
11.99514389 -3.92007756 14.13644123
13.83986568 -6.31075335 3.99854779
-3.96971488 -6.34678030 -13.37010860
-5.94066477 -5.64860296 6.07408524
12.73905182 -5.85055304 3.65267134
12.37810516 -3.44517422 14.67442608
6.27322912 -6.07396030 -13.48453522
12.79211330 -6.35386753 4.57348490
-2.82672119 -6.23441172 -13.23469830
10.99709606 -3.30044794 15.93195629
11.91176987 -3.48953915 15.63716507
-3.62898540 -6.17502069 -12.93517876
3.80793929 -5.38543415 -15.91295052
10.71474457 -3.53910756 15.62720585
14.75579643 -5.90840197 4.48038912
-9.35549831 -5.72886658 12.50465202
-15.90140915 -3.27906418 10.45236874
-4.86504364 -4.80514908 -16.59903336
8.21928406 -3.52238464 17.02069855
4.41880417 -5.65539885 -11.99897385
4.36451626 -5.58930063 -11.61812782
-18.51019287 -2.77695370 -7.81875467
-5.51805019 -5.65671682 4.46345043
-8.94810677 -5.57302713 13.10417557
-14.77090836 -3.24297476 12.01173973
12.17222977 -5.85895061 5.00668430
-8.65750599 -5.62707472 13.17005920
-9.00512886 -5.37821102 13.43807602
-6.16589594 -4.32850361 -16.85116768
9.43266582 -3.06165218 17.22222900
-8.44097710 -5.47401953 13.59587955
-6.74747181 -4.78069592 -15.94070053
4.80498505 -5.61323166 -9.40448093
11.80585766 -6.24282694 6.46829319
14.39404583 -4.59495878 10.34263515
-12.50224590 -6.26053429 -7.57609844
12.37548828 -6.39389086 6.02882814
-7.74526072 -5.36149597 14.15339661
-9.12384033 -5.66735125 8.19705677
-8.01324558 -5.12597179 14.45398521
-13.89993763 -3.53472304 12.45058727
-5.99512577 -5.06617451 15.46024227
-12.96265125 -6.26742697 -6.24778795
12.07241917 -6.35173178 7.39978790
-13.39424419 -6.22105932 -6.33600426
-6.25642443 -5.52130365 10.37348747
6.19669390 -5.94194365 -11.61640453
-6.44883728 -5.58678818 9.43500233
5.50018167 -5.73362494 -11.73136234
4.76088238 -5.59734440 -10.96403313
10.30410194 -5.60259581 7.87199306
6.84242010 -5.65046549 -10.71893024
-13.16348267 -3.19159412 13.87038326
7.14747143 -5.91524792 -10.99736786
10.11480427 -6.25234270 9.11732864
10.69487476 -5.82897615 7.69200325
-11.17262268 -4.47170448 -13.71084213
11.32888412 -6.28875351 7.43890572
-4.80838633 -5.49626350 11.13843536
6.71867418 -5.60804892 -9.05861568
19.64243698 -3.33460402 0.85089362
10.72078419 -6.22287607 8.18277073
-10.15593433 -4.59097815 -14.29887867
11.38683605 -6.30964422 8.39112186
7.65856838 -5.73950148 -10.06653595
-3.93308616 -5.51687860 10.15629387
-11.69180965 -3.25608897 14.97556591
-8.39529133 -5.69254065 7.65729332
-14.57723141 -6.26825237 -0.92441851
10.43290520 -6.33376980 9.33204651
-3.13910246 -5.45335245 11.89103603
-14.74854279 -6.22588968 -0.39601260
-9.61057758 -5.71621513 8.27958107
13.14497948 -6.42185354 5.05238962
9.80848598 -5.52517509 -12.81888771
-9.17209244 -5.83017540 9.24107265
12.89166451 -6.28382492 6.42005014
19.66770935 -3.07557130 3.96070099
19.30506516 -3.26111960 4.21026707
13.99713612 -5.98084402 6.00276756
19.70759201 -2.83087683 4.40398598
-1.57253313 -5.46145391 12.52656078
18.53807640 -4.03271389 1.60355759
-8.37259960 -5.01574421 14.45087051
-7.72793770 -4.78430414 15.17330551
-10.32841969 -5.89465141 8.05473137
19.08369064 -3.26097727 5.11536837
