-25.51970000 20.91450000 -75.04820000
-28.75670000 23.66610000 -74.75480000
-25.61220000 23.64900000 -74.78520000
-22.48540000 23.60410000 -74.81700000
-25.70510000 26.36110000 -74.55930000
-22.53960000 26.31770000 -74.56830000
-19.40430000 26.25340000 -74.63880000
-22.56510000 28.99220000 -74.39070000
-19.36770000 28.92690000 -74.39890000
-16.18960000 28.83030000 -74.46600000
-19.29820000 31.55550000 -74.27470000
-16.06710000 31.45070000 -74.28700000
-12.84610000 31.30510000 -74.29280000
-15.95240000 34.04120000 -74.15910000
-12.70520000 33.90650000 -74.18150000
-9.48990000 33.75050000 -74.32820000
-12.57880000 36.48970000 -74.02040000
-9.36400000 36.34200000 -74.06510000
-6.18350000 36.15620000 -74.05630000
-9.27110000 38.91700000 -73.61390000
-6.11430000 38.72150000 -73.48950000
-2.97460000 38.51410000 -73.37740000
-6.14060000 41.26670000 -72.73580000
-3.05370000 41.06860000 -72.58840000
0.01430000 40.85320000 -72.35040000
-3.20290000 43.62700000 -71.71870000
-0.17520000 43.41080000 -71.47320000
2.84180000 43.19510000 -71.18190000
-0.25150000 46.06460000 -70.85250000
2.72610000 45.87410000 -70.64970000
5.66880000 45.70260000 -70.38400000
2.73700000 48.61680000 -71.13900000
5.63640000 48.44910000 -70.93380000
8.51470000 48.31130000 -70.66700000
5.70670000 51.00440000 -72.19720000
8.55370000 50.86610000 -71.94340000
11.38370000 50.77040000 -71.65310000
8.67230000 53.21500000 -73.63170000
11.49600000 53.05120000 -73.38740000
14.29440000 52.97100000 -73.05510000
11.73840000 54.55530000 -75.81040000
14.59260000 54.46970000 -75.45440000
17.42560000 54.35860000 -75.05860000
14.88250000 55.28210000 -78.13420000
17.77110000 55.15230000 -77.73300000
20.64160000 55.06220000 -77.26650000
18.08850000 55.81830000 -80.35790000
21.02150000 55.68640000 -79.87010000
23.94770000 55.55580000 -79.33060000
21.36410000 56.04110000 -82.21250000
24.34280000 55.97100000 -81.67620000
27.29360000 55.94250000 -81.06110000
24.69430000 56.29670000 -83.79540000
27.68860000 56.28220000 -83.17800000
30.66770000 56.24870000 -82.52860000
28.08360000 56.44030000 -85.17450000
31.12920000 56.43190000 -84.53930000
34.17650000 56.37070000 -83.91310000
31.58080000 56.82110000 -86.41200000
34.68320000 56.80860000 -85.78390000
37.78050000 56.94360000 -85.06840000
34.98330000 58.38920000 -86.82480000
38.11670000 58.45330000 -86.05020000
41.30280000 58.48500000 -85.36600000
38.26680000 60.31030000 -86.36530000
41.42480000 60.36580000 -85.53130000
44.59840000 60.45740000 -84.56580000
41.42670000 62.29600000 -85.29820000
44.58640000 62.37790000 -84.27880000
47.71960000 62.49660000 -83.01850000
44.44900000 64.32820000 -83.69720000
47.56390000 64.42140000 -82.49570000
50.57130000 64.52990000 -80.97500000
47.11000000 66.29450000 -81.23190000
49.99200000 66.26350000 -79.65280000
52.79330000 66.39570000 -77.82660000
49.06460000 67.17420000 -77.60060000
51.83180000 67.37860000 -75.88800000
54.49520000 67.64000000 -74.03050000
50.73050000 67.50590000 -73.74080000
53.28710000 67.62670000 -71.96690000
55.63550000 67.72110000 -69.97760000
52.03590000 67.28310000 -69.82190000
54.32370000 67.32670000 -67.98160000
56.43730000 67.33940000 -65.89850000
52.98470000 66.88110000 -65.89500000
55.06950000 66.88900000 -63.94010000
57.04210000 66.86010000 -61.73720000
53.73270000 66.39990000 -61.79540000
55.75740000 66.38160000 -59.72600000
57.78350000 66.35520000 -57.49710000
54.52950000 65.87480000 -57.49060000
56.66490000 65.88050000 -55.45240000
58.86010000 65.94460000 -53.36670000
55.61330000 65.38160000 -53.18990000
57.82560000 65.46750000 -51.28190000
60.05810000 65.64750000 -49.40470000
56.81120000 65.01580000 -49.10690000
59.01600000 65.18220000 -47.35330000
61.21020000 65.38680000 -45.62730000
57.96400000 64.67150000 -45.25580000
60.09070000 64.86060000 -43.64250000
62.18780000 65.06990000 -41.98820000
58.99930000 64.32740000 -41.56850000
60.96850000 64.50770000 -40.02570000
62.83650000 64.68990000 -38.42860000
59.75140000 63.95940000 -38.00270000
61.52940000 64.12980000 -36.45600000
63.14130000 64.26410000 -34.88950000
60.18630000 63.55940000 -34.44400000
61.72240000 63.68150000 -32.92810000
63.08280000 63.76940000 -31.34760000
62.40840000 63.16220000 -27.92680000
60.02670000 62.44610000 -26.64970000
60.78650000 62.43900000 -25.34250000
57.87450000 61.92340000 -26.32120000
58.43890000 61.85670000 -24.91570000
59.09030000 61.80660000 -23.47830000
56.29070000 61.41790000 -25.18440000
56.77090000 61.30260000 -23.57080000
57.30810000 61.20390000 -21.91230000
54.61020000 60.90510000 -24.03570000
55.01610000 60.74770000 -22.21690000
55.47830000 60.60960000 -20.37560000
52.83220000 60.38170000 -22.74510000
53.19370000 60.19130000 -20.77280000
53.59470000 60.01490000 -18.77050000
50.97640000 59.83390000 -21.30900000
51.26720000 59.59800000 -19.17480000
51.65290000 59.40060000 -17.08300000
54.01480000 59.83490000 -16.72480000
52.07230000 59.21140000 -14.97970000
54.47830000 59.67340000 -14.68150000
52.49140000 59.02330000 -12.83840000
54.94010000 59.51170000 -12.59450000
52.89990000 58.83130000 -10.66490000
55.37900000 59.34200000 -10.46050000
53.29450000 58.63780000 -8.46589000
55.79230000 59.16380000 -8.28599000
53.66380000 58.44350000 -6.23799000
56.17460000 58.98080000 -6.07549000
54.00590000 58.24760000 -3.98499000
56.52960000 58.79510000 -3.83979000
59.09190000 59.37690000 -3.74039000
56.84460000 58.59900000 -1.57269000
59.41170000 59.18750000 -1.47789000
57.11230000 58.39230000 0.71911000
59.68920000 58.99160000 0.81111000
57.34800000 58.17240000 3.02631000
59.90980000 58.77870000 3.12551000
62.50960000 59.42870000 3.20571000
60.09360000 58.54810000 5.45191000
62.68370000 59.20450000 5.53941000
65.30150000 59.90440000 5.62401000
62.80830000 58.96780000 7.88791000
65.41180000 59.66680000 7.98101000
68.04310000 60.41080000 8.08691000
65.46020000 59.41190000 10.35670000
68.07110000 60.15750000 10.47690000
70.68460000 60.92760000 10.62410000
68.00530000 59.87010000 12.90040000
70.57990000 60.62900000 13.07950000
73.16030000 61.41580000 13.32520000
70.41390000 60.30780000 15.55850000
72.94860000 61.07310000 15.82950000
70.20880000 59.98110000 18.04100000
72.68570000 60.71160000 18.34990000
75.11850000 61.47370000 18.75550000
72.38830000 60.35950000 20.87760000
74.76590000 61.10380000 21.30630000
77.07160000 61.85120000 21.86740000
74.42790000 60.74810000 23.83190000
76.67920000 61.48220000 24.40220000
78.81390000 62.19760000 25.08230000
76.31320000 61.12240000 26.90210000
78.41530000 61.82690000 27.56120000
80.26070000 62.44200000 28.25690000
78.02510000 61.46350000 29.99840000
79.87070000 62.08030000 30.63430000
81.48030000 62.60610000 31.27220000
79.44950000 61.70770000 32.97530000
81.10540000 62.24950000 33.58500000
82.70590000 62.76500000 34.19350000
80.73210000 61.87310000 35.85130000
82.39180000 62.38350000 36.41370000
83.71300000 62.73720000 36.77760000
81.97630000 61.98990000 38.58700000
83.35080000 62.34230000 38.94330000
84.68450000 62.53600000 39.20880000
82.94990000 61.93810000 41.14060000
84.28860000 62.11050000 41.40860000
85.56780000 62.06780000 41.57610000
83.85830000 61.65560000 43.64320000
85.11010000 61.52610000 43.79340000
86.20320000 61.10240000 43.75420000
84.54340000 60.97150000 46.09770000
85.64240000 60.50460000 46.01460000
86.41420000 59.87530000 45.71910000
84.96880000 59.79460000 48.36890000
85.71150000 59.16070000 48.01330000
86.20530000 58.44850000 47.48480000
84.90920000 58.38070000 50.39050000
85.42590000 57.61130000 49.83000000
85.77690000 56.94480000 49.14360000
84.44990000 56.64030000 52.40150000
84.81080000 55.84120000 51.80220000
83.29760000 55.53130000 55.03860000
83.58290000 54.57520000 54.67160000
81.79350000 54.10840000 57.88950000
82.12850000 53.01520000 57.46140000
82.42070000 51.94250000 57.05610000
80.32190000 51.63820000 60.02430000
80.64740000 50.50300000 59.62420000
80.96920000 49.35220000 59.21510000
82.62860000 50.92790000 56.59420000
80.80790000 48.37010000 58.48670000
82.62150000 49.81650000 56.13140000
80.26540000 47.68890000 57.57260000
82.26830000 48.72110000 55.60140000
79.45890000 47.36970000 56.56870000
81.45030000 48.16970000 54.73550000
83.09460000 49.01360000 53.19500000
84.40940000 50.08560000 51.68210000
80.42860000 48.02790000 53.75640000
82.09510000 48.76310000 52.28900000
83.43700000 49.33760000 51.10420000
84.50290000 49.95740000 50.14850000
80.93560000 48.77910000 51.30630000
82.19850000 49.26390000 50.12940000
83.32070000 49.65770000 49.27170000
84.23520000 50.02290000 48.62070000
81.00770000 49.44400000 48.78310000
82.01490000 49.74520000 47.97590000
82.95600000 50.01510000 47.10990000
80.65170000 49.52260000 45.67260000
81.69020000 49.79480000 44.84990000
79.94500000 48.76480000 43.26110000
81.00480000 48.94000000 42.25660000
79.29910000 47.28310000 40.96220000
80.34100000 47.10190000 40.13760000
81.21960000 46.75000000 39.52860000
79.45820000 44.77630000 38.68310000
80.37680000 44.34350000 38.34760000
81.28630000 43.86530000 38.18580000
79.90770000 42.12290000 37.15410000
80.84930000 41.72640000 37.20150000
79.66810000 39.86770000 36.67790000
80.76840000 39.66010000 36.68780000
79.63380000 37.80940000 36.76790000
80.85010000 37.80700000 36.87740000
79.75920000 36.10390000 37.54240000
80.84610000 36.31080000 37.79130000
81.73570000 37.09880000 38.45960000
80.90060000 35.47780000 39.19550000
81.68560000 36.35480000 39.65470000
81.31580000 34.67380000 40.52350000
81.92560000 35.67800000 40.97230000
82.39770000 36.81640000 41.55380000
82.47200000 34.73790000 42.44320000
82.82390000 35.92520000 43.15760000
83.24400000 37.21380000 43.79010000
83.23810000 35.02900000 44.90380000
82.92730000 33.79080000 44.12100000
83.55260000 32.60520000 45.62680000
82.60290000 32.64860000 43.37640000
83.19880000 31.47250000 44.83180000
84.10650000 30.24310000 46.11970000
84.73700000 31.31380000 46.68130000
85.38260000 28.72490000 47.13870000
86.13350000 29.83630000 47.62150000
86.45690000 27.12520000 48.46040000
84.51840000 27.91690000 46.86890000
85.70600000 26.15020000 47.93030000
83.62540000 27.22450000 46.80170000
83.36820000 29.37620000 45.76560000
82.50380000 28.70350000 45.76930000
81.59550000 28.38030000 46.24090000
81.52450000 29.89000000 44.45650000
80.56760000 29.71060000 45.08980000
79.76170000 29.77840000 45.98980000
79.64450000 31.06540000 43.87070000
78.70150000 31.06840000 44.68060000
77.86220000 31.24070000 45.57170000
77.82110000 32.46130000 43.35980000
76.82890000 32.57020000 44.25170000
75.81470000 32.71210000 45.26070000
76.00230000 33.86790000 42.71370000
74.88710000 34.02070000 43.76010000
73.68150000 34.26700000 45.17630000
74.19870000 35.72070000 42.73970000
72.77900000 35.87100000 44.16100000
73.50800000 37.49410000 41.88370000
72.07890000 37.64860000 43.42270000
73.11580000 39.51670000 41.47630000
71.71670000 39.68180000 43.03680000
73.15310000 41.73160000 41.50730000
71.66720000 41.83200000 43.03830000
70.03890000 41.62460000 44.59930000
71.78050000 43.89640000 43.49190000
70.09650000 43.46660000 45.14830000
68.26240000 43.06470000 46.58790000
70.46950000 44.98700000 46.27040000
68.50270000 44.60070000 47.58570000
66.41720000 44.21280000 48.64890000
69.09970000 45.72050000 49.21320000
67.03110000 45.11880000 50.29460000
64.91400000 44.49410000 51.23810000
67.96590000 45.38080000 52.36800000
65.77270000 44.77310000 53.23660000
63.50720000 44.12440000 53.96420000
66.83340000 44.80800000 55.40220000
64.48820000 44.15120000 56.08420000
62.02190000 43.53950000 56.53900000
65.14280000 44.16850000 57.95840000
62.72920000 43.51690000 58.49930000
60.04310000 42.64570000 58.80460000
59.45830000 42.65810000 56.92300000
57.28630000 41.70480000 59.03910000
56.85830000 41.69850000 57.27320000
54.56220000 40.89580000 59.43940000
54.25930000 40.88350000 57.61460000
51.84140000 40.20980000 59.76100000
51.69360000 40.24680000 57.87730000
49.19170000 39.63280000 59.99960000
52.07420000 40.17200000 61.46320000
49.44420000 39.53800000 61.88060000
46.79930000 38.90800000 62.20130000
49.97750000 39.34800000 63.32080000
47.51130000 38.72770000 63.92320000
44.94730000 38.17020000 64.36100000
48.04180000 38.50530000 65.44990000
45.48620000 37.83200000 65.99980000
42.79980000 37.30410000 66.22620000
45.91880000 37.47370000 67.54980000
43.16020000 36.87990000 67.81640000
40.42590000 36.38750000 67.84390000
40.20910000 36.92410000 66.15880000
37.77230000 35.91220000 67.62460000
37.71630000 36.53680000 65.91280000
35.20680000 35.48470000 67.27630000
35.20920000 36.08910000 65.52980000
32.69060000 34.95200000 66.82870000
32.76340000 35.58240000 65.09530000
30.20760000 34.55020000 66.39710000
30.33150000 35.25560000 64.65800000
27.76670000 34.37030000 65.99960000
27.96170000 35.01210000 64.19760000
25.37110000 34.14050000 65.56080000
25.64670000 34.74140000 63.72490000
23.01930000 33.93170000 65.11980000
23.33830000 34.45900000 63.25750000
20.72580000 33.64150000 64.66840000
21.02580000 34.12960000 62.81870000
18.43260000 33.30350000 64.29140000
18.70340000 33.76790000 62.49530000
16.08010000 32.95890000 64.00250000
16.26350000 33.37390000 62.21360000
13.63970000 32.68170000 63.67450000
13.81950000 32.99460000 61.96320000
11.14690000 32.37980000 63.33820000
11.33910000 32.75270000 61.61460000
8.67760000 32.27330000 62.90230000
8.83330000 32.59500000 61.21320000
6.22000000 32.18480000 62.58250000
6.32380000 32.40730000 60.88730000
3.82600000 32.06940000 62.34390000
5.97510000 31.98280000 64.26360000
3.54370000 31.89360000 64.00840000
1.19880000 31.73300000 63.65500000
3.41820000 31.65100000 65.65520000
1.06410000 31.59910000 65.32070000
-1.29300000 31.46470000 64.96880000
0.93400000 31.95020000 66.90940000
-1.38970000 31.79290000 66.57700000
-3.69670000 31.54240000 66.27020000
-1.51880000 32.76200000 67.90230000
-3.80490000 32.53080000 67.64480000
-6.06680000 32.30870000 67.35280000
-3.88900000 33.99840000 68.46800000
-6.13080000 33.74410000 68.19310000
-8.35060000 33.52440000 67.84590000
-6.18980000 35.25840000 68.80390000
-8.39090000 34.99680000 68.50860000
-10.56870000 34.74070000 68.23690000
-8.41380000 36.52120000 68.95860000
-10.57780000 36.24800000 68.76460000
-12.73470000 35.98300000 68.60020000
-10.58300000 37.79080000 68.96030000
-12.71080000 37.52960000 68.85150000
-14.83360000 37.29540000 68.77830000
-12.65280000 38.98070000 68.40660000
-14.76540000 38.77670000 68.43920000
-16.87590000 38.57910000 68.49090000
-14.68080000 39.97390000 67.48370000
-16.79070000 39.85430000 67.62330000
-18.89560000 39.72770000 67.80420000
-16.69510000 40.69060000 66.23720000
-18.80440000 40.61170000 66.46440000
-20.91450000 40.54260000 66.70060000
-18.69640000 41.15400000 64.74150000
-20.81080000 41.11450000 65.01780000
-22.92560000 41.08700000 65.32620000
-20.71310000 41.59350000 63.16390000
-22.83120000 41.59510000 63.46590000
-24.94580000 41.62020000 63.82160000
-22.73920000 42.07350000 61.49440000
-24.86020000 42.09890000 61.85180000
-26.97260000 42.14610000 62.23150000
-24.76240000 42.55390000 59.76770000
-26.87570000 42.60980000 60.15360000
-28.98580000 42.65350000 60.54760000
-26.77160000 43.05830000 57.97410000
-28.87810000 43.11770000 58.40960000
-30.98310000 43.18100000 58.82950000
-28.76280000 43.57280000 56.06610000
-30.86010000 43.65610000 56.49650000
-32.95610000 43.75520000 56.96920000
-30.73810000 44.13050000 54.04870000
-32.82350000 44.24210000 54.51850000
-34.90340000 44.37480000 55.00380000
-32.69900000 44.73370000 51.95110000
-34.76720000 44.87240000 52.44040000
-36.82510000 45.03010000 52.94970000
-34.64400000 45.36300000 49.79970000
-36.68980000 45.52940000 50.30310000
-38.72980000 45.71810000 50.81640000
-36.58770000 46.00970000 47.59240000
-38.60910000 46.20930000 48.11140000
-40.62310000 46.41590000 48.63790000
-38.52820000 46.68620000 45.37500000
-40.53120000 46.89950000 45.89830000
-42.52120000 47.12270000 46.42630000
-40.48270000 47.37480000 43.14150000
-42.46490000 47.59440000 43.66950000
-44.43900000 47.82280000 44.20140000
-42.44660000 48.06150000 40.90440000
-44.42010000 48.28260000 41.43880000
-46.37710000 48.51200000 41.97720000
-46.40000000 48.06100000 44.73410000
-48.32770000 48.74410000 42.51320000
-48.35300000 48.31830000 45.26380000
-50.26410000 49.01260000 43.05290000
-48.35400000 49.18620000 39.76540000
-50.29060000 49.43280000 40.31930000
-52.22570000 49.69730000 40.87850000
-52.19570000 49.29380000 43.59330000
-54.15870000 49.97860000 41.43880000
-54.12260000 49.59200000 44.12920000
-56.07900000 50.31040000 42.00860000
-56.04250000 49.91210000 44.66430000
-58.00340000 50.64840000 42.58540000
-57.96430000 50.25730000 45.21090000
-59.92540000 51.01270000 43.16080000
-59.88270000 50.64140000 45.74690000
-61.84780000 51.40400000 43.73680000
-61.81390000 51.03380000 46.28300000
-63.77950000 51.82010000 44.32960000
-61.94530000 51.81440000 41.21190000
-63.87060000 52.22770000 41.83940000
-65.78890000 52.66070000 42.46830000
-64.01050000 52.64390000 39.34930000
-65.93340000 53.07960000 40.04380000
-67.85930000 53.52110000 40.73540000
-66.12430000 53.49660000 37.60710000
-68.04510000 53.95420000 38.33860000
-69.97850000 54.39900000 39.09800000
-68.27860000 54.40270000 35.95420000
-70.20400000 54.84690000 36.76770000
-72.14060000 55.28550000 37.56100000
-70.47420000 55.29570000 34.41630000
-72.41640000 55.74580000 35.29400000
-74.35970000 56.18610000 36.17220000
-72.71240000 56.19910000 33.00410000
-74.66540000 56.64980000 33.94170000
-76.61870000 57.09590000 34.90130000
-74.99310000 57.10170000 31.67710000
-76.95850000 57.56190000 32.72770000
-78.92780000 58.02380000 33.76420000
-77.32940000 58.01370000 30.50510000
-79.30340000 58.47530000 31.61700000
-81.28880000 58.94480000 32.76790000
-79.69680000 58.93540000 29.43510000
-81.67920000 59.42650000 30.66700000
-83.68000000 59.90010000 31.90460000
-83.26790000 59.46970000 33.97640000
-85.66810000 60.44170000 33.18120000
-85.25620000 59.99970000 35.21110000
-87.66020000 61.01180000 34.52370000
-87.24950000 60.55150000 36.50980000
-89.65750000 61.58510000 35.92000000
-89.23120000 61.11200000 37.86270000
-91.64320000 62.16000000 37.35960000
-90.07740000 62.06010000 33.92480000
-92.07260000 62.64620000 35.39780000
-94.04820000 63.23050000 36.88590000
-92.50740000 63.13140000 33.39410000
-94.48510000 63.72910000 34.88960000
-96.43830000 64.33090000 36.38600000
-94.92100000 64.23150000 32.88200000
-96.88160000 64.84390000 34.38330000
-98.78330000 65.45610000 35.83990000
-97.33190000 65.35820000 32.36360000
-99.22870000 65.98730000 33.82180000
-100.96900000 66.56760000 35.10940000
-99.69200000 66.51070000 31.80760000
-101.42700000 67.10300000 33.11050000
-103.12500000 67.66730000 34.31250000
-101.93200000 67.64680000 31.13030000
-103.59700000 68.21470000 32.34060000
-105.23400000 68.75780000 33.45450000
-104.11600000 68.76830000 30.38290000
-105.72000000 69.30360000 31.50800000
-107.27300000 69.76990000 32.57510000
-106.24100000 69.85970000 29.58220000
-107.77800000 70.34020000 30.65660000
-106.84000000 70.44240000 27.72320000
-108.35000000 70.94850000 28.79690000
-107.48800000 70.99350000 25.89770000
-108.97100000 71.50570000 26.96180000
-108.19000000 71.54520000 24.12370000
-109.66100000 72.07180000 25.19680000
-111.12100000 72.43640000 26.18230000
-110.42100000 72.62760000 23.47980000
-111.88800000 73.02020000 24.49210000
-113.28000000 73.00320000 25.29920000
-112.67500000 73.60920000 22.83450000
-114.06400000 73.62750000 23.65900000
-115.35000000 73.05570000 24.16130000
-114.90100000 74.20770000 22.05290000
-116.18100000 73.70890000 22.58490000
-117.14800000 72.65860000 22.69010000
-117.03800000 74.35270000 21.04330000
-117.99200000 73.30990000 21.14920000
-118.51800000 71.98130000 20.83530000
-118.87600000 73.96130000 19.68000000
-119.41900000 72.67250000 19.38000000
-119.90300000 71.31390000 18.93270000
-118.98400000 70.60990000 20.40280000
-120.37700000 70.05160000 18.47180000
-119.34000000 69.35050000 20.03890000
-120.76300000 68.94020000 18.09650000
-119.62600000 68.34500000 19.76830000
-120.91800000 68.11340000 17.80350000
-121.84400000 69.68910000 16.58250000
-122.09500000 68.63870000 16.11210000
-122.01000000 67.86840000 15.74220000
-123.29800000 69.26880000 14.57390000
-123.30700000 68.33580000 14.00530000
-123.29900000 67.56480000 13.66170000
-121.92700000 67.12470000 15.44860000
-123.37000000 66.82000000 13.48270000
-121.95100000 66.37810000 15.29470000
-123.44900000 66.08380000 13.30060000
-122.09400000 65.65740000 15.21070000
-123.53300000 65.35290000 13.11620000
-122.22700000 64.94970000 15.12270000
-123.60000000 64.61180000 12.90930000
-122.33300000 64.22990000 14.98940000
-123.70800000 63.87330000 12.71990000
-122.50800000 63.55780000 14.94970000
-123.99500000 63.14640000 12.69290000
-122.98900000 63.12880000 15.11950000
-124.69600000 63.02500000 12.97400000
-123.61700000 63.23820000 15.43190000
-125.35900000 63.19490000 13.30650000
-124.22000000 63.57410000 15.69690000
-125.98200000 63.60500000 13.69460000
-124.77000000 64.06860000 16.00050000
-126.60000000 64.11740000 14.08300000
-125.33200000 64.59190000 16.32010000
-127.24500000 64.68680000 14.52070000
-125.95800000 65.14140000 16.74080000
-127.92400000 65.29960000 15.04870000
-126.59400000 65.69820000 17.17210000
-128.70200000 65.99790000 15.69840000
-127.23900000 66.29050000 17.64230000
-129.60400000 66.74260000 16.49660000
-128.08500000 67.03910000 18.33770000
-130.52800000 67.53960000 17.29700000
-128.97600000 67.86210000 19.10170000
-131.70800000 68.59590000 18.37670000
-130.13200000 68.83780000 20.20440000
-133.15400000 69.62620000 19.85110000
-131.46500000 69.86120000 21.58230000
-134.77900000 70.64520000 21.64220000
-133.00400000 70.84210000 23.33270000
-131.23700000 70.75060000 25.04830000
-134.63100000 71.77790000 25.27960000
-136.49600000 71.62070000 23.63660000
-136.54400000 70.32760000 19.98440000
-138.32700000 71.36550000 21.98510000
-138.29800000 69.82660000 18.39180000
-140.12400000 70.96310000 20.36540000
-140.04500000 69.20610000 16.84550000
-136.56100000 68.73270000 16.55280000
-138.32500000 68.14770000 14.99930000
-140.08900000 67.30390000 13.56410000
-136.75900000 66.88570000 13.40780000
-138.52700000 66.07240000 11.96510000
-140.25900000 65.01700000 10.71390000
-137.17500000 64.80070000 10.51710000
-138.88900000 63.76470000 9.29911000
-140.57900000 62.62540000 8.24831000
-137.69200000 62.47710000 7.95381000
-139.35300000 61.38680000 6.99751000
-140.97400000 60.20480000 6.14651000
-138.31700000 60.47550000 5.34821000
-140.00000000 59.53280000 4.49801000
-141.65900000 58.47810000 3.70291000
-139.63400000 59.80520000 2.33961000
-141.41100000 58.84800000 1.69461000
-143.12600000 57.69000000 1.06711000
-141.32800000 59.32580000 -0.50419000
-143.14500000 58.18940000 -0.97149100
-144.85900000 56.87130000 -1.40029000
-143.32200000 58.81860000 -3.38499000
-145.09900000 57.42610000 -3.65709000
-146.80400000 55.84000000 -3.77689000
-145.47500000 57.98350000 -6.24919000
-147.14800000 56.36530000 -6.26879000
-148.73600000 54.63720000 -6.17979000
-147.69800000 56.77320000 -9.23569000
-149.35500000 54.93960000 -9.11239000
-150.92500000 53.01840000 -8.88329000
-149.65600000 55.35960000 -12.20710000
-151.27600000 53.52880000 -12.07010000
-152.82000000 51.82430000 -12.18230000
-151.21600000 54.19070000 -15.58850000
-152.83000000 52.53180000 -15.66690000
-154.36900000 50.81410000 -16.07400000
-152.33500000 52.70640000 -19.40440000
-153.91000000 50.99390000 -19.71510000
-155.40300000 49.12730000 -20.08400000
-153.09600000 50.88910000 -23.45490000
-154.60900000 49.01950000 -23.73470000
-156.10100000 47.04780000 -23.99420000
-153.40700000 48.65690000 -27.50210000
-154.92300000 46.69070000 -27.66980000
-156.39200000 44.60680000 -27.77740000
-153.55300000 46.23900000 -31.50400000
-155.08100000 44.16970000 -31.50550000
-156.60900000 42.03260000 -31.47000000
-153.55400000 43.58660000 -35.37600000
-155.22700000 41.47160000 -35.18900000
-156.82700000 39.24730000 -34.93990000
-153.41900000 40.55710000 -38.88830000
-155.15900000 38.39020000 -38.48370000
-156.87300000 36.07200000 -37.95070000
-153.25200000 37.21580000 -41.88160000
-155.07600000 34.93620000 -41.19410000
-156.87900000 32.57250000 -40.42240000
-153.21000000 33.58440000 -44.33860000
-155.14500000 31.24180000 -43.41090000
-157.03600000 28.84180000 -42.42100000
-153.51600000 29.80270000 -46.39000000
-155.54900000 27.43540000 -45.30480000
-157.49900000 24.98380000 -44.12120000
-154.02400000 25.84860000 -48.03350000
-156.12400000 23.45430000 -46.80490000
-158.09100000 20.98060000 -45.46530000
-154.39600000 21.59010000 -48.98720000
-156.54300000 19.22750000 -47.72180000
-158.63300000 16.81350000 -46.41030000
-154.77500000 17.20160000 -49.55300000
-156.87700000 14.84810000 -48.17840000
-158.84200000 12.45560000 -46.65420000
-155.16400000 12.78080000 -49.91830000
-157.14400000 10.44990000 -48.31410000
-159.06500000 8.11171000 -46.61320000
-155.56600000 8.31791000 -49.89660000
-157.50300000 6.05731000 -48.13740000
-159.38400000 3.79541000 -46.30310000
-155.95300000 3.87481000 -49.49210000
-157.89800000 1.69191000 -47.64300000
-159.77600000 -0.49169300 -45.68220000
-156.30700000 -0.53749200 -48.62990000
-158.26500000 -2.62439000 -46.75070000
-160.12600000 -4.74349000 -44.70520000
-156.65000000 -4.88499000 -47.43760000
-158.61500000 -6.86849000 -45.50540000
-160.53000000 -8.84229000 -43.36840000
-156.99200000 -9.07149000 -45.97720000
-158.88100000 -10.91560000 -43.79840000
-160.60100000 -12.80780000 -41.43820000
-156.67700000 -12.69260000 -43.69250000
-158.26700000 -14.37660000 -41.62530000
-159.77900000 -16.22390000 -39.43640000
-156.01800000 -16.18790000 -41.39670000
-157.57500000 -17.86910000 -39.37380000
-159.15400000 -19.58120000 -37.30870000
-155.51400000 -19.75900000 -39.13610000
-157.14700000 -21.35410000 -37.19170000
-158.73900000 -22.99060000 -35.15250000
-155.42000000 -23.44890000 -37.15670000
-157.03800000 -24.96710000 -35.14080000
-158.66800000 -26.47970000 -33.06620000
-155.67000000 -27.18190000 -35.24290000
-157.27500000 -28.58820000 -33.15990000
-158.65700000 -29.87870000 -30.85730000
-156.15500000 -30.89150000 -33.38070000
-157.62000000 -32.15550000 -31.19270000
-159.00900000 -33.41270000 -28.96830000
-156.70000000 -34.48800000 -31.53880000
-158.14600000 -35.67940000 -29.34610000
-159.49600000 -36.88340000 -27.03990000
-157.44500000 -37.98860000 -29.75480000
-158.85000000 -39.12440000 -27.49150000
-160.09200000 -40.27420000 -25.13130000
-158.56000000 -41.43810000 -28.05620000
-159.81700000 -42.54750000 -25.69100000
-160.95300000 -43.66190000 -23.25570000
-159.85900000 -44.82740000 -26.29610000
-161.10700000 -45.89500000 -23.85470000
-162.12400000 -46.98180000 -21.30260000
-161.03300000 -48.16810000 -24.27250000
-162.04500000 -49.20320000 -21.67670000
-163.01200000 -50.24920000 -19.03880000
-161.50300000 -51.39500000 -21.69820000
-162.46600000 -52.36180000 -19.00390000
-163.34100000 -53.35890000 -16.23950000
-161.80700000 -54.39230000 -18.77010000
-162.68000000 -55.28870000 -15.94940000
-163.46100000 -56.24570000 -13.11350000
-162.10800000 -57.18770000 -15.65430000
-162.99000000 -58.03570000 -12.80610000
-163.60300000 -58.84120000 -9.88301000
-162.57100000 -59.70420000 -12.47460000
-163.20100000 -60.44780000 -9.56041000
-163.81900000 -61.17710000 -6.66641000
-162.79800000 -61.93310000 -9.27201000
-163.39400000 -62.57700000 -6.43441000
-164.01000000 -63.27740000 -3.60291000
-162.90000000 -63.91220000 -6.18721000
-163.48800000 -64.53310000 -3.39301000
-163.98900000 -65.12570000 -0.60681100
-162.86000000 -65.71910000 -3.13911000
-163.37200000 -66.26140000 -0.39731100
-163.67100000 -66.58990000 2.43939000
-164.36000000 -65.55060000 2.23059000
-163.84800000 -66.75280000 5.25759000
-164.62900000 -65.88820000 5.08569000
-164.03800000 -66.91410000 8.04879000
-164.82300000 -66.06520000 7.91359000
-164.19500000 -66.93420000 10.80960000
-165.10300000 -66.23250000 10.68560000
-164.38200000 -66.97600000 13.53780000
-165.36400000 -66.34450000 13.44600000
-164.56600000 -66.98810000 16.24200000
-165.60900000 -66.44140000 16.17870000
-164.59500000 -67.04730000 18.86600000
-165.65500000 -66.48660000 18.87840000
-164.41100000 -67.00640000 21.47590000
-165.43100000 -66.42370000 21.55180000
-164.02300000 -66.91910000 24.03750000
-164.99400000 -66.29070000 24.15480000
-163.49800000 -66.79080000 26.57150000
-164.37900000 -66.06670000 26.67400000
-163.73900000 -65.91930000 29.16380000
-164.27100000 -64.88650000 29.17880000
-163.53100000 -64.65780000 31.63900000
-163.95400000 -63.56540000 31.63950000
-163.17400000 -63.28180000 34.13490000
-163.51200000 -62.13580000 34.16540000
-162.63400000 -61.68450000 36.68870000
-161.73100000 -59.69950000 39.08400000
-160.66600000 -57.73160000 41.05510000
-162.81900000 -67.12920000 23.91590000
-163.18300000 -67.16390000 21.39540000
-161.92300000 -67.27450000 21.31120000
-163.33700000 -67.17540000 18.84380000
-162.06200000 -67.29190000 18.84010000
-160.76800000 -67.35240000 18.78990000
-162.09900000 -67.30410000 16.31800000
-160.81000000 -67.37050000 16.32870000
-159.50300000 -67.42690000 16.33160000
-160.78000000 -67.38570000 13.80450000
-159.44700000 -67.43630000 13.87160000
-158.09200000 -67.47810000 13.94180000
-159.34100000 -67.43920000 11.35090000
-157.99900000 -67.47550000 11.46320000
-156.57300000 -67.48020000 11.60890000
-157.85000000 -67.48350000 8.98309000
-156.43500000 -67.49760000 9.19289000
-154.99600000 -67.45570000 9.36129000
-156.29000000 -67.47140000 6.72859000
-154.85100000 -67.43940000 6.94359000
-153.18600000 -67.36770000 7.21669000
-154.65800000 -67.42140000 4.53349000
-153.05300000 -67.35100000 4.84749000
-151.18200000 -67.25260000 5.18829000
-152.85700000 -67.33170000 2.50509000
-151.05000000 -67.23210000 2.90489000
-149.04100000 -67.11780000 3.29289000
-150.87700000 -67.21240000 0.62368900
-148.89500000 -67.09850000 1.05719000
-146.84400000 -66.98060000 1.49389000
-148.72300000 -67.07880000 -1.15441000
-146.72300000 -66.96390000 -0.65231100
-144.62100000 -66.84540000 -0.19051100
-146.58100000 -66.95810000 -2.79691000
-144.49700000 -66.83830000 -2.29681000
-142.37800000 -66.71870000 -1.78061000
-144.39300000 -66.84070000 -4.32401000
-142.29700000 -66.72130000 -3.78221000
-140.12700000 -66.60710000 -3.29691000
-142.20200000 -66.72790000 -5.77491000
-140.07600000 -66.63140000 -5.21041000
-137.88200000 -66.53960000 -4.73161000
-139.99300000 -66.63050000 -7.13631000
-137.88500000 -66.56430000 -6.50051000
-135.62900000 -66.49090000 -6.09571000
-137.83900000 -66.58400000 -8.33161000
-135.64600000 -66.52350000 -7.80581000
-133.36000000 -66.45980000 -7.43751000
-135.69900000 -66.57020000 -9.41411000
-133.42700000 -66.50290000 -9.01551000
-131.06400000 -66.45240000 -8.82921000
-133.50700000 -66.55560000 -10.49710000
-131.15500000 -66.50280000 -10.28760000
-128.77200000 -66.46290000 -10.42570000
-131.28000000 -66.55340000 -11.59000000
-128.88000000 -66.51290000 -11.83250000
-126.56100000 -66.49370000 -12.36460000
-129.01200000 -66.56660000 -13.13270000
-126.72000000 -66.55760000 -13.88420000
-124.55400000 -66.57010000 -14.78980000
-126.95300000 -66.63170000 -15.47840000
-124.83000000 -66.64870000 -16.54210000
-122.78200000 -66.67530000 -17.57750000
-125.27500000 -66.73810000 -18.37410000
-123.26500000 -66.77890000 -19.53710000
-121.23400000 -66.83030000 -20.65160000
-123.84000000 -66.89680000 -21.53090000
-121.86700000 -66.95490000 -22.74120000
-119.83800000 -67.02390000 -23.88000000
-122.59900000 -67.09960000 -24.86480000
-120.59300000 -67.17330000 -26.06400000
-118.53200000 -67.25190000 -27.21120000
-121.42600000 -67.33520000 -28.26520000
-119.36100000 -67.41850000 -29.45940000
-117.26500000 -67.50340000 -30.62520000
-120.25600000 -67.59270000 -31.71840000
-118.14900000 -67.68210000 -32.91030000
-116.00900000 -67.77160000 -34.05290000
-119.08200000 -67.86640000 -35.19410000
-116.92100000 -67.95860000 -36.37430000
-114.73300000 -68.04600000 -37.51160000
-117.86300000 -68.14010000 -38.66050000
-115.66000000 -68.22930000 -39.83360000
-113.43000000 -68.31300000 -40.95890000
-116.59100000 -68.39290000 -42.03990000
-114.32300000 -68.47250000 -43.18470000
-112.04700000 -68.56520000 -44.30950000
-115.21600000 -68.60060000 -45.28860000
-112.92300000 -68.67180000 -46.44260000
-110.61000000 -68.75410000 -47.55970000
-113.79800000 -68.70550000 -48.52700000
-111.46700000 -68.74820000 -49.66730000
-109.11000000 -68.77250000 -50.74100000
-112.31900000 -68.64870000 -51.70710000
-109.93000000 -68.64820000 -52.81580000
-107.52500000 -68.67260000 -53.85460000
-110.72900000 -68.22050000 -54.78420000
-108.28200000 -68.10870000 -55.79510000
-105.86500000 -68.26440000 -56.90990000
-108.79600000 -66.44860000 -57.05360000
-106.32700000 -66.40190000 -58.07540000
-103.83900000 -66.37580000 -59.05310000
-106.74500000 -64.41940000 -59.13200000
-104.25200000 -64.38280000 -60.14190000
-101.72800000 -64.32790000 -61.10620000
-104.60600000 -62.23590000 -61.12710000
-102.06400000 -62.15730000 -62.07490000
-99.49850000 -62.09690000 -62.99970000
-102.39200000 -59.91770000 -63.05550000
-99.79320000 -59.80740000 -63.90190000
-97.16680000 -59.70900000 -64.71330000
-100.18400000 -57.43380000 -65.12220000
-97.56430000 -57.33530000 -65.98800000
-94.91830000 -57.24660000 -66.80760000
-97.87250000 -54.58470000 -66.89940000
-95.22040000 -54.49850000 -67.67630000
-92.54520000 -54.43460000 -68.42530000
-95.56410000 -51.67700000 -68.55060000
-92.86130000 -51.59040000 -69.18520000
-90.14340000 -51.52690000 -69.79340000
-93.24200000 -48.70090000 -69.96610000
-90.53670000 -48.64390000 -70.59720000
-87.80590000 -48.61120000 -71.19030000
-90.98250000 -45.69540000 -71.32320000
-88.26230000 -45.67200000 -71.94970000
-85.52950000 -45.65840000 -72.52490000
-88.79540000 -42.67340000 -72.65490000
-86.05330000 -42.65600000 -73.19340000
-83.28000000 -42.64310000 -73.65620000
-86.69870000 -39.56870000 -73.69650000
-83.91540000 -39.55370000 -74.11670000
-81.08010000 -39.56000000 -74.45090000
-84.62780000 -36.43870000 -74.49140000
-81.78370000 -36.44970000 -74.81390000
-78.90950000 -36.48020000 -75.03750000
-82.58070000 -33.31960000 -75.11530000
-79.67410000 -33.34140000 -75.20580000
-76.77350000 -33.40040000 -75.50810000
-80.53970000 -30.20730000 -75.56240000
-77.61850000 -30.25490000 -75.75130000
-74.70480000 -30.30650000 -75.95520000
-78.52900000 -27.07510000 -75.67970000
-75.60150000 -27.13050000 -75.89460000
-72.68040000 -27.18210000 -76.18210000
-76.54740000 -23.95580000 -75.36690000
-73.63690000 -23.99780000 -75.69300000
-70.72090000 -24.05030000 -75.93510000
-74.61420000 -20.82920000 -74.80810000
-71.72330000 -20.87530000 -75.09150000
-68.83080000 -20.90470000 -75.40680000
-72.71250000 -17.64010000 -74.41300000
-69.83340000 -17.68470000 -74.70470000
-66.95490000 -17.71810000 -75.00540000
-70.78220000 -14.43240000 -74.10870000
-67.90870000 -14.47530000 -74.43410000
-65.03020000 -14.51560000 -74.73390000
-68.86350000 -11.20160000 -74.03800000
-65.97870000 -11.25260000 -74.34060000
-63.08630000 -11.31010000 -74.59210000
-66.91810000 -7.98239000 -74.12250000
-64.00660000 -8.05329000 -74.38810000
-61.09150000 -8.12659000 -74.60980000
-64.90230000 -4.81359000 -74.33600000
-61.96110000 -4.90119000 -74.53970000
-58.99730000 -5.00019000 -74.70610000
-62.77820000 -1.71819000 -74.48130000
-59.77450000 -1.83819000 -74.63440000
-56.77820000 -1.94729000 -74.79010000
-60.48190000 1.26051000 -74.51470000
-57.41250000 1.11711000 -74.63150000
-54.37760000 1.01661000 -74.81150000
-57.97380000 4.11911000 -74.50210000
-54.89820000 4.01751000 -74.66820000
-51.85660000 3.95681000 -74.77740000
-55.36510000 6.96931000 -74.56320000
-52.29840000 6.91341000 -74.66600000
-49.24190000 6.87881000 -74.75450000
-52.69770000 9.82901000 -74.58170000
-49.61120000 9.79321000 -74.67380000
-46.54390000 9.77821000 -74.79050000
-49.95220000 12.66000000 -74.59450000
-46.84690000 12.65070000 -74.70450000
-43.75850000 12.64450000 -74.85270000
-47.13280000 15.47100000 -74.62220000
-44.00150000 15.46890000 -74.73400000
-40.88960000 15.47190000 -74.92870000
-44.23400000 18.24800000 -74.65070000
-41.07560000 18.24810000 -74.77560000
-37.92620000 18.25040000 -74.96760000
-41.27420000 20.98570000 -74.60320000
-38.09710000 20.98250000 -74.78280000
-34.92850000 20.97050000 -74.89990000
-38.27640000 23.69260000 -74.53340000
-35.08880000 23.68510000 -74.64400000
-31.91430000 23.67440000 -74.74030000
-35.24710000 26.37690000 -74.38340000
-32.05410000 26.37310000 -74.52490000
-28.87130000 26.36800000 -74.55890000
-32.17650000 29.05470000 -74.32900000
-28.96910000 29.04850000 -74.41290000
-25.76070000 29.03080000 -74.41010000
-29.02070000 31.69770000 -74.26330000
-25.77500000 31.66780000 -74.27740000
-22.53240000 31.62360000 -74.26950000
-25.74990000 34.27460000 -74.11020000
-22.48180000 34.22280000 -74.10840000
-19.22050000 34.14880000 -74.09770000
-22.40920000 36.79810000 -73.84810000
-19.12330000 36.72080000 -73.89560000
-15.84200000 36.60820000 -73.92050000
-18.99730000 39.26470000 -73.52750000
-15.73180000 39.15760000 -73.56760000
-12.49210000 39.03250000 -73.56310000
-15.63230000 41.70080000 -73.03110000
-12.44240000 41.56870000 -72.96840000
-9.26520000 41.42320000 -72.83030000
-12.42180000 44.07880000 -72.08020000
-9.32040000 43.97460000 -71.99460000
-6.25030000 43.83440000 -71.88150000
-9.31380000 46.57400000 -71.27990000
-6.24850000 46.45790000 -71.19280000
-3.22820000 46.28520000 -71.06940000
-6.17430000 49.11100000 -71.66990000
-3.15660000 48.97620000 -71.49770000
-0.18360000 48.80520000 -71.31340000
-3.08200000 51.42490000 -72.82870000
-0.09790000 51.26290000 -72.68620000
2.83520000 51.12290000 -72.47290000
0.00490000 53.53020000 -74.35800000
2.94350000 53.42330000 -74.15600000
5.83270000 53.28420000 -73.95290000
3.09170000 54.96720000 -76.56830000
5.99310000 54.78410000 -76.38180000
8.87200000 54.66540000 -76.11890000
6.18680000 55.56590000 -79.14890000
9.09350000 55.41070000 -78.87610000
11.98720000 55.34620000 -78.51500000
9.27140000 55.90200000 -81.54680000
12.22440000 55.91500000 -81.20050000
15.15540000 55.87130000 -80.77680000
12.37080000 56.28240000 -83.63590000
15.37380000 56.30480000 -83.20040000
18.36850000 56.23730000 -82.70440000
15.59400000 56.56640000 -85.38580000
18.63820000 56.47730000 -84.87090000
21.67320000 56.37090000 -84.35370000
18.88830000 56.49550000 -86.91590000
21.97230000 56.39780000 -86.37940000
25.04670000 56.40350000 -85.79450000
22.25160000 57.01330000 -88.13740000
25.37700000 56.94950000 -87.58890000
28.48130000 56.82250000 -87.05270000
25.60880000 58.33890000 -88.81210000
28.75390000 58.30240000 -88.22640000
31.87430000 58.30590000 -87.58490000
28.86580000 60.24750000 -88.65620000
31.99890000 60.26270000 -87.94180000
35.12440000 60.28050000 -87.16840000
32.01830000 62.34670000 -87.82480000
35.13500000 62.29860000 -86.99620000
38.27870000 62.27230000 -86.20130000
35.05290000 64.39790000 -86.45160000
38.19550000 64.34770000 -85.70650000
41.33730000 64.29430000 -84.81520000
37.88340000 66.18880000 -84.42500000
40.96290000 66.04410000 -83.42090000
44.09680000 66.23280000 -82.49220000
40.30960000 66.91730000 -81.31510000
43.33850000 67.05660000 -80.29620000
46.21490000 67.15950000 -79.01960000
42.46230000 67.12560000 -77.84950000
45.27840000 67.24070000 -76.62130000
48.04680000 67.35010000 -75.28850000
44.31560000 66.99930000 -74.20040000
46.99830000 67.12730000 -72.91590000
49.56520000 67.22470000 -71.47070000
45.89880000 66.71880000 -70.46940000
48.38240000 66.80100000 -69.11620000
50.74080000 66.85190000 -67.62910000
47.16090000 66.31330000 -66.62060000
49.46570000 66.36620000 -65.24910000
51.65470000 66.39400000 -63.63070000
48.20290000 65.81610000 -62.60890000
50.36590000 65.84950000 -61.08540000
52.43980000 65.87310000 -59.40530000
49.20230000 65.29050000 -58.42420000
51.32770000 65.32800000 -56.81510000
53.44750000 65.35660000 -55.08030000
50.30510000 64.78150000 -54.21810000
52.45360000 64.83200000 -52.58590000
54.61470000 64.90310000 -50.89180000
51.51860000 64.31590000 -50.10390000
53.66920000 64.40000000 -48.50250000
55.82120000 64.51990000 -46.88870000
52.73770000 63.90110000 -46.15170000
54.85970000 64.02450000 -44.60490000
56.94600000 64.16070000 -43.09450000
53.93790000 63.50810000 -42.30500000
55.93550000 63.64480000 -40.90600000
57.90560000 63.79670000 -39.44760000
54.99300000 63.12500000 -38.60870000
56.82270000 63.26800000 -37.26730000
58.58480000 63.42460000 -35.88240000
55.85870000 62.74420000 -34.96400000
57.43220000 62.84950000 -33.51630000
54.99500000 62.21460000 -32.49940000
56.48770000 62.31490000 -31.11690000
54.42680000 61.75840000 -30.10670000
55.98990000 61.89160000 -28.85540000
54.21800000 61.38550000 -27.89370000
55.97590000 61.59190000 -26.89270000
54.31580000 61.10910000 -25.89600000
52.46880000 61.22090000 -29.01140000
52.41750000 60.87610000 -26.80790000
52.55790000 60.60250000 -24.73790000
50.52310000 60.67240000 -27.79470000
50.55440000 60.34880000 -25.56670000
50.71800000 60.07440000 -23.41960000
48.55420000 60.12370000 -26.44940000
48.63380000 59.80450000 -24.17400000
48.80860000 59.52100000 -21.94090000
46.54760000 59.55590000 -24.96200000
46.64260000 59.22770000 -22.61360000
46.84010000 58.93970000 -20.31550000
49.03430000 59.25250000 -19.70990000
47.10100000 58.67750000 -18.05790000
49.34850000 59.01330000 -17.53410000
47.41440000 58.41100000 -15.79110000
49.71960000 58.78200000 -15.34840000
47.74890000 58.15650000 -13.52810000
50.09160000 58.56390000 -13.14820000
48.09160000 57.91410000 -11.25560000
50.46910000 58.35280000 -10.93000000
48.43660000 57.68760000 -8.98419000
50.84060000 58.14530000 -8.70029000
48.76600000 57.45900000 -6.69429000
51.19440000 57.93500000 -6.44539000
49.08020000 57.23300000 -4.38979000
51.52150000 57.72440000 -4.17009000
49.37060000 57.01360000 -2.06649000
51.81840000 57.51370000 -1.87249000
54.31120000 58.04310000 -1.70549000
52.09230000 57.29600000 0.44400900
54.58600000 57.83410000 0.58900900
52.32200000 57.05910000 2.77621000
54.81850000 57.60380000 2.91111000
52.52630000 56.81580000 5.12281000
55.01720000 57.36640000 5.24441000
57.54400000 57.94270000 5.35231000
55.16800000 57.11290000 7.60021000
57.68030000 57.69160000 7.70131000
60.23540000 58.30960000 7.79521000
57.79030000 57.43160000 10.06810000
60.31580000 58.04700000 10.15650000
62.87680000 58.70530000 10.25280000
60.35720000 57.77430000 12.53780000
62.89940000 58.41720000 12.63240000
65.44800000 59.12830000 12.74800000
62.87130000 58.17070000 15.04090000
65.37600000 58.85100000 15.16380000
67.89630000 59.57140000 15.34360000
65.25200000 58.55100000 17.61200000
67.73380000 59.25610000 17.80040000
65.09280000 58.24380000 20.07360000
67.53240000 58.93810000 20.27880000
69.97650000 59.64970000 20.52560000
67.31410000 58.61750000 22.74930000
69.71100000 59.31540000 23.02540000
72.08330000 60.02500000 23.36980000
69.44630000 58.98170000 25.49680000
71.79430000 59.67260000 25.85690000
74.09130000 60.38770000 26.31640000
71.49420000 59.32690000 28.33130000
73.76160000 60.03980000 28.78770000
75.95000000 60.76170000 29.36810000
73.41950000 59.72670000 31.23150000
75.58910000 60.43360000 31.77350000
77.67080000 61.11840000 32.37560000
75.24710000 60.09820000 34.14010000
77.30100000 60.76690000 34.71590000
79.02680000 61.32850000 35.27720000
76.89000000 60.39910000 37.02840000
78.64810000 60.96170000 37.55400000
80.35040000 61.50190000 38.10260000
78.28760000 60.60650000 39.83290000
79.94200000 61.12330000 40.32510000
81.52980000 61.58910000 40.78080000
79.55400000 60.74380000 42.59270000
81.04950000 61.19360000 43.01290000
82.47980000 61.50060000 43.36560000
80.54150000 60.73810000 45.30280000
81.95240000 61.03760000 45.66410000
83.28700000 61.16840000 45.97090000
81.31650000 60.57950000 48.00250000
82.62550000 60.57490000 48.30930000
83.88310000 60.33970000 48.46800000
81.80250000 59.94370000 50.67690000
83.04940000 59.64690000 50.85070000
84.16910000 59.06990000 50.74880000
82.05510000 58.88140000 53.23490000
83.18300000 58.29400000 53.18660000
83.97700000 57.52640000 52.92370000
81.96640000 57.32200000 55.75610000
82.82550000 56.45780000 55.52420000
80.52850000 56.26010000 58.41710000
81.33450000 55.21950000 58.27430000
78.84350000 55.15550000 61.00740000
79.52100000 53.96740000 60.83590000
79.93070000 52.80180000 60.43570000
77.31220000 52.75150000 63.26240000
77.75470000 51.55520000 62.92410000
78.10380000 50.38880000 62.49090000
75.09950000 50.34150000 65.03260000
75.45140000 49.17690000 64.57730000
75.76870000 48.05330000 64.10760000
78.44580000 49.24630000 62.03230000
75.93570000 46.95670000 63.51550000
78.67380000 48.13640000 61.50070000
75.68350000 46.26030000 62.55170000
78.44070000 47.29110000 60.65310000
75.16750000 46.00700000 61.36580000
77.82000000 46.85290000 59.59730000
74.51870000 45.96580000 60.10570000
77.11810000 46.65600000 58.45140000
73.83420000 45.99470000 58.83260000
76.35640000 46.58050000 57.30210000
78.58560000 47.24980000 55.47540000
75.40480000 46.60920000 55.99780000
77.49110000 47.26460000 54.37670000
79.36380000 48.04440000 52.75510000
76.22920000 47.18590000 53.12650000
78.25220000 48.06140000 51.61750000
79.73830000 48.91010000 50.05160000
76.71820000 48.01700000 49.78160000
78.26580000 48.71660000 48.24140000
79.49610000 49.23300000 46.82610000
77.19240000 48.39710000 45.90400000
78.70230000 48.61150000 44.39610000
76.46900000 47.39880000 43.48560000
78.04800000 47.38410000 42.07160000
75.88360000 45.72680000 41.39800000
77.41690000 45.37360000 40.21640000
78.55020000 45.12270000 39.25240000
76.70380000 43.12850000 38.85580000
77.89850000 42.80750000 37.96250000
78.92600000 42.47830000 37.41760000
77.41830000 40.57830000 37.37380000
78.63150000 40.22720000 36.79390000
77.28510000 38.45420000 37.63530000
78.48930000 38.09740000 37.02840000
77.36090000 36.52640000 38.35550000
78.55950000 36.23150000 37.72510000
77.64210000 34.94710000 39.57570000
78.75340000 34.80090000 39.09210000
79.89200000 34.92060000 38.97030000
79.17810000 33.74260000 40.68060000
80.29840000 34.06910000 40.45230000
79.87120000 32.46020000 41.97820000
80.99880000 32.90460000 41.67660000
81.98540000 33.65760000 41.83470000
81.82900000 31.69150000 42.94130000
80.69960000 31.24450000 43.23410000
82.55630000 30.50700000 44.33180000
78.81160000 32.38140000 42.58660000
78.07400000 33.66950000 41.15410000
77.07300000 33.74730000 41.82200000
76.51410000 35.17450000 40.33430000
75.40480000 35.46550000 41.42250000
76.16720000 36.89200000 39.29520000
74.86170000 37.24000000 40.48120000
76.00830000 38.86310000 38.62060000
74.51110000 39.22650000 39.94510000
76.12510000 40.94660000 38.43760000
74.58320000 41.38470000 39.88570000
75.18580000 43.54990000 40.23690000
73.53900000 43.91600000 41.88210000
74.09640000 45.77710000 43.04020000
72.18440000 45.58140000 44.63820000
74.72470000 47.18260000 44.99260000
72.95200000 46.69220000 46.50730000
71.11780000 46.12100000 47.96610000
73.87540000 47.29400000 48.99930000
72.01070000 46.68710000 50.18350000
70.04230000 46.02190000 51.34860000
73.07960000 46.56550000 52.58210000
71.07580000 45.98530000 53.72970000
68.99800000 45.36960000 54.61800000
72.02460000 45.91570000 55.82660000
69.85130000 45.37330000 56.76660000
67.62890000 44.82400000 57.46520000
70.61300000 45.33450000 58.54430000
68.09400000 44.69620000 59.28340000
65.53580000 44.04840000 59.74130000
68.53900000 44.58160000 60.83600000
65.84230000 43.92240000 61.28970000
63.17940000 43.08880000 61.53250000
62.93650000 43.30960000 60.05100000
60.49690000 42.26580000 61.59780000
60.27160000 42.46660000 60.27840000
57.87030000 41.42050000 61.89330000
57.65670000 41.58860000 60.69550000
55.20570000 40.65480000 62.28140000
54.87420000 40.79380000 61.08030000
52.54840000 39.95560000 62.77100000
55.63870000 40.48590000 63.50770000
53.05990000 39.79280000 64.09780000
50.49450000 39.20090000 64.74590000
53.49320000 39.61080000 65.36730000
50.97700000 39.00100000 66.13540000
48.47670000 38.21560000 66.92390000
51.41340000 38.72500000 67.48500000
48.89350000 38.00620000 68.36990000
46.19500000 37.28570000 69.02660000
49.18350000 38.26430000 69.77550000
46.33930000 37.58290000 70.40440000
43.40830000 37.00280000 70.79450000
43.38910000 36.63850000 69.36500000
40.53920000 36.42100000 70.93080000
40.56630000 36.11000000 69.44790000
37.70790000 35.89950000 70.85760000
37.84950000 35.48460000 69.30810000
