-59.63520000 -11.22730000 85.26520000
-58.80190000 -12.10330000 85.43950000
-65.41270000 -9.27810000 85.14440000
-67.59180000 -9.13770000 85.69600000
-67.24940000 -10.34310000 85.64980000
-68.57390000 -11.19180000 86.69250000
-67.86910000 -11.23090000 86.25370000
-69.11340000 -12.37850000 86.92120000
-70.09100000 -11.82310000 87.23730000
-69.83810000 -12.61950000 87.14310000
-73.58650000 -8.88006000 86.39870000
-73.08630000 -10.26310000 86.44640000
-85.75030000 0.47674000 83.57700000
-41.10030000 13.97710000 81.56180000
-43.57140000 14.32770000 81.72650000
-44.64710000 14.26390000 81.87010000
-45.61890000 14.75350000 81.94540000
-46.65450000 14.58820000 82.10350000
-40.58690000 13.12760000 81.57650000
-44.97340000 12.46960000 82.61070000
-45.29040000 13.51640000 82.24780000
-45.51900000 12.22080000 82.80230000
-46.61260000 13.22380000 82.53850000
-47.55430000 14.41790000 82.31050000
-48.23090000 14.02890000 82.55710000
-48.40240000 13.21920000 82.72440000
-48.94970000 12.85020000 82.88340000
-46.83860000 19.56300000 83.48250000
-46.54830000 12.05130000 82.88630000
-48.28300000 19.58180000 83.85990000
-49.36640000 12.36100000 83.05960000
-49.99440000 19.38710000 84.18630000
-50.31910000 12.21330000 83.36690000
-50.99040000 12.11880000 83.61280000
-51.84750000 12.11150000 83.82730000
-54.91750000 18.86510000 84.86560000
-51.91790000 10.73290000 84.41950000
-51.93910000 10.00260000 84.85830000
-50.87140000 9.87271000 84.46270000
-58.73960000 18.83230000 85.42460000
-73.26960000 21.72500000 85.99450000
-71.18430000 20.95410000 86.37350000
-70.04570000 19.99560000 86.36260000
-52.85350000 12.64740000 83.82440000
-54.80290000 12.39700000 84.30080000
-78.67710000 29.40970000 83.64120000
-80.60200000 29.93520000 82.99750000
-55.17770000 11.06420000 85.07580000
-78.04910000 27.38980000 84.15400000
-52.77910000 10.35360000 84.94490000
-53.02960000 11.08830000 84.50540000
-53.84430000 10.70460000 84.99990000
-54.17860000 11.27900000 84.61440000
-76.55320000 25.06360000 84.81060000
-53.50120000 10.15930000 85.23900000
-54.59350000 10.24000000 85.36590000
-52.66060000 9.47076000 85.22020000
-53.92560000 9.68081000 85.50360000
-51.38820000 30.46990000 84.20570000
-51.35670000 29.64840000 84.56680000
-50.25100000 29.68990000 84.27890000
-49.80960000 28.17820000 84.30250000
-54.81690000 9.19852000 85.84340000
-56.07320000 9.28291000 86.04420000
-53.72540000 8.85419000 85.68020000
-54.41690000 7.82617000 85.96510000
-55.64830000 8.26585000 86.18960000
-58.08080000 25.23530000 86.06870000
-60.26810000 18.96660000 85.82690000
-57.13010000 8.12207000 86.43690000
-61.08420000 19.09030000 86.15040000
-57.92830000 8.83454000 86.45630000
-58.26890000 7.38085000 86.54270000
-66.09840000 17.06110000 87.06790000
-61.96330000 16.92130000 86.87860000
-67.05550000 19.30040000 86.62130000
-84.00210000 24.94410000 82.16620000
-79.40740000 20.41830000 83.95600000
-82.12830000 22.79910000 82.80070000
-66.35660000 28.95590000 86.33290000
-80.69560000 19.56220000 83.88040000
-71.21540000 14.55570000 85.86170000
-72.08250000 14.34030000 85.75530000
-71.24390000 32.35650000 85.73820000
-70.97450000 31.11150000 85.81480000
-70.90140000 13.56810000 85.97310000
-71.70880000 13.24120000 85.99030000
-61.73390000 8.39177000 86.60900000
-59.77880000 8.19252000 86.54070000
-68.46680000 30.08510000 86.12450000
-63.37940000 9.74390000 86.72400000
-64.16930000 10.15880000 86.76080000
-64.89640000 9.97572000 86.71350000
-64.28620000 9.43483000 86.77980000
-64.95580000 8.90694000 86.68700000
-66.41960000 10.29900000 86.18410000
-65.53440000 9.51962000 86.52770000
-67.15030000 10.96250000 86.13980000
-68.09310000 10.61770000 86.14600000
-69.32620000 10.45140000 86.38090000
-78.10560000 17.23940000 85.14820000
-79.40380000 17.35840000 84.85110000
-76.65050000 15.77230000 85.18180000
-77.79930000 16.23740000 85.13090000
-73.87950000 15.33780000 85.41720000
-73.35880000 14.56850000 85.51010000
-73.08100000 13.90050000 85.69560000
-41.44040000 -19.74160000 83.55420000
-43.72820000 -17.61100000 83.10920000
-42.89610000 -18.16350000 83.06750000
-83.84960000 -12.31470000 83.05340000
-83.12270000 -12.68880000 83.18650000
-51.48220000 -18.67100000 84.58000000
-75.46930000 -20.13340000 85.54390000
-74.00080000 -22.60760000 86.25250000
-79.06300000 -18.52550000 84.79740000
-90.67720000 -4.95164000 81.13570000
-85.07410000 34.51860000 81.05110000
-89.49140000 -5.72207000 81.59610000
-90.51040000 -5.87118000 81.05810000
-84.38630000 33.48790000 81.29990000
-83.21550000 32.50680000 82.00100000
-87.96090000 -11.63450000 83.39480000
-85.15910000 -6.69228000 83.25000000
-86.83760000 -13.40870000 83.34530000
-44.55290000 6.26408000 82.17470000
-63.37900000 -16.62760000 85.39860000
-61.06460000 -17.57950000 85.49460000
-62.22740000 -18.32240000 85.41040000
-63.98190000 -16.64670000 85.57700000
-59.74350000 -18.48950000 85.48930000
-58.65840000 -19.12140000 85.41860000
-64.28600000 -17.17340000 85.80000000
-64.48990000 -18.33420000 85.98900000
-65.54310000 -18.99020000 86.67290000
-65.02570000 -19.01040000 86.40120000
-68.68840000 -18.93490000 87.04650000
-66.98370000 -19.69680000 86.96760000
-43.37730000 -24.50950000 82.85420000
-45.40270000 -24.21660000 83.02640000
-74.13230000 -13.60170000 85.73400000
-39.93980000 -23.56610000 83.14600000
-40.45700000 -25.37780000 82.83320000
-73.75920000 -14.76120000 85.86730000
-72.88270000 -15.25700000 86.14440000
-75.44140000 -14.20490000 85.60460000
-46.12660000 -23.06530000 83.01620000
-79.03300000 -12.07360000 85.55240000
-78.77550000 -13.00720000 85.45920000
-79.64180000 -11.69310000 85.40240000
-79.44240000 -12.52150000 85.35790000
-46.73010000 -23.37670000 83.12950000
-47.20850000 -23.96740000 83.24290000
-77.66970000 -14.00830000 85.55930000
-41.88580000 5.42648000 82.23210000
-72.02740000 -16.36180000 86.42430000
-41.53780000 9.14099000 81.93380000
-51.91830000 -25.13790000 84.20230000
-51.26100000 -25.38790000 83.80790000
-53.36470000 -23.83120000 84.82450000
-54.49080000 -23.69480000 84.90760000
-54.48180000 -24.45810000 84.85100000
-55.11950000 -22.69020000 85.09410000
-55.35830000 -24.50340000 84.80060000
-46.80300000 6.60075000 82.67930000
-53.33360000 -25.40700000 84.67220000
-52.05630000 -23.56800000 84.63180000
-54.15150000 -25.05100000 84.85830000
-47.81260000 5.06321000 83.17300000
-55.17640000 -25.30170000 84.86200000
-88.54350000 -2.56897000 82.31150000
-49.43260000 3.03833000 83.72040000
-51.62580000 1.75831000 84.49320000
-52.68640000 1.19283000 84.80760000
-53.71240000 3.42540000 85.04900000
-55.02800000 4.37226000 85.63340000
-55.13530000 3.40281000 85.47770000
-55.50630000 2.20915000 85.63920000
-55.79050000 0.93647000 86.09880000
-55.65000000 -0.00597000 86.14860000
-57.07360000 0.31445000 86.54380000
-85.57220000 21.32340000 80.67880000
-83.63740000 19.32010000 82.68020000
-85.50530000 18.02680000 82.06110000
-84.44090000 17.83800000 82.68060000
-82.19550000 18.25630000 83.71790000
-83.86660000 17.16060000 83.11710000
-60.06310000 -24.09260000 85.02760000
-83.58100000 15.18280000 83.35520000
-83.20880000 13.70240000 83.46630000
-60.83210000 -24.92950000 85.56430000
-60.98340000 -26.40620000 86.04090000
-77.05850000 9.27631000 85.77280000
-62.25500000 -26.09570000 86.62380000
-75.46680000 8.28027000 86.12100000
-78.35600000 9.67874000 85.58010000
-62.31070000 -27.30330000 86.74450000
-77.60630000 8.38096000 85.96440000
-41.54060000 0.65949000 81.38400000
-42.28060000 0.84726000 81.70290000
-42.52580000 -0.12482000 81.77380000
-66.87230000 -27.90790000 87.73400000
-76.49020000 7.65949000 86.28350000
-69.95600000 -27.08160000 87.71380000
-71.18250000 -26.43320000 87.48390000
-75.47100000 6.53832000 86.69770000
-76.33800000 6.27416000 86.61920000
-73.60060000 -23.60710000 86.47400000
-75.17940000 5.51516000 86.87540000
-79.60080000 12.50410000 85.07780000
-80.30770000 11.67750000 84.94800000
-43.12260000 -0.49758000 82.04340000
-42.91630000 -1.43766000 82.09050000
-43.33990000 -3.49055000 82.48680000
-44.98920000 -3.01452000 83.17080000
-45.62990000 -3.71374000 83.36140000
-46.48320000 -3.01511000 83.21850000
-58.37980000 0.34028000 86.66990000
-58.92440000 1.13162000 86.91770000
-51.35840000 -3.96317000 84.01200000
-52.04890000 -4.89032000 85.10300000
-52.28630000 -5.65966000 85.39810000
-52.66650000 -6.57751000 85.57840000
-54.32630000 -5.96387000 85.93170000
-71.33360000 2.68949000 87.75610000
-67.64880000 1.33051000 87.58880000
-64.11420000 1.17963000 87.45270000
-55.79450000 -5.84048000 86.05280000
-66.00760000 1.11741000 87.61350000
-57.21110000 -5.06802000 86.16100000
-57.13470000 -5.69930000 85.97820000
-69.34650000 1.10682000 87.49790000
-69.97450000 1.16451000 87.60470000
-83.38160000 8.52976000 83.34070000
-71.34730000 1.99814000 87.89130000
-82.55650000 7.05454000 84.04380000
-83.03750000 7.73373000 83.58650000
-74.00110000 5.34054000 86.98770000
-84.77240000 7.89447000 83.57630000
-83.68210000 5.48279000 84.34530000
-87.06480000 12.42110000 81.99440000
-86.04030000 10.18000000 82.86540000
-85.48500000 8.42897000 83.28230000
-61.16770000 -3.58778000 85.35910000
-58.86420000 -4.96463000 85.70560000
-65.99530000 -2.53669000 85.58500000
-66.63070000 -2.47212000 86.05860000
-66.43810000 -3.36388000 86.02740000
-66.90360000 -3.53895000 86.34390000
-66.92790000 -4.24494000 86.23290000
-68.18880000 -4.28696000 86.60400000
-69.08830000 -4.09756000 86.72380000
-70.30350000 -3.01440000 86.55170000
-78.03400000 0.64523000 85.97340000
-78.17110000 -0.49081000 85.98500000
-77.96480000 -2.15911000 86.37480000
-81.33490000 2.16616000 85.37250000
-82.58080000 3.63329000 85.20100000
-71.74930000 -2.28467000 86.73860000
-72.10720000 -2.88143000 86.80150000
-72.53850000 -2.99374000 87.05760000
-72.03070000 -3.61130000 86.76190000
-73.51620000 -3.32126000 87.34340000
-75.78750000 -3.54566000 87.18070000
-77.17390000 -2.58267000 86.84400000
-46.21260000 28.83740000 83.46470000
-47.58770000 29.18420000 83.72490000
-48.56460000 29.27700000 83.94310000
-49.34640000 29.49070000 84.08360000
-62.78840000 27.65720000 86.44180000
-73.75680000 32.05860000 85.28100000
-61.40780000 26.03830000 86.42230000
-48.61070000 18.90370000 83.58720000
-51.34640000 19.03570000 84.20490000
-52.50500000 18.81460000 84.33990000
-53.90450000 18.71780000 84.59440000
-55.86870000 18.81780000 84.96000000
-57.07500000 18.79520000 85.14010000
-79.74170000 29.05920000 83.38290000
-81.76960000 31.33900000 82.64470000
-40.96280000 -14.20150000 84.14540000
-41.37530000 -14.29620000 84.16400000
-42.38910000 -14.09750000 84.11830000
-41.98450000 -15.40350000 84.14020000
-72.85590000 20.86690000 86.04630000
-43.55140000 -13.50640000 83.99870000
-59.58150000 18.29020000 85.40970000
-60.53220000 18.43100000 85.84180000
-44.77870000 -13.68740000 83.98530000
-60.45490000 17.71530000 85.94330000
-60.55680000 16.75730000 86.30830000
-46.81760000 -13.15440000 84.02650000
-63.14940000 16.00430000 87.19010000
-65.44200000 15.69200000 87.14660000
-64.37910000 16.66360000 87.28370000
-51.55920000 -12.88300000 84.08240000
-64.24540000 15.85220000 87.27950000
-53.11650000 -11.75020000 84.47500000
-68.87870000 19.17470000 86.42010000
-53.53090000 -12.48340000 84.55900000
-56.29570000 -12.95110000 85.30260000
-57.00310000 -13.04090000 85.37540000
-57.63360000 -13.59420000 85.12360000
-87.43620000 4.06895000 81.76860000
-87.45000000 3.18683000 81.96380000
-87.19810000 2.37018000 82.41110000
-83.87090000 -2.52477000 83.99240000
-76.78190000 -7.93001000 86.15120000
-79.17880000 -8.48661000 86.02400000
-61.66940000 -9.01606000 84.50600000
-61.08400000 -9.60790000 84.54280000
-62.69410000 -8.95030000 84.59030000
-63.47810000 -9.25662000 84.73740000
-61.11020000 -11.04520000 84.75520000
-62.18330000 -9.79555000 84.58640000
-62.97610000 -10.04490000 84.69510000
-60.22670000 -11.16730000 84.95220000
-59.67870000 -11.96490000 85.12000000
-58.32670000 -13.19300000 85.18690000
-66.46450000 -9.05270000 85.09640000
-67.09110000 -8.84141000 85.30350000
-66.19970000 -10.45730000 85.20210000
-65.18440000 -10.60860000 85.18070000
-63.96570000 -10.49050000 84.92340000
-67.33290000 -11.25380000 85.76980000
-68.09200000 -12.32180000 86.38410000
-74.60980000 -8.95620000 86.15230000
-73.92920000 -9.81917000 86.11170000
-71.46410000 -12.01380000 87.01010000
-75.53670000 -9.13509000 85.95030000
-76.50640000 -8.56817000 85.96080000
-70.52850000 -12.60350000 87.15030000
-85.65820000 -0.64702000 83.61150000
-87.50670000 36.58030000 79.80000000
-45.89190000 14.03810000 82.10910000
-40.24770000 12.09360000 81.63020000
-41.11850000 11.74680000 81.76160000
-43.44080000 13.35800000 81.80080000
-44.06920000 13.19240000 82.03300000
-44.53360000 12.78980000 82.36520000
-43.76120000 12.06210000 82.27810000
-44.30540000 11.88040000 82.56040000
-43.80950000 11.01140000 82.44300000
-44.79380000 11.61680000 82.74820000
-45.84150000 11.38960000 82.96630000
-46.85960000 14.07540000 82.23410000
-47.62860000 13.66410000 82.45470000
-47.53630000 12.63720000 82.72400000
-47.21560000 11.28640000 83.02430000
-46.47280000 11.13110000 83.03460000
-51.13760000 11.03660000 84.01270000
-50.15290000 11.07790000 83.64610000
-52.31580000 11.49920000 84.12550000
-53.73210000 11.91020000 84.18710000
-51.35100000 9.29419000 84.86500000
-50.53470000 8.91440000 84.64280000
-51.59570000 8.01857000 85.01280000
-52.92770000 8.32283000 85.49170000
-53.79580000 12.70150000 83.93380000
-54.69980000 11.72000000 84.51630000
-52.96060000 7.24169000 85.45850000
-56.32760000 7.00070000 86.37520000
-82.27770000 21.41550000 82.51790000
-83.37370000 23.45390000 82.31430000
-80.14640000 20.63220000 83.63380000
-80.69510000 17.60750000 84.41450000
-59.30170000 6.85209000 86.51070000
-63.22580000 8.88976000 86.70020000
-64.15030000 8.43564000 86.80580000
-64.46530000 7.30384000 86.79570000
-71.72620000 11.74710000 86.16000000
-70.21040000 10.97710000 86.40370000
-78.75810000 16.25200000 85.02540000
-72.62340000 13.18860000 85.92350000
-73.56620000 13.29710000 85.85950000
-74.48090000 13.85530000 85.53500000
-74.64150000 13.00650000 85.78420000
-74.17170000 12.55560000 85.99570000
-73.12780000 11.85700000 86.14170000
-88.25520000 30.62150000 79.85680000
-40.86020000 -20.15330000 83.73590000
-43.74630000 -18.33760000 82.76160000
-42.34690000 -18.92880000 83.17010000
-44.46990000 -18.29200000 82.87200000
-45.07500000 -18.37870000 83.09440000
-45.83290000 -18.75650000 83.36610000
-47.17170000 -19.28030000 83.84380000
-49.44200000 -19.72940000 84.37300000
-51.48190000 -20.53860000 84.72150000
-54.79910000 -19.57930000 84.99070000
-56.90550000 -18.33750000 85.11140000
-57.47180000 -19.37080000 85.20510000
-70.67290000 29.82920000 85.76640000
-68.49160000 28.86660000 86.08840000
-83.47860000 -13.21700000 83.09740000
-83.59420000 -14.22050000 83.18970000
-65.26340000 27.49630000 86.45570000
-76.04170000 -21.54550000 85.43510000
-77.43410000 -21.72000000 85.06030000
-75.36760000 -21.43160000 85.66820000
-74.64160000 -22.62070000 85.98890000
-63.91300000 26.35200000 86.52560000
-83.75750000 -7.51656000 83.57640000
-67.28320000 27.70500000 86.29140000
-82.34020000 -9.46585000 84.11100000
-63.81410000 -17.79170000 85.49650000
-63.15590000 -17.85530000 85.34300000
-73.11560000 30.84660000 85.35140000
-61.62900000 -19.55920000 85.35430000
-58.69900000 -19.78620000 85.38780000
-45.77470000 6.35615000 82.35950000
-90.30030000 -8.12065000 81.78850000
-46.80890000 5.53247000 82.67700000
-90.50050000 -8.91692000 81.74710000
-90.69390000 -8.32767000 81.29040000
-64.69780000 -19.74970000 86.10570000
-65.34140000 -20.17100000 86.56940000
-89.89170000 -9.80235000 82.37490000
-66.14320000 -20.31740000 86.88740000
-90.22310000 -10.85980000 82.15420000
-69.50470000 -19.96290000 86.95910000
-67.74420000 -20.66110000 87.00960000
-47.65140000 3.50548000 83.19010000
-84.47540000 -12.50920000 83.00150000
-85.12310000 -12.83480000 83.11840000
-85.86900000 -13.57800000 83.19020000
-50.31970000 2.10802000 84.01580000
-88.76120000 -13.01690000 82.94840000
-76.45160000 -14.64630000 85.66730000
-87.81540000 -12.95910000 83.29620000
-41.35880000 -0.17101000 81.41910000
-54.48750000 2.43962000 85.23250000
-80.28740000 -12.39360000 84.94480000
-40.18800000 -0.79413000 81.31140000
-41.42870000 -1.08349000 81.60060000
-56.20830000 -0.80304000 86.35200000
-57.26680000 -0.61412000 86.47320000
-73.31460000 -16.29060000 86.14730000
-40.87540000 -1.70232000 81.48960000
-72.62420000 -17.71050000 86.28920000
-84.56230000 16.18770000 82.79070000
-75.11950000 -16.11080000 85.86300000
-44.89390000 -4.31189000 83.30490000
-47.48310000 -2.71604000 83.04160000
-81.48940000 12.00940000 84.37340000
-49.00670000 -2.12489000 83.09840000
-88.75920000 -3.64852000 82.12680000
-78.76340000 8.75414000 85.58100000
-77.81660000 7.18182000 86.10350000
-51.11510000 -2.79074000 83.65200000
-50.81050000 -3.73864000 83.48830000
-86.53100000 -5.65120000 82.84140000
-77.21680000 5.80331000 86.49670000
-46.06590000 -5.04250000 83.42710000
-80.00910000 9.11828000 85.00100000
-51.23180000 -5.03734000 84.46330000
-51.49460000 -5.72814000 84.98030000
-51.17310000 -7.17604000 85.13330000
-42.29310000 -25.25740000 82.77020000
-39.46170000 -21.93650000 83.40780000
-40.38710000 -21.19000000 83.61880000
-44.21510000 -25.31790000 82.54650000
-43.44560000 -25.65680000 82.43190000
-45.31610000 -24.96040000 82.86390000
-56.24850000 -6.76389000 85.80410000
-46.24990000 -24.16180000 83.11700000
-51.46470000 -8.56923000 85.26450000
-48.03120000 -24.52970000 83.27280000
-53.73160000 -7.72670000 85.62850000
-48.92680000 -24.46670000 83.35670000
-49.94670000 -25.22390000 83.40240000
-59.66420000 0.63653000 86.77580000
-47.19750000 -25.04320000 83.15230000
-62.28470000 0.72757000 86.80600000
-83.47940000 7.43014000 83.63590000
-63.91330000 0.68930000 86.97840000
-84.75500000 6.48771000 83.75890000
-83.22490000 6.33527000 84.17050000
-56.67000000 -24.45620000 84.67700000
-57.51210000 -24.37890000 84.60210000
-64.93380000 1.06911000 87.51880000
-83.91660000 6.47778000 83.98100000
-66.81930000 0.69153000 87.46800000
-83.38290000 4.13806000 84.79000000
-84.44840000 4.24327000 84.21170000
-70.66540000 0.96184000 87.73190000
-56.12640000 -25.25280000 84.73720000
-55.02070000 -26.04030000 84.91660000
-56.31960000 -26.63370000 84.98800000
-71.15560000 1.31165000 87.91740000
-74.70880000 4.30431000 86.98950000
-72.06750000 3.14569000 87.45840000
-72.80590000 3.66531000 87.22700000
-73.42010000 2.94644000 87.25130000
-76.01910000 5.17476000 86.79810000
-73.07570000 2.20914000 87.55100000
-72.75160000 1.53028000 87.78100000
-72.24520000 0.91129000 87.91570000
-87.21070000 11.23040000 82.09600000
-86.78140000 10.11000000 82.50150000
-87.33690000 9.59163000 82.08630000
-87.90750000 10.82820000 81.53780000
-86.52640000 8.80751000 82.72740000
-58.50680000 -24.35100000 84.67820000
-64.27210000 -2.07861000 85.07340000
-59.50030000 -25.53970000 85.07440000
-63.16190000 -2.68358000 85.04220000
-60.93360000 -27.91580000 86.22970000
-64.94920000 -2.32251000 85.09350000
-65.40630000 -2.71093000 85.20060000
-82.98400000 -42.14830000 83.74100000
-81.66860000 -41.66430000 84.12450000
-83.12620000 -40.54240000 83.79240000
-85.02390000 -39.06410000 83.28340000
-83.20730000 -38.98740000 83.75370000
-90.23790000 -34.62640000 81.83760000
-89.55280000 -33.81040000 82.32820000
-86.54120000 -36.55930000 82.93270000
-85.72470000 -37.47210000 83.03060000
-85.25070000 -36.30410000 83.25030000
-85.45570000 -33.94120000 83.65450000
-87.34950000 -35.09160000 82.99550000
-87.60050000 -36.91040000 82.55830000
-88.96380000 -35.66340000 82.27050000
-84.48930000 -36.99970000 83.36950000
-69.17170000 -28.54700000 87.66470000
-66.14570000 -4.20621000 85.77540000
-65.66910000 -3.44453000 85.37370000
-75.27060000 -46.96250000 84.90320000
-72.46860000 -45.87440000 85.19350000
-74.57310000 -44.97280000 85.08240000
-76.02100000 -45.56750000 84.92470000
-76.58020000 -44.49270000 84.87110000
-70.98230000 -3.22799000 86.51570000
-69.93830000 -3.83909000 86.56800000
-80.95260000 -40.45710000 84.24750000
-65.53720000 -29.35020000 87.42680000
-63.21570000 -29.02620000 87.02350000
-70.34230000 -46.90910000 85.22990000
-66.97620000 -48.64800000 85.02110000
-67.08980000 -47.20410000 85.15900000
-67.67290000 -46.23590000 85.21120000
-67.75030000 -4.94157000 86.39180000
-69.53660000 -4.53148000 86.57300000
-57.61060000 -48.00460000 83.92660000
-54.90420000 -46.36440000 83.43910000
-57.82300000 -46.45000000 83.95680000
-80.23030000 1.31926000 85.22710000
-73.24170000 -24.79710000 86.69840000
-83.61080000 2.62587000 84.72810000
-82.29070000 2.76364000 85.27360000
-71.92210000 -25.77290000 87.28490000
-53.90140000 -47.94180000 83.23510000
-71.89250000 -26.33190000 87.24290000
-79.08920000 0.44806000 85.47580000
-51.76010000 -46.87360000 82.72060000
-72.91960000 -25.96730000 86.79500000
-71.61140000 -3.09813000 86.59270000
-72.54430000 -3.82410000 87.06050000
-71.78170000 -4.56274000 86.82710000
-73.01130000 -4.00745000 87.19610000
-73.31780000 -4.61212000 87.13010000
-84.13880000 -26.18800000 84.32280000
-83.70380000 -27.05460000 84.39050000
-82.95480000 -24.95510000 84.30250000
-61.39000000 -34.13850000 85.65480000
-62.34040000 -37.26020000 85.45960000
-60.60750000 -35.82870000 85.42190000
-73.45770000 -33.51880000 86.05750000
-73.87760000 -31.58690000 86.40700000
-74.11320000 -32.58550000 86.07230000
-76.65610000 -31.43350000 85.18630000
-76.25790000 -32.66430000 85.06410000
-75.03560000 -31.60150000 85.86260000
-74.50850000 -31.68700000 86.13780000
-76.73330000 -30.14710000 85.34080000
-81.61740000 -27.23110000 84.47430000
-81.84800000 -29.19510000 84.33920000
-80.74340000 -26.66020000 84.75480000
-80.17610000 -28.47700000 84.84260000
-79.55990000 -29.64850000 84.93580000
-78.34490000 -28.81060000 85.00240000
-78.57020000 -30.58130000 84.93330000
-73.18470000 -51.15300000 84.62950000
-77.69890000 -30.64070000 85.03120000
-77.39770000 -28.58020000 85.21660000
-76.34740000 -28.46350000 85.58730000
-78.84130000 -27.28890000 84.88960000
-69.13850000 -51.91840000 84.44890000
-68.82310000 -49.70740000 84.89760000
-69.63970000 -34.66880000 86.28800000
-68.47960000 -35.14580000 86.07440000
-69.00850000 -33.89020000 86.56310000
-66.98900000 -33.65370000 86.48900000
-67.93670000 -34.58310000 86.15980000
-67.25110000 -35.36550000 85.84910000
-68.46100000 -51.60800000 84.57260000
-65.01900000 -35.84220000 85.61890000
-64.63910000 -34.42860000 85.87960000
-65.87780000 -34.80170000 85.91670000
-63.10610000 -34.86880000 85.66030000
-63.41660000 -33.86260000 85.89810000
-63.92420000 -51.76360000 84.36610000
-57.73260000 -36.98020000 84.52120000
-55.95830000 -36.02170000 84.23710000
-58.66170000 -34.29380000 85.29440000
-62.11930000 -51.49820000 84.34090000
-57.24390000 -52.75290000 83.31490000
-56.65930000 -52.54480000 83.18460000
-89.47590000 -39.48690000 81.14530000
-89.94560000 -40.56760000 80.96130000
-88.21560000 -40.05750000 81.90340000
-90.48530000 -39.63760000 80.56180000
-88.63090000 -39.11930000 81.60990000
-89.12040000 -38.36090000 81.35190000
-76.42750000 -48.28820000 84.65450000
-77.89040000 -48.82940000 84.29940000
-76.25710000 -49.55050000 84.55400000
-55.22760000 -34.87310000 84.15490000
-56.17280000 -34.10180000 84.59550000
-55.60460000 -30.23620000 84.80850000
-53.50520000 -34.44420000 83.45980000
-52.86120000 -32.13600000 83.51550000
-73.53970000 -49.92400000 84.81070000
-50.33630000 -33.46470000 82.39590000
-49.65060000 -32.22510000 82.58890000
-51.16040000 -32.53840000 82.80810000
-47.65340000 -33.46530000 81.96850000
-46.60170000 -32.64630000 81.92710000
-48.62840000 -32.56930000 82.39180000
-46.81290000 -33.81090000 81.73500000
-56.00810000 -52.41980000 82.91460000
-44.87320000 -33.10160000 81.35680000
-44.69250000 -31.28750000 81.45770000
-55.25100000 -52.11530000 82.77810000
-54.20840000 -51.89670000 82.71670000
-52.81090000 -51.93960000 82.55960000
-43.12410000 -31.41350000 81.45540000
-42.07850000 -32.69360000 81.45200000
-41.79400000 -30.03560000 81.79030000
-51.65100000 -52.07410000 82.34940000
-50.82260000 -52.26030000 82.10500000
-40.34010000 -33.13810000 81.37760000
-40.69630000 -31.16520000 81.70450000
-48.65280000 -52.35250000 81.49910000
-47.53530000 -51.45880000 81.56330000
-45.35220000 -51.88610000 80.86770000
-44.85820000 -50.33920000 80.99920000
-46.40210000 -50.59350000 81.42700000
-43.63850000 -51.04210000 80.59030000
-87.64270000 -22.34320000 82.91390000
-87.02650000 -22.24440000 83.05440000
-87.68850000 -21.66680000 82.93600000
-86.74540000 -48.35220000 81.74860000
-87.24270000 -23.18440000 83.08710000
-85.93710000 -22.39800000 83.28950000
-86.20900000 -24.05930000 83.58730000
-89.49910000 -21.19530000 82.20480000
-88.53590000 -22.27160000 82.62630000
-88.27000000 -21.11680000 82.77770000
-90.83340000 -19.38750000 81.25910000
-89.71020000 -20.07110000 82.04460000
-89.38830000 -18.60770000 82.21060000
-91.44800000 -18.55470000 80.73250000
-90.52890000 -17.94410000 81.46140000
-91.17790000 -16.28660000 80.99740000
-47.21320000 18.71660000 83.20050000
-49.42180000 18.76700000 83.64340000
-53.28410000 18.43010000 84.32160000
-56.50440000 18.39920000 84.82470000
-57.66520000 18.31700000 84.92130000
-76.17550000 22.99020000 85.12930000
-81.85380000 30.36990000 82.65190000
-85.22100000 -32.57980000 83.86130000
-86.92020000 -30.89700000 83.57120000
-83.44720000 -33.40610000 83.92300000
-82.73170000 -31.88800000 84.15330000
-84.07320000 -32.14620000 84.03290000
-87.41540000 -33.03920000 83.26140000
-88.05680000 -28.99590000 83.27460000
-88.62250000 -31.73250000 82.92400000
-85.35170000 -29.75810000 84.03090000
-88.10860000 -25.56410000 83.16810000
-89.23740000 -29.00330000 82.76710000
-75.81280000 -38.35180000 84.53410000
-73.10820000 -37.43490000 84.81760000
-74.01790000 -36.66490000 84.74890000
-72.76210000 -36.26320000 85.15250000
-72.09870000 -38.35720000 84.88710000
-71.69130000 -37.28290000 85.06430000
-70.48000000 -39.09350000 84.89710000
-70.95300000 -37.98020000 85.01390000
-69.80620000 -37.99330000 85.12060000
-68.20250000 -40.86750000 85.09800000
-65.79640000 -41.17860000 85.27460000
-67.14930000 -38.44510000 85.36810000
-64.17340000 -41.22140000 85.25270000
-61.82430000 -42.02980000 84.97530000
-62.67200000 -40.58660000 85.24980000
-60.41750000 -40.70590000 85.01070000
-58.26970000 -41.70080000 84.53190000
-82.16200000 -34.52740000 84.08190000
-81.93850000 -32.34050000 84.24820000
-80.97450000 -34.00440000 84.44830000
-81.19160000 -32.81000000 84.45250000
-74.20870000 -35.75280000 84.86090000
-75.67820000 -34.50950000 84.77000000
-75.15690000 -36.03770000 84.61010000
-76.15160000 -35.64810000 84.52510000
-71.66160000 20.03180000 86.17890000
-56.44360000 -42.46860000 84.10920000
-55.58150000 -40.14930000 84.04710000
-53.44820000 -42.10070000 83.51780000
-52.38310000 -40.79220000 83.33480000
-50.99690000 -40.44130000 82.92480000
-52.15460000 -39.18770000 83.04570000
-58.30420000 17.86500000 84.96150000
-48.40690000 -37.82210000 81.68670000
-48.64490000 -36.85120000 81.56450000
-49.77560000 -37.45590000 81.95640000
-47.30320000 -36.79790000 81.37370000
-49.54710000 -36.48730000 81.79110000
-59.77770000 17.75010000 85.45760000
-59.41510000 16.97130000 85.49140000
-47.02840000 -38.47960000 81.43810000
-46.25340000 -37.07270000 81.19300000
-45.48650000 -37.97290000 80.99600000
-45.05560000 -36.46390000 80.95920000
-44.31440000 -37.28860000 80.79050000
-44.16150000 -36.15350000 80.90290000
-43.73390000 -37.70950000 80.74980000
-43.41590000 -36.99730000 80.82470000
-43.08930000 -37.91300000 80.69950000
-59.33780000 15.78600000 85.82850000
-41.76970000 -37.16840000 80.66080000
-60.13470000 15.19220000 86.45010000
-61.29990000 15.34550000 86.83940000
-63.90260000 14.87500000 87.21720000
-67.73930000 18.08530000 86.60940000
-82.67410000 -37.93640000 83.85810000
-82.54310000 -36.88790000 83.91870000
-81.98440000 -38.57240000 83.93300000
-89.90130000 -32.19590000 82.32220000
-88.59650000 -34.07800000 82.70510000
-75.07540000 -43.38390000 85.01140000
-72.26350000 -43.94760000 85.13730000
-69.76280000 -45.56630000 85.25000000
-77.22950000 -42.63400000 84.77860000
-79.50430000 -42.31690000 84.47900000
-81.40350000 -39.45420000 84.10550000
-66.99690000 16.07680000 86.85980000
-66.42240000 -46.53640000 85.12360000
-65.15500000 -46.81150000 84.96500000
-64.26400000 -49.09880000 84.77510000
-61.65540000 -47.62080000 84.52880000
-64.24610000 -45.51490000 84.82320000
-67.15690000 -45.27250000 85.05910000
-60.61440000 -45.42140000 84.41320000
-58.86860000 -45.63700000 84.15830000
-52.75890000 -44.61190000 83.09380000
-47.68670000 -46.02190000 81.74040000
-85.04840000 -25.79480000 84.15440000
-84.04820000 -24.56170000 84.15080000
-85.05160000 -24.36230000 83.93050000
-85.88680000 -26.64170000 84.05710000
-59.47950000 -36.77620000 85.03590000
-71.69200000 -34.15530000 86.31220000
-72.48070000 -33.21400000 86.45760000
-75.65540000 -30.03970000 85.80240000
-80.06060000 -26.98870000 84.85230000
-71.22750000 -50.68580000 84.69080000
-77.64390000 -27.46680000 85.09370000
-67.12390000 -51.50540000 84.62210000
-82.28630000 -25.74600000 84.39180000
-82.19740000 -26.78260000 84.39640000
-81.48030000 -25.89170000 84.51410000
-65.14340000 -51.99890000 84.42550000
-81.96950000 -24.71240000 84.40400000
-62.93460000 -50.75580000 84.52200000
-64.42760000 -31.46920000 86.90160000
-62.49630000 -33.89510000 85.76520000
-59.66390000 -33.46160000 85.59890000
-57.38720000 -52.22330000 83.52380000
-56.34120000 -51.42520000 83.44310000
-83.75080000 -43.22840000 83.35060000
-83.73190000 -46.46900000 82.89460000
-81.84040000 -44.68570000 83.75280000
-86.58430000 -43.32300000 82.32260000
-85.03630000 -41.55360000 83.10560000
-87.92970000 -41.32380000 81.97400000
-87.68220000 -39.30280000 82.15870000
-86.73030000 -40.20590000 82.58990000
-88.33260000 -38.60470000 81.86050000
-74.39780000 -48.72180000 84.87080000
-77.62210000 -46.77010000 84.51730000
-79.60700000 -47.52940000 83.98670000
-79.17740000 -44.75940000 84.36620000
-81.25690000 -46.10160000 83.69980000
-52.13830000 -31.61520000 83.31810000
-50.41300000 -30.37740000 83.25780000
-48.85100000 -31.43070000 82.59090000
-47.81070000 -31.84840000 82.31920000
-47.89840000 -30.73180000 82.38390000
-46.24190000 -30.76300000 81.95380000
-51.45670000 -31.35270000 83.22840000
-49.56280000 -29.96260000 83.08860000
-53.32510000 -51.42850000 82.94170000
-52.48970000 -51.22620000 82.93200000
-51.17740000 -51.21990000 82.68800000
-44.92670000 -29.45040000 81.59170000
-50.61760000 -51.74610000 82.36010000
-49.80290000 -52.06020000 81.97620000
-49.27610000 -51.08820000 82.21930000
-43.65860000 -30.26300000 81.42690000
-43.82040000 -31.41680000 81.36300000
-44.22590000 -29.52500000 81.44780000
-86.37060000 -21.45250000 83.11770000
-87.55470000 -21.21040000 82.98370000
-88.42320000 -19.90380000 82.69730000
-87.64220000 -20.60860000 82.98030000
-90.97680000 -14.28140000 81.02510000
-86.92330000 -28.02570000 83.69480000
-71.58010000 -36.40420000 85.36710000
-70.59590000 -37.02040000 85.30830000
-65.63680000 -39.53500000 85.39310000
-64.29900000 -39.92560000 85.40060000
-63.80950000 -38.55040000 85.44660000
-69.48040000 -38.85870000 84.99410000
-68.43410000 -38.63710000 85.20080000
-68.11000000 -36.65140000 85.64160000
-69.62110000 -36.63820000 85.55720000
-60.71680000 -39.36390000 85.16990000
-58.59600000 -40.02580000 84.75840000
-77.37160000 -33.20640000 84.77350000
-81.55130000 -30.89900000 84.37170000
-73.72030000 -35.15520000 85.21980000
-74.64150000 -34.69020000 85.00790000
-54.89550000 -38.42940000 83.78320000
-51.36320000 -36.89330000 82.42840000
-48.27670000 -35.88560000 81.48300000
-49.01420000 -35.08440000 81.73890000
-46.17160000 -35.74950000 81.25890000
-47.18110000 -35.51740000 81.40400000
-43.01820000 -34.90670000 81.13330000
-90.58830000 -23.59180000 81.97010000
-92.44650000 -20.15850000 80.40000000
-92.00400000 -21.34730000 80.93870000
-92.39350000 -19.23850000 80.22000000
-82.84880000 31.13240000 82.29800000
-83.85320000 31.39910000 81.87950000
-83.76220000 -35.14410000 83.69360000
-83.19060000 -36.12790000 83.72400000
-85.59700000 -47.57110000 82.17830000
-89.56130000 -42.96760000 81.06500000
-88.20420000 -44.59630000 81.54900000
-88.95660000 -46.06630000 81.07250000
-91.69920000 -39.98180000 79.85850000
-69.88180000 -43.92940000 85.11160000
-88.98270000 39.60890000 78.83390000
-78.31150000 -40.70300000 84.60310000
-74.78810000 -40.56640000 84.82540000
-80.05860000 -39.70590000 84.30680000
-78.91550000 -39.76660000 84.44040000
-80.84890000 -38.47300000 83.97780000
-81.49790000 -37.24070000 84.03670000
-79.31150000 -38.90530000 84.18200000
-65.64670000 -44.10360000 84.97060000
-56.22270000 -44.72370000 83.82230000
-66.46030000 -50.56130000 84.75690000
-60.61170000 -51.75890000 84.10650000
-58.94550000 -50.89270000 84.00120000
-83.23650000 -23.90490000 84.13090000
-57.15020000 -50.03470000 83.79050000
-72.92710000 -31.98350000 86.62360000
-71.91360000 -32.25590000 86.82910000
-70.01080000 -32.47600000 87.01540000
-74.68230000 -30.61140000 86.16050000
-77.93500000 -25.40810000 84.89710000
-89.17480000 -37.45190000 81.61390000
-80.41660000 -25.42340000 84.73960000
-82.34090000 -23.42830000 84.19890000
-81.03950000 -24.39040000 84.58950000
-79.02490000 -25.60480000 84.77780000
-69.01310000 -32.63260000 87.01170000
-66.78430000 -32.41880000 86.94040000
-62.83900000 -33.00120000 86.05350000
-61.89210000 -33.08300000 85.85810000
-57.48500000 -33.02320000 85.10740000
-56.56580000 -32.15910000 84.93630000
-53.95280000 -51.20590000 83.11820000
-54.81930000 -51.11770000 83.21550000
-52.86290000 -50.78300000 83.12390000
-48.10990000 -50.28530000 82.05840000
-47.37480000 -49.67220000 81.86840000
-46.20610000 -49.13580000 81.44370000
-48.76540000 -30.51190000 82.69650000
-48.14930000 -29.48280000 82.55510000
-47.26040000 -29.53050000 82.27680000
-46.34220000 -29.21960000 82.10300000
-42.78050000 -29.65790000 81.64540000
-44.40910000 -28.47560000 81.58720000
-44.74000000 28.06630000 83.20260000
-84.16270000 -22.90110000 83.77660000
-84.99300000 -21.61610000 83.34410000
-85.13060000 -20.29410000 83.18110000
-87.03510000 -19.85350000 83.06570000
-90.28380000 -15.48700000 81.64060000
-89.60470000 -16.84100000 82.09360000
-52.11730000 25.33320000 84.93070000
-53.84980000 24.34930000 85.35760000
-83.05610000 -30.09690000 84.21690000
-85.29670000 -27.61580000 84.16640000
-89.45070000 -24.90270000 82.59090000
-66.01040000 -37.63440000 85.52930000
-59.36450000 -38.95330000 84.93180000
-57.23420000 -38.98660000 84.46630000
-77.54140000 -35.97080000 84.46460000
-78.75180000 -32.97860000 84.79340000
-79.29570000 -35.05740000 84.46490000
-79.99640000 -32.72030000 84.72250000
-80.12150000 -34.56450000 84.51720000
-80.58160000 -31.77410000 84.68710000
-70.00490000 28.10840000 85.90450000
-67.58300000 26.45310000 86.36650000
-57.62920000 -37.86920000 84.48390000
-54.50480000 -37.17050000 83.67830000
-56.22680000 -37.17430000 84.15530000
-53.02570000 -37.65670000 83.17020000
-53.25580000 -36.54850000 83.20950000
-50.60420000 -35.44440000 82.14880000
-47.85010000 -34.95710000 81.52680000
-44.22790000 -34.34710000 81.13850000
-65.67460000 26.44270000 86.49580000
-64.02570000 25.48060000 86.64290000
-65.55170000 25.46090000 86.67980000
-64.67990000 24.52150000 86.85160000
-91.04340000 -22.46880000 81.62580000
-91.77880000 -21.86510000 81.17460000
-90.97650000 -21.59030000 81.56570000
-91.63950000 -19.91050000 80.78330000
-84.64320000 -34.53620000 83.64090000
-89.88040000 -30.49420000 82.44330000
-77.02290000 -39.84900000 84.63830000
-78.17380000 -39.68710000 84.52630000
-43.82560000 -14.59630000 84.08920000
-79.76760000 -37.75700000 83.99550000
-78.63340000 -38.10690000 84.13110000
-61.38330000 -50.31340000 84.41200000
-68.27260000 -43.07890000 85.07030000
-62.78240000 -43.54490000 84.85170000
-59.32380000 -43.80550000 84.43880000
-86.73460000 -39.24190000 82.62880000
-87.66670000 -38.19470000 82.31990000
-88.38240000 -37.18270000 82.17930000
-80.52740000 -37.40160000 83.97080000
-79.42510000 -36.78960000 84.05460000
-44.15970000 -15.94300000 84.08740000
-73.26050000 -30.03070000 86.71140000
-75.44200000 -27.11510000 85.79010000
-77.38080000 -26.39540000 85.11610000
-72.40320000 -49.01770000 84.97280000
-71.67350000 -48.11750000 85.07580000
-79.58000000 -23.85310000 84.74250000
-81.47750000 -43.31150000 83.99860000
-74.96010000 -28.69840000 86.11050000
-68.37000000 -31.90350000 87.21020000
-61.81280000 -31.81700000 86.17430000
-53.91920000 -50.56190000 83.26740000
-54.78180000 -49.77430000 83.40610000
-60.99170000 -32.39820000 85.84760000
-51.64120000 -50.61000000 82.96980000
-50.75280000 -50.33300000 82.78610000
-49.77420000 -13.17510000 83.89160000
-50.00610000 -50.33380000 82.59630000
-52.63840000 -12.29860000 84.31550000
-52.60770000 -12.88190000 84.30890000
-52.40230000 -30.54340000 83.57650000
-45.88190000 -27.99140000 82.10710000
-44.94090000 -27.99390000 81.77000000
-54.24740000 -12.88260000 84.79230000
-53.35520000 -14.18060000 84.71910000
-43.62600000 -28.44240000 81.61880000
-54.75160000 -13.52070000 84.86590000
-40.46190000 -29.64170000 81.95050000
-56.72950000 -13.55830000 85.13390000
-46.39680000 -14.30120000 83.89830000
-83.76240000 -21.05570000 83.51300000
-87.65450000 -18.17410000 82.90600000
-86.17880000 -18.66910000 83.16640000
-84.06570000 -19.54450000 83.31770000
-84.92800000 -19.15210000 83.16590000
-91.12110000 -13.13610000 80.88320000
-88.56140000 -17.40020000 82.64290000
-82.75440000 -22.22860000 83.92660000
-82.47390000 -21.09450000 83.83690000
-88.57590000 4.11893000 80.99810000
-84.75850000 -29.05100000 84.22200000
-84.03860000 -29.07140000 84.30750000
-86.85780000 -26.43600000 83.73650000
-67.33830000 -36.39750000 85.63730000
-60.07890000 -38.07010000 85.07580000
-76.50910000 -9.34347000 85.78980000
-79.68110000 -31.13750000 84.87850000
-80.28670000 -30.75740000 84.77310000
-83.08130000 -4.22975000 84.24800000
-77.25400000 -31.97490000 84.94510000
-78.03390000 -31.75950000 84.89470000
-75.36460000 -33.39710000 85.16190000
-74.24640000 -33.65640000 85.58130000
-80.30430000 35.51140000 83.16330000
-82.00290000 -47.89180000 83.28930000
-54.61040000 -36.05730000 83.77790000
-52.26210000 -35.81180000 82.78350000
-41.32990000 -34.74720000 81.13020000
-40.35510000 -36.18840000 80.73070000
-51.61530000 -34.57550000 82.61320000
-50.28720000 -34.58560000 82.14840000
-49.40750000 -33.91210000 82.11650000
-48.40530000 -34.31530000 81.77090000
-47.55100000 -34.29650000 81.63410000
-46.87120000 -34.69730000 81.51700000
-45.93830000 -34.18000000 81.49730000
-44.99630000 -34.32950000 81.23280000
-90.13270000 -21.89350000 81.99950000
-90.71810000 -20.61380000 81.49150000
-88.92660000 -23.54820000 82.62200000
-40.12710000 10.55550000 81.67030000
-42.14340000 11.28130000 81.83700000
-59.17370000 -12.86500000 85.09900000
-42.89380000 12.18000000 81.85940000
-43.36160000 12.39440000 81.99030000
-43.18010000 11.22990000 82.10120000
-44.50410000 10.88360000 82.71570000
-66.76100000 -9.87809000 85.25720000
-66.85940000 -10.94220000 85.41770000
-46.55080000 10.58610000 83.07210000
-48.36740000 12.09260000 82.90120000
-68.76650000 -13.18880000 86.71370000
-69.58920000 -13.54500000 86.91970000
-49.48940000 11.37850000 83.28670000
-48.33120000 11.31210000 83.05950000
-49.03170000 10.41230000 83.51840000
-47.34620000 10.41690000 83.21620000
-74.71090000 -9.99746000 85.90320000
-62.53610000 -49.64940000 84.60610000
-48.14010000 9.51792000 83.58500000
-47.33530000 9.57850000 83.42320000
-48.80640000 9.20856000 83.88510000
-86.33120000 -38.47940000 82.84290000
-77.68550000 -38.83630000 84.35870000
-48.07090000 8.61207000 83.70970000
-76.19850000 -39.10260000 84.56630000
-77.22270000 -37.73440000 84.34790000
-70.62300000 -40.98220000 85.00050000
-49.94420000 10.10120000 83.96880000
-49.65890000 8.95306000 84.23360000
-66.84490000 -42.26250000 85.10410000
-64.79620000 -42.42990000 85.07900000
-50.11910000 8.10606000 84.54620000
-71.03570000 -32.17660000 86.98910000
-71.09000000 -30.81580000 87.19720000
-80.53140000 -36.15150000 84.22140000
-80.34940000 -23.19550000 84.62380000
-76.97020000 -25.47950000 85.12080000
-81.86230000 -36.07550000 84.12840000
-77.51510000 -24.39840000 85.00520000
-79.04000000 -23.31300000 84.83540000
-52.28220000 -50.21240000 83.07670000
-51.61410000 -50.09700000 82.99980000
-51.07370000 -50.05820000 82.88840000
-50.32430000 -49.54630000 82.58780000
-51.03980000 -49.31740000 82.72560000
-51.82340000 -49.06870000 82.84970000
-49.64160000 -49.65760000 82.46790000
-49.14420000 -49.93430000 82.44200000
-62.97270000 -31.68370000 86.52940000
-48.99840000 -49.40160000 82.40140000
-60.13830000 -32.30010000 85.72000000
-48.45880000 -49.41940000 82.23000000
-58.36850000 -31.99560000 85.46840000
-56.60270000 -30.14880000 85.06680000
-54.67810000 6.35758000 85.99560000
-50.24180000 -42.14450000 82.67090000
-50.13790000 -47.73490000 82.37250000
-49.09020000 -48.88910000 82.26680000
-47.80380000 -48.84330000 81.91130000
-47.39540000 -47.82370000 81.70830000
-52.85580000 -29.85970000 83.78960000
-56.95050000 5.79673000 86.35950000
-55.76220000 5.55459000 86.17960000
-51.52370000 -30.31430000 83.53110000
-49.26870000 -28.71590000 83.05570000
-46.81960000 -28.16230000 82.39050000
-42.40900000 -28.41710000 81.92770000
-41.18750000 -27.96850000 82.22480000
-44.17070000 -26.95400000 81.94730000
-45.17790000 -27.16070000 82.03220000
-84.62630000 23.70630000 81.69900000
-81.84730000 20.68400000 82.93060000
-82.68830000 -19.76810000 83.70160000
-84.52530000 -17.75970000 83.23830000
-90.88080000 -12.61710000 81.25800000
-88.42790000 -16.28740000 82.69680000
-89.12860000 -15.37400000 82.41300000
-89.97230000 -14.29010000 81.96580000
-90.62770000 -13.51890000 81.44010000
-80.99710000 20.34050000 83.41210000
-81.46230000 -22.25060000 84.30980000
-81.38270000 -21.00830000 84.23560000
-60.45100000 7.19615000 86.54130000
-62.93780000 7.73905000 86.80250000
-61.59420000 6.96582000 86.68560000
-62.47850000 6.69501000 86.88160000
-63.69390000 7.63669000 86.85440000
-65.38670000 7.82220000 86.46300000
-67.78500000 10.25160000 85.95560000
-67.21250000 9.56975000 85.84200000
-84.41460000 -28.13660000 84.32080000
-71.91550000 10.43220000 86.15080000
-61.10360000 -37.55010000 85.28380000
-69.57060000 9.60286000 86.19180000
-78.24080000 15.11400000 85.05000000
-75.29740000 15.04480000 85.23590000
-74.54170000 14.64860000 85.32840000
-75.68520000 13.77570000 85.26720000
-75.50330000 12.97150000 85.53740000
-39.72410000 -34.67970000 80.98480000
-79.87420000 15.27570000 84.88330000
-74.35440000 11.75780000 86.10330000
-42.14870000 -20.13680000 83.12510000
-42.80970000 -19.35770000 82.80780000
-46.75480000 -19.62490000 83.48890000
-48.16300000 -20.37630000 83.94910000
-45.76540000 4.86264000 82.45750000
-63.56230000 6.70942000 86.93860000
-57.42570000 -20.69060000 85.22760000
-54.57650000 -21.52690000 85.12880000
-46.77270000 3.76479000 82.89870000
-84.31930000 -13.40140000 83.00810000
-53.63710000 1.87156000 85.01500000
-54.07960000 0.89610000 85.21860000
-83.04820000 -14.84810000 83.40630000
-82.54810000 -15.55820000 83.66480000
-83.57640000 -16.06930000 83.36290000
-82.71480000 -17.20950000 83.69970000
-54.07910000 -0.63351000 85.47120000
-55.04730000 -1.76878000 86.10200000
-75.17710000 -22.62830000 85.70230000
-86.86250000 -37.64240000 82.70360000
-43.80390000 -4.53700000 82.84050000
-85.34600000 16.55370000 82.37180000
-73.25740000 -27.97970000 86.75510000
-44.44400000 -5.56981000 83.31200000
-45.35220000 -5.09634000 83.48230000
-76.12960000 -24.88040000 85.40180000
-77.72940000 -22.87370000 85.04870000
-84.63290000 15.43340000 82.70680000
-69.53370000 -31.71090000 87.25690000
-48.44210000 -3.24658000 82.93790000
-83.92230000 14.16080000 82.97870000
-67.62400000 -31.31350000 87.30520000
-75.02550000 -38.80590000 84.62360000
-65.75560000 -31.29290000 87.12540000
-73.87590000 -38.83980000 84.73230000
-72.27230000 -39.49860000 84.83290000
-59.07970000 -31.16090000 85.62250000
-60.16470000 -30.85190000 85.85690000
-57.93610000 -29.50980000 85.38730000
-49.51470000 -2.94810000 83.02280000
-50.20360000 -3.26320000 83.16310000
-79.42830000 -36.26000000 84.15780000
-78.38550000 -36.24680000 84.31170000
-84.57010000 -8.49834000 83.37400000
-83.55660000 -9.25271000 83.61100000
-52.16320000 -29.48990000 83.69670000
-51.22620000 -29.49130000 83.59260000
-52.42280000 -28.29490000 83.85020000
-81.38710000 10.73800000 84.30330000
-50.76260000 -28.86830000 83.53890000
-45.27830000 -6.25185000 83.55810000
-48.62760000 -27.71870000 82.96560000
-50.67090000 -4.78090000 83.71040000
-43.39560000 -27.16390000 81.92670000
-79.70090000 7.51183000 85.33500000
-50.67340000 -6.56511000 84.67670000
-50.42250000 -5.80724000 84.04450000
-63.63290000 -18.87130000 85.35120000
-64.18050000 -19.17680000 85.60650000
-90.91140000 -9.09770000 81.20250000
-90.65660000 -9.94000000 81.64910000
-78.67490000 6.06365000 86.04150000
-47.32540000 -40.63920000 81.88490000
-90.12380000 -11.90190000 82.19860000
-85.29530000 -13.83580000 83.08600000
-85.02630000 -14.90220000 83.12460000
-86.17950000 -16.93440000 83.15640000
-89.08160000 -14.24280000 82.59310000
-88.06250000 -14.49760000 82.95380000
-88.25770000 -15.42200000 82.80220000
-90.26520000 -12.91010000 81.95860000
-90.78860000 -11.74820000 81.50330000
-55.86030000 -7.98359000 85.58870000
-89.60070000 -12.63150000 82.53750000
-67.06540000 -20.37470000 86.96870000
-65.03530000 -21.05750000 86.41020000
-65.56920000 -21.30500000 86.81090000
-48.36390000 18.21610000 83.27340000
-66.81660000 -21.04300000 87.07140000
-66.37490000 -22.02980000 87.27450000
-71.31630000 -20.24590000 86.65510000
-51.14110000 18.22240000 83.72650000
-52.43580000 17.81680000 83.92400000
-63.70450000 0.03992000 86.34880000
-53.53080000 17.65110000 84.15990000
-65.13230000 0.66840000 87.23190000
-54.35540000 17.91660000 84.34880000
-55.22940000 18.15910000 84.52320000
-66.29570000 0.43204000 87.25910000
-55.33420000 17.46300000 84.36820000
-67.82970000 0.25501000 87.33550000
-56.21960000 17.57920000 84.51700000
-57.18860000 17.90550000 84.72240000
-75.82480000 -15.58740000 85.74920000
-59.12650000 17.64610000 85.16670000
-82.13920000 -10.54080000 84.13380000
-59.83290000 -0.61426000 86.43530000
-81.81270000 -11.09350000 84.21840000
-61.17760000 0.13860000 86.54750000
-79.59260000 -13.84680000 85.11650000
-73.61090000 3.44933000 87.16060000
-66.26540000 -36.16090000 85.58320000
-77.22320000 4.56914000 86.57100000
-73.51890000 -17.33570000 86.08070000
-71.85330000 -18.67760000 86.47470000
-74.26750000 1.18338000 87.44290000
-71.55510000 0.65040000 87.85560000
-86.02560000 6.88183000 83.10110000
-73.58750000 0.35348000 87.71530000
-73.15190000 19.82140000 85.89280000
-74.94430000 20.51330000 85.45580000
-43.84230000 -32.69680000 81.27780000
-62.15810000 -3.54684000 85.00380000
-61.22480000 -4.11924000 85.13390000
-64.05840000 -3.00457000 84.85290000
-89.67830000 -2.99398000 81.67890000
-59.45540000 -5.19901000 85.42240000
-88.52330000 -4.54677000 82.09990000
-88.28230000 -5.20375000 82.18260000
-87.62720000 -5.73033000 82.51900000
-59.59400000 14.40580000 86.33400000
-62.32930000 14.34140000 87.08120000
-63.40060000 13.70080000 87.11570000
-64.40400000 14.10950000 87.12280000
-85.99960000 -6.25800000 83.04550000
-64.98920000 14.69680000 87.14620000
-70.43960000 -4.22903000 86.51460000
-65.52950000 -4.33123000 85.25620000
-68.95790000 17.63630000 86.45350000
-68.04270000 16.69540000 86.59140000
-86.29090000 -7.27703000 83.27000000
-86.95080000 -7.24501000 83.30010000
-86.61220000 -8.00404000 83.53230000
-66.41030000 -5.11174000 85.80480000
-67.16600000 -5.27734000 86.18600000
-70.34000000 18.76640000 86.30020000
-40.78200000 -26.61870000 82.58400000
-68.64780000 -5.09699000 86.51100000
-72.00030000 19.34620000 86.10860000
-71.39900000 18.60190000 86.26060000
-44.97350000 -25.98480000 82.42330000
-70.75090000 17.53800000 86.33930000
-82.71930000 1.97605000 85.00100000
-41.40350000 -21.05840000 83.42560000
-67.80060000 15.61980000 86.62660000
-49.85480000 -21.29920000 84.34280000
-48.64600000 -25.60570000 83.10370000
-52.96260000 -20.82740000 84.93130000
-60.20990000 14.17190000 86.61510000
-71.35840000 -4.04329000 86.58890000
-62.11690000 12.82790000 86.98010000
-52.82870000 -27.04270000 84.12550000
