9.63340000 0.59049100 0.84723000
9.54766000 0.08083900 1.09252000
9.54090000 0.02706970 0.54813000
9.59448000 0.76407800 -0.11673800
9.56857000 0.46808700 0.00130601
9.55410000 0.66201100 -0.33922100
-2.48449000 2.02134000 4.82170000
-1.96993000 2.01665000 4.73772000
-2.55082000 2.25393000 4.76122000
-4.51688000 2.20332000 5.30478000
-3.85839000 2.01567000 5.16259000
-3.90136000 2.19948000 5.12050000
0.95033600 -2.01206000 4.37066000
1.39953000 -1.82622000 4.48775000
1.10326000 -1.66907000 4.48890000
1.28359000 2.74806000 -6.53428000
0.71779900 2.72632000 -6.58930000
0.80595200 2.96449000 -6.51141000
8.78024000 -0.20680400 3.92496000
8.84852000 -0.39330700 3.69965000
8.91779000 0.17416200 3.85462000
8.61205000 0.68057100 4.50970000
8.56202000 0.34730700 4.47303000
8.67249000 0.33907400 4.31952000
-3.09002000 -2.87500000 -3.01740000
-4.17791000 -2.90519000 -3.16697000
-3.34654000 -2.95382000 -3.57351000
0.66982700 -2.75294000 -1.60758000
0.75914000 -2.78295000 -2.10372000
1.16265000 -2.75468000 -1.48574000
-9.12721000 3.10457000 1.22954000
-9.07920000 3.07666000 1.26992000
-9.05260000 3.11877000 1.20025000
-8.94713000 2.96344000 1.46578000
-9.01849000 3.01259000 1.48307000
-8.96177000 3.04048000 1.52176000
9.07465000 2.31463000 3.84382000
9.12588000 2.06850000 3.83549000
9.05033000 2.92741000 3.60615000
9.10946000 2.73195000 3.61006000
9.17573000 2.88935000 3.34707000
-3.00504000 2.58762000 -6.36122000
-3.70560000 2.57221000 -6.16934000
0.30515900 2.15158000 4.55407000
-0.13130300 2.26236000 4.48417000
-0.12589500 2.12011000 4.53338000
-0.82649800 1.56008000 4.67334000
-0.93315900 1.35847000 4.71491000
-0.66072600 1.25586000 4.70705000
8.23414000 2.43456000 4.88886000
8.09194000 2.42191000 5.00477000
8.11292000 2.29583000 5.01448000
-5.52267000 -2.69293000 0.77104400
-6.00379000 -2.71399000 0.71477000
-5.84587000 -2.71954000 0.20748000
-3.80708000 -2.77942000 -2.02573000
-3.67705000 -2.81917000 -2.43009000
-3.46369000 -2.78648000 -2.01873000
-9.32674000 -0.28175600 -1.38826000
-9.45813000 -0.09343950 -1.13488000
-9.89276000 1.40112000 -0.31618900
-9.78742000 1.29842000 -0.79475400
-9.79687000 0.77423000 -0.50472700
-6.55492000 2.89446000 -4.77829000
-7.20191000 2.82936000 -4.32357000
-7.30333000 2.62527000 -4.28833000
-7.54618000 2.66613000 -4.06592000
-0.08486260 2.13100000 -6.40453000
-0.13015000 2.10801000 -6.43762000
-0.15852800 2.16981000 -6.43636000
-1.30261000 2.35807000 -6.68449000
-1.67732000 2.26344000 -6.65567000
-1.43158000 2.56036000 -6.63946000
-1.10908000 1.61891000 -6.76276000
-1.32112000 1.33321000 -6.75280000
-1.56429000 1.70709000 -6.72255000
-9.57889000 0.86003500 3.30474000
-9.66832000 1.09197000 3.06788000
-9.62708000 0.71090100 3.16993000
-9.01363000 0.42143800 4.30598000
-9.20683000 0.35813800 3.97057000
-9.09911000 0.00352177 4.04045000
7.49026000 -2.89801000 -2.44995000
7.17000000 -2.90318000 -2.55423000
7.27429000 -2.91321000 -2.76202000
-1.29655000 1.56904000 4.72131000
-1.08939000 1.20865000 4.74985000
-9.81378000 2.66347000 2.27067000
-9.73605000 2.96665000 2.40416000
-9.80617000 2.92699000 2.10968000
-5.17665000 -2.73589000 4.97220000
-5.32939000 -2.75697000 4.95394000
-4.99666000 -2.77550000 4.89352000
-8.42189000 -2.87797000 3.23328000
0.70645800 1.55252000 4.75351000
0.41771100 1.18057000 4.76460000
-0.20027300 1.61315000 4.65060000
0.05168600 1.14566000 4.72815000
0.02111790 1.60048000 4.66738000
-6.37034000 -0.00153122 -4.90433000
-6.06990000 -0.37139700 -5.01268000
-6.45464000 -0.34888200 -4.78046000
-3.97511000 0.17668400 -6.06909000
-3.36230000 0.03052270 -6.25634000
-4.19105000 -0.28671200 -5.89188000
-4.83792000 0.77499600 -5.84459000
-5.07513000 0.81416900 -5.75101000
-4.92381000 1.07924000 -5.81882000
-5.12348000 0.58207800 -5.70978000
-4.88733000 0.57401300 -5.80982000
-4.85799000 0.30282000 -5.77317000
9.57430000 2.84131000 2.10459000
9.61219000 2.61111000 2.08900000
9.61905000 2.82173000 1.84304000
9.67441000 2.75783000 0.98099300
9.63395000 2.97165000 1.00203000
9.67589000 2.73879000 1.31510000
9.57892000 3.14528000 0.65722800
9.61744000 2.93922000 0.55702500
9.53926000 3.14058000 0.25341700
9.49180000 2.87682000 -0.37020400
9.44490000 3.06034000 -0.40005500
9.52668000 3.02077000 -0.06157860
8.72544000 -0.46796800 3.88305000
8.72176000 -0.82833500 3.69015000
-1.31550000 -2.19423000 4.40167000
-1.60201000 -2.44465000 4.35591000
-1.26018000 -2.43665000 4.31143000
-2.81126000 -2.64926000 4.54450000
-3.01583000 -2.48579000 4.64302000
-3.40910000 -2.58794000 4.69901000
9.59581000 2.94223000 1.83004000
9.63839000 2.81287000 1.70645000
9.61747000 2.95293000 1.60496000
6.39198000 2.68132000 -4.74345000
6.32209000 2.94492000 -4.70797000
-8.85643000 -2.94666000 -0.10767100
-8.83879000 -2.93895000 0.28878300
-9.02255000 -2.94924000 -0.00345100
9.50217000 1.01402000 2.74341000
9.54956000 0.91180600 2.40979000
9.54308000 1.07144000 2.47974000
9.67942000 2.07066000 1.66969000
9.68385000 1.75928000 1.78437000
9.69660000 1.88253000 1.60864000
-9.43265000 -0.84071100 2.90946000
-9.44412000 -0.50450300 3.10753000
-9.52810000 -0.47896200 2.85512000
-9.17025000 -0.00410360 3.91845000
-9.44368000 0.54475900 3.56842000
-8.98241000 1.24208000 4.36620000
-9.07990000 1.12885000 4.24359000
-8.95827000 0.86536600 4.41687000
-8.75656000 0.76320200 4.64846000
-8.74712000 1.04380000 4.64873000
-8.86114000 0.98679200 4.52707000
9.14905000 3.34801000 1.75914000
8.94851000 3.34803000 2.63586000
9.24108000 3.38040000 2.12907000
-9.77922000 2.11865000 2.61649000
-9.83514000 2.27113000 2.33963000
-9.82229000 1.77140000 2.52341000
-9.75140000 2.61118000 2.53788000
-8.56346000 2.82081000 4.45925000
-8.36447000 2.61547000 4.69522000
-8.84520000 2.92197000 4.14420000
-8.94977000 2.76866000 4.07847000
-8.78745000 2.73108000 4.28238000
-9.85992000 1.74478000 2.35862000
-9.87361000 0.63626900 2.04074000
8.56908000 -2.58602000 2.41387000
8.58475000 -2.56403000 2.68206000
8.53521000 -2.56957000 2.68925000
9.10329000 3.02363000 -1.42323000
9.08321000 2.87488000 -1.56033000
8.98242000 2.92775000 -1.74375000
9.36811000 2.92510000 -0.79257300
9.31074000 3.06424000 -0.85011500
9.37094000 3.09803000 -0.62980600
-1.34477000 2.59227000 4.41464000
-0.79634900 -2.23202000 4.31324000
-0.89271800 -1.98376000 4.39888000
-8.04726000 3.02523000 4.23675000
-8.61263000 3.10075000 3.75062000
-8.12579000 3.02752000 4.28646000
-7.62412000 2.97925000 4.41143000
-7.61868000 2.71890000 5.11685000
-7.83689000 2.78520000 4.97447000
-7.75393000 2.68725000 5.06538000
-8.93760000 -2.94297000 -0.34845900
-1.98632000 -3.12360000 -4.94759000
-1.97856000 -3.15243000 -5.24947000
-1.63352000 -3.15617000 -5.29544000
-0.15182000 -3.12198000 -4.99399000
-0.70933000 -3.16065000 -5.44066000
-0.18853100 -3.14763000 -5.30057000
4.20420000 -1.07389000 -5.60200000
3.66812000 -2.23013000 -5.47395000
3.75205000 -2.74690000 -5.28911000
9.47450000 1.10715000 2.90857000
9.48000000 1.98122000 2.85367000
9.50946000 2.15050000 2.66722000
9.48018000 2.12575000 2.83448000
-9.42463000 2.65460000 -1.62709000
-5.73203000 0.02937500 5.69372000
-6.51313000 -0.07133780 5.67653000
5.38595000 0.94787500 -5.48016000
5.50771000 1.38751000 -5.42351000
5.25283000 0.47711700 -5.48371000
5.92352000 0.57917500 -5.11793000
5.89813000 0.26705600 -5.07839000
8.76137000 -1.53474000 -1.52427000
8.65931000 -2.04510000 -1.40622000
8.55174000 -2.07750000 -1.62834000
-7.05329000 -0.42762400 5.54106000
-7.30138000 -0.32092700 5.50124000
-7.13550000 -0.75940900 5.45083000
-6.73712000 0.23142000 5.68142000
-6.94566000 0.23838200 5.65188000
-6.83944000 -0.01120280 5.64850000
-8.48596000 0.66531000 -3.15685000
-8.46058000 -0.04216140 -2.98724000
-8.71525000 0.69752500 -2.87506000
-8.83324000 -0.32822800 -2.36989000
-8.76271000 -0.62207000 -2.39543000
-8.90518000 -0.62861400 -2.15315000
8.31324000 3.17417000 -1.26700000
7.58292000 3.07069000 -1.89590000
7.51840000 3.02417000 -0.89699700
6.33563000 3.03432000 -3.78650000
6.55200000 3.00883000 -3.15094000
7.04810000 3.06544000 -3.04560000
-8.20597000 3.00396000 2.08401000
-8.11544000 2.98997000 2.07708000
-8.08392000 2.97586000 2.01620000
-9.85405000 1.25318000 2.43506000
-9.88243000 1.23605000 2.27228000
-9.84512000 0.91298900 2.38888000
-9.67740000 0.73464300 3.02098000
-9.78398000 1.14460000 2.70992000
-9.73912000 0.70371000 2.80557000
8.72187000 1.50140000 -2.46452000
8.74015000 2.21303000 -2.40291000
8.86764000 1.55314000 -2.21579000
8.83583000 0.83938200 -2.26833000
8.40684000 1.35015000 4.82668000
8.48051000 1.10922000 4.73675000
8.71001000 1.52352000 4.49532000
7.56438000 0.89144600 5.39894000
7.72993000 0.81665500 5.30035000
7.77683000 1.01831000 5.29524000
-3.60159000 2.64671000 4.79787000
-3.68123000 2.66411000 4.77940000
-3.87787000 2.66547000 4.86425000
-2.68597000 2.62135000 4.59817000
-2.77412000 2.60993000 4.63974000
-1.99463000 2.59925000 4.50177000
-4.11025000 2.85379000 -3.34218000
-3.94883000 2.76927000 -2.69210000
-3.31785000 2.76175000 -2.93180000
-3.90947000 -2.13305000 4.96793000
-4.17433000 -2.37181000 4.94267000
-3.72614000 -2.44488000 4.82473000
1.22459000 -2.61154000 4.19084000
1.52114000 -2.64104000 4.19174000
0.79078600 -2.65509000 4.11276000
0.27069100 -2.65391000 4.11893000
0.26943900 -2.68036000 4.08909000
-5.99643000 -2.71234000 1.75157000
-6.00676000 -2.70862000 1.43080000
-5.64314000 -2.69795000 1.39790000
-6.43349000 -2.73701000 1.65361000
-6.93375000 -2.76400000 1.77930000
-6.72416000 -2.75357000 1.24551000
3.79252000 -3.09549000 -4.92930000
3.26694000 -3.10468000 -5.09947000
3.44737000 -3.08437000 -5.17642000
4.90542000 -3.03663000 -4.42113000
4.83554000 -3.03306000 -4.51362000
4.96372000 -3.01672000 -4.49499000
5.70178000 -0.25413400 -5.08335000
6.80333000 -0.92294200 -4.14820000
6.44628000 -0.59000200 -4.52432000
4.69647000 3.03710000 -5.52477000
4.35725000 3.03159000 -5.68191000
4.32232000 3.04814000 -5.64823000
-9.81993000 1.36360000 2.51885000
-9.86192000 1.35570000 2.40571000
-9.73461000 1.08285000 2.86683000
9.04421000 -2.08705000 1.56097000
9.13476000 -1.64367000 1.66561000
9.36293000 2.32626000 -0.96718600
9.38203000 1.25348000 -1.10516000
9.26657000 2.15491000 -1.29593000
9.23998000 3.06019000 -1.05312000
9.26607000 2.90680000 -1.09463000
4.40982000 1.31793000 -5.94460000
4.03425000 0.73703800 -6.05219000
4.05131000 1.31285000 -6.07028000
2.14524000 1.27130000 -6.55882000
1.89327000 1.33812000 -6.59866000
7.35747000 -2.47684000 -3.16233000
7.20882000 -2.51253000 -3.29868000
7.34402000 -1.85898000 -3.38176000
-0.99310400 0.44932300 4.80205000
-1.33821000 0.76230100 4.82861000
-1.72080000 0.63702100 4.90099000
3.51965000 0.00913412 -6.07947000
3.42770000 -0.56663000 -5.97891000
3.19451000 -0.21887600 -6.12824000
3.13864000 1.27440000 -6.35258000
3.34040000 1.09920000 -6.29102000
3.01419000 1.01136000 -6.36927000
-7.50957000 -2.99344000 -3.00090000
-7.31193000 -2.98132000 -3.23718000
-7.25197000 -3.00148000 -3.25033000
-8.24273000 -2.89374000 -2.20803000
-8.26255000 -2.86321000 -2.22390000
-8.10685000 -2.91026000 -2.38801000
8.29868000 3.23935000 4.40625000
8.11211000 3.18955000 4.65769000
8.29732000 3.21656000 4.46469000
-0.09119800 2.37142000 -6.63660000
0.07753030 2.30458000 -6.68390000
-7.87036000 3.16562000 -3.51207000
-7.73923000 3.17208000 -3.59128000
-7.46576000 3.16199000 -3.86252000
-4.06452000 2.83057000 -6.00593000
-4.34578000 2.70459000 -5.93849000
-0.34150000 2.04609000 -6.74423000
-0.32742600 2.12963000 -6.73082000
-0.29021700 2.07899000 -6.72313000
-0.08583380 1.90713000 -6.74666000
-0.20168200 1.92192000 -6.74316000
-0.18212900 1.97333000 -6.72530000
-9.18269000 3.15979000 -1.83977000
-9.02537000 3.18626000 -2.05196000
-8.93857000 3.16693000 -2.22634000
-9.40840000 3.13112000 -1.45022000
-9.54968000 3.12641000 -1.13784000
-9.48980000 3.16824000 -1.20246000
-0.04740650 1.78956000 -6.76296000
-0.18622100 1.83398000 -6.75936000
9.66389000 1.45188000 2.05439000
9.64112000 1.53703000 2.15982000
9.63865000 1.45158000 2.18678000
9.62820000 1.53559000 2.38875000
9.64353000 1.59447000 2.43263000
9.64678000 1.55370000 2.47970000
7.17550000 2.36666000 5.49033000
7.02756000 2.13780000 5.58580000
7.30349000 2.17518000 5.48501000
7.10529000 1.31362000 5.61197000
-5.20737000 -2.28482000 5.14717000
-5.10545000 -2.04244000 5.20887000
-5.48098000 -2.04343000 5.24066000
-4.76677000 -2.34175000 5.08131000
-5.07103000 -2.50252000 5.06180000
-4.70488000 -2.46174000 5.03078000
9.53338000 1.33733000 2.73876000
9.60496000 1.42634000 2.63104000
9.61606000 1.48606000 2.72887000
9.58111000 1.75525000 2.77193000
9.55451000 1.86211000 2.68521000
9.52949000 1.82799000 2.79755000
-7.06867000 -2.87908000 -3.54466000
-7.14377000 -2.79551000 -3.52012000
-6.89968000 -2.79313000 -3.72579000
-6.51863000 -2.63263000 -4.07691000
-6.22485000 -2.50382000 -4.31339000
-6.28130000 -2.70146000 -4.20624000
-1.88961000 2.46681000 -6.59975000
-2.69879000 1.27042000 -6.52255000
-3.37117000 -2.82795000 -2.52443000
-2.90172000 -2.78442000 -2.04319000
-3.10262000 -2.76617000 -1.75435000
-1.07322000 -2.68524000 -0.12727200
-0.59684800 -2.68443000 0.21822000
-1.33645000 -2.67955000 0.33217500
-6.64480000 2.88186000 5.13034000
-6.34759000 2.85164000 5.24693000
-6.28170000 2.85005000 5.08682000
-0.16339200 2.25961000 -6.52229000
-0.10802300 2.31225000 -6.54174000
-0.04928790 2.30189000 -6.50618000
9.53679000 1.52108000 2.90473000
9.61027000 1.56226000 2.79808000
9.57596000 1.64116000 2.84518000
9.41986000 1.55139000 3.21138000
-7.62749000 3.01097000 -3.88308000
-7.41369000 2.96093000 -4.10192000
-1.91629000 2.64348000 -6.56450000
-1.83159000 2.84374000 -6.52836000
8.67342000 -1.59315000 3.33232000
8.63056000 -2.09534000 3.09259000
8.80103000 -1.48401000 3.13942000
8.98930000 -1.14258000 2.90454000
8.95474000 -1.70222000 2.46785000
9.13277000 -0.88659800 2.65296000
9.67583000 2.19275000 1.67069000
9.69657000 2.48341000 1.50889000
9.67752000 2.35336000 1.74874000
9.63025000 2.24729000 2.31064000
9.59529000 2.15007000 2.40601000
9.64480000 2.16414000 2.28636000
1.10433000 -1.39964000 -6.26226000
0.36980400 -0.84734200 -6.48965000
0.04105070 -1.22032000 -6.40971000
0.01251450 -0.88731000 -6.50196000
0.66768700 -0.05723660 -6.63039000
0.56989500 -0.74354600 -6.50136000
0.18855500 -0.51664500 -6.57595000
3.53345000 3.02025000 -5.55631000
5.12394000 3.03206000 -4.93597000
4.10837000 3.04127000 -5.56378000
-9.80423000 1.46178000 2.48453000
-9.76569000 1.28076000 2.78331000
-9.69651000 1.38591000 2.85502000
-9.66947000 1.37665000 2.72413000
2.86949000 2.15503000 -6.38052000
3.32678000 2.16906000 -6.26381000
3.30916000 1.88871000 -6.29176000
3.53360000 2.69959000 4.93298000
3.98580000 2.70952000 5.08372000
4.08581000 2.72456000 5.06025000
9.52412000 0.68531500 2.39045000
9.57566000 0.77536600 2.16927000
9.47248000 0.77483000 2.77592000
9.11165000 -0.06759830 3.30600000
9.26190000 0.25630300 3.11934000
2.18617000 -1.98534000 4.56114000
2.53608000 -2.01442000 4.61877000
2.45379000 -1.46223000 4.75706000
1.70529000 -1.31772000 4.66850000
1.73247000 -1.84075000 4.52995000
2.00633000 -1.48959000 4.66361000
-1.56194000 -3.00748000 -5.79366000
-2.10732000 -2.91537000 -5.74024000
-1.55554000 -2.90728000 -5.83665000
8.36593000 -2.80276000 -0.72891500
8.26104000 -2.82214000 -1.06162000
8.42584000 -2.79513000 -0.69238200
-8.34677000 3.02571000 2.02264000
-9.81433000 3.15639000 -0.18867900
-9.78453000 3.19447000 -0.18256500
-9.69747000 3.18061000 -0.58116100
-9.80880000 3.20279000 0.00110058
-9.85509000 3.17475000 0.16039000
-9.86979000 3.18312000 0.39241300
-2.01137000 0.34802000 4.94744000
-2.01329000 -0.06250760 4.91584000
-1.66793000 0.34410400 4.89747000
-3.07627000 -0.01566040 5.12012000
-3.62709000 -0.14821700 5.23582000
-9.02834000 2.70812000 -2.31735000
-8.97487000 2.32972000 -2.49332000
-9.19313000 2.35316000 -2.12917000
-9.05386000 2.11361000 -2.40191000
-5.71652000 2.77519000 3.47008000
-6.08120000 2.79472000 3.42620000
-6.88173000 2.83121000 2.34853000
-6.48908000 2.79744000 2.20535000
-6.95507000 2.83267000 2.01645000
-9.84505000 3.22449000 0.97027900
-9.79921000 3.23643000 1.34027000
-9.81218000 3.23155000 0.28515800
-9.79358000 3.24389000 0.43752300
-9.78114000 3.24279000 0.20950200
-4.09635000 3.09730000 -5.88117000
-3.79548000 3.08225000 -6.01635000
-4.46161000 3.09306000 -5.78150000
-4.78215000 -2.62736000 -5.03618000
-4.61265000 -2.75936000 -5.06030000
-4.77739000 -2.75624000 -4.98584000
-4.18656000 -2.63698000 -5.28991000
1.58670000 -2.00203000 4.46109000
1.50769000 -2.22153000 4.38077000
1.83217000 -2.39641000 4.37367000
-9.96745000 2.66201000 1.02312000
-9.95290000 2.82555000 0.86544400
-9.97256000 2.59631000 0.89370600
-9.06938000 3.02134000 1.44175000
-9.10047000 3.14089000 1.46049000
-9.01695000 3.13338000 1.52279000
-9.17489000 3.03373000 1.37210000
-9.21046000 3.08364000 1.33921000
-9.18515000 3.16763000 1.40655000
-9.15092000 3.07043000 1.30069000
-7.45784000 0.18507200 5.50936000
-7.06938000 0.03216100 5.60927000
0.14805500 2.22259000 -6.71415000
0.14126100 2.17279000 -6.71937000
0.10449800 2.18248000 -6.70229000
-0.03742850 2.01119000 -6.69180000
0.01950750 2.04013000 -6.68784000
0.03922230 2.02451000 -6.71161000
-9.76515000 3.24639000 1.37672000
-9.68826000 3.24179000 1.56697000
-9.72616000 3.24823000 0.98669700
4.57399000 2.28429000 -5.81319000
4.33620000 2.10978000 -5.93312000
4.17725000 2.32565000 -5.96148000
5.23745000 1.15634000 -5.57174000
5.21115000 1.54874000 -5.58623000
5.44856000 1.57124000 -5.46099000
6.15495000 -2.70348000 -4.07039000
6.39307000 -2.61612000 -3.92013000
6.63047000 -2.67275000 -3.71002000
6.70815000 -2.30198000 -3.79264000
7.08219000 -2.02430000 -3.56452000
7.07694000 -2.28868000 -3.49249000
9.13966000 -0.02906700 -1.49218000
9.34663000 0.79660100 -1.20240000
9.22579000 -0.07824510 -1.24533000
8.83017000 -1.67060000 -1.25967000
-9.24320000 -0.62295100 -1.44727000
-9.24770000 -1.27625000 -1.11260000
-9.31480000 -0.94922800 -1.09010000
-8.88257000 -2.31529000 -1.43873000
8.67499000 -0.13385500 -2.31136000
8.60872000 -0.46589700 -2.30907000
8.70931000 -0.90451500 -1.97638000
8.70244000 -0.41409700 -2.18379000
8.82861000 -0.33344500 -1.99737000
-4.60424000 0.54820400 5.53237000
-4.13377000 0.76005000 5.41552000
-4.64839000 0.94228800 5.52564000
-5.53847000 0.48386700 5.69833000
-5.23935000 0.58007500 5.65138000
-5.23826000 0.98369600 5.63732000
1.80933000 1.92208000 -6.59882000
0.87556000 1.67163000 -6.72788000
0.59267100 1.75793000 -6.72784000
0.67560300 2.18465000 -6.69300000
-9.07908000 -2.58985000 -0.72412500
-9.19149000 -2.31917000 -0.58992300
-9.10469000 -2.31442000 -0.87401100
2.39191000 -3.10184000 -4.84822000
1.88849000 -3.11938000 -4.94553000
2.37532000 -3.12459000 -5.08829000
6.78133000 -0.38926200 5.41129000
8.27663000 1.20419000 4.95096000
8.27051000 0.92876300 4.93733000
8.37429000 1.06092000 4.84861000
8.27930000 0.27177000 4.76182000
8.39987000 0.43888000 4.68793000
8.33787000 0.69701100 4.83114000
1.57318000 -3.15054000 -5.36036000
1.60147000 -3.11045000 -4.77410000
0.76855900 -3.11801000 -4.90335000
-0.03341520 -3.05950000 -4.45843000
0.24589100 -3.01566000 -4.10580000
0.03586430 -3.00887000 -4.07076000
-4.78321000 2.77437000 -5.75125000
-5.23314000 2.53391000 -5.60131000
-5.33083000 2.84346000 -5.49757000
-2.79931000 -2.93498000 -3.52989000
-2.34786000 -2.89533000 -3.27279000
-2.64688000 -2.88207000 -3.13613000
-2.12437000 -2.79117000 -2.32867000
-2.66313000 -2.78665000 -2.17833000
-2.60804000 -2.81440000 -2.48491000
-8.04972000 0.23472100 -3.53602000
-8.21751000 -0.09059760 -3.27575000
-8.30780000 0.69512400 -3.37336000
-7.80129000 0.72483700 -3.90549000
-8.11500000 1.18227000 -3.62270000
-7.87992000 1.11334000 -3.85731000
8.19369000 0.42546000 4.88424000
7.98791000 0.44976200 5.04920000
7.81002000 0.12567000 5.08498000
7.92773000 0.04306490 4.98328000
5.18127000 2.39086000 -5.52676000
4.99078000 2.12910000 -5.65667000
4.95685000 2.34162000 -5.64287000
5.17040000 2.54092000 -5.50145000
3.98062000 2.59035000 0.04050400
3.89346000 2.58383000 -0.18585600
3.86161000 2.58234000 0.59865900
3.86721000 2.65541000 2.95395000
6.89429000 0.41658600 5.57567000
6.91326000 0.59545300 5.60781000
7.10357000 1.02919000 5.60102000
6.90469000 1.09225000 5.66437000
6.88821000 0.88936600 5.65559000
-9.71369000 1.48530000 2.82790000
-9.59012000 1.58180000 3.26378000
-9.61598000 1.40623000 3.20463000
-9.55671000 1.32086000 3.35189000
5.63577000 -2.98431000 -4.26347000
5.53123000 -3.01422000 -4.25119000
5.45784000 -2.98019000 -4.38184000
-9.74476000 1.47772000 2.71354000
-9.76411000 1.37088000 2.62750000
-9.79913000 1.27316000 2.66803000
7.86164000 -0.25659600 4.94276000
7.66393000 -0.28699400 5.06737000
7.63887000 -0.45649300 5.03275000
7.35263000 -1.79112000 4.71849000
7.46011000 -1.33734000 4.83991000
5.53928000 0.59189900 5.74948000
5.47933000 0.37963100 5.71375000
2.96908000 0.01974680 5.19871000
3.35433000 -0.26684200 5.21993000
3.31848000 0.32439700 5.32847000
-5.54175000 0.11019700 -5.42194000
-5.25280000 -0.07411730 -5.52735000
-5.32001000 -0.35444900 -5.43336000
-5.49059000 -1.62708000 -5.01184000
4.57656000 -2.34252000 -5.10413000
4.97444000 -2.19904000 -4.95804000
4.93321000 -2.66816000 -4.82584000
4.03754000 -2.31667000 -5.32501000
4.07234000 -1.89508000 -5.43368000
0.01589180 2.07205000 -6.46047000
0.03874040 2.03322000 -6.48923000
-0.01809330 2.01308000 -6.48938000
7.17435000 2.85452000 5.36835000
7.25293000 2.95999000 5.30531000
7.12442000 2.95102000 5.34851000
0.04328330 2.11050000 -6.47968000
-0.28557900 -2.69842000 4.05618000
-0.45067100 -2.68257000 4.08433000
-0.48019400 -2.70192000 4.01145000
-1.35274000 -2.72609000 4.11600000
-1.16738000 -2.70000000 4.16197000
-1.61062000 -2.72257000 4.16121000
7.41041000 3.11398000 5.08006000
7.57823000 3.15328000 4.91702000
7.04204000 3.06409000 5.20636000
-9.68445000 2.60958000 -1.01269000
-9.74010000 1.73875000 -0.96998200
-9.74689000 2.60166000 -0.81977100
7.52913000 -1.21132000 -3.40294000
7.40384000 -0.46920400 -3.73296000
-2.78325000 2.09745000 4.86019000
-2.85107000 2.41571000 4.76500000
-3.20677000 2.28577000 4.89791000
-7.06908000 -2.95828000 -3.48344000
-7.06804000 -2.98650000 -3.45071000
-8.14370000 -1.33042000 4.73597000
-8.05312000 -0.98776200 4.93083000
-8.21994000 -1.06284000 4.76002000
-8.58739000 -1.18962000 4.30599000
-8.50984000 -1.54513000 4.24313000
-8.33286000 -1.93284000 4.29431000
8.44408000 0.47593300 -2.77837000
8.30984000 0.78771000 -3.02065000
7.68478000 0.69094100 -3.72668000
7.94600000 0.36773400 -3.37273000
-4.28556000 2.33040000 5.19518000
-4.75615000 2.48637000 5.27015000
-4.69331000 2.33017000 5.31857000
-5.28632000 2.49048000 5.39260000
-7.74899000 -2.96977000 -2.79265000
-7.77083000 -2.93936000 -2.80829000
-7.69441000 -2.92380000 -2.90759000
-0.89059000 3.08027000 -6.46983000
-1.61754000 3.07344000 -6.44606000
-1.95331000 3.08568000 -6.38608000
-9.51759000 0.47411700 3.38540000
-9.34923000 -0.44885900 3.37951000
-9.27906000 -0.32319000 3.59197000
-9.05826000 -1.36039000 3.47710000
-9.18268000 -0.64876100 3.62225000
-9.29712000 -0.72123200 3.35152000
-2.30226000 1.53511000 4.89185000
-2.35346000 1.81582000 4.85034000
-3.52732000 1.47847000 5.17517000
5.33338000 1.85592000 5.70787000
4.98569000 1.36904000 5.69710000
5.40842000 1.62793000 5.74173000
4.58670000 2.06548000 5.52483000
3.90851000 1.86168000 5.40254000
4.48329000 1.81834000 5.54942000
5.07158000 -3.00358000 -4.44907000
5.16297000 -3.02873000 -4.36231000
5.03640000 -3.01821000 -4.37596000
5.28666000 -2.98815000 -3.76675000
5.76950000 -2.94165000 -3.32037000
5.11203000 -2.94658000 -3.46092000
6.21833000 0.61564900 5.75303000
5.98362000 0.56265500 5.76090000
6.14631000 0.28183000 5.69789000
6.07894000 0.97562600 5.78557000
6.24641000 0.97554300 5.77619000
6.14041000 1.28538000 5.78198000
8.05612000 3.13143000 4.78627000
8.18570000 3.17681000 4.62557000
8.02701000 3.15692000 4.77459000
7.64849000 3.13538000 4.99537000
7.53557000 3.08927000 5.11266000
7.66017000 3.09624000 5.05287000
5.58536000 -2.25531000 5.04549000
5.53145000 -2.04311000 5.10653000
5.27933000 -2.27572000 5.02956000
-7.01783000 2.10146000 5.47977000
-7.07223000 2.00367000 5.48456000
-6.84353000 1.77047000 5.58245000
-6.88466000 1.41959000 5.61135000
-7.07189000 1.29531000 5.58798000
-6.97275000 0.62056400 5.65922000
-5.70826000 -2.68679000 -4.55320000
-5.93720000 -2.26231000 -4.56816000
-5.77100000 -1.77212000 -4.81830000
-5.60532000 -2.23865000 -4.76652000
7.52105000 -2.53597000 3.37691000
7.45319000 -2.54766000 2.88589000
7.83078000 -2.54734000 2.82994000
8.19377000 -2.57505000 2.27763000
8.39459000 -2.57068000 2.57407000
-8.29793000 -2.63904000 -2.28885000
-8.43636000 -2.74762000 -2.04190000
-8.41596000 -2.56717000 -2.16403000
-8.86016000 -1.86689000 -1.71255000
-8.71305000 -2.27178000 -1.81352000
-8.81055000 -2.24182000 -1.63775000
5.83741000 0.99270000 5.79088000
5.83013000 1.41859000 5.78226000
7.62714000 2.36578000 5.30609000
7.86896000 2.54625000 5.13926000
7.73468000 2.60642000 5.20390000
-6.28355000 -3.01123000 -4.03375000
-5.57965000 -2.98692000 -4.46800000
-5.63227000 -3.01831000 -4.39387000
-4.94103000 -3.02992000 -4.75679000
-4.75926000 -3.00685000 -4.87499000
-4.42230000 -3.04738000 -4.99940000
4.44970000 0.31649400 -5.81574000
4.82670000 0.52315400 -5.70242000
4.56161000 0.08436730 -5.73005000
5.24860000 -0.09518930 -5.36543000
7.03477000 1.89926000 5.61516000
7.08313000 1.55372000 5.61809000
7.27364000 1.70656000 5.54879000
-8.53438000 -2.67054000 -1.93032000
-8.46007000 -2.85817000 -1.92813000
-8.63631000 -2.72216000 -1.71370000
4.73353000 -1.66971000 5.13518000
9.56843000 0.28787700 1.40792000
9.62879000 0.66842900 1.52789000
9.26413000 -1.23864000 1.52297000
9.24008000 -1.41905000 1.29580000
9.35808000 -0.86667700 1.40955000
-5.82127000 -1.12460000 5.50204000
-5.94290000 -1.74140000 5.33841000
-5.92774000 -2.20521000 5.19741000
1.10852000 -0.02110550 -6.59057000
0.87772100 0.99385800 -6.72102000
0.79398200 1.26329000 -6.73241000
1.15233000 1.36571000 -6.69715000
3.56566000 2.71474000 4.60018000
4.05643000 2.73389000 4.62759000
3.85986000 2.72328000 4.27916000
5.78916000 2.88994000 5.00141000
5.74595000 2.88147000 5.28450000
6.44275000 2.97775000 5.00325000
-5.47464000 -2.72704000 2.28352000
-5.65876000 -2.72035000 2.05031000
-5.32018000 -2.71514000 1.92608000
-1.82031000 -2.69700000 -0.54261600
7.79191000 -2.86905000 -1.96400000
7.65053000 -2.88584000 -2.26226000
-9.67465000 -0.85746100 0.89572300
-9.52477000 -1.55876000 0.72733400
-9.81413000 -0.00142819 1.39612000
-3.36460000 2.64837000 4.71668000
-3.32041000 2.63401000 4.73889000
-6.06796000 -3.02950000 -4.12944000
-6.76300000 -3.01641000 -3.66572000
-6.63076000 -3.00004000 -3.80331000
-6.61260000 -3.02486000 -3.78353000
-6.08560000 2.59913000 -5.14152000
-5.51371000 1.63365000 -5.54856000
-5.67643000 1.86796000 -5.45513000
9.48418000 3.06337000 2.24317000
9.59049000 3.07019000 1.54358000
9.52411000 3.23155000 1.70446000
0.99382300 1.24161000 4.83763000
1.35503000 1.08294000 4.91897000
1.27437000 0.83787700 4.92811000
9.30361000 0.18820900 -1.11549000
9.44035000 0.71518100 -0.87754500
9.41717000 2.17760000 -0.79487700
9.44064000 1.38670000 -0.89494700
-7.73927000 -2.82348000 -2.93885000
-7.72366000 -2.86919000 -2.92891000
-7.90561000 -2.86027000 -2.71941000
-7.13008000 -2.74121000 -3.54799000
-7.36610000 -2.79180000 -3.32866000
-7.48458000 -2.72861000 -3.23701000
-9.94680000 1.52795000 1.76425000
-9.97441000 1.78170000 1.45572000
-9.98158000 1.55379000 1.36028000
-9.98843000 2.25623000 0.92876000
-9.97963000 2.45725000 0.76822700
-9.99654000 2.11412000 0.69913000
8.17116000 -2.82850000 -1.29609000
7.76021000 -2.84331000 -1.58970000
7.89623000 -2.85899000 -1.82961000
9.02173000 3.06415000 3.55840000
9.09241000 3.21691000 3.30504000
-4.44664000 -2.68352000 -0.23406600
-4.14543000 -2.70048000 -0.58346500
-4.27327000 -2.67782000 0.10480800
-3.64279000 -2.69344000 -0.06527430
-3.33887000 -2.71481000 -0.62433400
-3.31066000 -2.69881000 0.03957980
8.13947000 3.11649000 1.18924000
8.11311000 3.11409000 0.51547900
7.83560000 3.04957000 1.22252000
9.56184000 2.99545000 0.14409700
9.59663000 2.44996000 0.12068100
9.57076000 2.37859000 -0.03280070
9.57871000 2.57589000 -0.03275150
0.24780600 -0.66985800 4.63717000
0.34596000 -0.29997900 4.71206000
0.18264000 -0.39636800 4.68336000
0.09030920 0.88834500 4.75355000
0.05383610 0.49852700 4.76668000
-7.86058000 1.50437000 -3.88912000
-8.12305000 1.57242000 -3.62546000
-7.84784000 1.71371000 -3.89864000
-7.71091000 2.09347000 -4.00749000
3.08151000 -2.74673000 -1.42150000
2.74983000 -2.74642000 -1.34491000
0.85778300 -2.74402000 -1.35602000
7.98225000 -1.29091000 4.45160000
7.85734000 -1.12311000 4.62818000
7.78285000 -1.69501000 4.44547000
8.11039000 -2.14156000 3.89052000
8.06157000 -2.28149000 3.86507000
8.27497000 -2.27785000 3.59796000
2.83030000 2.57677000 -6.32178000
3.24187000 2.66248000 -6.19205000
-8.68012000 2.65493000 -2.82979000
-8.83461000 2.35168000 -2.69010000
-8.90352000 2.69645000 -2.51192000
2.25877000 0.64628600 -6.51527000
2.28243000 0.21921600 -6.44793000
1.93220000 0.63061400 -6.57327000
2.91119000 0.35567900 -6.33139000
3.15508000 0.68499400 -6.31905000
3.15852000 0.42780100 -6.27264000
0.26098700 -3.14855000 -5.65494000
0.55629800 -3.14181000 -5.65617000
0.42538400 -3.15465000 -5.63929000
5.69876000 2.05665000 5.71681000
6.02111000 2.01293000 5.73700000
5.88172000 2.17461000 5.70356000
5.51356000 2.15661000 5.67828000
-7.57032000 2.02035000 5.32699000
-7.44269000 2.00519000 5.38058000
-7.43949000 2.22763000 5.33595000
-7.95841000 2.20479000 5.08091000
8.06004000 1.65556000 -3.36852000
7.88787000 1.04570000 -3.55078000
8.03189000 0.75526200 -3.35572000
-8.02330000 1.80827000 -3.72019000
-7.86422000 2.08832000 -3.86126000
-8.37110000 2.52779000 -3.23459000
-0.53046900 -2.44000000 -6.02329000
-0.40979300 -2.27992000 -6.08740000
-0.39816400 -2.56803000 -5.99415000
-8.57426000 1.92822000 4.71058000
-8.47694000 1.89814000 4.80061000
-8.46689000 2.39772000 4.68690000
-8.73738000 2.57397000 4.39004000
-8.55853000 2.43250000 4.60137000
5.62994000 2.15963000 -5.32215000
5.81511000 1.99417000 -5.22377000
5.39510000 2.06745000 -5.46058000
5.39500000 1.71993000 -5.48583000
5.18878000 1.74308000 -5.59277000
-1.30479000 2.73573000 -6.61003000
9.66662000 2.65144000 0.65617700
9.63315000 2.50377000 0.37014600
9.62806000 2.67284000 0.33057300
9.68658000 2.60333000 0.95595700
9.69522000 2.48809000 1.21427000
9.67646000 2.35935000 0.83266300
-5.10800000 2.52760000 5.34008000
8.74132000 3.02705000 4.09709000
8.88829000 2.97550000 3.89373000
8.72347000 2.90693000 4.18704000
8.57718000 2.65375000 4.48015000
8.67887000 2.76202000 4.30142000
2.80061000 2.58477000 -1.59689000
2.19674000 2.56621000 -1.53179000
2.67162000 2.56293000 -1.25963000
4.43690000 2.71353000 -2.20128000
4.86424000 2.77135000 -2.47560000
4.36781000 2.74909000 -2.62388000
7.83442000 1.62325000 5.28771000
7.96387000 1.24973000 5.19953000
8.06667000 1.11983000 5.11886000
8.07983000 1.34920000 5.12130000
-5.97202000 -2.97519000 -3.42269000
-6.28304000 -2.97162000 -3.26824000
-5.93835000 -3.01549000 -3.74690000
-0.46634300 -0.27520300 4.71725000
-0.55379300 0.00824640 4.75053000
-0.81878900 -0.10802400 4.75142000
0.31246800 0.29240900 4.78095000
0.09282830 0.21343400 4.75377000
0.16230700 -0.04902200 4.73304000
5.26400000 3.04900000 -5.11651000
5.24314000 3.03775000 -4.99329000
6.16089000 3.05044000 -4.47149000
7.40921000 3.11069000 -3.20671000
6.47224000 3.06335000 -4.25647000
6.23889000 3.05032000 -4.27021000
7.81571000 2.89673000 -3.42494000
-9.66173000 1.68912000 -1.19819000
-9.60428000 0.95399700 -1.27794000
-9.72917000 0.81095900 -0.80769300
-9.75208000 1.05175000 -0.84028700
-3.13436000 -3.14959000 -5.26627000
-3.68735000 -3.13919000 -5.02830000
-8.19933000 3.16047000 -2.39340000
-8.45358000 3.18737000 -2.48109000
-8.83262000 3.18997000 -1.78462000
-8.19526000 3.18683000 -2.95666000
-7.32555000 3.14289000 -3.60538000
-7.30699000 3.15282000 -3.80475000
4.71658000 -3.05603000 -4.45746000
4.65056000 -3.05433000 -4.60029000
4.21046000 -2.95791000 -3.66820000
5.06112000 -2.99746000 -3.89227000
4.10529000 -3.06184000 -4.96520000
4.30375000 -3.06218000 -4.88626000
4.29852000 -3.07961000 -4.76292000
8.94584000 -2.34300000 0.05525450
8.85588000 -2.56071000 -0.05518280
8.90723000 -2.28820000 -0.28455900
9.25522000 -1.16164000 0.02928080
9.09225000 -1.70235000 -0.21046100
-8.23064000 -2.87193000 3.75711000
-8.44267000 -2.87568000 3.45230000
-8.45707000 -2.87914000 3.34464000
9.24020000 3.22807000 2.93913000
9.36851000 2.90113000 2.83064000
-9.41908000 -1.84921000 0.10293900
-9.31984000 -2.32234000 0.08451670
-9.35957000 -2.26257000 0.30193200
-9.27509000 -2.37443000 -0.14646300
-9.24956000 -2.26818000 -0.40360400
-9.18389000 -2.52914000 -0.39528900
-2.75347000 -2.75395000 4.43261000
-3.12808000 -2.77062000 4.47956000
-2.65361000 -2.76196000 4.37110000
9.01263000 -0.68370700 -1.46887000
9.03899000 -0.22508900 -1.64103000
9.13298000 -0.22097900 -1.42921000
8.86842000 -0.62081900 -1.80615000
8.98206000 -0.19848700 -1.76855000
8.41119000 2.69928000 4.66685000
8.44107000 2.89090000 4.56497000
8.33916000 2.90776000 4.66447000
8.16567000 2.87831000 4.82919000
8.00916000 2.82927000 4.96661000
8.20880000 2.64161000 4.87182000
-9.97933000 1.25359000 1.01059000
-9.95774000 0.99498400 0.67505600
-9.95824000 1.01894000 1.22435000
-9.81425000 -0.04903710 1.22206000
-9.74973000 -0.43783000 0.81951200
-9.73318000 -0.57319200 1.07838000
8.82325000 -2.41514000 -0.49227600
-4.95682000 2.73202000 3.86525000
-4.96016000 2.73431000 4.09753000
-4.48661000 2.71858000 4.20538000
-5.28903000 2.61934000 5.17509000
-5.34805000 2.60533000 5.18468000
-5.31582000 2.59453000 5.19024000
-7.95881000 -2.86949000 -0.16255100
-8.26955000 -2.90514000 -0.20304500
-8.03063000 -2.89113000 -0.60663200
-1.12504000 2.50210000 0.17954100
-0.86636700 2.50620000 0.51338700
-0.78392900 2.49545000 -0.02377840
1.27942000 2.51739000 0.03512170
1.08711000 2.51472000 0.42642600
1.53301000 2.52265000 0.59045300
9.62235000 1.18165000 -0.11642100
9.51229000 1.43242000 -0.62619300
9.52881000 1.12594000 -0.61344900
-4.48184000 2.33109000 -5.94922000
-4.54679000 2.00477000 -5.94852000
-4.84191000 2.05489000 -5.82759000
-4.07999000 1.56737000 -6.12656000
-4.51030000 1.63437000 -5.97403000
-5.47416000 2.56983000 5.22688000
-5.44098000 2.63757000 5.20037000
-5.52042000 2.62383000 5.22000000
-5.42836000 2.59885000 5.19329000
6.66033000 1.38027000 -4.68926000
6.65361000 0.85814400 -4.66854000
6.38893000 1.16056000 -4.87424000
7.37855000 0.91187800 -4.06008000
7.23199000 0.90127900 -4.19468000
-0.03872240 2.38750000 -6.65627000
-0.06691370 2.41029000 -6.67729000
0.03606590 2.41698000 -6.70151000
-8.88474000 3.11027000 3.86377000
-1.97948000 3.06865000 -6.41714000
-3.29546000 3.06359000 -6.17796000
-2.81225000 3.07859000 -6.27295000
-2.82954000 3.04695000 -6.29631000
-2.05189000 0.50999800 -6.64318000
-3.59838000 0.46824100 -6.25160000
7.59870000 -0.69926400 4.97815000
7.44936000 -0.38488100 5.16014000
7.41821000 -0.98429800 4.98754000
-5.18268000 2.63170000 5.20302000
-5.27276000 2.59608000 5.20468000
-5.22587000 2.60326000 5.22456000
-5.10404000 2.67519000 5.24671000
2.70022000 1.84063000 -6.44198000
3.08259000 1.77094000 -6.35619000
2.70778000 1.19973000 -6.44882000
9.24849000 3.38056000 2.37805000
9.28080000 3.36899000 2.43602000
9.01669000 3.33830000 3.24373000
9.10224000 3.35119000 3.03446000
9.06484000 3.36422000 3.03096000
9.64283000 1.99971000 2.23098000
9.61681000 1.88990000 2.31869000
9.64800000 1.94285000 2.09009000
9.64724000 1.69128000 2.48785000
9.61504000 1.78754000 2.40424000
9.63062000 1.75662000 2.51781000
-2.69583000 0.04307570 -6.44970000
-2.84039000 0.53339500 -6.48900000
-2.56251000 0.46527200 -6.54782000
-2.99549000 0.79876000 -6.46074000
-2.58267000 0.63812600 -6.56255000
-5.59406000 2.99071000 -5.34450000
-5.78528000 2.77579000 -5.28206000
-5.76519000 3.01387000 -5.24580000
-6.30747000 3.07400000 -4.88369000
-6.33574000 3.03449000 -4.88722000
-6.50505000 3.06406000 -4.75841000
7.97617000 1.61401000 5.20162000
8.07063000 1.60360000 5.12998000
8.07630000 1.79933000 5.11380000
8.17980000 1.63075000 5.03540000
8.31651000 2.16349000 4.86396000
8.16493000 1.94417000 5.02621000
8.42620000 -2.57184000 -1.56559000
8.50528000 -2.54617000 -1.40148000
8.37214000 -2.70823000 -1.57671000
-5.36571000 2.62963000 5.18556000
-5.25512000 2.73569000 5.10378000
-5.26494000 2.68471000 5.11025000
-5.18415000 2.69834000 5.11259000
-8.84363000 3.02157000 1.38849000
-8.92411000 2.97186000 1.40153000
-8.87010000 2.96666000 1.45040000
-8.99966000 2.99434000 1.42035000
3.29757000 -1.71525000 4.84524000
3.59168000 -2.10917000 4.79482000
3.75668000 -1.72044000 4.93750000
-8.23517000 3.16491000 -3.11705000
-7.94165000 3.17584000 -3.39389000
-9.16840000 3.13454000 -1.89871000
-8.91849000 3.14385000 -2.29569000
-8.81736000 2.96712000 1.50004000
-8.89224000 2.97110000 1.51119000
-8.83668000 3.00398000 1.55619000
-6.28109000 2.83418000 3.80063000
-6.46680000 2.83847000 3.51374000
-5.33475000 2.77852000 5.12930000
-5.33551000 2.76607000 5.16191000
7.26275000 -0.29961800 -3.91392000
7.18989000 -1.32669000 -3.69416000
7.28660000 -0.68543600 -3.78979000
-8.95397000 3.01932000 1.28726000
-9.00411000 3.07593000 1.24328000
-9.03256000 3.02000000 1.31012000
2.45838000 2.63233000 4.73512000
2.31655000 2.60400000 4.73534000
2.88259000 2.62915000 4.86366000
1.71556000 2.61407000 4.59193000
1.17718000 2.61736000 4.48640000
1.41560000 2.59563000 4.55106000
4.96850000 -2.57199000 4.86431000
-8.07942000 2.96908000 1.01352000
-8.17605000 3.01058000 0.27451300
-8.48549000 3.04267000 0.80977800
-6.87380000 2.81893000 1.47185000
-6.35260000 2.77443000 1.41120000
-6.62187000 2.79865000 0.95485600
4.60123000 0.07083550 5.52018000
4.63080000 0.51992100 5.60865000
4.27416000 0.08454260 5.46087000
5.22884000 -0.41176600 5.52118000
5.29489000 -0.55918500 5.48857000
5.51529000 -0.43052900 5.54086000
-9.13058000 2.99939000 1.40768000
-9.05322000 3.01148000 1.37791000
-8.66926000 2.86040000 4.35168000
-8.75886000 2.91751000 4.23990000
-7.83111000 -2.30498000 4.59184000
-7.65333000 -2.33667000 4.71538000
-7.76671000 -2.08981000 4.73436000
-7.09987000 -2.78167000 4.81919000
-7.39109000 -2.76973000 4.68904000
1.61957000 0.10414400 4.95797000
1.70519000 0.29732500 4.99764000
1.46817000 0.38750200 4.96644000
2.54172000 0.37022100 5.16586000
2.41809000 0.26869600 5.12953000
2.74314000 0.29131800 5.20273000
-8.91705000 2.93868000 4.05362000
-6.86166000 2.74234000 5.34198000
-6.37093000 2.23791000 5.55122000
-6.57541000 2.38827000 5.48995000
-4.24829000 2.67158000 4.98402000
-4.45313000 2.69801000 5.00064000
-4.81420000 2.70371000 5.14526000
-5.04489000 2.69754000 5.21183000
-5.11896000 2.69161000 5.20667000
-9.74561000 1.30775000 -0.94570200
-9.64478000 1.40320000 -1.25092000
-9.61346000 1.21392000 -1.32802000
-9.54348000 1.08982000 -1.49480000
-9.43781000 1.13494000 -1.73872000
-9.40477000 1.01498000 -1.79149000
-8.92647000 2.98114000 4.06386000
-0.16515100 2.08490000 -6.47362000
-0.19499600 2.14767000 -6.47624000
-0.13978200 2.21933000 -6.47850000
-0.09439510 2.23234000 -6.46734000
-0.75342500 -2.68740000 4.10178000
-0.99805700 -2.71623000 4.07312000
-9.39316000 2.57090000 3.45626000
-9.44884000 2.98968000 3.19674000
-9.49536000 2.44196000 3.28031000
-5.61617000 -2.73174000 5.00437000
-6.34127000 1.50777000 5.66364000
-6.29052000 0.01513120 5.69695000
-6.02985000 0.07547310 5.70395000
-6.16290000 0.46476600 5.72930000
-8.35220000 -1.29494000 4.54107000
-8.46278000 -0.76221300 4.62133000
-8.54657000 -0.92522300 4.46644000
-8.66496000 -0.94259400 4.30899000
-5.95808000 0.59692300 5.72969000
-6.19173000 0.99080600 5.71009000
-6.23815000 0.64710000 5.72591000
-6.03732000 1.07259000 5.70246000
-5.72210000 0.77022800 5.70661000
-5.70702000 1.24152000 5.67057000
-5.73986000 2.51688000 5.44260000
-5.86470000 2.57234000 5.43754000
-5.87703000 2.35496000 5.51804000
8.65988000 2.81544000 -2.39316000
8.67875000 3.04976000 -2.23021000
8.90566000 3.14412000 -1.73621000
8.84860000 3.18087000 -1.80127000
9.05858000 3.19995000 -1.35751000
6.14682000 -2.57760000 2.01633000
6.72129000 -2.55730000 2.34556000
6.31463000 -2.57145000 2.61922000
7.06108000 -2.71216000 -0.06089540
7.29041000 -2.74443000 -0.34003800
7.29869000 -2.70587000 0.09233280
-8.77596000 -1.43276000 3.91508000
-8.75715000 -1.80512000 3.76358000
-8.75925000 -2.47167000 3.39921000
-8.91541000 -2.52562000 3.02406000
-8.73362000 -2.69346000 3.28530000
-7.05641000 1.65428000 5.55249000
-7.45844000 1.78118000 5.40153000
-7.56829000 1.69459000 5.37071000
-7.44375000 1.54186000 5.44511000
8.63369000 -2.73321000 0.42280700
8.67866000 -2.73304000 0.36961000
8.77783000 -2.71000000 0.78797300
8.61234000 -2.75539000 0.05340610
8.43686000 -2.77047000 -0.27685300
8.56508000 -2.76766000 -0.24710200
-1.74308000 -0.10482700 4.87176000
-1.37975000 -0.12471600 4.80909000
-1.34179000 0.24277400 4.83572000
-0.84396700 0.32891100 4.78850000
-0.92667400 -0.02457950 4.76252000
7.74800000 3.13353000 -2.77976000
7.37482000 3.08379000 -2.66120000
7.91728000 3.12603000 -1.88591000
8.05959000 3.15054000 -2.02263000
7.46919000 2.39002000 -3.95388000
7.69835000 2.18335000 -3.75045000
7.37258000 2.21046000 -4.07518000
6.99067000 2.56738000 -4.33149000
6.95846000 2.90211000 -4.25408000
7.15642000 2.74784000 -4.13442000
-0.42862300 1.11281000 -6.79111000
-0.07259340 0.72726900 -6.78120000
-0.02892340 2.04718000 -6.45817000
-0.09681480 2.05879000 -6.44426000
-0.05314110 2.08205000 -6.42659000
-0.08622340 2.01888000 -6.58901000
4.30658000 2.61308000 -0.26191700
4.30750000 2.62267000 -0.64612900
4.37420000 2.67559000 -1.69934000
3.99804000 2.65168000 -1.76393000
4.17940000 2.65533000 -1.59930000
5.82685000 -1.18463000 5.33913000
5.95272000 -0.75268000 5.45163000
5.79606000 -1.38022000 5.29070000
5.73107000 -1.75603000 5.18857000
5.88357000 -1.63066000 5.21242000
8.36921000 -0.90914800 4.18334000
8.48058000 -0.98832900 3.98571000
8.47526000 -0.69070400 4.15056000
8.59790000 -0.07820830 4.26825000
8.70649000 -0.19428100 4.05677000
8.72458000 0.10667900 4.15409000
9.55980000 3.24082000 0.98260700
9.52267000 3.27753000 1.47000000
9.54897000 3.21535000 1.47062000
9.63613000 2.92957000 1.39593000
-8.83480000 0.47210600 -2.63416000
-8.68638000 -0.22728800 -2.62085000
-8.88919000 0.12492400 -2.42968000
-9.30305000 1.16657000 -2.01202000
-9.34703000 1.43542000 -1.93003000
-9.20639000 1.15540000 -2.19044000
-5.48770000 -2.80389000 4.52046000
-5.73527000 -2.80694000 3.99309000
-5.41392000 -2.79788000 4.25424000
-5.10501000 -2.80329000 4.53338000
-9.39972000 0.80571400 3.70918000
-9.34866000 0.72457400 3.79309000
-9.29081000 1.80236000 3.85372000
-9.35177000 1.33919000 3.79080000
-9.25900000 1.13305000 3.97785000
0.11051400 2.22819000 -6.69367000
0.11133900 2.30919000 -6.70391000
0.10113900 2.27063000 -6.68814000
4.38362000 -2.38462000 -5.17251000
4.59097000 -2.59387000 -5.01409000
9.62131000 1.76223000 0.11320900
9.50706000 1.61854000 -0.59621900
8.51879000 2.17908000 -2.75767000
8.65867000 2.22976000 -2.54054000
8.29865000 2.66261000 -2.95726000
-0.03426910 -2.98535000 -3.86845000
0.28085100 -2.99520000 -3.89893000
0.21395200 -2.93617000 -3.57589000
2.92876000 -3.08952000 -4.80516000
2.61111000 -3.08306000 -4.65431000
4.69850000 3.01085000 -5.56700000
5.36803000 2.84072000 5.22122000
5.24483000 2.83265000 4.94429000
4.93607000 2.80228000 4.95652000
4.58393000 2.75425000 5.20348000
4.40583000 2.72952000 5.21277000
-9.26397000 -2.76153000 1.33610000
-9.26819000 -2.77235000 1.09988000
-9.24931000 -2.82141000 1.15317000
-9.39695000 -1.93783000 1.80087000
3.14554000 -2.93359000 -5.38915000
3.11629000 -2.85676000 -5.41910000
3.38943000 -2.84034000 -5.34905000
-9.30032000 0.85992300 3.90033000
-9.32550000 1.01648000 3.85617000
-9.22085000 0.80036800 4.02947000
-9.13838000 0.83273400 4.16339000
3.95794000 -2.58373000 4.68375000
2.86620000 -2.58666000 4.46957000
3.08401000 -2.58978000 4.50656000
2.83283000 2.84663000 -4.29727000
2.82508000 2.88860000 -4.62422000
2.50182000 2.90701000 -4.89630000
-1.42026000 2.11756000 4.61302000
-1.13004000 2.10562000 4.58465000
-1.53934000 2.32988000 4.55511000
-1.70571000 2.28012000 4.60317000
-5.59196000 3.10449000 -4.98053000
-5.01256000 3.09283000 -5.25209000
-4.49561000 3.08711000 -5.28517000
-4.36138000 3.10708000 -5.69258000
-9.48307000 -0.81670900 2.75791000
-9.39350000 -1.58073000 2.33155000
-9.52790000 -0.95971400 2.42389000
-9.45327000 -1.47314000 2.15565000
3.39662000 3.02068000 -6.02626000
3.65196000 3.03564000 -5.92859000
3.66483000 3.00402000 -5.96326000
2.36957000 3.04652000 -6.21003000
2.77960000 3.04891000 -6.10233000
2.72326000 3.03892000 -6.15878000
4.53592000 1.77513000 -5.88653000
4.78846000 1.81519000 -5.77891000
4.80836000 1.32236000 -5.77982000
4.57217000 1.49229000 -5.88002000
-7.23556000 2.68850000 5.26528000
-7.38308000 2.67508000 5.22208000
5.24946000 -2.54614000 4.91736000
5.62211000 -2.55840000 4.91575000
5.58549000 -2.53520000 4.94089000
5.96383000 -2.59781000 4.79710000
5.46849000 -2.59943000 4.80136000
-5.25296000 2.75453000 5.07526000
-5.17708000 2.71154000 5.08755000
-5.17329000 2.72696000 5.05999000
-5.09810000 2.73191000 5.08881000
-2.19653000 -0.20168500 4.93339000
-2.64759000 -0.56130600 4.97924000
-2.38929000 -0.81990500 4.89452000
-2.69676000 -0.97793400 4.92873000
-2.35955000 -1.28504000 4.81124000
-5.73273000 2.80254000 4.42807000
-5.82900000 2.81098000 4.33477000
-5.98460000 2.82222000 4.45090000
-5.46244000 2.76706000 4.63391000
-5.55660000 2.78141000 4.56773000
-5.55371000 2.78686000 4.63940000
9.10397000 3.28792000 -0.36011900
9.19858000 3.31421000 0.37928800
9.29150000 3.32562000 -0.00520894
9.34269000 3.34241000 0.60107400
0.72235900 0.19183700 4.82226000
0.75958400 -0.03756930 4.79871000
1.25295000 0.09755740 4.89415000
0.33723300 -0.12318100 4.73787000
0.38755200 0.14957700 4.77598000
9.60655000 1.26767000 2.26210000
9.60915000 1.01497000 2.14983000
9.65272000 1.26375000 2.09425000
9.59088000 1.39465000 2.49838000
9.64120000 1.49524000 2.54895000
-2.38210000 0.56352500 5.00951000
-2.34137000 0.96629800 4.97449000
-2.98499000 0.57649900 5.13456000
-2.23565000 0.27793400 4.97957000
-2.97808000 0.33369200 5.12822000
5.24143000 2.82014000 4.58267000
5.57342000 2.81364000 4.08411000
5.08429000 2.77685000 4.10275000
4.84463000 2.78893000 4.69048000
4.60464000 2.76514000 4.53158000
9.43102000 0.76918300 2.93433000
9.35718000 0.87645600 3.24156000
9.38196000 0.52664100 2.94654000
9.43160000 1.22088000 3.12812000
9.45858000 0.93754800 2.92086000
6.07752000 2.70017000 5.57721000
5.86128000 2.71662000 5.56687000
5.91696000 2.36248000 5.66428000
-1.03616000 -1.79347000 4.47154000
-1.37548000 -1.77051000 4.53614000
-1.27244000 -2.00575000 4.45298000
8.85063000 3.34501000 3.43776000
8.65284000 3.30557000 3.85068000
8.86293000 3.32877000 3.51997000
7.80091000 -2.08467000 4.23958000
7.96201000 -2.02990000 4.11001000
7.97308000 -1.72283000 4.25259000
8.19268000 -1.11515000 4.30238000
8.06095000 -1.31716000 4.35890000
8.98816000 -2.38984000 1.38629000
8.97453000 -2.33244000 1.59622000
-9.62783000 -0.20487900 -0.40950200
-9.78132000 0.98634500 -0.67594400
-9.75729000 0.67516000 -0.63304100
8.83881000 -2.18032000 2.45975000
8.73513000 -2.31560000 2.68637000
8.73495000 -1.96844000 2.93596000
8.90900000 -1.28425000 3.01795000
-1.19223000 -2.78409000 -5.91092000
-1.21576000 -1.82948000 -6.22341000
8.72319000 3.23118000 -1.40642000
8.05625000 3.16091000 -2.36341000
8.56591000 3.21619000 -1.46124000
8.97988000 3.28978000 0.32904700
8.78585000 3.26091000 0.16791600
8.88057000 3.28567000 1.20818000
-9.68437000 1.49261000 2.94299000
-9.68230000 1.59162000 2.91039000
-9.74539000 1.57663000 2.68253000
-9.76403000 1.46950000 2.59626000
9.53278000 1.71926000 2.87951000
9.44211000 1.66287000 3.11365000
9.47080000 1.85963000 2.94511000
-6.86988000 -1.37605000 -4.21161000
-7.10891000 -0.21171400 -4.34777000
-6.96548000 0.09664930 -4.52100000
9.40891000 3.34392000 0.63814500
9.41892000 3.35493000 0.99120400
7.27198000 1.84627000 5.54029000
7.19741000 2.05245000 5.54382000
7.44934000 1.79486000 5.47100000
7.62728000 1.74498000 5.38977000
7.60497000 1.98482000 5.38165000
4.15548000 3.02599000 -5.76263000
-9.85104000 1.55289000 2.34446000
