-1.75742000 0.87762400 8.20091000
-1.97839000 0.89747900 8.19890000
-2.47009000 0.89884500 8.16843000
-2.56913000 0.89434400 8.14842000
-2.48529000 0.86918400 8.17060000
-6.54561000 6.13461000 7.82440000
-6.48355000 6.06845000 7.87857000
-6.47672000 6.15229000 7.89722000
-6.43098000 6.04964000 7.93227000
-6.29433000 6.06805000 8.07230000
-5.61911000 3.71250000 -1.09139000
-5.84684000 4.20766000 -0.84590300
-6.69801000 1.58902000 5.60686000
-6.76345000 1.49738000 5.41298000
-6.71248000 1.42905000 5.54223000
-6.67414000 2.05749000 5.72969000
-6.65316000 1.90548000 5.75565000
-0.32330000 0.92673800 8.23539000
-0.18849700 1.00415000 8.25525000
-0.45408300 1.05688000 8.27221000
-1.04152000 0.98630200 8.24833000
-1.02497000 0.93759000 8.23724000
-0.78092100 0.93694700 8.23829000
-5.17942000 0.22049100 -1.13866000
-5.25666000 0.23029800 -1.11913000
-5.17877000 0.24235500 -1.19131000
-5.30747000 0.25907500 -1.14348000
-5.17524000 0.25537800 -1.22266000
-5.25666000 0.23029800 -1.11913000
8.26951000 2.72443000 -0.36071400
8.18848000 2.82796000 -0.48161000
8.28261000 3.00899000 -0.36103600
8.07634000 2.38939000 -0.57461400
8.12007000 2.59767000 -0.54503300
8.19258000 2.60112000 -0.44937700
6.90910000 7.24269000 1.72049000
7.04535000 7.28996000 1.61953000
7.88978000 7.48223000 1.42042000
8.02683000 7.48577000 1.51318000
8.01968000 7.50297000 1.42902000
-3.68895000 3.61073000 -2.49858000
-3.90807000 3.69546000 -2.39240000
-3.79401000 3.78284000 -2.45108000
-3.62625000 3.81459000 -2.53476000
-3.38534000 3.86547000 -2.64440000
-3.58309000 3.74184000 -2.55324000
6.41885000 0.75528100 7.83299000
6.43854000 0.68743800 7.82592000
6.54794000 0.70865900 7.77978000
6.36475000 0.82296400 7.84987000
6.36973000 0.87609700 7.84175000
-6.61490000 1.23348000 5.72044000
-6.63941000 1.19321000 5.64922000
-6.66610000 1.43540000 5.66305000
4.23612000 6.66723000 2.61885000
4.22358000 6.64689000 2.71298000
4.32140000 6.67945000 2.60117000
3.54394000 6.74584000 1.99444000
3.72174000 6.74504000 2.05826000
-4.47606000 0.81725700 -1.80110000
-4.39994000 0.79933100 -1.83952000
-4.44688000 0.78261100 -1.84338000
-4.28129000 0.86452200 -1.88783000
-6.40092000 5.76340000 7.06630000
-6.41217000 5.73912000 6.97338000
-6.36153000 5.70367000 7.01847000
-6.36659000 5.68028000 6.98270000
-6.41410000 5.71115000 6.91663000
-6.40196000 5.65183000 6.90393000
9.51617000 7.84806000 0.63017000
9.46376000 7.85610000 0.59230900
9.54117000 7.83246000 0.81842700
9.32912000 7.89934000 -0.03982440
3.24652000 4.40275000 8.90844000
3.35520000 4.42960000 8.90225000
3.23904000 4.52638000 8.91093000
2.64943000 3.93002000 8.90434000
2.69879000 3.81459000 8.89236000
2.83247000 3.89963000 8.89277000
-1.61482000 4.83561000 8.75427000
-1.71120000 4.89542000 8.76448000
-1.71417000 4.83738000 8.75282000
-1.58974000 4.80555000 8.75362000
7.05452000 5.70247000 8.94043000
7.25539000 5.74041000 8.86214000
7.11665000 5.76444000 8.92669000
7.43192000 5.85198000 8.78987000
7.51439000 5.80890000 8.73714000
0.86790000 5.13118000 9.05836000
0.81114900 5.11607000 9.02066000
0.84836700 5.08263000 8.99734000
1.46836000 5.08279000 9.10876000
1.51169000 5.06808000 9.09622000
-0.33656600 7.44630000 -0.80450700
-0.33126100 7.49212000 -0.99300600
-0.44910200 7.45635000 -0.80925000
-0.11406500 7.46575000 -0.93714000
0.09943270 7.48199000 -1.05016000
-0.04590020 7.50571000 -1.11720000
-0.01840590 5.16679000 8.96125000
-0.13496100 5.17475000 9.00916000
-0.05473890 5.16028000 9.04204000
-0.11092700 5.17194000 9.05675000
-7.42339000 5.34356000 3.90804000
-7.43384000 5.24597000 3.72212000
-7.41905000 5.19750000 3.88409000
-7.37106000 4.71279000 4.03007000
-7.39920000 4.88899000 3.90539000
4.78811000 5.37732000 9.29372000
4.73948000 5.24742000 9.25972000
4.71729000 5.27314000 9.27491000
-1.12673000 7.91285000 -3.78600000
-1.40960000 7.89733000 -3.76148000
-1.34795000 7.79886000 -3.78713000
9.13097000 4.03202000 1.80377000
9.16256000 4.16232000 1.94395000
9.25444000 4.81865000 2.15054000
9.22848000 4.62381000 2.14403000
-6.42776000 1.44063000 6.14037000
-6.51924000 1.44770000 5.98225000
-6.47463000 1.37656000 6.04391000
-6.33082000 1.34915000 6.27388000
-6.41362000 1.32295000 6.13699000
-3.28759000 6.05109000 8.26586000
-3.18944000 6.02320000 8.37478000
-2.94371000 5.99329000 8.40613000
-2.98334000 5.96958000 8.59229000
-2.73906000 5.95511000 8.55789000
-5.19879000 5.20039000 -1.52611000
-4.99220000 5.19429000 -1.69137000
-5.11985000 5.11937000 -1.58527000
-5.22483000 5.91251000 -1.51984000
9.99445000 7.34783000 2.51250000
9.97821000 7.41262000 2.15882000
9.99051000 7.36110000 2.40342000
9.98456000 7.34872000 2.18068000
5.10916000 5.26679000 9.21719000
4.98746000 5.29476000 9.24348000
5.01053000 5.24123000 9.21084000
5.18866000 5.17829000 9.11647000
5.07982000 5.17001000 9.14115000
5.12685000 5.16856000 9.11848000
3.44313000 2.60723000 -3.22252000
3.63461000 2.59911000 -3.18554000
4.12286000 2.60562000 -3.08699000
4.06827000 2.52291000 -3.09712000
8.69739000 7.25105000 -0.48257500
8.70414000 7.22452000 -0.38402500
8.64393000 7.25684000 -0.55733200
8.82045000 7.07011000 0.12833700
8.69514000 7.00942000 -0.03982420
8.75012000 7.08160000 -0.00333009
8.24820000 4.74301000 -0.46135400
8.22425000 4.59551000 -0.49519500
8.19475000 4.70732000 -0.53522600
8.18872000 5.45569000 -0.59575400
8.25166000 5.40601000 -0.49833000
8.17401000 5.29428000 -0.59880900
3.69434000 4.08942000 8.85949000
3.59458000 4.16425000 8.87645000
3.66749000 4.00831000 8.85917000
4.33282000 3.44667000 8.71520000
4.17406000 3.55326000 8.75000000
4.21385000 3.44129000 8.72436000
9.89068000 7.30740000 3.74502000
9.91005000 7.27211000 3.72742000
9.91961000 7.33368000 3.55982000
9.84735000 7.25628000 3.99252000
9.87074000 7.25330000 3.91543000
-3.79184000 4.96158000 -2.45630000
-3.72520000 4.70539000 -2.48339000
-3.89240000 4.87090000 -2.39907000
-3.85414000 4.59165000 -2.41748000
-3.91627000 4.73843000 -2.38468000
9.40717000 6.20864000 6.55787000
9.34037000 6.16146000 6.70337000
9.33242000 6.12360000 6.64605000
9.21819000 6.06082000 6.89444000
9.13379000 6.01789000 7.01356000
9.19384000 6.03300000 6.87619000
9.78264000 6.74801000 4.15200000
9.75475000 6.68322000 4.26832000
9.77581000 6.73604000 4.05554000
9.78111000 6.73620000 4.35384000
9.81713000 6.85267000 4.25336000
9.82605000 6.88788000 4.36003000
0.32418800 1.52302000 8.42558000
0.46960100 1.55831000 8.43289000
0.44243100 1.66908000 8.46818000
-0.35063000 1.52053000 8.42896000
-0.20505600 1.43155000 8.39978000
-0.18335200 1.59263000 8.45331000
-0.42032400 6.71039000 2.32353000
-0.41043700 6.72985000 2.21147000
0.15272800 6.71932000 2.09877000
0.24798200 6.69609000 2.17956000
0.28584300 6.70372000 2.13077000
-0.49934300 7.84822000 -2.64094000
-0.34508700 7.85577000 -2.71610000
-0.43776900 7.86647000 -2.74681000
-1.04498000 7.86397000 -2.54995000
-0.78807900 7.85039000 -2.57302000
-1.05013000 7.87989000 -2.61972000
-7.11360000 1.22609000 2.81636000
-7.12139000 1.27930000 3.04899000
-7.12790000 1.39441000 2.99939000
-7.09639000 0.83453900 2.86628000
9.04046000 7.09655000 0.45147800
9.09778000 7.08273000 0.57583100
8.98709000 7.05693000 0.44617300
8.74545000 7.14382000 -0.07680050
8.78308000 7.16745000 -0.07800630
8.79529000 7.12839000 0.01049560
7.40635000 5.46277000 8.39230000
7.39550000 5.47241000 8.51247000
7.36086000 5.45923000 8.47389000
7.77162000 5.55472000 8.26208000
7.72129000 5.54765000 8.34487000
-0.13383600 5.15546000 8.95338000
-0.14742100 5.17138000 9.06567000
-0.21462100 5.19750000 9.03320000
-0.16880300 5.18207000 9.00820000
8.42376000 3.90751000 -0.18250400
8.61998000 4.00116000 0.18315900
3.22964000 0.16952800 -0.66472200
3.26332000 0.16269600 -0.85732000
3.35463000 0.16711700 -0.75250000
3.68187000 0.17845100 0.09289020
3.71965000 0.17837000 0.01950020
3.86893000 0.17772700 0.09795430
9.13298000 1.13646000 2.93034000
9.14030000 1.01878000 2.85630000
9.14255000 1.16371000 2.80807000
8.80028000 7.01392000 0.14618200
8.75076000 6.95042000 0.10478500
8.65985000 6.70260000 0.05181280
-7.24269000 7.49542000 -0.32389300
-7.25137000 7.45756000 -0.25902400
-7.34092000 7.47428000 -0.12205100
-7.29679000 7.35394000 0.10270000
-7.35217000 7.38360000 0.06797490
-7.30089000 7.38650000 -0.02470700
-3.96603000 2.67829000 -2.32126000
-3.88275000 2.75104000 -2.37230000
-3.84095000 2.48006000 -2.36828000
-3.52609000 2.46351000 -2.51514000
-3.44491000 2.40611000 -2.54199000
-3.52778000 2.34381000 -2.50308000
-5.27804000 5.57313000 8.59013000
-5.26309000 5.59877000 8.63474000
-5.37330000 5.63985000 8.60604000
-5.32957000 5.70311000 8.68450000
-5.26671000 5.63213000 8.66689000
-5.21671000 5.64483000 8.70515000
7.62218000 0.33961900 6.75553000
7.63561000 0.38286500 6.83198000
7.68681000 0.25931600 6.41519000
-5.40168000 7.27452000 -1.58422000
-5.37651000 7.22798000 -1.52836000
-5.49355000 7.27155000 -1.50344000
-5.85319000 7.31705000 -1.29967000
3.03631000 1.79464000 -3.19430000
2.99001000 1.67342000 -3.18940000
2.85288000 1.72543000 -3.21006000
2.74404000 1.61273000 -3.20869000
2.75111000 1.50389000 -3.19149000
2.52427000 1.58902000 -3.22123000
-6.91191000 6.76401000 0.69882200
-6.91537000 6.85098000 0.67856600
-7.11215000 6.72173000 1.17413000
-7.05837000 6.84174000 0.98964900
-7.04334000 6.68877000 1.01778000
-3.60029000 8.13776000 -2.83129000
-3.54450000 8.12281000 -2.76401000
-3.45110000 8.13567000 -2.94776000
-3.69884000 8.10858000 -2.58917000
-3.82311000 8.10745000 -2.51450000
-3.68959000 8.10472000 -2.55638000
8.64385000 2.07718000 5.78322000
8.71057000 2.13048000 5.64158000
8.58903000 2.35515000 5.94045000
2.59381000 0.24380200 7.50246000
2.49855000 0.24404400 7.62504000
2.45579000 0.24605300 7.47207000
2.01875000 0.27635800 6.93198000
1.84086000 0.26856000 7.07426000
-4.06578000 1.97003000 8.13781000
-4.15911000 2.01473000 8.11570000
-4.32470000 2.36994000 8.12921000
-4.41714000 2.29486000 8.07093000
-4.28732000 2.09125000 8.08355000
-7.35587000 4.52919000 2.59490000
-7.30314000 4.20027000 2.41436000
-7.32147000 4.21208000 2.54595000
-7.32975000 4.39487000 2.50407000
-7.19414000 5.97947000 5.26668000
-7.21922000 5.88204000 5.15736000
-7.17605000 5.79282000 5.29851000
-7.04688000 5.86645000 5.68274000
-7.09310000 5.96588000 5.57993000
-7.13691000 5.92264000 5.43709000
-3.02956000 1.11893000 8.16771000
-2.51993000 0.96508100 8.17430000
-2.51423000 0.91910200 8.16305000
-1.78419000 4.25830000 -3.18473000
-1.88137000 4.12680000 -3.16150000
-1.97180000 4.20621000 -3.13811000
-2.27654000 4.03363000 -3.04640000
-2.12662000 4.14456000 -3.09398000
-1.97598000 4.02688000 -3.13570000
-5.63125000 3.72207000 7.41476000
-5.68687000 3.54080000 7.32851000
-5.64274000 3.51347000 7.37248000
-5.46027000 3.66515000 7.57955000
-5.54186000 3.60310000 7.49265000
8.43542000 0.26156700 2.89031000
8.40093000 0.26622900 2.73107000
8.86691000 0.25457400 2.58638000
8.74658000 0.24862500 2.62456000
8.79336000 0.25352900 2.49587000
-6.53371000 7.89187000 0.83587600
-6.62840000 7.91011000 0.80227600
-6.63491000 7.89010000 0.93828400
-6.77140000 7.74099000 1.85899000
-6.86039000 7.74251000 1.91357000
-6.84391000 7.71912000 2.04589000
9.51738000 6.45630000 4.52932000
9.50283000 6.43580000 4.67112000
9.47526000 6.41322000 4.62039000
9.57164000 6.55373000 4.11076000
9.16441000 3.11268000 3.64752000
9.15372000 3.17924000 3.78899000
9.15694000 3.04773000 3.78586000
9.07221000 3.20810000 4.41526000
9.11586000 2.96711000 4.20288000
9.11007000 3.10480000 4.21566000
-0.84241800 4.35766000 -3.34799000
-0.92384700 4.51247000 -3.34357000
-0.58133400 4.46119000 -3.38079000
-0.94860500 4.36594000 -3.33610000
-1.07079000 4.45436000 -3.32275000
-1.00359000 4.55170000 -3.33473000
-2.67427000 6.71626000 3.63627000
-2.88126000 6.74825000 3.65009000
-2.83327000 6.72374000 3.73369000
-2.98680000 6.63877000 4.33351000
-3.02932000 6.62237000 4.45280000
-2.92860000 6.61289000 4.42121000
8.17353000 6.25832000 -0.67871000
8.26838000 6.89528000 -0.67911200
8.32256000 6.69793000 -0.52759000
8.24828000 6.78169000 -0.66946600
-5.31092000 2.81687000 7.58445000
-5.36920000 3.22224000 7.60406000
-5.45384000 3.26412000 7.53124000
-5.40577000 3.05689000 7.54072000
3.77825000 6.27319000 4.47997000
3.97833000 6.30888000 4.35280000
3.96362000 6.38540000 3.91359000
4.17503000 6.40421000 3.89534000
4.05630000 6.41563000 3.78964000
-2.69541000 0.21984800 0.48251000
-2.80690000 0.22065200 0.41442500
-2.69477000 0.21655200 0.38323600
-3.20142000 0.23528200 1.09157000
-3.02884000 0.23270900 0.97710800
-3.03278000 0.22812800 1.06440000
0.25152100 0.21486400 7.71845000
0.40963500 0.21631100 7.72633000
0.27234000 0.21172900 7.77729000
0.74941500 0.21912500 7.69015000
0.25152100 0.21486400 7.71845000
0.47128900 0.22145600 7.60824000
5.73775000 7.57845000 -0.52461400
5.82127000 7.58545000 -0.51939000
5.82602000 7.59501000 -0.55258800
6.23718000 7.71293000 -0.84470100
6.28790000 7.70256000 -0.75869100
6.33685000 7.73335000 -0.87275500
-0.29034600 0.20433400 -2.92453000
-0.24661800 0.26671200 -3.00235000
-0.17371000 0.23930100 -2.97703000
-0.36542400 0.29725700 -3.01400000
-0.12170200 0.29693600 -3.03185000
-6.92076000 1.67953000 4.93582000
-6.93852000 1.74472000 4.88197000
-6.94672000 1.58082000 4.80174000
-1.85002000 7.52861000 -0.65041200
-1.87422000 7.56045000 -0.77235400
-1.75300000 7.49662000 -0.56592900
-1.60156000 7.50008000 -0.63296900
-1.64287000 7.52580000 -0.71905900
9.21224000 4.70773000 4.25738000
9.18700000 4.53788000 4.28037000
9.22205000 4.63763000 4.12740000
9.16650000 4.52839000 4.39106000
9.12864000 4.50010000 4.56003000
9.16642000 4.40347000 4.29372000
-4.77412000 4.04513000 -1.84595000
-4.71271000 3.90462000 -1.89579000
-4.80467000 3.76877000 -1.82698000
1.27303000 2.65353000 -3.40836000
1.33524000 2.78094000 -3.41616000
1.48371000 2.75337000 -3.41431000
0.95615700 2.59767000 -3.41150000
1.13943000 2.78142000 -3.41833000
1.12488000 2.61221000 -3.40724000
2.87828000 0.97127100 8.21642000
2.76012000 0.99418000 8.22293000
2.83729000 0.89305800 8.20452000
2.99243000 0.90334700 8.20549000
2.93753000 0.88863700 8.21602000
2.94002000 0.84314000 8.20605000
-1.11057000 0.24356100 7.15938000
-0.83630600 0.26831900 6.94830000
-0.72288500 0.26904300 7.00046000
-0.81596900 0.25618100 7.09122000
-0.62763400 0.16333900 -2.82984000
-0.92505200 0.16213300 -2.77100000
-0.76396400 0.17250200 -2.82623000
4.83031000 0.60914400 -2.67535000
4.72436000 0.48197800 -2.68395000
4.93633000 0.46791100 -2.61804000
4.82203000 0.38278500 -2.62993000
9.01466000 4.39503000 5.02705000
9.02013000 4.30677000 4.96275000
9.06361000 4.59173000 4.93116000
9.10429000 4.67549000 4.79113000
9.11136000 4.61713000 4.72610000
9.16779000 4.71568000 4.50472000
-6.60140000 1.77229000 0.46482700
-6.64118000 1.99109000 0.50590300
-6.57575000 1.90339000 0.38669400
-6.51522000 2.29695000 0.21459400
-6.49529000 2.13956000 0.20535000
-6.54167000 2.23184000 0.27552400
3.74257000 1.09040000 8.21031000
4.01185000 0.98389100 8.17213000
4.02439000 0.93992100 8.17743000
4.08460000 0.95487300 8.18065000
-5.90206000 7.53866000 2.19122000
-5.74523000 7.49526000 2.26485000
-5.88518000 7.58327000 1.95184000
-6.21354000 7.61221000 2.10207000
-6.25743000 7.64686000 1.94926000
-6.32423000 7.63086000 2.09484000
-1.03799000 0.25602100 7.03366000
-1.20768000 0.25497600 6.99910000
-1.00849000 0.26422000 6.91534000
-1.40912000 0.27049000 6.55579000
-1.28645000 0.28077900 6.45105000
2.02912000 0.29581000 5.88113000
1.75388000 0.30802900 5.69673000
1.89825000 0.29950800 5.52591000
2.38369000 0.28552100 5.71015000
2.24880000 0.28632500 5.72237000
2.23723000 0.28720900 5.46699000
7.77338000 8.04709000 -1.66284000
7.88720000 8.04467000 -1.66019000
7.81462000 8.04773000 -1.73527000
8.33614000 8.02603000 -1.27298000
8.41194000 8.02466000 -1.23520000
8.28422000 8.02997000 -1.37025000
-3.38671000 3.06718000 8.57783000
-3.58694000 2.84677000 8.48289000
-3.23993000 3.25858000 8.64020000
-3.34643000 3.19620000 8.60652000
-3.24459000 3.12393000 8.62501000
8.60157000 4.10260000 0.14562000
8.62142000 4.28547000 0.17616600
8.79586000 4.48482000 0.57478600
8.74111000 4.51979000 0.43339200
8.79288000 4.63281000 0.54054300
0.70440000 5.94265000 6.69268000
1.02400000 5.93542000 6.65715000
1.64721000 5.88663000 7.06815000
1.39393000 5.87200000 7.26332000
1.62945000 5.87441000 7.18993000
-3.17964000 0.23287000 1.15765000
-3.08197000 0.23078000 1.17557000
-2.20218000 0.19693900 1.09873000
-2.40732000 0.20441500 1.20098000
6.28002000 3.80325000 8.28949000
6.43878000 3.70012000 8.21634000
6.45719000 3.85357000 8.23515000
6.46322000 3.10593000 8.12310000
7.96389000 6.43203000 7.41725000
8.02611000 6.45767000 7.31918000
7.89291000 6.45437000 7.23414000
8.27666000 6.40526000 7.68798000
8.19363000 6.40671000 7.65165000
8.17506000 6.38532000 7.71853000
3.46838000 4.71367000 8.91817000
3.43703000 4.75539000 8.94075000
3.40238000 4.72412000 8.92741000
3.43590000 4.50420000 8.90370000
0.64073300 7.18996000 -3.67121000
0.81267300 7.20266000 -3.70224000
0.71548900 7.12903000 -3.60900000
0.78614600 7.26544000 -3.78544000
-7.88302000 7.12718000 4.81702000
-7.88198000 6.98538000 4.95648000
-7.14245000 1.96674000 3.84205000
-7.15813000 2.00339000 3.76062000
-7.13369000 1.82140000 3.76215000
-7.13602000 1.69753000 3.59093000
8.44715000 0.24742000 0.84479300
8.32200000 0.24139100 0.76979600
8.39683000 0.24396300 0.69817400
7.92892000 0.24420400 0.92766900
8.09298000 0.25047400 1.05082000
7.80336000 0.25176000 0.97204000
6.74166000 2.29261000 7.87897000
6.80718000 2.22236000 7.82994000
6.80091000 2.35539000 7.85670000
6.79640000 1.20326000 7.67600000
6.75091000 1.35534000 7.72303000
6.67069000 1.37576000 7.76853000
9.37558000 7.34196000 -0.09954940
9.33893000 7.32307000 -0.13258700
9.05043000 7.29462000 -0.41722400
9.11667000 7.29566000 -0.33547400
8.33840000 0.27507100 4.90648000
8.24588000 0.27217800 4.79121000
8.36629000 0.27362500 4.82376000
7.92780000 0.26365700 5.85323000
7.95505000 0.26574700 5.64271000
8.02932000 0.26590800 5.65782000
1.35205000 5.73776000 9.07765000
1.41812000 5.70625000 9.20136000
1.49513000 5.73004000 9.10466000
1.11556000 5.75520000 9.00434000
1.20045000 5.76420000 8.92540000
0.93453800 5.77039000 8.93674000
6.12432000 6.69174000 3.66158000
6.13903000 6.72358000 3.51328000
6.03212000 6.69842000 3.53932000
6.42069000 6.89632000 2.88275000
6.53074000 6.92381000 2.84175000
6.47198000 6.92220000 2.81788000
6.18292000 2.97691000 -2.31121000
6.14658000 3.10601000 -2.34465000
6.17994000 3.39539000 -2.33533000
6.34569000 3.21983000 -2.23204000
6.14377000 3.24403000 -2.35486000
-1.04168000 3.09283000 8.84550000
-0.79072800 3.18703000 8.87010000
-0.84611200 3.22691000 8.87147000
-1.21909000 2.59871000 8.74655000
-1.11901000 2.70988000 8.77179000
-1.17094000 2.87595000 8.80177000
6.37479000 1.52021000 7.91683000
6.53781000 1.42809000 7.83725000
6.39995000 1.60662000 7.91659000
6.72253000 1.66490000 7.77914000
6.57318000 1.71610000 7.85767000
6.55743000 1.66835000 7.86048000
7.14085000 0.20594200 -0.36714400
6.99455000 0.20875500 -0.41095300
7.09277000 0.20578100 -0.42976300
6.98659000 0.21952700 -0.00043581
7.12646000 0.22121500 0.04739200
-7.18835000 2.90167000 4.23914000
-7.21576000 2.95408000 4.08408000
-7.20274000 2.77306000 4.10627000
-7.15853000 2.93945000 4.39581000
-7.18747000 2.73158000 4.19630000
-7.13249000 2.89444000 4.49621000
3.36388000 5.25932000 9.41815000
3.46283000 5.30899000 9.43969000
3.90783000 5.30634000 9.42080000
3.84208000 5.27732000 9.41333000
3.97327000 5.28142000 9.40457000
8.78886000 5.62900000 6.00524000
8.67657000 5.55947000 6.25603000
8.72858000 5.56686000 6.13899000
8.60985000 4.86463000 6.23296000
8.29611000 0.26446100 5.02673000
8.32176000 0.26076300 5.13830000
8.28711000 0.25666400 5.12625000
8.27409000 0.25425200 5.08831000
8.25038000 0.24926800 5.05438000
8.29611000 0.26446100 5.02673000
-4.62815000 5.03971000 -1.95206000
-4.44407000 4.95346000 -2.07006000
-4.45806000 4.18700000 -2.06492000
-4.49326000 4.08025000 -2.04393000
-7.28473000 6.15286000 4.93896000
-7.29405000 6.19385000 4.91179000
-7.08434000 6.05222000 5.62736000
-7.05620000 6.03895000 5.68652000
9.42292000 7.04744000 1.28055000
9.56753000 7.11287000 1.13530000
9.49077000 7.10210000 1.10266000
5.70769000 7.08691000 1.55152000
5.62434000 7.09342000 1.47886000
5.54990000 7.06762000 1.53706000
5.57048000 6.93458000 2.11196000
5.35730000 6.89921000 2.12956000
5.47442000 6.87888000 2.30070000
1.50807000 0.11559100 1.78520000
1.35518000 0.11896700 1.88407000
1.98217000 0.11301900 1.30145000
2.08040000 0.11647500 1.21528000
2.04198000 0.11752000 1.35836000
0.10192500 0.15329100 -0.81704700
-0.01479160 0.15698800 -0.90948800
0.12901400 0.15618500 -0.90000200
0.48479000 0.14372500 -0.55877600
0.51734500 0.14179600 -0.43619200
0.35762400 0.14356400 -0.52139800
1.78153000 6.56410000 2.67247000
1.90420000 6.57406000 2.62649000
1.81248000 6.58033000 2.60302000
1.03654000 6.50606000 2.97310000
1.08927000 6.51868000 2.92101000
0.90165900 6.51796000 2.94135000
-3.24877000 7.03755000 -2.65863000
-3.04170000 6.57431000 -2.76618000
-2.89243000 6.58033000 -2.81811000
-2.87547000 6.47431000 -2.83354000
0.17861100 0.14629700 -0.27695200
0.20208300 0.14742300 -0.12848400
0.07210280 0.15313000 -0.16103900
0.12684400 0.13914300 0.37447400
0.17427000 0.13472200 0.42125700
0.07764950 0.13665200 0.42141800
-1.99182000 6.10294000 6.85144000
-2.05379000 6.07344000 7.14387000
-1.84359000 6.06451000 7.05834000
-2.26343000 6.09803000 7.09459000
-2.48553000 6.11395000 7.16196000
-2.30716000 6.08365000 7.25954000
8.45680000 0.93694700 0.07496320
8.37248000 0.95117500 -0.04239650
8.24041000 1.00760000 -0.26546000
8.31597000 1.07183000 -0.12800500
8.28912000 1.00431000 -0.17848500
-1.39634000 5.21776000 9.14212000
-1.51675000 5.22178000 9.19806000
-1.55172000 5.21671000 9.10393000
-1.28886000 5.19895000 9.00289000
-1.18075000 5.21342000 9.06511000
-1.30623000 5.20691000 9.04662000
-3.00851000 6.19474000 -2.80123000
-2.84259000 6.25888000 -2.85814000
-2.86132000 6.07625000 -2.86376000
-3.10424000 5.73285000 -2.77872000
-3.10239000 5.98598000 -2.77181000
-2.92772000 5.97850000 -2.84005000
-1.74833000 6.03067000 7.27956000
-1.92558000 6.06090000 7.13848000
-1.82992000 6.04056000 7.26404000
-0.72320600 5.94514000 7.41171000
-0.68052300 5.92979000 7.57432000
-0.61862800 5.93486000 7.48984000
0.63760200 1.93330000 8.55596000
0.69684400 2.06127000 8.59085000
0.54540200 2.01055000 8.57935000
0.46574200 1.91843000 8.55484000
7.52106000 7.62548000 -2.29417000
7.54967000 7.64316000 -2.27802000
7.04382000 7.63183000 -2.53685000
7.26150000 7.63737000 -2.42857000
7.01151000 7.57258000 -2.55654000
8.19555000 0.25586000 5.01347000
8.15890000 0.27209700 4.95503000
8.22007000 0.26856000 4.96435000
8.15769000 0.24725900 5.12906000
8.22409000 0.26269200 5.22005000
8.13551000 0.26044200 5.18919000
4.35348000 0.23415600 7.36540000
4.53273000 0.23182500 7.41894000
4.44045000 0.23287000 7.57070000
4.22494000 0.24516900 7.01533000
4.11394000 0.25151900 6.88415000
4.40275000 0.25127800 6.87579000
7.46391000 6.17030000 8.33322000
7.58384000 6.20358000 8.24962000
7.52476000 6.20727000 8.19753000
7.67998000 6.15052000 8.44929000
7.79219000 6.16966000 8.39005000
7.72523000 6.17448000 8.37871000
-4.22366000 8.14917000 -2.45887000
-4.09167000 8.14950000 -2.58612000
-4.20911000 8.15906000 -2.55252000
-4.09095000 8.12032000 -2.38613000
-3.96209000 8.10842000 -2.40132000
-4.00389000 8.12216000 -2.49698000
6.23999000 4.87130000 8.44310000
6.16700000 4.83473000 8.46480000
6.32914000 4.81881000 8.39487000
6.47214000 4.82581000 8.32992000
6.42045000 4.74253000 8.33997000
6.51506000 4.67099000 8.28909000
8.13800000 0.27467000 2.72367000
7.91470000 0.27659900 2.59024000
8.02643000 0.27941200 2.53461000
7.48352000 0.26888200 2.03929000
7.41584000 0.26880200 2.07514000
7.35909000 0.26325500 1.92764000
3.81780000 7.85497000 -3.74903000
3.62279000 7.86060000 -3.77306000
3.76700000 7.87667000 -3.74091000
2.32163000 5.08320000 -3.40201000
2.21616000 5.04019000 -3.39462000
2.27179000 5.00434000 -3.39719000
2.30820000 4.88368000 -3.39293000
5.09083000 5.50288000 -2.90283000
5.04935000 5.48366000 -2.90814000
4.84775000 5.51718000 -2.92590000
4.90450000 5.48358000 -2.91843000
4.85539000 5.42000000 -2.94262000
7.59204000 6.17030000 8.38538000
7.49429000 6.15985000 8.38402000
7.46777000 6.13196000 8.48787000
7.25965000 6.01090000 8.71303000
7.34245000 5.95913000 8.76793000
4.11835000 0.17065400 -1.50818000
4.31224000 0.16181100 -1.62892000
4.24488000 0.16832300 -1.47708000
4.36537000 0.17652200 -1.15602000
4.31947000 0.17909400 -1.03923000
4.25935000 0.17555700 -1.07026000
-7.31954000 3.55752000 3.00060000
-7.30828000 3.49852000 2.84345000
-7.31222000 3.39716000 3.00011000
-7.31616000 3.37135000 3.23178000
-7.31423000 3.40833000 3.09440000
-7.30796000 3.27891000 3.11241000
-2.45997000 5.26695000 9.22700000
-1.91858000 5.23986000 9.27989000
-1.97968000 5.26526000 9.30320000
2.48030000 5.72473000 -3.43336000
7.94588000 3.54699000 -0.85032800
8.19652000 3.56620000 -0.53836100
-7.82788000 7.83013000 1.05950000
-7.83946000 7.80144000 1.04608000
-7.86446000 7.80055000 1.09841000
-7.82732000 7.80344000 0.99358800
-7.81446000 7.82708000 1.00444000
8.36404000 0.26647000 2.25214000
7.68094000 0.27040900 1.86526000
7.49083000 0.26164700 1.72330000
7.72563000 0.26172800 1.71229000
-7.15170000 6.08557000 5.45333000
-7.17605000 6.07762000 5.35518000
-7.13900000 5.97352000 5.44666000
-7.17541000 5.98654000 5.33131000
2.78962000 0.14179600 1.48706000
3.03358000 0.14597600 1.52854000
2.82812000 0.14187600 1.65546000
2.59148000 0.13625000 1.70795000
2.70562000 0.14018800 1.55972000
2.63657000 0.13657100 1.70779000
1.82020000 4.90450000 9.00273000
1.75204000 4.87725000 8.97669000
1.81940000 4.87637000 8.99333000
1.64006000 4.91423000 8.98673000
6.32005000 0.37064700 7.72086000
6.41217000 0.37908700 7.69642000
6.47761000 0.43407000 7.72865000
6.44577000 0.43101500 7.74449000
8.69288000 7.28489000 -0.62533600
8.71788000 7.26994000 -0.54696200
8.90695000 7.31480000 -0.65531900
8.89256000 7.28481000 -0.51046800
8.85727000 7.30145000 -0.62806900
-1.39159000 5.58816000 9.46896000
-1.49697000 5.60400000 9.46260000
-1.54794000 5.58728000 9.46727000
-1.67711000 5.55070000 9.46445000
-7.46961000 7.81373000 -0.09520300
-7.36913000 7.83584000 -0.29873300
8.71266000 0.24758000 2.70116000
8.64072000 0.24910800 2.73267000
8.63011000 0.25216200 2.63372000
8.50366000 0.25971800 3.10710000
8.53244000 0.25385000 2.99312000
8.64313000 0.25915600 3.22743000
9.60411000 7.71896000 1.72748000
9.50878000 7.69477000 1.82667000
9.48755000 7.67017000 1.99122000
9.62003000 7.67596000 2.01598000
9.61368000 7.66478000 2.12490000
9.69133000 7.65449000 2.23317000
1.96489000 5.24742000 -3.39888000
1.88643000 5.19002000 -3.38063000
2.06046000 5.38391000 -3.41214000
9.64261000 6.54087000 6.04020000
9.66183000 6.63901000 5.97726000
9.62622000 6.57567000 6.11335000
9.61038000 6.68154000 6.14912000
-2.21110000 2.82507000 -3.03048000
-2.07124000 2.64911000 -3.05757000
-2.22188000 2.50482000 -3.00218000
-2.19856000 2.00532000 -2.94294000
-2.03619000 1.95693000 -2.97911000
-2.15025000 1.88330000 -2.94029000
9.15533000 3.76780000 4.01873000
9.15758000 3.69570000 3.92645000
4.69952000 5.24782000 -3.02461000
4.81672000 5.25144000 -2.99005000
4.70989000 5.18898000 -3.02421000
4.93448000 5.43624000 -2.92574000
4.92227000 5.38182000 -2.94696000
8.12803000 0.25063500 5.11564000
8.11549000 0.26365700 5.07609000
8.14628000 0.25336800 5.05736000
7.73174000 0.29219300 4.75174000
-6.30478000 0.30095500 0.11282900
-6.24642000 0.29958800 0.00849099
-6.25277000 0.27121300 0.08734690
-6.27367000 0.26848000 0.13630000
-6.30478000 0.30095500 0.11282900
-2.00725000 1.84705000 -2.97035000
-1.49907000 2.36062000 -3.15218000
-1.65517000 2.46150000 -3.13506000
-1.40124000 2.46391000 -3.18723000
-6.44384000 3.56966000 6.33658000
-6.47374000 3.87037000 6.34325000
-6.50742000 3.66194000 6.25105000
-6.51956000 4.18274000 6.34358000
-6.59223000 4.10477000 6.19792000
-6.49971000 4.03034000 6.33401000
9.56255000 6.47776000 6.31849000
9.56408000 6.49223000 6.32195000
9.56255000 6.47776000 6.31849000
6.42455000 0.43189900 7.63911000
6.43661000 0.41895700 7.72986000
6.57680000 0.34460300 7.58943000
-3.35222000 0.34958700 8.01997000
-3.22996000 0.36357300 8.04947000
-3.35439000 0.39789700 8.03637000
-2.99427000 0.47956600 8.11562000
3.76443000 5.71300000 9.24163000
3.93018000 5.71244000 9.23029000
3.80382000 5.72522000 9.20192000
3.57665000 5.72755000 9.17660000
3.64916000 5.73904000 9.10578000
3.62689000 5.75263000 9.04260000
-1.74391000 2.40008000 8.67581000
-2.14117000 2.89701000 8.75121000
-2.02501000 2.77033000 8.74068000
-2.03410000 2.98375000 8.77509000
-5.74387000 0.22226000 0.61876000
-5.89338000 0.23158400 0.79576400
-5.93349000 0.22451000 0.66900000
-6.10398000 0.22644000 0.82293400
-6.18276000 0.22121500 0.91481200
-6.16612000 0.21976800 0.78660100
9.04279000 7.76237000 -0.91399200
9.11072000 7.70280000 -0.80917200
9.02961000 7.71518000 -0.93561500
9.29994000 7.78078000 -0.45002000
6.48798000 0.43342600 7.61202000
6.49867000 0.36646700 7.64916000
6.53090000 0.36558300 7.63742000
6.45775000 0.44781500 7.69128000
-1.44826000 0.28327100 4.92023000
-1.68515000 0.27475000 4.94113000
-1.70758000 0.26799800 4.75351000
-2.42572000 0.25425200 4.59299000
1.51177000 5.96661000 -3.47259000
1.15519000 5.78020000 -3.47604000
1.17874000 5.55384000 -3.46793000
0.92062700 5.52289000 -3.47452000
1.31233000 5.69467000 -3.47082000
-2.01488000 2.61294000 8.71528000
-2.11191000 2.64324000 8.71472000
-2.18626000 2.52219000 8.67565000
-2.43167000 2.51005000 8.64776000
-7.77869000 6.68933000 5.23188000
-7.79734000 6.78234000 5.35470000
6.93764000 1.15872000 7.59610000
7.04688000 1.16025000 7.53959000
7.12863000 1.16893000 7.49064000
7.10757000 1.08212000 7.48734000
7.22646000 1.09868000 7.40511000
0.57176600 0.11318000 1.56246000
0.64531600 0.11125000 1.45064000
0.66010700 0.11197400 1.60064000
0.56863100 0.11736000 1.65040000
0.41935900 0.12105700 1.66125000
6.71120000 0.42394100 7.63083000
6.55919000 0.43688300 7.66387000
6.54408000 0.43977700 7.63734000
6.58805000 0.41059800 7.65261000
-4.83256000 5.16277000 8.22880000
-4.96608000 5.16744000 8.15172000
-4.92701000 5.11945000 8.16626000
-5.25947000 5.31711000 7.97576000
-5.42394000 5.34862000 7.86025000
-5.31606000 5.29702000 7.93315000
-2.03193000 5.57940000 9.43825000
-2.18409000 5.52812000 9.41630000
-2.26922000 5.59202000 9.41116000
-2.38505000 5.50103000 9.37571000
-5.80761000 1.70477000 -0.71142100
-5.92505000 1.74641000 -0.56616900
-5.90640000 1.82076000 -0.60346700
-5.84201000 1.38934000 -0.64390000
-5.78727000 1.56048000 -0.72798000
-5.74564000 1.40108000 -0.76455500
1.31041000 7.55088000 -4.00553000
1.96079000 7.41825000 -3.92667000
1.96826000 7.48464000 -3.94773000
-1.76715000 7.76454000 -3.73512000
-1.69456000 7.81197000 -3.75843000
-1.70839000 7.72700000 -3.74396000
-1.80501000 7.92048000 -3.69822000
-1.63017000 7.92225000 -3.73054000
-1.69110000 7.88423000 -3.73689000
9.48161000 6.11323000 3.87653000
9.45749000 6.05913000 3.99461000
2.04672000 4.65250000 -3.37942000
1.96416000 4.60926000 -3.38569000
2.11536000 4.84414000 -3.39791000
2.13570000 4.78377000 -3.38336000
1.41153000 6.70967000 2.03342000
1.36105000 6.68483000 2.10456000
1.41338000 6.67173000 2.16638000
1.41651000 6.61337000 2.42569000
1.47455000 6.61755000 2.36195000
1.39473000 6.63073000 2.31637000
-5.78229000 0.22555500 0.77197100
-6.05198000 0.22338500 0.94969800
-6.01886000 0.22756500 0.89511800
-5.97971000 0.22539500 0.97405500
7.18610000 6.67567000 4.91347000
7.05371000 6.64802000 4.91106000
7.08482000 6.62004000 5.13348000
6.77840000 6.66393000 4.46895000
6.81111000 6.65236000 4.57144000
7.01127000 6.72092000 4.40264000
-6.64553000 7.45362000 -0.97250600
-6.51627000 7.45683000 -1.09646000
-6.42560000 7.38939000 -0.98488500
-6.54722000 7.52427000 -1.24476000
-6.43822000 7.52733000 -1.35376000
-6.38750000 7.50241000 -1.33134000
8.69731000 1.44296000 5.57647000
8.66781000 1.56289000 5.66160000
8.66564000 1.39610000 5.62719000
8.78348000 1.68347000 5.41836000
8.84256000 1.74375000 5.28131000
1.47142000 6.62752000 2.30263000
1.48315000 6.63572000 2.23213000
1.69351000 6.67760000 2.14998000
1.72318000 6.63925000 2.30761000
1.78419000 6.65364000 2.25102000
3.92696000 7.36335000 -3.70031000
3.93524000 7.43127000 -3.72668000
3.67592000 7.45868000 -3.78166000
-5.09959000 0.19460800 -0.63304800
-5.02773000 0.19525100 -0.74405700
-4.95434000 0.19517100 -0.69301400
-4.55001000 0.19396500 -0.96808500
-4.50082000 0.19131200 -0.93625400
-7.59983000 6.49915000 4.23657000
-7.57299000 6.46209000 4.36382000
-7.59622000 6.47383000 4.43303000
-7.68496000 6.52857000 4.38544000
-7.64220000 6.52511000 4.24485000
-7.63810000 6.51016000 4.37113000
5.68052000 7.98141000 -2.49891000
5.57876000 7.98913000 -2.61530000
5.57007000 7.97458000 -2.53275000
5.80198000 7.91646000 -2.09313000
5.98405000 7.91679000 -1.99016000
5.95543000 7.95030000 -2.17520000
-7.02027000 0.29050500 2.88999000
-7.00781000 0.28857600 2.73573000
-6.94728000 0.23528200 2.85044000
-7.02614000 0.29002300 3.01764000
-7.04222000 0.31301200 2.78541000
-5.54283000 7.27452000 -1.46156000
-5.58149000 7.21576000 -1.32346000
-5.16527000 7.14929000 -1.63535000
-2.16327000 0.25827100 5.03526000
-2.29374000 0.25481500 4.90664000
-2.13771000 0.25425200 4.94209000
-2.26568000 0.25610100 5.25044000
-2.29285000 0.25577900 5.00109000
0.41461500 7.52532000 -3.94323000
0.79129100 7.57548000 -3.99299000
1.04611000 7.57202000 -4.01751000
0.68928400 7.53127000 -3.97112000
2.75224000 0.15441600 -1.17556000
2.77097000 0.15152200 -1.27797000
2.88029000 0.15747100 -1.23850000
2.06665000 0.15642600 -1.14823000
1.95661000 0.15779200 -1.27194000
2.11014000 0.15393400 -1.27387000
-7.73351000 6.61353000 4.21197000
-7.68858000 6.56426000 4.20819000
-7.78078000 6.67695000 4.20787000
7.74211000 5.93823000 -1.19051000
7.86574000 5.88020000 -1.04815000
7.78994000 5.81565000 -1.12789000
7.45482000 5.95961000 -1.48262000
7.47878000 6.12159000 -1.47627000
7.60859000 5.84957000 -1.32105000
-4.30943000 8.01590000 -2.91786000
-4.31128000 7.95666000 -2.93707000
-4.42277000 7.92595000 -2.90629000
-4.28555000 7.89098000 -2.95870000
5.74604000 0.25023300 7.70132000
5.65480000 0.25336800 7.72142000
6.43854000 0.25859300 7.46090000
6.49505000 0.24605300 7.31966000
-5.58897000 5.33721000 7.71089000
-5.42522000 5.29372000 7.84401000
-3.21091000 0.45665700 -2.49657000
-3.45286000 0.38471400 -2.39473000
-3.58083000 0.39379800 -2.34352000
2.45876000 0.14951300 -1.88020000
2.50048000 0.15152200 -1.98735000
2.53922000 0.15449700 -1.87521000
2.51053000 0.14227800 -2.25398000
2.49172000 0.14895000 -2.12054000
2.43384000 0.14171600 -2.22753000
-6.29754000 5.80005000 7.62400000
-6.27761000 5.78936000 7.60246000
-6.19079000 5.77128000 7.70109000
-6.19305000 5.77031000 7.74401000
-6.21049000 5.76927000 7.77882000
0.47241000 2.97981000 -3.43609000
0.67344900 2.97169000 -3.43071000
0.39677000 3.16228000 -3.43191000
0.63414100 3.19355000 -3.42950000
0.66139100 3.06349000 -3.43344000
8.43180000 2.40547000 6.26930000
8.38703000 2.67974000 6.37388000
8.42216000 2.71551000 6.31536000
1.44248000 6.68805000 2.07595000
1.48492000 6.64641000 2.18953000
1.50606000 6.63435000 2.30303000
1.53532000 6.65372000 2.24724000
1.50823000 6.64094000 2.22064000
8.25761000 0.26438100 5.34826000
8.24322000 0.25955800 5.27881000
8.30745000 0.25674400 5.27536000
8.14933000 0.27040900 5.31217000
8.15898000 0.26920300 5.37889000
-3.47786000 4.77991000 -2.60807000
-3.37280000 4.75097000 -2.65814000
-3.35239000 4.68168000 -2.66425000
-3.26236000 4.97516000 -2.71345000
-3.19717000 4.87677000 -2.73708000
0.25867100 3.90847000 -3.42886000
0.54612200 3.88661000 -3.43151000
0.44443700 3.73718000 -3.42757000
0.76701500 3.19990000 -3.43119000
0.56983500 3.43156000 -3.42677000
0.67320800 3.50182000 -3.42958000
-6.65461000 2.80288000 5.83716000
-6.69030000 2.89685000 5.77551000
-6.81578000 2.64959000 5.47391000
-6.83981000 2.60723000 5.38549000
-6.78049000 2.55394000 5.52881000
-3.76330000 1.17175000 -2.23026000
-3.88388000 1.59070000 -2.24120000
-3.72946000 1.44103000 -2.30092000
1.56185000 6.69367000 2.07152000
1.53476000 6.68708000 2.06807000
1.53556000 6.66835000 2.10038000
1.42929000 6.74311000 1.82435000
1.40012000 6.72896000 1.91309000
1.41909000 6.71835000 1.99709000
4.87147000 0.92923000 8.13540000
4.94486000 0.86998800 8.13813000
5.01407000 0.94972800 8.12711000
4.70540000 1.01371000 8.14994000
-4.14914000 0.25232300 3.36272000
-4.03275000 0.25409100 3.31473000
-4.05075000 0.25754800 3.41979000
-3.54321000 0.24581200 2.77665000
-3.55101000 0.24983100 2.99971000
-3.70864000 0.24983100 2.96844000
-1.42809000 5.91098000 8.28234000
-1.44738000 5.90664000 8.34319000
-1.21997000 5.90351000 8.27727000
-2.18128000 5.92031000 8.55371000
-2.27605000 5.90962000 8.68490000
-7.64389000 7.93399000 1.06063000
-7.44791000 7.89605000 1.29149000
-7.32605000 7.91051000 1.19358000
-7.46704000 7.92458000 1.13418000
-1.95187000 6.34891000 5.08847000
-2.16351000 6.37511000 5.10447000
-2.18104000 6.35558000 5.22994000
-1.39087000 6.22858000 5.47986000
-1.50871000 6.23187000 5.54907000
7.59260000 6.03477000 -1.35409000
7.68898000 6.02489000 -1.25321000
7.78865000 6.66731000 -1.22620000
-5.25176000 8.15761000 -2.36282000
-5.31333000 8.17417000 -2.26459000
-5.59476000 8.18944000 -2.04546000
-5.51719000 8.18398000 -2.11507000
-5.57860000 8.15946000 -2.16162000
6.48034000 7.98792000 -2.69432000
6.64938000 8.01244000 -2.55164000
6.67502000 7.98077000 -2.60485000
7.08120000 5.10136000 8.08122000
7.13426000 5.03480000 8.03170000
7.19165000 5.04019000 7.99625000
7.15258000 5.23962000 8.07519000
7.13410000 5.29404000 8.12157000
-2.08731000 5.89611000 8.72678000
-1.97011000 5.85954000 8.94341000
-2.23168000 5.85560000 9.01817000
-2.49244000 4.25830000 8.79768000
-2.61278000 4.16040000 8.79599000
-2.49871000 4.12446000 8.80185000
-2.55739000 4.09263000 8.80322000
-2.76132000 3.92656000 8.77573000
-2.63400000 3.93484000 8.79205000
-6.72912000 7.99757000 -1.23681000
-6.79737000 8.04588000 -1.12395000
-6.57615000 8.05697000 -1.39291000
-6.65590000 8.02442000 -1.31848000
-3.80133000 2.32822000 -2.37680000
-3.76564000 2.35105000 -2.39304000
-3.72850000 2.23787000 -2.39923000
-3.82391000 2.25017000 -2.35261000
-5.61895000 1.85396000 7.08993000
-5.59194000 1.80259000 7.11340000
-5.90367000 1.84134000 6.84042000
-5.93051000 1.74424000 6.80522000
8.61451000 0.29179100 4.84193000
8.63662000 0.28503900 4.70078000
8.69602000 0.30392900 4.65882000
8.69980000 0.27089200 4.27877000
8.70687000 0.26237100 4.23070000
8.74345000 0.27306200 4.21317000
-7.24108000 6.69962000 1.56809000
-7.08506000 6.57752000 1.15789000
8.19395000 5.65014000 7.30166000
7.80481000 5.52554000 7.71507000
7.80497000 5.50288000 7.65189000
7.88383000 5.55046000 7.63951000
-7.44807000 6.72108000 2.46018000
-7.31769000 6.80484000 1.79814000
-7.24076000 6.77108000 1.54019000
-7.28329000 6.76610000 1.70707000
9.19255000 0.52377700 3.48016000
9.20557000 0.60641100 3.49278000
9.18668000 0.54821400 3.61769000
9.20107000 0.50287800 3.22036000
6.72550000 7.97458000 -2.59722000
6.75227000 8.01863000 -2.50847000
-5.82867000 0.46919700 6.80731000
-5.88084000 0.46477600 6.75682000
-5.78615000 0.38286500 6.78801000
-5.83928000 0.77529600 6.83166000
-5.89812000 0.66975300 6.76205000
0.84024600 6.40711000 3.50661000
0.85125900 6.42037000 3.43973000
0.75769300 6.44087000 3.36377000
0.52723400 6.54030000 2.89891000
-4.75001000 1.14490000 -1.62835000
-4.91110000 1.06026000 -1.49427000
-4.78353000 0.89667500 -1.56348000
-4.65612000 0.89707700 -1.65183000
-2.19888000 5.08135000 8.84864000
-2.26230000 5.10168000 8.87291000
-2.36045000 5.10000000 8.87171000
-2.71768000 5.17282000 8.98842000
-2.81470000 5.16551000 8.99357000
-5.01021000 0.18938300 -1.15200000
-4.89824000 0.18857900 -1.10884000
-4.73916000 0.19243700 -1.10273000
-4.86351000 0.19179400 -1.05377000
7.85232000 6.09707000 -1.08071000
7.89347000 5.99402000 -1.02291000
7.88375000 5.82706000 -1.02203000
7.89347000 5.99402000 -1.02291000
7.88375000 5.82706000 -1.02203000
-0.08014420 4.78779000 -3.43376000
0.13873900 4.74510000 -3.44011000
0.04059140 4.62815000 -3.43706000
0.46782900 4.57220000 -3.44100000
0.25529500 4.57501000 -3.44092000
0.29998800 4.72525000 -3.44261000
-4.98215000 0.91355600 7.39434000
-5.08737000 0.89611200 7.32546000
-4.73618000 0.89088700 7.54538000
-4.83143000 0.90278400 7.48783000
-5.23215000 0.40673900 -1.31840000
-5.27491000 0.36686900 -1.27193000
-4.91447000 0.35658000 -1.56348000
-5.04727000 0.36268900 -1.45810000
-0.23970200 6.27544000 4.56895000
-0.31783500 6.32343000 4.34091000
-0.43720400 6.31298000 4.44203000
-0.60858200 6.59223000 2.99899000
-3.42875000 0.24581200 2.69361000
-3.23430000 0.23857700 2.65953000
-3.23486000 0.23769300 2.88275000
-3.35568000 0.24243600 2.96362000
-3.44338000 0.24460600 2.83943000
9.71914000 7.11617000 1.25298000
9.71174000 7.09093000 1.35619000
9.67903000 7.09012000 1.30000000
9.81528000 7.04326000 1.78729000
-3.72585000 8.07530000 -3.05146000
-3.89963000 8.14122000 -2.78386000
-3.88597000 8.12369000 -2.85741000
-5.69186000 0.87336400 6.89179000
-5.79282000 0.85568000 6.82780000
-5.73888000 0.82939400 6.91582000
-5.47241000 0.86524500 7.07723000
-5.60038000 0.86476300 6.98061000
-5.59435000 0.84836500 7.01341000
3.04363000 5.20457000 9.38913000
2.67411000 5.15072000 9.34500000
2.55603000 5.18142000 9.35899000
2.49510000 5.11680000 9.30674000
-7.10652000 7.29454000 4.55231000
-7.19390000 7.25941000 4.74749000
-7.09358000 7.23586000 4.82280000
-7.20009000 7.22694000 4.88631000
-7.12903000 7.21271000 4.93172000
9.25935000 7.64316000 1.95537000
9.17301000 7.70634000 1.47251000
9.21698000 7.69300000 1.61286000
9.27719000 7.69195000 1.64228000
-0.79008700 6.48018000 3.65194000
-0.61396700 6.49947000 3.46714000
-0.76098800 6.51000000 3.47735000
-1.51868000 6.57141000 3.55074000
-1.48323000 6.58331000 3.47317000
-1.58041000 6.59384000 3.47630000
-5.32877000 5.41880000 -1.40754000
-5.12636000 5.57546000 -1.59130000
-5.18255000 5.32877000 -1.54210000
-5.24147000 5.50585000 -1.48969000
5.76050000 6.40245000 -2.68130000
5.37016000 6.34433000 -2.84930000
5.45127000 6.31981000 -2.81771000
5.37289000 6.19216000 -2.84287000
9.77420000 6.89889000 5.22423000
9.79116000 6.88346000 5.12166000
9.77396000 6.93748000 5.16837000
8.40712000 1.81521000 -0.05091700
8.40037000 1.88692000 -0.06787790
8.12610000 1.97542000 -0.46923100
8.10987000 2.09326000 -0.50508200
8.19443000 2.04173000 -0.38418600
2.83801000 7.97603000 -3.63159000
2.96236000 7.97764000 -3.60201000
2.15178000 7.97490000 -3.65819000
-6.60147000 3.73252000 6.09768000
-6.73603000 3.73203000 5.84890000
-6.70911000 3.48461000 5.84407000
8.43478000 5.49387000 6.69822000
8.42489000 5.35095000 6.67949000
8.25311000 5.32909000 6.93913000
8.12787000 5.20498000 7.08406000
8.23647000 5.23207000 6.94090000
-6.16306000 5.77722000 8.01265000
-6.26427000 5.79402000 7.86410000
-6.16258000 5.75319000 7.90438000
-5.94908000 5.68920000 8.02149000
-5.94080000 5.69226000 8.08588000
8.95284000 2.93455000 1.00934000
8.90357000 2.77435000 0.86480900
8.91257000 2.87346000 0.88474400
8.88508000 2.48167000 0.87670600
-0.05401710 6.34143000 4.14758000
-0.08641170 6.40944000 3.78698000
-0.24452500 6.36876000 4.05675000
-0.35505200 6.36756000 4.10490000
-0.41284800 6.36772000 4.13866000
-0.37169200 6.34393000 4.25771000
7.85385000 3.26412000 7.17047000
7.93150000 3.16380000 7.05215000
7.96156000 3.35737000 7.04065000
7.69501000 3.48196000 7.35696000
7.61688000 3.62762000 7.44217000
7.63906000 3.42473000 7.39691000
2.75747000 6.65871000 2.28494000
2.75497000 6.68435000 2.13872000
2.69702000 6.66168000 2.25801000
2.11255000 6.69552000 2.06333000
1.95203000 6.70091000 2.04636000
1.95806000 6.66650000 2.19065000
8.50801000 5.75528000 6.74983000
8.47609000 5.70649000 6.73070000
8.52320000 5.74973000 6.67595000
8.54354000 5.80536000 6.86839000
8.54000000 5.79451000 6.77266000
8.57095000 5.82312000 6.80216000
9.13684000 4.88746000 4.75584000
9.11860000 4.75065000 4.76364000
9.16249000 4.82308000 4.60970000
9.05654000 4.72316000 5.01684000
9.02181000 4.69293000 5.12681000
9.06080000 4.64631000 4.99104000
-5.55110000 5.97666000 8.63659000
-5.67120000 5.89852000 8.55637000
-5.53037000 5.87634000 8.64036000
-5.64869000 5.85713000 8.56207000
-5.74443000 5.87167000 8.49785000
8.72255000 5.90736000 6.47677000
8.80341000 5.95535000 6.41358000
8.72922000 5.90327000 6.56792000
8.95622000 5.99739000 6.58255000
8.89867000 5.97730000 6.58351000
8.86507000 5.97874000 6.45201000
-1.00817000 0.12371000 -2.57278000
-0.92256000 0.12475500 -2.55437000
-1.02457000 0.12692500 -2.44416000
9.80129000 6.79576000 4.10200000
9.85651000 6.90830000 3.73457000
9.82187000 6.84447000 4.02082000
9.82356000 6.84118000 3.92757000
-3.88500000 5.80504000 9.08585000
-4.18837000 5.77409000 9.08521000
-5.00289000 0.25947700 7.26276000
-4.80491000 0.25312700 7.37891000
-5.00289000 0.25947700 7.26276000
-4.95145000 0.23246800 7.26107000
4.22036000 0.17973700 1.24285000
4.35380000 0.17370800 1.05242000
4.45685000 0.17989800 1.11633000
4.89815000 0.19235700 1.00468000
4.82147000 0.18640900 0.88788000
4.98939000 0.19267900 0.87638500
9.04665000 5.89812000 5.50766000
9.00405000 5.85849000 5.60871000
8.94666000 5.75922000 5.68587000
8.94191000 5.58543000 5.59408000
8.94087000 5.47217000 5.55895000
6.32214000 7.13691000 -2.44979000
6.33854000 7.06304000 -2.42656000
6.51779000 7.22830000 -2.46804000
6.56337000 7.17292000 -2.35494000
6.42511000 7.16954000 -2.43155000
8.74248000 4.75612000 5.91883000
8.79393000 4.68353000 5.79503000
8.77054000 4.85483000 5.88643000
8.86040000 4.96431000 5.69271000
8.83565000 4.89132000 5.75251000
8.89312000 4.84824000 5.57704000
9.37751000 7.11946000 4.97649000
9.27767000 7.08803000 5.07480000
9.34423000 7.08104000 5.15993000
9.48547000 7.05604000 5.32921000
9.45813000 7.02759000 5.47117000
2.80361000 0.15393400 2.26597000
2.68536000 0.14637800 2.20448000
2.79179000 0.14613700 2.09090000
2.74501000 0.14348400 1.74477000
-5.47828000 1.98121000 7.26027000
-5.52812000 2.07903000 7.22884000
-5.53889000 1.97863000 7.20352000
-5.30553000 2.02694000 7.42409000
-5.36807000 1.81618000 7.32168000
8.61885000 1.16716000 0.42736300
8.67367000 1.18356000 0.54102500
8.68541000 1.02473000 0.58748700
8.64699000 1.25229000 0.46538500
-5.61951000 2.19695000 7.17739000
-5.66613000 2.14519000 7.11083000
-5.57538000 2.10588000 7.19065000
-5.87328000 2.10990000 6.90119000
-5.82690000 2.18683000 6.96301000
7.61567000 5.60006000 8.57220000
7.49968000 5.55641000 8.61882000
7.71832000 5.70383000 8.57043000
7.72797000 5.76774000 8.59904000
9.25412000 7.14623000 4.75037000
9.29046000 7.18715000 4.56815000
9.29158000 7.12397000 4.91733000
3.63879000 6.89495000 -3.31616000
3.82190000 6.83475000 -3.28698000
3.14065000 6.92108000 -3.38618000
3.14917000 6.81168000 -3.38015000
6.47358000 0.62779300 -2.00326000
6.63202000 0.50271700 -1.89185000
6.43733000 0.50199300 -1.99941000
6.65163000 0.84675700 -1.95230000
6.50984000 0.68727700 -1.99555000
7.79935000 3.17659000 7.21798000
7.69268000 3.07152000 7.31163000
7.76679000 2.98704000 7.23550000
7.71535000 3.32304000 7.31870000
7.71253000 3.21887000 7.30978000
7.79517000 3.27514000 7.23743000
8.97680000 5.99153000 6.66559000
9.09826000 6.04378000 6.58110000
9.13387000 6.05937000 6.53488000
9.11345000 6.02786000 6.64107000
-3.56299000 7.88640000 -1.37683000
-3.55567000 7.90497000 -1.48125000
-3.75567000 7.94363000 -1.55199000
-4.02455000 7.95119000 -1.39106000
-0.08721490 0.34106600 5.81827000
-0.27917000 0.33801200 5.83467000
-0.35979400 0.31679000 6.48489000
-0.49323000 0.32370300 6.26287000
-0.26542400 0.33101800 6.20676000
5.89129000 0.33093800 5.65107000
5.86918000 0.32298000 5.90339000
5.27129000 0.30738600 6.18610000
5.09646000 0.30674200 6.14760000
5.16101000 0.31172600 6.00942000
5.02074000 5.77674000 9.07676000
5.17130000 5.78349000 9.07869000
5.20377000 5.79547000 9.03890000
4.24086000 5.74748000 9.11197000
7.38425000 4.13508000 7.69722000
7.35499000 4.06988000 7.70944000
7.47090000 4.12672000 7.62673000
7.53135000 3.95309000 7.54691000
7.56736000 4.01104000 7.52946000
7.41327000 3.97463000 7.64908000
-6.00583000 0.96516200 6.55595000
-6.09731000 0.97786200 6.45161000
