6.92960000 -2.45943000 0.58238100
7.03064000 -2.42987000 0.67900000
6.97600000 -2.51104000 0.59896500
6.99083000 -3.29022000 1.01206000
7.14150000 -3.28189000 1.01682000
7.12380000 -3.29082000 1.14502000
6.55645000 -3.29380000 1.47838000
-5.53962000 -3.19554000 2.11575000
-5.47259000 -3.22309000 1.33904000
-5.56825000 -3.23028000 1.29450000
-5.56542000 -3.23379000 1.19001000
-2.31870000 -0.93303000 -1.50804000
-2.19997000 -1.06644000 -1.48665000
-2.36027000 -0.98686500 -1.49466000
-2.60358000 -1.00707000 -1.45707000
-2.73466000 -0.86643400 -1.45722000
-2.62161000 -0.82579700 -1.48745000
-4.83841000 1.69100000 7.47230000
-4.65223000 1.62880000 7.63690000
-4.67174000 1.65013000 7.59743000
-4.13064000 1.52639000 8.00215000
-4.00561000 1.47956000 8.13115000
-3.94068000 1.48445000 8.14121000
-1.61114000 1.23062000 -1.81960000
-1.73044000 1.22360000 -1.82240000
-1.64545000 1.30413000 -1.88381000
-1.70017000 1.18974000 -1.80136000
7.78030000 -2.89347000 6.32513000
7.39679000 -3.05109000 6.59174000
7.58460000 -2.99348000 6.49071000
7.47443000 -2.91272000 6.58616000
-6.59646000 -3.20086000 1.55975000
-6.55541000 -3.20951000 1.66858000
-6.65058000 -3.18603000 1.58544000
-6.40219000 -3.22148000 1.59550000
-6.48700000 -3.21692000 1.61927000
2.51338000 -1.44629000 8.25413000
2.41491000 -1.51973000 8.22784000
2.59997000 -1.50519000 8.26094000
2.44438000 -1.77429000 8.22761000
-1.03156000 -3.09071000 6.82694000
-1.12662000 -3.09095000 6.82290000
-1.11036000 -3.09142000 6.76180000
-0.71728500 -3.09720000 6.73498000
-0.93555300 -3.08952000 6.69260000
-0.60615400 -3.09885000 6.67450000
-3.37031000 1.99892000 0.53152900
-3.21439000 2.04870000 -0.17339100
-3.16092000 2.06215000 -0.36482400
-3.29123000 2.08214000 -0.32960700
2.79636000 0.53759600 8.72241000
2.97940000 0.54572100 8.74554000
2.85492000 0.59062900 8.74330000
3.51294000 0.55319400 8.77047000
3.59346000 0.64435200 8.85128000
3.39766000 0.58323500 8.80333000
-1.45157000 -3.09254000 7.02425000
-1.55886000 -3.08606000 7.11317000
-1.26876000 -3.10316000 7.15008000
-1.31621000 -3.11189000 7.20280000
-1.35522000 -3.09967000 7.12217000
8.24853000 2.58902000 4.00504000
8.22511000 2.58206000 4.14713000
8.12268000 2.57418000 3.87788000
8.05899000 2.56759000 3.76677000
7.99770000 2.54496000 4.00224000
-3.59856000 2.15290000 -0.51934700
-3.55460000 2.15891000 -0.62666000
-3.75100000 2.18382000 -0.56055300
-3.51054000 2.12453000 -0.38575200
-3.50042000 2.10663000 -0.24822700
7.17751000 0.95351000 0.50069400
7.06017000 1.00844000 0.40156600
6.97932000 1.19293000 0.32748300
6.87680000 1.19264000 0.24679400
6.91723000 1.00244000 0.28955400
6.76667000 1.06375000 0.16957800
3.79493000 0.94043400 8.96846000
3.79645000 0.82905300 8.93746000
3.22892000 0.65560300 8.81512000
3.26131000 0.59681900 8.79907000
3.37587000 0.65151800 8.83775000
4.58918000 2.14552000 -1.11806000
4.70283000 2.14846000 -1.24707000
-3.84624000 -3.29804000 -0.07220880
-3.97232000 -3.29641000 -0.02139460
-3.96175000 -3.30790000 -0.27881300
-4.49406000 -3.30584000 -0.02460150
-4.53433000 -3.30638000 -0.21306400
-4.32888000 -3.30773000 -0.16027700
2.71356000 -3.21285000 -1.08912000
2.83673000 -3.24773000 -1.07738000
2.01320000 -3.00207000 -1.16930000
2.10174000 -3.02773000 -1.15761000
1.96746000 -3.03424000 -1.16890000
8.27305000 2.59763000 3.85258000
8.15327000 2.58920000 3.69981000
8.49581000 2.64768000 3.06597000
8.48165000 2.66525000 2.90613000
8.43928000 2.65364000 3.15135000
-6.80283000 1.24580000 4.63520000
-6.81110000 1.29685000 4.69560000
-6.79833000 0.82051100 4.94757000
-6.80371000 0.94554600 4.85534000
-6.80251000 0.88496200 4.78942000
7.70786000 0.47512900 6.66835000
7.64254000 0.55792700 6.73415000
7.65953000 0.46375300 6.72203000
7.73405000 0.41124700 6.63848000
7.73116000 0.25814500 6.63900000
7.78070000 0.36517400 6.58013000
-4.40558000 2.11798000 1.58007000
-4.46471000 2.14850000 1.38341000
-4.60199000 2.17885000 1.44688000
-4.32245000 2.10283000 1.56048000
-6.73054000 0.28258000 2.39923000
-6.76123000 0.42456900 2.86143000
-6.75593000 0.51711900 2.75191000
-2.72176000 1.76340000 2.15579000
-2.64348000 1.77254000 1.87660000
-2.09293000 1.69733000 1.72330000
-2.21985000 1.71362000 1.76139000
-1.98285000 1.67671000 1.76978000
-6.82548000 1.37381000 4.95154000
-6.85255000 1.43216000 4.93748000
-6.84313000 1.39988000 4.83449000
-6.82955000 1.36618000 4.88249000
-6.81736000 1.31112000 4.89264000
-1.82769000 0.69645900 8.52438000
-2.02917000 0.65987500 8.49900000
-1.82485000 0.64035300 8.48221000
-1.52474000 0.57551400 8.43886000
-1.53423000 0.52455100 8.42211000
-5.57951000 2.34713000 2.45282000
-5.39365000 2.32371000 2.19971000
-5.60616000 2.36230000 2.32846000
-6.18806000 2.48262000 2.64204000
-6.00194000 2.44118000 2.63725000
-6.11671000 2.48051000 2.43547000
-6.74781000 0.12322900 2.59271000
-6.75491000 -0.04789840 2.81260000
-6.76010000 0.02520240 2.71985000
-6.76198000 0.00110146 2.68161000
8.31324000 0.58434700 1.81817000
8.33439000 0.61145400 1.87696000
8.29649000 0.46120000 1.80253000
8.33990000 0.42724700 1.98098000
8.34117000 0.25731600 2.06097000
8.30871000 0.35273500 1.88262000
-5.50567000 -3.21113000 1.63928000
-5.60472000 -3.21753000 1.52883000
-5.41143000 -3.21923000 1.38267000
-5.09193000 -3.19766000 1.65737000
-5.15632000 -3.20624000 1.56499000
-5.07792000 -3.20484000 1.55558000
6.29732000 -2.80205000 -0.19949800
6.43833000 -2.80737000 -0.10115000
6.46522000 -3.03750000 0.01417870
6.37099000 -2.95520000 -0.09082950
6.50049000 -2.90585000 -0.02097210
-6.04026000 1.44798000 6.41051000
-6.17295000 1.49968000 6.31112000
-6.07266000 1.42014000 6.36158000
-6.25501000 1.51947000 6.23402000
-6.33588000 1.50716000 6.14589000
0.30347200 -3.13346000 3.13194000
0.29892000 -3.15394000 3.08406000
0.28852700 -3.12955000 2.99052000
0.34447100 -3.14282000 3.00340000
-2.73765000 1.38597000 6.53099000
-2.61074000 1.35272000 6.69298000
-2.39739000 1.31229000 6.66995000
-2.15742000 1.27026000 6.75157000
-2.29731000 1.29962000 6.60633000
-2.29178000 1.28924000 6.84645000
8.29204000 0.10326500 1.82977000
8.27318000 0.08081760 1.77123000
8.31629000 0.29354900 1.93817000
8.32590000 0.18678900 1.98608000
5.86214000 -2.76663000 -0.52341300
5.98132000 -2.75841000 -0.42304100
5.99376000 -2.80917000 -0.41467000
5.87809000 -2.73982000 -0.50246300
5.78917000 -2.66234000 -0.46141600
0.39312500 -3.12758000 2.94840000
0.46586900 -3.13350000 2.94488000
0.42213300 -3.15027000 3.01123000
0.45455300 -3.13330000 2.85364000
0.47343100 -3.13197000 2.90519000
8.35575000 2.35295000 5.62565000
8.38486000 2.29550000 5.52444000
8.38988000 2.33106000 5.41353000
8.42591000 2.08983000 5.37873000
8.40527000 2.24675000 5.38495000
-1.23648000 -3.10349000 7.19923000
-1.29364000 -3.10201000 7.30367000
-1.43411000 -3.09586000 7.14499000
-1.43374000 -3.09664000 7.25154000
-1.51783000 -3.09059000 7.23281000
1.22358000 0.38763700 8.47871000
1.12513000 0.34255200 8.45321000
1.15870000 0.32683500 8.43774000
0.99000800 0.30523900 8.43252000
8.16819000 -1.23337000 3.64535000
8.17488000 -1.16247000 3.55351000
8.17672000 -1.08957000 3.63475000
8.18664000 -1.35443000 3.28146000
8.19688000 -1.45434000 3.13542000
8.20318000 -1.33019000 3.12478000
6.89884000 -2.65680000 6.98499000
6.79319000 -2.65945000 7.05627000
7.00363000 -2.69335000 6.92395000
7.21641000 -2.68002000 6.78278000
-2.81595000 1.40229000 6.33093000
-2.56464000 1.35168000 6.49582000
-3.32673000 1.52017000 6.30963000
-3.14036000 1.47125000 6.45756000
-3.14081000 1.47383000 6.25634000
-0.16535300 -3.18982000 1.51539000
-0.08427410 -3.18974000 1.47449000
-0.10165200 -3.17527000 1.61504000
-0.06266050 -3.17885000 1.54298000
-0.03213630 -3.15914000 1.60365000
7.79294000 0.76958300 6.61216000
7.73982000 0.79545700 6.66378000
7.74288000 0.69895900 6.65627000
7.81467000 1.06329000 6.59345000
7.82125000 1.14890000 6.61103000
3.90806000 -2.35403000 8.37338000
3.88916000 -2.43239000 8.36180000
3.97910000 -2.39609000 8.35218000
3.87528000 -2.51801000 8.34564000
3.88523000 -2.56827000 8.34097000
4.02745000 -2.52229000 8.31050000
7.58484000 -1.79641000 1.10397000
7.53601000 -1.90598000 1.08013000
7.39356000 -1.90529000 0.96410700
7.20896000 -1.95719000 0.80953800
7.30062000 -2.03824000 0.89683100
7.14287000 -2.05303000 0.76119800
-0.69550800 0.54744000 8.38100000
-0.63641900 0.47142400 8.35309000
-0.50111900 0.49378300 8.35255000
-0.73897000 0.60912300 8.42017000
8.11776000 -1.35422000 4.12488000
8.09651000 -1.40356000 4.29871000
8.17951000 -1.15101000 3.51984000
8.16514000 -1.31890000 3.57937000
-2.30214000 -0.44101000 8.38994000
-2.27133000 -0.53664600 8.37125000
-2.14934000 -0.59412000 8.35398000
-2.23003000 -0.37048700 8.40034000
-4.90736000 -0.83165800 7.11826000
-5.06628000 -1.04292000 6.97065000
-5.14319000 -0.92759800 6.92397000
7.51391000 -3.21597000 5.40639000
7.39580000 -3.22851000 5.36033000
-6.64426000 -1.40790000 1.02576000
-6.65974000 -1.41522000 1.10574000
-6.62959000 -1.30339000 0.97379900
-6.61202000 -0.87914600 0.97647500
-6.61899000 -0.82511600 1.00924000
7.49785000 -1.07606000 6.74270000
7.51428000 -1.19388000 6.72154000
7.58764000 -1.15993000 6.65918000
7.71791000 -1.10408000 6.51782000
7.67347000 -1.11171000 6.58238000
7.73738000 -1.17797000 6.50161000
-6.44897000 -2.41130000 0.73187900
-6.39991000 -2.39665000 0.67223800
-6.41631000 -2.47320000 0.70769400
-6.34123000 -2.55816000 0.63375600
-6.34496000 -2.61772000 0.61731800
-6.39891000 -2.56982000 0.69238900
4.68886000 -3.22418000 1.76991000
4.63820000 -3.22721000 1.62095000
4.79263000 -3.23749000 1.66711000
4.50677000 -3.19467000 2.34472000
7.65810000 -0.93584900 6.62803000
7.62523000 -0.61282900 6.68555000
7.87404000 -3.19759000 4.60164000
7.82319000 -3.20775000 4.67745000
7.82643000 -3.20604000 4.53751000
7.66959000 -3.21728000 4.74931000
7.68131000 -3.21128000 4.98011000
7.53480000 -3.22341000 4.89061000
-5.20060000 -2.00767000 -0.15917700
-5.06599000 -1.98014000 -0.23223800
-5.09284000 -2.08494000 -0.20329300
-5.75608000 -2.16980000 0.18864900
-5.61896000 -2.10822000 0.09590390
-5.58887000 -2.19830000 0.09154590
-6.72506000 2.48570000 3.44299000
-6.74607000 2.46842000 3.58926000
-6.76612000 2.45883000 3.63257000
5.24963000 -3.26488000 1.62610000
5.17392000 -3.26295000 1.59345000
4.85973000 -3.26029000 1.29862000
7.73466000 1.14133000 6.69559000
7.77247000 1.10576000 6.64848000
7.71473000 1.04233000 6.69545000
7.81467000 1.06329000 6.59345000
-6.07013000 -2.09351000 0.36109000
-6.16539000 -2.09486000 0.42012600
-6.12051000 -1.95166000 0.36724600
-5.88486000 -2.02530000 0.24251200
-5.86055000 -1.92694000 0.20887600
-5.78497000 -1.97671000 0.17404500
4.78032000 0.79379900 8.73508000
4.67067000 0.71732800 8.68762000
4.72309000 0.54166300 8.57295000
4.65205000 0.58318600 8.61329000
4.54969000 0.58691500 8.65572000
0.08006920 -3.14872000 3.75605000
-0.00782245 -3.15225000 3.95370000
-0.02588710 -3.15414000 3.82160000
0.02226100 -3.16101000 3.85719000
-1.76879000 1.64255000 1.81020000
-1.04623000 1.53958000 1.92017000
-1.24358000 1.54316000 2.08733000
7.73729000 -0.29397000 6.60583000
7.56822000 -0.14566900 6.75264000
7.45834000 -0.11919700 6.84477000
7.50920000 -0.21485000 6.80233000
7.96567000 -3.15935000 4.42153000
7.96903000 -3.14638000 4.56406000
7.94267000 -3.17100000 4.59970000
7.88401000 -3.19426000 4.44171000
-1.45800000 -3.10036000 7.44189000
-1.50599000 -3.10468000 7.40804000
-1.48700000 -3.11601000 7.39121000
-1.50060000 -3.09297000 7.51877000
-1.61707000 -3.09383000 7.51990000
-1.08980000 -3.30914000 -0.28460000
-1.02023000 -3.32144000 -0.50233000
-0.94108000 -3.31708000 -0.36928900
-1.06884000 -3.32587000 -0.73568300
-1.03864000 -3.32745000 -0.66718800
-1.17359000 -3.31840000 -0.55429700
0.17177300 1.53151000 1.63260000
0.05674220 1.56951000 1.33408000
-0.04333790 1.57299000 1.26525000
-0.05815380 1.55976000 1.42650000
-4.94272000 1.22878000 7.48623000
-4.89194000 1.27157000 7.57233000
-4.80286000 1.22639000 7.64389000
-4.78914000 1.27310000 7.66988000
7.79857000 -1.04203000 1.21255000
7.86915000 -1.04006000 1.28049000
7.80850000 -1.24059000 1.24159000
7.63331000 -1.36703000 1.09545000
5.31181000 2.22743000 -0.98704000
5.30949000 2.23370000 -0.78253600
5.38888000 2.24036000 -0.88143600
5.65232000 2.25863000 -1.06646000
5.65838000 2.26174000 -0.99273600
6.05228000 -3.29852000 1.31418000
5.94026000 -3.29641000 1.39299000
5.96158000 -3.30332000 1.13996000
6.00322000 -3.29491000 1.48153000
6.13870000 -3.29311000 1.78233000
5.99648000 -3.29440000 1.74439000
1.89515000 -3.10438000 5.14783000
1.95961000 -3.10862000 4.94612000
1.98002000 -3.10516000 5.17568000
2.67980000 -3.12270000 4.94124000
2.55381000 -3.11790000 4.87687000
3.24338000 -3.17078000 7.37975000
3.35261000 -3.17751000 7.22678000
3.37536000 -3.17265000 7.40092000
3.20694000 -3.17227000 7.12579000
3.16673000 -3.16189000 6.99947000
3.28611000 -3.16852000 7.03632000
-2.26499000 1.78608000 0.87441500
-2.26007000 1.80512000 0.67968000
-2.39374000 1.80089000 0.90229900
-1.69064000 1.75132000 0.58813700
-1.59893000 1.75933000 0.48833000
-1.71042000 1.76793000 0.49296800
-6.60449000 2.58420000 1.84953000
-6.68499000 2.55280000 1.95735000
-6.63872000 2.57279000 1.84633000
-6.69874000 2.54452000 1.78035000
2.15922000 1.68809000 -1.65359000
2.25528000 1.59393000 -1.64752000
2.30402000 1.56458000 -1.63558000
-5.62063000 1.60857000 6.91745000
-5.58631000 1.76513000 6.91881000
-5.69526000 1.70860000 6.82980000
-5.78696000 1.58235000 6.77404000
-5.79974000 1.62828000 6.75495000
-2.38996000 1.81752000 0.71307000
-2.68883000 1.84553000 0.91685000
-2.59160000 1.84683000 0.70061300
-2.77654000 1.87659000 0.69737900
-4.60980000 -3.14046000 4.43694000
-4.70926000 -3.14530000 4.45595000
-4.68207000 -3.14673000 4.35018000
-5.19105000 -3.17101000 4.13340000
-5.30302000 -3.17763000 4.08830000
-5.28874000 -3.17744000 4.00378000
-2.32907000 0.46384800 -1.70559000
-2.18296000 0.57768800 -1.73309000
-2.10313000 0.43013800 -1.72436000
-2.38408000 0.56641600 -1.70973000
-2.48635000 0.44864600 -1.67986000
-2.51289000 0.54530200 -1.68822000
2.94747000 -3.14573000 5.58481000
2.86817000 -3.13929000 5.49230000
2.97109000 -3.14597000 5.50150000
2.37505000 -3.11802000 5.67171000
2.40427000 -3.12120000 5.48974000
2.47495000 -3.12794000 5.64511000
-3.34936000 -0.49812400 8.15770000
-3.24805000 -0.63573400 8.19910000
-3.13402000 -0.60793700 8.25036000
-3.10699000 -0.98159800 8.23741000
-6.58726000 1.90046000 0.93677800
-6.61801000 1.90011000 1.08865000
-6.59682000 1.96729000 0.90509100
-6.53793000 1.93061000 0.74558500
-2.58182000 2.11163000 -1.66360000
-2.54185000 2.11015000 -1.59352000
-2.39878000 2.09927000 -1.66431000
-2.54500000 2.06266000 -1.18945000
-2.43556000 2.06692000 -1.32192000
-2.58874000 2.09439000 -1.38670000
-1.86485000 -1.27282000 8.26480000
-2.14692000 -1.32604000 8.28676000
-2.06480000 -1.42713000 8.26640000
-1.64963000 -1.43880000 8.21349000
-1.78346000 -1.41716000 8.23739000
-1.82973000 -1.49493000 8.23475000
-2.47719000 1.80167000 1.06588000
-2.36437000 1.78365000 1.05456000
-2.34104000 1.79054000 0.97850700
-2.58986000 1.81063000 1.18028000
-2.55214000 1.79898000 1.23891000
6.39763000 0.90222600 7.58833000
6.50350000 0.91999600 7.51852000
6.50269000 0.97372900 7.54271000
6.97421000 1.04459000 7.23795000
4.90275000 0.42914000 8.47439000
4.86145000 0.37650100 8.49153000
4.95039000 0.37771400 8.44424000
4.57844000 0.52595800 8.63738000
4.69142000 0.48645800 8.58381000
-2.98306000 2.15839000 -1.82532000
-3.00596000 2.15011000 -1.87318000
-3.12224000 2.16885000 -1.83164000
-3.07743000 2.14706000 -1.90832000
4.11852000 -0.07084520 8.65604000
3.98117000 -0.12023600 8.65574000
3.76378000 -0.37511900 8.61360000
3.85994000 -0.25833300 8.63669000
3.70262000 -0.19416900 8.62860000
-1.91358000 -1.37678000 -1.42589000
-2.06784000 -1.52044000 -1.40132000
-1.80858000 -1.82006000 -1.34664000
-1.93399000 -1.79596000 -1.35443000
-1.71176000 -1.70540000 -1.36159000
-3.86119000 1.64463000 6.28382000
-3.43824000 1.54065000 6.52484000
-5.82428000 -3.22359000 1.66832000
-5.92821000 -3.22771000 1.66758000
-6.02012000 -3.23379000 1.56350000
-6.31001000 -3.22337000 1.56173000
-6.38624000 -3.21520000 1.53860000
-6.28300000 -3.22531000 1.40757000
4.82261000 1.94571000 -1.42396000
4.95605000 2.01507000 -1.39874000
4.96365000 1.96894000 -1.40449000
4.85882000 1.89144000 -1.42459000
-2.87088000 2.13796000 -1.38650000
-2.81976000 2.13621000 -1.48735000
-2.96046000 2.15590000 -1.57442000
-2.78153000 2.13761000 -1.65843000
-2.74957000 2.12733000 -1.69119000
-2.78499000 2.13993000 -1.70558000
-0.01613620 -3.15363000 3.70338000
0.01405870 -3.16185000 3.59305000
0.01219700 -3.16152000 3.70148000
-0.00874025 -3.15090000 3.37907000
-0.04661140 -3.17239000 3.31676000
0.00523375 -3.14231000 3.20234000
2.92470000 -3.22271000 0.98407700
2.72509000 -3.21110000 1.14564000
2.75991000 -3.22952000 0.83490600
2.49823000 -3.22417000 0.83350700
2.35842000 -3.22599000 0.73201800
2.48717000 -3.23088000 0.75788000
3.16996000 -0.25003200 8.51400000
3.27441000 -0.30664000 8.53557000
3.38404000 -0.30289100 8.56353000
3.69246000 -0.36940800 8.60873000
7.78612000 0.09471610 6.56778000
7.74162000 0.02689610 6.60299000
7.81219000 0.05103100 6.53455000
7.76588000 -0.00982094 6.58042000
8.02452000 -0.41771100 5.57003000
8.03714000 -0.48475300 5.42056000
8.03353000 -0.81181600 5.26948000
8.01727000 -0.87602400 5.35754000
8.03882000 -0.91342800 5.18400000
-6.76304000 2.08937000 1.28445000
-6.75604000 2.05190000 1.32422000
-6.76406000 2.04717000 1.40135000
-6.76385000 2.09158000 1.39593000
-0.01414920 1.10766000 7.11973000
0.11269500 1.10561000 7.09165000
-0.09652250 1.10519000 6.91412000
0.06625990 1.09962000 6.63634000
6.56808000 2.14343000 4.95773000
6.54423000 2.13796000 4.83867000
6.52394000 2.12498000 5.01433000
6.05680000 1.99963000 4.98449000
6.26972000 2.04598000 5.14480000
6.25124000 2.04879000 4.98184000
8.02348000 -1.32305000 5.10210000
8.03759000 -1.06230000 5.14059000
8.01698000 -1.16340000 5.27356000
8.02339000 -0.95808700 5.28548000
8.01981000 -1.08444000 5.28607000
-0.93798000 1.89737000 -1.85663000
-1.00067000 1.87753000 -1.87758000
-1.05773000 1.76709000 -1.90189000
-0.84941000 1.76606000 -1.88522000
-0.84801200 1.61836000 -1.89598000
8.10730000 1.62233000 6.47605000
8.03618000 1.57244000 6.54220000
8.09040000 1.56731000 6.43580000
7.97030000 1.55864000 6.63180000
8.04223000 1.62129000 6.59850000
7.97296000 1.61282000 6.71250000
-0.07133900 -3.13351000 2.94127000
-0.02754230 -3.15361000 2.89770000
-0.09731910 -3.14157000 3.03464000
-0.65855100 -3.27412000 0.41590500
-0.77193300 -3.29081000 0.17488300
-0.58629700 -3.28143000 0.32636000
-0.65161400 -3.23172000 0.94775800
-0.56956900 -3.24106000 0.84899300
-0.52191500 -3.22411000 1.03044000
5.25017000 1.97072000 -1.37226000
5.02734000 1.90425000 -1.39402000
4.98033000 1.86859000 -1.40050000
4.97154000 1.92054000 -1.40578000
5.85099000 -1.36479000 7.75303000
5.76995000 -1.47688000 7.76998000
5.93288000 -1.52831000 7.67587000
5.95226000 -1.29513000 7.71188000
6.09613000 -1.43126000 7.61767000
6.12718000 -1.28307000 7.62685000
-0.57069300 1.14905000 -1.72193000
-1.42075000 1.16239000 -1.76843000
-1.29695000 1.17878000 -1.75942000
-1.23407000 1.15566000 -1.75243000
6.73693000 -3.28685000 2.04443000
6.55880000 -3.28830000 2.15433000
6.49323000 -3.28122000 2.64606000
6.55160000 -3.28290000 2.49974000
6.67750000 -3.28121000 2.62237000
-0.23870500 1.18136000 -1.75603000
-0.35305800 1.29285000 -1.83739000
-0.21522100 1.26566000 -1.81077000
-0.96439000 1.47806000 -1.91733000
-0.67312100 1.45741000 -1.89758000
-0.78568700 1.42765000 -1.90814000
4.96035000 -1.58885000 -0.91326600
5.07157000 -1.58170000 -0.86373100
5.06473000 -1.72362000 -0.86851900
5.14321000 -1.74527000 -0.82261700
5.15742000 -1.63751000 -0.81681600
-2.77105000 -2.79424000 -1.22967000
-2.76240000 -2.75426000 -1.21901000
-2.68962000 -2.76425000 -1.23492000
-2.93891000 -2.67354000 -1.15920000
-3.06579000 -2.65375000 -1.11748000
4.24012000 -3.17423000 6.55428000
4.27271000 -3.17135000 6.39307000
4.35129000 -3.17721000 6.48450000
4.62593000 -3.16681000 6.37824000
4.47201000 -3.17550000 6.46482000
6.10887000 2.06243000 4.11444000
5.94446000 2.01693000 4.21774000
6.05663000 2.04459000 4.26603000
6.22239000 2.08877000 4.13051000
-5.58154000 1.00282000 -0.13604000
-5.47420000 1.02898000 -0.20263200
-5.61127000 1.49302000 -0.12195100
-5.61767000 1.54119000 -0.16095900
-5.51654000 1.47399000 -0.18853900
-2.96587000 -0.02557530 -1.48377000
-2.93803000 0.26999700 -1.53278000
-3.13878000 0.26935800 -1.44834000
-3.07601000 0.44435200 -1.50180000
0.22968900 1.01029000 -1.56143000
0.22014200 1.01844000 -1.58102000
0.22166100 1.04699000 -1.56973000
0.23432100 1.01195000 -1.53410000
0.24791600 0.97969800 -1.48413000
0.24853000 0.97079700 -1.54564000
5.95615000 2.03163000 -1.07596000
5.85669000 2.03061000 -1.16734000
5.93382000 2.05829000 -1.10590000
5.38837000 1.95746000 -1.34219000
5.35571000 1.96607000 -1.35537000
5.50590000 1.99301000 -1.33845000
0.18580900 1.03217000 -1.63032000
0.17678000 1.11092000 -1.63216000
2.14603000 -0.18117800 8.37780000
2.22304000 -0.21059600 8.38441000
2.00068000 -0.07642690 8.37809000
0.18169100 -3.12888000 2.30864000
0.41835700 -3.12810000 2.52809000
-3.06218000 -3.14258000 3.37531000
-2.75923000 -3.14686000 3.41806000
-2.78841000 -3.14126000 3.48336000
-2.84634000 -3.14401000 3.37398000
-4.25662000 -3.13217000 6.15781000
-3.42574000 -3.10949000 6.50833000
-3.47686000 -3.10920000 6.43126000
-3.31069000 -3.10906000 6.41021000
-6.63407000 -2.27918000 2.37548000
-6.65817000 -2.26419000 3.14078000
-6.65022000 -2.23027000 3.09341000
7.54064000 2.13787000 0.46680600
7.65831000 2.15611000 0.59925100
7.55584000 2.08232000 0.52713900
7.40718000 2.10967000 0.34564400
7.48895000 2.04762000 0.48839700
7.36956000 2.03766000 0.37025100
-2.62809000 -3.13952000 3.55046000
-2.62668000 -3.15026000 3.46074000
-2.57734000 -3.15657000 3.48819000
-2.37309000 -3.14027000 3.54803000
-2.34801000 -3.13160000 3.41958000
-2.28661000 -3.13200000 3.55896000
0.11674900 1.06987000 -1.64863000
-1.74065000 1.21925000 6.73221000
-1.65666000 1.21364000 6.62000000
-1.74442000 1.22641000 6.56105000
-1.72408000 1.21614000 6.97144000
-1.59821000 1.20530000 6.73848000
-1.69567000 1.21315000 6.85676000
7.32169000 -2.65050000 0.71433200
7.24335000 -2.67206000 0.60929900
7.23595000 -2.62410000 0.67775800
7.35934000 -2.73657000 0.63849200
1.94545000 -2.73914000 8.19778000
1.96618000 -2.66062000 8.20961000
1.69026000 -2.66985000 8.18566000
2.19326000 -2.75520000 8.22305000
-3.74382000 -3.02823000 7.98294000
-3.56786000 -3.04368000 8.03318000
-3.58097000 -3.01631000 8.09107000
-2.54726000 -3.15369000 3.45116000
-2.60081000 -3.15300000 3.42634000
-2.51780000 -3.14202000 3.40049000
-2.55621000 -3.14663000 3.05349000
-2.48032000 -3.14290000 3.16859000
-2.55379000 -3.14598000 3.15528000
-6.29902000 -2.74271000 0.48092000
-6.30564000 -2.79917000 0.46903800
-6.32431000 -2.70108000 0.52818700
-6.35431000 -2.66500000 0.59582100
-6.29959000 -2.62535000 0.56361200
6.76077000 2.37813000 -0.16652500
6.84948000 2.33566000 -0.16815400
6.72978000 2.35770000 -0.22983800
6.28195000 2.34629000 -0.51936700
6.42147000 2.36267000 -0.41008100
6.38202000 2.33962000 -0.49818500
0.52303400 1.17366000 -1.31101000
0.57260300 1.14579000 -1.30424000
0.47212900 1.18209000 -1.32134000
0.43771400 1.19588000 -1.32449000
4.21752000 -2.57652000 -1.00411000
4.26819000 -2.55821000 -0.99875100
4.56315000 -2.59634000 -0.99224200
4.56504000 -2.61547000 -1.00769000
5.25265000 -3.20281000 2.93006000
5.30334000 -3.21298000 2.72976000
5.45917000 -3.22020000 2.79758000
5.06101000 -3.19917000 2.86188000
4.95817000 -3.20077000 2.77481000
5.13200000 -3.20114000 2.79957000
-6.62317000 -2.69582000 5.63008000
-6.60624000 -2.64498000 5.58141000
-6.66175000 -2.66265000 5.51594000
-6.68789000 -2.71146000 5.53799000
4.48713000 -0.59949100 8.48696000
4.50531000 -0.72190900 8.45765000
4.57043000 -0.65257700 8.44861000
4.69805000 -0.74475000 8.37869000
-5.70354000 -3.03685000 6.42135000
-5.75814000 -2.99372000 6.39118000
-5.79863000 -3.03835000 6.34051000
-6.20057000 -3.05187000 5.97083000
-6.03695000 -3.07221000 6.12080000
-3.86721000 -3.14082000 3.65977000
-3.83692000 -3.14169000 3.71521000
-3.91342000 -3.13993000 3.77190000
-4.40656000 -3.14694000 3.94686000
-4.61421000 -2.47929000 7.35560000
-4.53615000 -2.42576000 7.30520000
-4.70527000 -2.46130000 7.23990000
-4.78631000 -2.55095000 7.32205000
-4.66129000 -2.52550000 7.39389000
-4.75266000 -2.52295000 7.31436000
5.50417000 0.82010700 8.15264000
5.63393000 0.96583400 8.18279000
1.91337000 1.81391000 0.13690400
1.35110000 1.80127000 0.05069890
1.41723000 1.79133000 0.12300800
1.47894000 1.80140000 0.05165720
-3.09806000 -2.62899000 8.22177000
-3.22854000 -2.62285000 8.23048000
-3.10313000 -2.66085000 8.25381000
-2.89913000 -2.61254000 8.21030000
-2.85526000 -2.57445000 8.18956000
1.08432000 1.36903000 3.55726000
1.17834000 1.36709000 3.62463000
1.19621000 1.38189000 3.45209000
1.76788000 1.39532000 3.69910000
1.90918000 1.40599000 3.66149000
1.84819000 1.41171000 3.56135000
-6.20433000 -3.07405000 5.95061000
-6.04202000 -3.09650000 6.03002000
-6.13155000 -3.08615000 5.97180000
-5.84433000 1.22907000 6.51797000
-5.86017000 1.29957000 6.51633000
-5.97192000 1.31158000 6.42335000
-5.68619000 1.15879000 6.63422000
-5.63967000 1.19251000 6.67888000
-4.01155000 -3.21874000 1.12984000
-3.83656000 -3.21769000 1.25987000
-3.97502000 -3.21592000 1.21058000
-4.10252000 -3.20498000 1.34263000
-4.23046000 -3.20450000 1.34717000
-4.14444000 -3.20777000 1.27286000
-4.06210000 -3.14018000 3.63989000
-4.01623000 -3.14657000 3.55237000
-3.94988000 -3.14022000 3.63492000
-3.92361000 -3.15620000 3.14860000
-3.85962000 -3.16171000 3.12562000
-3.84015000 -3.15498000 3.17769000
8.20617000 -2.01891000 2.04914000
8.21575000 -1.91080000 2.03558000
8.21969000 -1.95974000 2.16501000
-1.83018000 0.85598800 -1.76690000
-1.72224000 0.95775800 -1.76933000
-1.75542000 0.65354300 -1.75924000
-1.83533000 0.51015500 -1.74624000
-1.90172000 0.74580800 -1.76406000
-2.49640000 -0.64625100 8.36652000
-2.22514000 -0.75662600 8.34326000
-2.33957000 -0.77638900 8.34873000
-2.95525000 -2.73694000 -1.16023000
-2.83630000 -2.74537000 -1.19749000
-2.90409000 -2.78812000 -1.19311000
-3.14390000 -2.71145000 -1.08876000
-3.24148000 -2.65399000 -1.03830000
3.78825000 -3.16870000 5.91345000
3.84738000 -3.17049000 6.11181000
3.68814000 -3.16812000 5.97463000
4.19462000 -3.16213000 5.80778000
4.40228000 -3.15994000 5.89815000
4.23857000 -3.16497000 5.90867000
6.95897000 -2.56114000 0.53189300
7.10070000 -2.58740000 0.60963200
7.05724000 -2.61813000 0.52589100
7.12242000 -2.51767000 0.71832000
7.19119000 -2.50269000 0.79550200
8.66015000 2.32613000 2.06869000
8.59380000 2.21497000 2.10005000
8.63355000 2.15063000 2.50435000
8.65654000 2.20551000 2.43038000
8.66561000 2.22491000 2.50294000
-3.13095000 -3.02086000 8.20957000
-2.85076000 -3.03894000 8.17292000
-3.11616000 -3.01300000 8.21322000
-2.98857000 -2.82511000 8.21892000
-3.02325000 -2.66936000 8.25285000
-3.09087000 -2.78471000 8.23694000
-5.44658000 -3.14807000 5.74875000
-5.34332000 -3.14800000 5.97790000
-5.63000000 -3.14915000 5.72977000
-5.60395000 -3.13434000 6.12511000
-4.39262000 -3.15088000 3.56511000
-4.33058000 -3.15221000 3.54344000
-4.34668000 -3.16582000 3.62085000
-4.52624000 -3.15829000 3.37352000
-4.37290000 -3.14926000 3.47743000
3.31970000 1.25719000 7.00345000
3.10746000 1.23687000 6.97533000
3.32393000 1.25402000 7.10405000
2.88532000 1.21576000 7.14215000
2.72953000 1.20496000 7.06117000
8.61179000 2.62723000 2.65955000
8.61334000 2.63607000 2.57012000
8.59189000 2.40749000 3.42975000
8.59411000 2.52245000 3.20241000
8.57066000 2.44792000 3.58575000
-2.19726000 -3.29758000 -1.20999000
-2.19621000 -3.28540000 -1.23863000
-2.16641000 -3.29190000 -1.23912000
-2.21895000 -3.14300000 -1.27849000
-2.06810000 -3.06947000 -1.28864000
-2.16485000 -3.18097000 -1.25795000
-4.38954000 -0.52484800 -0.73666000
-4.31846000 -0.66510000 -0.75468700
-4.44969000 -0.74257000 -0.68116100
-4.35661000 -0.91674900 -0.71680500
-4.46848000 -0.86791100 -0.65981700
-4.30926000 -0.84770700 -0.74252600
1.28337000 1.86230000 -0.44718000
1.54210000 1.85396000 -0.33771700
1.54356000 1.86792000 -0.42486900
2.13055000 1.89970000 -0.37708400
2.19312000 1.89541000 -0.33362000
2.22952000 1.91061000 -0.41766200
-2.59205000 1.47360000 4.66050000
-2.40759000 1.42983000 4.83388000
-2.46277000 1.45721000 4.59616000
-2.98954000 1.52447000 4.99654000
-2.96604000 1.53059000 4.85367000
-3.05910000 1.54498000 4.91074000
-0.12229200 -3.12616000 7.57841000
-0.24004100 -3.12582000 7.66248000
-0.26068200 -3.12689000 7.48202000
-0.23064400 -3.12465000 7.36882000
-0.22215300 -3.12035000 7.29343000
-6.62860000 1.94036000 1.08123000
-6.62540000 1.71741000 1.38761000
-6.63160000 1.77804000 1.37351000
-6.61938000 1.81629000 1.18650000
0.54441500 -1.73565000 8.04992000
0.42260400 -1.81006000 8.05336000
0.52260200 -1.84431000 8.04765000
0.23031400 -1.77989000 8.06882000
0.27597100 -1.93092000 8.05503000
0.46326700 -1.89315000 8.04641000
7.96940000 -2.23789000 1.57834000
7.59133000 -2.12987000 1.15991000
7.80489000 -2.13223000 1.35322000
-6.12988000 -3.22896000 1.48973000
-6.16536000 -3.23017000 1.43079000
-6.06394000 -3.23960000 1.43165000
-6.16145000 -3.23216000 1.21337000
-6.21173000 -3.22956000 1.24262000
4.88480000 -1.78730000 8.14203000
4.69068000 -1.76363000 8.23676000
4.73111000 -2.08078000 8.14550000
4.86388000 -2.12085000 8.07726000
4.88738000 -2.04810000 8.07546000
5.07239000 1.50423000 -1.02627000
5.20501000 1.50564000 -0.95986000
5.12363000 1.46676000 -0.99042500
4.98845000 1.49539000 -1.05959000
4.93136000 1.49793000 -1.08292000
4.99243000 1.52349000 -1.07388000
8.39884000 1.98774000 1.72888000
8.41993000 1.99066000 1.79452000
8.40424000 1.80353000 1.76810000
8.38155000 1.99699000 1.68163000
8.38122000 1.80736000 1.70418000
8.08165000 -2.65446000 1.70921000
8.03572000 -2.61974000 1.65607000
8.06996000 -2.60443000 1.74319000
8.05145000 -2.42458000 1.73775000
8.08229000 -2.50969000 1.81037000
8.05985000 -2.48989000 1.75687000
-0.50295100 -3.11835000 7.32317000
-0.59196200 -3.12293000 7.40531000
-0.68212500 -3.12366000 7.37002000
-0.72058900 -3.10508000 6.89553000
-0.82223200 -3.09987000 6.83265000
-0.69613800 -3.09859000 6.77763000
1.77694000 -2.27392000 8.12922000
1.75031000 -2.36983000 8.11927000
1.95582000 -2.33317000 8.15425000
1.92071000 -2.39740000 8.14829000
1.69742000 -2.43669000 8.11265000
1.85831000 -2.45557000 8.14221000
5.84715000 -0.31501000 7.89883000
5.71409000 -0.43528000 7.96375000
5.88261000 -0.42706200 7.86964000
5.57055000 0.43637600 8.09214000
4.56033000 -1.88710000 8.27040000
4.74814000 -1.96745000 8.15638000
4.41215000 -1.93537000 8.32395000
4.36793000 -1.98536000 8.33407000
4.48632000 -2.03971000 8.27303000
-1.34991000 1.30767000 4.44435000
-1.32110000 1.31785000 4.26092000
-0.98041000 1.23790000 4.86588000
-0.88048900 1.23784000 4.73726000
-1.03313000 1.25418000 4.72028000
2.32450000 1.71558000 1.20182000
1.86341000 1.68865000 1.15369000
2.70510000 1.69479000 1.64952000
2.62865000 1.71035000 1.43311000
2.56848000 1.70269000 1.48059000
8.33892000 -0.22777600 2.24891000
8.32664000 -0.18400400 2.09663000
8.32750000 -0.41300400 2.25186000
8.33904000 -0.29535700 2.34700000
8.32794000 -0.37856500 2.43157000
7.86509000 -1.56972000 6.06934000
7.84424000 -1.69867000 6.09721000
7.87846000 -1.63078000 5.98642000
7.71553000 -1.78730000 6.33691000
7.77825000 -1.68408000 6.24490000
4.45667000 1.09192000 -1.15087000
4.30480000 1.14583000 -1.17242000
8.42934000 2.08047000 1.78662000
8.42792000 2.04422000 1.80880000
8.40325000 2.04012000 1.72585000
8.33010000 2.07752000 1.55243000
8.39543000 2.09148000 1.67548000
8.38750000 2.04734000 1.68089000
4.52559000 -2.33844000 8.18804000
4.47631000 -2.54286000 8.21538000
8.46268000 1.82932000 4.81951000
8.45313000 1.75471000 4.64929000
8.48858000 1.86545000 4.68749000
8.49236000 1.89044000 4.74369000
8.50212000 1.92810000 4.68203000
-0.59959400 -3.15368000 2.65693000
-0.33586900 -3.16039000 2.60318000
-0.54357200 -3.15360000 2.69460000
-0.16583000 -3.15192000 2.72945000
-0.10978800 -3.13348000 2.69938000
4.48744000 -2.52009000 8.19612000
4.62353000 -2.51931000 8.13798000
4.64940000 -2.48196000 8.11000000
8.14215000 -2.71142000 3.82722000
8.12996000 -2.69661000 3.97670000
8.15393000 -2.64963000 3.86322000
4.71430000 -2.71561000 8.26523000
4.84646000 -2.73438000 8.19813000
4.79816000 -2.70517000 8.21485000
4.72539000 -2.62292000 8.18872000
-4.75233000 1.20120000 7.67969000
-4.83045000 1.22008000 7.61250000
-4.77352000 1.17732000 7.62972000
-4.23857000 1.00411000 8.06636000
-4.24997000 0.97576000 8.01412000
-4.17664000 0.93598200 8.05279000
-0.06438160 -3.17876000 3.28822000
-0.08950640 -3.16786000 3.23156000
-0.05871690 -3.17552000 3.20814000
-0.03557870 -3.16957000 3.50640000
-0.00748566 -3.16385000 3.58704000
7.58878000 2.33612000 5.55544000
7.66024000 2.35683000 5.53824000
7.58097000 2.35170000 5.37355000
7.26505000 2.29426000 5.18107000
7.44989000 2.33503000 5.10796000
7.39874000 2.33131000 5.02575000
-3.24703000 -1.96982000 -1.10885000
-3.33646000 -1.85970000 -1.07624000
-3.18683000 -1.80988000 -1.15043000
-3.21314000 -1.72083000 -1.15051000
-3.33429000 -1.69249000 -1.10198000
-6.70248000 -2.97898000 4.75161000
-6.71177000 -2.91631000 4.70544000
-6.71849000 -2.80827000 4.82483000
-6.73612000 -2.72553000 4.72956000
-6.72190000 -2.82779000 4.71646000
-1.04480000 -1.90603000 8.11287000
-1.17062000 -1.87529000 8.12701000
-1.15893000 -2.02394000 8.11574000
-0.59442600 -1.86498000 8.09715000
-0.80440900 -1.88349000 8.10190000
2.92936000 -1.43464000 8.33314000
3.38111000 -1.10309000 8.43936000
3.59502000 -1.20625000 8.45867000
-2.51444000 -3.10085000 7.84031000
-2.35777000 -3.10178000 7.81656000
-3.26984000 -3.09633000 7.85405000
-3.32678000 -3.10091000 7.71979000
-3.17415000 -3.09974000 7.77929000
-0.06721930 -3.15645000 3.49720000
-0.15206700 -3.17534000 3.54025000
-0.10657200 -3.16322000 3.55670000
-0.10617000 -3.16035000 3.69285000
4.79551000 1.14735000 9.20741000
4.78024000 1.19814000 9.20467000
4.53481000 1.25048000 9.07497000
4.40727000 1.24578000 9.03083000
4.41504000 1.21840000 9.06680000
-1.01739000 -1.93256000 8.10137000
-1.08795000 -2.03318000 8.10281000
-1.03292000 -2.00480000 8.08964000
-1.05694000 -2.19051000 8.08577000
-1.15411000 -2.23006000 8.09732000
-1.05680000 -2.24668000 8.07903000
-6.82515000 2.40281000 4.03789000
-6.81726000 2.39669000 4.10547000
-6.76841000 2.44310000 4.12412000
-6.84975000 2.37864000 4.04416000
-6.81726000 2.39669000 4.10547000
-6.82515000 2.40281000 4.03789000
-5.25944000 -2.75740000 -0.18012200
-5.11648000 -2.70211000 -0.20955700
-4.88334000 -2.62063000 -0.28024100
5.12970000 -0.99650700 8.14802000
5.17280000 -1.06034000 8.12427000
5.27855000 -0.93014900 8.10447000
5.60992000 -0.98792200 7.93417000
5.55482000 -1.09874000 7.94397000
5.68240000 -1.13376000 7.87620000
-0.14262000 -3.15558000 2.29649000
-0.10083000 -3.14594000 2.16517000
-0.08104430 -3.13762000 2.21874000
0.17529200 -3.15522000 2.12751000
0.14167700 -3.13137000 2.07187000
0.24462300 -3.15457000 2.09912000
-1.62820000 -3.30408000 -0.49970400
-1.42415000 -3.30906000 -0.52507300
-2.48294000 -3.30347000 -0.35028300
-2.45735000 -3.31153000 -0.40099100
-2.35408000 -3.30399000 -0.37332500
-5.49491000 -2.57098000 0.07834640
-5.41957000 -2.58590000 0.03270620
-5.00282000 -2.66689000 -0.24380700
-0.90516100 -2.03794000 8.07411000
-0.81618700 -2.12681000 8.07968000
-0.85561800 -2.01298000 8.08934000
-1.00813000 -2.07166000 8.07667000
-1.10919000 -2.08286000 8.10747000
-0.99733700 -2.15004000 8.08578000
4.76942000 -3.10778000 8.07432000
4.71639000 -3.12748000 8.02614000
4.76486000 -3.15155000 7.88852000
4.84521000 -3.10917000 8.03914000
5.08864000 0.76648700 -0.96116500
5.01065000 0.67073300 -0.98688900
5.22037000 -0.06179430 -0.84673300
5.28804000 0.02383090 -0.81137200
5.36727000 -0.10061300 -0.76100900
7.84026000 -1.05595000 6.28180000
7.88090000 -1.08423000 6.13992000
5.86744000 2.23168000 0.97855000
6.10033000 2.28129000 1.03879000
5.95709000 2.25711000 0.85874100
5.79206000 2.24665000 0.46058000
5.85564000 2.24787000 0.59880700
6.07909000 2.29762000 0.58989700
-4.14704000 -2.82985000 -0.79409100
-4.25276000 -2.78355000 -0.72242300
-4.11611000 -2.77729000 -0.77621800
-4.02810000 -2.91309000 -0.86986100
5.97766000 -3.20173000 4.25009000
6.56956000 -3.20465000 4.45501000
6.67408000 -3.20633000 4.41209000
6.56908000 -3.20311000 4.57226000
5.09032000 0.46268500 -0.93734200
5.17850000 0.70072800 -0.91146300
5.17300000 0.42795500 -0.89345300
5.21213000 0.59400300 -0.88526900
5.31671000 0.69298800 -0.83162400
5.30593000 0.50271700 -0.82598000
-6.70587000 -2.56039000 5.04986000
-6.64103000 -2.55178000 5.12039000
-6.63318000 -2.48083000 5.00307000
-6.62389000 -2.52528000 5.09571000
-6.80223000 0.25779100 3.47810000
-6.79649000 0.33073300 3.32857000
-6.79278000 0.16556700 3.41741000
-6.78783000 0.69479700 3.15720000
-6.78809000 0.54227300 3.13873000
-6.79434000 0.62872400 3.27146000
-6.45458000 -2.67423000 0.73078100
-6.48114000 -2.72127000 0.71468700
-6.74819000 -2.89448000 2.11089000
-6.74162000 -2.97357000 2.20760000
-6.75485000 -2.85453000 2.21494000
-6.73526000 -2.99128000 2.10272000
-6.72204000 -3.07032000 2.08433000
-6.74162000 -2.97357000 2.20760000
-3.17131000 -3.11762000 4.96054000
-3.02159000 -3.11032000 4.98142000
-3.14080000 -3.11117000 5.23645000
-3.03436000 -3.10431000 5.32083000
-6.61931000 0.62234700 5.63005000
-6.66338000 0.60392000 5.53527000
-6.63372000 0.54598800 5.58836000
-6.53554000 0.47302900 5.74992000
-3.61361000 -3.11143000 6.64991000
-3.60668000 -3.10921000 6.75645000
-3.70362000 -3.10765000 6.67302000
-3.79168000 -3.11579000 6.92771000
-3.83394000 -3.11443000 6.83013000
-3.72529000 -3.11322000 6.89444000
-6.62598000 2.47084000 4.02180000
-6.65613000 2.48006000 3.80394000
-6.68603000 2.47082000 3.97394000
-6.71592000 2.49536000 3.29230000
-6.65246000 2.50903000 3.16263000
-6.72218000 2.49277000 3.14468000
-6.63120000 -3.12819000 3.32126000
-6.56477000 -3.14462000 3.15721000
-6.50779000 -3.14301000 3.21954000
-6.70204000 -3.08924000 3.32030000
-6.72393000 -3.05651000 3.27787000
-6.73050000 -3.05487000 3.19882000
3.76702000 1.48510000 -1.38660000
3.85671000 1.48896000 -1.36365000
3.78342000 1.41730000 -1.30472000
3.80661000 1.52685000 -1.41671000
3.77372000 1.61819000 -1.50440000
3.87774000 1.57324000 -1.44187000
-0.89882700 -2.20578000 8.07060000
-0.71733300 -2.26156000 8.04886000
-0.80011700 -2.18601000 8.06995000
-0.89769300 -2.10635000 8.07243000
-6.78752000 -2.51637000 4.11039000
-6.77497000 -2.49407000 4.16746000
-6.78447000 -2.49394000 4.02261000
-6.78079000 -2.45423000 3.72575000
-6.73349000 -2.40258000 3.73818000
2.06975000 -3.07441000 -1.15125000
2.11698000 -3.11380000 -1.13350000
2.14271000 -3.21012000 -1.09392000
1.84610000 -3.14265000 -1.12444000
1.76813000 -3.06268000 -1.15235000
1.90931000 -3.09520000 -1.15079000
-6.68569000 -1.38123000 3.66724000
-6.69334000 -1.31350000 3.81798000
-6.69100000 -1.39093000 3.58110000
-6.68206000 -1.49295000 3.50175000
-6.67847000 -1.43842000 3.62002000
-0.16971200 0.98308400 8.47040000
-0.44599200 0.99507300 8.47396000
5.93797000 2.22760000 1.28323000
5.79327000 2.18991000 1.34634000
6.60199000 2.38104000 1.29341000
6.49119000 2.36261000 1.24082000
6.46501000 2.35021000 1.37463000
-0.95258400 -3.11001000 7.28993000
-0.76512400 -3.12137000 7.39575000
-0.85272100 -3.09949000 6.94159000
4.63123000 -2.89303000 -1.25898000
4.61224000 -3.03026000 -1.21734000
4.74553000 -2.97472000 -1.22646000
4.74612000 -2.92237000 -1.23839000
4.78363000 -2.94669000 -1.21641000
-6.74862000 -2.98161000 3.15856000
-6.73531000 -2.97414000 3.08631000
-6.71541000 -3.05805000 3.07834000
-6.75513000 -2.89684000 3.28632000
-6.75834000 -2.93860000 3.21958000
-6.73707000 -2.96720000 3.30531000
2.01790000 -3.26730000 -1.04653000
2.10014000 -3.26580000 -1.05152000
2.02447000 -3.27070000 -1.00604000
2.06336000 -3.19334000 -1.10521000
2.08573000 -3.25360000 -1.07058000
4.41805000 -1.83645000 8.33061000
4.37857000 -1.90775000 8.33509000
4.48484000 -1.87352000 8.30252000
4.35962000 -1.60444000 8.38928000
4.42732000 -1.78472000 8.33418000
4.47464000 -1.68013000 8.34061000
-6.77649000 -2.75592000 3.05557000
-6.78111000 -2.77438000 3.18173000
-6.79727000 -2.64158000 3.11303000
-6.75790000 -2.88825000 3.15382000
7.57166000 -1.74360000 6.55859000
7.58866000 -1.80692000 6.51784000
7.63893000 -1.82542000 6.45305000
7.60894000 -1.65574000 6.53752000
7.63427000 -1.73172000 6.47265000
7.68138000 -1.67803000 6.40909000
-5.15023000 -3.17395000 3.88040000
-5.29255000 -3.18221000 3.81028000
-5.24445000 -3.18139000 3.72303000
-5.62889000 -3.17780000 3.04752000
-5.53414000 -3.17973000 3.08008000
-5.59667000 -3.17704000 3.13895000
-4.51287000 -0.62269100 7.42711000
-4.62606000 -0.47459900 7.35613000
-4.58486000 -0.69571400 7.37182000
-4.85264000 -0.84747500 7.16172000
-4.83752000 -0.99615100 7.16167000
4.55390000 -1.51337000 8.34053000
4.70488000 -1.49103000 8.27846000
4.51950000 -1.79125000 8.30105000
4.16105000 1.76342000 -1.48609000
4.12519000 1.71948000 -1.48607000
-4.37034000 -3.25432000 0.66039500
-4.37779000 -3.27262000 0.46833200
-4.27712000 -3.26054000 0.53195000
-4.50797000 -3.27850000 0.42871700
-4.36606000 -3.29008000 0.22275700
-4.37893000 -3.27735000 0.39878400
-6.45311000 -3.14527000 3.07566000
-6.46196000 -3.14299000 3.19350000
-6.50710000 -3.14563000 3.12248000
-6.29939000 -3.15084000 3.15300000
-6.26307000 -3.15363000 3.22683000
-6.40697000 -3.14183000 3.29837000
-6.65147000 -2.31857000 4.76811000
-6.64987000 -2.34571000 4.66097000
-6.64578000 -2.38946000 4.76167000
-6.65756000 -2.08439000 4.34645000
-6.65535000 -2.20136000 4.35592000
-6.66179000 -2.18027000 4.44670000
-5.67621000 -3.15233000 5.74804000
-5.77362000 -3.14207000 5.87292000
-5.76393000 -3.14507000 5.79394000
-5.88923000 -3.14411000 5.25469000
-5.84099000 -3.15032000 5.15529000
-5.81297000 -3.15102000 5.26761000
1.52468000 -2.61544000 8.17913000
1.44662000 -2.60076000 8.17353000
1.35002000 -2.63237000 8.16701000
0.81116400 -2.60070000 8.09355000
0.75857000 -2.57371000 8.04092000
6.53158000 -2.41355000 0.23552000
6.63635000 -2.24745000 0.32526200
6.67413000 -2.34977000 0.36549600
6.22655000 -2.25469000 -0.03121990
6.44046000 -2.11134000 0.15015400
6.41422000 -2.24435000 0.13101200
-1.09892000 -2.98510000 -1.27833000
-1.11291000 -2.93629000 -1.30354000
-1.02130000 -2.91765000 -1.30517000
-1.25723000 -2.84774000 -1.32269000
-1.38925000 -2.95306000 -1.30992000
-1.41111000 -2.89426000 -1.31448000
7.73724000 0.87211100 6.66459000
7.81415000 0.87881700 6.57791000
7.84712000 0.87070500 6.53461000
7.81415000 0.87881700 6.57791000
7.81869000 0.79635500 6.57681000
7.99640000 -2.67652000 5.49177000
8.00735000 -2.61679000 5.42154000
7.98579000 -2.64389000 5.55866000
8.03117000 -2.73200000 5.04358000
-6.64190000 -2.32471000 4.93704000
-6.64975000 -2.26951000 4.83965000
-6.61403000 -2.40177000 5.07507000
-6.59610000 -2.38965000 5.16930000
-5.33042000 -1.99030000 6.62760000
-5.48827000 -2.06868000 6.48824000
-5.31547000 -2.08536000 6.62317000
-5.59136000 -1.71988000 6.44792000
-5.35662000 -1.73955000 6.64682000
-5.64072000 -1.62601000 6.41872000
4.56105000 1.08726000 9.14683000
4.57977000 1.04107000 9.13151000
4.45831000 1.00559000 9.09929000
-3.41278000 -3.11019000 6.69093000
-3.26359000 -3.10737000 6.66574000
-3.24036000 -3.10311000 6.75762000
8.12952000 0.85725200 5.32696000
8.10241000 0.91033300 5.57292000
8.10112000 0.99807000 5.66498000
8.08315000 0.85281800 5.65875000
0.74946500 -2.39638000 -1.12076000
1.06239000 -2.53320000 -1.13043000
1.11586000 -2.49666000 -1.10895000
0.15600300 -0.00341990 8.28817000
0.06193420 -0.08741010 8.28536000
0.20860300 -0.11463600 8.28700000
0.11440400 -0.30492400 8.26427000
0.07104140 -0.45326900 8.24447000
0.22245900 -0.38888600 8.25492000
-0.95868100 -2.99676000 -1.29273000
-1.02185000 -2.99100000 -1.27676000
-1.25908000 -3.24890000 -1.20379000
-1.18596000 -3.17437000 -1.22116000
5.19294000 -3.14692000 5.19293000
5.34924000 -3.15631000 5.21068000
5.25854000 -3.15210000 5.41276000
5.19737000 -3.14409000 5.29626000
5.36685000 -3.15528000 5.33633000
-3.82524000 -3.08301000 -1.11261000
-3.71911000 -3.07482000 -1.14389000
-3.76295000 -3.09052000 -1.14573000
-3.88901000 -3.04763000 -0.98384500
-3.88073000 -3.05805000 -1.02799000
-3.93654000 -3.07509000 -1.01934000
1.31350000 1.80545000 -0.02613080
1.14567000 1.78043000 0.09647520
0.99164800 1.79961000 -0.06484890
0.98568400 1.78178000 0.03793580
-6.70788000 2.59013000 0.46249600
-6.68932000 2.59158000 0.37946300
5.06373000 -3.22560000 2.13746000
5.22546000 -3.22832000 2.29772000
4.95296000 -3.21539000 2.29593000
5.36046000 -3.22728000 2.56271000
5.37079000 -3.23427000 2.43351000
6.78586000 -0.83136400 7.28796000
6.85658000 -0.91537700 7.21735000
6.84633000 -0.80074100 7.24234000
6.74672000 -0.69343900 7.32061000
6.73125000 -0.60876200 7.32248000
6.65512000 -0.70448500 7.38576000
-3.61379000 -2.98281000 -1.04446000
-3.81320000 -3.06983000 -1.07802000
-3.83997000 -3.05392000 -1.01244000
-3.74964000 -3.05308000 -1.05753000
-3.11017000 -3.10095000 6.62101000
-3.16327000 -3.11478000 6.52748000
-3.09993000 -3.10057000 6.51776000
-2.96037000 -3.09228000 6.73960000
-3.00260000 -3.09613000 6.66976000
8.13671000 0.18260300 4.89905000
8.12630000 0.23364800 5.06553000
8.12162000 0.13559500 5.00831000
8.14907000 0.47358400 5.02819000
8.12012000 0.50033300 5.25835000
8.11788000 0.37961300 5.22466000
6.94605000 -0.65949200 7.18502000
7.26538000 -0.50740300 6.96122000
7.31486000 -0.34857500 6.94174000
7.14885000 -0.39390900 7.06645000
-3.41501000 -3.21681000 1.45809000
-3.54844000 -3.21627000 1.41482000
-3.53473000 -3.22258000 1.31611000
-3.87346000 -3.21089000 1.36404000
-3.80911000 -3.21181000 1.44369000
-3.92722000 -3.20730000 1.39398000
-4.71960000 2.31628000 -0.09713810
-4.59034000 2.28069000 0.02240640
-4.56757000 2.29074000 -0.13199500
-4.86839000 2.36663000 -0.54950100
-4.87196000 2.36478000 -0.37354600
0.78454500 1.67625000 0.66728800
0.90770800 1.70767000 0.48730600
1.01799000 1.71636000 0.49049400
2.99745000 -1.42801000 -1.17772000
3.13450000 -1.50051000 -1.16534000
2.87123000 -1.58110000 -1.17023000
2.29819000 -1.59656000 -1.20481000
2.39474000 -1.50001000 -1.20685000
2.43259000 -1.57534000 -1.19709000
3.15393000 0.15668400 8.55641000
3.22171000 0.10800700 8.56268000
2.80150000 -0.30528900 8.44384000
1.41467000 0.49704100 -1.53041000
1.40153000 0.65368100 -1.54183000
2.08520000 0.19212400 -1.43678000
1.99856000 0.35939900 -1.45226000
2.13506000 0.26182200 -1.43626000
-2.87288000 -3.09148000 6.59221000
-3.06479000 -3.09787000 6.54307000
-2.85238000 -3.08899000 6.67162000
-2.94244000 -3.09199000 6.63089000
-6.69700000 2.45473000 0.29844600
-6.64625000 2.45988000 0.24601400
-6.65928000 2.43190000 0.25896900
-6.70931000 2.53969000 0.34015600
-6.72295000 2.53008000 0.39381800
4.80695000 -1.01375000 -0.96309200
4.92743000 -1.01752000 -0.92156100
4.79740000 -1.16940000 -0.95624100
7.06938000 2.33263000 3.97617000
7.21584000 2.36714000 4.01868000
7.15551000 2.35371000 3.96543000
6.67225000 2.22210000 3.92457000
6.77548000 2.25219000 3.91308000
6.79314000 2.25945000 3.83978000
7.20852000 -0.08044720 7.04727000
7.42695000 -0.29890500 6.86259000
7.40719000 -0.16115200 6.88473000
8.17454000 1.23614000 5.35292000
8.16494000 1.25987000 5.65200000
8.13369000 1.24787000 5.84190000
-6.76284000 2.19133000 1.53633000
-6.76880000 2.19872000 1.47875000
-6.79091000 2.24681000 1.35510000
-6.77767000 2.29707000 1.36456000
-6.80961000 2.20119000 1.26913000
-4.90266000 2.09629000 3.70128000
-4.74249000 2.06936000 3.50561000
-4.82056000 2.09153000 3.50272000
-5.52586000 2.28334000 3.32191000
-5.61495000 2.29798000 3.45593000
-5.49113000 2.25833000 3.57843000
8.05072000 -2.47442000 4.27895000
8.04416000 -2.46434000 4.34639000
8.09957000 -2.54004000 4.33010000
8.05433000 -2.45478000 4.05383000
8.07065000 -2.42120000 3.86808000
8.04125000 -2.42968000 4.07568000
0.41676300 1.94041000 -1.16575000
0.49668800 1.95927000 -1.28879000
0.35990600 1.95015000 -1.23915000
0.26424300 1.96739000 -1.35713000
0.38756100 1.96772000 -1.35454000
0.31219900 1.97385000 -1.40437000
