-9.41741000 -4.10613000 0.09867910
-9.40522000 -4.12092000 -0.00189279
-9.40845000 -4.12031000 0.06434330
-9.41080000 -4.11908000 0.13049900
-9.39491000 -4.12211000 -0.20115800
-9.39237000 -4.12312000 -0.26777100
-9.39039000 -4.12465000 -0.33446600
-9.42181000 -4.09835000 0.26028600
-9.40995000 -4.11019000 0.39446000
-9.41120000 -4.11210000 0.32855800
-9.41195000 -4.11454000 0.26260100
-9.41191000 -4.11703000 0.19658300
-9.24898000 -1.39155000 3.09741000
-9.24994000 -1.45969000 3.08025000
-9.25095000 -1.52800000 3.06317000
-9.27305000 -2.11729000 2.89800000
-9.25199000 -1.59644000 3.04611000
-9.25305000 -1.66499000 3.02900000
-9.25413000 -1.73360000 3.01177000
-9.25525000 -1.80225000 2.99439000
-9.25642000 -1.87091000 2.97682000
-9.25769000 -1.93956000 2.95905000
-9.25769000 -1.93956000 2.95905000
-9.25642000 -1.87091000 2.97682000
-9.24452000 -1.97444000 2.96684000
-9.25525000 -1.80225000 2.99439000
-9.25413000 -1.73360000 3.01177000
-9.25305000 -1.66499000 3.02900000
-9.25908000 -2.00818000 2.94103000
-9.26057000 -2.07672000 2.92276000
-9.26214000 -2.14515000 2.90419000
-9.26377000 -2.21343000 2.88532000
-9.25908000 -2.00818000 2.94103000
-9.26057000 -2.07672000 2.92276000
-9.26214000 -2.14515000 2.90419000
-9.26377000 -2.21343000 2.88532000
-9.25769000 -2.38133000 2.84890000
-9.27036000 -2.48476000 2.80716000
-9.26879000 -2.41720000 2.82698000
-9.26714000 -2.34945000 2.84665000
-9.26546000 -2.28153000 2.86612000
-7.66246000 -4.18957000 2.15568000
-7.77742000 -4.19810000 2.14477000
-7.84333000 -4.19700000 2.14891000
-7.90906000 -4.19579000 2.15346000
-8.05842000 -4.18049000 2.18484000
-7.97458000 -4.19451000 2.15832000
-8.03986000 -4.19319000 2.16336000
-7.51306000 -4.19980000 2.13015000
-7.57912000 -4.19997000 2.13410000
-7.64525000 -4.19967000 2.13765000
-7.71137000 -4.19902000 2.14110000
-7.43764000 -4.19011000 2.13769000
-7.44712000 -4.19910000 2.12557000
-7.38128000 -4.19789000 2.12052000
-7.31550000 -4.19620000 2.11525000
-7.24973000 -4.19409000 2.11001000
-7.51306000 -4.19980000 2.13015000
-7.50098000 -4.20580000 2.11659000
-7.57912000 -4.19997000 2.13410000
-7.64525000 -4.19967000 2.13765000
-7.71137000 -4.19902000 2.14110000
-7.77742000 -4.19810000 2.14477000
-7.44712000 -4.19910000 2.12557000
-7.38128000 -4.19789000 2.12052000
-7.31550000 -4.19620000 2.11525000
-7.23986000 -4.20067000 2.09649000
-7.24973000 -4.19409000 2.11001000
-7.18393000 -4.19161000 2.10501000
-7.11807000 -4.18885000 2.10022000
-7.05211000 -4.18593000 2.09558000
-6.98602000 -4.18294000 2.09103000
-6.98602000 -4.18294000 2.09103000
-6.91978000 -4.18000000 2.08649000
-6.85343000 -4.17722000 2.08197000
-6.78703000 -4.17470000 2.07745000
-7.05211000 -4.18593000 2.09558000
-7.11807000 -4.18885000 2.10022000
-7.18393000 -4.19161000 2.10501000
-6.91978000 -4.18000000 2.08649000
-6.85343000 -4.17722000 2.08197000
-6.78703000 -4.17470000 2.07745000
-6.72062000 -4.17256000 2.07294000
-6.65425000 -4.17087000 2.06842000
-6.58790000 -4.16955000 2.06382000
-6.52154000 -4.16849000 2.05908000
-7.99793000 -4.19969000 2.14768000
-8.03986000 -4.19319000 2.16336000
-7.97458000 -4.19451000 2.15832000
-7.90906000 -4.19579000 2.15346000
-7.84333000 -4.19700000 2.14891000
-8.29780000 -4.18779000 2.18412000
-8.23387000 -4.18922000 2.17890000
-8.16955000 -4.19058000 2.17368000
-8.10486000 -4.19189000 2.16850000
-9.39382000 -4.12362000 0.54644800
-9.40995000 -4.11019000 0.39446000
-9.40846000 -4.10922000 0.46031200
-9.40688000 -4.10911000 0.52612100
-9.40535000 -4.10972000 0.59189000
-9.40400000 -4.11089000 0.65762500
-9.41191000 -4.11703000 0.19658300
-9.41195000 -4.11454000 0.26260100
-9.41120000 -4.11210000 0.32855800
-9.40288000 -4.11245000 0.72332600
-9.40184000 -4.11427000 0.78896600
-9.38720000 -4.13516000 0.94913600
-9.40067000 -4.11620000 0.85451200
-9.39912000 -4.11808000 0.91993300
-9.40400000 -4.11089000 0.65762500
-9.41461000 -4.09379000 0.58975300
-9.40288000 -4.11245000 0.72332600
-9.40773000 -4.10262000 0.90178900
-9.40184000 -4.11427000 0.78896600
-9.40067000 -4.11620000 0.85451200
-9.39912000 -4.11808000 0.91993300
-9.40535000 -4.10972000 0.59189000
-9.40688000 -4.10911000 0.52612100
-9.40846000 -4.10922000 0.46031200
-9.39275000 -4.11539000 1.25076000
-9.38989000 -4.12467000 1.17977000
-9.39220000 -4.12303000 1.11514000
-9.39468000 -4.12144000 1.05028000
-9.39707000 -4.11981000 0.98519800
-9.33078000 -2.99207000 2.58866000
-9.27532000 -2.75252000 2.72672000
-9.27618000 -2.81850000 2.70614000
-9.29227000 -2.95027000 2.64732000
-9.27691000 -2.88425000 2.68527000
-9.27753000 -2.94999000 2.66402000
-9.27807000 -3.01597000 2.64234000
-9.27859000 -3.08236000 2.62021000
-9.27927000 -3.14902000 2.59798000
-9.29954000 -3.22581000 2.55264000
-9.28032000 -3.21576000 2.57606000
-9.28194000 -3.28240000 2.55485000
-9.28194000 -3.28240000 2.55485000
-9.28032000 -3.21576000 2.57606000
-9.26704000 -3.24882000 2.57829000
-9.27927000 -3.14902000 2.59798000
-9.27859000 -3.08236000 2.62021000
-9.27807000 -3.01597000 2.64234000
-9.26066000 -2.94776000 2.68297000
-9.28430000 -3.34866000 2.53469000
-9.30658000 -3.40826000 2.49675000
-9.28732000 -3.41399000 2.51557000
-9.29090000 -3.47776000 2.49736000
-9.29492000 -3.53933000 2.47998000
-9.27206000 -3.41369000 2.52846000
-9.28430000 -3.34866000 2.53469000
-9.28732000 -3.41399000 2.51557000
-9.29090000 -3.47776000 2.49736000
-9.29492000 -3.53933000 2.47998000
-9.29474000 -3.74286000 2.43473000
-9.31249000 -3.75296000 2.41488000
-9.30821000 -3.70536000 2.43102000
-9.30374000 -3.65360000 2.44707000
-9.29926000 -3.59810000 2.46330000
-8.91508000 -4.16559000 2.26111000
-8.99163000 -4.17747000 2.24331000
-9.03689000 -4.17556000 2.24530000
-9.03860000 -4.15842000 2.27003000
-9.07901000 -4.17304000 2.24642000
-9.11787000 -4.17000000 2.24663000
-9.15596000 -4.14759000 2.26936000
-9.15334000 -4.16655000 2.24590000
-8.78392000 -4.18004000 2.22783000
-8.83920000 -4.17980000 2.23266000
-8.89247000 -4.17942000 2.23690000
-8.94339000 -4.17871000 2.24048000
-8.51663000 -4.16951000 2.22374000
-8.72695000 -4.18032000 2.22254000
-8.66851000 -4.18072000 2.21692000
-8.60882000 -4.18132000 2.21117000
-8.54809000 -4.18219000 2.20547000
-8.78392000 -4.18004000 2.22783000
-8.98452000 -4.18814000 2.22203000
-8.83920000 -4.17980000 2.23266000
-8.89247000 -4.17942000 2.23690000
-8.94339000 -4.17871000 2.24048000
-8.99163000 -4.17747000 2.24331000
-8.72695000 -4.18032000 2.22254000
-8.56653000 -4.19129000 2.18495000
-8.66851000 -4.18072000 2.21692000
-8.60882000 -4.18132000 2.21117000
-8.54809000 -4.18219000 2.20547000
-9.37961000 -4.13909000 1.26512000
-9.38989000 -4.12467000 1.17977000
-9.38793000 -4.12640000 1.24410000
-9.38631000 -4.12821000 1.30800000
-9.38495000 -4.13003000 1.37129000
-9.38379000 -4.13182000 1.43381000
-9.39707000 -4.11981000 0.98519800
-9.39468000 -4.12144000 1.05028000
-9.39220000 -4.12303000 1.11514000
-9.38276000 -4.13353000 1.49540000
-9.37293000 -4.14891000 1.87457000
-9.38184000 -4.13513000 1.55594000
-9.38103000 -4.13659000 1.61533000
-9.38034000 -4.13789000 1.67345000
-9.38379000 -4.13182000 1.43381000
-9.38276000 -4.13353000 1.49540000
-9.38184000 -4.13513000 1.55594000
-9.38103000 -4.13659000 1.61533000
-9.39093000 -4.11885000 1.82675000
-9.38034000 -4.13789000 1.67345000
-9.38495000 -4.13003000 1.37129000
-9.38631000 -4.12821000 1.30800000
-9.38793000 -4.12640000 1.24410000
-9.37810000 -4.14010000 1.89036000
-9.37868000 -4.14018000 1.83882000
-9.37921000 -4.13977000 1.78537000
-9.37975000 -4.13898000 1.73019000
-9.37555000 -3.97543000 2.23782000
-9.34073000 -4.00988000 2.27460000
-9.34472000 -4.03198000 2.25526000
-9.34893000 -4.05232000 2.23500000
-9.36722000 -4.06161000 2.18917000
-9.35328000 -4.07072000 2.21340000
-9.35768000 -4.08701000 2.19006000
-9.36203000 -4.10105000 2.16456000
-9.36612000 -4.11282000 2.13634000
-9.38686000 -4.05077000 2.12508000
-9.36976000 -4.12230000 2.10483000
-9.38370000 -4.09661000 2.06492000
-9.37274000 -4.12951000 2.06947000
-9.37274000 -4.12951000 2.06947000
-9.36976000 -4.12230000 2.10483000
-9.35851000 -4.13733000 2.13808000
-9.36612000 -4.11282000 2.13634000
-9.36203000 -4.10105000 2.16456000
-9.35233000 -4.11756000 2.17676000
-9.35768000 -4.08701000 2.19006000
-9.35128000 -4.09630000 2.19710000
-9.34390000 -4.10545000 2.20420000
-9.33520000 -4.11426000 2.21104000
-9.33722000 -4.13672000 2.18933000
-9.32488000 -4.12254000 2.21728000
-9.37490000 -4.13452000 2.02987000
-9.38710000 -4.11064000 1.98570000
-9.37639000 -4.13767000 1.98643000
-9.37739000 -4.13939000 1.93973000
-9.36189000 -4.16311000 2.03746000
-9.37490000 -4.13452000 2.02987000
-9.37639000 -4.13767000 1.98643000
-9.37739000 -4.13939000 1.93973000
-9.37810000 -4.14010000 1.89036000
-9.37975000 -4.13898000 1.73019000
-9.37921000 -4.13977000 1.78537000
-9.37868000 -4.14018000 1.83882000
-9.28574000 -4.16727000 2.20172000
-9.26179000 -4.14893000 2.23520000
-9.23940000 -4.15402000 2.23867000
-9.23744000 -4.17678000 2.21035000
-9.21396000 -4.15861000 2.24174000
-9.18533000 -4.16277000 2.24421000
-9.18437000 -4.18219000 2.21711000
-9.15334000 -4.16655000 2.24590000
-9.31769000 -4.15785000 2.19070000
-9.31262000 -4.13013000 2.22269000
-9.29817000 -4.13703000 2.22736000
-9.28131000 -4.14328000 2.23147000
-9.26179000 -4.14893000 2.23520000
-9.23547000 -4.13363000 2.26238000
-9.23940000 -4.15402000 2.23867000
-9.21396000 -4.15861000 2.24174000
-9.18533000 -4.16277000 2.24421000
-9.28131000 -4.14328000 2.23147000
-9.26897000 -4.11050000 2.26923000
-9.29817000 -4.13703000 2.22736000
-9.29717000 -4.09569000 2.26431000
-9.31262000 -4.13013000 2.22269000
-9.32488000 -4.12254000 2.21728000
-9.32252000 -4.08902000 2.24679000
-9.32605000 -3.98352000 2.31003000
-9.34073000 -4.00988000 2.27460000
-9.33703000 -3.98611000 2.29337000
-9.33356000 -3.96054000 2.31169000
-9.33022000 -3.93291000 2.32962000
-9.32692000 -3.90301000 2.34723000
-9.33520000 -4.11426000 2.21104000
-9.34390000 -4.10545000 2.20420000
-9.34095000 -4.07342000 2.23384000
-9.35128000 -4.09630000 2.19710000
-9.35768000 -4.08701000 2.19006000
-9.35328000 -4.07072000 2.21340000
-9.34893000 -4.05232000 2.23500000
-9.34472000 -4.03198000 2.25526000
-9.32358000 -3.87057000 2.36459000
-9.30338000 -3.91571000 2.36840000
-9.32012000 -3.83510000 2.38166000
-9.29933000 -3.84107000 2.40142000
-9.31645000 -3.79608000 2.39844000
-9.32692000 -3.90301000 2.34723000
-9.33358000 -3.83488000 2.36530000
-9.32358000 -3.87057000 2.36459000
-9.32012000 -3.83510000 2.38166000
-9.31645000 -3.79608000 2.39844000
-9.33278000 -3.70766000 2.40253000
-9.31249000 -3.75296000 2.41488000
-9.33022000 -3.93291000 2.32962000
-9.35249000 -3.95306000 2.28951000
-9.33356000 -3.96054000 2.31169000
-9.33703000 -3.98611000 2.29337000
-9.29926000 -3.59810000 2.46330000
-9.30374000 -3.65360000 2.44707000
-9.30821000 -3.70536000 2.43102000
-9.11787000 -4.17000000 2.24663000
-9.11114000 -4.18619000 2.22071000
-9.07901000 -4.17304000 2.24642000
-9.03689000 -4.17556000 2.24530000
-8.29780000 -4.18779000 2.18412000
-8.36127000 -4.18627000 2.18933000
-8.42421000 -4.18476000 2.19459000
-8.48651000 -4.18336000 2.19995000
-8.48651000 -4.18336000 2.19995000
-8.42421000 -4.18476000 2.19459000
-8.36127000 -4.18627000 2.18933000
-9.27753000 -2.94999000 2.66402000
-9.27691000 -2.88425000 2.68527000
-9.27618000 -2.81850000 2.70614000
-9.25854000 -2.72485000 2.75270000
-9.27532000 -2.75252000 2.72672000
-9.27430000 -2.68610000 2.74707000
-9.27313000 -2.61929000 2.76724000
-9.27181000 -2.55215000 2.78726000
-9.29023000 -2.52050000 2.77362000
-9.27430000 -2.68610000 2.74707000
-9.27313000 -2.61929000 2.76724000
-9.27181000 -2.55215000 2.78726000
-9.27036000 -2.48476000 2.80716000
-9.26546000 -2.28153000 2.86612000
-9.26714000 -2.34945000 2.84665000
-9.26879000 -2.41720000 2.82698000
-8.23387000 -4.18922000 2.17890000
-8.16955000 -4.19058000 2.17368000
-8.10486000 -4.19189000 2.16850000
-9.25199000 -1.59644000 3.04611000
-9.25095000 -1.52800000 3.06317000
-9.23108000 -1.36392000 3.12366000
-9.24994000 -1.45969000 3.08025000
-9.24898000 -1.39155000 3.09741000
-9.24807000 -1.32361000 3.11472000
-9.24725000 -1.25587000 3.13213000
-9.24654000 -1.18835000 3.14958000
-9.24807000 -1.32361000 3.11472000
-9.24725000 -1.25587000 3.13213000
-9.24654000 -1.18835000 3.14958000
-9.25522000 1.04581000 3.72995000
-9.24532000 1.01797000 3.74107000
-9.24940000 1.07852000 3.75961000
-9.25385000 1.13839000 3.77858000
-2.43819000 -4.12422000 1.92395000
-2.37009000 -4.12481000 1.92585000
-2.30196000 -4.12592000 1.92798000
-2.23383000 -4.12714000 1.93015000
-2.50627000 -4.12449000 1.92246000
-2.57431000 -4.12551000 1.92135000
-2.64230000 -4.12709000 1.92057000
-2.37009000 -4.12481000 1.92585000
-2.30196000 -4.12592000 1.92798000
-2.23383000 -4.12714000 1.93015000
-4.87483000 -1.43297000 2.84643000
-5.25210000 -2.08391000 2.65207000
-5.76398000 -1.26955000 2.95674000
-9.32654000 1.66658000 3.98779000
-9.32882000 1.68559000 4.01021000
-9.35878000 1.79227000 4.05313000
-9.34039000 1.73281000 4.03743000
-9.35283000 1.77816000 4.06500000
-9.39126000 2.46377000 4.24848000
-9.43395000 2.46966000 4.19334000
-9.43054000 2.47714000 4.18920000
-9.42715000 2.48402000 4.18480000
-9.42372000 2.49033000 4.18008000
-9.42017000 2.49609000 4.17495000
-9.39913000 2.48500000 4.21197000
-9.37692000 2.47428000 4.24767000
-9.34353000 2.44436000 4.31063000
-9.35263000 2.46385000 4.28093000
-9.32537000 2.45364000 4.31059000
-9.44503000 2.44346000 4.20527000
-9.44112000 2.45283000 4.20126000
-9.43746000 2.46156000 4.19732000
-9.29444000 2.44358000 4.33582000
-9.28644000 2.42496000 4.35798000
-9.26016000 2.43369000 4.35713000
-9.22306000 2.42404000 4.37535000
-9.19475000 2.40414000 4.40064000
-9.18368000 2.41467000 4.39129000
-9.43395000 2.46966000 4.19334000
-9.48543000 2.49708000 4.10348000
-9.43054000 2.47714000 4.18920000
-9.50402000 2.53440000 4.03465000
-9.42715000 2.48402000 4.18480000
-9.49906000 2.54458000 4.02105000
-9.48042000 2.53188000 4.06090000
-9.46093000 2.51955000 4.09963000
-9.42372000 2.49033000 4.18008000
-9.44078000 2.50761000 4.13753000
-9.42017000 2.49609000 4.17495000
-9.43746000 2.46156000 4.19732000
-9.44112000 2.45283000 4.20126000
-9.44503000 2.44346000 4.20527000
-9.44923000 2.43346000 4.20946000
-9.45382000 2.42281000 4.21398000
-9.45884000 2.41153000 4.21896000
-9.46436000 2.39964000 4.22453000
-9.19342000 0.31048800 -1.15432000
-9.20942000 0.66506500 -0.23709400
-9.21693000 -0.30136800 -0.57623200
-9.44200000 -3.56282000 -4.02979000
-9.43313000 -3.53439000 -4.04593000
-9.43424000 -3.48083000 -4.04876000
-9.43512000 -3.42459000 -4.05162000
-9.43577000 -3.36581000 -4.05456000
-9.43619000 -3.30464000 -4.05759000
-9.43337000 -3.75926000 -4.01886000
-9.42685000 -3.72106000 -4.03507000
-9.42864000 -3.67845000 -4.03764000
-9.43030000 -3.63317000 -4.04033000
-9.43181000 -3.58516000 -4.04311000
-9.42685000 -3.72106000 -4.03507000
-9.42894000 -3.53815000 -4.05126000
-9.42864000 -3.67845000 -4.03764000
-9.43030000 -3.63317000 -4.04033000
-9.43181000 -3.58516000 -4.04311000
-9.43313000 -3.53439000 -4.04593000
-9.42495000 -3.76103000 -4.03267000
-9.42290000 -3.79832000 -4.03046000
-9.42065000 -3.83288000 -4.02849000
-9.42495000 -3.76103000 -4.03267000
-9.42290000 -3.79832000 -4.03046000
-9.42065000 -3.83288000 -4.02849000
-9.43424000 -3.48083000 -4.04876000
-9.43512000 -3.42459000 -4.05162000
-9.43577000 -3.36581000 -4.05456000
-9.43637000 -3.24124000 -4.06076000
-9.43632000 -3.17589000 -4.06405000
-9.43606000 -3.10888000 -4.06743000
-9.16423000 1.75242000 -1.00246000
-9.20877000 1.43048000 0.00743785
-9.54856000 2.58443000 3.89249000
-9.53319000 2.57093000 3.93695000
-9.51668000 2.55762000 3.97977000
-9.42017000 2.49609000 4.17495000
-9.44078000 2.50761000 4.13753000
-9.46093000 2.51955000 4.09963000
-9.48042000 2.53188000 4.06090000
-9.37400000 2.48795000 4.22740000
-9.39913000 2.48500000 4.21197000
-9.37692000 2.47428000 4.24767000
-9.33142000 2.47090000 4.28269000
-9.35263000 2.46385000 4.28093000
-9.32537000 2.45364000 4.31059000
-9.26542000 2.45197000 4.33261000
-9.29444000 2.44358000 4.33582000
-9.26016000 2.43369000 4.35713000
-9.22306000 2.42404000 4.37535000
-9.14244000 2.40560000 4.40563000
-9.09939000 2.39683000 4.41844000
-9.05442000 2.38833000 4.42966000
-9.53614000 2.19449000 4.36129000
-9.54681000 2.20755000 4.33539000
-9.52933000 2.20709000 4.37055000
-9.54527000 2.22749000 4.33017000
-9.54087000 2.24654000 4.32165000
-9.64559000 2.72024000 3.36090000
-9.64762000 2.73165000 3.29842000
-9.64864000 2.74280000 3.23469000
-9.65214000 2.78999000 2.97480000
-9.65122000 2.77783000 3.04030000
-9.65021000 2.76580000 3.10541000
-5.77963000 2.04194000 4.32334000
-5.87473000 2.05625000 4.32490000
-5.80713000 2.05251000 4.32122000
-5.73954000 2.04902000 4.31786000
-5.67195000 2.04577000 4.31482000
-5.60436000 2.04276000 4.31208000
-6.07715000 2.06043000 4.34105000
-6.14521000 2.07371000 4.34210000
-6.07756000 2.06899000 4.33758000
-6.00993000 2.06450000 4.33315000
-5.94233000 2.06025000 4.32890000
-6.14521000 2.07371000 4.34210000
-5.99847000 2.07250000 4.32594000
-6.07756000 2.06899000 4.33758000
-6.00993000 2.06450000 4.33315000
-5.94233000 2.06025000 4.32890000
-5.87473000 2.05625000 4.32490000
-6.21289000 2.07863000 4.34664000
-6.28060000 2.08376000 4.35117000
-6.34836000 2.08907000 4.35566000
-6.41616000 2.09455000 4.36009000
-6.21289000 2.07863000 4.34664000
-6.28060000 2.08376000 4.35117000
-6.34836000 2.08907000 4.35566000
-6.48401000 2.10020000 4.36442000
-6.55191000 2.10598000 4.36867000
-6.61986000 2.11188000 4.37282000
-9.66725000 3.14363000 1.16007000
-9.67507000 3.12467000 1.25328000
-9.67349000 3.13652000 1.18205000
-9.67129000 3.14797000 1.11068000
-9.66860000 3.15915000 1.03919000
-9.66560000 3.17018000 0.96763100
-9.66833000 3.10600000 1.38193000
-9.67562000 3.08626000 1.46589000
-9.67606000 3.09950000 1.39521000
-9.67591000 3.11232000 1.32433000
-9.66240000 3.18118000 0.89601900
-9.64003000 3.23707000 0.56864100
-9.65909000 3.19220000 0.82437400
-9.65571000 3.20327000 0.75270300
-9.65232000 3.21444000 0.68101800
-9.66560000 3.17018000 0.96763100
-9.67645000 3.14389000 1.10568000
-9.66240000 3.18118000 0.89601900
-9.65909000 3.19220000 0.82437400
-9.64696000 3.24207000 0.47408500
-9.65571000 3.20327000 0.75270300
-9.65232000 3.21444000 0.68101800
-9.66860000 3.15915000 1.03919000
-9.67129000 3.14797000 1.11068000
-9.67349000 3.13652000 1.18205000
-9.63928000 3.26057000 0.39426100
-9.64244000 3.24880000 0.46594400
-9.64567000 3.23719000 0.53763400
-9.64897000 3.22574000 0.60932700
-9.21606000 3.14278000 -1.33346000
-9.26841000 3.04207000 -0.61959000
-9.24742000 2.97112000 -0.49409000
-9.39744000 0.04346330 -4.23635000
-9.39123000 0.10586900 -4.24915000
-9.39053000 0.17717000 -4.25258000
-9.39018000 0.24846000 -4.25635000
-9.39000000 0.31975500 -4.26029000
-9.38978000 0.39106800 -4.26428000
-9.39820000 -0.17956700 -4.23923000
-9.39606000 -0.10817300 -4.24127000
-9.39410000 -0.03680150 -4.24356000
-9.39245000 0.03454580 -4.24615000
-9.38937000 0.46241000 -4.26821000
-9.38885000 0.53377400 -4.27217000
-9.38836000 0.60514900 -4.27632000
-9.39179000 0.70199200 -4.27212000
-9.38803000 0.67652500 -4.28081000
-9.38795000 0.74789000 -4.28572000
-9.38806000 0.81924600 -4.29101000
-9.38822000 0.89059400 -4.29656000
-9.38833000 0.96193500 -4.30228000
-9.39089000 1.13266000 -4.30836000
-9.38828000 1.03327000 -4.30806000
-9.38795000 1.10459000 -4.31376000
-9.38728000 1.17590000 -4.31926000
-9.38617000 1.24719000 -4.32442000
-9.60210000 3.44045000 -0.67062200
-9.60436000 3.40907000 -0.46531100
-9.60708000 3.39661000 -0.39371100
-9.60988000 3.38415000 -0.32210100
-9.61274000 3.37166000 -0.25048500
-9.61562000 3.35916000 -0.17886500
-9.61853000 3.34664000 -0.10724600
-9.62144000 3.33411000 -0.03562520
-9.63234000 3.30163000 0.12525900
-9.62436000 3.32162000 0.03599980
-9.62730000 3.30919000 0.10763200
-9.62730000 3.30919000 0.10763200
-9.62436000 3.32162000 0.03599980
-9.62807000 3.28787000 0.25332900
-9.62144000 3.33411000 -0.03562520
-9.59993000 3.40148000 -0.39978600
-9.61853000 3.34664000 -0.10724600
-9.61562000 3.35916000 -0.17886500
-9.63023000 3.29685000 0.17927400
-9.63320000 3.28462000 0.25092600
-9.63621000 3.27252000 0.32258800
-9.63023000 3.29685000 0.17927400
-9.63320000 3.28462000 0.25092600
-9.63621000 3.27252000 0.32258800
-9.63928000 3.26057000 0.39426100
-9.64897000 3.22574000 0.60932700
-9.64567000 3.23719000 0.53763400
-9.64244000 3.24880000 0.46594400
-5.68879000 2.05579000 4.30802000
-5.60436000 2.04276000 4.31208000
-5.67195000 2.04577000 4.31482000
-5.73954000 2.04902000 4.31786000
-5.80713000 2.05251000 4.32122000
-5.27744000 2.03774000 4.29182000
-5.33437000 2.03216000 4.30152000
-5.40177000 2.03473000 4.30456000
-5.46925000 2.03731000 4.30717000
-5.53679000 2.03996000 4.30960000
-5.26707000 2.02952000 4.29786000
-5.19987000 2.02684000 4.29371000
-5.13274000 2.02414000 4.28922000
-4.87472000 2.02156000 4.26408000
-5.06569000 2.02144000 4.28458000
-5.33437000 2.03216000 4.30152000
-5.30008000 2.02313000 4.30450000
-5.40177000 2.03473000 4.30456000
-5.46925000 2.03731000 4.30717000
-5.53679000 2.03996000 4.30960000
-5.26707000 2.02952000 4.29786000
-5.19987000 2.02684000 4.29371000
-5.13274000 2.02414000 4.28922000
-5.06569000 2.02144000 4.28458000
-4.84903000 2.00831000 4.27203000
-4.99870000 2.01877000 4.27991000
-4.93178000 2.01611000 4.27519000
-4.86493000 2.01343000 4.27035000
-4.79817000 2.01071000 4.26533000
-4.37236000 1.71919000 4.00433000
-3.61700000 1.65873000 3.91361000
-4.56529000 1.67240000 3.97292000
-3.32831000 1.85678000 4.15988000
-3.58932000 1.76794000 4.03516000
-3.96025000 1.83753000 4.13269000
-4.26780000 1.98327000 4.23903000
-4.26623000 1.99000000 4.23234000
-4.19989000 1.98788000 4.23091000
-4.13358000 1.98581000 4.23006000
-4.06732000 1.98374000 4.22964000
-4.00114000 1.98160000 4.22947000
-4.48629000 1.99027000 4.24795000
-4.53189000 1.99967000 4.24506000
-4.46544000 1.99708000 4.24090000
-4.39901000 1.99460000 4.23737000
-4.33261000 1.99224000 4.23450000
-4.53189000 1.99967000 4.24506000
-4.46070000 2.00670000 4.22826000
-4.46544000 1.99708000 4.24090000
-4.39901000 1.99460000 4.23737000
-4.33261000 1.99224000 4.23450000
-4.26623000 1.99000000 4.23234000
-4.59838000 2.00237000 4.24977000
-4.66491000 2.00514000 4.25486000
-4.73150000 2.00794000 4.26011000
-4.79817000 2.01071000 4.26533000
-4.59838000 2.00237000 4.24977000
-4.66491000 2.00514000 4.25486000
-4.73150000 2.00794000 4.26011000
-4.86493000 2.01343000 4.27035000
-4.93178000 2.01611000 4.27519000
-4.99870000 2.01877000 4.27991000
-9.60436000 3.40907000 -0.46531100
-9.60174000 3.42153000 -0.53689400
-9.59927000 3.43403000 -0.60845500
-9.58612000 3.47584000 -0.82000000
-9.59701000 3.44660000 -0.67998300
-9.59502000 3.45929000 -0.75147200
-9.61274000 3.37166000 -0.25048500
-9.60988000 3.38415000 -0.32210100
-9.60708000 3.39661000 -0.39371100
-9.59335000 3.47212000 -0.82291400
-9.59200000 3.48510000 -0.89430500
-9.59096000 3.49821000 -0.96564400
-9.59023000 3.51144000 -1.03693000
-9.59502000 3.45929000 -0.75147200
-9.59599000 3.49087000 -0.95499000
-9.59335000 3.47212000 -0.82291400
-9.59200000 3.48510000 -0.89430500
-9.59096000 3.49821000 -0.96564400
-9.59023000 3.51144000 -1.03693000
-9.59701000 3.44660000 -0.67998300
-9.59927000 3.43403000 -0.60845500
-9.60174000 3.42153000 -0.53689400
-9.59503000 3.55675000 -1.30232000
-9.58994000 3.56522000 -1.32153000
-9.58968000 3.55170000 -1.25046000
-9.58961000 3.53821000 -1.17934000
-9.58979000 3.52479000 -1.10816000
-9.47297000 3.51473000 -2.11187000
-9.38073000 3.44378000 -2.05679000
-9.36929000 3.57634000 -2.85214000
-9.35544000 2.12796000 -4.33539000
-9.30096000 1.89167000 -4.14220000
-9.35838000 1.70322000 -4.25901000
-9.35987000 2.08907000 -4.35649000
-9.36759000 1.81569000 -4.35298000
-9.36514000 1.88638000 -4.35528000
-9.36284000 1.95695000 -4.35742000
-9.36077000 2.02739000 -4.35952000
-9.35904000 2.09769000 -4.36169000
-9.38537000 1.40190000 -4.32876000
-9.37773000 1.53197000 -4.34105000
-9.37520000 1.60303000 -4.34443000
-9.37265000 1.67400000 -4.34755000
-9.37010000 1.74489000 -4.35040000
-9.35770000 2.16783000 -4.36404000
-9.35679000 2.23779000 -4.36660000
-9.35628000 2.30753000 -4.36938000
-9.59189000 3.60593000 -1.53441000
-9.59103000 3.59232000 -1.46351000
-9.59039000 3.57876000 -1.39255000
-9.58979000 3.52479000 -1.10816000
-9.58238000 3.52972000 -1.11049000
-9.58961000 3.53821000 -1.17934000
-9.58968000 3.55170000 -1.25046000
-8.99254000 3.02560000 1.32338000
-9.22012000 3.21085000 0.47338000
-9.02226000 3.25703000 0.00447913
-4.19989000 1.98788000 4.23091000
-4.13358000 1.98581000 4.23006000
-4.06732000 1.98374000 4.22964000
-3.93505000 1.97933000 4.22940000
-3.86904000 1.97694000 4.22934000
-3.80312000 1.97442000 4.22922000
-9.38455000 1.31845000 -4.32914000
-9.38253000 1.38968000 -4.33346000
-9.38021000 1.46085000 -4.33740000
-9.40463000 -0.39388300 -4.23358000
-9.40258000 -0.32242400 -4.23551000
-9.40041000 -0.25098500 -4.23735000
-1.16815000 1.58540000 3.95292000
-1.69711000 1.77805000 4.11962000
-0.88059300 1.67827000 4.08343000
-2.51894000 1.90776000 4.19302000
-2.43084000 1.91434000 4.18867000
-2.36565000 1.91232000 4.18891000
-2.27532000 1.90245000 4.19258000
-2.30046000 1.91040000 4.18946000
-2.23528000 1.90856000 4.19027000
-2.17012000 1.90680000 4.19129000
-2.69162000 1.92353000 4.19175000
-2.62643000 1.92105000 4.19029000
-2.56123000 1.91869000 4.18932000
-2.49603000 1.91646000 4.18880000
-2.69162000 1.92353000 4.19175000
-2.72942000 1.93279000 4.18499000
-2.62643000 1.92105000 4.19029000
-2.56123000 1.91869000 4.18932000
-2.39410000 1.92083000 4.18213000
-2.49603000 1.91646000 4.18880000
-2.43084000 1.91434000 4.18867000
-2.75680000 1.92615000 4.19374000
-2.82199000 1.92891000 4.19631000
-2.88716000 1.93180000 4.19952000
-2.93641000 1.94001000 4.19542000
-2.95232000 1.93484000 4.20342000
-2.72807000 1.91798000 4.19699000
-2.75680000 1.92615000 4.19374000
-2.82199000 1.92891000 4.19631000
-2.88716000 1.93180000 4.19952000
-3.01748000 1.93800000 4.20797000
-3.08265000 1.94126000 4.21274000
-3.14785000 1.94454000 4.21722000
-4.36826000 2.04526000 4.06771000
-4.66736000 2.19641000 3.37401000
-3.84689000 2.12183000 3.59955000
-7.71910000 2.77956000 1.42163000
-8.05765000 3.00909000 0.37843400
-7.37659000 2.67903000 1.72144000
-9.60877000 3.78800000 -2.43252000
-9.61298000 3.78084000 -2.45006000
-9.61288000 3.79229000 -2.51968000
-9.61255000 3.80349000 -2.58903000
-9.61213000 3.81455000 -2.65808000
-9.60728000 3.86637000 -2.94316000
-9.61178000 3.82556000 -2.72682000
-9.61098000 3.74425000 -2.23992000
-9.61208000 3.75687000 -2.31013000
-9.61273000 3.76904000 -2.38019000
-9.61161000 3.83661000 -2.79521000
-9.61167000 3.84773000 -2.86324000
-9.61198000 3.85893000 -2.93088000
-9.61257000 3.87021000 -2.99811000
-9.61178000 3.82556000 -2.72682000
-9.61460000 3.84287000 -2.87747000
-9.61161000 3.83661000 -2.79521000
-9.61167000 3.84773000 -2.86324000
-9.61198000 3.85893000 -2.93088000
-9.61257000 3.87021000 -2.99811000
-9.61213000 3.81455000 -2.65808000
-9.61255000 3.80349000 -2.58903000
-9.61288000 3.79229000 -2.51968000
-9.62540000 3.91761000 -3.34608000
-9.61668000 3.91528000 -3.26163000
-9.61560000 3.90422000 -3.19675000
-9.61448000 3.89295000 -3.13114000
-9.61343000 3.88158000 -3.06489000
-9.41580000 3.35892000 -4.41604000
-9.41759000 3.39455000 -4.42874000
-9.43011000 3.44956000 -4.43236000
-9.44295000 3.47707000 -4.42398000
-9.44390000 3.50283000 -4.43633000
-9.45874000 3.55397000 -4.44047000
-9.47821000 3.58493000 -4.42815000
-9.47442000 3.60259000 -4.44456000
-9.39511000 3.24218000 -4.41298000
-9.38064000 3.16079000 -4.41813000
-9.38816000 3.22119000 -4.42047000
-9.39673000 3.28030000 -4.42292000
-9.40649000 3.33810000 -4.42562000
-9.38064000 3.16079000 -4.41813000
-9.38033000 3.19715000 -4.42404000
-9.38816000 3.22119000 -4.42047000
-9.40204000 3.34660000 -4.43128000
-9.39673000 3.28030000 -4.42292000
-9.40649000 3.33810000 -4.42562000
-9.41759000 3.39455000 -4.42874000
-9.37405000 3.09915000 -4.41580000
-9.35728000 3.00222000 -4.41821000
-9.36837000 3.03639000 -4.41348000
-9.36358000 2.97266000 -4.41125000
-9.35968000 2.90811000 -4.40915000
-9.37972000 3.11828000 -4.40900000
-9.37405000 3.09915000 -4.41580000
-9.36902000 2.99530000 -4.40535000
-9.36837000 3.03639000 -4.41348000
-9.36358000 2.97266000 -4.41125000
-9.43669000 3.51809000 -4.44626000
-9.43011000 3.44956000 -4.43236000
-9.44390000 3.50283000 -4.43633000
-9.45874000 3.55397000 -4.44047000
-9.47442000 3.60259000 -4.44456000
-9.49055000 3.64836000 -4.44839000
-9.50791000 3.72517000 -4.46113000
-9.50593000 3.69099000 -4.45158000
-9.51918000 3.73027000 -4.45375000
-9.51713000 3.78938000 -4.46654000
-9.52892000 3.76594000 -4.45448000
-9.49055000 3.64836000 -4.44839000
-9.53627000 3.74170000 -4.43962000
-9.50593000 3.69099000 -4.45158000
-9.51918000 3.73027000 -4.45375000
-9.52892000 3.76594000 -4.45448000
-9.53414000 3.79788000 -4.45351000
-9.51650000 3.83625000 -4.46451000
-9.53544000 3.82647000 -4.45103000
-9.51261000 3.86494000 -4.46048000
-9.53378000 3.85220000 -4.44736000
-9.53013000 3.87558000 -4.44283000
-9.53414000 3.79788000 -4.45351000
-9.55389000 3.79264000 -4.43184000
-9.53544000 3.82647000 -4.45103000
-9.55825000 3.83229000 -4.42779000
-9.53378000 3.85220000 -4.44736000
-9.53013000 3.87558000 -4.44283000
-9.56386000 3.89508000 -4.40549000
-9.52532000 3.89702000 -4.43769000
-9.51959000 3.91672000 -4.43194000
-9.51306000 3.93478000 -4.42551000
-9.54726000 3.93554000 -4.39533000
-9.50584000 3.95132000 -4.41834000
-9.59662000 3.99014000 -3.92726000
-9.57758000 4.00702000 -3.91973000
-9.58431000 4.00094000 -3.87390000
-9.59060000 3.99489000 -3.82660000
-9.59645000 3.98883000 -3.77779000
-9.61032000 3.97326000 -3.71351000
-9.60184000 3.98269000 -3.72748000
-9.60673000 3.97641000 -3.67563000
-9.61097000 3.96980000 -3.62208000
-9.62354000 3.94914000 -3.55194000
-9.61435000 3.96265000 -3.56669000
-9.61669000 3.95474000 -3.50929000
-9.61669000 3.95474000 -3.50929000
-9.61435000 3.96265000 -3.56669000
-9.60484000 3.96751000 -3.51553000
-9.61097000 3.96980000 -3.62208000
-9.60673000 3.97641000 -3.67563000
-9.59184000 3.99089000 -3.69831000
-9.60184000 3.98269000 -3.72748000
-9.61786000 3.94592000 -3.44980000
-9.61807000 3.93629000 -3.38847000
-9.61759000 3.92602000 -3.32563000
-9.61786000 3.94592000 -3.44980000
-9.61214000 3.93751000 -3.35749000
-9.61807000 3.93629000 -3.38847000
-9.61759000 3.92602000 -3.32563000
-9.61668000 3.91528000 -3.26163000
-9.61343000 3.88158000 -3.06489000
-9.61448000 3.89295000 -3.13114000
-9.61560000 3.90422000 -3.19675000
-4.66670000 2.45361000 1.88810000
-3.88249000 2.20346000 3.18512000
-4.98934000 2.27517000 3.01407000
-2.75160000 1.96892000 4.09219000
-2.17012000 1.90680000 4.19129000
-2.23528000 1.90856000 4.19027000
-2.30046000 1.91040000 4.18946000
-2.36565000 1.91232000 4.18891000
-1.74837000 1.90716000 4.19095000
-1.90965000 1.90015000 4.19618000
-1.97473000 1.90180000 4.19499000
-2.03984000 1.90344000 4.19372000
-2.10497000 1.90510000 4.19246000
-1.84460000 1.89848000 4.19724000
-1.77959000 1.89677000 4.19814000
-1.71461000 1.89501000 4.19885000
-1.64967000 1.89320000 4.19937000
-1.90965000 1.90015000 4.19618000
-1.97473000 1.90180000 4.19499000
-2.03984000 1.90344000 4.19372000
-2.10497000 1.90510000 4.19246000
-1.84460000 1.89848000 4.19724000
-1.77959000 1.89677000 4.19814000
-1.60418000 1.88300000 4.20413000
-1.71461000 1.89501000 4.19885000
-1.64967000 1.89320000 4.19937000
-1.58477000 1.89132000 4.19970000
-1.51992000 1.88939000 4.19988000
-1.45510000 1.88742000 4.20001000
-1.39033000 1.88544000 4.20014000
-1.32559000 1.88346000 4.20036000
-1.26089000 1.88151000 4.20074000
-1.19623000 1.87963000 4.20133000
-1.58477000 1.89132000 4.19970000
-1.51992000 1.88939000 4.19988000
-1.45510000 1.88742000 4.20001000
-9.47036000 3.68626000 -1.92556000
-9.22149000 4.00950000 -3.84829000
-9.14269000 3.54555000 -1.40021000
-9.57758000 4.00702000 -3.91973000
-9.57037000 4.01314000 -3.96404000
-9.53859000 4.03595000 -3.99913000
-9.56247000 4.01921000 -4.00664000
-9.55360000 4.02511000 -4.04724000
-9.54349000 4.03069000 -4.08561000
-9.59645000 3.98883000 -3.77779000
-9.59060000 3.99489000 -3.82660000
-9.58431000 4.00094000 -3.87390000
-9.53195000 4.03588000 -4.12155000
-9.50712000 4.05237000 -4.12140000
-9.51906000 4.04079000 -4.15527000
-9.50498000 4.04555000 -4.18705000
-9.48987000 4.05032000 -4.21715000
-9.43488000 4.07737000 -4.25681000
-9.54349000 4.03069000 -4.08561000
-9.54905000 4.02375000 -4.11971000
-9.53195000 4.03588000 -4.12155000
-9.52153000 4.03361000 -4.19326000
-9.51906000 4.04079000 -4.15527000
-9.50498000 4.04555000 -4.18705000
-9.48987000 4.05032000 -4.21715000
-9.55360000 4.02511000 -4.04724000
-9.57424000 4.00878000 -4.04798000
-9.56247000 4.01921000 -4.00664000
-9.57037000 4.01314000 -3.96404000
-9.47040000 4.04415000 -4.30135000
-9.44368000 4.04348000 -4.35144000
-9.43707000 4.05123000 -4.34399000
-9.43081000 4.05826000 -4.33687000
-9.42486000 4.06462000 -4.33005000
-9.41922000 4.07030000 -4.32353000
-9.43865000 4.06525000 -4.29901000
-9.45681000 4.06020000 -4.27311000
-9.47384000 4.05521000 -4.24582000
-9.50015000 4.00719000 -4.34274000
-9.47348000 4.00484000 -4.38434000
-9.46555000 4.01571000 -4.37571000
-9.45793000 4.02576000 -4.36733000
-9.45063000 4.03500000 -4.35923000
-9.47348000 4.00484000 -4.38434000
-9.41921000 4.03478000 -4.40077000
-9.46555000 4.01571000 -4.37571000
-9.45793000 4.02576000 -4.36733000
-9.45063000 4.03500000 -4.35923000
-9.39663000 4.06677000 -4.37098000
-9.44368000 4.04348000 -4.35144000
-9.48167000 3.99309000 -4.39315000
-9.45625000 3.98696000 -4.42656000
-9.48994000 3.98034000 -4.40193000
-9.49806000 3.96646000 -4.41041000
-9.50584000 3.95132000 -4.41834000
-9.48422000 3.94291000 -4.44308000
-9.53780000 3.96185000 -4.37569000
-9.48167000 3.99309000 -4.39315000
-9.48994000 3.98034000 -4.40193000
-9.49806000 3.96646000 -4.41041000
-9.43707000 4.05123000 -4.34399000
-9.43081000 4.05826000 -4.33687000
-9.34775000 4.07303000 -4.40884000
-9.35042000 4.08368000 -4.38736000
-9.37558000 4.07984000 -4.36801000
-9.42486000 4.06462000 -4.33005000
-9.39835000 4.07527000 -4.34662000
-9.41922000 4.07030000 -4.32353000
-9.41922000 4.07030000 -4.32353000
-9.39835000 4.07527000 -4.34662000
-9.38746000 4.09029000 -4.31592000
-9.37558000 4.07984000 -4.36801000
-9.34738000 4.09612000 -4.36107000
-9.35042000 4.08368000 -4.38736000
-9.43865000 4.06525000 -4.29901000
-9.45681000 4.06020000 -4.27311000
-9.47384000 4.05521000 -4.24582000
-9.51306000 3.93478000 -4.42551000
-9.51959000 3.91672000 -4.43194000
-9.52532000 3.89702000 -4.43769000
-9.49789000 3.89814000 -4.45806000
-9.35665000 2.84285000 -4.40720000
-9.35436000 2.77695000 -4.40533000
-9.35266000 2.71046000 -4.40339000
9.32616000 3.81077000 -4.28808000
9.32693000 3.77272000 -4.27161000
9.30517000 3.79585000 -4.28850000
9.28149000 3.78220000 -4.28903000
9.25553000 3.77051000 -4.28990000
9.26345000 3.74841000 -4.27800000
9.27030000 3.72289000 -4.26460000
9.27541000 3.69277000 -4.24945000
9.34406000 3.73757000 -4.24543000
9.10237000 -4.05101000 -3.40109000
9.11587000 -4.02796000 -3.28229000
9.10120000 -4.05637000 -3.36085000
9.10021000 -4.06104000 -3.31890000
9.11385000 -4.02085000 -1.54672000
9.11414000 -4.01961000 -1.48294000
9.11442000 -4.01804000 -1.41920000
8.49495000 -4.12091000 1.61184000
8.65491000 -4.05899000 1.58920000
8.37156000 -4.08088000 1.36918000
9.06332000 -3.25597000 2.48226000
9.06547000 -3.30583000 2.46276000
9.06734000 -3.35464000 2.44342000
9.06896000 -3.40237000 2.42426000
9.06568000 -3.40545000 2.42948000
9.06190000 -3.40854000 2.43421000
9.05760000 -3.41163000 2.43845000
9.05475000 -3.80834000 2.26191000
9.04621000 -3.79453000 2.28520000
9.04147000 -3.83048000 2.26957000
9.03578000 -3.86513000 2.25491000
-0.60575500 2.52076000 -3.85600000
-0.63541000 2.52866000 -3.85630000
-0.64597400 2.50372000 -3.84369000
-0.66379000 2.53775000 -3.85675000
-0.68983400 2.54736000 -3.85736000
-0.71248400 2.55686000 -3.85816000
-0.76122800 2.55083000 -3.84710000
-0.78175300 2.48401000 -3.84345000
-0.75853000 2.44221000 -3.85305000
-0.72855400 2.42951000 -3.85147000
-0.68169100 2.44428000 -3.83971000
-0.69564800 2.41816000 -3.85009000
-0.65949000 2.40839000 -3.84909000
-0.60278100 2.42672000 -3.83898000
-0.61976000 2.40049000 -3.84865000
-0.66040300 2.89231000 -3.86713000
-0.64352000 2.89527000 -3.86674000
-0.66572700 2.92405000 -3.85360000
-0.62540700 2.89662000 -3.86630000
-0.60662500 2.89634000 -3.86577000
-0.58906100 2.92581000 -3.85189000
-0.58773600 2.89439000 -3.86514000
-0.61596800 3.00819000 -3.85739000
-0.53298000 2.99765000 -3.85406000
-0.56591600 3.04353000 -3.87700000
-0.59725400 3.04664000 -3.87874000
-0.62946100 3.04699000 -3.88048000
-0.67468100 3.00313000 -3.85938000
-0.66160000 3.04429000 -3.88206000
-0.69273500 3.03823000 -3.88330000
-0.41130100 2.60230000 -3.85567000
-0.42502400 2.58054000 -3.85560000
-0.41171700 2.55553000 -3.84487000
-0.44334400 2.55817000 -3.85557000
-0.46542300 2.53795000 -3.85557000
-0.46484400 2.50776000 -3.84457000
-0.49042900 2.52264000 -3.85559000
-0.43768200 2.44823000 -3.84176000
-0.43799600 2.41605000 -3.85180000
-0.39409100 2.44270000 -3.85274000
-0.36143100 2.51252000 -3.84302000
-0.35412000 2.47730000 -3.85350000
-0.31993000 2.51579000 -3.85409000
-0.31279800 2.58330000 -3.84369000
-0.29336600 2.55415000 -3.85452000
-0.73097700 2.56579000 -3.85918000
-0.74586500 2.57465000 -3.86032000
-0.75799600 2.58417000 -3.86147000
-0.76821600 2.59504000 -3.86254000
-0.79532900 2.58414000 -3.84960000
-0.83327100 2.52501000 -3.84682000
-0.85514000 2.51160000 -3.86004000
-0.83391100 2.49010000 -3.85813000
-0.81092200 2.47186000 -3.85635000
-0.78588900 2.45613000 -3.85467000
-0.79474600 2.65671000 -3.86535000
-0.79656800 2.67569000 -3.86586000
-0.82767500 2.67713000 -3.85298000
-0.79648900 2.69497000 -3.86635000
-0.79487400 2.71357000 -3.86679000
-0.79208900 2.73050000 -3.86721000
-0.81842800 2.75866000 -3.85428000
-0.89879100 2.72027000 -3.85534000
-0.92202700 2.76007000 -3.87230000
-0.92468900 2.73080000 -3.87144000
-0.92526500 2.69833000 -3.87050000
-0.92291600 2.66416000 -3.86938000
-0.88888000 2.62628000 -3.85263000
-0.91680200 2.62980000 -3.86796000
-0.78846800 2.74506000 -3.86759000
-0.78420700 2.75769000 -3.86792000
-0.77946700 2.76908000 -3.86821000
-0.77441400 2.77997000 -3.86845000
-0.79356200 2.81545000 -3.85540000
-0.88254700 2.80520000 -3.85739000
-0.90004400 2.84240000 -3.87612000
-0.90686300 2.82515000 -3.87502000
-0.91290500 2.80638000 -3.87405000
-0.91801100 2.78505000 -3.87315000
-0.76915300 2.79093000 -3.86863000
-0.76352800 2.80202000 -3.86875000
-0.75732600 2.81320000 -3.86881000
-0.75033500 2.82440000 -3.86883000
-0.76461200 2.86068000 -3.85562000
-0.85598000 2.86164000 -3.85968000
-0.86296900 2.91009000 -3.88111000
-0.87431700 2.89257000 -3.87992000
-0.88406000 2.87569000 -3.87864000
-0.89252700 2.85908000 -3.87734000
-0.74238400 2.83553000 -3.86879000
-0.73349100 2.84637000 -3.86871000
-0.72371800 2.85667000 -3.86857000
-0.71312600 2.86616000 -3.86838000
-0.72170900 2.90019000 -3.85484000
-0.81382400 2.92207000 -3.86141000
-0.79675500 2.98414000 -3.88414000
-0.81676800 2.96606000 -3.88366000
-0.83436800 2.94732000 -3.88300000
-0.84971500 2.92848000 -3.88214000
-0.70172800 2.87460000 -3.86813000
-0.68931300 2.88186000 -3.86783000
-0.67562400 2.88781000 -3.86750000
-0.72563900 2.98729000 -3.86072000
-0.72204900 3.02866000 -3.88407000
-0.74926200 3.01605000 -3.88442000
-0.76966100 2.96179000 -3.86143000
-0.77421600 3.00100000 -3.88442000
-0.48321700 2.84666000 -3.86033000
-0.47515700 2.83894000 -3.86001000
-0.47088700 2.87670000 -3.84754000
-0.46713500 2.83065000 -3.85970000
-0.41785100 2.81925000 -3.84634000
-0.45923600 2.82169000 -3.85939000
-0.45154500 2.81195000 -3.85907000
-0.36466800 2.87908000 -3.84575000
-0.34009600 2.90670000 -3.86002000
-0.35318100 2.92304000 -3.86124000
-0.40602200 2.92529000 -3.84793000
-0.36650800 2.93805000 -3.86257000
-0.38014100 2.95198000 -3.86397000
-0.39414100 2.96506000 -3.86540000
-0.52172600 2.87390000 -3.86207000
-0.50996500 2.86746000 -3.86149000
-0.52024200 2.90743000 -3.84923000
-0.50004700 2.86083000 -3.86104000
-0.49134100 2.85393000 -3.86066000
-0.45401400 2.96332000 -3.85036000
-0.40866000 2.97751000 -3.86683000
-0.42424500 2.98936000 -3.86826000
-0.44153200 3.00062000 -3.86968000
-0.46115800 3.01133000 -3.87109000
-0.56929100 2.89082000 -3.86439000
-0.55180500 2.88594000 -3.86358000
-0.53578200 2.88017000 -3.86278000
-0.48361400 3.02140000 -3.87248000
-0.50875400 3.03044000 -3.87390000
-0.53628600 3.03798000 -3.87539000
-0.51756700 2.51432000 -3.85562000
-0.52898000 2.48689000 -3.84400000
-0.54621800 2.51220000 -3.85568000
-0.57580600 2.51483000 -3.85580000
-0.57642000 2.39504000 -3.84890000
-0.51668500 2.42336000 -3.84016000
-0.53068300 2.39418000 -3.84966000
-0.48404300 2.40036000 -3.85071000
-0.42453600 2.76575000 -3.85787000
-0.41912000 2.75310000 -3.85763000
-0.38393100 2.74579000 -3.84575000
-0.41430600 2.74030000 -3.85742000
-0.41007700 2.72750000 -3.85723000
-0.40641200 2.71486000 -3.85705000
-0.29898300 2.73066000 -3.84388000
-0.26803400 2.75237000 -3.85503000
-0.27267100 2.77140000 -3.85522000
-0.32239500 2.80652000 -3.84433000
-0.27833500 2.79079000 -3.85552000
-0.28525300 2.81047000 -3.85595000
-0.29365000 2.83035000 -3.85650000
-0.44414600 2.80136000 -3.85875000
-0.43712400 2.79003000 -3.85844000
-0.43056000 2.77811000 -3.85814000
-0.30365700 2.85030000 -3.85718000
-0.31498700 2.86996000 -3.85799000
-0.32726100 2.88890000 -3.85894000
-0.40329800 2.70246000 -3.85689000
-0.36673400 2.66313000 -3.84555000
-0.40075400 2.69017000 -3.85672000
-0.39880400 2.67779000 -3.85655000
-0.39747500 2.66514000 -3.85637000
-0.29318800 2.64771000 -3.84392000
-0.25935000 2.67243000 -3.85502000
-0.25975800 2.69447000 -3.85498000
-0.26144800 2.71462000 -3.85495000
-0.26426000 2.73366000 -3.85495000
-0.39697300 2.65194000 -3.85617000
-0.39831300 2.63755000 -3.85598000
-0.40269000 2.62124000 -3.85581000
-0.37839200 2.60790000 -3.84510000
-0.27567200 2.58903000 -3.85480000
-0.26544300 2.62012000 -3.85496000
-0.26067200 2.64780000 -3.85502000
-0.77719400 2.60784000 -3.86343000
-0.78481000 2.62252000 -3.86417000
-0.81530400 2.62111000 -3.85134000
-0.79076100 2.63888000 -3.86480000
-0.90633800 2.59662000 -3.86621000
-0.86560000 2.57011000 -3.84976000
-0.89205200 2.56542000 -3.86421000
-0.87472500 2.53686000 -3.86210000
-0.38923800 3.10861000 -4.18938000
-0.42847900 3.10259000 -4.06468000
-0.37092300 3.04335000 -4.00002000
-0.74945800 3.11475000 -4.17186000
-0.79272600 3.07538000 -4.15186000
-0.81137700 3.03514000 -4.01272000
-0.42544300 2.39844000 -3.87040000
-0.43799600 2.41605000 -3.85180000
-0.48404300 2.40036000 -3.85071000
-0.47329300 2.38189000 -3.86914000
-0.53068300 2.39418000 -3.84966000
-0.52155100 2.37482000 -3.86796000
-0.57642000 2.39504000 -3.84890000
-0.56848700 2.37480000 -3.86712000
-0.61976000 2.40049000 -3.84865000
-0.27401000 2.54031000 -3.87365000
-0.29336600 2.55415000 -3.85452000
-0.31993000 2.51579000 -3.85409000
-0.30217900 2.50077000 -3.87312000
-0.35412000 2.47730000 -3.85350000
-0.33804300 2.46132000 -3.87240000
-0.39409100 2.44270000 -3.85274000
-0.37974800 2.42589000 -3.87150000
-0.23567500 2.64925000 -3.87417000
-0.25935000 2.67243000 -3.85502000
-0.26067200 2.64780000 -3.85502000
-0.26544300 2.62012000 -3.85496000
-0.24760300 2.59349000 -3.87397000
-0.27567200 2.58903000 -3.85480000
-0.23524700 2.72026000 -3.87424000
-0.26803400 2.75237000 -3.85503000
-0.26426000 2.73366000 -3.85495000
-0.26144800 2.71462000 -3.85495000
-0.25975800 2.69447000 -3.85498000
-0.26209600 2.83005000 -3.87719000
-0.29365000 2.83035000 -3.85650000
-0.28525300 2.81047000 -3.85595000
-0.27833500 2.79079000 -3.85552000
-0.24773600 2.78645000 -3.87547000
-0.27267100 2.77140000 -3.85522000
-0.31026000 2.91398000 -3.88318000
-0.34009600 2.90670000 -3.86002000
-0.32726100 2.88890000 -3.85894000
-0.31498700 2.86996000 -3.85799000
-0.28350700 2.87327000 -3.87984000
-0.30365700 2.85030000 -3.85718000
-0.34980600 2.96342000 -3.88982000
-0.39414100 2.96506000 -3.86540000
-0.38014100 2.95198000 -3.86397000
-0.36650800 2.93805000 -3.86257000
-0.35318100 2.92304000 -3.86124000
-0.43903300 3.03623000 -3.90337000
-0.46115800 3.01133000 -3.87109000
-0.44153200 3.00062000 -3.86968000
-0.42424500 2.98936000 -3.86826000
-0.40258000 3.01164000 -3.89857000
-0.40866000 2.97751000 -3.86683000
-0.53903800 3.07304000 -3.91179000
-0.56591600 3.04353000 -3.87700000
-0.53628600 3.03798000 -3.87539000
-0.50875400 3.03044000 -3.87390000
-0.48573300 3.05785000 -3.90751000
-0.48361400 3.02140000 -3.87248000
-0.67420200 3.07500000 -3.92127000
-0.69273500 3.03823000 -3.88330000
-0.66160000 3.04429000 -3.88206000
-0.62946100 3.04699000 -3.88048000
-0.60478800 3.08011000 -3.91653000
-0.59725400 3.04664000 -3.87874000
-0.81575500 2.99954000 -3.91989000
-0.79675500 2.98414000 -3.88414000
-0.77421600 3.00100000 -3.88442000
-0.76730500 3.03712000 -3.92201000
-0.74926200 3.01605000 -3.88442000
-0.72204900 3.02866000 -3.88407000
-0.72160300 3.06028000 -3.92255000
-0.89861600 2.89093000 -3.90930000
-0.86296900 2.91009000 -3.88111000
-0.84971500 2.92848000 -3.88214000
-0.85269900 2.95895000 -3.91679000
-0.83436800 2.94732000 -3.88300000
-0.81676800 2.96606000 -3.88366000
-0.92183800 2.83860000 -3.90340000
-0.90004400 2.84240000 -3.87612000
-0.89252700 2.85908000 -3.87734000
-0.88406000 2.87569000 -3.87864000
-0.87431700 2.89257000 -3.87992000
-0.94013100 2.74097000 -3.89766000
-0.92202700 2.76007000 -3.87230000
-0.91801100 2.78505000 -3.87315000
-0.93312600 2.79767000 -3.90039000
-0.91290500 2.80638000 -3.87405000
-0.90686300 2.82515000 -3.87502000
-0.92853600 2.61832000 -3.89235000
-0.91680200 2.62980000 -3.86796000
-0.92291600 2.66416000 -3.86938000
-0.93636900 2.65459000 -3.89425000
-0.92526500 2.69833000 -3.87050000
-0.94004500 2.69079000 -3.89578000
-0.92468900 2.73080000 -3.87144000
-0.85633900 2.49329000 -3.88174000
-0.85514000 2.51160000 -3.86004000
-0.87472500 2.53686000 -3.86210000
-0.87894300 2.52011000 -3.88450000
-0.89205200 2.56542000 -3.86421000
-0.89909100 2.55034000 -3.88731000
-0.90633800 2.59662000 -3.86621000
-0.91591300 2.58330000 -3.88999000
-0.73356100 2.41209000 -3.87128000
-0.75853000 2.44221000 -3.85305000
-0.78588900 2.45613000 -3.85467000
-0.79390900 2.44254000 -3.87565000
-0.81092200 2.47186000 -3.85635000
-0.83391100 2.49010000 -3.85813000
-0.83202400 2.47035000 -3.87920000
-0.61237100 2.37941000 -3.86689000
-0.65949000 2.40839000 -3.84909000
-0.66955000 2.39033000 -3.86805000
-0.69564800 2.41816000 -3.85009000
-0.72855400 2.42951000 -3.85147000
8.47512000 -4.39943000 1.54104000
8.50713000 -4.40831000 1.63435000
8.43448000 -4.41103000 1.69628000
8.89531000 -4.46009000 2.16261000
8.88679000 -4.46415000 2.18845000
8.82641000 -4.45813000 2.17415000
-5.22657000 1.59283000 4.24934000
-5.56645000 1.67307000 4.38503000
-5.87886000 1.57641000 4.26788000
-5.20109000 -0.53386200 3.45514000
-5.87765000 0.02309590 3.69878000
-5.79048000 -0.74800600 3.41826000
9.17410000 -4.03857000 0.45345300
9.10646000 -4.07342000 0.36439700
9.18752000 -4.06326000 0.28048700
6.67937000 -3.27401000 2.78426000
6.43546000 -3.01067000 2.81242000
6.07904000 -3.09712000 2.76601000
7.34702000 -0.56007200 3.63600000
7.48626000 -0.28479100 3.74049000
6.96169000 -0.35496900 3.65336000
5.26903000 -2.31056000 2.60806000
5.56269000 -1.79248000 2.77464000
6.02195000 -2.37246000 2.66938000
2.55268000 -2.13562000 2.53165000
2.96691000 -2.50805000 2.43484000
2.50790000 -2.72548000 2.38838000
-3.92232000 -4.35249000 1.14226000
-3.14439000 -4.34167000 1.18591000
-3.47034000 -4.35874000 1.31480000
-8.05313000 -3.95588000 -4.11709000
-7.61712000 -3.36621000 -4.13756000
-8.08003000 -3.47924000 -4.11315000
-9.53569000 2.72469000 1.79262000
-9.55175000 2.83052000 1.31824000
-9.58935000 2.73764000 1.98564000
-7.56976000 -1.37554000 -4.20822000
-8.08992000 -0.49704600 -4.21440000
-8.38318000 -1.24929000 -4.18427000
-7.61762000 -2.34535000 -4.16130000
-8.36865000 -2.39267000 -4.13251000
-8.57534000 -3.03348000 -4.09689000
-2.95109000 -4.07200000 -2.48078000
-2.01418000 -4.09386000 -2.89357000
