2.52400000 -27.83570000 1.12720000
1.50690000 17.18420000 2.37080000
1.28310000 17.58820000 2.18600000
1.16450000 17.28230000 2.23980000
0.93070000 17.07360000 2.23230000
0.83270000 17.57290000 2.06870000
-2.40430000 -23.94660000 2.07900000
-2.26410000 -24.42000000 1.94490000
-2.10210000 -24.07750000 2.05620000
-1.92760000 -24.31200000 2.00210000
2.06020000 -23.02660000 2.63000000
2.30820000 -23.14220000 2.60600000
2.00350000 -23.26260000 2.57020000
2.18770000 -23.51570000 2.50550000
0.60300000 0.48840000 5.22100000
1.22500000 0.11290000 5.25980000
0.70130000 0.11120000 5.27810000
0.81300000 -27.84970000 3.34080000
-2.94520000 -27.14310000 1.58950000
1.88670000 -0.29910000 7.31420000
-2.08430000 -0.51190000 6.90440000
-2.02490000 -0.14350000 6.88290000
2.32470000 -8.12290000 7.37340000
1.75960000 -7.05090000 7.55460000
-1.47590000 9.85190000 5.30580000
2.04570000 -13.86270000 1.05980000
2.09140000 -14.27150000 1.02110000
1.82220000 -14.17450000 0.88370000
-2.78630000 -2.43780000 6.29280000
-2.71560000 -2.98190000 6.45020000
-2.81210000 -1.76000000 6.07110000
-2.82540000 -2.23700000 6.08850000
0.55280000 -25.08370000 2.17410000
0.31320000 -24.70670000 2.26730000
-0.28790000 -24.90400000 2.15590000
-0.06260000 -24.52600000 2.28510000
0.82860000 10.41260000 5.68110000
2.05130000 8.51590000 4.48080000
-0.51410000 -23.84980000 4.49330000
0.00560000 -24.33330000 4.40030000
3.29300000 -25.85570000 3.02440000
3.36120000 -25.65840000 2.94950000
0.78380000 18.08050000 1.89910000
2.68050000 -26.43560000 3.35660000
-2.12000000 3.64510000 5.76040000
2.93890000 -6.63120000 6.38530000
3.00160000 -6.63900000 6.70550000
-1.91170000 -17.80020000 5.92060000
-1.82080000 -18.24560000 5.82690000
-1.67640000 -18.77150000 5.72720000
-2.16630000 -21.63550000 4.71190000
-1.72670000 -22.02070000 4.77570000
-1.73320000 -21.36410000 4.97950000
-1.20240000 -21.86980000 4.96380000
-1.39160000 -21.13560000 5.14710000
-1.44960000 -29.76500000 0.82800000
-1.24300000 -29.84480000 0.81900000
-1.03610000 -29.76330000 0.70570000
-1.37930000 -29.55860000 0.76070000
-1.12060000 -29.56210000 0.71950000
-3.21250000 -7.52730000 5.38250000
-3.24980000 -7.96780000 5.34130000
-0.25990000 -17.73110000 4.32770000
-0.67950000 -17.56260000 4.31910000
-0.77260000 -17.94370000 4.21950000
-0.85950000 -17.47120000 4.31470000
-1.07470000 -17.58270000 4.23410000
-1.87780000 9.62180000 4.39500000
-1.80910000 10.20570000 4.74750000
-1.86850000 9.88290000 4.61910000
-1.85440000 9.64920000 4.77330000
-2.91650000 -25.87300000 1.34090000
-2.84050000 -14.18430000 4.29460000
-3.36770000 -14.25860000 4.30780000
0.15960000 6.47190000 4.09840000
0.06630000 7.08440000 3.97880000
-0.18280000 6.86260000 3.99680000
-3.37220000 -8.59070000 5.47940000
-3.40110000 -8.83130000 5.75040000
0.05020000 12.94680000 5.42640000
-0.07110000 12.46150000 5.48260000
0.28540000 12.72320000 5.46330000
0.27050000 12.03950000 5.56350000
-0.61240000 -8.03670000 5.51160000
-0.59220000 -7.80730000 5.37290000
-0.51640000 -7.34710000 5.34800000
-0.64990000 18.13710000 1.63050000
-0.26590000 18.15510000 1.67010000
-0.39590000 17.67310000 1.79210000
0.08260000 18.21280000 1.70990000
0.01190000 17.79320000 1.82470000
-0.75870000 17.73390000 1.73340000
-0.62210000 17.29810000 1.86980000
-0.08100000 17.29480000 1.95080000
-0.36540000 17.31880000 1.89550000
-1.56460000 -8.27220000 5.32810000
-2.04750000 -8.24330000 5.18270000
-1.74070000 -8.54130000 5.28270000
-1.67530000 -8.92680000 5.28940000
-2.09890000 -8.91350000 5.14110000
-2.38530000 -8.22990000 5.10010000
-2.42690000 -7.88170000 5.12300000
-2.40400000 -8.57610000 5.07690000
1.46000000 -15.29710000 2.66240000
1.35210000 -15.39520000 3.16790000
1.65410000 -15.32150000 2.02170000
-2.57860000 -21.68890000 2.66980000
-2.20450000 -21.54930000 2.72710000
-2.77790000 -21.90970000 2.55530000
-2.55490000 -21.91100000 2.59910000
-0.94980000 -11.02980000 7.05810000
-1.20950000 -6.36560000 5.50760000
-1.14030000 -6.86990000 5.40780000
-0.84790000 -6.49210000 5.57070000
-0.69300000 -6.82570000 5.43130000
-0.50710000 -6.15640000 5.63330000
1.30230000 9.68540000 5.42970000
1.05630000 9.36710000 5.75620000
1.51280000 9.36820000 5.22530000
0.36560000 -9.48340000 7.35890000
3.51340000 -12.57310000 5.43350000
3.53440000 -12.96230000 5.61430000
-3.53720000 -17.21710000 4.90230000
-3.59740000 -17.54000000 4.71320000
-3.40720000 -17.54470000 5.00240000
-3.70280000 -17.13510000 4.63070000
-3.75560000 -17.48010000 4.41330000
1.53810000 -12.63730000 2.30620000
1.81210000 -13.25820000 2.37730000
1.93340000 -13.06310000 1.80560000
-2.39640000 1.98020000 5.35500000
-2.31970000 2.12500000 5.68650000
1.81050000 16.66860000 2.62650000
1.48050000 16.78020000 2.46330000
0.30640000 -18.45910000 5.94710000
0.52070000 -17.50660000 6.15380000
-0.05220000 -17.86920000 6.09050000
2.54210000 -7.49630000 5.62770000
2.42110000 -7.80050000 5.55320000
3.19310000 -11.84890000 5.09600000
2.85600000 -11.71750000 5.06750000
2.94150000 -12.17210000 5.01790000
3.23080000 -12.46210000 5.02540000
2.75850000 -6.33750000 5.83580000
2.83210000 -6.23150000 6.06860000
1.81410000 -13.71640000 6.85150000
1.82880000 -12.95510000 6.96970000
1.74670000 -11.09490000 7.16660000
1.80180000 -11.82860000 7.10670000
2.52540000 -2.30260000 5.68110000
2.55120000 -2.75890000 5.71340000
2.26750000 -2.39870000 5.56920000
2.20470000 -2.92270000 5.57960000
3.46600000 -24.18300000 3.63940000
3.46720000 -24.45400000 3.32300000
-1.48040000 10.88750000 3.31390000
-1.49160000 10.61530000 3.33130000
-1.63160000 10.44020000 3.46850000
-1.43490000 10.23060000 3.42580000
-1.67330000 10.00560000 3.67780000
-0.23060000 6.25100000 4.08710000
-0.41440000 6.51940000 4.01860000
-0.75670000 6.85940000 3.88270000
-1.13410000 7.84890000 5.92700000
-1.28070000 7.15210000 5.91680000
-1.58690000 7.19870000 5.57940000
2.17020000 -8.66030000 5.45260000
2.01840000 -8.24210000 5.45070000
1.88380000 -8.94030000 5.46710000
2.49410000 -0.43150000 6.81530000
2.91080000 -13.93590000 4.66540000
2.68700000 -14.03930000 4.63480000
3.15480000 -13.86080000 4.69140000
2.51290000 -14.12590000 4.57590000
2.93570000 -14.35960000 4.59210000
1.61890000 -28.86420000 0.87550000
-2.69460000 -1.03280000 5.72100000
-2.70680000 -0.61230000 5.49030000
-1.33520000 19.11800000 1.81150000
-1.37610000 18.57730000 1.95470000
-1.30310000 18.72380000 1.64760000
-1.34540000 18.30910000 1.84270000
-1.42180000 18.35260000 2.24900000
-1.42730000 18.01580000 2.19360000
-1.39100000 18.10920000 2.04180000
2.32050000 -27.49340000 1.00140000
1.89790000 7.12380000 4.34850000
1.61160000 7.55570000 4.12380000
1.94090000 8.11220000 4.14920000
-1.00330000 19.57250000 3.40000000
-0.89970000 19.09630000 3.74810000
-2.03020000 -1.93620000 5.17380000
-2.13980000 -1.51300000 5.09670000
-2.34940000 -1.77060000 5.12860000
-2.35410000 -2.21220000 5.16840000
-2.92080000 -8.88530000 5.07170000
-2.90540000 -9.27380000 5.02650000
-2.73140000 -9.05770000 5.00310000
0.11360000 -16.91250000 6.27330000
0.19910000 -16.01490000 6.43610000
-0.50190000 -15.79190000 6.46270000
0.39200000 10.81000000 3.32000000
0.19550000 10.53020000 3.34170000
0.93600000 10.08170000 3.53690000
-3.57920000 -14.63400000 4.34560000
-3.60080000 -15.00480000 4.29060000
-3.71430000 -14.91280000 4.48270000
-3.69750000 -15.31180000 4.33150000
-1.14450000 2.09110000 7.05500000
-1.03270000 2.83110000 6.99430000
-1.44350000 1.72170000 6.94070000
-0.29400000 -29.37330000 0.87350000
-0.31880000 -29.14770000 0.86430000
-0.42650000 -29.43010000 0.83800000
-2.00570000 -15.85050000 6.31070000
-1.51410000 -15.55190000 6.42430000
0.20090000 -30.10970000 1.45260000
0.19950000 -30.04900000 1.17570000
0.80310000 -30.12500000 1.26140000
0.63670000 -29.98870000 0.97360000
1.07770000 -13.89000000 0.69380000
0.82790000 -14.03700000 0.64700000
1.00920000 -14.23250000 0.65810000
0.59760000 1.43920000 7.48640000
0.28860000 1.19980000 7.53710000
-0.06670000 -6.31770000 5.62530000
0.10260000 -5.96460000 5.70870000
0.37600000 -6.25650000 5.66410000
0.41480000 -5.69060000 5.73520000
0.73950000 -5.39330000 5.75110000
0.99190000 -6.85640000 5.55570000
0.70110000 -6.62310000 5.61520000
-2.24650000 1.89980000 6.06620000
1.24020000 5.71210000 4.33830000
-1.50520000 -15.58330000 4.40590000
-1.87450000 -15.27440000 4.32410000
-1.56260000 -15.22110000 4.30920000
-0.93720000 -24.47490000 2.20260000
-0.62670000 -24.23650000 2.31730000
-0.44530000 -24.51880000 2.25350000
-0.43640000 -23.95840000 2.40240000
-0.11810000 -24.23820000 2.38070000
0.16980000 -23.88490000 2.49640000
-2.86420000 -22.70980000 2.32640000
-3.19610000 -22.94290000 2.20960000
-3.25380000 -22.48850000 2.31080000
-2.91100000 -23.15870000 2.19830000
-3.13850000 -23.31550000 2.09940000
-3.41700000 -23.19820000 2.12380000
-3.51740000 -22.80310000 2.26300000
1.82730000 -19.63640000 5.58890000
0.60890000 -19.38330000 5.72110000
-0.28570000 -28.33110000 0.95840000
-0.53090000 -28.51430000 0.97650000
-0.10010000 -28.06410000 1.03030000
-0.13290000 -28.21660000 0.98760000
-0.04160000 -28.41480000 0.99180000
-0.26430000 -28.72210000 0.93090000
-0.72340000 -28.69410000 0.95480000
-2.65980000 -26.55130000 1.17890000
-2.47720000 -26.91580000 1.13620000
1.61970000 -4.36970000 7.60090000
1.24670000 -4.17140000 7.63800000
0.21460000 11.42340000 5.67490000
-1.18050000 18.72500000 1.49500000
-1.07580000 19.03870000 1.35350000
-0.99410000 18.52030000 1.51070000
-0.93120000 18.08190000 1.63500000
-1.15190000 18.06200000 1.69820000
-2.39820000 -4.88760000 5.28970000
-2.57940000 -4.71640000 5.29240000
-2.18630000 -4.73240000 5.33380000
-1.61460000 2.39940000 4.61060000
-1.86760000 2.67060000 4.57200000
-2.00340000 2.16780000 4.66470000
-2.90850000 -17.15090000 3.72280000
-2.65060000 -17.03080000 3.82690000
-2.65700000 -17.50390000 3.74290000
-2.89550000 -17.88610000 3.60630000
2.06070000 -19.14110000 5.69630000
2.26720000 -19.57950000 5.55560000
-1.11670000 -13.10870000 3.34370000
-0.95030000 -12.99760000 3.05000000
-1.18940000 -13.26580000 3.12100000
-1.25600000 -13.21080000 3.44570000
-1.01270000 -13.28540000 2.70570000
-1.30790000 -13.55220000 3.14040000
-0.99260000 -18.24100000 4.11540000
-1.43160000 -18.08810000 4.03380000
-1.11940000 -18.60790000 3.99530000
-0.47180000 -6.61130000 5.53180000
0.25470000 -6.77880000 5.53590000
-3.49840000 -25.22580000 2.02030000
-3.35560000 -25.21750000 2.27720000
-1.19640000 -19.34180000 3.74430000
-1.73390000 -19.45770000 3.54470000
-1.61870000 -19.14930000 3.72290000
-1.38300000 -19.67180000 3.49840000
-1.86670000 -19.74230000 3.33250000
2.47870000 -3.13160000 5.69480000
2.32260000 -3.42360000 5.61040000
1.91510000 -3.64500000 5.61940000
2.10430000 -3.96500000 5.63540000
3.34240000 -24.54300000 2.23500000
3.26260000 -24.75670000 2.12250000
3.33300000 -24.74550000 2.33790000
3.27550000 -25.10810000 2.15920000
3.09250000 -25.11510000 2.00820000
3.31330000 -25.09850000 2.34080000
-0.26080000 -27.06390000 3.54250000
0.24390000 -27.34960000 3.50350000
0.28740000 -26.45890000 3.77500000
-0.18570000 -27.63670000 3.37390000
0.68270000 -27.05790000 3.60800000
-2.87890000 -20.84470000 4.55900000
-2.63010000 -21.49560000 4.48590000
-1.38930000 9.87380000 3.47820000
-1.82820000 10.26540000 3.92650000
-1.82800000 9.75790000 3.86770000
-1.88220000 -4.61610000 7.18520000
-2.03280000 -4.08190000 7.08880000
-1.64490000 -25.06320000 3.79320000
-1.93970000 -24.42590000 3.87620000
-2.43710000 -24.67240000 3.48950000
0.63530000 7.71170000 3.91480000
1.11630000 7.42730000 4.02940000
-3.64680000 -17.32950000 3.82170000
-3.35890000 -16.79310000 3.78920000
-3.65510000 -17.91090000 3.64640000
2.69250000 -27.35640000 1.43830000
2.73740000 -27.12730000 1.52050000
2.84800000 -27.27530000 1.68370000
2.79750000 -26.93300000 1.57880000
2.88590000 -27.09210000 1.74950000
2.85080000 -27.60560000 1.59690000
-2.93530000 -20.67520000 2.84740000
-3.15570000 -20.53730000 2.87100000
1.99690000 -4.16290000 7.53280000
2.31690000 -3.53270000 7.42490000
1.86470000 -3.64120000 7.55860000
-1.97700000 -28.25240000 0.67210000
-2.15410000 -28.56240000 0.74360000
-0.86770000 -5.48690000 7.55640000
-1.02470000 -4.92560000 7.53130000
-1.41040000 -13.37020000 3.62260000
-1.63530000 -13.58800000 3.75010000
-1.49040000 -13.75690000 3.34720000
-3.20410000 -6.40210000 5.81440000
-1.48010000 -23.12820000 2.50930000
-1.52810000 -22.79610000 2.52730000
2.68540000 -12.33390000 4.98960000
-1.16930000 12.17940000 2.96100000
-1.29930000 11.91530000 3.04410000
-1.44700000 12.16800000 3.05160000
-1.48100000 11.54590000 3.22840000
-1.60170000 12.52270000 3.11630000
-0.89690000 -2.60840000 5.51500000
-0.73390000 -2.85920000 5.55760000
-0.28160000 -2.78660000 5.61850000
-0.45450000 -3.30850000 5.62890000
1.73780000 9.49660000 4.86660000
0.42400000 8.18220000 3.81280000
0.23580000 8.44790000 3.74590000
0.40170000 7.89000000 3.85880000
0.18000000 8.83660000 3.66540000
0.00000000 8.07990000 3.78500000
-3.69920000 -14.58360000 5.12110000
-3.66000000 -14.96300000 5.15570000
0.40710000 -14.33110000 0.57750000
0.52500000 -14.06230000 0.59440000
0.43460000 -13.65540000 0.67160000
0.34210000 17.45760000 1.98860000
0.61280000 17.15230000 2.13380000
0.27100000 16.96500000 2.10910000
2.48940000 -11.03200000 7.06840000
2.16780000 -10.11740000 7.21220000
-2.12050000 1.52120000 6.36600000
1.01950000 17.38200000 4.52950000
0.58070000 17.42470000 4.58930000
-1.41760000 -24.90330000 1.95840000
-1.05890000 -25.19490000 1.94120000
-1.14990000 -24.80100000 2.06100000
-1.31040000 -24.74830000 2.04140000
-1.34340000 -24.53700000 2.10290000
-0.77210000 -24.86750000 2.10420000
2.54630000 -22.86600000 2.70170000
3.00970000 -22.58050000 2.80330000
-2.25360000 2.96410000 4.76200000
-2.21040000 2.59630000 4.68140000
-2.46250000 1.14820000 5.13540000
-2.47140000 1.08520000 5.36210000
-2.91570000 -4.48730000 6.32560000
-3.01670000 -3.87490000 6.00450000
-3.06580000 -4.47640000 6.00170000
-2.95940000 -3.75640000 6.18840000
-3.03390000 -4.06710000 5.75140000
-0.86370000 -0.14670000 5.16280000
-1.21780000 -0.63040000 5.17430000
-1.33120000 -0.17130000 5.07390000
0.13950000 -12.97640000 0.77330000
0.72640000 -12.95230000 0.89860000
0.03170000 -12.77880000 0.81290000
0.33460000 -12.73460000 0.88860000
0.63040000 -12.68370000 0.95540000
0.55930000 -12.51830000 0.97400000
0.20480000 -12.34590000 0.99330000
0.09760000 -12.51400000 0.88880000
-0.30390000 -12.55350000 0.84660000
-3.75550000 -15.49460000 4.41910000
-3.62880000 -15.67960000 4.15370000
-0.84320000 -15.06790000 0.69860000
-0.59330000 -15.51540000 0.67130000
-0.67510000 -15.44520000 0.77720000
2.51020000 -5.47390000 7.43570000
2.29390000 -5.19370000 7.49290000
1.88940000 -5.19230000 7.57820000
0.57600000 3.34800000 4.71370000
0.31750000 3.05960000 4.74760000
0.80810000 3.56830000 4.69460000
0.59950000 3.02330000 4.77550000
0.91310000 3.26140000 4.75560000
0.78630000 2.85460000 4.81900000
0.89480000 -7.08270000 7.58570000
2.40380000 -26.13630000 3.60940000
2.74970000 -25.98040000 3.49210000
-3.01010000 -24.34930000 3.18660000
-2.72750000 -24.37700000 3.41650000
1.21070000 12.76870000 3.14090000
0.78920000 12.62100000 3.08680000
1.50180000 13.20960000 3.13640000
1.47380000 12.79030000 3.18600000
1.43230000 12.52030000 3.23220000
2.83940000 -27.96200000 1.50380000
-0.53770000 15.63530000 4.68570000
-2.66630000 -16.63040000 3.90110000
-3.01800000 -16.54690000 3.79070000
-2.95340000 -16.82740000 3.76340000
3.13460000 -18.77930000 5.56620000
3.54900000 -18.75480000 5.43670000
1.92640000 8.56370000 4.04020000
1.91620000 8.32530000 4.07910000
-1.56840000 15.25490000 2.74820000
-1.65350000 14.76910000 2.96450000
-1.56610000 14.89360000 2.67130000
-1.67040000 14.25340000 3.03970000
-1.60280000 14.28700000 2.78980000
-3.76550000 -18.75570000 4.12220000
-3.79640000 -18.87780000 3.91280000
-3.76300000 -19.21780000 3.95930000
1.65650000 -18.36710000 4.15260000
1.32120000 -18.57510000 4.15450000
2.01410000 -18.12730000 4.10940000
1.65140000 -18.67620000 4.09420000
1.66410000 -8.25120000 5.43500000
1.70040000 -8.61910000 5.46850000
1.39730000 -7.97320000 5.28700000
1.48490000 -8.13490000 5.39530000
-0.33130000 -21.44940000 3.15550000
-0.29920000 -21.17540000 3.20590000
-0.81420000 -21.12700000 3.14840000
-1.25160000 -21.12970000 3.08890000
-0.88010000 -20.94240000 3.21300000
-0.16270000 -20.81350000 3.31580000
-0.73970000 -20.73660000 3.27140000
1.11550000 -24.08210000 4.51240000
1.53480000 -24.43890000 4.38280000
1.53500000 -23.69890000 4.60820000
2.00250000 -23.89830000 4.51350000
1.09480000 -23.54980000 4.66200000
1.97060000 -23.31200000 4.68890000
-0.92810000 -15.34380000 6.50550000
-0.92000000 -7.04910000 5.38990000
-0.67920000 -7.18550000 5.34810000
-0.21640000 -7.19090000 5.35020000
0.19330000 -7.13240000 5.40860000
0.04840000 -7.40010000 5.22360000
-0.28520000 -21.74700000 3.09130000
-3.04040000 -18.30500000 3.50030000
-2.60960000 -17.95810000 3.67170000
-2.65670000 -18.40100000 3.57580000
-1.30170000 12.77400000 2.89520000
-1.56500000 12.85200000 2.98070000
-1.27890000 12.44640000 2.94490000
-1.62690000 13.08100000 3.01850000
-1.66690000 12.65200000 3.17030000
-1.60630000 3.60380000 6.53420000
1.85250000 -25.33580000 1.93890000
-3.04910000 -27.11230000 1.26760000
-1.36200000 -2.29670000 7.28230000
-1.38570000 -1.79730000 7.26930000
1.31150000 10.03680000 3.62260000
-0.24700000 5.62440000 6.72960000
-0.63580000 4.89170000 6.79380000
-3.68670000 -19.89070000 3.13020000
-3.41370000 -19.88220000 3.04550000
1.24470000 -9.93030000 5.49340000
0.89410000 -9.63980000 5.57970000
-0.48660000 -12.70960000 1.49400000
-0.40910000 -12.57280000 1.29620000
-0.32910000 -12.40910000 1.09950000
-0.19830000 -12.24700000 1.56770000
-1.76250000 -26.12710000 3.36180000
-1.45120000 -25.65750000 3.67730000
-1.90850000 -25.58390000 3.46910000
2.48310000 -27.13940000 1.24400000
2.32870000 -27.15930000 1.14660000
2.21960000 -27.33380000 1.06590000
2.18660000 -27.11440000 1.21290000
2.30770000 -26.79000000 1.35320000
2.49950000 -26.85530000 1.34600000
2.26190000 -21.44920000 3.36710000
2.50380000 -21.60560000 3.30480000
-0.84790000 -12.96030000 1.28210000
3.49940000 -20.92410000 4.93150000
-2.02340000 -7.68540000 5.19270000
-2.28180000 -7.50260000 5.15950000
-2.12270000 -7.40640000 5.18800000
-1.91900000 -7.28600000 5.23870000
-2.45180000 -13.34490000 4.54280000
3.32410000 -21.84050000 3.03280000
2.71180000 -0.89810000 5.96960000
-1.00540000 12.80240000 2.83640000
-0.68160000 12.71190000 2.86470000
-3.59630000 -15.38770000 5.20130000
-3.67990000 -15.78650000 4.96920000
-3.51960000 -15.79090000 5.24010000
-3.74150000 -16.10910000 4.79990000
-3.55650000 -16.33450000 5.07550000
-3.73210000 -16.33860000 4.81490000
-0.89620000 -8.19570000 7.33180000
1.70470000 8.93220000 5.05140000
-2.13430000 4.88290000 5.16040000
-2.18520000 4.95410000 4.78190000
-1.38780000 -29.06790000 2.38780000
-1.64460000 -28.54900000 2.51010000
-1.66310000 -28.91970000 2.24540000
-1.97790000 -28.38490000 2.33920000
-2.02320000 -28.52830000 2.15400000
1.18120000 2.90200000 4.83400000
0.87820000 2.48760000 4.88890000
1.53170000 3.10470000 4.82850000
1.52420000 2.75250000 4.86550000
0.99560000 2.05510000 4.97170000
2.82680000 -25.73660000 1.85900000
2.72610000 -25.42000000 1.87870000
2.97830000 -25.48010000 1.92550000
2.91340000 -25.28600000 1.93580000
3.01440000 -25.73580000 1.92790000
2.55680000 -25.75400000 1.77450000
2.71680000 -26.01520000 1.76530000
2.30090000 -25.75330000 1.74910000
2.35220000 -26.10250000 1.64880000
2.42240000 -26.43730000 1.50620000
2.21150000 -26.41370000 1.51220000
2.62870000 -26.32670000 1.61750000
1.09340000 -14.48780000 0.67160000
1.50600000 -14.36860000 0.73840000
1.45080000 -14.63180000 0.73060000
1.25910000 -14.70310000 0.68000000
1.62710000 -14.56700000 0.73430000
-1.03200000 18.61810000 3.65430000
-1.10430000 19.06490000 3.34890000
1.19990000 3.87570000 4.67930000
1.10710000 4.21930000 4.60520000
1.41980000 4.06730000 4.67340000
1.29110000 4.38650000 4.59010000
3.34970000 -13.45920000 4.81890000
3.37160000 -13.15980000 4.89620000
3.22420000 -13.22140000 4.82090000
3.36680000 -12.83340000 4.97540000
-0.00920000 -25.13460000 4.16140000
0.74700000 -24.80610000 4.28710000
0.36540000 -25.60620000 4.03900000
-0.15550000 -25.83750000 3.93450000
0.95090000 -25.80260000 3.97840000
1.34820000 -25.14230000 4.17070000
-0.60420000 -25.96510000 3.84210000
0.60680000 2.20180000 4.92640000
-0.81440000 -15.16770000 2.24690000
-0.90290000 -15.06030000 2.08990000
-0.97350000 -14.92390000 2.02280000
-1.00510000 -14.45500000 2.17170000
-2.23770000 -17.52280000 3.88620000
-1.92370000 -17.44640000 4.01610000
-1.78750000 -17.37990000 4.07920000
-2.13120000 -17.25110000 3.97910000
-2.39650000 -17.24040000 3.88170000
1.92920000 3.49720000 4.85070000
1.83530000 2.95850000 4.87560000
1.38050000 3.50650000 4.75990000
-2.43660000 -12.65390000 4.71660000
-2.64820000 -12.86340000 4.60680000
-2.36470000 -0.60070000 4.96190000
-2.13760000 -0.33100000 4.92590000
-1.79470000 -0.26120000 4.94500000
-1.73440000 -0.47370000 4.97340000
-2.60280000 -28.42950000 1.39030000
-2.68270000 -28.41200000 1.04020000
-2.45920000 -28.68770000 1.38130000
-3.19010000 -25.57990000 2.28680000
1.61650000 -17.52430000 4.28750000
-3.06910000 -7.60140000 5.22990000
-2.81970000 -7.23620000 5.18660000
-1.12870000 19.46040000 1.28040000
-1.24900000 19.14570000 1.48810000
-0.29890000 -15.64970000 3.94100000
-0.21970000 -15.48700000 3.32680000
0.23890000 -22.58030000 2.89690000
0.48660000 -22.97020000 2.78420000
0.80460000 -22.60700000 2.89320000
0.24210000 -23.25770000 2.69240000
1.00570000 -8.05450000 7.48770000
0.35360000 -3.99710000 5.76400000
-0.04870000 -3.66200000 5.70570000
-0.04160000 -3.18340000 5.67840000
-0.39510000 -3.79630000 5.66300000
-0.69620000 -30.08240000 1.03360000
-0.22750000 -30.06390000 1.07930000
-0.33710000 -30.12970000 1.31100000
-0.49160000 -30.01160000 0.90620000
0.32960000 -29.94070000 0.93040000
-1.23610000 -18.99910000 3.87610000
-1.53000000 -18.85840000 3.83960000
-0.76260000 -19.08550000 3.94600000
3.49550000 -23.76950000 3.93880000
1.83280000 -29.10030000 0.84130000
2.21450000 -29.06010000 0.91430000
1.89400000 -29.30000000 0.89740000
2.15400000 -29.27250000 0.97080000
2.39940000 -29.22440000 1.12120000
-2.69850000 -13.01130000 6.32200000
-2.82070000 -13.61850000 6.19540000
1.21280000 -12.78450000 3.21020000
-2.40070000 -18.15310000 3.70620000
0.09900000 8.45180000 6.23350000
0.36360000 8.74580000 6.16100000
0.32590000 8.21380000 6.27210000
-0.99760000 -27.85660000 3.10630000
-2.88120000 -2.42690000 5.89720000
-3.57320000 -12.70340000 4.80560000
-3.53300000 -13.25200000 4.64860000
-3.48680000 -12.82190000 4.70490000
2.20040000 -4.70140000 5.67070000
1.90690000 -4.22520000 5.66580000
1.35290000 -12.85960000 1.01720000
1.18630000 -12.71540000 1.05540000
1.02160000 -12.45580000 1.09940000
1.36600000 -12.52490000 1.14200000
2.28690000 -1.21690000 5.57210000
0.85200000 -4.99640000 5.77100000
1.04690000 -4.50640000 5.76370000
0.72020000 -4.22210000 5.76470000
0.93350000 -4.02880000 5.75940000
0.64660000 -3.87290000 5.77460000
1.60940000 -25.67430000 3.97120000
0.89870000 -26.56250000 3.74860000
1.38130000 -26.39310000 3.76370000
1.87040000 -24.99370000 4.16370000
-2.80970000 -12.58910000 6.27540000
-0.87990000 4.82690000 6.70460000
3.43240000 -12.15080000 5.24460000
3.50850000 -11.82630000 5.38160000
-1.62190000 -29.77810000 1.68900000
-1.70300000 -29.86480000 1.43250000
-2.05300000 6.36640000 5.10910000
-1.91200000 6.45520000 5.37890000
-1.94780000 6.00630000 5.48680000
-1.40140000 18.68650000 2.47550000
-1.34700000 19.01260000 2.65020000
-1.34950000 18.56520000 2.85490000
-1.28180000 19.34630000 2.75660000
-1.25440000 19.01580000 2.98450000
2.24480000 -1.16530000 7.20970000
1.74590000 -0.96290000 7.45080000
1.98940000 -1.65100000 7.42040000
-1.56610000 -7.06350000 5.32000000
2.07190000 -24.43030000 4.32910000
0.21210000 7.58540000 3.89560000
1.89040000 -29.46580000 0.99420000
2.25340000 -22.81750000 2.70770000
1.95550000 -22.80580000 2.71600000
3.41090000 -11.58550000 6.49690000
-1.47620000 16.08170000 2.58710000
-1.33400000 16.22240000 2.32940000
-1.43100000 16.53340000 2.40840000
-1.32930000 16.65000000 2.20850000
-1.13680000 16.31620000 2.17390000
-1.18310000 16.60210000 2.12970000
0.60800000 1.79950000 4.99970000
1.07780000 1.66820000 5.04380000
-1.76330000 0.21430000 4.89430000
-1.22340000 0.21060000 5.04300000
-0.91390000 8.86920000 3.57000000
2.73090000 -2.24740000 6.18570000
-0.94290000 16.63380000 2.06080000
-2.30450000 -29.02620000 0.82950000
-2.07700000 -28.89280000 0.79880000
1.67010000 -4.55080000 5.70540000
1.42130000 -4.36830000 5.71680000
1.44330000 -4.74530000 5.73620000
1.91440000 -4.79690000 5.69780000
-2.68010000 -18.88010000 3.45530000
-0.45480000 -29.73940000 0.80190000
-0.02140000 -29.82920000 0.82530000
-2.23210000 -7.15780000 5.20280000
-1.89310000 7.93570000 4.07300000
2.04930000 -22.10810000 4.95050000
-1.46000000 14.52510000 2.64170000
-1.54600000 13.59970000 2.86820000
-1.64310000 13.66080000 3.03170000
-1.26690000 -8.67890000 5.44080000
-0.73560000 -8.42070000 5.58940000
-1.14350000 -8.21170000 5.45130000
-0.35700000 -8.51440000 5.62380000
-1.47010000 -4.12030000 5.46320000
-1.21950000 -4.36750000 5.52750000
-1.61790000 -4.52940000 5.44920000
-1.30050000 -4.82530000 5.52280000
2.32270000 -8.08470000 5.48960000
2.62390000 -8.16490000 5.53750000
1.82900000 0.35160000 5.24140000
1.52860000 0.38550000 5.22180000
-2.26910000 -16.89690000 3.99740000
3.50730000 -13.73400000 5.90700000
3.51090000 -13.09220000 5.89580000
2.56840000 -1.44190000 6.93180000
2.66040000 -2.14700000 7.00450000
2.53290000 -0.98360000 6.89720000
-1.25650000 18.37720000 1.68440000
2.06190000 -14.37500000 6.73370000
2.03610000 16.56040000 2.83450000
1.95540000 16.18560000 2.88310000
2.01390000 15.70010000 2.98170000
2.00080000 -25.89420000 1.73440000
1.60810000 -26.03560000 1.75320000
1.88660000 -26.26900000 1.62090000
1.14940000 -26.09620000 1.80270000
0.62110000 2.87620000 7.27120000
-3.25420000 -8.44720000 6.07280000
0.67400000 -4.64290000 7.66610000
-2.45090000 -6.72350000 6.87220000
-1.95100000 -7.46720000 7.09920000
-2.15830000 4.19880000 4.47500000
-2.20890000 3.44080000 4.62070000
-2.22360000 4.29980000 4.76370000
0.06570000 7.84800000 6.36140000
0.51160000 7.70550000 6.34800000
-3.14780000 -12.06930000 6.02640000
0.63240000 -23.90470000 4.55400000
-0.77300000 -28.46450000 0.89680000
-1.06310000 -28.53420000 0.87700000
-1.15300000 -28.38330000 0.80730000
2.02280000 -13.93170000 4.20530000
2.28950000 -13.99080000 4.47250000
1.67150000 15.26660000 4.57910000
1.59820000 15.69290000 4.60790000
1.71360000 16.16390000 4.43880000
1.40480000 15.61220000 4.75340000
-2.30870000 -11.21660000 4.93070000
-2.34330000 -11.63260000 4.86380000
-1.87930000 -11.98020000 4.99870000
0.18210000 -12.10230000 1.32170000
-0.19330000 -12.25680000 1.24890000
-3.40350000 -15.43730000 5.45750000
-3.30720000 -15.99450000 5.44860000
2.09510000 -22.83180000 4.79160000
-1.85730000 -20.24730000 3.11110000
-1.97520000 -19.97450000 3.15580000
-1.55560000 -19.93650000 3.27940000
1.70890000 -12.40220000 7.04770000
0.43600000 14.49320000 2.69030000
0.71910000 8.79290000 6.06520000
0.96600000 8.44760000 6.00310000
0.63220000 8.30660000 6.18690000
-2.97350000 -14.88210000 5.95420000
-2.03400000 3.93120000 5.90440000
-1.96170000 3.50910000 6.07190000
2.75590000 -26.58520000 1.56750000
2.79770000 -26.78180000 1.54210000
2.64690000 -26.92640000 1.43100000
2.54680000 -26.64080000 1.45570000
-0.21800000 8.66300000 3.64670000
-0.57030000 8.67000000 3.61510000
-2.08890000 -3.42710000 7.03420000
-3.04780000 -4.90810000 6.16070000
2.95210000 -27.51400000 1.85320000
0.05210000 5.62360000 6.77690000
2.93540000 -6.93560000 6.28120000
-0.73360000 19.43660000 1.23470000
-2.02360000 6.62110000 4.87040000
-2.03130000 6.29540000 4.78810000
-2.07220000 6.23470000 4.96340000
0.55950000 -15.01120000 0.49790000
0.52570000 -14.74370000 0.50730000
2.67860000 -17.59600000 4.10950000
2.94640000 -17.75530000 4.05390000
2.81900000 -18.19020000 3.96990000
2.38680000 -23.43560000 4.59990000
3.67240000 -18.34230000 5.03120000
3.63610000 -18.35070000 5.29120000
3.68100000 -18.87920000 5.03990000
1.45470000 -12.43660000 5.10450000
1.04010000 -12.18500000 5.20290000
0.98570000 -12.31310000 5.14440000
0.87410000 -12.39420000 5.02910000
-1.13870000 16.92810000 2.03810000
-1.34750000 16.94350000 2.17970000
-1.17620000 17.42100000 1.93240000
-1.41850000 17.15670000 2.27800000
-1.39270000 17.67050000 2.14650000
2.81940000 -18.67720000 3.84380000
3.03190000 -18.91910000 3.78610000
3.01640000 -19.23110000 3.70560000
3.51200000 -13.15420000 5.28360000
3.53770000 -13.53030000 5.58410000
-1.79800000 -10.80210000 6.95030000
-2.17980000 -10.11330000 6.82200000
-3.82420000 -21.68690000 2.70950000
-3.68650000 -21.77170000 2.54330000
1.01180000 -30.01350000 1.02320000
-0.71370000 -3.64830000 5.60100000
-3.75720000 -20.71380000 3.57320000
3.15760000 -25.56730000 1.98450000
3.26880000 -25.57170000 2.11310000
2.70670000 -11.28420000 5.10070000
-0.38690000 -15.93620000 4.44200000
-0.06400000 -16.06910000 4.48770000
0.07080000 -15.95490000 4.43440000
-0.30050000 -15.82170000 4.30100000
0.22410000 -15.87650000 4.30730000
-0.71110000 -15.75250000 4.33170000
-0.06610000 16.84770000 2.07540000
-0.34840000 17.03020000 1.98030000
-2.24550000 -6.42760000 7.00050000
-2.70690000 -6.60390000 6.67540000
-2.53890000 -7.43030000 5.16020000
-2.66620000 -7.74740000 5.12560000
-2.82620000 -7.62860000 5.15560000
-0.06570000 -12.48080000 3.43330000
-0.18300000 -12.49460000 3.03890000
-0.39050000 -12.57770000 3.55710000
-0.55430000 -12.68660000 3.38890000
1.83780000 -27.79490000 1.05820000
2.61900000 -3.17160000 5.79860000
2.06600000 -27.58970000 3.20770000
-0.83410000 8.01120000 6.08850000
-2.02470000 -21.15830000 2.90380000
-1.72280000 -21.09520000 3.00690000
-1.49810000 -20.92670000 3.12160000
1.18950000 -27.13750000 3.54730000
1.71980000 -27.00910000 3.50660000
-3.17010000 -20.92100000 2.78330000
-3.38890000 -20.73940000 2.83630000
-2.36460000 -9.27390000 6.76540000
-1.48600000 -28.99580000 0.79830000
-1.45160000 -29.19330000 0.75200000
1.37460000 14.17250000 2.95360000
1.14160000 13.72050000 2.97260000
1.58370000 13.76600000 3.07840000
-2.41990000 -22.07340000 4.42890000
-2.49130000 -22.51960000 4.23580000
-2.77820000 -22.04790000 4.19040000
2.36270000 3.61050000 5.78400000
3.29750000 -12.11760000 6.64370000
-0.96960000 -5.12520000 5.60080000
-0.91120000 -4.64630000 5.60230000
2.09010000 15.97500000 3.68730000
2.07270000 16.38600000 3.84190000
2.41330000 -25.46830000 1.83940000
-2.85120000 -3.40590000 5.40230000
-2.78840000 -3.89740000 5.37240000
-2.93470000 -3.88390000 5.52760000
-2.68430000 -3.69210000 5.29310000
-2.76710000 -4.22830000 5.32910000
-2.53870000 -3.96200000 5.27120000
-3.48660000 -10.53890000 5.47340000
-3.43980000 -10.42920000 5.70950000
1.79060000 -15.29760000 1.80030000
1.74480000 -15.38900000 1.56510000
3.09610000 -7.63150000 6.87060000
-1.49640000 16.87170000 2.69310000
-1.47990000 16.79690000 2.54070000
2.29160000 -23.08550000 4.71550000
-1.77290000 11.35830000 4.39930000
-3.03730000 -4.50000000 5.65160000
3.06540000 -25.75850000 3.40030000
-0.80190000 -20.50670000 3.25070000
-0.32120000 -20.52470000 3.29180000
-0.94330000 -30.02450000 0.97600000
-2.24730000 -11.17580000 6.69220000
0.89380000 -21.89990000 3.11500000
0.53840000 -22.07950000 3.06160000
0.46580000 -21.73520000 3.14750000
0.14950000 -21.92170000 3.07800000
0.02030000 -21.58130000 3.16510000
0.32660000 -21.37010000 3.21740000
-0.46030000 -28.14830000 3.14330000
-0.56880000 -27.54250000 3.33690000
-0.83350000 -28.36480000 2.98210000
-1.52520000 11.15410000 3.31970000
-1.65640000 11.15970000 3.47280000
-2.23420000 3.30470000 4.70610000
-1.58700000 -14.45670000 3.50030000
-1.53780000 -14.80060000 3.88790000
-1.74680000 -14.44530000 3.85150000
-1.67730000 -14.14580000 3.55820000
-3.39090000 -9.38280000 5.82190000
2.16840000 -29.34830000 2.36320000
3.72050000 -19.31760000 5.01190000
3.65800000 -19.02270000 5.22480000
0.72460000 13.73870000 5.23350000
0.42890000 13.55630000 5.31620000
0.25980000 13.21140000 5.39170000
1.10750000 14.01810000 5.07630000
3.40240000 -24.22970000 2.53250000
0.20520000 13.90540000 2.76200000
-0.20640000 13.84430000 2.71630000
-2.10490000 3.97820000 4.36940000
-2.01140000 3.63130000 4.41480000
-2.49370000 -9.87810000 6.66260000
-2.62330000 -10.46010000 6.54430000
-0.17600000 -19.07640000 4.04380000
-0.76190000 -19.36600000 3.82160000
-0.56860000 -18.71080000 4.05380000
3.11480000 -20.35830000 5.13810000
1.14780000 -8.16400000 5.40540000
-0.26980000 -12.80530000 0.73090000
1.24240000 -29.92550000 1.00740000
-1.61730000 -17.52940000 4.09740000
0.56540000 -12.25270000 1.09910000
-0.09020000 -12.24700000 1.10680000
2.19020000 -11.21960000 5.17840000
1.82260000 -10.88510000 5.28410000
1.72620000 -11.31970000 5.21200000
2.18850000 -10.86520000 5.23160000
-2.93450000 -18.10970000 5.32880000
-2.35860000 -17.86910000 5.72760000
-0.65840000 -26.26620000 1.64740000
-1.04010000 -25.96230000 1.67780000
2.35030000 -7.20540000 5.60830000
3.45710000 -13.06440000 5.03310000
-1.20330000 -15.69810000 4.48490000
-0.96880000 -15.72170000 4.45530000
-3.23680000 -16.43350000 3.75780000
-3.19140000 -16.77060000 3.74220000
-3.39010000 -20.42970000 2.90670000
2.08610000 8.47530000 4.24530000
-2.95600000 -11.27090000 4.84480000
-2.62550000 -11.20940000 4.87890000
-1.90260000 -4.91760000 5.40190000
-3.02200000 -12.51340000 6.12680000
-1.28590000 18.24150000 3.16600000
-2.35710000 -3.40930000 6.87460000
-2.33600000 -3.92840000 6.88400000
-2.19760000 -4.43980000 7.00120000
-2.46210000 -4.60280000 6.81300000
-2.63800000 -2.25210000 5.24240000
-2.90040000 -21.48320000 2.63720000
-2.99820000 -21.72430000 2.53630000
2.23980000 -0.17380000 7.04720000
2.04280000 -0.64780000 7.27620000
2.27480000 -0.63850000 7.11860000
3.46950000 -23.81880000 2.74480000
1.51770000 -11.21780000 5.25250000
0.28430000 5.35140000 4.33640000
1.18350000 5.94670000 6.47920000
0.55570000 -22.33900000 2.97920000
1.01110000 -22.23090000 3.00710000
-1.94250000 9.03240000 4.62400000
-2.66060000 -0.31700000 5.63780000
-1.49620000 -1.99140000 5.30740000
-3.12620000 -15.85350000 3.93530000
-3.18920000 -24.95960000 2.66420000
-3.18180000 -25.29770000 2.48070000
-0.68970000 -29.07650000 0.81860000
-0.76070000 -29.50130000 0.77300000
-1.09070000 -29.22900000 0.71370000
-0.95430000 -29.48200000 0.74950000
-3.11590000 -20.24130000 4.60680000
-3.52150000 -14.18550000 4.39790000
-3.70660000 -14.62500000 4.52900000
-3.59770000 -14.02300000 4.50740000
-3.69950000 -14.26930000 4.67970000
-3.74580000 -14.62650000 4.71380000
-1.94000000 -1.81300000 6.99020000
-1.86100000 -2.06610000 7.04220000
-2.09670000 -1.27850000 6.90570000
-2.02190000 -26.28470000 1.36720000
-1.94110000 -26.52010000 1.29330000
-2.14480000 -26.52760000 1.29710000
-2.28360000 -26.34830000 1.36330000
-2.06510000 1.87490000 4.68500000
-0.54350000 -12.55680000 4.12770000
-0.79920000 -12.43650000 4.83140000
-1.76260000 -8.21170000 7.12770000
-2.11320000 -8.67350000 6.94350000
-3.13400000 -15.53220000 5.71490000
-2.60310000 -16.18730000 6.01260000
-2.19970000 -16.39860000 6.15110000
-2.08710000 -23.61090000 2.19390000
-1.98880000 -23.17170000 2.34130000
-1.62190000 -24.13830000 2.14580000
-1.84860000 -23.91750000 2.14620000
3.45030000 -23.44550000 2.55560000
-2.58760000 -11.99790000 4.83580000
-2.78000000 -11.69260000 4.81510000
-3.40940000 -15.66090000 3.99760000
-3.41970000 -15.92850000 3.86610000
-3.23770000 -7.01940000 5.58320000
-3.68530000 -22.44110000 2.39460000
-3.50450000 -22.38900000 2.32810000
-3.39960000 -22.19440000 2.34620000
1.63110000 10.08200000 3.72280000
1.54100000 9.71010000 3.73970000
1.24620000 -10.35220000 5.46890000
1.72230000 -10.34120000 5.36390000
1.49350000 -10.70810000 5.35900000
-1.15450000 -29.34870000 0.68640000
-2.63550000 -10.53770000 4.92450000
-2.55390000 -3.38460000 6.68320000
0.51520000 11.50060000 5.60780000
1.53620000 10.49810000 3.61990000
1.79800000 10.30960000 3.78490000
2.35800000 -18.37750000 4.00940000
2.56870000 -18.53540000 3.94360000
-1.03510000 5.64490000 4.09490000
-0.93620000 6.03560000 4.03080000
-0.88150000 6.49570000 3.92870000
-1.93200000 7.09570000 4.11670000
-1.96180000 7.27350000 4.24180000
-2.87970000 -3.97500000 6.33720000
-2.66260000 -4.13070000 6.59630000
-2.72720000 -3.53440000 6.47560000
-2.83600000 -3.50760000 6.32410000
2.02040000 14.02170000 3.27170000
1.91490000 13.93340000 3.16100000
2.03110000 13.44170000 3.36350000
2.08590000 -25.55610000 1.83310000
1.58820000 4.42430000 4.64130000
-3.70920000 -16.52980000 4.80480000
-3.74000000 -16.74860000 4.66660000
-3.61140000 -16.83580000 4.89140000
3.65930000 -21.91880000 3.71310000
-1.93400000 -12.50560000 4.89090000
-2.24060000 -13.08310000 4.67550000
-1.85910000 -12.91260000 4.77010000
-2.05180000 -13.26560000 4.60900000
0.01780000 -23.48100000 2.61740000
0.57520000 -23.55690000 2.60320000
0.72000000 -23.25900000 2.68890000
-0.33870000 -23.67240000 2.51770000
-3.77590000 -21.86060000 3.17240000
-3.81020000 -21.41710000 3.20410000
-3.86950000 -21.47280000 2.93150000
3.50950000 -14.28910000 5.93700000
1.70850000 16.11010000 2.71670000
-2.13850000 -8.15980000 6.96890000
-3.79550000 -23.31690000 2.40370000
-3.73670000 -23.64240000 2.45410000
-3.75400000 -23.31170000 2.63020000
-3.62140000 -23.70970000 2.65400000
1.01940000 -22.94760000 2.77050000
1.43320000 -22.79440000 2.78110000
1.24440000 -23.25090000 2.64670000
1.93730000 13.34520000 3.29810000
0.42600000 12.52410000 3.03980000
-0.64290000 -4.07200000 5.63300000
-0.68780000 -4.26360000 5.63840000
-0.06020000 -2.58370000 5.63090000
2.22650000 1.78390000 6.58190000
2.10990000 1.39140000 6.80300000
-0.30400000 -12.44780000 0.95560000
-3.09460000 -26.39130000 1.23640000
-0.45760000 -15.62840000 0.52790000
-0.30400000 -15.68700000 0.44630000
-0.21930000 -15.90920000 0.63470000
-0.44460000 -15.75680000 0.72620000
-0.52410000 -15.44080000 1.00580000
-0.16370000 -15.97280000 0.85690000
-0.31430000 -15.73180000 1.03830000
-0.99810000 17.75250000 1.73400000
-0.90490000 17.44850000 1.81200000
2.79730000 -28.36130000 1.25610000
2.76150000 -28.58820000 1.26010000
-1.99070000 6.69260000 4.25290000
-2.00350000 6.98400000 4.28240000
-1.65290000 9.88520000 5.11780000
-1.73960000 9.72630000 5.01750000
2.01120000 15.49060000 3.08270000
3.29340000 -22.63250000 2.71870000
3.27150000 -23.00470000 2.59550000
2.43180000 -29.17190000 2.30390000
2.55390000 -29.00300000 2.19910000
-1.26110000 -13.74470000 2.90400000
-1.76370000 -13.86960000 3.77440000
1.62070000 -17.10800000 4.36020000
1.75830000 -16.71710000 4.28720000
1.70750000 -16.34400000 4.19800000
-2.72430000 -23.32680000 2.20190000
-1.12640000 18.06100000 3.56570000
-1.13360000 17.44510000 3.69830000
-0.63060000 16.83850000 2.00470000
2.48130000 2.93190000 5.66910000
2.44640000 3.57890000 5.48010000
-1.29750000 10.40520000 3.32670000
2.16930000 2.73380000 4.99340000
1.98110000 2.75780000 4.93280000
1.89000000 2.46370000 4.97000000
-2.57990000 -0.20400000 5.20130000
3.43920000 -12.69070000 5.14230000
2.86760000 -12.61170000 6.82440000
2.03330000 16.80180000 4.02880000
1.93470000 16.26300000 4.15960000
0.77480000 -20.53950000 3.36580000
0.20610000 -20.42090000 3.32000000
-0.07240000 -20.29980000 3.28910000
1.83210000 13.82710000 4.37260000
1.89260000 13.29850000 4.28270000
1.84480000 14.17490000 4.38350000
-0.93930000 -13.83530000 1.70300000
-3.48160000 -13.61330000 4.54220000
-3.37150000 -19.38230000 4.60420000
-3.26010000 -18.95040000 4.83610000
-1.50050000 -0.45540000 5.07160000
1.65090000 -22.89730000 2.71180000
1.77250000 -23.12390000 2.62410000
-1.75510000 9.65100000 3.70820000
-1.61760000 9.55190000 3.59890000
3.41290000 -25.17920000 3.14510000
3.30130000 -25.37830000 3.36830000
3.17500000 -25.30430000 3.52840000
-1.46960000 -26.90410000 1.25350000
-1.67850000 -26.94560000 1.18930000
1.05850000 3.62560000 4.70710000
-2.09070000 4.42550000 5.64240000
-1.92610000 8.69810000 4.93600000
-1.92870000 8.51590000 4.61450000
-1.89450000 9.26560000 4.84500000
-2.14830000 -26.90760000 1.15410000
-2.37070000 -26.61740000 1.25160000
-1.17620000 19.47710000 3.03230000
1.26690000 -17.09890000 4.39700000
-2.31990000 -3.78000000 5.25210000
-2.50500000 -3.60900000 5.22780000
-2.73660000 -14.42290000 4.29660000
3.10310000 -18.30610000 3.91890000
-3.14110000 -24.58840000 2.93820000
-2.96300000 -18.88290000 5.13320000
-1.65350000 -27.95900000 0.82640000
-1.37080000 -28.25800000 0.78570000
1.90750000 -26.23050000 3.73440000
-0.91440000 -13.43180000 0.62230000
-1.04080000 -13.50640000 0.84700000
0.81100000 -15.78070000 3.65220000
-1.15530000 -28.56780000 2.76480000
1.79780000 -13.54970000 4.15550000
1.81950000 -13.94690000 3.81750000
-0.92860000 -29.22650000 2.53060000
-1.49640000 -29.48370000 2.06680000
3.65620000 -19.46410000 5.22650000
3.62160000 -20.24090000 5.06000000
0.36500000 -12.42130000 3.14440000
-2.17090000 4.80990000 4.56350000
-1.20190000 18.59790000 3.26280000
-2.69720000 -6.89060000 5.20760000
-2.52980000 -6.97150000 5.20270000
1.67910000 -23.55170000 2.51870000
-2.01200000 6.18880000 4.32420000
-1.27550000 -1.71050000 5.32390000
-1.90680000 8.40640000 4.96070000
-2.00120000 -3.30310000 5.31020000
-1.66360000 6.59630000 5.63440000
0.10040000 -20.89440000 3.32540000
0.23860000 -21.03680000 3.27060000
0.66700000 -21.24010000 3.24910000
2.68970000 -0.47790000 5.98910000
-3.60490000 -23.33150000 2.87270000
2.05060000 2.41920000 6.63940000
-0.11980000 18.48800000 1.59070000
0.18100000 18.56460000 1.61770000
0.30430000 18.30530000 1.72200000
2.53930000 2.91600000 5.38900000
0.33360000 -19.01760000 4.10050000
-2.30760000 -20.37630000 2.99110000
-0.33450000 -30.16650000 1.74920000
-1.71260000 12.97890000 3.20710000
-3.03280000 -21.98190000 2.45550000
-2.76680000 -22.34240000 2.45440000
-2.99620000 -22.26660000 2.40350000
-3.21690000 -22.11830000 2.38080000
0.63570000 11.09570000 5.63910000
0.85780000 11.41640000 5.49230000
0.72000000 -15.22070000 0.50050000
0.80710000 -15.51020000 0.54300000
0.25440000 -15.78920000 0.51420000
0.39840000 -15.91260000 0.60000000
-3.28160000 -8.32000000 5.36560000
-2.97750000 -13.03090000 6.13210000
-0.93800000 15.77800000 4.43330000
-2.46430000 -23.45540000 2.22630000
2.15720000 -27.84170000 0.86410000
2.10260000 -27.57740000 0.95330000
2.45870000 3.64740000 5.27280000
-1.39790000 14.15230000 4.29790000
-1.18310000 14.40530000 4.49210000
2.87270000 -4.76730000 6.89280000
1.55070000 -15.34950000 0.83860000
1.16810000 -15.39240000 0.65620000
1.27730000 -15.24530000 0.67450000
1.43120000 -15.16610000 0.66940000
1.05960000 -15.66580000 0.70230000
0.89790000 -14.84840000 0.56890000
0.72360000 -15.83050000 0.66570000
0.99410000 -15.91060000 0.77590000
0.44480000 -16.02450000 0.74640000
0.45010000 -16.08600000 0.89530000
-2.97180000 -5.03130000 6.34330000
-0.86050000 -4.26620000 5.60100000
-1.69160000 13.32260000 3.18690000
-2.34170000 -12.06330000 4.84960000
-2.79720000 -12.26270000 4.73090000
-0.54420000 -16.99740000 4.41480000
-2.04790000 6.88490000 4.59860000
1.61790000 -3.95390000 7.59840000
2.38030000 2.78020000 5.10670000
-2.20190000 4.19890000 4.96040000
-1.30750000 17.87920000 1.90760000
-1.89480000 -17.21440000 6.04220000
-3.21400000 -9.70950000 5.11460000
1.92410000 -3.08340000 7.53850000
2.17650000 -28.51540000 0.96580000
-0.32410000 5.89570000 4.13770000
0.06410000 6.08400000 4.16540000
-1.59790000 -12.84000000 4.76300000
-1.29210000 -12.59100000 4.89620000
-1.50360000 -12.52370000 4.95880000
-0.83070000 -12.32840000 5.07850000
-2.39710000 -3.24670000 5.20520000
-2.64290000 -3.07980000 5.25030000
-1.87080000 -9.36900000 5.18410000
-1.56990000 -9.66640000 5.26810000
-1.98900000 -9.77950000 5.12890000
-1.68900000 -24.57990000 1.98890000
1.23450000 -18.97220000 4.02350000
1.41760000 -12.18620000 2.07750000
-0.07970000 -7.26230000 7.52200000
-1.99840000 3.05310000 4.51290000
-2.10210000 2.81920000 4.59850000
-1.92660000 9.00890000 4.87760000
1.82670000 -4.67160000 7.57880000
-1.06480000 -24.13150000 2.28760000
-1.36570000 -24.15730000 2.22340000
1.31160000 -5.15210000 5.74790000
0.83520000 -18.80160000 4.12750000
0.95080000 -18.48650000 4.20000000
1.68660000 -5.05720000 5.71900000
2.02040000 -5.22250000 5.69280000
-1.41490000 -15.08430000 4.14150000
-3.46660000 -18.95380000 4.59050000
-0.24900000 15.11450000 4.88500000
1.02390000 -17.24080000 4.38320000
3.09620000 -12.53130000 6.71980000
2.01790000 -26.57610000 1.47770000
1.66980000 -26.59500000 1.54640000
0.43870000 -16.07620000 4.40360000
1.38410000 -16.20940000 4.19740000
0.62360000 -13.44230000 0.78310000
1.36190000 -1.07460000 7.57610000
-3.27900000 -18.00580000 5.03700000
2.34320000 -5.11540000 5.69170000
-2.57450000 -22.19740000 2.52960000
2.01860000 -27.37400000 1.16150000
-0.23700000 -15.44630000 3.13140000
0.83530000 -12.34470000 1.07740000
0.26560000 -8.93310000 5.63370000
0.18860000 -9.26240000 5.62460000
-0.07760000 -9.15420000 5.64110000
0.56320000 -12.08350000 1.30960000
0.21640000 -22.23360000 2.99750000
1.39840000 13.07140000 5.00740000
-2.12800000 -5.65140000 5.33760000
2.30280000 -24.91190000 2.03710000
2.18340000 -24.76030000 2.09330000
-0.12840000 -28.92100000 0.88460000
-0.42440000 -28.90240000 0.85330000
1.22880000 -11.13420000 5.33640000
-3.75100000 -22.87280000 2.37830000
-0.83670000 -14.94360000 1.61910000
-3.23710000 -12.89530000 4.60950000
-0.35670000 -12.98600000 0.71290000
-0.37400000 8.32730000 3.70640000
0.41280000 17.98150000 1.84670000
2.27070000 -6.94010000 5.63170000
1.97690000 -27.83640000 0.92000000
-0.85160000 -29.68330000 0.69390000
1.91890000 -10.09800000 5.36620000
0.60360000 13.11660000 5.35960000
1.56790000 -13.15010000 0.99430000
1.53190000 -15.63460000 1.03690000
1.70330000 -15.05590000 0.75210000
1.65260000 -14.79050000 0.76530000
1.80940000 -14.79920000 0.84700000
-3.75540000 -19.54740000 3.86870000
3.02670000 -26.73150000 1.78970000
-0.02290000 -15.52410000 1.40190000
0.33140000 -15.50480000 1.84310000
2.28150000 -14.26850000 1.63030000
2.16360000 -14.07710000 1.93630000
1.68610000 5.03000000 4.56560000
3.19350000 -9.55340000 5.67230000
-1.93530000 -26.83580000 1.18030000
-0.31470000 -29.91480000 0.86020000
-0.75940000 -29.90380000 0.81440000
-0.01420000 -15.87880000 1.09880000
-2.08880000 5.04100000 5.52250000
-2.48460000 -2.74160000 5.20150000
-2.02980000 7.10080000 4.71320000
2.13360000 -26.78160000 3.47960000
-1.65090000 -29.25340000 2.05040000
-2.51310000 -16.87120000 5.89640000
2.19100000 -25.21540000 1.93710000
-1.60080000 -4.95700000 5.46040000
1.30530000 -12.32960000 1.22230000
-0.90670000 17.09300000 1.93120000
1.03320000 -19.52550000 3.65650000
1.02110000 -19.24810000 3.90300000
-3.86830000 -21.09760000 3.06460000
0.76440000 14.36580000 2.77570000
3.22210000 -18.99750000 3.82400000
-1.33750000 -14.82940000 3.51030000
3.12020000 -14.36480000 6.49610000
1.60890000 -20.83920000 3.43320000
-0.25610000 -5.93180000 5.71980000
-0.54080000 -5.88140000 5.66140000
1.88180000 14.93180000 4.26980000
1.75450000 14.91730000 4.49990000
1.37130000 -15.90380000 4.02250000
1.48380000 -15.80550000 4.01350000
-1.00740000 -21.20200000 5.19640000
0.85550000 10.90370000 5.56660000
-3.06400000 -23.66460000 2.00840000
-0.78470000 -28.82660000 0.92930000
1.85710000 -14.55290000 0.87260000
2.10950000 11.24860000 3.87700000
0.71870000 -19.12510000 4.02190000
-0.99030000 -5.67690000 5.58970000
0.13200000 -1.18400000 5.45210000
1.47210000 -1.22140000 5.43220000
1.25570000 -0.90840000 5.39970000
-3.54640000 -15.94120000 3.94140000
-3.79790000 -17.20300000 4.39420000
-3.70550000 -22.05960000 3.24120000
-1.54850000 4.85820000 4.14170000
-0.52550000 -14.07860000 0.46600000
-1.98180000 -0.85390000 6.99450000
1.23800000 16.96510000 2.34310000
-3.72550000 -14.34480000 4.94090000
1.71800000 -13.84330000 3.49850000
2.71340000 -15.93400000 4.36550000
-1.89200000 7.94890000 5.13680000
-0.23350000 4.11460000 4.48830000
-1.98380000 6.88360000 4.86690000
2.15500000 12.38940000 3.77500000
3.53790000 -16.00470000 5.94250000
-2.25670000 1.15890000 4.82510000
2.18690000 -4.71190000 7.50080000
-3.18460000 -18.47700000 5.02680000
-0.51510000 -15.69360000 4.11040000
-0.24390000 -15.45710000 0.40290000
2.69850000 -19.81490000 3.37800000
0.21140000 -12.47870000 3.59340000
