0.20780000 15.42450000 2.60840000
0.29140000 15.44900000 2.61090000
0.34390000 15.41540000 2.60680000
0.02310000 15.49960000 2.64920000
0.11120000 15.44350000 2.64370000
0.17900000 15.38420000 2.60730000
0.23600000 15.38160000 2.58360000
0.28560000 15.38240000 2.58100000
-0.04700000 15.48730000 2.61680000
0.08690000 15.39930000 2.64740000
0.17610000 15.33910000 2.63050000
0.21360000 15.34200000 2.59290000
0.23910000 15.34170000 2.57020000
0.25700000 15.35410000 2.56580000
-0.13220000 15.48410000 2.59350000
-0.16740000 15.44330000 2.65050000
-0.03560000 15.35490000 2.70670000
0.17190000 15.28090000 2.69310000
0.21450000 15.26780000 2.66420000
0.22620000 15.30710000 2.61540000
-0.19350000 15.46710000 2.54710000
-0.22510000 15.45160000 2.61990000
-0.22500000 15.40970000 2.66250000
-0.24980000 15.31300000 2.71900000
-0.15640000 15.25320000 2.71630000
0.03650000 15.18450000 2.78050000
-0.20200000 15.41810000 2.47190000
-0.29330000 15.46980000 2.59670000
-0.28210000 15.44530000 2.64050000
-0.28640000 15.33460000 2.74570000
-0.14020000 15.44000000 2.44350000
-0.13880000 15.44120000 2.41360000
-0.29240000 15.39000000 2.45820000
-0.26850000 15.45600000 2.54210000
-0.31350000 15.48420000 2.55320000
-0.31980000 15.51100000 2.62060000
-0.09920000 15.47550000 2.40910000
-0.12210000 15.49310000 2.36770000
-0.23670000 15.43630000 2.39480000
-0.36380000 15.40340000 2.43470000
-0.35020000 15.39470000 2.46630000
-0.35570000 15.45500000 2.50630000
-0.49360000 15.40810000 2.43160000
-0.46730000 15.40980000 2.47430000
-0.39020000 15.41910000 2.48440000
-0.34290000 15.56390000 2.53450000
-0.31990000 15.55280000 2.57800000
-0.56120000 15.42710000 2.40850000
-0.54550000 15.40130000 2.46130000
-0.51030000 15.43660000 2.48480000
-0.52720000 15.50620000 2.49620000
-0.41960000 15.55470000 2.51820000
-0.36900000 15.60070000 2.55680000
-0.61260000 15.42960000 2.42970000
-0.58950000 15.42890000 2.46940000
-0.56970000 15.53260000 2.50800000
-0.51410000 15.55400000 2.54320000
-0.43120000 15.58640000 2.57690000
-0.58190000 15.55850000 2.57160000
-0.50220000 15.55830000 2.59600000
-0.44790000 15.56500000 2.63270000
-0.39800000 15.59620000 2.62300000
-0.56870000 15.52380000 2.62930000
-0.53110000 15.49860000 2.64430000
-0.48310000 15.46590000 2.67090000
-0.40770000 15.53330000 2.71890000
-0.37980000 15.57810000 2.67220000
-0.61720000 15.54420000 2.63710000
-0.65750000 15.48000000 2.74470000
-0.61590000 15.37030000 2.70540000
-0.56910000 15.34030000 2.70430000
-0.45380000 15.32430000 2.72580000
-0.64750000 15.53750000 2.70320000
-0.70930000 15.36600000 2.77290000
-0.66940000 15.33690000 2.75940000
-0.54300000 15.25510000 2.83500000
-0.33680000 15.56710000 2.64550000
-0.35200000 15.43570000 2.75330000
-0.31510000 15.39250000 2.74890000
-0.31860000 15.34510000 2.79110000
-0.34510000 15.59620000 2.60200000
-0.37670000 15.54540000 2.71050000
-0.40970000 15.47250000 2.75620000
-0.42360000 15.42190000 2.75680000
-0.36860000 15.38530000 2.77630000
-0.40400000 15.28690000 2.80620000
-0.35330000 15.25300000 2.82600000
-0.40900000 15.24480000 2.85080000
-0.37020000 15.20280000 2.84850000
-0.33930000 15.18600000 2.80410000
-0.31300000 15.17250000 2.75480000
-0.25900000 15.20060000 2.70690000
-0.21170000 15.18160000 2.69580000
-0.47640000 15.20900000 2.88370000
-0.44250000 15.10870000 2.93240000
-0.34240000 15.14150000 2.84710000
-0.29360000 15.13510000 2.82560000
-0.27360000 15.14860000 2.73510000
-0.55650000 15.20210000 2.86600000
-0.52440000 15.12010000 2.89300000
-0.29020000 15.09830000 2.86860000
-0.59770000 15.24020000 2.86810000
-0.61630000 15.17870000 2.89930000
-0.57600000 15.15410000 2.88170000
-0.60230000 15.29340000 2.83100000
-0.67720000 15.24090000 2.84380000
-0.66940000 15.21100000 2.88720000
-0.67090000 15.03130000 2.95670000
-0.73370000 15.25800000 2.84130000
-0.79040000 15.11170000 2.90310000
-0.73160000 15.01060000 2.95940000
-0.79320000 15.29830000 2.81050000
-0.81670000 15.19320000 2.82760000
-0.83290000 15.14100000 2.87330000
-0.84860000 15.09220000 2.86380000
-0.82450000 15.07400000 2.90450000
-0.78840000 14.93200000 2.90040000
-0.84420000 15.21730000 2.73400000
-0.85830000 15.08320000 2.80850000
-0.82880000 14.96380000 2.81440000
-0.92650000 15.21490000 2.67000000
-0.93260000 15.16150000 2.63870000
-0.88670000 15.12640000 2.72140000
-0.88350000 15.06250000 2.75570000
-0.85950000 14.98610000 2.77760000
-0.96570000 15.23870000 2.69010000
-1.01220000 15.21260000 2.63810000
-0.97410000 15.19500000 2.60980000
-1.06230000 15.30110000 2.68460000
-1.09760000 15.26590000 2.66080000
-1.04170000 15.21410000 2.58670000
-0.99650000 15.20200000 2.56480000
-0.96940000 15.16170000 2.54100000
-0.94120000 15.16370000 2.58660000
-1.21850000 15.33990000 2.71280000
-1.17190000 15.31010000 2.71120000
-1.28770000 15.32410000 2.72250000
-1.20730000 15.27490000 2.68730000
-1.15950000 15.23760000 2.58490000
-1.12040000 15.22860000 2.54940000
-1.08200000 15.20550000 2.52750000
-1.03560000 15.17580000 2.52540000
-1.32460000 15.34600000 2.74840000
-1.27360000 15.26540000 2.69540000
-1.21880000 15.22850000 2.60450000
-1.20030000 15.22110000 2.53960000
-1.16610000 15.20050000 2.51930000
-1.11170000 15.16570000 2.51770000
-1.31550000 15.44900000 2.65920000
-1.36250000 15.41640000 2.72350000
-1.36340000 15.36960000 2.76950000
-1.37840000 15.31770000 2.79670000
-1.33600000 15.29130000 2.78480000
-1.33110000 15.47810000 2.61860000
-1.41800000 15.40590000 2.75080000
-1.45300000 15.31110000 2.72530000
-1.40080000 15.27210000 2.80430000
-1.30290000 15.52320000 2.56580000
-1.02850000 15.11030000 2.54780000
-0.95440000 15.12020000 2.57780000
-1.07810000 15.14390000 2.52230000
-1.09990000 15.09490000 2.57120000
-0.96890000 15.12510000 2.64140000
-0.95630000 15.11380000 2.68880000
-0.92310000 15.09010000 2.72420000
-1.12990000 15.11680000 2.53410000
-1.19130000 15.10540000 2.55480000
-1.17010000 15.09650000 2.59970000
-1.22280000 15.13760000 2.69010000
-1.22390000 15.17910000 2.53540000
-1.23250000 15.12370000 2.57710000
-1.28650000 15.20720000 2.68170000
-1.24350000 15.14720000 2.64520000
-1.27440000 15.18160000 2.66870000
-1.31170000 15.15990000 2.73810000
-1.18420000 15.07620000 2.76730000
-1.05100000 15.11250000 2.72600000
-1.36120000 15.20990000 2.82470000
-1.42250000 15.22570000 2.81570000
-1.43730000 15.17380000 2.84320000
-1.39150000 15.14470000 2.83980000
-1.38490000 15.08350000 2.80260000
-1.32360000 15.10570000 2.77310000
-1.52500000 15.17580000 2.76640000
-1.47150000 15.19820000 2.80850000
-1.50280000 15.09920000 2.80850000
-1.44250000 15.06050000 2.80860000
-1.34330000 15.05770000 2.78860000
-1.22510000 15.04180000 2.78350000
-1.55040000 15.23860000 2.64680000
-1.55860000 15.20360000 2.67630000
-1.59210000 15.18300000 2.68300000
-1.63850000 15.07360000 2.71580000
-1.52820000 15.30370000 2.66850000
-1.59190000 15.22740000 2.64110000
-1.54760000 15.37530000 2.67360000
-1.59430000 15.28530000 2.68600000
-1.46880000 15.44070000 2.71740000
-1.58270000 15.51550000 2.69290000
-1.67170000 15.45180000 2.71770000
-1.59180000 15.40310000 2.68110000
-1.69820000 15.22330000 2.79440000
-1.61720000 15.24000000 2.69330000
-1.71980000 15.29920000 2.79140000
-1.76130000 15.20510000 2.81680000
-1.72140000 15.18070000 2.79850000
-1.64850000 15.17770000 2.70370000
-1.89280000 15.23190000 2.78850000
-1.78270000 15.17420000 2.81210000
-1.82770000 15.13120000 2.77970000
-1.72350000 15.12660000 2.73940000
-1.68910000 15.10670000 2.70720000
-2.00120000 15.24060000 2.80810000
-2.00460000 15.20050000 2.85260000
-1.95980000 15.15030000 2.86870000
-1.90590000 15.18930000 2.80970000
-2.11430000 15.19210000 2.83730000
-2.08730000 15.17210000 2.87630000
-2.02110000 15.13280000 2.89350000
-1.96220000 14.96850000 2.93870000
-1.92760000 15.07140000 2.89260000
-1.85490000 15.08930000 2.77630000
-2.25370000 15.10130000 2.86330000
-2.15540000 15.13060000 2.88990000
-2.12960000 15.07740000 2.91860000
-2.30660000 15.07860000 2.82080000
-2.18750000 15.05550000 2.91190000
-2.03610000 14.95660000 2.93640000
-1.01960000 14.97090000 2.76060000
-0.95210000 14.98730000 2.75860000
-0.89030000 14.95080000 2.77840000
-0.85640000 14.92220000 2.81190000
-1.13600000 14.98180000 2.77380000
-1.05420000 14.87120000 2.80330000
-0.97280000 14.87710000 2.82430000
-0.90870000 14.89550000 2.82400000
-0.85710000 14.91890000 2.86680000
-0.83840000 14.94770000 2.86920000
-1.21340000 14.97640000 2.75900000
-1.10710000 14.90610000 2.78910000
-1.11020000 14.84950000 2.77690000
-1.07080000 14.82080000 2.82640000
-0.89900000 14.76930000 2.83740000
-0.89430000 14.82480000 2.85160000
-1.28350000 15.01940000 2.78840000
-1.28560000 14.96310000 2.76110000
-1.26020000 14.95480000 2.70200000
-1.19530000 14.93150000 2.72480000
-1.13720000 14.86940000 2.73780000
-1.36220000 15.00920000 2.80600000
-1.34320000 14.93880000 2.78600000
-1.32190000 14.92870000 2.73480000
-1.30380000 14.92880000 2.65470000
-1.23590000 14.93900000 2.64850000
-1.37990000 14.95960000 2.82650000
-1.36700000 14.89490000 2.78120000
-1.35760000 14.89380000 2.71000000
-1.31900000 14.90500000 2.65310000
-1.26490000 14.89850000 2.64070000
-1.16570000 14.83210000 2.68090000
-1.53950000 15.00120000 2.84610000
-1.40420000 14.91550000 2.83010000
-1.39440000 14.84940000 2.83360000
-1.33080000 14.84340000 2.80640000
-1.35340000 14.85010000 2.76130000
-1.59060000 15.03690000 2.80370000
-1.68380000 14.97440000 2.85050000
-1.43380000 14.87560000 2.82070000
-1.43970000 14.81840000 2.84160000
-1.37140000 14.83180000 2.87490000
-1.69630000 15.06130000 2.74120000
-1.77020000 15.03220000 2.81740000
-1.74730000 15.08200000 2.74440000
-1.81410000 15.06230000 2.78840000
-1.86560000 15.00300000 2.84580000
-1.92780000 14.94850000 2.90910000
-1.90070000 14.93470000 2.85600000
-1.87900000 14.86090000 2.86140000
-1.84420000 14.77720000 2.89030000
-1.96450000 14.91240000 2.91200000
-1.96750000 14.86120000 2.81780000
-1.91920000 14.76610000 2.88550000
-1.76370000 14.72590000 2.88420000
-1.73390000 14.75230000 2.88090000
-1.99730000 14.92090000 2.92780000
-2.00390000 14.88270000 2.84490000
-2.00260000 14.82260000 2.84190000
-1.95910000 14.79270000 2.87110000
-1.94750000 14.72510000 2.87930000
-2.07150000 14.92980000 2.90400000
-2.03640000 14.84520000 2.82810000
-1.99160000 14.75290000 2.88700000
-1.98300000 14.69060000 2.84760000
-1.88850000 14.67780000 2.80590000
-1.79060000 14.68580000 2.85260000
-2.22090000 15.01870000 2.89290000
-2.26430000 14.99000000 2.84870000
-2.28870000 14.94590000 2.85230000
-2.18310000 14.82040000 2.82650000
-2.22500000 14.72660000 2.85110000
-2.10370000 14.76690000 2.86410000
-2.37790000 15.06630000 2.80030000
-2.41950000 14.92600000 2.87250000
-2.27390000 14.81410000 2.90050000
-2.29650000 14.76860000 2.90870000
-2.32690000 14.72940000 2.89700000
-2.32840000 14.67480000 2.83950000
-2.48650000 15.07790000 2.77970000
-2.52220000 14.91710000 2.85430000
-2.58780000 14.84010000 2.85540000
-2.36870000 14.75540000 2.90950000
-2.47240000 14.71910000 2.88280000
-2.38760000 14.68610000 2.83840000
-2.51750000 14.97630000 2.81540000
-2.53020000 14.74250000 2.87190000
-2.53200000 14.68820000 2.81350000
-2.48640000 14.65920000 2.80930000
-2.45040000 14.63800000 2.77580000
-2.39820000 14.63120000 2.77210000
-2.36100000 14.64510000 2.81460000
-2.59620000 14.78700000 2.84160000
-2.64310000 14.77070000 2.72510000
-2.59620000 14.66280000 2.75730000
-2.52470000 14.62380000 2.81650000
-2.47950000 14.58720000 2.79040000
-2.68710000 14.90980000 2.76840000
-2.68960000 14.85600000 2.70830000
-2.77190000 14.91520000 2.61580000
-2.72550000 14.73760000 2.69720000
-2.72370000 14.94060000 2.66100000
-2.79620000 14.68220000 2.70780000
-2.70250000 14.64380000 2.73050000
-2.65270000 14.58200000 2.77090000
-2.56450000 14.61750000 2.83030000
-2.84620000 14.71860000 2.69700000
-2.84020000 14.68590000 2.73850000
-2.81240000 14.63520000 2.72950000
-2.78860000 14.55920000 2.73200000
-2.86160000 14.66000000 2.83770000
-2.82760000 14.58470000 2.75060000
-2.80110000 14.49780000 2.77320000
-2.74530000 14.50220000 2.75250000
-2.87670000 14.60840000 2.86470000
-2.82810000 14.52270000 2.79200000
-2.80210000 14.49480000 2.88500000
-2.73530000 14.47580000 2.79620000
-2.69020000 14.49420000 2.78420000
-2.84920000 14.50400000 2.90670000
-2.78860000 14.47380000 2.92910000
-2.75260000 14.48940000 2.86360000
-2.71630000 14.50220000 2.91200000
-2.65450000 14.52720000 2.83690000
-0.80550000 14.91500000 2.95790000
-0.81790000 14.88400000 3.00890000
-0.86210000 14.91440000 2.98020000
-0.88970000 14.87270000 2.97770000
-0.82220000 14.93100000 2.91350000
-0.87320000 14.93410000 2.93470000
-0.88930000 14.88000000 2.86750000
-0.89800000 14.89540000 2.93210000
-0.88420000 14.83440000 2.90690000
-0.86090000 14.78820000 2.88270000
-0.91290000 14.71960000 2.82500000
-1.06310000 14.69480000 2.85680000
-0.95040000 14.62740000 2.78420000
-1.11730000 14.79180000 2.81720000
-1.13150000 14.67830000 2.86860000
-1.12580000 14.61790000 2.82900000
-1.07610000 14.58480000 2.84620000
-1.14330000 14.81110000 2.77760000
-1.16660000 14.76770000 2.82900000
-1.25810000 14.76000000 2.86290000
-1.21350000 14.80270000 2.69040000
-1.22740000 14.79740000 2.80660000
-1.33710000 14.74920000 2.89130000
-1.28210000 14.84860000 2.66220000
-1.27300000 14.81040000 2.71650000
-1.33530000 14.83770000 2.69400000
0.76610000 15.57700000 2.37890000
0.73000000 15.60490000 2.30950000
0.76500000 15.64030000 2.33260000
0.76800000 15.56820000 2.48770000
0.79320000 15.61880000 2.38170000
0.82580000 15.65000000 2.49110000
0.86380000 15.68530000 2.48750000
0.55880000 15.51500000 2.55360000
0.61490000 15.48220000 2.57120000
0.74150000 15.52350000 2.52210000
0.79720000 15.54700000 2.52540000
0.46460000 15.51630000 2.61430000
0.58030000 15.37870000 2.66950000
0.71150000 15.41990000 2.57670000
0.74990000 15.39680000 2.55440000
0.78980000 15.49220000 2.52500000
0.82000000 15.59140000 2.53070000
0.45030000 15.46440000 2.63650000
0.45570000 15.39910000 2.66950000
0.48150000 15.35130000 2.69990000
0.59090000 15.25410000 2.65180000
0.70810000 15.29810000 2.64880000
0.75020000 15.33250000 2.62020000
0.40760000 15.40250000 2.63350000
0.42020000 15.36060000 2.69730000
0.44950000 15.28090000 2.71720000
0.48040000 15.19990000 2.74120000
0.66320000 15.20340000 2.71480000
0.77280000 15.25540000 2.66550000
0.34060000 15.35490000 2.64230000
0.32400000 15.30450000 2.69070000
0.35310000 15.22040000 2.76480000
0.41660000 15.17970000 2.76440000
0.40150000 15.12940000 2.77230000
0.58730000 15.14260000 2.75890000
0.30000000 15.34640000 2.59350000
0.27390000 15.29830000 2.63310000
0.26280000 15.22560000 2.67910000
0.34680000 15.16600000 2.74970000
0.33050000 15.11380000 2.79540000
0.38460000 15.07750000 2.81840000
0.27420000 15.34040000 2.56740000
0.27630000 15.32110000 2.56950000
0.26710000 15.30560000 2.57960000
0.25210000 15.30240000 2.60010000
0.25630000 15.32650000 2.56270000
0.26720000 15.31730000 2.56120000
0.26760000 15.30590000 2.56420000
0.24540000 15.31320000 2.57850000
0.26010000 15.30430000 2.56300000
0.26470000 15.29870000 2.56520000
0.25840000 15.30040000 2.56900000
0.26260000 15.29740000 2.56650000
0.80540000 15.40270000 2.53160000
0.88050000 15.37290000 2.54830000
0.89700000 15.42120000 2.55720000
0.89020000 15.48250000 2.59390000
0.86780000 15.31860000 2.59200000
0.94040000 15.39400000 2.54740000
0.94430000 15.44660000 2.61110000
0.96880000 15.49070000 2.60790000
1.01920000 15.64150000 2.53980000
0.88460000 15.24750000 2.60210000
1.02980000 15.27180000 2.62480000
0.98710000 15.36420000 2.54620000
0.98590000 15.42090000 2.59710000
1.02030000 15.45680000 2.61880000
1.09010000 15.47210000 2.61070000
0.81190000 15.24500000 2.70280000
0.91640000 15.21980000 2.70920000
1.04130000 15.23050000 2.66310000
1.08650000 15.17160000 2.68860000
1.09490000 15.29260000 2.58010000
0.65720000 15.14430000 2.76480000
0.71530000 15.10410000 2.80790000
0.84280000 15.20580000 2.73400000
0.93170000 15.18280000 2.74740000
1.05500000 15.19100000 2.70100000
0.63630000 15.09740000 2.77710000
0.69450000 15.05810000 2.80490000
0.78800000 14.99820000 2.80260000
0.81110000 15.04270000 2.80620000
0.88430000 15.06700000 2.78490000
0.56450000 15.08370000 2.78020000
0.65680000 15.02490000 2.77490000
0.74840000 14.96660000 2.76770000
0.77800000 14.94620000 2.78810000
0.83440000 14.96860000 2.80050000
0.95620000 14.94980000 2.80430000
0.46400000 15.02610000 2.82640000
0.57460000 15.01970000 2.75180000
0.61370000 14.99600000 2.73130000
0.66240000 14.96450000 2.73500000
0.70690000 14.93440000 2.75630000
0.73560000 14.91790000 2.79570000
0.40690000 15.00380000 2.81620000
0.47070000 15.00160000 2.81580000
0.54040000 14.98350000 2.73080000
0.59180000 14.98470000 2.70600000
0.62150000 14.93140000 2.73310000
0.31470000 15.06270000 2.82170000
0.40990000 14.94560000 2.76980000
0.44700000 14.97940000 2.79820000
0.48130000 14.95960000 2.76570000
0.26360000 15.09580000 2.81620000
0.23410000 15.05620000 2.80260000
0.28330000 15.02430000 2.80760000
0.21780000 15.12710000 2.78830000
0.16450000 15.10090000 2.80110000
0.17600000 15.03580000 2.77540000
0.22300000 15.00380000 2.80250000
0.25930000 14.97980000 2.81220000
0.28710000 15.14750000 2.71120000
0.18090000 15.17230000 2.70530000
0.14050000 15.14990000 2.77030000
-0.00380000 15.08940000 2.80900000
0.16590000 15.06510000 2.78890000
0.23840000 15.18050000 2.68510000
0.09390000 15.20170000 2.74940000
0.82900000 14.91180000 2.81290000
0.90420000 14.86410000 2.80350000
1.06200000 14.94380000 2.76820000
1.05990000 15.00580000 2.75150000
0.89460000 14.83410000 2.81780000
0.94010000 14.84300000 2.77510000
0.96870000 14.88370000 2.78200000
1.05480000 14.89250000 2.71690000
1.14880000 14.90010000 2.73820000
1.13200000 14.95870000 2.76380000
0.92130000 14.79170000 2.90590000
0.93710000 14.78500000 2.78520000
0.96230000 14.83170000 2.73360000
1.01660000 14.85440000 2.67130000
1.09700000 14.87020000 2.63730000
1.21110000 14.85670000 2.64320000
1.01220000 14.72640000 2.90480000
0.99470000 14.72130000 2.76860000
0.97290000 14.74430000 2.72240000
0.97670000 14.78130000 2.69470000
0.99150000 14.81790000 2.67080000
1.08310000 14.67050000 2.97090000
1.05530000 14.71110000 2.88270000
1.06170000 14.70240000 2.82120000
1.02990000 14.70150000 2.74120000
1.03410000 14.72750000 2.70140000
1.04490000 14.79000000 2.65520000
1.12460000 14.58930000 3.01290000
1.25950000 14.65580000 2.95220000
1.37620000 14.71460000 2.86870000
1.41430000 14.73340000 2.80340000
1.08410000 14.49440000 3.04090000
1.15930000 14.44950000 2.99240000
1.28240000 14.49260000 2.94650000
1.27440000 14.55450000 2.96970000
1.35310000 14.62780000 2.91770000
1.18510000 14.33140000 3.04540000
1.27120000 14.34250000 2.95860000
1.22660000 14.41090000 2.92430000
1.25270000 14.45360000 2.92500000
1.15640000 14.26810000 3.06120000
1.29650000 14.25750000 2.97720000
1.26910000 14.29720000 3.00100000
1.30110000 14.30260000 2.93910000
1.28230000 14.34690000 2.84160000
1.28750000 14.39850000 2.82090000
0.78690000 14.43980000 3.14690000
0.70530000 14.31440000 3.13630000
1.08010000 14.13830000 3.06410000
1.14720000 14.03600000 3.06050000
0.59710000 14.44200000 3.15530000
0.63340000 14.24500000 3.08530000
0.75840000 14.22350000 3.09730000
0.88500000 14.14480000 3.05950000
1.04770000 14.10070000 3.04770000
1.08620000 14.07530000 3.05800000
0.76630000 14.10540000 3.00950000
0.79440000 14.13660000 3.02530000
0.88570000 14.08850000 3.00730000
0.99160000 14.07180000 2.98210000
1.03750000 14.05010000 3.01300000
0.72730000 14.00930000 3.04120000
0.84790000 13.99130000 3.04220000
0.63240000 14.00860000 2.99210000
0.67890000 13.98210000 3.02120000
0.88810000 13.96670000 3.02470000
0.96010000 14.04410000 2.95710000
0.59400000 13.98170000 2.95460000
0.64440000 13.94880000 2.96260000
0.68630000 13.91950000 2.99800000
0.61940000 13.94780000 2.92140000
0.65350000 13.88480000 2.94360000
0.63810000 13.89780000 2.89780000
0.58440000 13.93370000 2.87660000
0.77680000 13.80960000 2.88560000
0.95100000 13.99580000 2.88030000
0.98590000 14.03130000 2.90320000
1.01770000 14.03000000 2.95820000
0.76230000 13.70170000 2.86010000
0.84070000 13.65200000 2.85010000
0.93890000 13.82590000 2.86730000
1.02030000 14.00980000 2.89440000
1.03630000 13.99260000 2.99490000
0.87780000 13.62590000 2.88310000
0.92180000 13.65770000 2.87590000
1.02750000 13.96280000 2.93260000
1.03340000 13.93240000 3.03280000
0.88550000 13.61760000 2.93280000
0.94500000 13.63620000 2.97210000
0.96030000 13.68900000 2.92690000
0.97770000 13.72930000 3.04540000
1.01090000 13.82570000 3.06330000
1.06060000 13.91230000 3.07160000
0.94340000 13.57520000 3.00910000
0.96100000 13.56090000 3.05370000
0.98650000 13.66200000 3.07630000
1.02080000 13.75780000 3.09360000
1.08880000 13.80800000 3.08280000
1.15950000 13.96000000 3.04780000
0.89020000 13.43000000 3.02070000
1.03030000 13.59230000 3.09250000
1.06990000 13.66750000 3.08310000
1.02760000 13.69380000 3.09530000
1.11250000 13.76230000 3.05870000
1.13980000 13.84680000 3.01900000
1.17870000 13.96150000 2.98440000
1.09860000 13.65820000 3.03050000
1.08450000 13.76200000 2.90110000
1.13350000 13.93800000 2.88240000
1.22650000 14.05300000 2.93880000
1.08910000 13.62760000 2.91120000
1.09110000 13.69750000 2.87710000
1.11230000 13.84740000 2.86150000
1.17660000 13.97250000 2.84300000
1.12300000 13.61230000 2.88950000
1.15860000 13.71450000 2.84900000
1.23770000 13.99480000 2.81310000
1.27560000 14.02800000 2.84340000
1.27800000 14.08190000 2.90320000
1.19180000 13.62400000 2.87360000
1.22230000 13.69210000 2.84050000
1.31740000 13.82650000 2.78700000
1.31930000 13.94470000 2.78090000
1.35020000 13.98360000 2.79340000
1.33530000 14.04570000 2.89320000
1.31680000 13.76200000 2.86500000
1.37980000 13.84430000 2.81040000
1.36710000 13.91390000 2.78230000
1.39930000 13.95170000 2.79830000
1.40490000 14.00300000 2.86620000
1.40650000 13.88650000 2.81340000
1.44730000 13.90890000 2.97300000
1.47740000 13.94900000 2.97400000
1.44460000 13.97630000 2.88360000
1.44600000 14.03350000 2.90460000
1.67450000 14.12160000 2.95150000
1.58190000 14.06460000 2.91370000
1.49570000 14.00110000 2.91100000
1.32020000 14.25380000 2.91040000
1.32390000 14.29610000 2.86630000
1.32920000 14.35530000 2.79700000
1.29520000 14.18760000 2.93540000
1.37430000 14.25900000 2.89060000
1.47240000 14.31550000 2.88400000
1.49550000 14.36450000 2.82040000
1.41020000 14.36240000 2.75570000
1.35180000 14.39470000 2.76860000
1.35270000 14.09310000 2.90760000
1.39570000 14.18610000 2.88570000
1.44930000 14.27030000 2.89070000
1.49020000 14.24520000 2.87470000
1.54110000 14.27130000 2.88440000
1.53950000 14.33290000 2.86910000
1.40290000 14.06040000 2.91510000
1.48780000 14.10110000 2.90670000
1.43560000 14.14420000 2.88520000
1.45690000 14.20830000 2.85580000
1.51080000 14.21770000 2.82570000
1.53730000 14.09620000 2.88550000
1.52760000 14.12790000 2.84130000
1.47860000 14.16770000 2.82390000
1.51200000 14.15120000 2.80360000
1.51730000 14.17990000 2.78350000
1.59730000 14.10860000 2.86500000
1.55790000 14.15170000 2.78950000
1.65830000 14.13510000 2.90620000
1.64470000 14.14700000 2.85870000
1.59750000 14.17600000 2.79960000
1.55790000 14.20620000 2.79660000
1.72930000 14.18770000 2.89500000
1.66360000 14.19390000 2.86690000
1.60490000 14.23290000 2.84630000
1.73410000 14.14310000 2.94840000
1.83990000 14.11120000 2.93860000
1.83690000 14.14420000 2.83810000
1.80050000 14.22510000 2.86680000
1.63140000 14.27440000 2.86260000
1.72010000 14.09050000 2.97830000
1.96380000 14.05650000 2.92750000
1.85950000 14.10110000 2.87140000
1.83210000 13.95990000 2.96850000
1.83340000 13.90290000 2.91820000
1.76230000 13.88870000 2.92300000
1.74190000 13.84140000 2.93650000
1.70900000 13.86000000 2.97250000
1.58060000 14.30580000 2.87990000
1.60320000 14.35320000 2.84560000
1.55320000 14.38580000 2.83840000
1.66030000 14.31610000 2.85160000
1.73840000 14.38730000 2.81810000
1.79970000 14.46530000 2.84260000
1.58930000 14.42030000 2.86440000
1.50410000 14.41730000 2.83400000
1.76760000 14.33150000 2.81390000
1.82740000 14.38390000 2.75090000
1.88150000 14.25990000 2.85780000
1.90730000 14.33850000 2.81690000
1.87630000 14.17970000 2.82010000
2.00700000 14.21660000 2.79390000
2.00220000 14.27720000 2.82300000
2.05290000 14.36530000 2.82010000
2.01630000 14.56790000 2.77150000
1.90330000 14.40290000 2.78310000
1.86130000 14.10270000 2.76310000
1.93180000 14.14670000 2.72350000
1.96310000 14.18900000 2.73620000
2.02180000 14.19090000 2.72360000
2.05920000 14.16740000 2.70240000
2.13830000 14.19080000 2.80920000
1.86060000 14.07810000 2.78520000
1.92200000 14.07570000 2.74850000
2.01620000 14.09100000 2.70190000
1.99640000 14.16960000 2.69730000
2.07520000 14.12190000 2.68610000
1.94850000 14.04810000 2.81190000
1.99600000 14.05140000 2.75750000
2.05350000 14.06590000 2.74450000
2.03670000 14.04560000 2.89510000
2.06490000 14.05100000 2.82840000
2.14270000 14.12750000 2.82360000
2.17010000 14.08860000 2.85630000
2.19000000 14.15690000 2.82050000
2.16900000 14.22980000 2.82160000
2.07650000 14.28940000 2.82310000
2.32900000 14.18790000 2.80270000
2.25020000 14.23750000 2.81640000
2.17480000 14.26240000 2.79830000
2.12090000 14.30220000 2.77700000
2.09580000 14.33890000 2.79500000
2.33590000 14.06250000 2.83150000
2.41000000 14.13820000 2.76910000
2.46550000 14.22100000 2.77880000
2.35480000 14.23090000 2.80280000
2.31690000 14.25560000 2.79580000
2.45740000 14.05200000 2.71570000
2.51040000 14.31230000 2.76190000
2.43570000 14.29690000 2.76190000
1.46090000 14.68420000 2.82150000
1.36730000 14.50450000 2.84590000
1.43690000 14.52000000 2.83720000
1.52260000 14.70530000 2.79430000
1.47100000 14.73920000 2.78280000
1.33950000 14.43980000 2.80640000
1.40780000 14.47970000 2.82900000
1.61570000 14.58260000 2.85460000
1.58770000 14.66210000 2.82310000
1.39790000 14.42540000 2.75100000
1.46910000 14.40470000 2.78770000
1.45550000 14.39530000 2.73590000
0.60760000 14.94520000 2.66210000
0.55410000 14.92580000 2.70190000
0.55970000 14.97600000 2.66060000
0.37400000 14.90930000 2.76810000
0.28300000 14.90470000 2.81800000
0.22600000 14.94000000 2.83690000
0.14470000 14.93450000 2.81130000
0.09480000 14.91220000 2.82390000
0.15690000 14.98910000 2.76790000
0.12400000 14.95070000 2.76860000
-0.01520000 14.97890000 2.79140000
0.12100000 15.01440000 2.73420000
0.08900000 14.98720000 2.73810000
0.04240000 15.00410000 2.75260000
0.00810000 15.02390000 2.78510000
-0.05310000 15.00160000 2.81480000
-0.06140000 14.94560000 2.84060000
0.04070000 15.06130000 2.80230000
-0.14380000 14.99890000 2.83440000
-0.13640000 14.93330000 2.85400000
-0.04690000 14.81280000 2.90660000
-0.08150000 15.08050000 2.79730000
-0.14230000 15.06010000 2.79740000
-0.21730000 15.04700000 2.82290000
-0.07780000 15.19970000 2.76080000
-0.16400000 15.13880000 2.71920000
-0.22940000 15.12070000 2.72760000
-0.26250000 15.07560000 2.82800000
1.06700000 15.43700000 2.60730000
1.06480000 15.37300000 2.55800000
1.17270000 15.42110000 2.58100000
1.22780000 15.56820000 2.52460000
1.17250000 15.54110000 2.56910000
1.15560000 15.31530000 2.54900000
1.22980000 15.38290000 2.60570000
1.30440000 15.39420000 2.60970000
1.13750000 15.26590000 2.56700000
1.18160000 15.28250000 2.51450000
1.27580000 15.35350000 2.60270000
1.40520000 15.39240000 2.56070000
1.43050000 15.43570000 2.55960000
1.38920000 15.46120000 2.57450000
1.13710000 15.20370000 2.61550000
1.14660000 15.15070000 2.59420000
1.15790000 15.19550000 2.53430000
1.17890000 15.22870000 2.49080000
1.18540000 15.25480000 2.46270000
1.13690000 15.08290000 2.64290000
1.17970000 15.11620000 2.62620000
1.19680000 15.12500000 2.58430000
1.18380000 15.13700000 2.55390000
1.16660000 15.15850000 2.54190000
1.19670000 15.18520000 2.50250000
1.07980000 15.05590000 2.70360000
1.21600000 15.02840000 2.69680000
1.20350000 15.09790000 2.66810000
1.26210000 15.11750000 2.59490000
1.23310000 15.13260000 2.54570000
1.32780000 15.01460000 2.70400000
1.38800000 15.03910000 2.66950000
1.29170000 15.12130000 2.64100000
1.38800000 15.08820000 2.58860000
1.35740000 15.10710000 2.53980000
1.29810000 15.12320000 2.52890000
1.31250000 14.96430000 2.72850000
1.43110000 14.94800000 2.72420000
1.50240000 14.99650000 2.68500000
1.50710000 15.04580000 2.64290000
1.44830000 15.07480000 2.61920000
1.33770000 14.90490000 2.72080000
1.43320000 14.82830000 2.71430000
1.45600000 14.88220000 2.72270000
1.54910000 14.99610000 2.65370000
1.31920000 14.84720000 2.63760000
1.37270000 14.81400000 2.62130000
1.41930000 14.77850000 2.70370000
1.47460000 14.79960000 2.74470000
1.49780000 14.84600000 2.71970000
1.50950000 14.90040000 2.68410000
1.28140000 14.81850000 2.60290000
1.35710000 14.76520000 2.61170000
1.40210000 14.73210000 2.67360000
1.44020000 14.76210000 2.74630000
1.52860000 14.82480000 2.73230000
1.20790000 14.80180000 2.60630000
1.19120000 14.69300000 2.65330000
1.35280000 14.70580000 2.65040000
1.30200000 14.68420000 2.66360000
1.10060000 14.81030000 2.62110000
1.07860000 14.69030000 2.71830000
1.13540000 14.67360000 2.71630000
1.05280000 14.83970000 2.63130000
1.61340000 14.76660000 2.78410000
1.62870000 14.81180000 2.75710000
1.61710000 14.82520000 2.71150000
1.57450000 14.82040000 2.65980000
1.53910000 14.84660000 2.67810000
1.67390000 14.76430000 2.76690000
1.71480000 14.76640000 2.72080000
1.66900000 14.75850000 2.65710000
1.60200000 14.79450000 2.63150000
1.54220000 14.82730000 2.59170000
1.53650000 14.88640000 2.63580000
1.62990000 14.63520000 2.82500000
1.72580000 14.72210000 2.78810000
1.80700000 14.76700000 2.71440000
1.86520000 14.74190000 2.62980000
1.73390000 14.77360000 2.59950000
1.67990000 14.75830000 2.62800000
1.67280000 14.60820000 2.81460000
1.86020000 14.64220000 2.76530000
1.84150000 14.74240000 2.74890000
1.93840000 14.72830000 2.70260000
1.91230000 14.73920000 2.66350000
1.68260000 14.53940000 2.85880000
1.84560000 14.55590000 2.82820000
1.89940000 14.58420000 2.77970000
1.98190000 14.64970000 2.74400000
1.98820000 14.67990000 2.72490000
1.88600000 14.53110000 2.81110000
1.91930000 14.51220000 2.77600000
2.07870000 14.61070000 2.72430000
2.02650000 14.65280000 2.70180000
1.99770000 14.68190000 2.66680000
1.86250000 14.48630000 2.81680000
2.22100000 15.37490000 2.40950000
2.21730000 15.29280000 2.48660000
2.27820000 15.25570000 2.51670000
2.32260000 15.22340000 2.51400000
2.18110000 15.39530000 2.43190000
2.15220000 15.27380000 2.50660000
2.19450000 15.18360000 2.55910000
2.26220000 15.20050000 2.54570000
2.14190000 15.40200000 2.46960000
2.08760000 15.37280000 2.51800000
2.08560000 15.25590000 2.52270000
2.07430000 15.20120000 2.55910000
2.11750000 15.17410000 2.54900000
1.97960000 15.45340000 2.47460000
2.01210000 15.36110000 2.54420000
1.99290000 15.25250000 2.57290000
2.02800000 15.15390000 2.63940000
2.07000000 15.13690000 2.61720000
2.10050000 15.12400000 2.57140000
1.90790000 15.55990000 2.35580000
1.86520000 15.46070000 2.46630000
1.86340000 15.33790000 2.53960000
1.89020000 15.19400000 2.65100000
1.90090000 15.58100000 2.32250000
1.80940000 15.62440000 2.34090000
1.81310000 15.56160000 2.35110000
1.85690000 15.53150000 2.38010000
1.84320000 15.47770000 2.42430000
1.77040000 15.40890000 2.37480000
1.92950000 15.58510000 2.25620000
1.74880000 15.66210000 2.31890000
1.75360000 15.54300000 2.31300000
1.78930000 15.45640000 2.37100000
1.73150000 15.49490000 2.34520000
1.67730000 15.41030000 2.35610000
1.72900000 15.37550000 2.38050000
1.78140000 15.33490000 2.48120000
1.78420000 15.26520000 2.60380000
1.51520000 15.49410000 2.39460000
1.61260000 15.39100000 2.37550000
1.66100000 15.37090000 2.46220000
1.60300000 15.27920000 2.56790000
1.70720000 15.27640000 2.52560000
1.64620000 15.53680000 2.29080000
1.54440000 15.52960000 2.32510000
1.49950000 15.52440000 2.37210000
1.47350000 15.53760000 2.41830000
1.46000000 15.55430000 2.48900000
1.48070000 15.37950000 2.48050000
1.52550000 15.40880000 2.41590000
1.69150000 15.57770000 2.26010000
1.64940000 15.56350000 2.24590000
1.58760000 15.54840000 2.25530000
1.44710000 15.57430000 2.26170000
1.47760000 15.54230000 2.33610000
1.45720000 15.55420000 2.37540000
1.71440000 15.62340000 2.29560000
1.65090000 15.61590000 2.24680000
1.59690000 15.59290000 2.22330000
1.53520000 15.57710000 2.21940000
1.64820000 15.67410000 2.29890000
1.60660000 15.67000000 2.28370000
1.57170000 15.66290000 2.23360000
1.49010000 15.65970000 2.18300000
1.40250000 15.63350000 2.19970000
1.64780000 15.73740000 2.29070000
1.57480000 15.71950000 2.29030000
1.55400000 15.69830000 2.27120000
1.50260000 15.70810000 2.18510000
1.36810000 15.74230000 2.15390000
1.66580000 15.76660000 2.25040000
1.60250000 15.82320000 2.23370000
1.54630000 15.81620000 2.25830000
1.46700000 15.79210000 2.22610000
1.66470000 15.76310000 2.18770000
1.59360000 15.84910000 2.19420000
1.55390000 15.86960000 2.21670000
1.48930000 15.89360000 2.19390000
1.41470000 15.88560000 2.22100000
1.69800000 15.73470000 2.15180000
1.65030000 15.76170000 2.14640000
1.67450000 15.75860000 2.12460000
1.71520000 15.73940000 2.12350000
1.47590000 15.33000000 2.52250000
1.53220000 15.24940000 2.58910000
1.57930000 15.21930000 2.58860000
1.69620000 15.20430000 2.58030000
1.43450000 15.37670000 2.51570000
1.41720000 15.32670000 2.53730000
1.38110000 15.28970000 2.54720000
1.46080000 15.23550000 2.59300000
1.50720000 15.20580000 2.59110000
1.54590000 15.18250000 2.56960000
1.47090000 15.47240000 2.51440000
1.44860000 15.48490000 2.54020000
1.42020000 15.56490000 2.50830000
1.41220000 15.64620000 2.42540000
1.35970000 15.68880000 2.40390000
1.32330000 15.69260000 2.41960000
1.23610000 15.66120000 2.44410000
1.18980000 15.62980000 2.50850000
1.43910000 15.61930000 2.40600000
1.33740000 15.69610000 2.35890000
1.22960000 15.75650000 2.36520000
1.17970000 15.69780000 2.42220000
1.14130000 15.68640000 2.47950000
1.37800000 15.59740000 2.31350000
1.27800000 15.72740000 2.33720000
1.23880000 15.75840000 2.25040000
1.23240000 15.82060000 2.27240000
1.18510000 15.78680000 2.34100000
1.14500000 15.75290000 2.34140000
1.29680000 15.61970000 2.24490000
1.26320000 15.66130000 2.26510000
1.25200000 15.68710000 2.22010000
1.25490000 15.75400000 2.19200000
1.26030000 15.80570000 2.22770000
1.30620000 15.65620000 2.21210000
1.30650000 15.71620000 2.17760000
1.29100000 15.78530000 2.18430000
1.32540000 15.82470000 2.20810000
1.24950000 15.87030000 2.25460000
1.40160000 15.77950000 2.16330000
1.35650000 15.86350000 2.22110000
1.28520000 15.90910000 2.22390000
1.19010000 15.84000000 2.29550000
1.36000000 15.89910000 2.19090000
1.51540000 15.89370000 2.12740000
1.56330000 15.88590000 2.10580000
2.39640000 15.17960000 2.46210000
2.38120000 15.12500000 2.37950000
2.46160000 15.08150000 2.38650000
2.42920000 15.04180000 2.38990000
2.33090000 15.16190000 2.46540000
2.31260000 15.11980000 2.38510000
2.35400000 15.09150000 2.36860000
2.31660000 15.04410000 2.38860000
2.32410000 15.00470000 2.43000000
2.23700000 15.15710000 2.54720000
2.19050000 15.08060000 2.42910000
2.23810000 15.06620000 2.38710000
2.20680000 15.01420000 2.41950000
2.24190000 14.97750000 2.51660000
2.33680000 14.98480000 2.47850000
2.13390000 15.10500000 2.53650000
2.13030000 15.05210000 2.47360000
2.15540000 15.04040000 2.41740000
2.11070000 15.06150000 2.52050000
2.12480000 15.01670000 2.50030000
2.16960000 15.00440000 2.47850000
2.14770000 15.01120000 2.43410000
2.05220000 15.09120000 2.63360000
2.08100000 15.02010000 2.53340000
2.14350000 14.97970000 2.53710000
2.17050000 14.92150000 2.56370000
2.22650000 14.92610000 2.54300000
2.01560000 15.11290000 2.66020000
2.02580000 15.04870000 2.63220000
2.05180000 15.03570000 2.57880000
1.95380000 15.09110000 2.68850000
1.99410000 15.06640000 2.67110000
1.92850000 15.04770000 2.68990000
1.97310000 14.98590000 2.60690000
2.06420000 14.96980000 2.55600000
2.04800000 14.91910000 2.58020000
1.83480000 15.10710000 2.70100000
1.77220000 15.21050000 2.64700000
1.77590000 15.14630000 2.68090000
1.81360000 15.06750000 2.69660000
1.85460000 15.03580000 2.68760000
1.89340000 14.95650000 2.61260000
1.85770000 14.91870000 2.63100000
1.74020000 15.23350000 2.61100000
1.74010000 15.17160000 2.64720000
1.76110000 15.11000000 2.67510000
1.75600000 15.04560000 2.60010000
1.84950000 14.98420000 2.62080000
1.70940000 15.07730000 2.57270000
1.71070000 15.01690000 2.57400000
1.70720000 14.90420000 2.51770000
1.80810000 14.95230000 2.60540000
1.62360000 15.13550000 2.52750000
1.66700000 15.04460000 2.57900000
1.67810000 14.97950000 2.55710000
1.57950000 15.16000000 2.53870000
1.57420000 15.10790000 2.52400000
1.59940000 15.02730000 2.59660000
1.58040000 14.97880000 2.61380000
1.64100000 14.94570000 2.52860000
1.53380000 15.13250000 2.49680000
1.51930000 15.08170000 2.53580000
1.54490000 15.06350000 2.57820000
1.47350000 15.16510000 2.50800000
1.46180000 15.13100000 2.48110000
1.51530000 15.09110000 2.48730000
1.45060000 15.09430000 2.51040000
1.42480000 15.20640000 2.55860000
1.39830000 15.20630000 2.50580000
1.38000000 15.18650000 2.46150000
1.36400000 15.14110000 2.48640000
1.37350000 15.25290000 2.53830000
1.35230000 15.26200000 2.49340000
1.32240000 15.27610000 2.42860000
1.29360000 15.23540000 2.42060000
1.34250000 15.31550000 2.53300000
1.26860000 15.29790000 2.42600000
1.24510000 15.26630000 2.41890000
1.26160000 15.17080000 2.48830000
1.25530000 15.31090000 2.54780000
1.20910000 15.28830000 2.44550000
1.20880000 15.15090000 2.52370000
1.18390000 15.15210000 2.53000000
1.54720000 14.86040000 2.56730000
1.61260000 14.90490000 2.52240000
1.59200000 14.83170000 2.54750000
1.65860000 14.87490000 2.51950000
1.74790000 14.82170000 2.55760000
1.79530000 14.85310000 2.57570000
1.82760000 14.87850000 2.63000000
1.59500000 14.80220000 2.57400000
2.00100000 14.82520000 2.65610000
2.11850000 14.88100000 2.62750000
1.99060000 14.78860000 2.63640000
2.06800000 14.78300000 2.64210000
2.09690000 14.82350000 2.64930000
2.16430000 14.84070000 2.63530000
2.17340000 14.88390000 2.60670000
2.20900000 14.87630000 2.56420000
1.90910000 14.77030000 2.60980000
2.01040000 14.73150000 2.59370000
2.10410000 14.76120000 2.61560000
2.13810000 14.79800000 2.63430000
2.19740000 14.82180000 2.59990000
2.21520000 14.81550000 2.52590000
1.84440000 14.80540000 2.59340000
1.87180000 14.76590000 2.60050000
1.94840000 14.71560000 2.60590000
1.84000000 14.76820000 2.58590000
2.27920000 14.83540000 2.50320000
2.25410000 14.73100000 2.52510000
2.25520000 14.72290000 2.63440000
2.25130000 14.79420000 2.49790000
2.21950000 14.70830000 2.53150000
2.13550000 14.68670000 2.55980000
2.12250000 14.68610000 2.67520000
2.17400000 14.67650000 2.70780000
2.35580000 14.71690000 2.64860000
2.16430000 14.72900000 2.52760000
2.13290000 14.74620000 2.56780000
2.09040000 14.71630000 2.56230000
2.05130000 14.69660000 2.57190000
2.04340000 14.67950000 2.59180000
2.05450000 14.66550000 2.63890000
2.00490000 14.69640000 2.59050000
1.99590000 14.68660000 2.61830000
2.07640000 14.64990000 2.68180000
1.94720000 14.71320000 2.64300000
2.17620000 14.52740000 2.75260000
2.20340000 14.59790000 2.72690000
2.28360000 14.64000000 2.70910000
2.10880000 14.51020000 2.76660000
2.12910000 14.43980000 2.76100000
2.23490000 14.49590000 2.66270000
2.27930000 14.55110000 2.68160000
2.32270000 14.61630000 2.68870000
2.16590000 14.37860000 2.64460000
2.17690000 14.42740000 2.63400000
2.25980000 14.42590000 2.56410000
2.29390000 14.49130000 2.65640000
2.39730000 14.50590000 2.73240000
2.14860000 14.32820000 2.67450000
2.19320000 14.33320000 2.61710000
2.26080000 14.36000000 2.55860000
2.15550000 14.29430000 2.72610000
2.19220000 14.30370000 2.64890000
2.23850000 14.31640000 2.59430000
2.30410000 14.32270000 2.57450000
2.33030000 14.35810000 2.55110000
2.30500000 14.40160000 2.55350000
2.21320000 14.28220000 2.69140000
2.25890000 14.29710000 2.62660000
2.33770000 14.31060000 2.64090000
2.37460000 14.34870000 2.63440000
2.36360000 14.41560000 2.63000000
2.28820000 14.28510000 2.67230000
2.48730000 14.32790000 2.75140000
2.45140000 14.40520000 2.67840000
2.49270000 14.38660000 2.71210000
2.49260000 14.44660000 2.70600000
2.51760000 14.49020000 2.70390000
2.42680000 14.54640000 2.73390000
2.44360000 14.64210000 2.64570000
2.54490000 14.41220000 2.71880000
2.45760000 14.62190000 2.68980000
-0.07420000 14.77200000 2.90190000
-1.30680000 13.65300000 2.97350000
-1.34000000 13.61470000 2.97430000
-1.37950000 13.60520000 2.98690000
-1.34010000 13.67670000 2.93820000
-1.37970000 13.64190000 2.94920000
-1.39970000 13.69820000 2.96890000
-1.33520000 13.73360000 2.93140000
-1.37430000 13.75730000 2.95160000
-1.29240000 13.81850000 3.02790000
-1.41200000 13.83570000 3.02940000
-1.47510000 13.81490000 3.05450000
-1.39500000 14.00560000 2.99620000
-1.42280000 13.96430000 2.99110000
-1.48590000 13.94350000 3.01610000
-1.51630000 13.84030000 3.06950000
-1.54470000 13.79950000 3.06300000
-1.40050000 14.06580000 3.03630000
-1.46560000 13.99090000 3.00230000
-1.53540000 14.03150000 3.06420000
-1.56010000 13.92370000 3.13200000
-1.60980000 13.83630000 3.13670000
-1.28440000 14.05160000 3.02570000
-1.23630000 14.14030000 3.01690000
-1.28100000 14.17260000 3.01900000
-1.36030000 14.16220000 2.99100000
-1.62000000 14.09900000 3.07370000
-1.51340000 14.07750000 3.05470000
-1.19190000 14.17360000 2.98390000
-1.21570000 14.19200000 2.99930000
-1.26410000 14.24100000 2.97820000
-1.37480000 14.17470000 2.94460000
-1.52410000 14.15020000 2.96270000
-1.19230000 14.22970000 2.88990000
-1.21400000 14.23660000 2.95690000
-1.23480000 14.24610000 2.91200000
-1.29060000 14.24290000 2.87840000
-1.38880000 14.17440000 2.88800000
-1.17060000 14.28680000 2.86860000
-1.25000000 14.27840000 2.87250000
-1.30430000 14.37120000 2.88860000
-1.29130000 14.30450000 2.86810000
-1.17780000 14.46830000 2.89310000
-1.36970000 14.35240000 2.90760000
-1.35700000 14.30880000 2.86800000
-1.32870000 14.26170000 2.84900000
-1.33130000 14.21490000 2.87230000
-1.13470000 14.56180000 2.86200000
-1.24210000 14.48360000 2.87950000
-1.40840000 14.37580000 2.92900000
-1.20140000 14.62870000 2.80260000
-1.19510000 14.59830000 2.79070000
-1.23450000 14.54090000 2.83490000
-1.27310000 14.53250000 2.84810000
-1.34130000 14.53600000 2.87960000
-1.43470000 14.45300000 2.91670000
-1.27180000 14.67500000 2.84000000
-1.26420000 14.63560000 2.78780000
-1.22870000 14.62160000 2.77320000
-1.25300000 14.59780000 2.78170000
-1.29060000 14.58160000 2.80480000
-1.33180000 14.57720000 2.83550000
-1.32550000 14.68350000 2.86540000
-1.32040000 14.62980000 2.81830000
-1.28800000 14.61350000 2.78390000
-1.35860000 14.64690000 2.86610000
-1.37520000 14.59690000 2.86920000
-1.40840000 14.61530000 2.90690000
-1.39020000 14.54470000 2.89890000
-1.45070000 14.64170000 2.91910000
-1.50430000 14.55740000 2.91410000
-1.58450000 14.61060000 2.88800000
-1.63670000 14.52180000 2.93630000
-1.58040000 14.67320000 2.84900000
-1.61040000 14.62640000 2.84310000
-1.71120000 14.58680000 2.82810000
-1.77180000 14.56870000 2.89280000
-1.76890000 14.54840000 2.91840000
-1.54730000 14.71430000 2.79520000
-1.62140000 14.64430000 2.80280000
-1.71200000 14.61140000 2.77430000
-1.83550000 14.55330000 2.80080000
-1.96680000 14.55690000 2.91030000
-1.86540000 14.55040000 2.92410000
-1.50670000 14.80700000 2.76720000
-1.61080000 14.69150000 2.76460000
-1.69540000 14.66510000 2.75520000
-1.82380000 14.61370000 2.75940000
-1.59610000 14.91940000 2.83360000
-1.59720000 14.86440000 2.77690000
-1.58710000 14.80070000 2.75140000
-1.63070000 14.73650000 2.75150000
-1.72500000 14.68450000 2.76590000
-1.66620000 14.90440000 2.84080000
-1.63530000 14.88730000 2.79990000
-1.62810000 14.82320000 2.76700000
-1.69590000 14.74560000 2.84170000
-1.74850000 14.68970000 2.81090000
-1.80110000 14.64910000 2.76190000
-1.73530000 14.70880000 2.86740000
-1.87960000 14.63030000 2.75870000
-1.90540000 14.56900000 2.77740000
-1.73340000 14.03340000 3.15380000
-1.83930000 14.10220000 3.14200000
-1.95960000 14.18070000 3.12280000
-2.07290000 14.13610000 3.09720000
-1.67550000 13.93730000 3.14420000
-1.62500000 14.02420000 3.14120000
-1.67030000 14.06120000 3.13770000
-1.72580000 14.09080000 3.11310000
-1.69510000 13.81550000 3.12420000
-1.64220000 13.79860000 3.12030000
-1.59290000 13.77140000 3.01670000
-1.64120000 13.75000000 2.96650000
-1.61570000 14.06370000 3.11680000
-1.75870000 14.11670000 3.04250000
-1.79040000 14.12300000 3.09300000
1.36820000 12.59540000 2.90750000
-1.82970000 14.14440000 3.11560000
-1.80420000 14.14340000 3.04900000
-1.84010000 14.29600000 2.94400000
-1.88140000 14.35460000 3.03560000
-1.88770000 14.31710000 3.06300000
-1.75060000 14.10390000 2.95870000
-1.80340000 14.14600000 2.93710000
-1.82550000 14.17330000 2.84240000
-1.82250000 14.24220000 2.80730000
-1.83450000 14.34660000 2.90200000
-1.88380000 14.39280000 2.99270000
-1.63550000 14.11680000 3.02950000
-1.60740000 14.12000000 2.96320000
-1.71140000 14.08250000 2.93620000
-1.78050000 14.09930000 2.91290000
-1.66820000 14.06750000 2.91370000
-1.69630000 14.06530000 2.86840000
-1.74930000 14.06530000 2.88950000
-1.75750000 14.09450000 2.84600000
-1.80060000 14.10990000 2.86810000
-1.45060000 14.15910000 2.84310000
-1.46230000 14.19650000 2.80950000
-1.54350000 14.18780000 2.79020000
-1.74910000 14.14950000 2.80430000
-1.35660000 14.21120000 2.83740000
-1.39200000 14.20780000 2.81470000
-1.38000000 14.24360000 2.81910000
-1.44060000 14.25540000 2.81780000
-1.47980000 14.22670000 2.79490000
-1.50680000 14.26400000 2.87680000
-1.55940000 14.24290000 2.80900000
-1.63430000 14.24600000 2.78990000
-1.71940000 14.22900000 2.77380000
-1.57420000 14.30270000 2.94420000
-1.61310000 14.27040000 2.91130000
-1.59860000 14.25950000 2.83630000
-1.65790000 14.29170000 2.81400000
-1.69170000 14.27040000 2.77850000
-1.59960000 14.37910000 2.93430000
-1.61890000 14.33090000 2.95070000
-1.65020000 14.30220000 2.92680000
-1.64380000 14.40960000 2.90280000
-1.64160000 14.34630000 2.93760000
-1.67660000 14.37490000 2.84840000
-1.69570000 14.35720000 2.79410000
-1.76000000 14.37360000 2.77940000
-1.71480000 14.51240000 2.93580000
-1.69870000 14.44350000 2.92260000
-1.69110000 14.40500000 2.86390000
-1.71040000 14.39900000 2.81350000
-1.86240000 14.42840000 2.93960000
-1.80330000 14.39260000 2.90790000
-1.73820000 14.41170000 2.88810000
-1.78780000 14.38820000 2.82810000
-1.78620000 14.33100000 2.77840000
-1.78750000 14.21230000 2.78610000
-1.96200000 14.48930000 2.98360000
-1.91710000 14.39690000 3.04300000
-1.86110000 14.36760000 2.94630000
-2.03130000 14.53760000 2.92810000
-2.01700000 14.46310000 3.01220000
-1.97170000 14.43210000 3.04040000
-2.00110000 14.39160000 3.03900000
-1.94910000 14.35650000 3.06310000
-2.02600000 14.58670000 2.88720000
-2.13560000 14.60620000 2.90330000
-2.07250000 14.47220000 2.92490000
-1.99740000 14.59070000 2.82100000
-2.01640000 14.65330000 2.83570000
-2.06840000 14.62360000 2.88870000
-1.96110000 14.56470000 2.79820000
-1.99510000 14.64410000 2.77060000
-2.05110000 14.67350000 2.86710000
-2.09230000 14.69880000 2.88240000
-1.95680000 14.62040000 2.75830000
-1.96770000 14.67880000 2.78150000
-1.92610000 14.66000000 2.76050000
-2.18890000 14.52170000 2.89900000
-2.11900000 14.44170000 2.87730000
-2.08350000 14.39630000 2.87380000
-2.31300000 14.54340000 2.87490000
-2.28780000 14.46610000 2.89900000
-2.24660000 14.44080000 2.88370000
-2.17700000 14.45610000 2.87520000
-2.15220000 14.43040000 2.83390000
-2.37160000 14.58750000 2.79750000
-2.37380000 14.53310000 2.79570000
-2.33810000 14.50040000 2.87100000
-2.34390000 14.43970000 2.94150000
-2.30150000 14.41330000 2.92930000
-2.42870000 14.62070000 2.72790000
-2.41050000 14.59850000 2.72420000
-2.39760000 14.54670000 2.75010000
-2.40800000 14.50180000 2.78640000
-2.40400000 14.48550000 2.83650000
-2.46140000 14.59490000 2.74580000
-2.44260000 14.57730000 2.72460000
-2.42080000 14.56160000 2.72360000
-2.42890000 14.52650000 2.74240000
-2.45270000 14.54030000 2.76310000
-2.45550000 14.50210000 2.81500000
-2.51520000 14.56980000 2.85150000
-2.49080000 14.47900000 2.87450000
-2.42190000 14.43050000 2.93790000
-2.36270000 14.39100000 2.95930000
-2.55590000 14.58890000 2.87380000
-2.33910000 14.31600000 2.96470000
-2.30720000 14.31350000 2.91060000
-2.60480000 14.55170000 2.88120000
-2.62650000 14.56850000 2.83910000
-2.31830000 14.25430000 2.95200000
