-9.07510000 -34.47570000 5.40840000
-9.16300000 -34.25120000 5.48250000
-9.21820000 -33.90940000 5.96800000
-9.22700000 -33.96800000 5.57140000
-8.91930000 -34.46240000 5.54660000
-9.05530000 -34.15320000 6.06920000
-9.11080000 -34.29260000 5.71110000
-9.22820000 -33.74160000 6.51210000
-8.94780000 -34.03180000 6.38300000
-9.11800000 -33.89400000 6.56000000
-8.47580000 -34.16650000 6.24200000
-8.75610000 -33.77540000 6.84020000
-10.01230000 -27.39940000 3.77300000
-10.26480000 -24.49380000 4.34970000
-10.38140000 -22.61860000 5.33520000
-10.10380000 -25.48360000 6.05190000
-9.82630000 -28.84180000 5.10940000
-9.88910000 -27.78960000 6.10760000
-10.00790000 -26.92330000 5.21120000
-9.66160000 -30.12630000 6.14910000
-6.88150000 -29.51580000 6.48510000
-6.73260000 -30.55270000 5.69480000
-6.95470000 -30.71310000 6.54070000
-6.84880000 -28.27000000 6.55570000
-7.08850000 -28.12900000 7.54090000
-7.11380000 -29.49370000 7.56040000
-7.14720000 -30.66440000 7.51280000
-7.09870000 -31.90870000 6.80940000
-9.30350000 -33.55120000 5.62420000
-9.31880000 -33.39230000 6.47310000
-9.04150000 -33.80180000 6.75230000
-9.23250000 -33.58270000 6.93960000
-9.14950000 -33.71310000 6.86060000
-9.33880000 -33.09160000 7.09340000
-9.12860000 -33.45060000 7.20790000
-9.28970000 -33.09220000 7.46000000
-9.43520000 -32.30140000 6.71770000
-9.62330000 -29.74930000 8.01310000
-9.34790000 -32.50800000 7.75710000
-9.43010000 -31.76430000 7.86470000
-9.54540000 -30.21340000 8.74330000
-10.19760000 -23.95930000 6.87040000
-10.16410000 -23.60200000 8.10320000
-10.42530000 -21.32750000 6.55810000
-7.03010000 -26.16860000 7.26700000
-7.05660000 -26.89940000 7.39490000
-7.31740000 -26.52260000 8.62320000
-7.35820000 -28.07540000 8.95040000
-7.18470000 -25.46450000 7.80230000
-7.27850000 -24.27380000 7.98880000
-7.39320000 -24.91990000 8.73040000
-7.55950000 -25.82110000 9.83240000
-7.60840000 -24.53050000 9.72480000
-9.91390000 -26.74090000 7.57920000
-9.67360000 -28.41330000 9.27100000
-9.78850000 -27.33580000 8.90850000
-9.68140000 -27.43680000 10.11610000
-9.79950000 -26.43760000 9.84510000
-9.95240000 -25.28700000 9.19990000
-9.92320000 -24.78000000 10.27750000
-10.14710000 -22.92840000 9.43300000
-9.76360000 -25.84020000 10.67850000
-9.87150000 -24.72880000 10.85130000
-9.62360000 -25.70870000 11.00510000
-9.77400000 -24.95680000 11.01300000
-7.33420000 -34.41570000 5.22710000
-7.67510000 -34.67150000 5.17970000
-7.81020000 -34.57330000 5.41040000
-7.87180000 -34.36300000 5.83810000
-7.60790000 -34.44540000 5.63690000
-8.20420000 -33.98460000 6.53250000
-7.65430000 -34.13180000 6.21620000
-7.47300000 -34.12500000 6.08170000
-7.85730000 -34.06730000 6.36720000
-7.12050000 -33.11200000 5.98890000
-7.31380000 -32.57040000 7.39240000
-7.38120000 -33.56860000 6.60320000
-7.28140000 -33.91290000 5.81250000
-7.02510000 -33.54260000 5.13670000
-7.03780000 -34.03780000 4.54620000
-6.79550000 -31.78080000 5.50090000
-7.29430000 -31.25030000 8.03310000
-7.30790000 -29.81160000 8.51770000
-7.77160000 -33.64920000 6.96410000
-7.53000000 -33.70690000 6.75490000
-7.97450000 -33.80560000 6.79070000
-8.45550000 -33.56460000 7.15320000
-7.59870000 -33.23950000 7.42020000
-7.44170000 -32.92050000 7.58370000
-8.17930000 -33.29020000 7.47070000
-7.84080000 -32.79160000 7.99360000
-8.97460000 -33.18030000 7.57160000
-8.65660000 -33.20340000 7.58420000
-9.17880000 -32.86840000 7.84510000
-9.42530000 -31.17940000 8.77990000
-9.30690000 -32.40070000 8.10170000
-9.19470000 -32.12620000 8.52530000
-9.32440000 -31.86330000 8.59290000
-8.89840000 -32.63950000 8.14890000
-8.51310000 -32.76980000 8.06610000
-8.91990000 -31.91880000 8.79870000
-8.58760000 -32.25390000 8.55970000
-7.45260000 -32.02260000 8.29600000
-7.59690000 -32.67330000 8.05110000
-7.73670000 -31.90660000 8.77540000
-7.54540000 -32.01310000 8.54260000
-8.03930000 -31.85450000 8.87990000
-8.22610000 -32.49970000 8.33690000
-7.42480000 -31.49740000 8.45580000
-9.31170000 -31.36360000 9.04770000
-9.14540000 -31.48830000 9.08670000
-8.62590000 -31.62600000 9.06930000
-8.95180000 -31.19720000 9.33240000
-9.39680000 -30.57010000 9.50210000
-9.22820000 -30.69110000 9.58060000
-7.44170000 -30.43070000 8.98570000
-7.53710000 -30.95770000 9.10920000
-7.51460000 -28.85990000 9.71960000
-7.52270000 -29.95350000 9.52070000
-7.61490000 -31.37650000 9.06730000
-7.99590000 -30.87730000 9.54180000
-8.32650000 -31.35520000 9.26880000
-7.87610000 -31.35490000 9.23250000
-7.71130000 -30.86260000 9.44640000
-8.34280000 -31.94880000 8.83340000
-8.68390000 -30.79620000 9.60330000
-8.30290000 -30.68000000 9.68040000
-8.92890000 -29.80620000 10.07940000
-8.47540000 -29.98120000 10.02030000
-7.98690000 -29.90770000 10.02780000
-7.65200000 -27.78640000 10.35240000
-7.61090000 -27.43000000 10.20370000
-7.59040000 -26.72640000 10.08640000
-7.73520000 -25.83930000 10.69740000
-7.81600000 -24.08880000 10.60100000
-7.88360000 -25.07410000 11.09720000
-7.78240000 -25.94390000 10.94980000
-7.89590000 -25.97590000 11.07140000
-8.05490000 -25.26030000 11.17850000
-8.27930000 -25.50820000 11.19350000
-7.72020000 -26.73200000 10.72690000
-9.58490000 -29.19780000 9.54680000
-9.50640000 -29.48940000 9.88650000
-9.59700000 -28.22190000 10.20590000
-9.22900000 -29.73280000 10.08400000
-9.37990000 -29.92010000 9.93250000
-9.03170000 -30.47420000 9.75530000
-9.41470000 -28.86750000 10.36760000
-9.15770000 -29.34490000 10.26620000
-9.27550000 -28.93950000 10.40140000
-9.53850000 -28.11420000 10.49320000
-9.05710000 -28.80310000 10.45400000
-9.32790000 -27.98350000 10.67430000
-7.58720000 -30.06630000 9.71910000
-7.63550000 -28.55860000 10.20650000
-7.60110000 -29.30680000 9.97040000
-7.73110000 -28.85010000 10.32710000
-7.69010000 -29.50640000 10.10250000
-7.72750000 -30.13040000 9.86450000
-8.23300000 -29.23340000 10.33140000
-8.62910000 -29.15040000 10.35680000
-7.68260000 -27.97000000 10.44030000
-7.70810000 -28.30650000 10.43810000
-8.16070000 -28.52720000 10.55330000
-7.89700000 -29.09500000 10.34280000
-7.85000000 -28.15120000 10.59170000
-7.77720000 -27.49580000 10.70130000
-7.71030000 -27.40300000 10.60900000
-8.14460000 -27.53670000 10.78020000
-8.73550000 -28.44040000 10.58360000
-8.58730000 -27.80820000 10.74610000
-9.02620000 -27.74160000 10.75340000
-8.25690000 -26.10350000 11.12010000
-8.82680000 -25.83310000 11.13290000
-8.65310000 -26.83950000 10.97240000
-9.21340000 -26.87550000 10.92070000
-8.87290000 -24.61190000 11.21720000
-9.21440000 -25.16190000 11.13890000
-9.31930000 -25.99530000 11.03870000
-9.65460000 -26.96630000 10.65990000
-9.48090000 -27.13580000 10.84370000
-9.61610000 -26.52980000 10.91240000
-9.57280000 -27.27270000 10.77110000
-9.46280000 -26.46650000 10.95830000
-9.47540000 -27.85550000 10.67660000
-9.69540000 -26.14890000 10.90070000
-9.47750000 -25.29880000 11.07930000
-8.03710000 -26.73180000 10.97940000
-7.79510000 -26.80050000 10.88640000
9.72700000 -48.00040000 0.44840000
9.79990000 -45.68550000 0.83990000
9.65500000 -47.92390000 0.83640000
9.45720000 -46.86070000 1.77540000
9.66130000 -45.17070000 1.51910000
9.23520000 -41.63050000 4.00890000
9.35620000 -52.73020000 -1.62370000
9.40970000 -52.44790000 -1.63710000
9.45350000 -51.75880000 -1.47800000
9.31360000 -52.89890000 -1.30890000
9.59100000 -52.61150000 -0.68380000
9.37630000 -52.95190000 -0.63230000
8.86740000 -53.14400000 -0.65200000
9.16550000 -53.08350000 -0.33290000
8.73110000 -53.16740000 0.00180000
9.50200000 -52.81350000 -0.71840000
9.37040000 -52.95110000 0.01910000
9.55840000 -50.78150000 -0.91110000
9.60230000 -52.15020000 -0.79480000
9.66360000 -51.70590000 -0.19610000
9.63430000 -50.09380000 -0.45610000
9.65540000 -50.30220000 -0.05110000
9.65710000 -51.06710000 0.27210000
9.67350000 -52.39560000 -0.13770000
9.59600000 -52.71400000 -0.05440000
9.65320000 -52.46580000 0.34780000
9.65430000 -52.04520000 0.52610000
9.61390000 -50.93620000 0.69150000
5.95310000 -53.23340000 3.46800000
7.09040000 -53.26530000 1.89160000
9.55370000 -52.43460000 0.98660000
9.57370000 -52.63820000 0.57780000
9.00900000 -53.09100000 0.50930000
9.39360000 -52.84310000 0.70800000
9.01680000 -53.02970000 1.25930000
9.11730000 -52.86960000 1.57770000
9.45040000 -52.67080000 1.05050000
9.54440000 -52.03960000 1.07170000
9.34270000 -52.61290000 1.44270000
9.49490000 -50.82600000 1.13900000
9.36080000 -52.14580000 1.65360000
9.30150000 -50.62070000 1.77670000
8.59720000 -53.14850000 1.02150000
8.09680000 -53.21300000 1.09880000
9.11360000 -52.71730000 2.01910000
8.45930000 -53.06940000 2.77540000
8.67770000 -53.10070000 1.64980000
8.30110000 -53.13360000 2.21370000
9.26890000 -52.44890000 1.87730000
9.15720000 -52.52710000 2.29320000
9.20100000 -52.59690000 1.97380000
9.16070000 -52.27170000 2.50620000
8.90830000 -51.43320000 3.60250000
9.12400000 -51.02390000 2.54230000
7.84970000 -53.18890000 2.55140000
8.88120000 -52.12320000 3.73240000
8.71370000 -52.85960000 3.03740000
8.85400000 -52.66640000 3.19560000
8.92920000 -52.46320000 3.33540000
8.01180000 -53.11950000 3.27730000
8.73000000 -52.55200000 3.98510000
8.55820000 -52.70220000 4.28350000
8.23200000 -52.98520000 4.23120000
8.09910000 -53.06660000 3.86320000
2.26770000 -53.00770000 3.80110000
2.74810000 -53.11190000 3.57300000
7.15620000 -53.18770000 3.95820000
7.27310000 -53.07870000 5.29450000
6.42040000 -53.07880000 6.11190000
4.74380000 -53.10510000 5.84910000
7.70810000 -53.04410000 4.92380000
9.64530000 -49.87190000 0.39450000
9.57000000 -49.58950000 0.87560000
9.48400000 -48.48490000 1.31470000
9.33360000 -49.57800000 1.63100000
9.20990000 -48.84310000 2.22830000
8.84440000 -45.23940000 4.63120000
8.86940000 -47.55030000 3.98890000
9.30850000 -44.73900000 2.86650000
9.01490000 -50.22770000 2.90250000
8.80680000 -49.49970000 3.89280000
8.53730000 -48.80280000 5.16670000
8.54590000 -50.81680000 5.11840000
8.70910000 -52.30690000 4.45120000
8.49820000 -49.91790000 5.25250000
8.26930000 -47.49560000 6.71150000
8.27680000 -49.22980000 6.39600000
8.87760000 -42.91430000 5.05190000
8.41210000 -46.32930000 6.33050000
8.20690000 -44.67200000 7.54770000
2.48090000 -52.99200000 5.72200000
3.29470000 -53.10140000 5.12600000
3.33760000 -53.00790000 7.31920000
3.91070000 -52.95740000 8.20510000
1.47570000 -47.75550000 7.88930000
1.51190000 -44.61900000 8.87710000
8.64810000 -52.52790000 4.43520000
8.41250000 -52.52310000 5.34670000
8.59120000 -52.40250000 4.86300000
7.98260000 -52.69650000 6.25510000
8.45950000 -52.14930000 5.61610000
8.14350000 -50.24670000 7.03120000
7.81630000 -44.77360000 9.14580000
7.93230000 -52.88190000 5.68630000
7.73110000 -52.98130000 5.61190000
8.25300000 -51.57880000 6.58610000
8.21890000 -52.23990000 6.55520000
8.05290000 -52.46310000 6.74980000
8.31050000 -52.39120000 6.03410000
8.12700000 -52.00550000 7.08110000
7.80740000 -50.57600000 8.54790000
7.87470000 -51.50740000 8.17390000
8.04200000 -52.26460000 7.18410000
7.92060000 -52.09660000 7.83650000
7.84000000 -52.30040000 7.85510000
7.28910000 -52.95900000 6.57730000
7.57760000 -52.89330000 6.67120000
6.89090000 -52.92640000 7.50010000
7.18610000 -52.85540000 7.73690000
7.82460000 -51.82520000 8.29550000
5.33170000 -52.95370000 8.14280000
6.36290000 -52.92100000 8.10220000
7.55620000 -52.43080000 8.41240000
7.34980000 -52.67860000 8.23940000
6.99490000 -52.75810000 8.73470000
6.74460000 -52.82280000 8.53590000
7.61220000 -51.82040000 9.03010000
7.55420000 -52.16810000 8.94670000
7.68270000 -49.31500000 9.16100000
7.45550000 -51.02250000 9.86140000
7.36450000 -49.87900000 10.42620000
7.57700000 -49.75510000 9.58520000
6.09120000 -52.83210000 9.23290000
7.05030000 -52.54980000 9.46510000
6.74730000 -52.70890000 9.54210000
7.16710000 -52.24520000 9.96330000
7.17530000 -51.87210000 10.44150000
6.94690000 -52.47190000 10.09070000
6.59820000 -52.76730000 9.19400000
6.41310000 -52.75360000 9.68820000
6.48950000 -52.71080000 10.14350000
6.74890000 -52.66450000 10.03660000
7.10070000 -51.18260000 11.03120000
4.94900000 -52.86200000 9.82690000
5.93780000 -52.78680000 10.24690000
6.28770000 -52.72540000 10.59750000
6.74810000 -52.19840000 11.35180000
6.65920000 -52.55560000 10.93190000
6.54320000 -52.67290000 10.63780000
5.81650000 -52.75830000 11.23010000
4.62740000 -52.85030000 11.06740000
6.32650000 -52.69900000 11.01730000
6.35870000 -52.67630000 11.29220000
6.10300000 -52.69020000 11.56560000
6.73180000 -51.85530000 11.79280000
6.41760000 -52.64460000 11.46040000
6.24450000 -52.66280000 11.57990000
7.76430000 -47.93610000 8.90780000
7.40570000 -48.53180000 10.39290000
7.47550000 -45.33150000 10.46140000
7.31670000 -46.96020000 10.91210000
7.29340000 -44.33470000 11.47150000
7.19420000 -45.34450000 11.69660000
7.46480000 -49.35970000 10.07510000
7.09260000 -50.30310000 11.32860000
7.35210000 -49.21950000 10.56620000
7.06820000 -47.93870000 11.77940000
7.23020000 -48.96450000 11.07170000
7.00800000 -46.37320000 12.26480000
6.80050000 -47.30430000 12.81770000
7.00000000 -49.26250000 11.83260000
6.84830000 -51.50860000 11.68770000
6.89100000 -49.83990000 12.09880000
6.72020000 -48.37930000 12.85620000
6.70250000 -49.45140000 12.71670000
6.82170000 -50.31200000 12.18790000
6.70310000 -50.95620000 12.34660000
6.45870000 -47.40180000 13.78700000
6.73910000 -46.15660000 13.24280000
6.53420000 -46.07600000 13.84900000
6.39030000 -48.86590000 13.68520000
6.48160000 -52.53150000 11.63900000
6.23080000 -52.61930000 11.84210000
6.27500000 -52.47990000 12.18370000
6.35400000 -52.08360000 12.54790000
6.46300000 -50.89960000 13.03200000
6.50720000 -51.51200000 12.62340000
6.26000000 -51.13630000 13.36070000
6.51420000 -50.12010000 13.10540000
6.33230000 -50.46720000 13.47360000
6.28320000 -49.72480000 13.76210000
6.10280000 -48.94100000 14.27010000
6.11850000 -50.14640000 13.93650000
5.95850000 -49.23710000 14.38930000
5.88520000 -48.60970000 14.58250000
6.14920000 -48.04780000 14.40780000
5.96290000 -48.33180000 14.58500000
5.73640000 -48.07660000 14.72930000
5.95230000 -48.00000000 14.67830000
6.04940000 -47.62160000 14.66110000
8.67460000 -39.64430000 6.79170000
8.74840000 -34.45880000 7.38500000
8.35980000 -36.06900000 8.55700000
8.29790000 -31.07810000 9.57220000
8.32810000 -34.13880000 9.01290000
8.08600000 -32.09310000 10.48860000
8.08080000 -33.25270000 10.30360000
7.99500000 -28.01590000 10.80460000
7.68580000 -27.47750000 11.95800000
7.54190000 -25.27630000 12.25900000
7.78130000 -28.99510000 11.69320000
7.35790000 -23.81110000 12.68440000
7.30730000 -25.69730000 12.81010000
7.12850000 -24.23670000 13.09240000
6.99680000 -24.87630000 13.24860000
8.76190000 -41.21830000 5.96080000
8.37110000 -38.58620000 8.19610000
8.40050000 -37.52140000 8.18560000
8.25940000 -42.56000000 7.73330000
7.98960000 -41.10080000 9.17580000
7.75680000 -39.62000000 10.47050000
8.03240000 -35.15260000 10.11260000
8.09830000 -37.61400000 9.33290000
7.78330000 -36.85310000 10.98040000
7.64680000 -34.48830000 12.20460000
7.48870000 -38.02930000 12.15170000
7.46680000 -39.73980000 11.81310000
7.51280000 -36.11470000 12.50390000
1.50510000 -42.57020000 11.29840000
1.68620000 -39.56470000 11.70620000
2.10030000 -35.97630000 13.34870000
1.90330000 -37.20110000 12.50420000
1.94140000 -38.58540000 13.57220000
1.69700000 -40.89860000 13.05080000
1.75420000 -41.20090000 13.80830000
1.89600000 -40.23320000 14.15210000
2.16500000 -36.84460000 14.01840000
2.08770000 -38.29020000 14.22800000
2.03850000 -39.65350000 14.44800000
2.19670000 -38.19570000 14.52120000
2.22100000 -40.17970000 14.70310000
2.53100000 -39.77830000 14.81150000
2.45010000 -38.28840000 14.75100000
2.21110000 -39.03490000 14.63280000
2.88750000 -37.44930000 14.86190000
2.37580000 -37.32610000 14.65150000
2.27590000 -36.98510000 14.45130000
7.61390000 -42.80200000 10.32260000
7.44030000 -41.48520000 11.49030000
7.32320000 -40.78720000 12.26200000
7.29970000 -41.64900000 12.18040000
7.38030000 -40.31680000 12.08780000
7.21560000 -41.03480000 12.69070000
7.28290000 -39.50540000 12.71240000
7.27250000 -37.85910000 13.14750000
7.34490000 -36.90430000 13.07660000
7.18190000 -37.08780000 13.60900000
7.05890000 -38.41670000 13.70660000
7.04720000 -40.41150000 13.38180000
6.97820000 -37.07750000 14.12870000
6.87010000 -38.20510000 14.22470000
6.65410000 -38.04090000 14.65450000
6.86700000 -35.56980000 14.56370000
7.41470000 -43.51030000 11.08370000
7.25920000 -42.91160000 12.01490000
7.16120000 -44.12700000 12.13040000
7.11780000 -43.41860000 12.51060000
7.22640000 -41.91270000 12.46180000
7.09760000 -42.24350000 12.86110000
6.97280000 -44.31970000 12.82660000
6.82610000 -42.20800000 13.70230000
6.68300000 -44.55470000 13.71790000
6.54150000 -43.21440000 14.26390000
6.41710000 -42.04490000 14.62920000
6.35550000 -43.22010000 14.62550000
6.35080000 -46.22000000 14.22570000
6.46470000 -44.96470000 14.19030000
6.25400000 -45.19270000 14.55870000
6.13860000 -46.63260000 14.58760000
6.08120000 -45.45290000 14.78920000
5.81920000 -45.66510000 14.94580000
5.84630000 -46.42310000 14.88930000
5.95550000 -46.25080000 14.83930000
5.97970000 -45.72330000 14.86550000
5.27690000 -46.13170000 14.93490000
4.10760000 -45.98680000 14.86170000
5.23020000 -47.23050000 14.83950000
5.74250000 -47.07400000 14.86020000
5.67780000 -46.09730000 14.93960000
5.89600000 -42.79850000 15.12420000
5.73180000 -42.12440000 15.15850000
5.73680000 -43.59060000 15.09250000
5.16570000 -43.14960000 15.09630000
6.37870000 -44.10970000 14.49010000
6.24870000 -43.93390000 14.74410000
6.11300000 -44.56490000 14.85820000
6.13800000 -43.50880000 14.94450000
5.91530000 -44.84820000 14.97420000
5.99330000 -43.64020000 15.03930000
6.24220000 -42.72110000 14.86070000
6.05810000 -42.09120000 15.08570000
5.52080000 -44.96500000 15.01570000
4.82770000 -44.87230000 14.99290000
6.79660000 -39.78800000 14.14450000
6.51600000 -40.38720000 14.63520000
6.37970000 -39.53690000 14.95050000
6.42630000 -38.39340000 14.98580000
6.46240000 -37.14040000 15.05020000
6.09540000 -38.91430000 15.23400000
6.29730000 -38.61080000 15.13040000
6.22500000 -37.20920000 15.23760000
6.02260000 -37.93150000 15.27290000
5.76280000 -38.92820000 15.25070000
5.84040000 -36.60550000 15.27160000
4.96100000 -38.65750000 15.19990000
3.71230000 -40.72450000 15.01480000
2.66320000 -41.48410000 14.82920000
3.01120000 -42.88060000 14.85830000
3.78510000 -37.29380000 15.04720000
3.04940000 -39.43620000 14.92490000
3.29530000 -35.61090000 14.94440000
6.61990000 -41.47640000 14.30830000
6.29030000 -41.20580000 14.92270000
6.17930000 -40.17540000 15.12990000
5.90560000 -40.51380000 15.20240000
5.41840000 -40.88650000 15.19190000
4.68860000 -41.49950000 15.12340000
3.98640000 -43.53390000 14.97000000
7.82900000 -30.74280000 11.63530000
7.60020000 -29.65040000 12.53700000
7.74540000 -32.62180000 11.96170000
7.50390000 -33.01340000 13.12070000
7.52480000 -31.15290000 12.98430000
7.26800000 -30.87070000 13.80800000
7.33560000 -32.38750000 13.74050000
7.48430000 -35.04490000 12.90840000
7.45660000 -34.29440000 13.18350000
7.33570000 -33.82040000 13.66050000
7.13870000 -33.76000000 14.19090000
7.18290000 -31.99000000 14.13980000
7.00010000 -32.16450000 14.52760000
6.93030000 -33.83100000 14.64120000
7.09550000 -30.99640000 14.23180000
6.94420000 -30.63270000 14.48530000
6.76360000 -31.01760000 14.84370000
6.61530000 -31.84090000 15.10570000
6.45080000 -31.13970000 15.14520000
6.36980000 -31.81650000 15.21150000
6.54820000 -32.52790000 15.20250000
5.88120000 -31.67280000 15.24010000
5.03130000 -31.05370000 15.17730000
5.11770000 -34.11050000 15.21370000
6.01130000 -32.97740000 15.27520000
6.20340000 -32.33500000 15.26290000
7.46720000 -28.37760000 12.75100000
7.36780000 -27.02840000 12.77150000
7.17940000 -27.68170000 13.35150000
7.22430000 -28.46270000 13.46250000
7.11880000 -26.26760000 13.15660000
6.86980000 -25.29370000 13.36370000
6.58430000 -25.06300000 13.49860000
6.84760000 -25.78750000 13.40700000
6.48190000 -26.55070000 13.66010000
6.50600000 -25.97800000 13.55160000
6.11380000 -25.93540000 13.62520000
5.67490000 -24.59150000 13.63540000
5.27620000 -25.90470000 13.67080000
6.75880000 -26.03930000 13.47740000
6.24520000 -24.98720000 13.57520000
5.91920000 -26.34790000 13.71080000
4.96590000 -26.32100000 13.75310000
6.04290000 -26.75820000 13.82070000
5.00550000 -26.66490000 13.87490000
5.65260000 -26.95400000 13.97160000
7.07910000 -26.94950000 13.34060000
6.93650000 -26.44300000 13.41340000
6.82560000 -26.78480000 13.60970000
6.92880000 -27.34490000 13.74870000
6.63030000 -27.20330000 13.92390000
6.71090000 -26.39080000 13.54670000
6.97530000 -28.22910000 13.95780000
6.24580000 -27.15730000 14.00750000
5.82390000 -27.42060000 14.23710000
6.77260000 -27.67490000 14.09600000
6.53080000 -27.74940000 14.25360000
6.34330000 -27.47270000 14.16180000
6.12750000 -27.87700000 14.43070000
4.50640000 -28.78690000 14.91780000
3.82720000 -29.30670000 14.94710000
4.84540000 -29.66200000 15.11070000
4.23630000 -30.26250000 15.06220000
4.21660000 -26.58340000 13.84050000
3.76980000 -27.00280000 13.94940000
4.15960000 -27.25450000 14.19010000
4.87170000 -27.23480000 14.18920000
3.37140000 -27.41640000 14.05240000
3.25930000 -27.92390000 14.27650000
3.01920000 -28.22310000 14.31400000
3.69620000 -27.87910000 14.43020000
4.20300000 -28.10690000 14.62740000
3.55130000 -28.64580000 14.76750000
3.21510000 -28.39080000 14.51930000
5.38380000 -28.05640000 14.62760000
5.36190000 -28.69470000 14.91520000
5.25660000 -29.20680000 15.07500000
7.33800000 -29.48690000 13.36950000
7.04720000 -29.62630000 14.11090000
7.14900000 -28.86710000 13.74810000
6.79140000 -28.77720000 14.44230000
6.79360000 -29.72090000 14.62260000
6.63380000 -29.07620000 14.73470000
6.68480000 -28.13540000 14.36010000
6.58920000 -28.57810000 14.62220000
6.36800000 -28.33900000 14.60080000
5.93200000 -28.46890000 14.76010000
5.88380000 -29.11680000 15.00360000
6.53370000 -29.81160000 14.94440000
6.36350000 -29.01620000 14.87040000
6.16650000 -28.75590000 14.84430000
6.20950000 -29.72510000 15.07360000
5.69520000 -30.05730000 15.16680000
6.24350000 -30.62780000 15.15610000
6.50780000 -30.66470000 15.07080000
6.37590000 -30.10480000 15.07570000
2.12660000 -33.77510000 12.73450000
2.33410000 -31.68840000 13.55560000
2.26500000 -34.08230000 13.71530000
2.49020000 -31.45630000 14.23970000
2.44290000 -30.44390000 13.89440000
2.41280000 -33.10220000 14.20690000
2.63790000 -31.63150000 14.57600000
2.52430000 -32.66640000 14.46850000
2.59960000 -32.87010000 14.61800000
2.91330000 -30.91820000 14.75320000
2.73320000 -32.27400000 14.70750000
2.95720000 -32.58410000 14.80220000
2.25700000 -35.58680000 14.01960000
3.86620000 -34.41940000 15.05290000
4.09930000 -31.98040000 15.06660000
2.95290000 -34.85070000 14.82710000
3.37170000 -33.19350000 14.93370000
2.46400000 -36.11190000 14.62560000
2.38220000 -35.68560000 14.43160000
2.39320000 -34.56860000 14.31160000
2.73050000 -34.31970000 14.73640000
2.53890000 -34.49300000 14.59900000
2.57190000 -35.19900000 14.66370000
2.63460000 -36.09260000 14.74350000
2.51000000 -33.68280000 14.52480000
2.66030000 -33.42700000 14.68860000
2.55470000 -29.94100000 14.21000000
2.49960000 -29.07130000 13.94290000
2.58570000 -28.98500000 14.24990000
2.73310000 -29.33450000 14.54620000
2.99760000 -29.37950000 14.74860000
3.01790000 -28.95200000 14.66240000
2.87860000 -29.85690000 14.71380000
2.70220000 -30.32550000 14.57920000
3.20300000 -29.80000000 14.83000000
3.31490000 -29.13740000 14.83490000
3.44150000 -30.74350000 14.91340000
2.59410000 -30.82880000 14.44040000
2.79310000 -28.20310000 14.16180000
2.63490000 -28.51670000 14.19040000
2.81550000 -28.66760000 14.42460000
2.96380000 -28.72420000 14.54930000
7.25990000 -35.54830000 13.59710000
6.73340000 -35.23910000 14.86940000
6.71140000 -35.70070000 14.86140000
6.73030000 -34.27650000 14.94970000
6.55690000 -34.64780000 15.16400000
6.61310000 -35.54640000 15.02110000
6.42860000 -35.70390000 15.20610000
6.08450000 -34.31910000 15.27760000
6.23890000 -35.55220000 15.27440000
6.40840000 -34.44550000 15.25730000
6.65490000 -36.39740000 14.86310000
6.81410000 -32.75700000 14.89730000
6.64580000 -33.11400000 15.13050000
6.56440000 -33.87080000 15.18840000
6.39100000 -33.14690000 15.24990000
5.97880000 -47.00830000 14.78010000
5.90290000 -47.62190000 14.77990000
1.88780000 -52.86710000 4.16050000
1.61630000 -52.54040000 4.98000000
1.70910000 -52.72110000 5.14280000
1.83330000 -52.79850000 6.02630000
2.11750000 -52.91430000 5.29930000
1.46740000 -50.04750000 6.49760000
1.56880000 -52.27370000 5.82800000
1.64050000 -52.58350000 6.49600000
1.47760000 -51.28250000 7.73060000
2.45770000 -52.93730000 7.95250000
2.07330000 -52.88700000 7.00440000
1.78520000 -52.81450000 7.73210000
1.68870000 -52.73120000 7.28460000
1.54470000 -52.25630000 7.64240000
1.44830000 -49.65010000 8.12670000
1.60350000 -52.62340000 7.76800000
1.68760000 -52.78710000 8.90470000
1.62390000 -52.70220000 8.41650000
1.89640000 -52.85710000 8.94380000
1.56760000 -52.57520000 8.39600000
1.48580000 -51.87520000 8.89800000
1.52590000 -52.37860000 9.12520000
1.42670000 -50.44290000 9.15670000
1.42650000 -51.65440000 9.81160000
1.39530000 -47.87510000 9.60120000
1.31790000 -49.00560000 10.62990000
1.34540000 -50.56350000 10.32850000
1.37480000 -45.98690000 10.89340000
3.36140000 -52.89590000 9.33020000
4.15400000 -52.89440000 9.22430000
2.74970000 -52.90750000 9.33680000
3.34860000 -52.86840000 10.50350000
1.64670000 -52.75930000 9.96930000
1.57220000 -52.61960000 9.50100000
1.49640000 -52.51220000 10.51860000
1.44960000 -52.22330000 10.20990000
2.15920000 -52.88210000 9.86310000
1.54900000 -52.67460000 10.91850000
1.80720000 -52.83790000 10.32950000
1.33250000 -51.44170000 10.97550000
1.64410000 -52.78960000 10.63610000
2.47720000 -52.87490000 10.64160000
2.06280000 -52.84320000 10.91670000
1.97600000 -52.76120000 11.59760000
2.74260000 -52.81930000 11.50780000
1.38710000 -52.11100000 11.19340000
1.42910000 -52.37620000 11.54820000
1.68500000 -52.76780000 11.17010000
1.60900000 -52.64140000 11.85780000
1.51080000 -52.61540000 11.57590000
2.44980000 -52.72120000 11.92440000
1.89990000 -52.61980000 12.09610000
4.59930000 -52.81210000 11.72580000
3.69660000 -52.76190000 12.04840000
5.60410000 -52.69270000 11.94140000
5.04000000 -52.56160000 12.54210000
5.05360000 -52.69600000 12.17410000
5.58840000 -52.60070000 12.29990000
4.09080000 -52.67540000 12.36370000
3.46880000 -52.49580000 12.66860000
2.39720000 -52.58650000 12.28540000
3.04500000 -52.64490000 12.27220000
1.27200000 -50.17070000 11.23080000
1.31310000 -51.71280000 11.64630000
1.31850000 -51.86000000 11.96820000
1.24730000 -50.79150000 12.05760000
1.59400000 -52.45740000 12.33160000
1.44050000 -52.44050000 12.07930000
1.24410000 -48.74320000 11.82750000
1.33830000 -52.07810000 12.28460000
1.29780000 -51.77590000 12.74460000
1.25400000 -51.35460000 12.62680000
1.39810000 -52.20830000 12.51090000
1.21320000 -49.21270000 12.75190000
1.21500000 -50.60120000 12.71400000
1.21790000 -50.23260000 13.13780000
1.22590000 -48.98360000 13.34040000
1.29870000 -46.55200000 12.30680000
1.26960000 -47.45410000 13.25310000
1.30210000 -48.95790000 13.86440000
1.24030000 -49.31390000 13.55820000
1.24540000 -50.03760000 13.55080000
1.29630000 -48.08920000 13.79970000
4.86920000 -51.99280000 13.33600000
4.08620000 -51.93530000 13.38120000
3.63410000 -52.24750000 13.03840000
5.06120000 -52.34740000 12.91140000
4.50170000 -51.55460000 13.67140000
3.18000000 -51.34790000 13.68880000
2.94950000 -51.83950000 13.32230000
4.40460000 -50.91410000 13.99900000
3.21260000 -50.87110000 13.93760000
5.12230000 -48.28120000 14.68820000
3.71950000 -48.68020000 14.53990000
4.89020000 -49.20280000 14.50450000
3.59530000 -49.72750000 14.32500000
2.95880000 -49.38310000 14.33680000
2.09120000 -52.42620000 12.52150000
2.35550000 -52.14560000 12.93520000
2.88460000 -52.09410000 13.10690000
2.02320000 -51.41060000 13.44920000
2.07100000 -51.82630000 13.17190000
2.59790000 -50.48150000 13.98380000
2.44940000 -51.05870000 13.73510000
1.95010000 -50.88370000 13.72030000
1.65160000 -52.21150000 12.70060000
1.35920000 -51.52740000 13.11320000
1.40620000 -51.95570000 12.82650000
1.65890000 -51.80710000 13.07510000
1.25530000 -51.02810000 13.18380000
1.36550000 -50.98450000 13.46370000
1.52130000 -51.33260000 13.37020000
1.78070000 -50.25030000 13.90190000
1.59650000 -50.91300000 13.62230000
1.42330000 -50.38170000 13.74970000
1.63210000 -47.87460000 14.29680000
1.85280000 -49.19030000 14.16750000
2.12000000 -47.96210000 14.41610000
2.51300000 -48.93010000 14.34350000
2.39600000 -49.77800000 14.15480000
1.50370000 -49.46870000 14.00720000
1.32490000 -49.74840000 13.82290000
1.28720000 -50.50600000 13.57940000
1.40980000 -48.78420000 14.06350000
3.73260000 -50.42130000 14.15550000
5.95190000 -52.59660000 12.15390000
6.04860000 -52.49110000 12.38610000
5.78000000 -52.46980000 12.54060000
6.07550000 -52.30560000 12.73410000
5.95070000 -52.35730000 12.69510000
5.80770000 -52.18620000 12.98350000
5.52550000 -51.99560000 13.23710000
6.24040000 -51.73680000 13.09370000
6.05360000 -51.53920000 13.43950000
6.06480000 -51.96930000 13.12720000
5.83410000 -51.75960000 13.38070000
5.49540000 -51.60590000 13.54770000
6.04510000 -51.00410000 13.72000000
5.80810000 -51.22320000 13.72820000
5.89990000 -50.52120000 14.01710000
5.66210000 -50.69900000 14.00980000
5.71140000 -49.95880000 14.27360000
5.37460000 -51.15370000 13.83600000
5.31180000 -50.49660000 14.12820000
5.66530000 -49.03730000 14.53300000
5.37560000 -49.77670000 14.35730000
4.71940000 -50.09430000 14.28660000
5.93500000 -49.83070000 14.25080000
5.86060000 -49.41820000 14.41680000
1.44530000 -44.20940000 12.83770000
2.04120000 -40.53120000 14.57950000
1.57790000 -43.61740000 13.84280000
1.50740000 -45.17340000 14.14650000
1.61690000 -44.99430000 14.36990000
1.62640000 -44.15320000 14.25710000
1.74540000 -42.18080000 14.20230000
1.78580000 -43.65780000 14.47480000
1.69250000 -43.28820000 14.27690000
2.29680000 -43.63620000 14.70390000
2.70340000 -45.08630000 14.72900000
2.00930000 -45.30010000 14.59620000
1.83790000 -44.73470000 14.53940000
1.99890000 -43.45340000 14.62450000
1.93430000 -42.85030000 14.59790000
2.15910000 -42.47260000 14.69420000
1.38080000 -46.28210000 13.83670000
1.74020000 -46.18360000 14.48520000
1.55860000 -46.41420000 14.35990000
1.98370000 -46.63350000 14.52460000
1.41860000 -47.84570000 14.15150000
1.39760000 -47.10260000 14.14370000
1.46340000 -46.13230000 14.22420000
2.78440000 -46.86880000 14.64180000
2.92940000 -47.90800000 14.55640000
4.09620000 -47.43760000 14.74630000
1.88680000 -41.34230000 14.43580000
2.00880000 -41.74250000 14.61760000
2.26220000 -41.24360000 14.73670000
1.81420000 -42.61720000 14.46120000
-5.17870000 24.33760000 -5.78040000
-5.35180000 27.83690000 -5.32720000
-4.78930000 25.81740000 -5.54940000
-6.25200000 27.73670000 -5.40310000
-5.75790000 29.54630000 -5.08760000
-4.80970000 27.76590000 -5.24770000
-4.37200000 25.59510000 -5.49580000
-4.02810000 26.15300000 -5.27060000
-4.02480000 28.78550000 -4.69290000
-3.32540000 25.74860000 -4.99860000
-5.16670000 29.57770000 -5.00470000
-6.31640000 17.29200000 -6.26950000
-5.79530000 15.79420000 -6.15200000
-7.49630000 20.16550000 -5.97080000
-7.30150000 20.00130000 -6.17870000
-8.22840000 21.90670000 -5.57950000
-6.63430000 17.82910000 -5.86890000
-8.17980000 23.13090000 -5.99840000
-8.01990000 24.11260000 -5.93730000
-7.28700000 21.07140000 -6.19340000
-8.21410000 22.31090000 -5.96460000
-8.52800000 22.81910000 -5.75830000
-7.49650000 20.91740000 -6.17020000
-6.48780000 20.02320000 -6.30720000
-6.12880000 21.95320000 -6.11850000
-8.75790000 24.09660000 -5.87180000
-6.77260000 17.90160000 -3.79550000
-8.75080000 23.13440000 -4.99140000
-6.65400000 17.73280000 -5.42250000
-9.82580000 29.58390000 -5.36690000
-8.59600000 30.96770000 -5.14550000
-7.54790000 26.67850000 -5.62540000
-6.91090000 30.21380000 -5.08470000
-9.58060000 26.89520000 -5.62120000
-10.90120000 29.65570000 -5.19710000
-10.86510000 29.96180000 -5.25590000
-9.96530000 27.19380000 -5.53600000
-10.18360000 27.45090000 -5.39260000
-10.22160000 27.35750000 -5.22900000
-11.17430000 30.14250000 -4.89550000
-9.16850000 24.73550000 -5.71870000
-9.35150000 24.99440000 -5.53250000
-9.53410000 25.33930000 -5.26700000
-9.86520000 26.11810000 -4.95630000
-10.53630000 28.06070000 -4.86750000
-10.34220000 27.33720000 -4.48150000
-9.47950000 24.90320000 -3.64990000
-8.70270000 22.93160000 -1.51450000
-6.58030000 17.51220000 -0.62800000
-9.81360000 25.87930000 -1.58170000
1.17600000 -4.66080000 -11.47690000
0.98120000 -4.89780000 -11.42810000
0.96900000 -4.64490000 -11.38060000
0.83220000 -4.75340000 -11.31450000
0.85860000 -4.50220000 -11.21320000
1.03840000 -4.38820000 -11.28620000
1.37990000 -4.33370000 -11.42960000
1.22210000 -4.15020000 -11.18250000
1.79420000 5.45250000 -7.55120000
1.09490000 7.01370000 -7.38050000
2.23260000 5.83470000 -7.49450000
1.45080000 7.71150000 -7.28010000
-0.05990000 9.15300000 -7.14530000
1.87910000 8.84470000 -6.92560000
2.92860000 7.25810000 -6.95110000
2.66770000 6.63150000 -7.26030000
2.38090000 6.39070000 -7.39190000
1.93530000 7.78720000 -7.18960000
-0.47430000 1.32970000 -7.00030000
-0.87870000 2.51490000 -6.84370000
-0.70870000 2.35720000 -6.99150000
-3.20700000 10.85760000 -6.84050000
-1.90430000 8.63830000 -7.04770000
-1.40170000 6.14260000 -7.07230000
-2.54550000 7.84400000 -6.80620000
-1.60260000 5.69120000 -6.97300000
-1.30080000 4.22620000 -6.92280000
-2.34310000 6.86170000 -6.68150000
-3.66120000 10.55200000 -6.58670000
-0.31240000 6.36330000 -7.33680000
-0.12470000 4.86860000 -7.34590000
0.16890000 7.34900000 -7.33420000
1.57750000 3.72050000 -7.67860000
-0.30110000 7.16130000 -7.32180000
2.39730000 3.79380000 -7.76360000
0.88890000 2.97750000 -7.54500000
-0.02450000 3.25170000 -7.30570000
-0.42020000 2.33700000 -7.11770000
-1.46960000 4.23940000 -6.68880000
-0.63790000 1.39780000 -6.74530000
-1.05200000 2.72360000 -6.52440000
-1.63800000 4.44770000 -6.34370000
-2.59610000 7.13390000 -6.16330000
-2.29490000 6.46240000 -6.49000000
-0.76950000 1.41990000 -6.24110000
-1.19390000 2.76560000 -5.92170000
-1.81310000 4.65800000 -5.73580000
-2.68570000 7.18790000 -5.27250000
-1.86060000 4.68660000 -4.54330000
-2.38410000 6.32890000 -2.86000000
5.54400000 -5.04730000 -11.56250000
5.42690000 -5.77270000 -11.76050000
5.28390000 -4.94630000 -11.72440000
5.24870000 -5.76500000 -11.82250000
4.99770000 -5.25670000 -11.84310000
5.02680000 -7.63890000 -11.84490000
4.10890000 -6.86430000 -11.84740000
4.98080000 -6.22550000 -11.86650000
4.49920000 -5.45100000 -11.86730000
5.50210000 -9.14310000 -11.79430000
4.61930000 -9.46750000 -11.85430000
5.36550000 -7.97630000 -11.81520000
5.80560000 -9.34090000 -11.71370000
6.01760000 -10.39610000 -11.66000000
6.13000000 -9.60450000 -11.45570000
5.96010000 -9.38940000 -11.61290000
5.70740000 -7.73270000 -11.70340000
5.92550000 -8.27370000 -11.56230000
5.41380000 -7.04530000 -11.79930000
6.12720000 -7.84690000 -11.21760000
5.59290000 -6.37220000 -11.70020000
5.79550000 -6.40040000 -11.50890000
5.80140000 -5.11420000 -11.25650000
6.03740000 -5.82940000 -11.00640000
4.42360000 -4.65270000 -11.81160000
4.98780000 -4.59190000 -11.75230000
4.75890000 -4.23710000 -11.71480000
5.16960000 -4.22770000 -11.59860000
5.35990000 -4.44430000 -11.57420000
5.48410000 -4.04520000 -11.30330000
4.77520000 -3.98260000 -11.59950000
5.19620000 -3.84200000 -11.36870000
5.44080000 -3.62010000 -11.04190000
5.76180000 -3.66940000 -10.75670000
5.60410000 -3.44620000 -10.74790000
5.35720000 -3.36130000 -10.76650000
4.76450000 -3.73970000 -11.41970000
5.14150000 -3.61800000 -11.19460000
4.86520000 -3.51210000 -11.15100000
4.94440000 -2.92180000 -10.04100000
5.35110000 -3.09990000 -10.34970000
4.60510000 -3.28610000 -10.77930000
3.37920000 -5.11040000 -11.81040000
3.29840000 -4.41080000 -11.74630000
4.24510000 -4.18780000 -11.72530000
3.62280000 -4.08630000 -11.65900000
4.14740000 -3.87230000 -11.55660000
3.00980000 -4.01060000 -11.54210000
4.24620000 -3.60110000 -11.28060000
3.31600000 -3.80470000 -11.39480000
3.28670000 -3.61740000 -11.13520000
3.44770000 -3.36420000 -10.72170000
4.17670000 -3.03880000 -10.22420000
2.72510000 -3.27290000 -10.24120000
5.72320000 -4.36960000 -11.15700000
6.07440000 -4.24940000 -10.52650000
6.40390000 -4.73710000 -9.96230000
5.83440000 -3.21750000 -10.28230000
5.69080000 -3.10960000 -10.23830000
6.38110000 -3.50760000 -9.68480000
6.21710000 -3.20770000 -9.82510000
5.91240000 -2.98630000 -9.94100000
5.69530000 -2.82330000 -9.78320000
6.14610000 -2.71830000 -9.51790000
5.98270000 -2.52140000 -9.37450000
5.66330000 -2.54230000 -9.40680000
5.69440000 -2.28900000 -9.17480000
6.15590000 -2.18170000 -9.12630000
5.07470000 -2.63660000 -9.48100000
5.19780000 -2.41530000 -9.20590000
5.73610000 -1.90410000 -8.96990000
6.22000000 -1.54250000 -8.84760000
5.78650000 -1.38370000 -8.79140000
4.43350000 -2.18620000 -8.82590000
4.85850000 -1.80680000 -8.75950000
4.92700000 -0.94790000 -8.59180000
4.16610000 -2.69500000 -9.43550000
4.26660000 -2.39810000 -8.98450000
3.49040000 -1.51320000 -8.39790000
3.26210000 -2.62930000 -8.98540000
6.54380000 -2.20540000 -8.93940000
6.35930000 -2.29690000 -9.09880000
6.69110000 -3.27150000 -8.96140000
7.25080000 -4.62210000 -7.89360000
7.31140000 -9.69030000 -8.67350000
6.48340000 -1.58880000 -8.77130000
6.78650000 -0.38120000 -8.22470000
6.66060000 -0.50830000 -8.37670000
7.02030000 -0.47050000 -7.83380000
3.25370000 -9.08410000 -11.80060000
2.13850000 -8.43290000 -11.67430000
2.67020000 -6.72610000 -11.76320000
1.70730000 -6.37980000 -11.65100000
1.66290000 -7.66860000 -11.57770000
1.36550000 -6.29550000 -11.55350000
1.74800000 -9.19430000 -11.55030000
1.48930000 -8.40150000 -11.48520000
1.53800000 -9.42360000 -11.45480000
1.41680000 -8.89000000 -11.42490000
1.32530000 -9.09000000 -11.32170000
1.29040000 -7.95050000 -11.41010000
1.49370000 -10.14830000 -11.39940000
1.36230000 -10.07190000 -11.14670000
1.43950000 -10.71550000 -11.23200000
1.20620000 -9.24150000 -10.74540000
1.12710000 -8.31970000 -11.04680000
1.38970000 -7.28270000 -11.50060000
1.14410000 -6.59520000 -11.43170000
1.08910000 -7.51510000 -11.26390000
0.95790000 -5.68650000 -11.40180000
1.04990000 -5.43550000 -11.46320000
0.94190000 -6.28360000 -11.31250000
0.88940000 -6.81190000 -10.91960000
0.91900000 -6.67320000 -11.16140000
0.92080000 -7.48510000 -10.20140000
5.25040000 -10.49500000 -11.86690000
1.10540000 -9.18800000 -9.43670000
0.71890000 -6.55650000 -8.57190000
2.54250000 -4.76370000 -11.73800000
1.79120000 -4.60000000 -11.62020000
2.66640000 -4.26850000 -11.64680000
2.02960000 -4.23520000 -11.53250000
2.01320000 -4.01270000 -11.33060000
2.15760000 -3.58170000 -10.70070000
1.97670000 -5.28930000 -11.70300000
1.28920000 -5.18200000 -11.56250000
1.99010000 -3.81760000 -11.07850000
1.34460000 -3.89110000 -10.87080000
0.78940000 -4.32570000 -10.88290000
0.98710000 -4.18290000 -10.99540000
0.94380000 -3.92160000 -10.47190000
1.55520000 -3.50650000 -10.12720000
2.79100000 -3.00940000 -9.61200000
2.44350000 -2.73460000 -8.86600000
2.29310000 -2.88320000 -9.11280000
1.78570000 -2.81210000 -8.76960000
2.40080000 -2.59790000 -8.63060000
3.42620000 -2.42550000 -8.73360000
1.56150000 -2.37930000 -8.16500000
3.15450000 -2.11670000 -8.45230000
2.59750000 -2.39270000 -8.45800000
1.63600000 -2.61780000 -8.41140000
1.77580000 -1.95650000 -8.06890000
0.78590000 -5.74170000 -11.14250000
0.80870000 -5.13280000 -11.30170000
0.66830000 -4.79570000 -10.89520000
0.74040000 -4.67300000 -11.15010000
0.69180000 -5.43120000 -10.83860000
0.67420000 -5.75400000 -10.19730000
0.56920000 -4.80250000 -10.07770000
0.66470000 -4.29710000 -10.56000000
0.74910000 -4.07230000 -10.45230000
0.55120000 -4.21960000 -9.88070000
0.64790000 -4.01400000 -10.08330000
0.77740000 -3.86530000 -10.10350000
0.72160000 -3.74960000 -9.73380000
0.52290000 -4.96280000 -9.01340000
0.95070000 -3.61670000 -9.79900000
0.80350000 -3.45680000 -9.24040000
1.39670000 -3.16980000 -9.21540000
0.86990000 -3.14450000 -8.75520000
0.59740000 -3.69410000 -9.29410000
0.43940000 -4.18240000 -8.81120000
0.44230000 -3.54350000 -8.60600000
0.54180000 -3.38420000 -8.63540000
0.65760000 -3.26730000 -8.68180000
1.14280000 -2.88350000 -8.55540000
1.06790000 -2.67370000 -8.22230000
0.51090000 -2.92670000 -8.12140000
0.77330000 -2.90890000 -8.32740000
0.87750000 -2.12790000 -7.85650000
0.78490000 -2.57250000 -8.01400000
0.48920000 -2.27700000 -7.75100000
0.27830000 -3.35480000 -7.76600000
0.39930000 -4.53400000 -7.45060000
0.28270000 -2.81760000 -7.78260000
0.11900000 -2.08990000 -7.41640000
0.27460000 -2.30000000 -7.63130000
0.22160000 -1.53330000 -7.44680000
0.07990000 -2.71120000 -6.53140000
1.64800000 -1.42550000 -7.93280000
1.06780000 -9.26510000 -7.57460000
0.75350000 -7.16520000 -6.34780000
0.39380000 -4.82320000 -4.99550000
7.54970000 -0.14900000 -6.63090000
8.25660000 -1.40050000 -5.05990000
8.38670000 -4.59540000 -5.16000000
8.73230000 -7.85610000 -4.93590000
5.96510000 2.31500000 -8.13210000
4.95350000 3.31990000 -7.97230000
6.05550000 3.43320000 -7.93520000
5.35490000 1.38840000 -8.27830000
4.01230000 3.03570000 -7.97180000
4.24480000 1.87090000 -8.12810000
3.05720000 1.79430000 -7.99180000
2.73930000 4.46270000 -7.69860000
3.41580000 0.32080000 -8.17570000
4.71860000 0.34560000 -8.37360000
6.46700000 -0.50700000 -8.49420000
6.19170000 -0.88350000 -8.65490000
6.26400000 0.13290000 -8.43110000
6.51340000 0.79490000 -8.22890000
6.34530000 1.60240000 -8.16410000
6.72250000 0.97130000 -8.04820000
6.96530000 2.00450000 -7.53790000
6.41320000 3.42210000 -7.83940000
6.24780000 3.88810000 -7.77740000
6.50980000 3.87490000 -7.66490000
6.69900000 2.91280000 -7.73720000
6.51250000 2.64250000 -7.94080000
6.30070000 2.82480000 -7.99180000
6.02940000 0.94080000 -8.34250000
6.61100000 1.89950000 -7.99590000
7.45750000 2.29810000 -6.55730000
5.76700000 -0.34570000 -8.56600000
2.36340000 -0.67080000 -8.02380000
6.21380000 4.37230000 -7.60730000
5.65040000 4.77430000 -7.53200000
6.10140000 4.84310000 -7.40690000
6.38270000 4.77840000 -7.36130000
5.63880000 5.11140000 -7.28700000
5.80360000 3.99050000 -7.83220000
5.86380000 4.38850000 -7.70310000
4.89750000 4.06760000 -7.82470000
5.20460000 4.45200000 -7.71140000
5.07460000 4.94380000 -7.47650000
4.65750000 4.75160000 -7.60580000
4.70110000 5.18610000 -7.15100000
5.27840000 5.33070000 -6.89460000
5.48090000 5.26180000 -7.08690000
4.88660000 5.10270000 -7.31500000
4.75070000 5.29220000 -6.90420000
5.99080000 5.43330000 -6.70040000
6.04720000 5.30190000 -7.01560000
5.12230000 5.39750000 -6.63040000
5.57770000 5.49220000 -6.47790000
5.39450000 5.56140000 -6.13930000
5.75880000 5.62040000 -5.87920000
5.10330000 5.49930000 -6.38480000
4.84280000 5.41390000 -6.62450000
5.03680000 5.64500000 -6.22650000
5.30040000 5.63600000 -6.04470000
4.76710000 7.21400000 -5.57580000
5.06850000 6.18000000 -5.84720000
4.29160000 7.26130000 -6.02590000
4.59600000 5.77730000 -6.47240000
4.04310000 6.10220000 -6.72370000
3.71620000 7.55330000 -6.35320000
3.97270000 9.09760000 -5.42590000
3.70480000 4.50700000 -7.69410000
3.60750000 4.97170000 -7.53230000
3.96430000 5.04570000 -7.42280000
4.56180000 4.95820000 -7.46250000
4.32080000 5.07180000 -7.33500000
4.04720000 5.42960000 -7.06660000
4.24600000 5.21610000 -7.16850000
3.66740000 5.38730000 -7.28410000
3.29810000 5.60130000 -7.33560000
3.61180000 6.22650000 -6.94620000
2.99250000 5.18750000 -7.53400000
4.50690000 5.42370000 -6.79350000
2.84520000 9.26320000 -6.30440000
2.96820000 10.45990000 -5.74510000
6.58060000 4.54890000 -7.36080000
6.85130000 3.83920000 -7.31750000
6.92180000 4.56400000 -6.94760000
7.15270000 3.42810000 -6.94490000
7.50980000 3.55880000 -6.21170000
7.25260000 4.23390000 -6.50900000
6.88260000 4.97710000 -6.77690000
7.36670000 4.73840000 -5.96840000
6.46900000 5.01220000 -7.19380000
6.63820000 5.05330000 -7.04010000
6.44550000 5.31800000 -6.87860000
6.23350000 5.13440000 -7.17380000
6.74430000 5.21570000 -6.75790000
6.31050000 5.44880000 -6.60950000
6.55360000 5.49080000 -6.39790000
6.34860000 5.54450000 -6.29730000
6.96280000 5.35650000 -6.22350000
6.69560000 5.41000000 -6.51980000
6.94670000 5.54660000 -5.85900000
7.30020000 5.22710000 -5.70780000
6.16920000 5.60520000 -6.05440000
8.03880000 3.40710000 -5.06370000
8.05120000 4.28860000 -4.76540000
7.38050000 5.53440000 -5.20180000
6.65620000 5.60150000 -5.89130000
6.98170000 5.63950000 -5.39630000
6.70900000 5.68640000 -5.34730000
6.30100000 5.69170000 -5.43670000
5.35750000 5.91650000 -5.69520000
5.57320000 5.82230000 -5.50440000
5.46040000 6.44480000 -5.16580000
4.77740000 8.11350000 -5.00310000
6.13320000 5.69620000 -5.25390000
5.69280000 5.69710000 -5.54690000
5.99190000 5.72730000 -5.13450000
5.89230000 5.89460000 -4.94910000
7.41480000 5.69250000 -4.73650000
7.15520000 5.73100000 -4.75660000
6.94890000 5.79520000 -4.45700000
6.55880000 5.77630000 -4.62680000
5.31580000 7.55170000 -4.56450000
5.83790000 6.78000000 -4.20820000
6.48980000 5.82610000 -4.24200000
6.29120000 5.88930000 -4.25620000
6.26350000 6.06150000 -3.99550000
6.14080000 6.26140000 -4.04950000
6.71530000 6.02420000 -3.27590000
6.54760000 6.06780000 -3.39590000
2.16730000 0.39460000 -7.89500000
0.84470000 -0.52460000 -7.56450000
1.18370000 0.45250000 -7.62830000
1.70840000 1.76450000 -7.73650000
0.53600000 1.70310000 -7.42370000
0.36050000 -0.97860000 -7.42890000
0.02900000 0.22460000 -7.20850000
0.36490000 0.63650000 -7.34460000
0.02750000 -0.57590000 -7.23410000
-0.28170000 0.27970000 -7.01420000
-0.09500000 -0.71890000 -7.14160000
0.07590000 -1.60740000 -7.34340000
-0.07700000 -1.21190000 -7.06780000
0.86840000 -1.50940000 -7.70190000
0.50580000 -1.74980000 -7.61680000
0.08040000 -2.22730000 -7.24380000
-0.15780000 -1.16750000 -6.71380000
-0.36870000 -0.56280000 -5.75620000
0.03100000 -2.75900000 -4.28300000
-0.37420000 0.08780000 -6.70130000
-0.81970000 1.14120000 -4.92120000
-0.34270000 -0.95070000 -3.49030000
-1.29900000 2.85900000 -4.75100000
-1.41940000 3.34950000 -2.52270000
-1.03920000 1.95870000 -3.25850000
-0.68690000 0.57760000 -2.96780000
8.31250000 2.05440000 -4.61420000
8.87610000 1.03600000 -3.33070000
7.91600000 4.91550000 -4.65320000
7.89100000 5.42610000 -4.30770000
8.00950000 5.75240000 -3.71430000
7.57310000 5.86390000 -3.78060000
7.94950000 5.86590000 -3.47390000
8.54700000 5.13100000 -3.22210000
8.26390000 5.58970000 -3.43320000
7.36640000 5.95890000 -3.39690000
6.93760000 5.88920000 -3.81090000
6.85650000 5.95790000 -3.40420000
6.70020000 6.34910000 -2.71760000
6.03920000 7.36470000 -3.21850000
7.17420000 6.03030000 -3.11000000
7.43590000 6.19740000 -2.38790000
7.82490000 6.09970000 -2.58770000
7.07940000 6.11750000 -2.77040000
7.07080000 6.25330000 -2.34840000
8.42220000 5.97450000 -2.53090000
8.17860000 6.03910000 -2.56820000
8.54080000 5.74380000 -2.69220000
8.79840000 3.71160000 -3.20410000
9.07660000 2.43940000 -2.65170000
9.21830000 3.75710000 -2.01630000
9.36500000 2.36670000 -1.74120000
9.13910000 -0.17360000 -2.73380000
9.50780000 0.78080000 -1.42450000
8.98310000 4.71250000 -2.40160000
9.28700000 4.60780000 -1.49030000
8.90330000 5.49220000 -2.09530000
8.77240000 5.90830000 -1.94240000
8.99080000 5.69900000 -1.50920000
9.14100000 5.19830000 -1.65390000
9.20240000 5.23200000 -1.17380000
8.98020000 5.76230000 -0.94700000
9.41360000 3.66040000 -1.25820000
9.35300000 4.51910000 -0.84810000
9.18170000 5.25650000 -0.69700000
9.50640000 2.38260000 -1.02600000
9.45610000 3.39500000 -0.65510000
9.33800000 4.03990000 -0.21800000
9.02460000 5.59800000 -0.48450000
9.11220000 5.30330000 -0.30400000
9.24120000 4.83480000 -0.32400000
9.04170000 5.12340000 0.26330000
9.13420000 4.47370000 0.41010000
-1.18320000 13.07170000 -6.74130000
-2.32000000 14.87080000 -6.63520000
-1.67920000 15.36530000 -6.47990000
-1.96530000 17.37900000 -6.19140000
-2.53270000 17.72610000 -6.28210000
-2.31010000 18.98520000 -6.01900000
-0.98560000 15.42270000 -6.29450000
-1.44520000 18.15080000 -5.82840000
-0.52210000 15.82760000 -6.00560000
-1.95610000 10.50940000 -7.00170000
-4.11620000 13.76970000 -6.73330000
-3.95620000 14.59100000 -6.70990000
-4.96130000 17.78010000 -6.48900000
-3.20650000 14.46340000 -6.73340000
