0.43950000 -13.31250000 -4.53660000
1.54610000 -5.91570000 -0.90180000
1.50340000 -5.89540000 -0.84990000
0.34860000 -19.35940000 -6.71320000
0.33110000 -19.36110000 -6.64920000
-0.78760000 -4.34110000 -0.11680000
0.37750000 -12.93540000 -4.30620000
1.85060000 -13.53380000 -5.72690000
1.87710000 -13.66620000 -5.79790000
1.93690000 -13.65720000 -5.78000000
0.88580000 16.63150000 3.14150000
-0.93570000 12.20680000 3.67250000
-0.96600000 11.95610000 3.66570000
0.42970000 1.08480000 2.24890000
0.66010000 1.69150000 2.38370000
-3.91390000 14.18830000 5.54110000
0.43790000 16.44320000 6.02790000
0.01780000 16.51890000 5.97190000
-0.13080000 16.48440000 6.02120000
-0.53600000 -10.55750000 -3.13510000
2.14380000 -14.54840000 -5.38200000
0.97890000 5.43910000 3.30900000
-1.12960000 6.50660000 3.11610000
-0.28020000 -0.09210000 1.83790000
-0.36410000 -0.15760000 1.79500000
1.39370000 17.09330000 4.65170000
1.40150000 17.02470000 4.64030000
-0.87110000 15.55920000 2.67510000
-0.72730000 15.67680000 2.65440000
-0.36050000 15.61770000 2.65890000
-1.38340000 -11.04090000 -4.02360000
-1.45220000 -10.96180000 -4.20890000
-1.47630000 -10.77490000 -4.21170000
0.00480000 -9.71730000 -2.49140000
-0.14720000 -10.00290000 -2.68620000
-1.13700000 2.07060000 2.14850000
1.15020000 4.32170000 2.92670000
1.16320000 4.69400000 2.96850000
-0.27150000 -9.55900000 -2.48500000
-1.48000000 -10.72810000 -4.23860000
-1.47570000 -10.72680000 -4.26640000
-1.05040000 2.29280000 2.39310000
-1.04130000 2.08790000 2.32150000
-1.01500000 2.29810000 2.41840000
-1.06780000 2.47880000 2.43090000
1.16650000 12.63250000 7.15780000
0.94790000 12.53290000 7.17170000
0.07610000 -9.45200000 -2.33100000
0.91940000 3.73250000 2.91030000
-1.25650000 -2.72900000 -0.24040000
-1.30200000 -3.23760000 -0.45360000
-1.21970000 1.16760000 1.69860000
-1.21130000 1.56020000 1.72430000
-1.21840000 1.39080000 1.73000000
-1.68100000 -16.59350000 -6.83850000
-1.69200000 -16.48980000 -6.76410000
0.47060000 -14.60420000 -5.24570000
0.32340000 -14.66030000 -5.27090000
-1.16850000 12.74610000 6.39040000
-3.35110000 14.38420000 6.45030000
-3.47720000 14.36080000 6.39130000
-2.95250000 14.09370000 6.62230000
-3.12990000 14.27340000 6.54470000
-3.18300000 14.18810000 6.53220000
0.19250000 13.97930000 3.52220000
3.70910000 15.59280000 5.41950000
3.73710000 15.58700000 5.48410000
-1.56090000 -17.12500000 -7.04080000
-1.47080000 -16.75670000 -6.99930000
0.40160000 -10.89120000 -3.10530000
0.30610000 -11.18180000 -3.26510000
0.67610000 -10.48650000 -2.87570000
0.55920000 -10.66330000 -2.97330000
-3.28570000 14.45870000 6.46620000
-1.06050000 -4.49890000 -0.32300000
-1.18540000 -4.74060000 -0.51400000
-1.16640000 -4.53820000 -0.41600000
-1.21650000 -4.56540000 -0.48510000
0.26350000 -8.82140000 -3.17160000
0.48050000 -8.44100000 -2.96590000
0.21430000 -9.01320000 -3.27910000
3.82770000 14.53130000 6.36720000
3.71410000 14.27080000 6.51130000
3.70870000 14.20160000 6.51130000
-0.25190000 16.71100000 3.22240000
-0.12750000 16.64270000 3.27130000
-0.94540000 -0.68440000 0.63160000
-0.97480000 -0.46920000 0.71800000
-4.11100000 16.04820000 4.67200000
0.93530000 10.85130000 3.37980000
0.92470000 10.67250000 3.35590000
0.94090000 10.53790000 3.37170000
-0.72720000 -5.83130000 -0.74900000
-0.96190000 -5.78970000 -0.85750000
-0.87740000 -6.02690000 -0.91960000
-1.23840000 0.03960000 1.18930000
-1.23650000 -0.01780000 1.27870000
-1.23480000 0.29600000 1.29150000
-1.21920000 0.46670000 1.26770000
0.30800000 15.88060000 3.21090000
0.39130000 16.02160000 3.20320000
-1.10120000 0.43950000 1.08750000
-1.10540000 0.12130000 0.96870000
-1.14000000 0.41510000 1.09880000
-1.31260000 -4.90900000 -1.13010000
-4.18990000 16.46630000 4.67310000
-4.28080000 16.39360000 4.70890000
-4.30420000 16.34000000 4.68490000
-2.62890000 14.28100000 5.62620000
-1.45650000 -10.14270000 -3.90080000
-1.45810000 -10.24470000 -3.98960000
-1.19110000 0.66840000 1.25760000
-1.30740000 -5.12950000 -1.15660000
-4.51400000 16.05750000 4.97730000
-0.28290000 12.09220000 6.92650000
-0.26830000 12.20540000 7.06440000
-0.32660000 12.11770000 7.01030000
0.73170000 17.15170000 3.85620000
0.77390000 17.19280000 3.88910000
0.67900000 17.11270000 3.78990000
-0.42420000 12.77030000 7.18220000
-0.61860000 12.87090000 7.16540000
-0.51090000 12.51930000 7.18120000
1.38510000 -4.05340000 0.00340000
-1.18000000 0.51080000 1.18400000
0.07610000 3.17380000 1.98280000
-0.10640000 3.02120000 1.93360000
0.43600000 14.85500000 2.77760000
1.85650000 -13.74270000 -4.92140000
1.69600000 -13.74430000 -4.90200000
1.79660000 -13.88780000 -4.97950000
1.68440000 -13.88760000 -4.96990000
1.28190000 -3.40690000 0.32070000
1.40560000 -3.72270000 0.13190000
1.39850000 -3.55260000 0.22190000
0.83470000 1.51880000 2.28740000
-0.32230000 -3.50610000 0.43780000
-0.23880000 -14.76750000 -6.45190000
-0.37170000 -14.56160000 -6.37380000
-0.06430000 -14.68450000 -6.41190000
-0.45000000 -14.75690000 -6.45920000
-0.77440000 -14.49570000 -6.37810000
1.01410000 -8.16160000 -1.73090000
0.91650000 -8.07010000 -1.65690000
-3.99200000 13.94460000 5.75920000
0.34770000 -19.29420000 -7.02100000
2.14750000 14.51250000 6.94000000
1.42820000 14.23680000 7.10310000
1.68810000 14.42690000 7.03560000
-1.47200000 -16.10330000 -6.33920000
0.70740000 -18.85000000 -6.37090000
1.27660000 -7.56320000 -1.55290000
1.63210000 13.64020000 6.09820000
1.50960000 13.55210000 6.13090000
-0.94370000 -16.93200000 -6.18110000
-0.58400000 -17.87620000 -7.15320000
-0.50010000 -17.69120000 -7.11960000
0.50960000 -17.09890000 -6.05000000
0.42410000 -16.82170000 -5.99200000
-0.94750000 3.52990000 2.80630000
-0.90460000 3.33410000 2.77060000
-1.96660000 17.10130000 5.03970000
-2.17310000 17.08070000 4.99840000
-2.16030000 17.00360000 5.12000000
0.90370000 10.39090000 3.79550000
1.57240000 -9.87800000 -2.79480000
1.62440000 -9.61920000 -2.66980000
3.95850000 15.01360000 5.85530000
3.90630000 15.22240000 5.85190000
-0.78270000 3.92240000 2.98450000
-0.79200000 3.55940000 2.87970000
-0.66960000 3.72200000 2.96520000
-0.87110000 3.49110000 2.83070000
0.52430000 6.01020000 3.54990000
0.63490000 5.99270000 3.52560000
-0.03270000 17.04810000 5.23360000
0.05160000 17.05420000 5.18680000
0.13830000 16.99440000 5.30790000
-0.97520000 13.22950000 3.45370000
-0.99870000 12.94970000 3.47940000
-1.00820000 13.20390000 3.40830000
2.03070000 -13.38240000 -4.80130000
2.03160000 -13.19710000 -4.71240000
1.98510000 -13.22520000 -4.69500000
2.07660000 -13.07630000 -4.73300000
2.07070000 -13.26930000 -4.78960000
0.76130000 5.91760000 3.48090000
0.59360000 5.80500000 3.50350000
0.50570000 5.84860000 3.53020000
-1.51640000 -13.65490000 -5.95280000
-1.53070000 -13.77450000 -5.99920000
0.80860000 -3.02900000 0.63730000
2.02680000 -13.15240000 -4.67450000
2.46350000 -17.01520000 -6.53960000
2.47530000 -17.16830000 -6.47670000
-1.20920000 -12.91410000 -5.61230000
-1.17620000 -13.45210000 -5.89370000
1.55150000 -6.05330000 -0.96940000
1.46500000 -5.91300000 -0.83660000
0.41850000 -2.81390000 0.82600000
0.30460000 -2.94790000 0.78270000
0.50180000 -2.75250000 0.83720000
-1.55590000 -17.30060000 -6.39090000
-1.56710000 -17.18530000 -6.39070000
-0.83930000 -13.71960000 -6.01130000
-0.71780000 -13.57250000 -5.92080000
1.34230000 -1.05580000 1.20210000
-1.30520000 15.89750000 4.87720000
0.75930000 -19.15870000 -6.93060000
0.73620000 -19.20700000 -6.87330000
0.73870000 -19.21810000 -6.79190000
1.88670000 -13.01010000 -4.54520000
-1.46850000 -17.31560000 -6.32840000
0.09280000 -5.90160000 -1.76420000
-0.06140000 -5.69420000 -1.66390000
0.16780000 -5.72060000 -1.66790000
0.18950000 -5.45530000 -1.53970000
-1.07450000 6.57870000 2.89330000
-1.05700000 6.39930000 2.84720000
-0.04370000 -17.87390000 -7.12020000
0.01910000 -17.56590000 -7.07850000
1.28060000 -18.44270000 -6.82990000
1.55800000 -6.63910000 -1.95240000
1.60450000 -6.63180000 -1.88870000
1.63620000 -6.66310000 -1.83660000
1.66140000 -6.74300000 -1.76690000
1.65230000 -6.89940000 -1.94520000
-0.04910000 -5.44930000 -1.54060000
-1.14260000 7.81690000 3.11450000
-1.18520000 7.72220000 3.19570000
-1.31700000 -5.71860000 -1.38130000
-1.30620000 -5.60520000 -1.31410000
-1.31310000 -5.84320000 -1.46190000
0.96860000 8.44380000 3.22220000
0.98800000 8.30920000 3.20670000
3.20540000 16.12710000 5.23960000
3.35910000 16.04340000 5.32650000
1.66660000 16.46870000 5.88790000
1.90660000 16.43850000 5.87040000
-1.14400000 7.12440000 3.10030000
-1.14710000 7.06010000 3.15910000
-0.59780000 17.14500000 4.91010000
-0.35280000 11.86880000 3.91840000
-0.38310000 11.65590000 3.92240000
-0.25200000 11.87050000 3.93680000
-0.42680000 11.91090000 3.89530000
0.24910000 16.71410000 3.32520000
0.37160000 16.65700000 3.30030000
-0.97500000 17.33540000 4.74180000
2.97660000 15.83740000 5.13030000
-1.33000000 -6.72380000 -2.06780000
-0.09280000 -6.41640000 -2.01900000
0.00890000 7.89840000 3.86070000
-0.10020000 7.99070000 3.86110000
-0.21930000 11.59370000 3.95070000
-0.10910000 11.47960000 3.96030000
-0.89700000 12.15250000 6.87390000
2.30570000 16.13060000 4.97200000
2.56730000 15.82540000 5.09880000
0.49930000 15.07050000 3.21890000
0.25650000 15.07850000 3.24190000
-0.12950000 17.37910000 4.34330000
-0.19480000 17.32550000 4.47350000
-0.03330000 17.31140000 4.49670000
1.81300000 -9.80900000 -3.39320000
1.57930000 -7.81960000 -2.56330000
1.57340000 -7.59720000 -2.45310000
1.50790000 -18.00080000 -7.01290000
1.51130000 -17.88480000 -7.04050000
1.53450000 -17.93270000 -7.02270000
-0.92760000 12.94770000 3.13600000
-0.87100000 12.78490000 3.15140000
0.87410000 14.44420000 3.32650000
0.83350000 14.46860000 3.35030000
0.84250000 14.62640000 3.30220000
0.90590000 12.65940000 3.65280000
1.33290000 -2.04520000 0.84340000
1.30220000 -1.81420000 0.95210000
1.27260000 -2.12580000 0.84310000
1.34960000 -1.64090000 0.99170000
1.36650000 -1.90890000 0.86740000
-0.83080000 -18.06630000 -7.11770000
0.94970000 5.33550000 3.29080000
0.95000000 5.01520000 3.19940000
1.10020000 4.58790000 3.03260000
-0.15760000 5.12300000 3.40840000
-0.32490000 5.40960000 3.44080000
1.02510000 4.97810000 3.15730000
0.98820000 4.78690000 3.13620000
-1.94540000 13.42190000 6.06440000
-1.97910000 13.22090000 6.14270000
-0.28230000 13.73580000 2.96970000
-0.65120000 13.51670000 3.00400000
-0.30850000 13.18460000 3.05460000
-0.12950000 15.55760000 3.22990000
-0.00900000 15.79480000 3.23770000
-0.47530000 3.03370000 2.84240000
-2.23390000 13.28670000 6.09360000
-1.93650000 13.30330000 6.11700000
-0.68140000 13.12330000 3.06610000
-0.73930000 13.46920000 3.01400000
-0.46860000 13.17220000 3.04990000
-0.36500000 -11.16010000 -3.39050000
-0.33220000 -11.99270000 -3.84720000
2.35950000 -16.18950000 -5.90980000
2.35260000 -16.05600000 -5.84570000
-1.07250000 10.46800000 3.32730000
0.84130000 17.33390000 4.11460000
-1.17030000 17.41720000 4.71490000
-1.28690000 17.47280000 4.60050000
-1.29230000 17.46130000 4.65140000
0.00890000 -16.77340000 -6.00450000
3.51030000 15.35800000 5.37520000
3.73710000 15.37670000 5.41700000
3.76630000 15.23970000 5.47560000
3.67980000 15.36810000 5.39220000
-0.23660000 11.38660000 3.94970000
-0.31150000 11.57500000 3.93880000
0.91820000 14.35250000 3.21860000
-0.95920000 17.28810000 3.32770000
-0.98940000 17.27880000 3.40300000
-0.94820000 17.32530000 3.41480000
-0.91920000 17.31260000 3.33650000
-0.89820000 17.04070000 3.33210000
-1.46660000 -15.32540000 -6.15000000
-1.45310000 -15.15140000 -6.05020000
-1.49980000 -15.17590000 -6.15030000
-1.39480000 -15.40540000 -5.97670000
1.36780000 0.76320000 1.51870000
1.36150000 0.70910000 1.45540000
0.76840000 15.91770000 3.11330000
0.86700000 16.02320000 3.07110000
0.86200000 15.81780000 3.07880000
0.92120000 14.09850000 3.28480000
-0.76120000 12.15670000 6.71880000
0.54140000 3.38270000 2.93470000
0.53430000 3.56140000 2.98740000
0.91000000 3.47240000 2.84240000
0.91210000 11.27790000 3.77320000
-1.51510000 -12.42320000 -5.15600000
-1.50960000 -12.52630000 -5.14960000
0.77660000 3.65750000 2.94110000
0.59490000 3.85400000 3.04460000
1.46810000 -14.04540000 -6.00860000
1.65950000 -14.04570000 -5.99100000
1.62770000 -13.72780000 -5.82740000
1.50690000 -13.83540000 -5.89600000
1.43500000 -13.58260000 -5.77660000
1.39150000 13.42850000 6.19940000
1.23780000 13.23660000 6.28930000
-2.79300000 14.98030000 6.52800000
0.89950000 4.02920000 2.99590000
2.73340000 14.12500000 5.92130000
-3.89540000 14.05250000 6.12120000
0.16510000 -2.99700000 0.76490000
0.08060000 -3.19300000 0.67630000
-1.37790000 -10.16530000 -3.49380000
-1.36910000 -10.41530000 -3.58570000
0.66900000 -5.12120000 -0.21860000
0.98640000 -5.28440000 -0.36720000
0.85890000 -5.27230000 -0.31780000
2.79250000 15.80180000 6.16240000
2.83720000 15.56350000 6.33010000
2.71240000 15.91250000 6.10790000
1.82900000 -17.82290000 -6.28480000
1.92970000 -17.78220000 -6.33900000
0.18950000 16.82840000 5.60830000
2.35820000 -15.96110000 -5.79840000
0.85810000 17.10690000 4.78320000
0.95590000 9.82500000 3.31900000
0.92970000 9.90480000 3.29300000
-1.26380000 -8.56840000 -2.43950000
-1.23600000 -8.17480000 -2.20570000
-1.25520000 -8.26790000 -2.28600000
0.14620000 -3.74600000 -0.67640000
0.31450000 -3.45440000 -0.52620000
0.16330000 -3.50700000 -0.55810000
0.04640000 -3.43090000 -0.52200000
0.79490000 17.09990000 4.61090000
0.82050000 17.06590000 4.60690000
-1.63230000 17.49040000 4.50920000
-1.42930000 17.48800000 4.54770000
-1.45290000 17.48030000 4.49510000
-1.69700000 17.47920000 4.46470000
2.36840000 -15.41490000 -6.03650000
-1.59530000 -17.49150000 -7.00780000
-1.63470000 -17.46600000 -6.93750000
1.37950000 0.39770000 1.35870000
1.38920000 0.32820000 1.37080000
2.44120000 16.64460000 5.36600000
0.82080000 16.24920000 2.81690000
1.32930000 -1.37970000 0.51010000
1.31340000 -1.27940000 0.53530000
1.34540000 -1.06400000 0.67690000
1.84810000 -16.81490000 -5.99590000
1.86090000 -16.99990000 -6.02900000
2.05390000 -16.97740000 -6.00880000
1.05660000 4.76700000 2.50120000
1.06930000 4.46350000 2.41940000
1.09980000 4.87560000 2.54460000
-1.86920000 16.63610000 5.78450000
-4.31810000 14.43890000 5.87860000
0.19890000 -2.31460000 -0.01120000
1.20090000 1.85300000 1.68320000
1.15040000 1.87350000 1.66350000
1.34340000 -1.28830000 0.57630000
1.32060000 -1.11640000 0.60650000
1.27910000 -1.07520000 0.56190000
-2.80480000 14.76420000 5.37260000
-2.70090000 15.01210000 5.24730000
1.43270000 -4.78460000 -1.05210000
0.57740000 16.34090000 2.74830000
-1.04920000 2.81950000 2.52640000
2.93320000 14.77030000 6.70850000
3.17130000 15.10550000 6.48080000
3.02570000 15.03730000 6.57740000
-0.93030000 2.62020000 1.84160000
-1.01850000 2.90540000 1.95200000
-1.03000000 3.01910000 1.98750000
-1.01510000 3.20650000 2.03760000
1.39820000 -3.16150000 0.36850000
1.40670000 -3.37260000 0.28200000
1.43180000 -3.35990000 0.26420000
1.34540000 -3.41200000 0.29450000
1.37220000 -3.28190000 0.34070000
2.09580000 -13.78850000 -5.06430000
2.11490000 -13.75250000 -5.08090000
2.12480000 -13.71120000 -5.09270000
0.33430000 -19.17860000 -7.22490000
0.33540000 -19.12740000 -7.25240000
0.41250000 -19.15360000 -7.24190000
0.07360000 -19.01660000 -7.22900000
1.11140000 14.71790000 7.04040000
1.05500000 14.82440000 7.01430000
0.75030000 12.76640000 3.75120000
0.59970000 12.97620000 3.73110000
0.80930000 12.95750000 3.71110000
-1.51100000 -13.29390000 -5.50650000
-1.55690000 -13.69650000 -5.76350000
-0.35020000 16.92240000 3.30320000
0.74630000 16.85480000 3.37560000
1.53040000 -4.85370000 -0.44530000
1.49010000 -5.16530000 -0.54120000
-3.59860000 16.80420000 4.76980000
-3.73060000 16.72940000 4.81730000
-0.72490000 -0.54020000 1.52880000
-0.88760000 -0.24640000 1.58520000
-0.90020000 -0.67800000 1.40180000
-0.94710000 -1.01700000 1.25110000
-0.83230000 -0.83580000 1.37470000
2.14380000 -15.15160000 -5.53590000
2.08600000 -14.97910000 -5.47420000
-1.00390000 11.20770000 3.31750000
-1.04020000 11.14830000 3.34630000
-1.06760000 11.10290000 3.37760000
-0.60300000 -0.92580000 1.42070000
-1.55090000 12.36310000 6.83680000
-3.95890000 14.01750000 6.06860000
-3.94760000 13.96820000 6.04820000
-1.30860000 -7.06940000 -2.33000000
-1.26000000 -7.31090000 -2.48630000
-0.90400000 11.32230000 3.27590000
1.80000000 -8.98140000 -2.74330000
1.81010000 -9.14350000 -2.71850000
-1.87610000 12.51960000 6.83480000
-1.92560000 12.61070000 6.86990000
1.12340000 -5.84160000 -1.63580000
0.97710000 -5.61580000 -1.53190000
1.26600000 -5.78580000 -1.59900000
0.58980000 8.11430000 3.79300000
0.59680000 8.29900000 3.80380000
0.79480000 8.24180000 3.73870000
1.26340000 -1.67090000 1.02440000
1.18010000 -1.72390000 1.03090000
1.18220000 -1.98790000 0.93470000
1.09810000 -1.35390000 1.20340000
1.23910000 -1.55030000 1.08870000
0.34800000 2.54590000 1.83780000
0.01030000 2.30680000 1.74700000
0.56540000 2.66160000 1.87360000
0.26710000 -1.20950000 1.46240000
0.46930000 17.01920000 5.21600000
0.67390000 7.41580000 3.73770000
0.59990000 7.30500000 3.74390000
0.66860000 7.14480000 3.71100000
0.75250000 7.39570000 3.71150000
0.08020000 16.43700000 4.75820000
-0.28590000 16.55680000 4.71210000
-0.23890000 16.61450000 4.70770000
-0.17130000 16.74640000 4.67230000
1.32390000 -1.43410000 1.08730000
0.81440000 17.22200000 3.87870000
0.83550000 17.27440000 3.93240000
0.25790000 17.03970000 5.15580000
0.91740000 12.65620000 3.57850000
1.50190000 -13.19600000 -4.58010000
1.27010000 -13.28790000 -4.61050000
-1.22000000 -3.17510000 0.16030000
-1.25810000 -3.53530000 -0.08680000
-1.23340000 -3.40270000 0.03330000
-1.25660000 -3.35570000 -0.00030000
0.91470000 16.95570000 4.61890000
1.09000000 17.00110000 4.62850000
-0.83910000 8.38910000 3.11010000
-0.67260000 8.41870000 3.10090000
-0.78230000 13.89830000 7.17610000
-0.53140000 13.85260000 7.23130000
0.40250000 15.77940000 6.54120000
0.59530000 15.82230000 6.50290000
0.13970000 15.93460000 6.43710000
0.68900000 15.62580000 6.63220000
0.36310000 15.53820000 6.69790000
1.67260000 -7.75010000 -1.82860000
1.68710000 -7.96110000 -1.94590000
1.71080000 -7.84620000 -1.93890000
0.78690000 15.75370000 6.54400000
0.06390000 -18.73570000 -7.25580000
-0.08330000 -18.58360000 -7.23350000
0.46700000 15.04540000 5.36990000
0.86050000 15.11520000 5.34660000
-1.16850000 -0.15230000 1.44080000
-1.20520000 -0.13200000 1.36140000
-1.19540000 -0.23890000 1.37200000
-1.15020000 -0.38400000 1.37270000
-1.18170000 -0.39770000 1.32840000
2.18150000 -17.69450000 -6.74720000
1.07010000 -1.31660000 0.45350000
1.09060000 -1.16030000 0.52570000
1.08260000 -0.89200000 0.62180000
1.11270000 15.55620000 6.66620000
1.27300000 15.52070000 6.67730000
0.93640000 3.65390000 2.16650000
1.04030000 3.05810000 2.00290000
0.91560000 3.37270000 2.08460000
0.81330000 5.71220000 3.42580000
0.93050000 5.69790000 3.39470000
-1.17810000 -0.61980000 1.26230000
0.28850000 12.45760000 3.84230000
-1.18370000 -17.78850000 -7.04650000
-1.19890000 -2.12830000 0.58410000
-1.08980000 -2.03240000 0.73910000
-1.13810000 -2.08900000 0.67330000
1.70320000 -8.68970000 -2.28320000
1.69980000 -8.46770000 -2.20340000
1.67220000 -8.47650000 -2.16820000
1.66750000 -8.11900000 -1.98140000
-3.67870000 16.50630000 4.53400000
-3.66130000 16.58860000 4.52510000
0.74300000 -19.20040000 -6.65640000
0.72440000 -19.23330000 -6.71010000
-0.01300000 12.32330000 3.88210000
-0.18330000 12.72540000 3.81180000
-0.77750000 2.99600000 2.73580000
-0.72220000 3.47620000 2.88780000
0.94160000 -1.14740000 0.51770000
1.17290000 -1.52680000 0.36470000
1.18510000 -1.34240000 0.44700000
-4.37960000 14.82720000 5.23720000
-4.28290000 14.50410000 5.41030000
-4.38490000 14.70000000 5.29620000
-0.70640000 -8.15590000 -1.88210000
-1.02350000 10.51740000 3.72290000
-1.01190000 10.29380000 3.71510000
0.80420000 17.39470000 3.95440000
0.67920000 17.41280000 3.82260000
-3.04080000 13.96340000 5.73990000
-1.26150000 -7.75590000 -2.03360000
-1.28380000 -7.69960000 -2.08620000
-1.02540000 -4.34570000 -0.22470000
-0.94500000 -4.20130000 -0.12700000
-1.16560000 -4.09610000 -0.20090000
3.32930000 15.03800000 5.52450000
-0.86530000 17.25990000 4.17710000
-0.84300000 17.33120000 4.14460000
-0.90320000 17.25810000 4.92890000
-0.98070000 17.31830000 4.85540000
0.79190000 17.22130000 3.93520000
0.84650000 15.30230000 2.84820000
0.80050000 15.41570000 2.79080000
0.14430000 10.76250000 3.97600000
0.12730000 11.43430000 3.95850000
-0.97240000 9.53810000 3.75930000
-2.56870000 14.52880000 6.69230000
-2.17090000 14.10410000 6.82870000
-2.40750000 14.33200000 6.74880000
1.36280000 -1.06010000 1.16410000
1.36000000 -0.84950000 1.20460000
-0.60490000 7.94370000 3.75910000
-0.45330000 7.74460000 3.78090000
-2.71000000 17.22430000 4.49040000
-4.63580000 15.37220000 5.06380000
-4.65360000 15.41600000 5.06750000
-4.65920000 15.30340000 5.14050000
-1.01600000 -15.03140000 -5.66870000
-0.87320000 -14.90220000 -5.57940000
0.70690000 16.83930000 4.61320000
0.64980000 16.89580000 4.57170000
2.33290000 16.38690000 5.79610000
2.50000000 16.51510000 5.54190000
-2.41810000 17.17800000 4.37870000
-0.44380000 5.63400000 2.59720000
-0.24780000 5.38520000 2.55720000
2.22870000 -14.44020000 -5.54300000
2.23620000 -14.39540000 -5.60660000
2.24240000 -14.65500000 -5.54440000
0.15740000 -0.76240000 0.65130000
1.92720000 -12.54940000 -4.31800000
1.80640000 -12.68010000 -4.34710000
3.36300000 16.01110000 5.67300000
3.61500000 15.73800000 5.79910000
1.21960000 -10.78060000 -4.20260000
1.17210000 -10.49690000 -4.04980000
1.42240000 -10.35580000 -3.94660000
1.09410000 -11.01370000 -4.34460000
-1.27640000 -7.15530000 -1.82170000
1.18780000 -3.60640000 0.27040000
1.25220000 -3.74570000 0.18350000
1.33590000 -3.60130000 0.23550000
1.01820000 -3.50950000 0.37140000
-0.94590000 13.19290000 3.09450000
-0.98090000 13.24540000 3.09350000
-0.98080000 14.00770000 2.99860000
-0.98400000 13.45750000 3.05350000
-1.21600000 -5.90990000 -1.77020000
-1.23970000 -6.94620000 -1.58480000
-1.20370000 -6.76860000 -1.47370000
-1.19320000 -6.89560000 -1.51450000
1.99270000 13.25890000 7.00250000
-1.24890000 -4.66410000 -0.59840000
-1.27130000 -4.77280000 -0.67790000
-1.22470000 -4.72270000 -0.55500000
2.31830000 -17.45130000 -6.26460000
2.24500000 -17.46030000 -6.21830000
2.18620000 -17.53140000 -6.26330000
2.34020000 -17.20500000 -6.15660000
0.77500000 5.26440000 2.56660000
0.78380000 5.06440000 2.51740000
-0.68100000 12.31960000 7.17700000
3.49450000 14.17930000 6.62400000
3.24660000 14.14900000 6.70070000
0.18160000 1.82780000 2.52860000
0.16000000 2.12090000 2.63410000
-2.14100000 17.01240000 4.37280000
-1.95150000 17.00440000 4.37070000
-0.16130000 16.77670000 3.24540000
-0.09490000 16.88450000 3.29860000
-0.04720000 17.16220000 4.52090000
3.30100000 14.19990000 6.67890000
1.79440000 -12.69760000 -5.26850000
1.60450000 -12.75050000 -5.30190000
1.79490000 -12.95770000 -5.41050000
1.93120000 15.10830000 5.38190000
0.84310000 11.69130000 3.26180000
0.83270000 12.02650000 3.24670000
-0.87100000 17.29790000 4.35090000
-0.95610000 17.28910000 4.35740000
-0.82110000 17.33270000 4.28050000
1.59100000 -13.21990000 -5.56760000
1.52920000 -13.50530000 -5.72620000
1.17620000 5.35010000 2.76580000
1.18310000 5.13080000 2.72180000
1.19700000 4.88740000 2.67750000
1.18600000 5.03590000 2.67710000
-1.13380000 -1.25220000 0.40460000
-1.10820000 -4.49150000 -0.35030000
-1.11430000 -4.29720000 -0.23860000
1.78480000 -9.36680000 -3.13370000
1.75950000 -9.31570000 -3.16390000
-1.01550000 17.31580000 4.40660000
-0.63900000 12.39580000 6.56030000
-0.70410000 12.53400000 6.48990000
-0.39650000 12.41100000 6.56130000
-0.01440000 12.44610000 6.57400000
-1.33700000 -15.94210000 -6.83760000
-1.14530000 -15.91450000 -6.83430000
-1.40310000 -15.65970000 -6.77400000
0.56670000 13.79000000 3.55610000
0.72040000 13.62610000 3.56900000
1.01750000 -14.19670000 -5.08380000
1.30950000 -14.20770000 -5.11250000
1.05380000 -13.95910000 -4.96230000
0.14300000 -11.67640000 -3.57170000
0.75420000 13.47650000 3.58920000
0.81860000 13.41400000 3.56520000
1.49660000 -15.61240000 -5.69270000
1.60540000 -15.62980000 -5.69660000
1.19960000 -0.94970000 0.59180000
1.09120000 -0.75050000 0.67920000
1.15380000 -0.67930000 0.71020000
1.20450000 -1.10510000 0.53510000
0.90840000 14.54490000 3.14180000
0.48340000 -16.01750000 -5.76560000
0.48130000 -16.49420000 -5.90830000
0.15200000 -11.83620000 -3.66400000
0.00560000 -11.84570000 -3.68720000
-0.01400000 -12.00450000 -3.77240000
2.98840000 15.37250000 6.39960000
1.04120000 8.66620000 3.47500000
1.05120000 8.43190000 3.46170000
1.07640000 14.65010000 5.56330000
1.01580000 14.34550000 5.69760000
2.18600000 15.90120000 6.31110000
2.39700000 15.63290000 6.44370000
-3.07110000 13.40830000 6.39760000
-2.89380000 13.12970000 6.49030000
1.40790000 -3.38610000 -0.37260000
0.95850000 12.64900000 6.52860000
0.41080000 -10.74660000 -3.01860000
1.35550000 -0.62020000 0.92410000
1.36340000 -0.85410000 0.82470000
1.37190000 -0.64130000 0.97820000
-2.75970000 13.12540000 6.14720000
0.10770000 -1.35480000 1.41280000
0.18940000 -1.11240000 1.50220000
3.48800000 15.93320000 5.68640000
3.58530000 15.81850000 5.74530000
0.88100000 15.36300000 3.09930000
0.88790000 15.49730000 3.09820000
0.90290000 15.51800000 3.06940000
1.38110000 -0.74250000 1.01260000
1.38100000 -0.75760000 1.12600000
0.82850000 3.40410000 2.08560000
0.78280000 3.21770000 2.02580000
-1.05260000 -17.94030000 -6.76430000
-0.48350000 17.20320000 4.66980000
-0.58460000 17.23410000 4.58850000
-0.34090000 17.31860000 4.47340000
0.89610000 16.11330000 3.05570000
0.90970000 16.08790000 3.00630000
0.88230000 16.11980000 3.08910000
-0.42950000 -17.90530000 -7.15440000
-0.30380000 -17.56190000 -7.09070000
-0.66130000 -8.37600000 -3.03310000
-0.63650000 -8.65270000 -3.17600000
1.03060000 3.74550000 2.20310000
1.00980000 3.49430000 2.13220000
1.07500000 3.78610000 2.22490000
-0.88100000 17.34920000 3.43760000
-0.90360000 17.39690000 3.54520000
1.92580000 -11.22530000 -3.74430000
1.91340000 -10.92430000 -3.69150000
-0.48630000 -18.09060000 -7.18080000
-1.23230000 0.08600000 1.34690000
2.02640000 -13.65590000 -5.72640000
-0.16160000 -1.90580000 1.16370000
0.01080000 -2.09740000 1.11330000
0.12640000 -2.67390000 0.89480000
-0.01450000 -2.38770000 0.98910000
1.93970000 -11.41370000 -3.78580000
1.74870000 -8.43850000 -2.34320000
1.20370000 4.50150000 2.75910000
1.22320000 4.32090000 2.64700000
1.21200000 4.46260000 2.67670000
1.20880000 4.46000000 2.60680000
1.22550000 4.31960000 2.57710000
1.19630000 4.45260000 2.54680000
-0.24400000 12.09090000 6.80350000
-0.90580000 13.62080000 3.45030000
-0.89360000 14.14390000 3.37740000
-2.86390000 13.96250000 6.65780000
-2.79640000 14.02680000 6.67800000
-2.73290000 13.90290000 6.69860000
-1.49320000 -11.88100000 -4.89680000
-1.50340000 -11.73690000 -4.82060000
-1.48490000 -11.79500000 -4.89720000
-1.50300000 -11.60850000 -4.68690000
1.86360000 -10.06160000 -3.37990000
0.27680000 -18.84810000 -7.28180000
0.15780000 -18.87090000 -7.27700000
-1.14860000 3.70600000 2.58850000
-1.16150000 3.77790000 2.50430000
-1.14490000 3.48510000 2.56020000
-1.46100000 -11.78350000 -4.91460000
-1.46390000 -11.88380000 -4.94770000
-1.59670000 -14.93970000 -6.33520000
1.64150000 12.67520000 6.91610000
-1.30060000 -9.83470000 -3.84180000
-1.30550000 -9.63260000 -3.71090000
-1.23480000 -9.62600000 -3.71560000
-1.20080000 -9.84730000 -3.84660000
-1.82020000 16.85470000 5.46220000
-2.04150000 16.74420000 5.60280000
-0.65350000 16.34890000 3.24170000
-2.94690000 15.69630000 6.16510000
-3.00700000 15.84150000 6.05840000
-3.06820000 15.73230000 6.09850000
-2.29210000 16.67810000 5.59090000
0.90700000 16.82630000 3.18500000
0.90110000 16.99080000 3.32760000
0.91450000 16.91990000 3.27030000
1.26800000 12.46720000 6.98470000
0.99700000 9.89860000 3.68800000
0.52390000 -19.36750000 -6.67320000
-0.37300000 9.55870000 3.92840000
-0.25090000 9.86960000 3.96440000
-0.18300000 9.98970000 3.97680000
-2.12230000 12.44310000 6.54470000
-2.11670000 12.45600000 6.50120000
-4.28670000 16.42280000 4.79710000
-4.21110000 16.49120000 4.79100000
-0.35250000 12.03700000 3.90080000
-0.69980000 -5.24290000 -0.48490000
-0.71130000 -5.58950000 -0.63840000
0.56550000 6.53620000 2.83130000
0.75410000 6.42310000 2.82340000
-3.71610000 14.92440000 6.15400000
-4.05260000 15.04550000 5.89000000
-4.62480000 15.70800000 5.22360000
-4.56540000 15.82580000 5.20090000
-4.67710000 15.62180000 5.20800000
2.47320000 -17.09020000 -6.51140000
-2.26940000 15.94130000 4.76200000
-1.94870000 15.84700000 4.84410000
0.41540000 -8.69730000 -1.88200000
0.44330000 -9.03200000 -2.05630000
0.56400000 -9.29670000 -2.20920000
-0.14640000 -8.51490000 -3.07070000
-0.18080000 -8.20640000 -2.91850000
-0.36480000 -8.34450000 -3.00380000
-0.76270000 -12.43160000 -4.24070000
1.06350000 -4.13920000 0.08820000
0.96340000 6.18600000 2.80660000
-3.69150000 16.13220000 5.51310000
-3.55140000 16.26890000 5.45430000
-2.85230000 16.47030000 5.57570000
-3.37410000 16.34870000 5.45240000
-1.30130000 -7.36800000 -2.49050000
-1.29570000 -7.26380000 -2.43910000
-1.28840000 -7.14350000 -2.39360000
-0.06450000 -10.42810000 -2.88700000
-0.16200000 -10.44250000 -2.92330000
1.15950000 -3.83790000 0.17600000
-1.41420000 -13.60180000 -5.41700000
-1.39220000 -13.73250000 -5.37550000
1.80280000 -9.30250000 -3.01360000
-1.04600000 8.41740000 3.15010000
-1.14400000 8.10430000 3.17560000
-1.30050000 -2.83270000 0.07540000
-1.31810000 -2.72880000 0.03340000
-1.32790000 -2.75020000 -0.10880000
2.29300000 14.14640000 6.95530000
2.15290000 14.21700000 6.98190000
2.10580000 14.39280000 6.97030000
-1.44440000 -13.40750000 -5.39740000
-3.26560000 17.12150000 4.62720000
1.55990000 -14.23730000 -6.10720000
1.69480000 -14.54130000 -6.22110000
1.81080000 -14.40320000 -6.16050000
1.40840000 -4.63480000 -1.00050000
1.43350000 -4.43750000 -0.88610000
1.45980000 -4.64920000 -0.97950000
1.46160000 -4.42290000 -0.86000000
1.49830000 -4.43780000 -0.82440000
1.47610000 -4.53380000 -0.90350000
-0.66930000 11.03740000 3.86850000
-1.46490000 -15.94370000 -6.29480000
0.93670000 6.22140000 3.48690000
1.54150000 -4.31540000 -0.66620000
1.46490000 -4.34370000 -0.82560000
-0.85520000 15.01850000 2.75480000
0.49840000 -19.26590000 -6.42640000
0.62740000 6.56250000 3.62860000
0.44910000 6.49520000 3.64730000
-0.63120000 0.20300000 0.99470000
-0.86610000 0.26620000 1.00370000
-0.79180000 0.35830000 1.03780000
-1.31550000 -6.50420000 -1.76950000
-1.31200000 -6.52440000 -1.62950000
-1.27950000 -6.62730000 -1.51350000
-1.29970000 -6.59320000 -1.58570000
0.98210000 8.13640000 3.62840000
0.91610000 8.09260000 3.68020000
0.94970000 8.14250000 3.65990000
0.00260000 -6.18370000 -0.70330000
0.08790000 -6.53390000 -0.85900000
0.17160000 -6.29480000 -0.73480000
-0.78190000 -10.27410000 -3.09900000
-0.62670000 9.20570000 3.17360000
0.90910000 8.24870000 3.69930000
-1.44680000 -10.10230000 -3.92010000
-1.32480000 -6.28310000 -1.82500000
-1.30800000 -6.36560000 -1.72940000
0.32780000 -7.52790000 -1.32290000
1.68760000 16.60590000 4.73920000
2.01580000 -11.71330000 -4.35800000
-1.11400000 2.94320000 1.99960000
-1.04120000 2.74720000 1.90730000
-1.12110000 4.56420000 2.82070000
-1.15950000 4.40260000 2.66060000
-1.12280000 4.72080000 2.83670000
-1.16870000 4.57570000 2.62230000
2.04400000 -12.71590000 -4.99520000
2.03360000 -12.89400000 -5.16350000
2.02060000 -12.66930000 -5.04150000
2.01070000 -12.88310000 -5.20740000
0.11390000 -6.79220000 -0.96770000
0.22280000 -6.53910000 -0.84980000
-1.38520000 -9.16740000 -3.24850000
-1.36530000 -9.14320000 -3.12870000
-0.97130000 -3.43880000 0.23040000
1.05330000 -0.28590000 1.59580000
1.26480000 -0.11980000 1.57250000
1.95200000 -12.74520000 -5.20540000
1.98770000 -12.60000000 -5.06320000
1.98550000 -12.86600000 -5.23950000
0.01840000 -6.92350000 -1.04860000
0.39180000 -3.41800000 0.55910000
0.31160000 -3.48150000 0.53760000
-2.20930000 14.91130000 6.68340000
-2.51000000 14.92430000 6.62450000
-1.84710000 15.02210000 6.73560000
1.26570000 2.94280000 2.48300000
-1.15470000 -13.27870000 -5.79430000
-1.18600000 -13.03450000 -5.67640000
-1.43490000 -13.18310000 -5.73590000
1.58640000 -9.69460000 -3.55400000
1.66500000 -9.90620000 -3.66380000
1.67810000 -9.73050000 -3.54320000
1.15370000 0.52150000 1.18510000
2.75250000 15.22820000 5.33940000
2.76480000 15.07950000 5.41830000
-3.80920000 14.12250000 5.58210000
-0.77210000 14.97830000 6.89320000
-0.56020000 15.18750000 6.80820000
-0.72040000 15.08360000 6.85040000
1.20030000 -18.26750000 -6.32580000
1.05570000 -18.42090000 -6.34250000
-0.05590000 17.19840000 3.19440000
-0.06470000 17.13320000 3.11590000
0.79270000 -9.24890000 -2.21300000
1.06110000 6.36750000 2.90370000
-2.81010000 16.96460000 4.42170000
-2.84620000 17.04900000 4.43550000
-0.91140000 2.23960000 2.44510000
-0.97120000 2.11060000 2.36920000
3.84410000 14.98020000 6.19860000
3.80350000 14.89970000 6.26570000
1.80200000 -17.81100000 -6.25890000
-0.43370000 2.02420000 1.64850000
-0.54360000 2.14180000 1.68520000
0.49030000 17.07290000 4.35790000
0.56250000 17.03200000 4.40740000
1.65850000 -11.48330000 -4.54540000
1.33690000 -11.66280000 -4.69000000
1.57460000 -11.36850000 -4.49380000
2.05370000 -12.94020000 -5.12300000
2.06770000 -13.00780000 -5.10550000
2.06300000 -12.78230000 -4.94140000
2.00990000 -11.33230000 -4.06600000
-1.23870000 -9.43450000 -3.61390000
-1.31440000 -9.40330000 -3.58550000
-1.36080000 -9.42200000 -3.57980000
-1.01480000 5.88750000 2.69300000
1.52170000 -5.30950000 -1.26790000
-1.62250000 -16.21380000 -6.52550000
-0.24250000 2.27370000 1.72530000
-0.27250000 2.57640000 1.80820000
0.96430000 -18.87470000 -6.75670000
-1.67520000 -16.31260000 -6.62930000
0.91060000 9.33810000 3.27110000
-1.54570000 -14.41240000 -6.27820000
2.29800000 16.71890000 5.01550000
-0.40660000 12.45550000 3.14180000
-0.48260000 12.68690000 3.11830000
-0.26590000 16.54980000 3.25980000
-0.05460000 16.61210000 3.27980000
-0.41490000 17.47670000 4.02500000
-0.24340000 12.41410000 7.18330000
-0.95620000 17.32070000 3.78580000
2.14230000 -15.83270000 -5.72490000
1.66470000 -6.34000000 -1.28180000
1.63820000 -6.20570000 -1.17840000
1.59600000 -6.14700000 -1.05330000
1.61530000 -6.26100000 -1.14170000
0.16860000 15.40870000 5.16150000
0.37430000 15.29620000 5.22920000
-0.17450000 15.51970000 5.08520000
0.91140000 1.43500000 1.48080000
0.99620000 1.62910000 1.55100000
1.16120000 -11.63400000 -3.61990000
1.29930000 -11.70540000 -3.69110000
-1.07000000 -9.50710000 -3.65170000
1.18150000 4.21990000 2.43110000
1.17020000 3.73970000 2.26940000
1.20900000 -11.47770000 -3.54300000
1.40920000 -11.56010000 -3.62920000
1.68440000 -6.92490000 -1.64500000
1.68080000 -6.83970000 -1.67370000
-3.39220000 17.08070000 4.50120000
-3.46540000 17.01820000 4.49100000
1.73630000 -7.80850000 -2.01330000
1.74810000 -7.95160000 -2.20500000
1.73390000 -7.76290000 -2.08220000
1.74460000 -7.87500000 -2.07710000
0.22860000 -17.52550000 -6.14420000
1.84190000 12.85810000 6.48980000
1.73800000 12.69850000 6.56660000
1.69910000 12.69210000 6.55030000
-0.16660000 13.63250000 2.98380000
0.17570000 13.49170000 3.01340000
-1.15380000 4.11790000 2.33970000
-1.15890000 4.01440000 2.33610000
-1.23720000 -7.66270000 -1.95260000
-1.31430000 -1.05900000 0.67510000
-1.31550000 -1.28960000 0.55000000
-1.30400000 -1.15090000 0.77800000
-1.31750000 -1.11650000 0.69410000
2.11280000 12.97390000 6.58160000
-0.69610000 14.40230000 5.61830000
-0.64300000 14.19470000 5.72350000
-0.35170000 14.43020000 5.64170000
-1.11380000 -12.33370000 -4.35470000
-1.23980000 -12.21000000 -4.35370000
-1.28780000 -12.15460000 -4.37030000
-1.27600000 -12.33650000 -4.43830000
-1.26020000 -8.41580000 -2.37200000
-1.05710000 11.85250000 3.34530000
-1.05270000 11.48250000 3.35930000
-1.07330000 11.81390000 3.37890000
-1.02410000 11.67050000 3.31210000
-1.03540000 11.83160000 3.31750000
-0.49410000 14.59610000 5.55100000
2.67230000 13.19180000 6.41560000
2.76280000 13.20850000 6.43730000
-3.97860000 14.98420000 5.17480000
-4.01490000 14.75360000 5.28800000
0.05650000 4.10380000 3.20840000
1.04430000 -8.10740000 -2.76540000
1.39490000 -7.92920000 -2.66310000
0.61120000 15.57570000 2.71270000
0.50370000 15.63140000 2.69400000
1.01190000 8.11580000 3.58920000
0.39610000 -0.34270000 1.75400000
0.32830000 -0.16720000 1.82430000
0.71260000 14.74820000 2.84060000
0.65140000 14.92200000 2.78910000
-0.80350000 6.61310000 2.79850000
-0.86990000 6.61280000 2.81040000
3.35130000 13.51620000 6.40050000
0.27810000 -0.32540000 1.78400000
0.20300000 -0.23320000 1.82300000
0.32170000 0.25590000 1.97730000
0.17790000 -0.03780000 1.89410000
-0.82810000 7.07260000 2.89840000
0.44190000 14.97360000 2.76060000
-0.93660000 12.63640000 3.19710000
-0.93790000 12.78530000 3.18010000
-0.97320000 12.77280000 3.20350000
-0.96740000 12.61280000 3.21810000
-2.53560000 16.68810000 5.45840000
0.68940000 -12.85550000 -4.28420000
0.91310000 -12.92640000 -4.34620000
-2.58340000 14.96470000 5.28080000
0.06790000 17.06340000 3.56920000
-0.11650000 17.07850000 3.58880000
2.15610000 -13.71040000 -5.36580000
2.23120000 -14.33200000 -5.64500000
3.33440000 15.58040000 6.04050000
1.84820000 17.00180000 4.75530000
1.76670000 17.05040000 4.74330000
1.80400000 17.06000000 4.78550000
3.96160000 14.73920000 6.01850000
3.94830000 14.95090000 6.01860000
-0.14540000 17.04130000 3.49780000
-2.75320000 13.36730000 6.03280000
-2.62380000 13.15950000 6.12440000
-2.68050000 13.06930000 6.16750000
-2.52190000 12.95700000 6.20380000
0.42120000 -4.20420000 0.19860000
0.28800000 -4.18010000 0.21960000
2.25610000 -17.34340000 -6.15250000
2.32290000 -17.37300000 -6.20970000
2.37210000 -17.37130000 -6.25230000
-1.27240000 -14.62040000 -5.57970000
-1.31890000 -14.63920000 -5.61320000
-3.29870000 15.70170000 6.00540000
-0.98000000 17.26180000 3.33330000
-0.89530000 -16.91840000 -7.03380000
-1.31660000 -14.79010000 -5.66930000
-1.33530000 -14.89390000 -5.71450000
-1.19840000 -0.65990000 0.70090000
-1.16780000 -0.40270000 0.78770000
-1.30280000 -5.34460000 -1.37250000
0.22880000 17.14910000 4.44780000
0.14560000 17.18400000 4.42310000
0.08990000 17.21230000 4.34600000
2.08400000 -13.60380000 -5.59100000
2.08510000 -13.49540000 -5.49670000
-1.42150000 -12.11850000 -4.77140000
1.58640000 -8.52480000 -2.91120000
1.68510000 -8.98570000 -3.07380000
1.63320000 -8.89550000 -3.07650000
1.63410000 -8.71660000 -2.97500000
-4.46610000 15.57720000 4.91040000
-4.45370000 15.70910000 4.87440000
-4.51990000 15.61050000 4.91920000
-0.89780000 0.72220000 1.17230000
-0.86470000 0.87880000 1.23360000
-0.99420000 0.73170000 1.17520000
-1.27910000 -15.89590000 -6.01970000
-1.21600000 -15.70160000 -5.95100000
3.88730000 15.15560000 6.02190000
-0.01370000 -14.05020000 -4.98010000
0.09410000 -14.20500000 -5.05880000
-0.29530000 -14.24070000 -5.13210000
-4.13640000 15.87390000 4.74350000
-4.00020000 15.97650000 4.68970000
-1.00490000 -15.67880000 -5.89010000
-0.95340000 0.89570000 1.24140000
-0.87180000 1.22530000 1.36230000
-0.99720000 -14.10400000 -5.24260000
-1.20200000 -14.22850000 -5.35540000
2.03510000 13.91160000 6.00220000
-0.37190000 13.30110000 3.67720000
-1.34370000 -15.40350000 -5.90300000
0.64140000 16.18750000 4.85340000
0.03150000 16.07500000 4.83750000
1.94150000 13.30570000 6.23800000
2.18160000 13.43900000 6.21440000
-1.24440000 -4.43770000 -0.48790000
2.17530000 -17.39860000 -6.14140000
0.38670000 -16.22050000 -6.83910000
0.38530000 -16.40850000 -6.88050000
-1.40140000 -15.24120000 -5.94400000
1.52960000 16.10630000 6.28190000
1.74740000 16.15500000 6.21480000
1.02270000 16.33380000 4.82220000
-0.38190000 -16.58590000 -6.95450000
-1.36990000 -8.37140000 -2.84080000
-1.37090000 -8.12900000 -2.76400000
1.52400000 -6.82300000 -2.06070000
1.66570000 12.63090000 6.78970000
0.62510000 17.32610000 3.48400000
0.70630000 17.26630000 3.39780000
-1.15510000 1.07380000 1.88080000
-1.12490000 1.28320000 1.99850000
-1.12320000 1.50450000 2.05800000
-1.35710000 -7.80920000 -2.59960000
-0.02750000 9.92440000 3.98830000
-0.09390000 10.06870000 3.98740000
0.03880000 10.04340000 3.98810000
0.99800000 3.41660000 2.79240000
0.93870000 3.57810000 2.86350000
1.02960000 3.56950000 2.82410000
1.82840000 -11.03830000 -3.53710000
0.77060000 9.50830000 3.83820000
0.62700000 9.64090000 3.87310000
-0.38410000 7.51770000 3.77110000
-0.26070000 6.94050000 3.72080000
-0.70280000 -3.04400000 0.52740000
-0.70510000 -2.86860000 0.60120000
1.93340000 17.02380000 4.96050000
1.85360000 17.06300000 4.86150000
1.83370000 17.08510000 4.91550000
-1.48040000 -13.47540000 -5.88070000
-1.08640000 7.25010000 2.98860000
-1.07440000 6.78570000 2.92220000
0.89320000 8.82650000 3.76670000
0.49820000 -16.63760000 -5.94840000
-1.25400000 -0.75900000 0.99630000
-1.23040000 -0.82580000 1.07250000
-1.22560000 -1.01780000 1.01020000
-0.95400000 7.03570000 2.91490000
0.95960000 -10.37390000 -2.85730000
1.00380000 -10.05240000 -2.70610000
-1.25690000 -0.99540000 0.93790000
-1.12570000 -6.44150000 -2.06230000
-1.21310000 -6.70870000 -2.21110000
-1.20980000 -6.46170000 -2.06890000
0.29980000 -18.91880000 -7.28800000
2.18280000 -13.95020000 -5.52650000
2.18190000 -13.91580000 -5.44760000
2.21910000 -14.16460000 -5.57000000
2.40110000 13.15990000 6.70920000
-1.60690000 -15.68700000 -6.67560000
-1.58140000 -15.67410000 -6.71180000
-1.63220000 -15.87080000 -6.68980000
1.04720000 12.51760000 6.58170000
-0.27160000 4.95190000 3.36910000
-0.44130000 4.89410000 3.31460000
-1.17410000 -9.38470000 -2.79430000
-1.10040000 -9.44360000 -2.79760000
-1.61020000 -15.53670000 -6.63390000
-1.36870000 -11.70270000 -4.89300000
-1.35340000 -11.56090000 -4.80110000
1.20400000 -8.30000000 -1.86100000
1.26550000 -8.33290000 -1.90240000
1.10910000 -8.48070000 -1.91340000
1.89220000 -13.56270000 -4.82930000
-0.64320000 12.57790000 3.14060000
0.87800000 12.22210000 3.76030000
0.82770000 12.51370000 3.75780000
1.30150000 12.45830000 6.66010000
-1.10580000 3.56910000 2.14840000
-1.14540000 3.53840000 2.15460000
2.34650000 -15.41040000 -6.22240000
2.35910000 -15.33300000 -6.12430000
-0.85730000 12.98200000 3.11010000
-0.93200000 13.06140000 3.11590000
-0.79190000 12.85250000 3.12130000
-2.48020000 12.91800000 6.74350000
-1.06960000 3.74200000 2.20000000
-1.03250000 3.61050000 2.15290000
-3.27170000 13.63640000 5.91880000
-3.17020000 13.72640000 5.86390000
1.28630000 -16.26800000 -5.89860000
0.23650000 -5.04790000 -0.16290000
-1.24990000 -0.10390000 1.17180000
1.09280000 2.48760000 2.51180000
1.16100000 2.25490000 2.41650000
-0.27430000 -1.82740000 0.18080000
-0.25720000 -2.15940000 0.03660000
-0.02010000 -2.31530000 -0.02050000
0.68600000 10.35660000 3.87430000
1.21200000 17.20840000 4.77610000
1.27320000 17.22470000 4.83830000
1.31140000 17.21440000 4.77870000
-1.39540000 -15.98770000 -6.12870000
-4.59290000 15.30210000 5.48650000
-4.54990000 14.97990000 5.62430000
0.48090000 2.51590000 2.69870000
-0.63010000 6.68710000 3.57780000
-0.95610000 -7.69660000 -1.76640000
-1.03130000 12.68920000 3.28750000
-1.00390000 12.78630000 3.23060000
0.89760000 12.55010000 3.35280000
0.90810000 12.65800000 3.43230000
0.86800000 12.43060000 3.27220000
0.83320000 12.74420000 3.19040000
0.87770000 12.56770000 3.28980000
-1.12680000 -1.45900000 0.31880000
3.86260000 14.99600000 5.59800000
3.75350000 14.96950000 5.57990000
1.01610000 -2.69240000 0.72000000
-1.13880000 1.99810000 1.72200000
-0.18320000 17.24850000 4.20360000
-0.12570000 17.23640000 4.13040000
1.23980000 1.82290000 1.70790000
0.89680000 15.31050000 3.04240000
3.81500000 15.11090000 5.51900000
-1.13760000 -0.49070000 1.35070000
-1.15150000 -0.70770000 1.25640000
-0.10060000 17.11700000 4.56040000
1.18530000 5.23310000 2.78480000
1.86010000 16.71520000 5.46090000
-1.53790000 16.01410000 4.80310000
1.47030000 -5.08710000 -1.18930000
-3.70720000 16.77970000 4.67620000
-3.64410000 16.80390000 4.72740000
1.17460000 4.58600000 2.55190000
1.04810000 7.21720000 3.06650000
1.03630000 7.60020000 3.13790000
-0.60720000 5.97670000 2.65670000
-0.66720000 5.73240000 2.61510000
-0.59780000 6.24730000 2.70570000
-0.25530000 17.04640000 3.02470000
-3.40080000 13.86060000 6.37830000
-3.43600000 16.86930000 4.79100000
0.70770000 -15.21610000 -5.50610000
-0.81910000 5.75120000 2.62860000
-0.89810000 5.41280000 2.56800000
-1.53130000 -14.16080000 -6.14320000
-0.88340000 14.62600000 3.27300000
-4.24460000 14.14620000 5.76150000
-4.21180000 14.13150000 5.71300000
-1.17440000 2.11030000 1.93440000
-0.93350000 5.78620000 2.65070000
-1.16330000 7.73230000 3.52140000
-1.16780000 7.87010000 3.52620000
-1.19260000 7.77170000 3.48490000
-1.15320000 2.12080000 1.81510000
-3.53460000 16.46270000 5.21070000
-3.76150000 16.33210000 5.23000000
-2.10220000 15.22930000 5.16380000
-2.01060000 15.67610000 4.92530000
-1.26980000 -3.22370000 0.05560000
-1.15090000 7.97180000 3.55810000
-1.17470000 7.97720000 3.53370000
-0.27530000 -0.14970000 0.87530000
1.43940000 17.17740000 4.97310000
1.59890000 17.11730000 5.02690000
1.37450000 -0.83810000 1.17020000
0.17900000 16.22770000 3.24990000
1.84630000 -16.50210000 -6.81500000
2.05330000 -16.60910000 -6.80660000
-3.37370000 16.57630000 5.15120000
0.99350000 -5.13450000 -0.30710000
-1.50560000 -16.40780000 -6.40420000
-1.52940000 -16.30500000 -6.44240000
1.29520000 -0.70080000 1.36560000
-1.70460000 -16.56570000 -6.73660000
1.28020000 -2.17370000 0.11100000
1.35370000 -2.19290000 0.15120000
1.32740000 -2.02430000 0.20930000
1.02760000 7.19810000 3.54640000
1.05220000 7.03720000 3.49990000
1.11420000 -4.33650000 -0.89420000
1.27080000 -4.29670000 -0.85630000
0.77920000 -3.97720000 -0.74310000
-0.46600000 15.57160000 6.61440000
0.73380000 -18.49010000 -7.18300000
0.90840000 -18.24730000 -7.15890000
-0.99380000 4.01640000 2.90830000
-1.05880000 3.81980000 2.80430000
-1.03550000 3.70790000 2.79490000
-2.76670000 12.96220000 6.53520000
-1.20970000 12.95110000 7.05700000
-1.10040000 4.47600000 2.88130000
-1.07980000 4.62520000 2.94420000
-1.50650000 -17.15320000 -7.06590000
-1.63910000 -17.47900000 -6.76430000
1.85410000 -13.31110000 -5.60900000
1.84950000 -12.91760000 -5.37550000
1.88270000 -12.84930000 -5.32150000
1.04140000 9.04010000 3.52730000
1.03580000 9.02920000 3.58180000
1.00110000 -18.70410000 -6.99200000
3.35510000 13.60150000 6.56390000
3.43080000 13.67940000 6.54910000
1.05090000 -18.74390000 -6.72130000
1.82830000 -12.66540000 -5.24200000
0.43040000 -3.92970000 -0.74020000
3.35680000 13.52360000 6.36040000
3.41400000 13.57230000 6.32000000
-0.78390000 17.21220000 4.94090000
-0.92980000 17.25420000 4.95610000
-1.61490000 13.13420000 6.19980000
1.55300000 -7.49160000 -1.60310000
1.61880000 -7.74100000 -1.77360000
1.65000000 -8.02800000 -1.92390000
0.97600000 11.19290000 3.69140000
0.96400000 11.37970000 3.69400000
3.45010000 13.59110000 6.35390000
-2.24030000 12.50280000 6.50470000
0.57660000 14.86490000 2.78870000
1.61610000 -7.97570000 -1.87590000
0.75380000 7.06490000 3.67680000
1.29610000 -17.69900000 -7.06100000
1.21270000 -17.94380000 -7.11000000
0.25800000 -19.18990000 -6.39720000
-1.14760000 8.49820000 3.57300000
-1.17080000 8.60720000 3.53280000
-1.13460000 8.44200000 3.59520000
1.09390000 12.40900000 6.66640000
-1.50050000 -17.08070000 -6.33680000
-1.93210000 12.57070000 6.84380000
-2.20970000 12.64600000 6.77500000
1.87450000 -13.90250000 -5.00080000
-0.86500000 8.84270000 3.74440000
-1.03580000 8.60640000 3.67170000
-1.04080000 8.73720000 3.68680000
-1.09600000 8.68370000 3.65230000
-1.12700000 12.23490000 6.82500000
0.04220000 -11.09810000 -3.24640000
1.19140000 16.26870000 6.17660000
-1.10800000 8.57340000 3.62580000
-1.04110000 0.46700000 1.76940000
1.30830000 0.45520000 1.25110000
1.36190000 0.34850000 1.29440000
0.59680000 9.90030000 3.88280000
-0.78630000 17.25990000 3.84640000
2.35670000 16.73130000 5.19550000
2.17000000 16.84050000 5.14350000
-1.08090000 13.90840000 7.09940000
-1.04730000 11.70630000 3.61660000
-1.04230000 11.25100000 3.70990000
-0.86100000 16.13480000 3.16050000
-0.85500000 11.55560000 3.78060000
-1.12710000 -3.18280000 -0.48600000
-1.15810000 -3.51950000 -0.64940000
-1.09230000 13.36690000 7.10980000
-1.16620000 13.17950000 7.08590000
-1.35020000 -8.95170000 -3.29500000
1.44040000 -4.69100000 -0.30360000
0.64940000 -18.87730000 -7.20210000
-0.96610000 12.34590000 7.07830000
