-0.25982162 0.44123054 1.74012017
-0.25982162 0.44123054 1.74012017
-0.49355471 1.91415405 2.53671074
-0.40013117 1.91415417 2.56217289
-0.19764374 0.44123054 1.75706613
-0.19764374 0.44123054 1.75706613
-0.40013117 1.91415417 2.56217289
-0.30391693 1.91415441 2.58225751
-0.13360852 0.44123042 1.77043402
-0.13360852 0.44123042 1.77043402
-0.30391693 1.91415441 2.58225751
-0.11503988 1.91415417 2.61499786
-0.00790176 0.44123054 1.79222441
1.48512268 1.91415405 2.27796245
1.20365500 0.44123042 1.47084582
1.05708361 0.44123042 1.56791079
1.70534909 1.91415405 2.13212037
1.88800871 0.44123045 0.21507622
2.73360491 1.91415405 0.24530029
2.74081397 1.91415405 0.10640027
1.89280677 0.44123048 0.12263135
1.25673699 0.44123048 -1.18687737
1.78510582 1.91415405 -1.86116374
1.68249691 1.91415405 -1.94100106
1.18844569 0.44123048 -1.24001324
1.18844569 0.44123048 -1.24001324
1.68249691 1.91415405 -1.94100106
1.56778061 1.91415381 -2.01811981
1.11209655 0.44123048 -1.29133928
2.74081397 1.91415405 0.10640027
1.88839030 0.44123089 0.03839417
1.89280677 0.44123048 0.12263135
2.73417807 1.91415441 -0.02016811
2.39045095 1.91415405 -1.16244709
1.61497176 0.44123048 -0.78949523
1.65962315 0.44123048 -0.72184759
2.32336116 1.91415405 -1.26408899
2.45238471 1.91415405 -1.05676568
1.65962315 0.44123048 -0.72184759
1.70084321 0.44123048 -0.65151155
2.39045095 1.91415405 -1.16244709
1.88645899 0.44123048 0.25059879
2.73127627 1.91415405 0.29867384
2.73360491 1.91415405 0.24530029
1.88800871 0.44123045 0.21507622
1.56612551 0.44123042 1.11442649
2.24996853 1.91415405 1.59659290
2.29366994 1.91415405 1.54242384
1.59521067 0.44123042 1.07837451
1.29889619 0.44123048 -1.15116441
1.84845126 1.91415381 -1.80750442
1.78510582 1.91415405 -1.86116374
1.25673699 0.44123048 -1.18687737
1.65742886 0.44123042 0.99057174
2.38715386 1.91415405 1.41049886
2.42676353 1.91415405 1.32836056
1.68379128 0.44123042 0.93590480
1.41584337 0.44108820 -1.04924965
2.02416635 1.91401184 -1.65437520
1.84845126 1.91415381 -1.80750442
1.29889619 0.44123048 -1.15116441
1.68379128 0.44123042 0.93590480
2.42676353 1.91415405 1.32836056
2.47268987 1.91415465 1.23520529
1.71435726 0.44123095 0.87390572
1.59521067 0.44123042 1.07837451
2.29366994 1.91415405 1.54242384
2.38715386 1.91415405 1.41049886
1.65742886 0.44123042 0.99057174
2.65805459 1.91415381 -0.49531505
1.80626667 0.44123048 -0.40282762
1.83772647 0.44123048 -0.27783892
2.61078572 1.91415405 -0.68311268
2.54943728 1.91415358 -0.83546054
1.70084321 0.44123048 -0.65151155
1.76543629 0.44123000 -0.50422257
2.45238471 1.91415405 -1.05676568
2.69163489 1.91415405 -0.34559202
1.83772647 0.44123048 -0.27783892
1.86007559 0.44123089 -0.17819110
2.65805459 1.91415381 -0.49531505
1.71435726 0.44123095 0.87390572
2.47268987 1.91415465 1.23520529
2.50987482 1.91415358 1.15422857
1.73910558 0.44122997 0.82001185
1.73910558 0.44122997 0.82001185
2.50987482 1.91415358 1.15422857
2.58437395 1.91415405 0.97179770
1.78868818 0.44123042 0.69859529
1.78868818 0.44123042 0.69859529
2.58437395 1.91415405 0.97179770
2.61512589 1.91415405 0.87785655
1.80915511 0.44123042 0.63607281
1.80915511 0.44123042 0.63607281
2.61512589 1.91415405 0.87785655
2.66350055 1.91415441 0.72293139
1.84135115 0.44123095 0.53296268
1.87524295 0.44123045 0.34986719
2.71442389 1.91415417 0.44782642
2.73127627 1.91415405 0.29867384
1.88645899 0.44123048 0.25059879
1.85993040 0.44123045 0.45948631
2.69141674 1.91415381 0.61253166
2.71025014 1.91415310 0.48951915
1.87246513 0.44123000 0.37761554
1.87246513 0.44123000 0.37761554
2.71025014 1.91415310 0.48951915
2.71442389 1.91415417 0.44782642
1.87524295 0.44123045 0.34986719
1.84135115 0.44123095 0.53296268
2.66350055 1.91415441 0.72293139
2.68250036 1.91415405 0.65619361
1.85399604 0.44123042 0.48854575
1.85399604 0.44123042 0.48854575
2.68250036 1.91415405 0.65619361
2.69141674 1.91415381 0.61253166
1.85993040 0.44123045 0.45948631
2.23146677 1.91416585 -1.39545703
1.41584337 0.44108820 -1.04924965
1.55381155 0.44124225 -0.87692726
2.02416635 1.91401184 -1.65437520
2.32336116 1.91415405 -1.26408899
1.55381155 0.44124225 -0.87692726
1.61497176 0.44123048 -0.78949523
2.23146677 1.91416585 -1.39545703
1.26472557 6.33292484 -0.23865426
1.11037016 7.02895069 -0.18146458
1.08728492 7.02895069 -0.23879264
1.23783541 6.33292437 -0.30543125
0.31392583 7.02895069 -0.82026899
0.22278214 6.33292484 -0.98732114
0.33700997 6.33292484 -0.98274714
0.21586122 7.02895069 -0.82419568
1.31881070 6.33292484 0.05192586
1.15680242 7.02895117 0.06799876
1.14079332 7.02895117 -0.05445714
1.30016315 6.33292437 -0.09071295
-0.70097119 7.02895069 -0.17855063
-0.86052042 6.33292484 -0.18612707
-0.84516394 6.33292389 -0.23525977
-0.71415466 7.02895117 -0.13637003
-0.88696659 6.33292389 0.28531131
-0.73685884 7.02895069 0.26836029
-0.72737586 7.02895117 0.31863546
-0.87592065 6.33292484 0.34387293
-0.69164473 7.02895069 -0.19973925
-0.84516394 6.33292389 -0.23525977
-0.83430046 6.33292437 -0.25994086
-0.70097119 7.02895069 -0.17855063
-0.67035884 7.02895069 -0.25587419
-0.83430046 6.33292437 -0.25994086
-0.80950612 6.33292437 -0.32532784
-0.69164473 7.02895069 -0.19973925
-0.74783659 7.02895069 0.06395153
-0.90151381 6.33292437 0.08376063
-0.89975387 6.33292389 0.04721161
-0.74934763 7.02895069 0.09532878
-0.74934763 7.02895069 0.09532878
-0.89995366 6.33292484 0.14617428
-0.90151381 6.33292437 0.08376063
-0.74800819 7.02895069 0.14891082
-0.85642195 6.33292437 0.43280116
-0.71063620 7.02895117 0.39498043
-0.70625788 7.02895069 0.41225383
-0.85132200 6.33292437 0.45292172
-0.63958275 7.02895069 -0.32081294
-0.80950612 6.33292437 -0.32532784
-0.77365750 6.33292484 -0.40096992
-0.67035884 7.02895069 -0.25587419
-0.74372756 7.02895069 0.03308270
-0.89975387 6.33292389 0.04721161
-0.89496750 6.33292484 0.01125505
-0.74783659 7.02895069 0.06395153
-0.73753810 7.02895069 -0.02223440
-0.89496750 6.33292484 0.01125505
-0.88775796 6.33292437 -0.05317918
-0.74372756 7.02895069 0.03308270
-0.87592065 6.33292484 0.34387293
-0.72737586 7.02895117 0.31863546
-0.71063620 7.02895117 0.39498043
-0.85642195 6.33292437 0.43280116
-0.44722167 7.02895069 -0.57431358
-0.62581551 6.33292389 -0.61887699
-0.54959112 6.33292437 -0.69625306
-0.51266026 7.02895069 -0.50788605
-0.73401684 7.02895069 -0.04722393
-0.88775796 6.33292437 -0.05317918
-0.88365626 6.33292437 -0.08228756
-0.73753810 7.02895069 -0.02223440
-0.80312270 6.33292437 0.58046573
-0.66487861 7.02895117 0.52175033
-0.64068866 7.02895069 0.57036757
-0.77494562 6.33292437 0.63709605
-0.71251529 6.33292437 0.73693657
-0.58709210 7.02895069 0.65608060
-0.57674682 7.02895021 0.67054129
-0.70046479 6.33292437 0.75378072
-0.81398982 6.33292389 0.55536526
-0.67420816 7.02895021 0.50020182
-0.66487861 7.02895117 0.52175033
-0.80312270 6.33292437 0.58046573
-0.72222739 7.02895069 -0.10083190
-0.88365626 6.33292437 -0.08228756
-0.86992371 6.33292437 -0.14473134
-0.73401684 7.02895069 -0.04722393
-0.60225374 7.02895069 -0.38585693
-0.77365750 6.33292484 -0.40096992
-0.73017579 6.33292437 -0.47673440
-0.63958275 7.02895069 -0.32081294
-0.70046479 6.33292437 0.75378072
-0.57674682 7.02895021 0.67054129
-0.55508196 7.02895021 0.69730848
-0.67522919 6.33292389 0.78495961
-0.53348398 6.33292437 -0.71188152
-0.43339366 7.02895069 -0.58773077
-0.44722167 7.02895069 -0.57431358
-0.54959112 6.33292437 -0.69625306
-0.77494562 6.33292437 0.63709605
-0.64068866 7.02895069 0.57036757
-0.62129271 7.02895069 0.60243213
-0.75235289 6.33292437 0.67444569
-0.85132200 6.33292437 0.45292172
-0.70625788 7.02895069 0.41225383
-0.68142456 7.02895069 0.48528576
-0.82239568 6.33292437 0.53799087
-0.75235289 6.33292437 0.67444569
-0.62129271 7.02895069 0.60243213
-0.61133909 7.02895069 0.61849076
-0.74075854 6.33292532 0.69315112
-0.49931324 6.33292532 -0.74120086
-0.40405804 7.02895164 -0.61290133
-0.43339366 7.02895069 -0.58773077
-0.53348398 6.33292437 -0.71188152
-0.74075854 6.33292532 0.69315112
-0.61133909 7.02895069 0.61849076
-0.60365802 7.02895069 0.63125813
-0.73181158 6.33292484 0.70802277
-0.73181158 6.33292484 0.70802277
-0.60365802 7.02895069 0.63125813
-0.58709210 7.02895069 0.65608060
-0.71251529 6.33292437 0.73693657
-0.67522919 6.33292389 0.78495961
-0.55508196 7.02895021 0.69730848
-0.53052092 7.02895117 0.72665095
-0.64661980 6.33292484 0.81913835
-0.82239568 6.33292437 0.53799087
-0.68142456 7.02895069 0.48528576
-0.67420816 7.02895021 0.50020182
-0.81398982 6.33292389 0.55536526
-0.57481921 7.02895069 -0.42630246
-0.73017579 6.33292437 -0.47673440
-0.69821948 6.33292437 -0.52384639
-0.60225374 7.02895069 -0.38585693
-0.54780358 7.02895069 -0.46123022
-0.69821948 6.33292437 -0.52384639
-0.66675115 6.33292484 -0.56453091
-0.57481921 7.02895069 -0.42630246
-0.51266026 7.02895069 -0.50788605
-0.66675115 6.33292484 -0.56453091
-0.62581551 6.33292389 -0.61887699
-0.54780358 7.02895069 -0.46123022
-0.74800819 7.02895069 0.14891082
-0.89834815 6.33292484 0.16778573
-0.89995366 6.33292484 0.14617428
-0.74662983 7.02895117 0.16746444
-0.89834815 6.33292484 0.16778573
-0.74662983 7.02895117 0.16746444
-0.74257112 7.02895069 0.21527933
-0.89362049 6.33292437 0.22348161
-0.89362049 6.33292437 0.22348161
-0.74257112 7.02895069 0.21527933
-0.73685884 7.02895069 0.26836029
-0.88696659 6.33292389 0.28531131
-0.71415466 7.02895117 -0.13637003
-0.86992371 6.33292437 -0.14473134
-0.86052042 6.33292484 -0.18612707
-0.72222739 7.02895069 -0.10083190
-0.45581016 6.33292532 -0.77557850
-0.36671069 7.02895117 -0.64241451
-0.40405804 7.02895164 -0.61290133
-0.49931324 6.33292532 -0.74120086
0.37636933 7.02895069 -0.81456727
0.33700997 6.33292484 -0.98274714
0.40974542 6.33292437 -0.97610575
0.31392583 7.02895069 -0.82026899
-0.40942121 6.33292532 -0.81027955
-0.32688576 7.02895164 -0.67220539
-0.36671069 7.02895117 -0.64241451
-0.45581016 6.33292532 -0.77557850
-0.22783066 6.33292437 -0.90374732
-0.17099015 7.02895069 -0.75244761
-0.19841942 7.02895069 -0.74087614
-0.25978082 6.33292484 -0.89026880
-0.37164178 6.33292484 -0.83551478
-0.29445210 7.02895069 -0.69386977
-0.32688576 7.02895164 -0.67220539
-0.40942121 6.33292532 -0.81027955
0.54228067 7.02895069 -0.76944315
0.48316887 6.33292437 -0.96063787
0.60300261 6.33292484 -0.92354423
0.43940336 7.02895069 -0.80128819
-0.12636828 6.33292437 -0.93906504
-0.08388466 7.02895069 -0.78276765
-0.12634772 7.02895069 -0.76838678
-0.17583014 6.33292437 -0.92231369
-0.17583014 6.33292437 -0.92231369
-0.12634772 7.02895069 -0.76838678
-0.17099015 7.02895069 -0.75244761
-0.22783066 6.33292437 -0.90374732
-0.07291707 6.33292532 -0.95366329
-0.03799675 7.02895117 -0.79530066
-0.08388466 7.02895069 -0.78276765
-0.12636828 6.33292437 -0.93906504
0.60590547 7.02895117 -0.74366796
0.60300261 6.33292484 -0.92354423
0.67711425 6.33292532 -0.89352089
0.54228067 7.02895069 -0.76944315
0.13039143 6.33292437 -0.98434305
0.13654372 7.02895069 -0.82163912
0.04945494 7.02895069 -0.81170648
0.02894854 6.33292437 -0.97277349
0.02894854 6.33292437 -0.97277349
0.04945494 7.02895069 -0.81170648
-0.03799675 7.02895117 -0.79530066
-0.07291707 6.33292532 -0.95366329
0.66412681 7.02895069 -0.71564609
0.67711425 6.33292532 -0.89352089
0.74493146 6.33292484 -0.86088008
0.60590547 7.02895117 -0.74366796
-0.32172063 6.33292437 -0.86078733
-0.25159472 7.02895069 -0.71556616
-0.29445210 7.02895069 -0.69386977
-0.37164178 6.33292484 -0.83551478
-0.25978082 6.33292484 -0.89026880
-0.19841942 7.02895069 -0.74087614
-0.25159472 7.02895069 -0.71556616
-0.32172063 6.33292437 -0.86078733
0.71789140 7.02895069 -0.68382311
0.74493146 6.33292484 -0.86088008
0.80755770 6.33292484 -0.82381213
0.66412681 7.02895069 -0.71564609
0.43940336 7.02895069 -0.80128819
0.40974542 6.33292437 -0.97610575
0.48316887 6.33292437 -0.96063787
0.37636933 7.02895069 -0.81456727
0.21586122 7.02895069 -0.82419568
0.13039143 6.33292437 -0.98434305
0.22278214 6.33292484 -0.98732114
0.13654372 7.02895069 -0.82163912
0.08465227 7.02895069 1.05960190
0.10248033 6.33292437 1.21074736
0.06994715 6.33292532 1.20696664
0.11258204 7.02895069 1.06284773
-0.64661980 6.33292484 0.81913835
-0.53052092 7.02895117 0.72665095
-0.46485493 7.02895117 0.80168217
-0.57013071 6.33292437 0.90653640
0.11258204 7.02895069 1.06284773
0.15522771 6.33292532 1.21443081
0.10248033 6.33292437 1.21074736
0.15786570 7.02895164 1.06600988
0.15522771 6.33292532 1.21443081
0.15786570 7.02895164 1.06600988
0.19271247 7.02895069 1.06669831
0.19581799 6.33292437 1.21523273
-0.41443390 7.02895069 0.84961593
-0.47363600 6.33292484 0.98984832
-0.51139921 6.33292437 0.96237051
-0.38201421 7.02895117 0.87320572
0.63985753 6.33292532 1.12989783
0.57392067 7.02895117 0.99343824
0.62998366 7.02895117 0.96636873
0.70516086 6.33292484 1.09836674
-0.35864857 7.02895117 0.88942945
-0.37295443 6.33292532 1.05797923
-0.44641915 6.33292437 1.00874627
-0.29557905 7.02895117 0.93169594
0.19581799 6.33292437 1.21523273
0.19271247 7.02895069 1.06669831
0.22061166 7.02895069 1.06627142
0.22831556 6.33292437 1.21473527
0.22831556 6.33292437 1.21473527
0.22061166 7.02895069 1.06627142
0.25746742 7.02895069 1.06555748
0.27124596 6.33292484 1.21390390
-0.14318717 7.02895117 1.00340807
-0.16299443 6.33292532 1.15256023
-0.19544511 6.33292437 1.14151108
-0.11532822 7.02895117 1.01289380
-0.46485493 7.02895117 0.80168217
-0.52943456 6.33292389 0.94577843
-0.57013071 6.33292437 0.90653640
-0.42991731 7.02895069 0.83537161
-0.42991731 7.02895069 0.83537161
-0.51139921 6.33292437 0.96237051
-0.52943456 6.33292389 0.94577843
-0.41443390 7.02895069 0.84961593
-0.11532822 7.02895117 1.01289380
-0.13659947 6.33292437 1.16052270
-0.16299443 6.33292532 1.15256023
-0.09266812 7.02895069 1.01972973
-0.29557905 7.02895117 0.93169594
-0.29755640 6.33274698 1.09812462
-0.37295443 6.33292532 1.05797923
-0.23084979 7.02877283 0.96616083
0.86785626 6.33292532 0.99531269
0.76965773 7.02895164 0.87789673
0.83762908 7.02895117 0.82677013
0.94703066 6.33292484 0.93575931
-0.38201421 7.02895117 0.87320572
-0.44641915 6.33292437 1.00874627
-0.47363600 6.33292484 0.98984832
-0.35864857 7.02895117 0.88942945
0.52127582 6.33292437 1.17350984
0.47211820 7.02895117 1.03087914
0.49667570 7.02895164 1.02448070
0.54988086 6.33292484 1.16605663
0.40295741 6.33292532 1.19947875
0.37054178 7.02895117 1.05317342
0.47211820 7.02895117 1.03087914
0.52127582 6.33292437 1.17350984
0.94703066 6.33292484 0.93575931
0.83762908 7.02895117 0.82677013
0.89777464 7.02895069 0.76804841
1.01708949 6.33292389 0.86735892
0.27124596 6.33292484 1.21390390
0.25746742 7.02895069 1.06555748
0.29177299 7.02895069 1.06290722
0.31120577 6.33292437 1.21081674
0.89777464 7.02895069 0.76804841
1.03042090 6.33292484 0.85052496
1.01708949 6.33292389 0.86735892
0.90921956 7.02895069 0.75359648
0.31120577 6.33292437 1.21081674
0.29177299 7.02895069 1.06290722
0.33983824 7.02895164 1.05723155
0.36719325 6.33292532 1.20420563
0.90921956 7.02895069 0.75359648
1.04524922 6.33292437 0.83301842
1.03042090 6.33292484 0.85052496
0.92194980 7.02895069 0.73856699
0.36719325 6.33292532 1.20420563
0.33983824 7.02895164 1.05723155
0.37054178 7.02895117 1.05317342
0.40295741 6.33292532 1.19947875
0.54988086 6.33292484 1.16605663
0.49667570 7.02895164 1.02448070
0.57392067 7.02895117 0.99343824
0.63985753 6.33292532 1.12989783
0.96359587 7.02895164 0.68958604
1.10657299 6.33292484 0.76058137
1.09375954 6.33292484 0.77596438
0.97459620 7.02895069 0.67637980
-0.23084979 7.02877283 0.96616083
-0.23082776 6.33292484 1.12842011
-0.29755640 6.33274698 1.09812462
-0.17356318 7.02895117 0.99216962
-0.17356318 7.02895117 0.99216962
-0.19544511 6.33292437 1.14151108
-0.23082776 6.33292484 1.12842011
-0.14318717 7.02895117 1.00340807
0.70516086 6.33292484 1.09836674
0.62998366 7.02895117 0.96636873
0.64880627 7.02895117 0.95586979
0.72708577 6.33292484 1.08613718
0.92194980 7.02895069 0.73856699
1.09375954 6.33292484 0.77596438
1.04524922 6.33292437 0.83301842
0.96359587 7.02895164 0.68958604
0.72708577 6.33292484 1.08613718
0.64880627 7.02895117 0.95586979
0.68678749 7.02895069 0.93277663
0.77132714 6.33292532 1.05923772
-0.09266812 7.02895069 1.01972973
-0.09596269 6.33292437 1.17265165
-0.13659947 6.33292437 1.16052270
-0.05778142 7.02895117 1.03014243
-0.05778142 7.02895117 1.03014243
-0.05501347 6.33292532 1.18381238
-0.09596269 6.33292437 1.17265165
-0.02262649 7.02895069 1.03972375
-0.02262649 7.02895069 1.03972375
-0.01284103 6.33292532 1.19261599
-0.05501347 6.33292532 1.18381238
0.01357856 7.02895164 1.04728162
0.01357856 7.02895164 1.04728162
0.06994715 6.33292532 1.20696664
-0.01284103 6.33292532 1.19261599
0.08465227 7.02895069 1.05960190
0.77132714 6.33292532 1.05923772
0.68678749 7.02895069 0.93277663
0.76965773 7.02895164 0.87789673
0.86785626 6.33292532 0.99531269
1.31855917 6.33292484 0.16828552
1.15658641 7.02895069 0.16789356
1.15929925 7.02895069 0.11562588
1.32171917 6.33292484 0.10740317
0.79967010 7.02895069 -0.62476128
0.85783982 6.33292484 -0.79000968
0.90281522 6.33292484 -0.75501543
0.76105875 7.02895069 -0.65480387
0.76105875 7.02895069 -0.65480387
0.80755770 6.33292484 -0.82381213
0.85783982 6.33292484 -0.79000968
0.71789140 7.02895069 -0.68382311
1.32171917 6.33292484 0.10740317
1.15929925 7.02895069 0.11562588
1.15680242 7.02895117 0.06799876
1.31881070 6.33292484 0.05192586
1.16814888 6.33292484 -0.44875512
1.02745903 7.02895069 -0.36183646
1.00221348 7.02895069 -0.40008393
1.13874221 6.33292437 -0.49330667
1.19529581 6.33292484 -0.40243328
1.05076456 7.02895069 -0.32206896
1.02745903 7.02895069 -0.36183646
1.16814888 6.33292484 -0.44875512
1.15571022 7.02895069 0.18797761
1.31855917 6.33292484 0.16828552
1.31753862 6.33292484 0.19168000
1.15658641 7.02895069 0.16789356
0.97459620 7.02895069 0.67637980
1.12572789 6.33292437 0.73683816
1.10657299 6.33292484 0.76058137
0.99104071 7.02895069 0.65599626
0.82350659 7.02895069 -0.60456944
0.90281522 6.33292484 -0.75501543
0.93058050 6.33292389 -0.73149562
0.79967010 7.02895069 -0.62476128
1.02621830 7.02895117 0.60635328
1.18406534 6.33292389 0.64301032
1.16670370 6.33292437 0.67901301
1.04112327 7.02895069 0.57544506
0.88962781 7.02880859 -0.54694724
0.93058050 6.33292389 -0.73149562
1.00759983 6.33278227 -0.66437602
0.82350659 7.02895069 -0.60456944
1.04112327 7.02895069 0.57544506
1.20419550 6.33292532 0.60217869
1.18406534 6.33292389 0.64301032
1.05840516 7.02895164 0.54039103
0.99104071 7.02895069 0.65599626
1.16670370 6.33292437 0.67901301
1.12572789 6.33292437 0.73683816
1.02621830 7.02895117 0.60635328
1.28544450 6.33292437 -0.15633924
1.12815726 7.02895069 -0.11079711
1.11037016 7.02895069 -0.18146458
1.26472557 6.33292484 -0.23865426
1.23783541 6.33292437 -0.30543125
1.08728492 7.02895069 -0.23879264
1.05076456 7.02895069 -0.32206896
1.19529581 6.33292484 -0.40243328
1.30016315 6.33292437 -0.09071295
1.14079332 7.02895117 -0.05445714
1.12815726 7.02895069 -0.11079711
1.28544450 6.33292437 -0.15633924
1.05840516 7.02895164 0.54039103
1.22049439 6.33292389 0.56668526
1.20419550 6.33292532 0.60217869
1.07239795 7.02895069 0.50991976
1.07239795 7.02895069 0.50991976
1.25314879 6.33292437 0.48672232
1.22049439 6.33292389 0.56668526
1.10043156 7.02895069 0.44127169
1.10043156 7.02895069 0.44127169
1.26662803 6.33292484 0.44554633
1.25314879 6.33292437 0.48672232
1.11200345 7.02895069 0.40592209
1.11200345 7.02895069 0.40592209
1.28783154 6.33292484 0.37763983
1.26662803 6.33292484 0.44554633
1.13020682 7.02895069 0.34762427
1.14936876 7.02895164 0.24410325
1.31753862 6.33292484 0.19168000
1.31015205 6.33292532 0.25705630
1.15571022 7.02895069 0.18797761
1.14071131 7.02895069 0.30608130
1.30832267 6.33292389 0.27533108
1.30006754 6.33292437 0.32924956
1.14779830 7.02895069 0.25979221
1.14779830 7.02895069 0.25979221
1.31015205 6.33292532 0.25705630
1.30832267 6.33292389 0.27533108
1.14936876 7.02895164 0.24410325
1.13020682 7.02895069 0.34762427
1.29615927 6.33292484 0.34838754
1.28783154 6.33292484 0.37763983
1.13735604 7.02895069 0.32251114
1.13735604 7.02895069 0.32251114
1.30006754 6.33292437 0.32924956
1.29615927 6.33292484 0.34838754
1.14071131 7.02895069 0.30608130
1.09846330 6.33293581 -0.55088776
0.96763390 7.02896261 -0.44951740
0.88962781 7.02880859 -0.54694724
1.00759983 6.33278227 -0.66437602
1.13874221 6.33292437 -0.49330667
1.00221348 7.02895069 -0.40008393
0.96763390 7.02896261 -0.44951740
1.09846330 6.33293581 -0.55088776
1.55200744 9.93942451 -0.40263444
1.59073734 9.95443916 -0.31526855
1.55505824 9.95443821 -0.40387124
1.58761334 9.93942547 -0.31421325
0.20795327 9.93942642 -1.30553949
0.35920471 9.93942642 -1.29948306
0.20823947 9.95443916 -1.30863369
0.35980201 9.95443916 -1.30256462
1.63453710 9.93942547 -0.11832115
1.66249967 9.95444012 0.07028718
1.63775766 9.95443916 -0.11897282
1.65922844 9.93942642 0.07055078
-1.22647178 9.93942547 -0.24466115
-1.20613766 9.93942547 -0.30971852
-1.22913599 9.95443916 -0.24557297
-1.20876038 9.95443916 -0.31076431
-1.24686360 9.93942451 0.45712420
-1.26422608 9.95443916 0.37995341
-1.24956977 9.95443916 0.45765573
-1.26148951 9.93942547 0.37958133
-1.19175291 9.93942547 -0.34239933
-1.19434607 9.95443821 -0.34351212
-1.15892220 9.93942547 -0.42897961
-1.16144788 9.95443916 -0.43027085
-1.28074121 9.93942547 0.11270545
-1.27842140 9.93942547 0.06430848
-1.28350663 9.95443916 0.11253044
-1.28119266 9.95443916 0.06403191
-1.27866638 9.93942547 0.19534846
-1.28141844 9.95443821 0.19534370
-1.21429193 9.93942547 0.60151786
-1.22369778 9.95443916 0.57564974
-1.21693122 9.95443916 0.60234624
-1.22104454 9.93942547 0.57487577
-1.11145437 9.93942547 -0.52913910
-1.11388218 9.95443916 -0.53063601
-1.27208364 9.93942547 0.01669714
-1.27484190 9.95443821 0.01632290
-1.26253736 9.93942642 -0.06862170
-1.26527596 9.95443821 -0.06917138
-0.91569358 9.93942642 -0.81767482
-0.81476325 9.93942547 -0.92012984
-0.91771871 9.95443916 -0.81976509
-0.81658077 9.95443916 -0.92243147
-1.25710618 9.93942547 -0.10716496
-1.25983381 9.95443821 -0.10779415
-1.11316013 9.93942547 0.84538728
-1.15297782 9.95443916 0.77157772
-1.11559153 9.95443916 0.84671742
-1.15046990 9.93942547 0.77040142
-1.03275609 9.95443916 0.97919041
-1.01452732 9.93942547 0.99988747
-1.03049481 9.93942642 0.97758800
-1.01674473 9.95443916 1.00153136
-1.16739702 9.95443916 0.73827332
-1.16485941 9.93942547 0.73716575
-1.23892272 9.93942547 -0.18984814
-1.24161279 9.95443916 -0.19064718
-1.05387926 9.93942451 -0.62946063
-1.05618870 9.95443916 -0.63116413
-0.98112339 9.93942547 1.04117608
-0.98328310 9.95443916 1.04290938
-0.79520905 9.95443821 -0.94316781
-0.79343539 9.93942642 -0.94082391
-1.08324456 9.93942547 0.89484257
-1.08561420 9.95443916 0.89627469
-1.17598987 9.93942547 0.71415979
-1.17855060 9.95443916 0.71522021
-1.06787896 9.93942547 0.91960090
-1.07020366 9.95443916 0.92107368
-0.74986959 9.95443916 -0.98207021
-0.74818891 9.93942642 -0.97964674
-1.05603611 9.93942547 0.93929845
-1.05834055 9.95443916 0.94081700
-0.94324106 9.93942547 1.08643317
-0.94532293 9.95443821 1.08825934
-1.01156521 9.93942547 -0.69184220
-1.01378763 9.95443916 -0.69367403
-0.96989739 9.93942547 -0.74571395
-0.97203410 9.95443916 -0.74765646
-1.27654958 9.93942642 0.22396539
-1.27930617 9.95443916 0.22401984
-1.27030003 9.93942547 0.29771143
-1.27305472 9.95443916 0.29791498
-0.69214803 9.95443821 -1.02768373
-0.69058585 9.93942547 -1.02516651
-0.63059694 9.95443916 -1.07372689
-0.62916118 9.93942547 -1.07111502
-0.43102333 9.93942547 -1.17703927
-0.38965425 9.95443821 -1.19774449
-0.43205583 9.95443916 -1.17987847
-0.38871309 9.93942547 -1.19487810
0.55273700 9.93942547 -1.27020752
0.71141148 9.93942547 -1.22109151
0.55373234 9.95443916 -1.27322900
0.71273339 9.95443916 -1.22401190
-0.31985810 9.93942451 -1.21946180
-0.25502947 9.95443916 -1.24460518
-0.32065761 9.95443821 -1.22237885
-0.25436467 9.93942547 -1.24164248
-0.58046943 9.95443916 -1.10721016
-0.57913655 9.93942547 -1.10452950
-0.18413863 9.95443916 -1.26399720
-0.18360397 9.93942547 -1.26098347
0.80954415 9.93942642 -1.18133652
0.81106782 9.95443916 -1.18417478
-0.04870618 9.93942547 -1.28627670
0.08565116 9.95443916 -1.30468214
-0.04894796 9.95443916 -1.28933108
0.08561664 9.93942547 -1.30159664
0.45551544 9.93942547 -1.29068887
0.45631084 9.95443821 -1.29375243
0.89934254 9.93942547 -1.13811612
0.90105081 9.95443916 -1.14086580
-0.51423168 9.95443916 -1.14074266
-0.51303482 9.93942547 -1.13799345
0.98226750 9.93942547 -1.08903337
0.98414624 9.95443821 -1.09168243
0.55273700 9.93942547 -1.27020752
0.55373234 9.95443916 -1.27322900
0.04865889 9.93942547 1.60497177
0.00558098 9.93942547 1.59996533
0.04861739 9.95443916 1.60786426
0.00545087 9.95443916 1.60284781
-0.84196013 9.93942642 1.20215905
-0.84383357 9.95443916 1.20422316
0.11850283 9.93942547 1.60984898
0.11860500 9.95443916 1.61275184
0.17224935 9.93942547 1.61091089
0.17246208 9.95443916 1.61381602
-0.71418935 9.93942547 1.31247413
-0.76419240 9.93942547 1.27609050
-0.71579999 9.95443821 1.31476533
-0.76590598 9.95443821 1.27830672
0.84668136 9.93942642 1.45616567
0.76163405 9.95443916 1.50058961
0.84828138 9.95443916 1.45875275
0.76021188 9.93942642 1.49791706
-0.58087480 9.93942547 1.40268767
-0.67815101 9.93942547 1.33749759
-0.58221120 9.95443916 1.40516424
-0.67968750 9.95443916 1.33984005
0.21528010 9.93942642 1.61025190
0.21558133 9.95443916 1.61315572
0.27212515 9.93942642 1.60915101
0.27254331 9.95443821 1.61205268
-0.30286208 9.93942547 1.52792454
-0.34583071 9.93942547 1.51329434
-0.30362666 9.95443821 1.53065896
-0.34668365 9.95443916 1.51599848
-0.78806418 9.93942547 1.25412202
-0.78981745 9.95443916 1.25629508
-0.26790884 9.93942547 1.53845549
-0.26859838 9.95443916 1.54119909
-0.48104331 9.93924809 1.45586109
-0.48217931 9.95426083 1.45846319
1.16694677 9.93942547 1.24085379
1.06415331 9.95443821 1.32201588
1.16920531 9.95443916 1.24299765
1.06211030 9.93942547 1.31970966
0.64107180 9.93942547 1.54579568
0.60429442 9.95443916 1.55845571
0.64224887 9.95443916 1.54856670
0.60319525 9.93942547 1.55566430
0.44730422 9.95443821 1.59291220
0.44652724 9.93942547 1.59005010
1.25971305 9.93942642 1.15028358
1.26216257 9.95443821 1.15224075
0.32503685 9.93942547 1.60506332
0.32556388 9.95443916 1.60795629
1.27985120 9.95443821 1.12990451
1.27736533 9.93942547 1.12799275
0.39917108 9.93942547 1.59630919
0.39985058 9.95443916 1.59918451
1.29952610 9.95443916 1.10667598
1.29699981 9.93942547 1.10481215
1.36389172 9.95443821 1.03097451
1.38089335 9.95443916 1.01056349
1.36123335 9.93942547 1.02926540
1.37819993 9.93942547 1.00889671
-0.39267838 9.93942547 1.49595273
-0.39362442 9.95443916 1.49861360
0.87571293 9.93942547 1.43997264
0.87737262 9.95443916 1.44252598
0.93429381 9.93942547 1.40435398
0.93607408 9.95443916 1.40683448
-0.21410388 9.93942547 1.55452836
-0.21468587 9.95443916 1.55731738
-0.15988028 9.93942642 1.56931913
-0.16034897 9.95443916 1.57215154
-0.10404069 9.93942642 1.58096313
-0.10439629 9.95443821 1.58380687
1.66307998 9.93942547 0.14400946
1.66216648 9.95443916 0.22467843
1.66635931 9.95443916 0.14389710
1.65889585 9.93942547 0.22462484
1.04884684 9.93942547 -1.04427540
1.10838747 9.93942547 -0.99792767
1.05086279 9.95443916 -1.04683161
1.11051321 9.95443916 -1.00037789
1.42078042 9.93942547 -0.65140092
1.46259487 9.95443916 -0.59403962
1.42354572 9.95443916 -0.65314639
1.45973372 9.93942547 -0.59241259
1.49861443 9.95443916 -0.53257763
1.49567950 9.93942547 -0.53107637
1.65754426 9.93942547 0.25560215
1.66081226 9.95443916 0.25571924
1.40356350 9.93942547 0.97745794
1.40630901 9.95443916 0.97905988
1.14516449 9.93942547 -0.96679527
1.14737844 9.95443916 -0.96919233
1.48080945 9.93942547 0.85321862
1.45782042 9.93942547 0.90089041
1.48371387 9.95443916 0.85456514
1.46067739 9.95443916 0.90233463
1.24714744 9.93928242 -0.87792075
1.24957120 9.95429611 -0.88013548
1.50746417 9.93942642 0.79915231
1.51042342 9.95443916 0.80038738
1.61822808 9.95443916 -0.20604919
1.61504769 9.93942547 -0.20521817
1.52904582 9.93942451 0.75215465
1.53204954 9.95443821 0.75329334
1.57228410 9.93942547 0.64627403
1.57537663 9.95443821 0.64719492
1.59013212 9.93942547 0.59175229
1.59326136 9.95443821 0.59256083
1.61820853 9.93942547 0.50183541
1.62139547 9.95443916 0.50245899
1.64776337 9.93942642 0.34216815
1.65101123 9.95443916 0.34246373
1.64533055 9.93942451 0.36636597
1.63441050 9.93942547 0.43776119
1.64856255 9.95443916 0.36671084
1.63763070 9.95443821 0.43825296
1.62923527 9.93942547 0.46310204
1.63244510 9.95443916 0.46364611
1.37013304 9.95445061 -0.72955358
1.36746180 9.93943787 -0.72764826
1.55629206 9.92441177 -0.40488157
1.59200418 9.92441177 -0.31619680
0.20822616 9.92441177 -1.31048191
0.35992903 9.92441177 -1.30440736
1.63906801 9.92441273 -0.11971956
1.66383302 9.92441177 0.06971545
-1.23048019 9.92441273 -0.24643682
-1.21008551 9.92441177 -0.31168866
-1.25093281 9.92441177 0.45744270
-1.26560271 9.92441177 0.37966862
-1.19565797 9.92441177 -0.34446672
-1.16272914 9.92441177 -0.43130583
-1.28492248 9.92441177 0.11199415
-1.28258491 9.92441177 0.06345456
-1.28285038 9.92441177 0.19488434
-1.22503686 9.92441177 0.57554603
-1.21826386 9.92441177 0.60226762
-1.11511970 9.92441177 -0.53176391
-1.27622831 9.92441177 0.01570148
-1.26665342 9.92441273 -0.06987232
-0.91877455 9.92441177 -0.82116091
-0.81754291 9.92441177 -0.92392194
-1.26120615 9.92441177 -0.10853052
-1.11683035 9.92441177 0.84686482
-1.15425146 9.92441177 0.77165550
-1.03391826 9.92441177 0.97946006
-1.01791441 9.92441177 1.00183082
-1.16868389 9.92441177 0.73832041
-1.24296832 9.92441177 -0.19146048
-1.05737269 9.92441177 -0.63238496
-0.98439956 9.92441177 1.04323828
-0.79615140 9.92441177 -0.94467771
-1.08682549 9.92441273 0.89646786
-1.17984760 9.92441177 0.71524572
-1.07142746 9.92441177 0.92131007
-0.75076997 9.92441177 -0.98361599
-1.05954516 9.92441177 0.94106072
-0.94640428 9.92441177 1.08863056
-1.01493239 9.92441177 -0.69495314
-0.97314006 9.92441177 -0.74898529
-1.28071821 9.92441177 0.22358598
-1.27443933 9.92441177 0.29755414
-0.69299489 9.92441177 -1.02927184
-0.63138694 9.92441177 -1.07535732
-0.43265340 9.92441177 -1.18158925
-0.39022112 9.92441177 -1.19948995
0.55403888 9.92441177 -1.27504444
0.71318710 9.92441177 -1.22578192
-0.32116058 9.92441177 -1.22414756
-0.25547168 9.92441177 -1.24639428
-0.58121306 9.92441177 -1.10887218
-0.18448445 9.92441273 -1.26578200
0.81161255 9.92441177 -1.18590772
-0.04919938 9.92441177 -1.29116166
0.08552437 9.92441177 -1.30652702
0.45652723 9.92441177 -1.29558682
0.90167898 9.92441177 -1.14255857
-0.51491398 9.92441177 -1.14243543
0.98485136 9.92441177 -1.09332967
0.55403888 9.92441177 -1.27504444
0.04845631 9.92441177 1.60871649
0.00524982 9.92441177 1.60369539
-0.84482098 9.92441177 1.20470130
0.11850872 9.92441177 1.61360836
0.17241566 9.92441177 1.61467361
-0.71666890 9.92441177 1.31534588
-0.76682121 9.92441177 1.27885365
0.84886062 9.92441273 1.45946670
0.76213306 9.92441177 1.50134242
-0.58295637 9.92441177 1.40582860
-0.68052292 9.92441177 1.34044397
0.21557485 9.92441177 1.61401260
0.27258956 9.92441177 1.61290848
-0.30411389 9.92441177 1.53143966
-0.34721074 9.92441177 1.51676559
-0.79077357 9.92441177 1.25681818
-0.26905942 9.92441177 1.54201460
-0.48282218 9.92423439 1.45914495
1.17008197 9.92441177 1.24351192
1.06493258 9.92441177 1.32260311
0.64263743 9.92441273 1.54936385
0.60464782 9.92441177 1.55926204
0.44751224 9.92441177 1.59375048
1.26312518 9.92441177 1.15267110
0.32565922 9.92441177 1.60880852
1.28083026 9.92441177 1.13031423
0.40001470 9.92441177 1.60002851
1.30052340 9.92441177 1.10706413
1.38196588 9.92441177 1.01086259
1.36494863 9.92441177 1.03129208
-0.39420155 9.92441177 1.49937975
0.87797880 9.92441177 1.44322479
0.93673462 9.92441177 1.40750039
-0.21509077 9.92441177 1.55812252
-0.16070716 9.92441177 1.57294452
-0.10469904 9.92441177 1.58463657
1.66769612 9.92441177 0.14339365
1.66349947 9.92441177 0.22424975
1.05162978 9.92441177 -1.04843783
1.11136043 9.92441177 -1.00196254
1.42468894 9.92441177 -0.65439397
1.46374297 9.92441177 -0.59522629
1.49979591 9.92441177 -0.53370726
1.66214406 9.92441177 0.25531954
1.40740502 9.92441177 0.97932953
1.14823484 9.92441177 -0.97072643
1.48488164 9.92441177 0.85471940
1.46182394 9.92441177 0.90253389
1.25052214 9.92426968 -0.88158703
1.51161587 9.92441273 0.80049199
1.61952043 9.92441177 -0.20687631
1.53326201 9.92441177 0.75335425
1.57662928 9.92441177 0.64715731
1.59453058 9.92441177 0.59247267
1.62269056 9.92441273 0.50228786
1.65233386 9.92441177 0.34214395
1.64990449 9.92441177 0.36641437
1.63894105 9.92441177 0.43802220
1.63375056 9.92441177 0.46343866
1.37119555 9.92442417 -0.73086596
1.65723300 9.98141479 -0.44868100
1.69538784 9.98141479 -0.35393065
0.21696706 9.98141479 -1.41621912
0.37904558 9.98141479 -1.40972912
1.74567056 9.98141575 -0.14401551
1.77212942 9.98141575 0.05837602
-1.29834914 9.98141479 -0.34911442
-1.32013881 9.98141575 -0.27939939
-1.34199023 9.98141575 0.47262171
-1.35766351 9.98141479 0.38952798
-1.28293502 9.98141479 -0.38413396
-1.24775410 9.98141479 -0.47691247
-1.37580729 9.98141479 0.05168688
-1.37809312 9.98141479 0.10358508
-1.37570679 9.98141479 0.19214326
-1.30708683 9.98141479 0.62735176
-1.31432319 9.98141479 0.59880269
-1.19688809 9.98141479 -0.58424121
-1.36901605 9.98141479 0.00066766
-1.35878623 9.98141479 -0.09075865
-0.87895894 9.98141479 -1.00322056
-0.98711425 9.98141479 -0.89343119
-1.35296619 9.98141479 -0.13206071
-1.19871581 9.98141479 0.88867766
-1.23869634 9.98141479 0.80832458
-1.09281671 9.98141479 1.05415773
-1.11013305 9.98141479 1.03034234
-1.25411594 9.98141479 0.77270949
-1.33348107 9.98141479 -0.22066297
-1.13519192 9.98141479 -0.69174451
-1.05722761 9.98141479 1.09848213
-0.85610437 9.98141479 -1.02539599
-1.16665912 9.98141479 0.94167346
-1.26604307 9.98141479 0.74805707
-1.14994609 9.98141479 0.96801907
-0.80761904 9.98141575 -1.06699753
-1.13732779 9.98141479 0.98922646
-1.01663375 9.98141479 1.14697933
-1.08984864 9.98141479 -0.75859183
-1.04519832 9.98141479 -0.81631964
-1.37360108 9.98141575 0.22281763
-1.36710441 9.98141479 0.30179778
-0.74589252 9.98141479 -1.11577654
-0.68007082 9.98141575 -1.16501355
-0.46782866 9.98141479 -1.27868700
-0.42241061 9.98141479 -1.29763603
0.58643144 9.98141479 -1.37835777
0.75646460 9.98141479 -1.32572615
-0.34862679 9.98141384 -1.32397997
-0.27844509 9.98141479 -1.34774816
-0.62646538 9.98141479 -1.20082045
-0.20290324 9.98141575 -1.36868083
0.86162180 9.98141479 -1.28312516
-0.05806496 9.98141479 -1.39557731
0.08587316 9.98141479 -1.41199362
0.48225060 9.98141479 -1.40030539
0.95784837 9.98141479 -1.23681104
-0.55563182 9.98141479 -1.23667932
1.04670942 9.98141479 -1.18421495
0.58643144 9.98141479 -1.37835777
0.00010827 9.98141575 1.69727147
0.04626985 9.98141479 1.70263600
-0.90810269 9.98141479 1.27098858
0.12111347 9.98141575 1.70786262
0.17870735 9.98141479 1.70900047
-0.77118558 9.98141479 1.38920069
-0.82476807 9.98141479 1.35021234
0.90141743 9.98141575 1.54317832
0.80875808 9.98141479 1.58791792
-0.62832797 9.98141479 1.48587191
-0.73256749 9.98141479 1.41601515
0.22481836 9.98141479 1.70829403
0.28573254 9.98141479 1.70711482
-0.37645864 9.98141479 1.60439610
-0.33041421 9.98141479 1.62007368
-0.85017520 9.98141479 1.32670391
-0.29290089 9.98141479 1.63112617
-0.52143997 9.98123741 1.54314768
1.24460840 9.98141575 1.31245339
1.13226736 9.98141479 1.39695442
0.68108964 9.98141575 1.63922405
0.64050174 9.98141479 1.64979923
0.47261894 9.98141479 1.68664658
1.34401536 9.98141479 1.21539927
0.34243184 9.98141479 1.70273435
1.36293125 9.98141479 1.19151342
0.42187285 9.98141575 1.69335389
1.38397133 9.98141479 1.16667342
1.47098374 9.98141479 1.06389213
1.45280278 9.98141479 1.08571923
-0.42659903 9.98141479 1.58567274
0.93252707 9.98141479 1.52582586
0.99530143 9.98141479 1.48765790
-0.23530239 9.98141479 1.64858186
-0.17716372 9.98141479 1.66467035
-0.11736047 9.98141479 1.67690933
1.77625668 9.98141479 0.13709301
1.77177298 9.98141479 0.22347967
1.11805475 9.98141479 -1.13625228
1.18162668 9.98141479 -1.08638728
1.55835438 9.98141479 -0.65204400
1.51632392 9.98141479 -0.71519476
1.59687293 9.98141479 -0.58631766
1.77032471 9.98141479 0.25667429
1.49816310 9.98141479 1.03020275
1.22126698 9.98141479 -1.05322683
1.58093846 9.98141479 0.89706987
1.55630386 9.98141384 0.94815433
1.33055019 9.98127365 -0.95799035
1.60950136 9.98141575 0.83913374
1.72478592 9.98141479 -0.23713322
1.63262796 9.98141479 0.78877181
1.67896128 9.98141384 0.67531186
1.69808698 9.98141479 0.61688697
1.72817290 9.98141575 0.52053380
1.75984371 9.98141479 0.34943721
1.75703585 9.98141479 0.37536234
1.74553478 9.98141479 0.45187238
1.73998928 9.98141479 0.47902781
1.45947683 9.98142719 -0.79696095
1.68746543 9.98722649 -0.35139742
1.64949560 9.98722649 -0.44568926
0.21620493 9.98722744 -1.40853989
0.37749842 9.98722649 -1.40208197
1.76383543 9.98722744 0.05891188
1.73750460 9.98722744 -0.14249912
-1.29177237 9.98722649 -0.34660408
-1.31345654 9.98722744 -0.27722701
-1.33520222 9.98722649 0.47115070
-1.35079932 9.98722649 0.38846016
-1.27643287 9.98722649 -0.38145381
-1.24142206 9.98722649 -0.47378373
-1.36885524 9.98722744 0.05225558
-1.37116265 9.98722649 0.10389709
-1.36881447 9.98722744 0.19202659
-1.30766904 9.98722553 0.59672105
-1.30046773 9.98722458 0.62513226
-1.19080269 9.98722649 -0.58059263
-1.36209702 9.98722649 0.00148398
-1.35191643 9.98722649 -0.08949982
-0.87441343 9.98722649 -0.99754262
-0.98204505 9.98722649 -0.88828528
-1.34612489 9.98722649 -0.13060179
-1.19262159 9.98722458 0.88519281
-1.23240864 9.98722553 0.80522954
-1.08726907 9.98722458 1.04988551
-1.10446787 9.98722553 1.02617121
-1.24775338 9.98722553 0.76978564
-1.32673419 9.98722649 -0.21877493
-1.12940514 9.98722553 -0.68757474
-1.05181861 9.98722553 1.09398139
-0.85166949 9.98722649 -1.01961040
-1.16071999 9.98722458 0.93793285
-1.25962269 9.98722553 0.74525285
-1.14412844 9.98722553 0.96418118
-0.80341899 9.98722649 -1.06101012
-1.13155913 9.98722553 0.98526847
-1.01142132 9.98722553 1.14224434
-1.08428192 9.98722649 -0.75409752
-1.03984737 9.98722649 -0.81154621
-1.36669242 9.98722744 0.22255228
-1.36019492 9.98722649 0.30115691
-0.74199146 9.98722649 -1.10955369
-0.67648852 9.98722744 -1.15855169
-0.46526146 9.98722649 -1.27164781
-0.42007625 9.98722649 -1.29053211
0.58387989 9.98722649 -1.37086308
0.75308943 9.98722649 -1.31848562
-0.34664974 9.98722649 -1.31674850
-0.27680796 9.98722649 -1.34040177
-0.62314272 9.98722649 -1.19418490
-0.20158561 9.98722649 -1.36119914
0.85773742 9.98722649 -1.27609110
-0.05749512 9.98722649 -1.38799930
0.08574595 9.98722649 -1.40433598
0.48020366 9.98722649 -1.39270449
0.95349801 9.98722649 -1.23000181
-0.55265218 9.98722649 -1.22987092
1.04192841 9.98722649 -1.17765975
0.58387989 9.98722649 -1.37086308
0.00039641 9.98722458 1.68987060
0.04633435 9.98722458 1.69520772
-0.90341580 9.98722458 1.26565206
0.12081552 9.98722553 1.70040882
0.17813037 9.98722458 1.70154381
-0.76716197 9.98722458 1.38329327
-0.82048488 9.98722553 1.34449315
0.80512989 9.98722458 1.58104682
0.89734042 9.98722553 1.53652358
-0.72873086 9.98722458 1.40997612
-0.62499619 9.98722553 1.47949409
0.22401820 9.98722458 1.70083988
0.28463739 9.98722458 1.69966662
-0.37434676 9.98722458 1.59744620
-0.32852536 9.98722553 1.61304522
-0.84579742 9.98722458 1.32109189
-0.29120311 9.98722458 1.62408376
-0.51861125 9.98704720 1.53644562
1.12707245 9.98722553 1.39100814
1.23886919 9.98722553 1.30691540
0.63768816 9.98722458 1.64262784
0.67807961 9.98722649 1.63210404
0.47061858 9.98722553 1.67929769
1.33779502 9.98722458 1.21033239
0.34106201 9.98722553 1.69530606
1.35661912 9.98722458 1.18656194
0.42011827 9.98722553 1.68597221
1.37755728 9.98722458 1.16184211
1.44605505 9.98722458 1.08127987
1.46414804 9.98722458 1.05955946
-0.42425421 9.98722553 1.57883465
0.92829955 9.98722458 1.51925468
0.99076986 9.98722458 1.48127306
-0.23387408 9.98722458 1.64141631
-0.17602254 9.98722458 1.65739000
-0.11650337 9.98722553 1.66960907
1.76348042 9.98722649 0.22321649
1.76794243 9.98722649 0.13724814
1.17623031 9.98722649 -1.08033860
1.11292839 9.98722649 -1.12992966
1.55109549 9.98722649 -0.64806694
1.50931585 9.98722744 -0.71092129
1.58942771 9.98722649 -0.58265823
1.76203954 9.98722649 0.25624993
1.49119604 9.98722458 1.02603126
1.21564078 9.98722649 -1.04730690
1.54905534 9.98722458 0.94438171
1.57357061 9.98722553 0.89354444
1.32439494 9.98708344 -0.95253152
1.60199499 9.98722649 0.83588880
1.71672094 9.98722649 -0.23516524
1.62500966 9.98722458 0.78577018
1.67111862 9.98722458 0.67286074
1.69015133 9.98722458 0.61471766
1.72009170 9.98722649 0.51883161
1.75160921 9.98722649 0.34856516
1.73736942 9.98722649 0.45050335
1.74884760 9.98722553 0.37436408
1.73185098 9.98722649 0.47752652
1.45269728 9.98723888 -0.79228169
-1.38092411 0.44123048 -0.43514886
-0.07015464 0.44123042 -1.51752436
-1.12651491 0.44123048 -0.89764351
-1.47099650 0.44123048 0.29888645
-0.25982162 0.44123054 1.74012017
1.29889619 0.44123048 -1.15116441
0.22416522 0.44123042 -1.53961384
1.55381155 0.44124225 -0.87692726
0.91402918 0.44123048 -1.39718580
1.25673699 0.44123048 -1.18687737
1.11209655 0.44123048 -1.29133928
1.61497176 0.44123048 -0.78949523
1.83772647 0.44123048 -0.27783892
1.76543629 0.44123000 -0.50422257
-0.32152507 0.44123042 1.72170353
-0.80621916 0.44123048 -1.21810079
-0.50856543 0.44123048 -1.39224815
-0.60261559 0.44123048 -1.34748292
0.08387776 0.44123042 -1.53509212
1.05708361 0.44123042 1.56791079
-0.38109344 0.44122997 -1.44090593
-1.47304189 0.44123048 -0.02336164
-1.25649381 0.44123042 0.98363674
-1.41451359 0.44123042 0.61672020
-1.35008419 0.44123042 0.80282336
-1.09594727 0.44123042 1.20334029
-1.44412088 0.44123048 0.48169065
-0.97980499 0.44123042 1.33604670
-0.79195970 0.44123054 1.49124336
-0.13360852 0.44123042 1.77043402
0.44344097 0.44123083 1.78803182
0.23256709 0.44123042 1.80402017
1.47301090 0.44123042 1.22441590
1.20365500 0.44123042 1.47084582
1.45049512 0.44123042 1.25099790
1.32387447 0.44123042 1.38041914
1.43025267 0.44123042 1.27655911
1.80915511 0.44123042 0.63607281
1.86007559 0.44123089 -0.17819110
1.87524295 0.44123045 0.34986719
1.88800871 0.44123045 0.21507622
1.65962315 0.44123048 -0.72184759
1.70084321 0.44123048 -0.65151155
1.41584337 0.44108820 -1.04924965
0.80149734 0.44123042 -1.44277453
0.39761022 0.44123042 -1.53266859
1.18844569 0.44123048 -1.24001324
1.01700401 0.44123048 -1.34762394
0.61953992 0.44123042 -1.49909735
0.50805289 0.44123042 -1.52258420
-0.22482882 0.44123095 -1.48850727
-0.30598992 0.44123042 -1.46634102
-0.87227458 0.44123089 -1.16590166
-0.94861740 0.44123048 -1.09765196
-0.46005175 0.44123042 -1.41271436
-0.73578149 0.44123089 -1.27079129
-0.67841667 0.44123048 -1.30910897
-0.92416012 0.44123048 -1.12138247
-1.06435764 0.44123048 -0.98016316
-1.22281969 0.44123000 -0.76433176
-1.28884292 0.44123048 -0.64928973
-1.17429686 0.44123048 -0.83586717
-1.34327590 0.44123048 -0.53443372
-1.42073703 0.44123089 -0.32306960
-1.43501496 0.44123048 -0.26021355
-1.39741945 0.44123048 -0.39767343
-1.46209466 0.44123048 -0.12119966
-1.45586669 0.44123048 -0.16539794
-1.48298216 0.44123048 0.08673237
-1.48030961 0.44123048 0.03123572
-1.48061299 0.44123048 0.18150175
-1.47817516 0.44123089 0.21431693
-1.46089339 0.44123045 0.39276990
-1.23888898 0.44123042 1.01203930
-1.13938808 0.44123042 1.15144253
-1.40676999 0.44123042 0.64727139
-1.36284769 0.44123042 0.77644193
-1.33358324 0.44123042 0.84093624
-1.29079902 0.44123042 0.92692447
-1.19600379 0.44123042 1.07852364
-1.22530353 0.44123042 1.03462088
-1.17770624 0.44123042 1.10409999
-0.83328611 0.44123054 1.46254873
-0.91801149 0.44123042 1.39563262
-0.89062625 0.44123042 1.42082620
-0.56592441 0.44105279 1.62695658
-0.68040985 0.44123042 1.56599939
-0.41087708 0.44123042 1.69283545
-0.46460259 0.44123054 1.67295825
-0.36160356 0.44123054 1.70961261
-0.19764374 0.44123054 1.75706613
-0.00790176 0.44123054 1.79222441
0.12158945 0.44123083 1.80355787
0.04149709 0.44123042 1.79796505
0.18322235 0.44123042 1.80477607
0.35842878 0.44123054 1.79807043
0.29775319 0.44123054 1.80275798
0.85745823 0.44123042 1.67520189
0.49774584 0.44123042 1.78085387
0.67740214 0.44123054 1.74142265
0.72083640 0.44123083 1.73010612
0.98990703 0.44123054 1.60875511
0.95661569 0.44123095 1.62732482
1.68379128 0.44123042 0.93590480
1.54666936 0.44123042 1.13778424
1.56612551 0.44123042 1.11442649
1.73910558 0.44122997 0.82001185
1.59521067 0.44123042 1.07837451
1.65742886 0.44123042 0.99057174
1.71435726 0.44123095 0.87390572
1.78868818 0.44123042 0.69859529
1.84135115 0.44123095 0.53296268
1.85993040 0.44123045 0.45948631
1.87246513 0.44123000 0.37761554
1.85399604 0.44123042 0.48854575
1.88645899 0.44123048 0.25059879
1.88839030 0.44123089 0.03839417
1.89280677 0.44123048 0.12263135
1.80626667 0.44123048 -0.40282762
2.81630540 2.65061569 -0.77490306
2.54943728 1.91415358 -0.83546054
2.61078572 1.91415405 -0.68311268
2.74939775 2.65061545 -0.94105673
0.49425024 1.91415441 -2.38072228
0.50797069 2.65061593 -2.62634921
0.22375014 2.65061617 -2.63772964
0.23364556 1.91415441 -2.39115715
2.95087957 2.65061593 -0.05188286
2.69163489 1.91415405 -0.34559202
2.73417807 1.91415441 -0.02016811
2.90448141 2.65061569 -0.40679651
-2.20281863 1.91415358 -0.67536825
-2.43350577 2.65061545 -0.76645696
-2.47171545 2.65061617 -0.64420533
-2.23785400 1.91415465 -0.56327468
-2.53751850 2.65061545 0.52882469
-2.27298856 1.91415381 0.64589393
-2.29818964 1.91415358 0.51228851
-2.51003432 2.65061569 0.67453742
-2.17803431 1.91415405 -0.73167670
-2.40647507 2.65061569 -0.82786781
-2.43350577 2.65061545 -0.76645696
-2.20281863 1.91415358 -0.67536825
-2.12146688 1.91415405 -0.88085371
-2.34478188 2.65061569 -0.99056345
-2.40647507 2.65061569 -0.82786781
-2.17803431 1.91415405 -0.73167670
-2.32736301 1.91415358 -0.03092371
-2.56933570 2.65061545 -0.06361295
-2.57371521 2.65061569 0.02732785
-2.33137846 1.91415405 0.05246085
-2.33137846 1.91415405 0.05246085
-2.57371521 2.65061569 0.02732785
-2.56983304 2.65061569 0.18262488
-2.32781863 1.91415405 0.19485430
-2.46151710 2.65061545 0.89580798
-2.21686792 1.91415381 0.89468288
-2.22850299 1.91415358 0.84877872
-2.44882774 2.65061569 0.94587153
-2.03968024 1.91415405 -1.05342710
-2.25558352 2.65061569 -1.17877531
-2.34478188 2.65061569 -0.99056345
-2.12146688 1.91415405 -0.88085371
-2.31644297 1.91415358 -0.11295718
-2.55742645 2.65061545 -0.15308034
-2.56933570 2.65061545 -0.06361295
-2.32736301 1.91415358 -0.03092371
-2.29999423 1.91415405 -0.25996095
-2.53948712 2.65061569 -0.31340536
-2.55742645 2.65061545 -0.15308034
-2.31644297 1.91415358 -0.11295718
-2.51003432 2.65061569 0.67453742
-2.22850299 1.91415358 0.84877872
-2.27298856 1.91415381 0.64589393
-2.46151710 2.65061545 0.89580798
-1.52848446 1.91415405 -1.72710037
-1.69806337 2.65061569 -1.91349649
-1.88772452 2.65061545 -1.72097027
-1.70238662 1.91415358 -1.55057096
-2.29063678 1.91415405 -0.32637009
-2.52928162 2.65061569 -0.38583261
-2.53948712 2.65061569 -0.31340536
-2.29999423 1.91415405 -0.25996095
-2.32889843 2.65061545 1.26322556
-2.04261923 1.91415381 1.31486714
-2.10690355 1.91415405 1.18566787
-2.25878882 2.65061617 1.40413296
-2.10345030 2.65061617 1.65255547
-1.87269509 1.91415358 1.58107734
-1.90018773 1.91415405 1.54264855
-2.07346606 2.65061545 1.69446683
-2.35593796 2.65061545 1.20077097
-2.10690355 1.91415405 1.18566787
-2.13169670 1.91415358 1.12840247
-2.32889843 2.65061545 1.26322556
-2.25930667 1.91415405 -0.46883225
-2.49511218 2.65061569 -0.54120463
-2.52928162 2.65061569 -0.38583261
-2.29063678 1.91415405 -0.32637009
-1.94047880 1.91415310 -1.22628033
-2.14739275 2.65061498 -1.36729228
-2.25558352 2.65061569 -1.17877531
-2.03968024 1.91415405 -1.05342710
-2.07346606 2.65061545 1.69446683
-1.81512129 1.91415358 1.65221059
-1.87269509 1.91415358 1.58107734
-2.01067495 2.65061545 1.77204597
-1.65798569 2.65061569 -1.95238376
-1.52848446 1.91415405 -1.72710037
-1.49173689 1.91415405 -1.76275647
-1.69806337 2.65061569 -1.91349649
-2.25878882 2.65061617 1.40413296
-1.99107504 1.91415405 1.40007818
-2.04261923 1.91415381 1.31486714
-2.20257378 2.65061593 1.49706566
