0.13677521 -9.58894634 -0.31722739
0.18462914 -9.59119034 -0.13838501
0.11996448 -9.58839226 -0.12658629
0.09619939 -9.58707523 -0.21480216
0.14381051 -9.59014988 -0.03824324
0.07966613 -9.58902264 -0.02385469
0.05573338 -9.58724213 -0.11145201
0.10286471 -9.59068108 0.06216446
0.03874923 -9.59179783 0.07906768
0.01478179 -9.58991146 -0.00634447
-0.05088874 -9.59298801 0.01752468
-0.07578689 -9.59113216 -0.06596823
-0.00937063 -9.58801651 -0.09140401
-0.02630854 -9.59472275 0.09954926
-0.09265543 -9.60030651 0.12321030
-0.11781949 -9.59818554 0.04306451
-0.18744414 -9.60699463 0.07125197
-0.21433669 -9.60525513 -0.00583576
-0.14383914 -9.59650803 -0.03758422
-0.16062097 -9.60863686 0.14807954
-0.23047106 -9.61912251 0.17678729
-0.25850821 -9.61766529 0.10233563
-0.33121404 -9.62989807 0.13611896
-0.35908353 -9.62867928 0.06258646
-0.28594992 -9.61635971 0.02739261
-0.30212477 -9.63108921 0.20861669
-0.37539136 -9.64369297 0.24327290
-0.40587381 -9.64268494 0.17337658
-0.34440020 -9.64446735 0.31205356
-0.41959757 -9.65646744 0.34832844
-0.45121884 -9.65585995 0.28144971
-0.38747913 -9.65672779 0.41358274
-0.46462470 -9.66717339 0.45253414
-0.49709570 -9.66728878 0.38767871
-0.52878058 -9.66704178 0.32138965
-0.55852890 -9.66646290 0.25153956
-0.48133707 -9.65493011 0.21153024
-0.58735800 -9.66569328 0.18016329
-0.50957078 -9.65386677 0.13913657
-0.43343693 -9.64140224 0.09971690
-0.53580433 -9.65262794 0.06434384
-0.46034682 -9.64002132 0.02539243
-0.38580269 -9.62724018 -0.01273810
-0.48403096 -9.63798046 -0.05341799
-0.41056788 -9.62532616 -0.09118433
-0.33798343 -9.61345768 -0.12872520
-0.31231642 -9.61513901 -0.04968356
-0.26684418 -9.60192585 -0.16741648
-0.23998635 -9.60382748 -0.08567517
-0.19737566 -9.59352493 -0.20377228
-0.17004953 -9.59558392 -0.11855668
-0.12868172 -9.58713150 -0.23856148
-0.10147702 -9.58916759 -0.15132259
-0.06110929 -9.58384323 -0.26885897
-0.03444220 -9.58595848 -0.17928457
0.00472888 -9.58361149 -0.29265875
0.03103756 -9.58562851 -0.20002051
0.07084455 -9.58524704 -0.30774677
-0.02186306 -9.58159924 -0.38667858
0.04455899 -9.58350086 -0.40268001
0.11231063 -9.58718395 -0.41133395
0.01850466 -9.58220577 -0.50041693
0.08806571 -9.58723545 -0.50809968
0.15767300 -9.59373951 -0.51206535
0.06321381 -9.58681393 -0.60986590
0.13467675 -9.59383202 -0.61286616
0.20534775 -9.60147953 -0.61351359
0.11083651 -9.59354210 -0.72000855
0.18343829 -9.60180950 -0.72063869
0.25528276 -9.60987377 -0.71782339
0.16189303 -9.60251999 -0.83513433
0.23552381 -9.61094284 -0.83316308
0.30774984 -9.61828518 -0.82658446
0.21747597 -9.61231804 -0.95719129
0.29265600 -9.61949348 -0.95423728
0.36520576 -9.62437820 -0.94616145
0.27907097 -9.62057495 -1.08854401
0.35591015 -9.62466812 -1.08424306
0.43066818 -9.62725067 -1.07669318
0.34938934 -9.62446976 -1.22971249
0.42973170 -9.62590981 -1.22655618
0.50887161 -9.62626743 -1.22044003
0.43232149 -9.62551594 -1.38047719
0.51734060 -9.62512970 -1.37679482
0.60264868 -9.62316418 -1.37086940
0.53087360 -9.62371349 -1.53500533
0.62302619 -9.62068939 -1.52737451
0.71659517 -9.61622620 -1.51642561
0.64978004 -9.61718082 -1.68198359
0.75024551 -9.61184597 -1.66852570
0.85034102 -9.60644054 -1.64875531
0.78826618 -9.60753250 -1.81238818
0.89829326 -9.60238075 -1.78474987
1.00647628 -9.60027122 -1.74660778
0.94707209 -9.60060120 -1.90669692
1.06194353 -9.60130119 -1.86472809
1.17105138 -9.60818481 -1.81146896
1.11078012 -9.60128307 -1.96406054
1.22792923 -9.61240482 -1.91012526
1.33754587 -9.63440800 -1.84876716
1.27540743 -9.62012863 -1.75034225
1.43947971 -9.65363503 -1.78385389
1.37588453 -9.63223457 -1.68655634
1.54202056 -9.65903950 -1.71637976
1.47484124 -9.63907242 -1.62083948
1.64118540 -9.65934658 -1.64071405
1.56869924 -9.64164639 -1.55001235
1.73207200 -9.66067600 -1.55715179
1.70024252 -9.66609192 -1.71357596
1.79548216 -9.67268372 -1.62824476
1.88176715 -9.66335297 -1.53532326
1.85566664 -9.67181492 -1.69131398
1.94207883 -9.65556526 -1.59439206
2.02283168 -9.65104580 -1.48193705
2.00104928 -9.65177917 -1.64846039
2.07794642 -9.64946175 -1.53316116
2.16487908 -9.65150833 -1.42779362
2.12092710 -9.70371532 -1.56891000
2.20481896 -9.71138096 -1.46003342
2.28688979 -9.72866917 -1.35281003
2.24063134 -9.77917290 -1.49358547
2.32393932 -9.80385017 -1.39014280
2.40139103 -9.82000256 -1.28545737
2.37954521 -9.85768223 -1.45180726
2.46430993 -9.87425423 -1.33693576
2.53434491 -9.88199043 -1.20688963
2.54212618 -9.90392303 -1.38906753
2.61808658 -9.90977287 -1.25876713
2.69100046 -9.90069580 -1.12543738
2.69911671 -9.92719555 -1.31226313
2.77242947 -9.91561222 -1.17428553
2.83884001 -9.89940834 -1.03585148
2.85358119 -9.92593098 -1.22153258
2.91969109 -9.91413784 -1.07548499
2.97549391 -9.89781189 -0.93230474
2.99465728 -9.91959381 -1.11624575
3.05161047 -9.90699291 -0.96643496
3.09724450 -9.90174961 -0.81674540
3.12414289 -9.90686035 -1.00132239
3.17219901 -9.90352917 -0.84822220
3.21056080 -9.90392780 -0.69432425
3.23889852 -9.87912178 -0.87421292
3.27447963 -9.87353802 -0.71557462
3.29825640 -9.86747456 -0.55643350
3.28222013 -9.79474545 -0.72602648
3.30686402 -9.78944397 -0.56654412
3.32206774 -9.78350735 -0.40711969
3.30686402 -9.78944397 -0.56654412
3.30743051 -9.71066952 -0.57475299
3.32281923 -9.70534515 -0.41510886
3.32206774 -9.78350735 -0.40711969
3.33115506 -9.70054626 -0.25740129
3.33286071 -9.78063488 -0.24921562
3.31984782 -9.62758541 -0.42238116
3.32862306 -9.62284565 -0.26476610
3.33170438 -9.62020397 -0.10844596
3.32524133 -9.54701900 -0.27202109
3.32771564 -9.54459000 -0.11577609
3.32476735 -9.54350281 0.03961334
3.32062840 -9.47042751 -0.12251080
3.31738520 -9.46905136 0.03280349
3.30623960 -9.46801186 0.18634883
3.29665518 -9.39919662 0.02610348
3.28165364 -9.39920235 0.17777003
3.26520133 -9.39211369 0.32837290
3.21463633 -9.36309528 0.16525447
3.19174409 -9.36382389 0.31150436
3.16178775 -9.36487484 0.45543036
3.11628079 -9.30500889 0.29383230
3.08714509 -9.30460358 0.43412212
3.05126929 -9.30599689 0.57183367
3.12316561 -9.36798000 0.59590518
3.01165891 -9.30860424 0.70792085
3.07987309 -9.37244320 0.73494637
2.96375275 -9.31531048 0.84117538
3.03227329 -9.37551785 0.87227058
2.91310120 -9.32105637 0.97362053
2.98111844 -9.37749386 1.00881445
2.85618281 -9.32377338 1.10479987
2.92288208 -9.38186550 1.14169908
2.79405570 -9.32642651 1.23144090
2.85868001 -9.38358784 1.27147913
2.85868001 -9.38358784 1.27147913
2.79405570 -9.32642651 1.23144090
2.72511315 -9.32987213 1.35306442
2.77764392 -9.21086788 1.21768260
2.70751071 -9.21563053 1.33904016
2.63448095 -9.21966553 1.45857656
2.65111828 -9.33400536 1.47123098
2.55788469 -9.22323227 1.57552338
2.57156229 -9.33916759 1.58581913
2.47744417 -9.22551060 1.68863738
2.50276423 -9.11824131 1.53372777
2.42260122 -9.11857605 1.64392829
2.33207870 -9.12112045 1.74559045
2.38128543 -8.98944378 1.60828352
2.29367065 -8.99012470 1.71017110
2.20337939 -8.99007893 1.80990243
2.24045801 -9.12025261 1.84661090
2.11377048 -8.98808575 1.91036201
2.14775586 -9.11806107 1.94699538
2.02060628 -8.98584175 2.00638223
2.10076356 -8.84364319 1.89424515
2.00412488 -8.84219837 1.98595834
1.90360725 -8.84075356 2.07332444
1.99475992 -8.69726086 1.97384751
1.89248502 -8.69634914 2.05892420
1.78506505 -8.69578266 2.13753247
1.88681400 -8.55120277 2.05147290
1.78026700 -8.55073357 2.13133550
1.67088163 -8.55030155 2.20743465
1.78063130 -8.40552425 2.13195968
1.67095673 -8.40531540 2.20838261
1.55893540 -8.40501595 2.28130817
1.55761731 -8.54987812 2.27781057
1.44205225 -8.40463448 2.34618664
1.44275749 -8.54926014 2.34551024
1.32219195 -8.40415001 2.40553284
1.32368338 -8.54846859 2.40575862
1.19906545 -8.40360451 2.45787883
1.20107710 -8.54770470 2.45873404
1.07182872 -8.40309143 2.50026393
1.07299066 -8.54711533 2.49755836
0.94241279 -8.40248394 2.53657341
0.94351685 -8.54644489 2.53270602
0.81144744 -8.40180206 2.56778431
0.94253993 -8.25840759 2.54234266
0.81148791 -8.25785351 2.57555366
0.67939532 -8.25748825 2.60445237
0.68027401 -8.40140820 2.59925532
0.54597318 -8.25737381 2.62829256
0.54732007 -8.40115452 2.62311292
0.41139483 -8.25753403 2.64644432
0.54546446 -8.11355114 2.63702178
0.41023862 -8.11374187 2.65432954
0.27416882 -8.11397266 2.66462541
0.27578747 -8.25778294 2.65697145
0.13765390 -8.11441898 2.67135406
0.13984485 -8.25807762 2.66323209
0.00109272 -8.11501312 2.67334270
0.13573466 -7.97082186 2.68226838
-0.00165896 -7.97121525 2.68295622
-0.13888493 -7.97228956 2.67902541
-0.13552625 -8.11571884 2.66692019
-0.27574092 -7.97317553 2.66465998
-0.27179259 -8.11666107 2.65496540
-0.41145810 -7.97414017 2.64205098
-0.40700105 -8.11771297 2.63322926
-0.54590929 -7.97550917 2.61200786
-0.53992033 -8.11887550 2.60004711
-0.67988062 -7.97758579 2.57882571
-0.55217576 -7.83238697 2.62606096
-0.68637830 -7.83415127 2.59017348
-0.81891602 -7.83639860 2.54827952
-0.69373161 -7.69116640 2.60588026
-0.82693410 -7.69324255 2.56220579
-0.95920002 -7.69592953 2.51554847
-0.83590019 -7.55051374 2.57975650
-0.96873277 -7.55305052 2.53187370
-1.09948981 -7.55594015 2.47756815
-0.97828269 -7.41019440 2.54799080
-1.11047351 -7.41336823 2.49404931
-1.24023640 -7.41674328 2.43440843
-1.22712541 -7.55898190 2.41624498
-1.12242830 -7.27119350 2.51232862
-1.25050318 -7.27359819 2.44666386
-1.25050318 -7.27359819 2.44666386
-1.38134134 -7.27752972 2.38694763
-1.36734009 -7.42014790 2.36951828
-1.24023640 -7.41674328 2.43440843
-1.50763571 -7.28079510 2.31847906
-1.49287140 -7.42364120 2.30183578
-1.63052511 -7.28383589 2.24422979
-1.61477232 -7.42685556 2.22825146
-1.74797475 -7.28659916 2.16209531
-1.73109472 -7.42980337 2.14653921
-1.85696125 -7.28829908 2.06917977
-1.76482022 -7.14339590 2.17761683
-1.87511909 -7.14489889 2.08429074
-1.97948074 -7.14605522 1.98451328
-1.96040976 -7.28958273 1.96999168
-2.07955337 -7.14728069 1.88039994
-2.05903697 -7.29089403 1.86630034
-2.17566562 -7.14865112 1.77261007
-2.10135269 -7.00386333 1.89571917
-2.19800305 -7.00496769 1.78680789
-2.29104590 -7.00653458 1.67490208
-2.26788187 -7.15035009 1.66144419
-2.37996125 -7.00823402 1.55959713
-2.35658336 -7.15239143 1.54739368
-2.46166205 -7.00956869 1.43910098
-2.43703556 -7.15396929 1.42736578
-2.53917170 -7.01098537 1.31591094
-2.51329660 -7.15558815 1.30474806
-2.60996437 -7.01208353 1.18906152
-2.58458614 -7.15710258 1.17949426
-2.67235112 -7.01232719 1.05765688
-2.64638352 -7.15779591 1.04942489
-2.72533274 -7.01217604 0.92322886
-2.69767118 -6.86728525 1.06694090
-2.75153160 -6.86706543 0.93105614
-2.80233359 -6.86721563 0.79357582
-2.78258061 -6.72230673 0.94093561
-2.83029580 -6.72176981 0.80083656
-2.87059999 -6.72111607 0.65824014
-2.85852933 -6.57646751 0.80840367
-2.90115738 -6.57606268 0.66513669
-2.93355346 -6.57451391 0.51877701
-2.93106771 -6.43112516 0.67228180
-2.96610546 -6.42987061 0.52464455
-2.99104404 -6.42758179 0.37568924
-2.99769211 -6.28510666 0.53114802
-3.02456713 -6.28303099 0.38094980
-3.04348230 -6.28052235 0.22915030
-3.01204586 -6.42549467 0.22589566
-3.05396867 -6.27794409 0.07617725
-3.02429557 -6.42344189 0.07469735
-3.05601525 -6.27480459 -0.07722934
-3.02707028 -6.42036724 -0.07688827
-3.04384065 -6.27081585 -0.23082092
-3.02300620 -6.41760969 -0.22942773
-3.03801346 -6.26993227 -0.38509464
-3.08010387 -6.12775183 -0.23290782
-3.06816053 -6.12546253 -0.38848221
-3.05013013 -6.12357759 -0.54381382
-3.09888601 -5.98105669 -0.39226869
-3.07994771 -5.97963428 -0.54925942
-3.05203772 -5.97831631 -0.70534253
-3.11080599 -5.83583593 -0.55500561
-3.08257246 -5.83470249 -0.71267265
-3.04657507 -5.83354616 -0.86962295
-3.11415315 -5.69132614 -0.72056931
-3.07827711 -5.69016981 -0.87888390
-3.03392625 -5.68930864 -1.03522718
-3.10667849 -5.54611635 -0.88727188
-3.06668639 -5.54672337 -1.04636681
-3.01577449 -5.54650974 -1.20278525
-3.09995532 -5.40437555 -1.05757582
-3.04922271 -5.40443373 -1.21607542
-2.98959875 -5.40430069 -1.37120473
-3.08383250 -5.26283121 -1.22925580
-3.02432442 -5.26245022 -1.38666856
-2.95711613 -5.26277924 -1.54067636
-3.05733895 -5.12056446 -1.40151954
-2.99004388 -5.12046003 -1.55744076
-2.91513562 -5.12132740 -1.70960450
-2.88182616 -5.26355362 -1.69045830
-3.02330709 -4.97834396 -1.57436132
-2.94697666 -4.97858620 -1.72778535
-2.94697666 -4.97858620 -1.72778535
-2.86299229 -4.97875452 -1.87698936
-2.91513562 -5.12132740 -1.70960450
-2.97895026 -4.83608294 -1.74541116
-2.89341688 -4.83570719 -1.89613545
-2.80000973 -4.83547592 -2.04153538
-2.92470312 -4.69320869 -1.91514874
-2.82818007 -4.69226074 -2.06129456
-2.72392225 -4.69152069 -2.20193124
-2.85595131 -4.54930592 -2.08068919
-2.74961805 -4.54798222 -2.22221613
-2.63635373 -4.54685450 -2.35828614
-2.77660894 -4.40519524 -2.24368048
-2.66162777 -4.40390015 -2.38060594
-2.53890586 -4.40233946 -2.51108003
-2.68717909 -4.26142502 -2.40407038
-2.56241083 -4.25999165 -2.53544617
-2.43085027 -4.25855207 -2.66066527
-2.58707786 -4.11832571 -2.56089354
-2.45395041 -4.11672449 -2.68753481
-2.31505370 -4.11575890 -2.80769563
-2.47721267 -3.97545791 -2.71480894
-2.33697486 -3.97428417 -2.83627629
-2.19173646 -3.97332454 -2.95137858
-2.35854888 -3.83291316 -2.86457348
-2.21209669 -3.83185554 -2.98116755
-2.06175399 -3.83173966 -3.09243751
-2.23217940 -3.69043255 -3.01111245
-2.08070946 -3.69006824 -3.12369442
-1.92444134 -3.68976212 -3.22857094
-2.10013890 -3.54855871 -3.15504408
-1.94276071 -3.54795766 -3.26113462
-1.78038228 -3.54666829 -3.35842061
-1.96101665 -3.40576005 -3.29324126
-1.79734337 -3.40430903 -3.39173555
-1.62876785 -3.40282917 -3.48103809
-1.81413090 -3.26177621 -3.42450142
-1.64387310 -3.26012278 -3.51435328
-1.46888077 -3.25860238 -3.59490371
-1.65890920 -3.11741090 -3.54754686
-1.48203230 -3.11616802 -3.62886047
-1.30117238 -3.11507559 -3.70127749
-1.49553633 -2.97380877 -3.66288090
-1.31259549 -2.97253084 -3.73581195
-1.12630153 -2.97175646 -3.79831457
-1.32313383 -2.82931638 -3.76698804
-1.13649893 -2.82926440 -3.83408117
-0.94523925 -2.82858205 -3.88749599
-1.14395046 -2.68445349 -3.85992718
-0.95361578 -2.68598580 -3.92267823
-0.75902635 -2.68480062 -3.96813869
-0.96287668 -2.54351068 -3.95874500
-0.76669174 -2.54231954 -4.00542545
-0.56879568 -2.54122710 -4.04169464
-0.77433401 -2.39962482 -4.04214573
-0.57457656 -2.39812183 -4.07812548
-0.37373224 -2.39631271 -4.10419130
-0.58104527 -2.25525379 -4.11544085
-0.37816617 -2.25313830 -4.14078426
-0.17404410 -2.25058889 -4.15549088
-0.38301051 -2.11010218 -4.17730761
-0.17686516 -2.10771489 -4.19218731
0.03003747 -2.10503864 -4.19654655
-0.17985965 -1.96513581 -4.22946835
0.02918769 -1.96249390 -4.23305845
0.23884779 -1.95979428 -4.22657776
0.02831478 -1.82000744 -4.26870871
0.23987678 -1.81752181 -4.26255226
0.45182613 -1.81527865 -4.24595547
0.24099249 -1.67557299 -4.29812193
0.45490155 -1.67343962 -4.28097010
0.66812843 -1.67137599 -4.25335503
0.45778617 -1.53167558 -4.31556273
0.67261440 -1.52909732 -4.28534603
0.88641363 -1.52732825 -4.24830246
0.67722750 -1.38740873 -4.31891537
0.89329851 -1.38611376 -4.28308010
1.10730588 -1.38533914 -4.23582697
0.89947248 -1.24452901 -4.31655121
1.11530089 -1.24395084 -4.26966858
1.32815194 -1.24325705 -4.21166325
1.12255585 -1.10241818 -4.30309343
1.33635509 -1.10114646 -4.24457979
1.54716551 -1.10004795 -4.17700148
1.34437299 -0.95909929 -4.27887726
1.55602753 -0.95742857 -4.20956469
1.76387823 -0.95501786 -4.13010693
1.56437504 -0.81487244 -4.24287415
1.77325475 -0.81223655 -4.16210985
1.97856784 -0.80911487 -4.07215357
1.78219783 -0.66929322 -4.19381762
1.98855698 -0.66599816 -4.10239935
2.19047093 -0.66216546 -4.00141954
1.99947131 -0.52355206 -4.13479519
2.20256424 -0.51944196 -4.03115606
2.40098071 -0.51592135 -3.91791487
2.21538639 -0.37719813 -4.06163836
2.41594720 -0.37409383 -3.94763994
2.61038065 -0.37122065 -3.82092953
2.42968845 -0.23188481 -3.97416258
2.62735343 -0.23006374 -3.84785676
2.81887889 -0.22807507 -3.71068835
2.79982495 -0.36853844 -3.68461704
2.64448762 -0.08904553 -3.87387609
2.83767819 -0.08760618 -3.73519945
2.83767819 -0.08760618 -3.73519945
3.02478147 -0.08628239 -3.58516288
2.81887889 -0.22807507 -3.71068835
2.85659885 0.05260270 -3.75937486
3.04615307 0.05280514 -3.60840201
3.22663164 0.05355094 -3.44401741
3.06812620 0.19149375 -3.63155437
3.25113678 0.19145317 -3.46733189
3.42124391 0.19280586 -3.28963423
3.27346230 0.33024585 -3.48872685
3.45273232 0.32878312 -3.31857300
3.62591553 0.32843053 -3.14407206
3.47956133 0.46688792 -3.34358096
3.65133381 0.46792272 -3.16739774
3.81423807 0.47080150 -2.98675179
3.67622638 0.60825872 -3.19144630
3.83832717 0.61247873 -3.01025105
3.98992991 0.61786067 -2.82291079
3.86242747 0.75455493 -3.03479075
4.01378155 0.76074618 -2.84646201
4.15288687 0.76644027 -2.65027142
4.03645468 0.90437734 -2.86983395
4.17613697 0.91059178 -2.67299581
4.30510807 0.91454583 -2.47007632
4.19810438 1.05539060 -2.69525218
4.32716846 1.05954123 -2.49099135
4.44530535 1.06170332 -2.27988029
4.34687519 1.20517266 -2.51044393
4.46675777 1.20698786 -2.29875469
4.57402802 1.20823646 -2.07945204
4.48794460 1.35238802 -2.31721306
4.59627867 1.35298336 -2.09637284
4.69295216 1.35297179 -1.86877465
4.61781216 1.49775338 -2.11229897
4.71519041 1.49710596 -1.88301861
4.79998446 1.49624455 -1.64744294
4.73623848 1.64133823 -1.89629138
4.82215405 1.63976014 -1.65928793
4.89746094 1.63667309 -1.41604686
4.84472752 1.78286517 -1.67033517
4.92139339 1.77876079 -1.42581654
4.98648024 1.77427483 -1.17591584
4.94284678 1.92113173 -1.43448770
5.00926304 1.91629899 -1.18428075
5.06051016 1.91249514 -0.93059939
5.03107405 2.05887222 -1.19243169
5.08329821 2.05516672 -0.93852496
5.12246370 2.05197001 -0.68287814
5.10402298 2.19836998 -0.94624823
5.14410686 2.19530058 -0.69001168
5.17128849 2.19281459 -0.43310469
5.16650200 2.33868289 -0.69720310
5.19306517 2.33646894 -0.43908784
5.20297909 2.33531857 -0.18049277
5.21297407 2.48022151 -0.44466060
5.22491741 2.47851634 -0.18469545
5.22368622 2.47739482 0.07595180
5.24568796 2.62165022 -0.18838942
5.24354362 2.62033796 0.07366258
5.22974443 2.62003732 0.33599210
5.26518154 2.76283026 0.07215378
5.24835920 2.76311350 0.33529261
5.22503328 2.76311946 0.59853548
5.27015305 2.90582561 0.33520588
5.24485540 2.90641522 0.59916562
5.20794535 2.90657711 0.86269170
5.26218128 3.05013895 0.59980726
5.22536325 3.05097127 0.86396348
5.17376280 3.05093670 1.12629879
5.24336481 3.19531918 0.86579603
5.19120932 3.19588590 1.12877297
5.12524414 3.19567204 1.38750100
5.20811272 3.34142470 1.13158250
5.13986921 3.34176016 1.39039719
5.06282854 3.33913541 1.64533293
5.15636778 3.48796368 1.39405644
5.07734394 3.48573804 1.64862812
4.98308659 3.48079538 1.89721072
5.09112501 3.63268161 1.65210235
4.99687481 3.62754226 1.90158677
4.89325857 3.61994648 2.14760280
4.87992764 3.47304320 2.14224982
5.01086998 3.77414489 1.90669715
4.90480852 3.76684976 2.15262055
4.89325857 3.61994648 2.14760280
4.90480852 3.76684976 2.15262055
4.78981590 3.75834584 2.39516783
4.91685629 3.91347480 2.15922785
4.79968405 3.90572882 2.40170026
4.67118120 3.89764714 2.63718343
4.80731392 4.05333710 2.40867209
4.67802000 4.04568338 2.64469838
4.53726149 4.03740501 2.87362051
4.68259811 4.19378328 2.65274549
4.54052782 4.18528509 2.88223386
4.38473320 4.17490292 3.10494733
4.54036570 4.33304977 2.89075494
4.38400555 4.32133198 3.11379766
4.21467829 4.30804205 3.32739449
4.38035727 4.46743727 3.12265396
4.21127939 4.45240116 3.33745933
4.03192806 4.43711090 3.54302049
4.20476961 4.59666824 3.34737325
4.02603722 4.57999086 3.55320072
3.83894014 4.56342888 3.74910235
4.01703644 4.72314739 3.56224751
3.83036709 4.70576477 3.75713778
3.63626909 4.69164228 3.94288802
3.81841207 4.84901428 3.76282024
3.62668419 4.83491421 3.94732809
3.42943549 4.82363081 4.12487555
3.61679316 4.97969627 3.95199299
3.42155623 4.96881676 4.12695074
3.21664214 4.96093750 4.28816128
3.41443419 5.11622334 4.12707806
3.21113873 5.10856295 4.28543282
3.00308013 5.10221577 4.43890285
3.20495343 5.25734520 4.28143263
2.99866343 5.25073195 4.43351507
2.78358102 5.24326849 4.57674789
2.98892856 5.39952517 4.42751455
2.77279949 5.39051867 4.56770086
2.54730010 5.38237333 4.69563103
2.75327182 5.53757811 4.55563021
2.53081298 5.52878523 4.68157148
2.30339408 5.52520084 4.79406118
2.51148176 5.67656136 4.66367435
2.28876257 5.67342806 4.77328491
2.06063843 5.67793083 4.87051344
2.27172065 5.82271862 4.74803448
2.04795527 5.82675982 4.84304285
1.81924736 5.83777189 4.93076134
2.03291917 5.97624683 4.81050205
1.80934453 5.98603916 4.89702463
1.57719135 6.00149155 4.97456884
1.79465556 6.13382149 4.85530376
1.56854308 6.14751625 4.93381929
1.33133149 6.16360998 5.00151920
1.55467486 6.29292202 4.88751459
1.32257926 6.30706167 4.95780420
1.07951152 6.32169914 5.01716805
1.30872250 6.44871616 4.90715837
1.06988072 6.46104670 4.96807098
0.82112461 6.47103024 5.01742840
1.05629563 6.59865999 4.91405487
0.81055719 6.60427332 4.95724344
0.56075484 6.61234283 4.99748993
0.79848671 6.73894978 4.89871216
0.55283505 6.74458647 4.93595266
0.30315983 6.74353409 4.94838142
0.54240060 6.87484598 4.86896992
0.29885888 6.87795067 4.89005280
0.05336323 6.87973690 4.90008211
0.29086393 7.00581741 4.81821394
0.04990628 7.00732040 4.82803535
-0.19191274 7.00855732 4.82876396
0.04510238 7.13189793 4.75090742
-0.19282611 7.13273573 4.75177431
-0.43155238 7.13168383 4.73985434
-0.19397072 7.25128412 4.66674995
-0.42941922 7.24984455 4.65528059
-0.66363645 7.24412727 4.62825537
-0.42681205 7.36260605 4.56442261
-0.65732378 7.35941505 4.54083157
-0.88546526 7.35202694 4.50268316
-0.64899933 7.46584654 4.44310570
-0.87283409 7.46141195 4.40907955
-1.09281874 7.45487928 4.36185026
-0.85634130 7.56285477 4.30649853
-1.07227945 7.55953026 4.26234961
-1.28450620 7.55522394 4.20748949
-1.04916763 7.65746450 4.15682030
-1.25559616 7.65305281 4.10261869
-1.46009970 7.64913988 4.04006433
-1.22470319 7.74099207 3.99081159
-1.42618346 7.74352360 3.93495107
-1.62432230 7.74087620 3.86559248
-1.38916862 7.83130646 3.82488370
-1.58181560 7.82787228 3.75747871
-1.77206361 7.82554913 3.67768002
-1.53821647 7.90909338 3.64535904
-1.72310567 7.90558958 3.56830597
-1.90384412 7.89986658 3.47998619
-1.95810902 7.82029963 3.58788013
-1.67211854 7.97849798 3.45538282
-1.84848082 7.97450924 3.37043905
-1.84848082 7.97450924 3.37043905
-2.01550126 7.97068787 3.27371359
-1.90384412 7.89986658 3.47998619
-1.78858542 8.04060745 3.25704169
-1.95161140 8.03842831 3.16328192
-2.10923195 8.03582668 3.06403041
-1.88590038 8.10015678 3.05111003
-2.03722000 8.09781551 2.95418835
-2.18272996 8.09578037 2.85274005
-1.96216142 8.15444946 2.84331727
-2.10146260 8.15229893 2.74464941
-2.23645163 8.14999390 2.64079094
-2.01748991 8.19956398 2.63485360
-2.14784837 8.19700336 2.53431320
-2.27422929 8.19365025 2.42930961
-2.05694413 8.23678112 2.42839622
-2.17773533 8.23328400 2.32692504
-2.29415607 8.23024368 2.21994424
-2.08016014 8.26658821 2.22484088
-2.19074798 8.26463318 2.12282586
-2.29557228 8.26344776 2.01557946
-2.08607984 8.29371166 2.02499080
-2.18677640 8.29219055 1.92231703
-2.27956510 8.29113293 1.81574106
-2.07530427 8.31803703 1.82997358
-2.16397691 8.31711197 1.72740960
-2.24529052 8.31645203 1.62237716
-2.04842901 8.34214306 1.64071417
-2.12666726 8.34221840 1.54081511
-2.20053506 8.34263992 1.43729150
-2.01057601 8.36623764 1.45910847
-2.08051276 8.36660194 1.36227334
-2.14750147 8.36640549 1.26157665
-1.96468174 8.39069080 1.28677535
-2.02769899 8.39057541 1.19247794
-2.08651352 8.38958645 1.09510529
-1.91515136 8.41226006 1.12561083
-1.97041643 8.41100502 1.03403044
-2.01965189 8.40981960 0.94039798
-1.86204851 8.43028450 0.97752267
-1.90868831 8.42868900 0.88905245
-1.95033371 8.42716122 0.79717147
-1.80223393 8.44677639 0.84051633
-1.84193110 8.44405365 0.75368786
-1.87608457 8.44214630 0.66524655
-1.73938453 8.46810246 0.71379417
-1.77219081 8.46543217 0.63053828
-1.80223393 8.46734428 0.54583138
-1.70347381 8.54338074 0.60750735
-1.72731984 8.54004478 0.52553481
-1.74691117 8.53725338 0.44274136
-1.66599071 8.63509369 0.50976467
-1.68476117 8.63327217 0.42987898
-1.70145631 8.63311100 0.34958288
-1.61749518 8.74091148 0.41550198
-1.63055408 8.74123669 0.33831599
-1.63772821 8.74091911 0.26056924
-1.59361434 8.87241554 0.33307853
-1.60285223 8.87410927 0.25672498
-1.61041367 8.87602329 0.18031938
-1.57132912 9.00780869 0.25351661
-1.57835877 9.01035786 0.17825562
-1.58533049 9.01361275 0.10299465
-1.56456566 9.14890766 0.17834234
-1.56760633 9.15207672 0.10376350
-1.56862378 9.15526676 0.02917311
-1.56338632 9.29260921 0.10533590
-1.56117797 9.29588699 0.03104611
-1.55525267 9.29914665 -0.04295464
-1.57414448 9.43499660 0.03231790
-1.56520724 9.43852329 -0.04186206
-1.55450106 9.44178963 -0.11601888
-1.64108682 9.55023193 -0.04777009
-1.63239241 9.55163670 -0.12518732
-1.62250137 9.55319691 -0.20277222
-1.65679336 9.67771816 -0.12837835
-1.64526057 9.68068409 -0.20622338
-1.62933433 9.68374634 -0.28335732
-1.72650480 9.73430634 -0.22214964
-1.71268845 9.73514366 -0.30407596
-1.69473314 9.73627090 -0.38595021
-1.78546369 9.76986980 -0.32260358
-1.76213217 9.77252388 -0.40671504
-1.73486388 9.77494526 -0.48993629
-1.77002311 9.84934616 -0.40937424
-1.74410164 9.85147953 -0.49281514
-1.71200061 9.85450840 -0.57422692
-1.73211789 9.92723083 -0.48861822
-1.70375133 9.93114376 -0.57023817
-1.66987550 9.93500042 -0.65004289
-1.64598894 9.97268486 -0.54627651
-1.61284733 9.97409153 -0.62324864
-1.57490754 9.97717190 -0.69724935
-1.53832626 9.98087788 -0.58821660
-1.50249076 9.98183060 -0.65836155
-1.46341789 9.98299885 -0.72634441
-1.53289807 9.97769737 -0.76937127
-1.43142664 9.98406792 -0.62075704
-1.39422107 9.98507500 -0.68469912
-1.46341789 9.98299885 -0.72634441
-1.39422107 9.98507500 -0.68469912
-1.35468590 9.98601723 -0.74818444
-1.32699549 9.98585510 -0.64464933
-1.29000378 9.98688889 -0.70343482
-1.25060153 9.98817253 -0.76071161
-1.22563398 9.98450661 -0.65952349
-1.18745720 9.98612690 -0.71241254
-1.14834976 9.98693657 -0.76599526
-1.13411725 9.95960426 -0.67259979
-1.09516585 9.96248341 -0.72119367
-1.05492532 9.96492767 -0.76870656
-1.09516585 9.96248341 -0.72119367
-1.08688188 9.88449955 -0.71623945
-1.04605162 9.88738346 -0.76179260
-1.05492532 9.96492767 -0.76870656
-1.00449312 9.89018154 -0.80711454
-1.01143587 9.96767998 -0.81329423
-1.05119658 9.80724907 -0.76829028
-1.01000214 9.81008244 -0.81325376
-0.96418893 9.81312752 -0.85506672
-1.04556024 9.73505783 -0.84715849
-1.00152755 9.73804092 -0.89162487
-0.95208961 9.74149132 -0.93213713
-1.02444291 9.63630390 -0.91158623
-0.97950816 9.64446545 -0.95730698
-0.93255609 9.65198803 -1.00133395
-0.97241503 9.51160526 -0.93248975
-0.92756724 9.51891804 -0.97666705
-0.88072491 9.52626514 -1.02334166
-0.92843431 9.38642120 -0.95607567
-0.88044167 9.39405632 -0.99998707
-0.82951814 9.40052509 -1.04196763
-0.89402092 9.26504517 -0.98716509
-0.84457147 9.27120781 -1.02905321
-0.78964752 9.27715015 -1.06938040
-0.87007082 9.14420319 -1.01865339
-0.81595045 9.14941692 -1.05917716
-0.75223386 9.15545845 -1.10060859
-0.84472173 9.02794361 -1.04939604
-0.77250731 9.03348732 -1.09786844
-0.67098391 9.04170227 -1.15631878
-0.79105806 8.91774940 -1.09396648
-0.67933720 8.92606735 -1.15900111
-0.57468057 8.93140984 -1.21128309
-0.68253982 8.82155609 -1.14820814
-0.57180750 8.82449150 -1.20141518
-0.48219845 8.82461357 -1.24288702
-0.80349851 8.81333447 -1.08397710
-0.87518108 8.91418266 -1.04167283
-0.89416540 8.81083775 -1.03367209
-0.92932457 8.91574860 -1.00456548
-0.95281804 8.81206894 -1.00087726
-0.90064579 9.02648067 -1.00923061
-0.94485772 9.02737713 -0.97393852
-0.97183120 8.91940212 -0.97082841
-0.91805190 9.14216709 -0.98082930
-0.96060479 9.14027786 -0.94383174
-0.98036951 9.03006458 -0.94185477
-0.93909425 9.26009655 -0.94780326
-0.98115575 9.25426960 -0.90912354
-0.99420893 9.13871574 -0.90652215
-0.97481412 9.37858677 -0.91539574
-1.01708949 9.37205505 -0.87121844
-1.01956952 9.24888229 -0.86835694
-1.01429737 9.50449944 -0.88618511
-1.05454957 9.49786949 -0.83879364
-1.05642831 9.36463261 -0.82328933
-1.06706500 9.62841320 -0.86371487
-1.10812080 9.62183952 -0.81642169
-1.09173775 9.49216366 -0.79238486
-1.08905542 9.73116779 -0.80223548
-1.13062561 9.72862339 -0.75680953
-1.14395630 9.61589813 -0.76793766
-1.09097469 9.80418491 -0.72252321
-1.12983358 9.80087376 -0.67620122
-1.16875041 9.72469330 -0.70899600
-1.12574661 9.88118649 -0.66941446
-1.16302156 9.87798405 -0.62156057
-1.16487134 9.79742813 -0.62741083
-1.13411725 9.95960426 -0.67259979
-1.17102802 9.95610523 -0.62332374
-1.20512927 9.95258045 -0.57233661
-1.19572389 9.87510490 -0.57074684
-1.17102802 9.95610523 -0.62332374
-1.25963688 9.98335171 -0.60548979
-1.20512927 9.95258045 -0.57233661
-1.29216003 9.98211479 -0.54750776
-1.23384273 9.95137215 -0.51844746
-1.20512927 9.95258045 -0.57233661
-1.25963688 9.98335171 -0.60548979
-1.32699549 9.98585510 -0.64464933
-1.36054182 9.98501015 -0.58363241
-1.39228451 9.98401165 -0.52067882
-1.32046902 9.98195744 -0.48846793
-1.46310580 9.98310757 -0.55421358
-1.49484265 9.98210907 -0.48630008
-1.41992283 9.98311520 -0.45723975
-1.56993032 9.98027134 -0.51628542
-1.59910035 9.97862911 -0.44298413
-1.52113986 9.98105621 -0.41666389
-1.67546558 9.97241306 -0.46877256
-1.70169914 9.97037983 -0.38985229
-1.62350726 9.97727585 -0.36804688
-1.75696981 9.92439270 -0.40554154
-1.78346932 9.92482662 -0.32302558
-1.72366059 9.97033310 -0.30942321
-1.79270709 9.84743786 -0.32473671
-1.80983579 9.84625912 -0.23905864
-1.80250561 9.92369270 -0.23805276
-1.79786360 9.77112961 -0.23626648
-1.80919409 9.76904488 -0.15029936
-1.82714939 9.84376621 -0.15339212
-1.73591602 9.73417854 -0.14015976
-1.74254084 9.73173428 -0.05717554
-1.81640863 9.76550579 -0.06460395
-1.66386330 9.67620850 -0.05011712
-1.66830885 9.67390251 0.02862393
-1.74460459 9.73112679 0.02483747
-1.64208102 9.54958439 0.03008649
-1.64302337 9.54815197 0.10807603
-1.66966736 9.67175198 0.10745169
-1.57871711 9.43113613 0.10729560
-1.58263075 9.42683506 0.18240049
-1.63728309 9.54816818 0.18568981
-1.56109703 9.28911686 0.17963724
-1.55595219 9.28534222 0.25375360
-1.57979238 9.42220879 0.25738978
-1.55724704 9.14559555 0.25271308
-1.54815376 9.14205742 0.32702020
-1.54777217 9.28112793 0.32782373
-1.56454825 9.00580883 0.32909551
-1.55163372 9.00231171 0.40355873
-1.53375947 9.13742638 0.40060470
-1.58052659 8.87013245 0.40878463
-1.56269264 8.86723614 0.48379126
-1.53423917 8.99822426 0.47741497
-1.59778249 8.73940945 0.49113873
-1.57169330 8.73654175 0.56516838
-1.54193354 8.86340904 0.55772257
-1.64172840 8.63730145 0.58795071
-1.61292255 8.64104843 0.66544312
-1.54230928 8.73414898 0.63839447
-1.67336702 8.54627705 0.68809247
-1.63828313 8.54860592 0.76651561
-1.58090222 8.64518166 0.74146712
-1.70254302 8.47109127 0.79519445
-1.66323316 8.47476768 0.87535179
-1.60200822 8.55169296 0.84464967
-1.75934577 8.44898415 0.92413068
-1.71217406 8.45038319 1.00682580
-1.61880159 8.47690105 0.95457262
-1.81061041 8.43149757 1.06385970
-1.75496972 8.43227768 1.14846838
-1.66136026 8.45116425 1.08722591
-1.85538328 8.41250801 1.21477473
-1.79175901 8.41236401 1.30038345
-1.69661188 8.43272305 1.23081088
-1.89761233 8.38995647 1.37778914
-1.82727671 8.38911247 1.46608591
-1.72578216 8.41152477 1.38387060
-1.93598568 8.36554432 1.55279303
-1.85659695 8.36557293 1.64309001
-1.75319493 8.38810635 1.55112815
-1.96486676 8.34273338 1.73650289
-1.87679553 8.34383106 1.82774794
-1.77449155 8.36593723 1.72933459
-1.98246944 8.31932640 1.92650807
-1.88307929 8.32072544 2.01885152
-1.78427291 8.34520149 1.91523540
-1.98161983 8.29527187 2.12219596
-1.87052917 8.29682064 2.21503067
-1.77828968 8.32352352 2.10749531
-1.96427131 8.26873112 2.32158923
-1.84376359 8.27150631 2.41349912
-1.75585413 8.29819679 2.30261636
-1.93128014 8.23900700 2.52443933
-1.80240154 8.24147511 2.61610079
-1.71983933 8.27378368 2.50143170
-1.88395810 8.20181847 2.73003554
-1.74540818 8.20256996 2.82015920
-1.66991591 8.24239445 2.70257068
-1.81729877 8.15512753 2.93661451
-1.66739547 8.15602875 3.02402115
-1.60217583 8.20338535 2.90428209
-1.72912347 8.10171127 3.14126253
-1.56547892 8.10577488 3.22185922
-1.50978613 8.15881443 3.10128212
-1.66739547 8.15602875 3.02402115
-1.72912347 8.10171127 3.14126253
-1.78858542 8.04060745 3.25704169
-1.61966300 8.04470062 3.34014153
-1.44445097 8.04826736 3.41107845
-1.39678204 8.10826683 3.28950691
-1.49187708 7.98173523 3.52891517
-1.30933499 7.98327875 3.59108257
-1.26715779 8.04988003 3.46988130
-1.34970272 7.91061926 3.70996022
-1.16085374 7.91342258 3.76519036
-1.12556744 7.98675966 3.64396596
-1.19385087 7.83296537 3.88216019
-0.99803585 7.83523083 3.93097377
-0.97054791 7.91595507 3.81202722
-1.02394569 7.74893427 4.04585123
-0.82058090 7.75206757 4.08751917
-0.80044615 7.83783293 3.97059011
-0.83947855 7.66041851 4.19940805
-0.62726909 7.66463280 4.23283863
-0.61513507 7.75592375 4.11944103
-0.63892329 7.56679726 4.33995199
-0.41944724 7.57311010 4.36445141
-0.41556254 7.66814184 4.25352859
-0.42311233 7.47015285 4.46761656
-0.19865322 7.47403145 4.47791815
-0.20065917 7.57611561 4.37303019
-0.19617322 7.36612034 4.57696724
0.03212436 7.36740971 4.57625580
0.02498500 7.47617674 4.47803354
0.03926950 7.25312233 4.66802740
0.27097780 7.25083923 4.65502596
0.25972825 7.36795902 4.56590891
0.28134865 7.13066053 4.74018383
0.51566410 7.12756205 4.71799135
0.50077266 7.24789619 4.63246918
0.53012204 7.00282812 4.79681921
0.76559949 7.00147009 4.76393175
0.74577111 7.12670660 4.68483829
0.78347963 6.87151051 4.83448696
1.01830959 6.86772966 4.78864479
0.99608225 6.99904776 4.71890497
1.03864670 6.73390913 4.85363913
1.27051687 6.72788525 4.79494047
1.24673438 6.86365461 4.73172045
1.29168057 6.58969355 4.85393953
1.51683342 6.58038664 4.78378916
1.49394119 6.72119093 4.72641993
1.53733230 6.43733358 4.83749342
1.75710881 6.42745399 4.75879240
1.73486412 6.57223558 4.70619249
1.77702403 6.28137779 4.80882597
1.99336088 6.27356768 4.72470284
1.97086763 6.42057467 4.67409182
2.01422405 6.12513876 4.76981688
2.22986746 6.12205124 4.67868710
2.20595193 6.27096653 4.63506508
2.25210643 5.97239637 4.71655178
2.46732163 5.97532749 4.61313200
2.44121528 6.12476301 4.57816410
2.49090195 5.82581139 4.64155102
2.70392656 5.83370781 4.52099133
2.67692399 5.98325300 4.49728966
2.72922349 5.68485689 4.53975058
2.93959475 5.69608879 4.40484238
2.91028571 5.84482479 4.38769627
2.96739483 5.54761934 4.41823626
3.17410684 5.55805969 4.27563429
3.14679790 5.70828629 4.26751232
3.19422412 5.40739250 4.27828217
3.39203334 5.41633606 4.12326813
3.37125707 5.56767893 4.12222195
3.40524268 5.26542664 4.12487555
3.59581447 5.27577448 3.95776224
3.58136797 5.42711163 3.95931172
3.60720849 5.12630463 3.95619011
3.79017305 5.13957214 3.77289057
3.77772045 5.28807020 3.78094888
3.80456686 4.99346066 3.76753759
3.98946142 5.01122522 3.57724905
3.97224045 5.15694904 3.58426118
4.00560188 4.86687183 3.57102871
4.18253660 4.88522005 3.36712074
4.16627550 5.03039408 3.37648559
4.19580412 4.74080276 3.35755348
4.36382437 4.75830126 3.14284086
4.35023308 4.90408850 3.15390539
4.37400436 4.61290693 3.13281107
4.52991390 4.62766504 2.90913820
4.51987314 4.77434826 2.91983843
4.53668356 4.48047876 2.89947271
4.68058586 4.48995972 2.66911125
4.67245293 4.63788557 2.67774773
4.68314743 4.34185410 2.66070580
4.81362677 4.34910297 2.42411256
4.81189823 4.49724913 2.43280149
4.81154013 4.20115376 2.41579413
4.92820930 4.20795202 2.17233920
4.93027878 4.35551405 2.18011999
4.92353868 4.06058598 2.16532087
4.92353868 4.06058598 2.16532087
5.02726984 4.06775475 1.91725290
5.03134584 4.21495247 1.92367542
4.92820930 4.20795202 2.17233920
4.91685629 3.91347480 2.15922785
5.02113056 3.92083979 1.91157603
5.11345053 3.92679429 1.66009724
5.11985016 4.07436800 1.66539252
5.10336924 3.77955008 1.65579629
5.18268871 3.78229594 1.40071023
5.19124365 3.93036103 1.40445626
5.17139864 3.63476825 1.39759433
5.23747349 3.63404012 1.13829994
5.24994850 3.78131890 1.14220190
5.22335720 3.48743749 1.13473880
5.27540207 3.48549509 0.87104505
5.28970957 3.63133454 0.87469852
5.26022148 3.34008932 0.86810839
5.29707432 3.33823347 0.60294050
5.31149197 3.48304987 0.60551876
5.27946615 3.19403577 0.60099238
5.30786133 3.19244051 0.33610192
5.32467222 3.33634305 0.33773792
5.28944969 3.04898262 0.33539665
5.30523729 3.04857802 0.07062186
5.32351589 3.19200706 0.07073747
5.28550100 2.90560007 0.07119415
5.28627586 2.90726495 -0.19312973
5.30612707 3.05035853 -0.19441886
5.26645327 2.76437378 -0.19123361
5.25436544 2.76729894 -0.45403135
5.27449989 2.91076231 -0.45668480
5.23408604 2.62370229 -0.44985759
5.20970774 2.62623429 -0.70994991
5.23023033 2.77075577 -0.71444738
5.18836546 2.48229122 -0.70400143
5.14876080 2.48558617 -0.96128422
5.17231798 2.62980700 -0.96800154
5.12488604 2.34194326 -0.95378059
5.07458687 2.34551024 -1.20790136
5.09855413 2.48956919 -1.21532404
5.04658413 2.20282722 -1.19888318
4.98815727 2.20681596 -1.45079553
5.01145411 2.35050488 -1.45821810
4.96576786 2.06368756 -1.44300878
4.88815975 2.06918526 -1.68895531
4.91228342 2.21234250 -1.69700217
4.86685133 1.92592406 -1.68056726
4.77817297 1.92978561 -1.91972125
4.80149317 2.07370591 -1.92993033
4.75833845 1.78547239 -1.90884745
4.65921450 1.78742051 -2.13970590
4.68061495 1.93231773 -2.15246439
4.63957167 1.64234996 -2.12695336
4.52935362 1.64295685 -2.35004258
4.55081749 1.78816628 -2.36513066
4.50851965 1.49775910 -2.33439946
4.38562965 1.49689198 -2.54782891
4.40720987 1.64232683 -2.56603265
4.36794615 1.35062468 -2.53039360
4.23760557 1.34650886 -2.73730206
4.25694180 1.49231350 -2.75728655
4.21884060 1.20061731 -2.71678019
4.07845211 1.19365716 -2.91538715
4.09728098 1.33938682 -2.93674755
4.05838680 1.04862118 -2.89311361
3.90671444 1.04151654 -3.08272004
3.92746210 1.18611896 -3.10627675
3.88486338 0.89775240 -3.05865407
3.72361135 0.89143974 -3.24101114
3.74524379 1.03455639 -3.26514626
3.70012403 0.74946767 -3.21586466
3.52724767 0.74668139 -3.39093208
3.55182195 0.88732952 -3.41669154
3.50211263 0.60696954 -3.36542702
3.32358813 0.60661119 -3.53777170
3.34788513 0.74598759 -3.56245017
3.29611754 0.46896899 -3.51057839
3.11361575 0.46903834 -3.67875504
3.13711500 0.60799861 -3.70290184
3.09146357 0.32986414 -3.65582824
2.89993787 0.33110723 -3.81036782
2.92202663 0.47039685 -3.83521414
2.87853742 0.19159187 -3.78592658
2.87853742 0.19159187 -3.78592658
2.68146229 0.19199081 -3.92701983
2.70190907 0.33198005 -3.95333433
2.89993787 0.33110723 -3.81036782
2.85659885 0.05260270 -3.75937486
2.66278982 0.05157374 -3.90056062
2.46277237 0.05026164 -4.03017902
2.48029995 0.19112371 -4.05860949
2.44610620 -0.09088381 -4.00279522
2.24240613 -0.09308638 -4.12124491
2.25767899 0.04860816 -4.15033436
2.22882676 -0.23515096 -4.09176826
2.02198195 -0.23837081 -4.19693375
2.03465366 -0.09612121 -4.22773409
2.01026988 -0.38090950 -4.16601181
1.80128622 -0.38407159 -4.25993967
1.81185937 -0.24148105 -4.29290199
1.79199636 -0.52695119 -4.22764730
1.57994866 -0.52932137 -4.30920362
1.58782220 -0.38639542 -4.34210825
1.57193649 -0.67196965 -4.27533388
1.35776734 -0.67425317 -4.34586000
1.36446738 -0.53176081 -4.38049316
1.35095751 -0.81661260 -4.31152201
1.13415790 -0.81816179 -4.36987925
1.13994467 -0.67606854 -4.40519476
1.12883389 -0.96052116 -4.33736229
0.90990692 -0.96111089 -4.38241816
0.91494787 -0.81965911 -4.41842175
0.90481406 -1.10268414 -4.34860611
0.68607223 -1.10493279 -4.38885212
0.68992805 -0.96312845 -4.42278004
0.68194467 -1.24657524 -4.35539865
0.46326643 -1.24845982 -4.38434935
0.46612221 -1.10688090 -4.41937542
0.46061301 -1.39004457 -4.35003376
0.24284236 -1.39196980 -4.36861372
0.24398120 -1.25007856 -4.40307903
0.24192323 -1.53372204 -4.33331537
0.02609493 -1.53549683 -4.33994627
0.02529717 -1.39341486 -4.37531948
0.02713548 -1.67779279 -4.30489683
-0.18607408 -1.68018579 -4.30180979
-0.18899919 -1.53763592 -4.33692837
-0.18310271 -1.82266653 -4.26589918
-0.39332935 -1.82443559 -4.25012350
-0.39832979 -1.68200123 -4.28681469
-0.38819015 -1.96727490 -4.21425915
-0.59464765 -1.96926355 -4.18799067
-0.60215700 -1.82670736 -4.22510958
-0.58780313 -2.11239171 -4.15231705
-0.79061294 -2.11407948 -4.11460304
-0.79948080 -1.97144842 -4.15130520
-0.78238678 -2.25696516 -4.07889414
-0.98172230 -2.25829482 -4.03213310
-0.99228960 -2.11600471 -4.06824636
-0.97181392 -2.40076375 -3.99549413
-1.16718376 -2.40207052 -3.93906116
-1.17888999 -2.26016188 -3.97470593
-1.15609598 -2.54411769 -3.90260124
-1.34745395 -2.54497910 -3.83691931
-1.36031628 -2.40321493 -3.87226939
-1.33422160 -2.68650579 -3.79978323
-1.52195489 -2.68893933 -3.72890973
-1.53581738 -2.54695582 -3.76251364
-1.50880349 -2.83125877 -3.69635797
-1.68911994 -2.83237982 -3.61244869
-1.70467627 -2.69040203 -3.64529538
-1.67419958 -2.97478557 -3.58061337
-1.84811080 -2.97667599 -3.48885989
-1.86535525 -2.83429360 -3.52011681
-1.83091271 -3.11912227 -3.45707083
-1.99782336 -3.12131286 -3.35714293
-2.01566315 -2.97856617 -3.38622642
-1.97954452 -3.26370144 -3.32549858
-2.14037943 -3.26524448 -3.21855259
-2.16047931 -3.12341142 -3.24970579
-2.11977625 -3.40672541 -3.18643999
-2.27397490 -3.40771961 -3.07216978
-2.29629493 -3.26674199 -3.10384893
-2.25270128 -3.54908490 -3.04142141
-2.40136194 -3.55025268 -2.92221451
-2.42424250 -3.40945983 -2.95223999
-2.37982821 -3.69146729 -2.89324069
-2.52265573 -3.69284892 -2.76901007
-2.54559994 -3.55185366 -2.79687381
-2.50041699 -3.83433557 -2.74220443
-2.63592005 -3.83524847 -2.61284614
-2.66080666 -3.69444418 -2.63954210
-2.61175060 -3.97686267 -2.58695936
-2.73887134 -3.97778749 -2.45227695
-2.76424956 -3.83632374 -2.47646976
-2.71276498 -4.11939526 -2.42766213
-2.83038235 -4.12027407 -2.28762078
-2.85784721 -3.97828460 -2.31009102
-2.80370951 -4.26261616 -2.26566529
-2.91218162 -4.26406097 -2.12143850
-2.93941522 -4.12141848 -2.14131308
-2.88267040 -4.40622425 -2.09978938
-2.98266745 -4.40769243 -1.95176470
-3.00916123 -4.26477242 -1.96910715
-2.95434141 -4.55053759 -1.93358970
-3.04197335 -4.55150843 -1.77974939
-3.07215524 -4.40893507 -1.79688966
-3.01086664 -4.69388533 -1.76284611
-3.01086664 -4.69388533 -1.76284611
-3.08877516 -4.69445181 -1.60586131
-3.12048888 -4.55217886 -1.62092042
-3.04197335 -4.55150843 -1.77974939
-2.97895026 -4.83608294 -1.74541116
-3.05617094 -4.83632517 -1.59036279
-3.12564540 -4.83697271 -1.43048739
-3.15846324 -4.69507599 -1.44441342
-3.09226108 -4.97868490 -1.41637635
-3.15336466 -4.97937870 -1.25562811
-3.18755269 -4.83767223 -1.26761746
-3.11940217 -5.12124109 -1.24284089
-3.17215824 -5.12162256 -1.08080924
-3.20716715 -4.98018789 -1.09198940
-3.13638043 -5.26279688 -1.06923008
-3.17992187 -5.26391792 -0.90692097
-3.21702337 -5.12222910 -0.91625708
-3.13909173 -5.40430069 -0.89635366
-3.16608262 -5.40242767 -0.73198652
-3.21756673 -5.26533461 -0.74324185
-3.14694214 -5.54809952 -0.72867411
-3.17645335 -5.54978180 -0.56718010
-3.21163559 -5.40802288 -0.57268345
-3.14272213 -5.69249916 -0.56121421
-3.15880442 -5.69327974 -0.40000927
-3.19734550 -5.55189180 -0.40486518
-3.13201022 -5.83773756 -0.39617655
-3.14405751 -5.83952904 -0.23700064
-3.17730331 -5.69649410 -0.23924942
-3.11140728 -5.98322439 -0.23497157
-3.11661577 -5.98516655 -0.07706169
-3.14898872 -5.84126949 -0.07748947
-3.08675766 -6.13002920 -0.07717153
-3.08466506 -6.13289595 0.07803291
-3.11486411 -5.98787785 0.07974405
-3.10636067 -5.99104023 0.23638792
-3.13908601 -5.84693527 0.23993737
-3.14656067 -5.84369183 0.08179046
-3.07549644 -6.13567734 0.23279223
-3.05698037 -6.13829613 0.38615257
-3.08908153 -5.99391842 0.39174846
-3.06295776 -5.99634695 0.54586607
-3.09577584 -5.85217237 0.55291873
-3.12159896 -5.84963465 0.39730963
-3.02953291 -6.14055014 0.53839147
-2.99453545 -6.14220905 0.68897116
-3.02793741 -5.99806356 0.69756734
-2.96258473 -6.28663778 0.68047333
-2.92113042 -6.28747702 0.82715100
-2.95194817 -6.14297819 0.83646977
-2.88975167 -6.43188286 0.81757790
-2.83997869 -6.43219519 0.96026099
-2.87121272 -6.28797960 0.97148168
-2.80883718 -6.57662916 0.94930059
-2.75490189 -6.57758856 1.08864808
-2.78233194 -6.43269777 1.09964907
-2.72706103 -6.72251511 1.07786679
-2.66425228 -6.72241116 1.21169937
-2.69161868 -6.57790709 1.22411096
-2.63707638 -6.86719799 1.20025897
-2.56656146 -6.86664915 1.32879639
-2.59248853 -6.72197151 1.34157789
-2.51481104 -6.72159576 1.46730578
-2.54045534 -6.57688904 1.48135328
-2.61942148 -6.57742739 1.35483921
-2.48612666 -6.86506510 1.45139682
-2.40278983 -6.86393261 1.57207215
-2.42882085 -6.72017384 1.58748984
-2.33793449 -6.71877480 1.70426881
-2.36475182 -6.57525921 1.72175598
-2.45613551 -6.57636356 1.60423112
-2.31443524 -6.86269474 1.68931949
-2.21971011 -6.86087418 1.80073977
-2.24143457 -6.71700573 1.81595492
-2.14567471 -6.71716166 1.92882037
-2.16960740 -6.57409763 1.94785106
-2.26930404 -6.57449627 1.83654642
-2.12264371 -6.86029577 1.91105580
-2.02112627 -6.85962009 2.01717496
-2.04324365 -6.71674013 2.03580666
-1.99956918 -7.00264978 1.99986720
-1.89442134 -7.00180531 2.10069704
-1.91472352 -6.85899544 2.11844420
-1.80209529 -6.85814524 2.21304774
-1.82201600 -6.71589565 2.23324037
-1.93627477 -6.71647978 2.13842273
-1.78334785 -7.00068426 2.19504046
-1.66434896 -6.99871826 2.27959108
-1.68315411 -6.85670614 2.29988217
-1.64712191 -7.14117622 2.26149130
-1.52337122 -7.13823366 2.33639383
-1.53982937 -6.99615240 2.35581183
-1.41128039 -6.99319172 2.42540741
-1.42765749 -6.85128927 2.44654799
-1.55697536 -6.85418510 2.37613153
-1.39638317 -7.13548183 2.40626121
-1.26636004 -7.13223934 2.47071218
-1.27959251 -6.98978710 2.48853469
-1.27959251 -6.98978710 2.48853469
-1.14781213 -6.98707008 2.55182338
-1.16192889 -6.84539270 2.57398152
-1.29602170 -6.84841013 2.51246715
-1.29602170 -6.84841013 2.51246715
-1.26636004 -7.13223934 2.47071218
-1.13481677 -7.12907171 2.53165960
-1.00078750 -7.12583971 2.58718467
-1.01296771 -6.98403502 2.60840058
-0.98900032 -7.26789284 2.56677842
-0.85432374 -7.26523972 2.61710644
-0.86461365 -7.12306452 2.63744950
-0.84492409 -7.40777779 2.59813380
-0.70960003 -7.40571356 2.64227057
-0.71830016 -7.26329708 2.66326666
-0.70149523 -7.54841423 2.62316489
-0.56551218 -7.54657078 2.66045141
-0.57266307 -7.40388775 2.68012357
-0.55880058 -7.68943930 2.64290643
-0.42256314 -7.68792391 2.67383981
-0.42826307 -7.54479599 2.69141936
-0.41684011 -7.83095455 2.65694261
-0.28024423 -7.82994175 2.67886353
-0.28485158 -7.68686008 2.69655299
-0.14621505 -7.68575001 2.70871019
-0.14989747 -7.54266310 2.72703528
-0.28965545 -7.54383087 2.71454859
-0.14246908 -7.82893085 2.69262767
-0.00432972 -7.82799959 2.69650674
-0.00697157 -7.68462276 2.71215534
0.13204069 -7.68378496 2.71111488
0.13022549 -7.54044199 2.72873497
-0.00991980 -7.54166794 2.73205876
0.13391946 -7.82725477 2.69513655
0.27193743 -7.82670450 2.68988752
0.27085641 -7.68295240 2.70387721
0.27284500 -7.97024870 2.67504811
0.40962008 -7.96989059 2.66486812
0.40940043 -7.82620192 2.67882299
0.54610610 -7.82588434 2.66179252
0.54712355 -7.68242121 2.67813516
0.40928480 -7.68268061 2.69494581
0.54552805 -7.96964169 2.64814401
0.68037808 -7.96959591 2.62483573
0.68104285 -7.82551908 2.63483644
0.67952251 -8.11355114 2.61338377
0.81260359 -8.11378765 2.58536959
0.81404305 -7.96969986 2.59645724
0.94649982 -7.97012854 2.56424642
0.94888151 -7.82588959 2.57427025
0.81609523 -7.82571125 2.60867810
0.94433200 -8.11426163 2.55300856
1.07443011 -8.11476421 2.51603985
1.07748830 -7.97057867 2.52674031
1.07236636 -8.25896358 2.50658226
1.19961464 -8.25936699 2.46254396
1.20170724 -8.11509991 2.47035956
1.32585692 -8.11538887 2.41767859
1.33116388 -7.97122574 2.43017673
1.20601404 -7.97098970 2.48258591
1.32326138 -8.25974846 2.41011143
1.44338763 -8.26003742 2.35049915
1.44732440 -8.11555195 2.35904908
1.56443286 -8.11563301 2.29228020
1.56964147 -7.97116232 2.30143118
1.45253873 -7.97119236 2.36984205
1.56023598 -8.26022243 2.28450513
1.67350042 -8.26034451 2.21262002
1.67822325 -8.11569595 2.21971321
1.78763747 -8.11561489 2.14087391
1.79495049 -7.97105312 2.15000176
1.68363416 -7.97103548 2.22760987
1.78306496 -8.26047134 2.13500047
1.88858855 -8.26058674 2.05222440
1.89534652 -8.11570168 2.05942726
