-1.95905340 -9.56284714 -1.78320467
-2.01378059 -9.43248463 -1.84062910
-2.06587791 -9.56310463 -1.66589916
-2.12452507 -9.43246174 -1.72001648
-2.16585660 -9.56282043 -1.54268801
-2.22755384 -9.43218040 -1.59281349
-2.32240629 -9.43131828 -1.45979941
-2.25839949 -9.56144810 -1.41378415
-2.40967417 -9.42993069 -1.32104540
-2.34272504 -9.55997753 -1.27942371
-2.48725390 -9.43003082 -1.17747247
-2.41759276 -9.55990314 -1.14026809
-2.55497384 -9.43070126 -1.02886808
-2.48336601 -9.56088066 -0.99608099
-2.61332059 -9.43220711 -0.87638974
-2.53970385 -9.56196117 -0.84865773
-2.66160893 -9.43453693 -0.72072244
-2.58527780 -9.56606007 -0.69721884
-2.70056629 -9.43584251 -0.56236231
-2.62269092 -9.56751251 -0.54412633
-2.73058152 -9.43527794 -0.40256125
-2.65215468 -9.56626415 -0.38930947
-2.75078797 -9.43454552 -0.24127202
-2.67226529 -9.56517982 -0.23279181
-2.76056623 -9.43451309 -0.07835289
-2.68156457 -9.56525421 -0.07615606
-2.75951362 -9.43624115 0.08402294
-2.68015862 -9.56725311 0.08175526
-2.66939068 -9.56862259 0.23874533
-2.74853420 -9.43756390 0.24635153
-2.64897394 -9.56978607 0.39502674
-2.72782063 -9.43872738 0.40759352
-2.61915612 -9.57098484 0.54948932
-2.69738746 -9.43923759 0.56711113
-2.58007002 -9.57206917 0.70168418
-2.65682840 -9.44012928 0.72464448
-2.53155565 -9.57286930 0.85139877
-2.60710311 -9.44051075 0.87896526
-2.47464848 -9.57268620 0.99759370
-2.54809952 -9.44093895 1.03038061
-2.40847898 -9.57270050 1.14059973
-2.47959304 -9.44057846 1.17766213
-2.33358383 -9.57296371 1.27888143
-2.40191436 -9.44162369 1.32076263
-2.24968815 -9.57446671 1.41206074
-2.31512928 -9.44299412 1.45809937
-2.15748048 -9.57596302 1.53987801
-2.22006178 -9.44467068 1.59016860
-2.05703855 -9.57795620 1.66188419
-2.11650157 -9.44683266 1.71588349
-1.94907689 -9.58065510 1.77668583
-2.00497103 -9.44940376 1.83498430
-1.88650286 -9.45153618 1.94706941
-1.83457863 -9.58269596 1.88520408
-1.76114893 -9.45396900 2.05124116
-1.71356666 -9.58389759 1.98713183
-1.62949991 -9.45672131 2.14766526
-1.58639908 -9.58645725 2.08024883
-1.49180579 -9.45942211 2.23544359
-1.62949991 -9.45672131 2.14766526
-1.58639908 -9.58645725 2.08024883
-1.45328021 -9.58916187 2.16533422
-1.34915709 -9.46331692 2.31398582
-1.31454086 -9.59319210 2.24137259
-1.20171535 -9.46691322 2.38376451
-1.17134368 -9.59757710 2.30829310
-1.05006671 -9.47044468 2.44388175
-1.02430654 -9.60128593 2.36644983
-0.89506900 -9.47273064 2.49540091
-0.87438005 -9.60404968 2.41588998
-0.73667711 -9.47519875 2.53704596
-0.72121525 -9.60636425 2.45644855
-0.57661104 -9.47739315 2.56884074
-0.56568158 -9.60904312 2.48720407
-0.41449285 -9.47939205 2.59069085
-0.40905175 -9.61073780 2.50818014
-0.25120389 -9.48120499 2.60245442
-0.25127846 -9.61217213 2.51980209
-0.08789501 -9.48283482 2.60382462
-0.09276552 -9.61370754 2.52169180
0.07576377 -9.48393631 2.59553337
0.06588472 -9.61495686 2.51358962
0.23886450 -9.48461246 2.57701397
0.22390677 -9.61501312 2.49610949
0.40081513 -9.48487186 2.54864430
0.38067761 -9.61501312 2.46849561
0.55989867 -9.48505211 2.50990462
0.53500652 -9.61501312 2.43169308
0.71702456 -9.48608017 2.46093678
0.68694818 -9.61546803 2.38447309
0.87039018 -9.48652840 2.40230751
0.83574229 -9.61585712 2.32794642
1.02000213 -9.48718357 2.33427691
0.98078936 -9.61658955 2.26201797
1.16502416 -9.48767376 2.25682116
1.12115121 -9.61739635 2.18683004
1.30521989 -9.48782158 2.17031837
1.25738144 -9.61734581 2.10311460
1.43941796 -9.48778057 2.07540631
1.38712454 -9.61723614 2.01139140
1.51136231 -9.61800385 1.91099906
1.56731641 -9.48846245 1.97168326
1.62901926 -9.61861801 1.80264604
1.68849373 -9.48881435 1.86009419
1.80201972 -9.49000359 1.74108779
1.73905599 -9.61979675 1.68725395
1.90810418 -9.49111080 1.61478245
1.84215975 -9.62016869 1.56508231
2.00559855 -9.49234581 1.48188651
1.93634987 -9.62207317 1.43620217
2.09450555 -9.49452782 1.34228206
2.02299881 -9.62311554 1.30122757
2.17524099 -9.49525642 1.19804764
2.10066199 -9.62463570 1.16126871
2.24651527 -9.49565220 1.04901814
2.16987228 -9.62526512 1.01634943
2.30867362 -9.49552250 0.89559495
2.22991204 -9.62505817 0.86845368
2.36106873 -9.49488163 0.73853409
2.28088403 -9.62433147 0.71628237
2.40261936 -9.49520969 0.57842594
2.32166696 -9.62439346 0.56087500
2.43423414 -9.49604225 0.41560128
2.35195732 -9.62488651 0.40298727
2.45525002 -9.49649715 0.25133571
2.37262583 -9.62515259 0.24394211
2.46524143 -9.49739170 0.08598354
2.38223028 -9.62680626 0.08345602
2.46516085 -9.49823570 -0.07972295
2.38141823 -9.62803173 -0.07686471
2.37176490 -9.62728500 -0.23709098
2.45483899 -9.49776936 -0.24519323
2.35187912 -9.62678814 -0.39675030
2.43492794 -9.49628448 -0.40950605
2.32242584 -9.62523270 -0.55480337
2.40442348 -9.49477577 -0.57249606
2.28284907 -9.62403965 -0.71028161
2.36388946 -9.49311638 -0.73302937
2.23409677 -9.62183666 -0.86337405
2.31307077 -9.49128532 -0.89086986
2.17602706 -9.61880398 -1.01297057
2.25298524 -9.48824978 -1.04580486
2.10905147 -9.61491585 -1.15902376
2.03599906 -9.73396015 -1.12304783
2.10073805 -9.73768711 -0.98160088
1.96260619 -9.72964382 -1.26066804
1.89284086 -9.83607388 -1.22039306
1.96410549 -9.83942509 -1.08726096
1.81318986 -9.83244801 -1.34861183
1.88076580 -9.72539139 -1.39328051
1.72571707 -9.82894897 -1.47161019
1.79058909 -9.72089481 -1.52029467
1.63044322 -9.82498646 -1.58865607
1.69197488 -9.71692562 -1.64095449
1.52688849 -9.82271004 -1.69868612
1.58519208 -9.71413898 -1.75500035
1.41669309 -9.82046890 -1.80179501
1.47110581 -9.71245289 -1.86127448
1.29965258 -9.81972218 -1.89710867
1.35019350 -9.71182060 -1.95963538
1.17657292 -9.81940269 -1.98424923
1.22333813 -9.71113300 -2.05001211
1.04841769 -9.81904030 -2.06354737
1.09063339 -9.71047115 -2.13195610
0.91525602 -9.81832504 -2.13429451
0.95317698 -9.71047401 -2.20508885
0.77813178 -9.81645966 -2.19743538
0.81137276 -9.70992565 -2.26950550
0.63756698 -9.81505394 -2.25150561
0.66595882 -9.70943546 -2.32489848
0.49367660 -9.81425381 -2.29645777
0.51726806 -9.70922565 -2.37074804
0.34739310 -9.81425667 -2.33137083
0.36603212 -9.70961857 -2.40679502
0.19893932 -9.81438923 -2.35645700
0.21310720 -9.70843697 -2.43412519
0.04968611 -9.81293964 -2.37353563
0.05888309 -9.70679283 -2.45236135
-0.10027133 -9.81164932 -2.38116527
-0.09610947 -9.70468998 -2.46055794
-0.25017044 -9.81163406 -2.37818909
-0.25112271 -9.70310783 -2.45899892
-0.39987689 -9.81137180 -2.36595297
-0.40566570 -9.70126820 -2.44777870
-0.54784715 -9.81121540 -2.34438634
-0.55909556 -9.69988346 -2.42635369
-0.69439715 -9.81058311 -2.31381989
-0.71020305 -9.69883728 -2.39552736
-0.83820486 -9.80953789 -2.27477312
-0.85934484 -9.69881439 -2.35456729
-0.97970200 -9.80712891 -2.22790742
-1.00552869 -9.69693947 -2.30559945
-1.11851299 -9.80332565 -2.17317605
-1.14874506 -9.69400120 -2.24829316
-1.25306606 -9.80015755 -2.10951543
-1.28803957 -9.69130516 -2.18189240
-1.38351858 -9.79733467 -2.03749275
-1.42302370 -9.68890762 -2.10694051
-1.50884449 -9.79534721 -1.95651734
-1.55245602 -9.68680859 -2.02329612
-1.62898088 -9.79316807 -1.86814845
-1.67648053 -9.68446350 -1.93225777
-1.74306798 -9.79111576 -1.77269304
-1.79435158 -9.68259811 -1.83323550
-1.90544832 -9.68154621 -1.72705579
-1.85145342 -9.78836727 -1.67085969
-1.95376170 -9.78491497 -1.56279027
-2.01005197 -9.68023872 -1.61433280
-2.10727787 -9.67895985 -1.49485397
-2.04829121 -9.78247356 -1.44779956
-2.19676185 -9.67809486 -1.36994231
-2.13440776 -9.78196239 -1.32652545
-2.27747631 -9.67779064 -1.23959756
-2.21200943 -9.78330326 -1.19939327
-2.34998131 -9.67800331 -1.10407960
-2.28180313 -9.78376961 -1.06810367
-2.41325545 -9.67899799 -0.96447510
-2.34305978 -9.78448391 -0.93296373
-2.46755457 -9.68059921 -0.82139826
-2.39507341 -9.78638268 -0.79463482
-2.51209831 -9.68320274 -0.67506164
-2.43782640 -9.78837299 -0.65285718
-2.54788613 -9.68504810 -0.52633917
-2.47250390 -9.79028034 -0.50902444
-2.57579112 -9.68497753 -0.37636474
-2.49848819 -9.79111290 -0.36386883
-2.59513402 -9.68423939 -0.22511475
-2.51634216 -9.79105949 -0.21717782
-2.60367584 -9.68477726 -0.07289626
-2.52566504 -9.79113102 -0.07010889
-2.60259438 -9.68648624 0.07932222
-2.52467895 -9.79165649 0.07731438
-2.51448750 -9.79251575 0.22424160
-2.59188271 -9.68777657 0.23132810
-2.49493766 -9.79420185 0.37024757
-2.57208848 -9.68861580 0.38222376
-2.46579432 -9.79659081 0.51469445
-2.54344773 -9.68974590 0.53224540
-2.42846370 -9.79821110 0.65677923
-2.50525808 -9.69128799 0.67936158
-2.38272285 -9.79968452 0.79640734
-2.45780230 -9.69295597 0.82411569
-2.32891297 -9.80059433 0.93303549
-2.40205097 -9.69350529 0.96556264
-2.26742077 -9.80057907 1.06680536
-2.33838701 -9.69319820 1.10384429
-2.19702125 -9.80163097 1.19568563
-2.26569700 -9.69405746 1.23723626
-2.11872220 -9.80284405 1.32029033
-2.18434763 -9.69535351 1.36639988
-2.03282952 -9.80347919 1.43988717
-2.09518838 -9.69684792 1.49020147
-1.93972528 -9.80494690 1.55388558
-1.99841273 -9.69897938 1.60776675
-1.89444196 -9.70039654 1.71956849
-1.83973336 -9.80576706 1.66259277
-1.78414404 -9.70126152 1.82494497
-1.73329973 -9.80626965 1.76492214
-1.66706502 -9.70226574 1.92373109
-1.62072146 -9.80696011 1.86068475
-1.54446232 -9.70349979 2.01484013
-1.50184798 -9.80815887 1.94895911
-1.50184798 -9.80815887 1.94895911
-1.41567957 -9.70672131 2.09697294
-1.54446232 -9.70349979 2.01484013
-1.37790847 -9.80902767 2.02950931
-1.28117299 -9.71093178 2.17020035
-1.24810839 -9.81197739 2.10134292
-1.14217603 -9.71474743 2.23534918
-1.11325705 -9.81652737 2.16365719
-0.99972808 -9.71936798 2.29112005
-0.97469419 -9.82243538 2.21623921
-0.85396570 -9.72315884 2.33836341
-0.83319777 -9.82788372 2.26055360
-0.70551044 -9.72606754 2.37705588
-0.68923360 -9.83322430 2.29579711
-0.55517215 -9.72842121 2.40679574
-0.54402047 -9.83750057 2.32274961
-0.40324965 -9.73008633 2.42729926
-0.39711684 -9.83901787 2.34341860
-0.25055283 -9.73188496 2.43840146
-0.24937396 -9.83918953 2.35504055
-0.09709937 -9.73335457 2.44000793
-0.10121546 -9.84145737 2.35631609
0.05632456 -9.73455048 2.43240166
0.04695116 -9.84293652 2.34849715
0.20921330 -9.73471928 2.41586637
0.19453461 -9.84232235 2.33387542
0.36076817 -9.73434162 2.39002419
0.34152457 -9.83990955 2.31065512
0.51086366 -9.73274422 2.35496950
0.48700643 -9.83675575 2.27869487
0.65842199 -9.73207378 2.31032443
0.62975258 -9.83624554 2.23577428
0.80244523 -9.73321629 2.25512052
0.76922864 -9.83765125 2.18262529
0.94251329 -9.73466587 2.19094014
0.90466684 -9.83923054 2.12016940
1.07860184 -9.73617744 2.11806726
1.03624880 -9.84101391 2.04961133
1.21007156 -9.73610973 2.03692651
1.16319716 -9.84156036 1.97097456
1.33616221 -9.73644352 1.94777811
1.28532231 -9.84239864 1.88480246
1.45628834 -9.73703098 1.85071635
1.40148807 -9.84300423 1.79057539
1.51125610 -9.84446907 1.68914366
1.56984615 -9.73815918 1.74602473
1.61515117 -9.84511280 1.58166468
1.67686069 -9.73892689 1.63450658
1.71263802 -9.84423256 1.46757185
1.77690685 -9.73920727 1.51658690
1.86852229 -9.73999023 1.39160430
1.80126095 -9.84530735 1.34724271
1.95247698 -9.74134254 1.26121235
1.88185012 -9.84718227 1.22048843
2.02728701 -9.74329090 1.12519836
1.95362997 -9.85017586 1.08858466
2.09441853 -9.74378681 0.98488522
2.01760054 -9.85164642 0.95285416
2.15229177 -9.74439526 0.84093434
2.07423949 -9.85146332 0.81374574
2.20175719 -9.74386692 0.69336933
2.12267303 -9.85084915 0.67130661
2.24178195 -9.74343300 0.54341853
2.16148138 -9.84984016 0.52596205
2.27175570 -9.74296951 0.39082208
2.19116068 -9.84913731 0.37834981
2.29104209 -9.74417973 0.23640677
2.21058202 -9.84935856 0.22915493
2.30014610 -9.74550533 0.08090488
2.22033501 -9.84952927 0.07875531
2.30007744 -9.74629688 -0.07433718
2.21901512 -9.85119247 -0.07188052
2.20833802 -9.85283661 -0.22213839
2.29006767 -9.74658298 -0.22969736
2.18855548 -9.85370445 -0.37149864
2.27078128 -9.74621391 -0.38430163
2.16098166 -9.85193920 -0.51920539
2.24234819 -9.74464893 -0.53711069
2.12559485 -9.84918404 -0.66577828
2.20394373 -9.74284172 -0.68795907
2.08046532 -9.84658241 -0.80932754
2.15705371 -9.74041176 -0.83651614
2.02627873 -9.84336472 -0.95018399
2.08046532 -9.84658241 -0.80932754
1.95511222 -9.92746639 -0.91983002
2.02627873 -9.84336472 -0.95018399
2.00527000 -9.93146801 -0.78303653
1.89445019 -9.92455482 -1.05256057
1.96410549 -9.83942509 -1.08726096
1.82210708 -9.98474312 -1.01627755
1.87995970 -9.98666573 -0.88796431
1.75440645 -9.98301888 -1.14010274
1.82546580 -9.92170620 -1.18148804
1.89284086 -9.83607388 -1.22039306
1.67859316 -9.98151875 -1.25887287
1.74791706 -9.91925240 -1.30528951
1.81318986 -9.83244801 -1.34861183
1.59467185 -9.98103809 -1.37185562
1.66202104 -9.91772270 -1.42339826
1.72571707 -9.82894897 -1.47161019
1.50348890 -9.98053551 -1.47900379
1.56848264 -9.91593075 -1.53536534
1.63044322 -9.82498646 -1.58865607
1.40660810 -9.97882366 -1.58093166
1.46874285 -9.91401100 -1.64197028
1.52688849 -9.82271004 -1.69868612
1.36219180 -9.91145992 -1.74200833
1.30561554 -9.97576427 -1.67884386
1.41669309 -9.82046890 -1.80179501
1.19920337 -9.97237778 -1.77087414
1.25029492 -9.90814972 -1.83555043
1.29965258 -9.81972218 -1.89710867
1.08572817 -9.97003555 -1.85447145
1.13190281 -9.90654659 -1.92044699
1.17657292 -9.81940269 -1.98424923
1.00738895 -9.90647602 -1.99693418
0.96584934 -9.96791267 -1.92862010
1.04841769 -9.81904030 -2.06354737
0.87845552 -9.90537453 -2.06543708
0.84137309 -9.96689701 -1.99485540
0.91525602 -9.81832504 -2.13429451
0.74600035 -9.90343761 -2.12687731
0.71307904 -9.96506977 -2.05291772
0.77813178 -9.81645966 -2.19743538
0.61023366 -9.90106964 -2.17967200
0.58163291 -9.96395302 -2.10335016
0.63756698 -9.81505394 -2.25150561
0.47068232 -9.90113449 -2.22190762
0.44673136 -9.96379948 -2.14303470
0.49367660 -9.81425381 -2.29645777
0.32833183 -9.90233612 -2.25426936
0.30914360 -9.96335983 -2.17223096
0.34739310 -9.81425667 -2.33137083
0.18475890 -9.90254307 -2.27786756
0.17061612 -9.96338081 -2.19419932
0.19893932 -9.81438923 -2.35645700
0.04042196 -9.90194607 -2.29350519
0.03148482 -9.96277523 -2.20893931
0.04968611 -9.81293964 -2.37353563
-0.10458008 -9.90165710 -2.29905629
-0.10836472 -9.96167374 -2.21295500
-0.10027133 -9.81164932 -2.38116527
-0.24940865 -9.90214157 -2.29496956
-0.24764439 -9.96041870 -2.20910454
-0.25017044 -9.81163406 -2.37818909
-0.39348280 -9.90116978 -2.28351307
-0.38641474 -9.95931435 -2.19849849
-0.39987689 -9.81137180 -2.36595297
-0.53685939 -9.89868355 -2.26485181
-0.52467865 -9.95627594 -2.18253016
-0.54784715 -9.81121540 -2.34438634
-0.67856246 -9.89577770 -2.23737979
-0.66192538 -9.95226669 -2.15817618
-0.69439715 -9.81058311 -2.31381989
-0.81789976 -9.89352512 -2.20019913
-0.79685718 -9.94964790 -2.12420797
-0.83820486 -9.80953789 -2.27477312
-0.95490730 -9.89152050 -2.15458560
-0.92933309 -9.94713783 -2.08093309
-0.97970200 -9.80712891 -2.22790742
-1.08875835 -9.88860607 -2.10094070
-1.05826569 -9.94459820 -2.02835107
-1.11851299 -9.80332565 -2.17317605
-1.21883810 -9.88646221 -2.03890991
-1.18355465 -9.94242477 -1.96764314
-1.25306606 -9.80015755 -2.10951543
-1.34473312 -9.88427734 -1.96894240
-1.30489731 -9.94172573 -1.89963615
-1.38351858 -9.79733467 -2.03749275
-1.46616364 -9.88167572 -1.89106154
-1.42148829 -9.93921852 -1.82395220
-1.50884449 -9.79534721 -1.95651734
-1.58208656 -9.87958527 -1.80578709
-1.53313565 -9.93726063 -1.74137056
-1.62898088 -9.79316807 -1.86814845
-1.69276261 -9.87678909 -1.71413469
-1.64012444 -9.93558979 -1.65326142
-1.74306798 -9.79111576 -1.77269304
-1.79835463 -9.87359142 -1.61610448
-1.74211943 -9.93273449 -1.55884540
-1.85145342 -9.78836727 -1.67085969
-1.89776897 -9.87028122 -1.51171994
-1.83775496 -9.93098068 -1.45802772
-1.95376170 -9.78491497 -1.56279027
-1.98976123 -9.86775398 -1.40109932
-1.92556584 -9.92958641 -1.35052514
-2.04829121 -9.78247356 -1.44779956
-2.07311869 -9.86718655 -1.28358114
-2.00592709 -9.92833138 -1.23709357
-2.13440776 -9.78196239 -1.32652545
-2.14761019 -9.86838531 -1.16027570
-2.07758021 -9.92766190 -1.11829984
-2.21200943 -9.78330326 -1.19939327
-2.14121389 -9.92887211 -0.99541962
-2.21388459 -9.86936283 -1.03286004
-2.28180313 -9.78376961 -1.06810367
-2.19777656 -9.92884827 -0.86923224
-2.27273154 -9.86996555 -0.90220821
-2.34305978 -9.78448391 -0.93296373
-2.24707246 -9.92834091 -0.74023402
-2.32361317 -9.87043476 -0.76824939
-2.39507341 -9.78638268 -0.79463482
-2.28718877 -9.92814255 -0.60802311
-2.36529374 -9.87159824 -0.63133776
-2.43782640 -9.78837299 -0.65285718
-2.31921411 -9.92831707 -0.47411150
-2.39805484 -9.87342644 -0.49199316
-2.47250390 -9.79028034 -0.50902444
-2.34312296 -9.92891026 -0.33852270
-2.42234325 -9.87458324 -0.35151464
-2.49848819 -9.79111290 -0.36386883
-2.36040473 -9.92831993 -0.20201267
-2.43960524 -9.87431812 -0.20971335
-2.51634216 -9.79105949 -0.21717782
-2.36989188 -9.92760563 -0.06469951
-2.44920588 -9.87339020 -0.06736877
-2.52566504 -9.79113102 -0.07010889
-2.37036943 -9.92697620 0.07284988
-2.45006895 -9.87292957 0.07509394
-2.52467895 -9.79165649 0.07731438
-2.44024038 -9.87352943 0.21727319
-2.36046195 -9.92755508 0.21011581
-2.51448750 -9.79251575 0.22424160
-2.41936612 -9.87638760 0.35838947
-2.33956337 -9.93035412 0.34582269
-2.49493766 -9.79420185 0.37024757
-2.38974380 -9.87908077 0.49747422
-2.31116962 -9.93194580 0.47973430
-2.46579432 -9.79659081 0.51469445
-2.27791905 -9.93188381 0.61237037
-2.35402656 -9.88016987 0.63492912
-2.42846370 -9.79821110 0.65677923
-2.23841071 -9.93069649 0.74380171
-2.31123614 -9.88035011 0.77013993
-2.38272285 -9.79968452 0.79640734
-2.18840456 -9.93189907 0.87133551
-2.25890398 -9.88121510 0.90213829
-2.32891297 -9.80059433 0.93303549
-2.19830847 -9.88309002 1.03068781
-2.12823892 -9.93297958 0.99445200
-2.26742077 -9.80057907 1.06680536
-2.12990761 -9.88497066 1.15498531
-2.06041503 -9.93593502 1.11329293
-2.19702125 -9.80163097 1.19568563
-2.05303621 -9.88686085 1.27467668
-1.98525536 -9.93789005 1.22771668
-2.11872220 -9.80284405 1.32029033
-1.90451372 -9.94033432 1.33805382
-1.97051108 -9.88747501 1.38990355
-2.03282952 -9.80347919 1.43988717
-1.88181031 -9.88695240 1.50137448
-1.81912553 -9.93997097 1.44536734
-1.93972528 -9.80494690 1.55388558
-1.78634226 -9.88740730 1.60722339
-1.72795522 -9.94099617 1.54786205
-1.83973336 -9.80576706 1.66259277
-1.68360174 -9.88777637 1.70660007
-1.62939358 -9.94131756 1.64371908
-1.73329973 -9.80626965 1.76492214
-1.57470107 -9.88873577 1.79917371
-1.52505410 -9.94282055 1.73359978
-1.62072146 -9.80696011 1.86068475
-1.45972669 -9.88997269 1.88463712
-1.41434121 -9.94426441 1.81613410
-1.50184798 -9.80815887 1.94895911
-1.33976078 -9.89049530 1.96317947
-1.29860139 -9.94646740 1.89141655
-1.37790847 -9.80902767 2.02950931
-1.17811573 -9.94728565 1.95935273
-1.21488523 -9.89232349 2.03383207
-1.24810839 -9.81197739 2.10134292
-1.05331624 -9.94927883 2.01923370
-1.08488142 -9.89565086 2.09439826
-1.11325705 -9.81652737 2.16365719
-0.95047897 -9.90046120 2.14513779
-0.92418355 -9.95241451 2.06931186
-0.97469419 -9.82243538 2.21623921
-0.81291407 -9.90691566 2.18581438
-0.79124999 -9.95664501 2.10828781
-0.83319777 -9.82788372 2.26055360
-0.67306304 -9.91286278 2.21723127
-0.65582949 -9.96107197 2.13644481
-0.68923360 -9.83322430 2.29579711
-0.53219998 -9.91883850 2.24066401
-0.51987755 -9.96445847 2.15841317
-0.54402047 -9.83750057 2.32274961
-0.38314018 -9.96668720 2.17575145
-0.39043486 -9.92217541 2.25899434
-0.39711684 -9.83901787 2.34341860
-0.24593182 -9.96676445 2.18794036
-0.24808067 -9.92140198 2.27201009
-0.24937396 -9.83918953 2.35504055
-0.10813737 -9.96932411 2.19155431
-0.10495138 -9.92204285 2.27526975
-0.10121546 -9.84145737 2.35631609
0.02983130 -9.97162437 2.18456244
0.03799040 -9.92426872 2.26686049
0.04695116 -9.84293652 2.34849715
0.16721903 -9.97274971 2.17168856
0.18041545 -9.92499256 2.25230956
0.19453461 -9.84232235 2.33387542
0.30427086 -9.97360897 2.15153909
0.32297561 -9.92111874 2.23341203
0.34152457 -9.83990955 2.31065512
0.44028410 -9.97335815 2.12290955
0.46433917 -9.91857052 2.20388484
0.48700643 -9.83675575 2.27869487
0.57340884 -9.97369480 2.08320141
0.60248649 -9.91813278 2.16304302
0.62975258 -9.83624554 2.23577428
0.70363104 -9.97507954 2.03491855
0.73774159 -9.91936111 2.11211443
0.76922864 -9.83765125 2.18262529
0.83093524 -9.97662354 1.97876978
0.86912203 -9.92004395 2.05251694
0.90466684 -9.83923054 2.12016940
0.95388567 -9.97729111 1.91343200
0.99615306 -9.92175579 1.98401380
1.03624880 -9.84101391 2.04961133
1.07204008 -9.97910690 1.83980310
1.11891305 -9.92370796 1.90747941
1.16319716 -9.84156036 1.97097456
1.18555212 -9.98012257 1.75894582
1.23652637 -9.92451382 1.82357490
1.28532231 -9.84239864 1.88480246
1.29430664 -9.98243713 1.67192340
1.34909141 -9.92580128 1.73274934
1.40148807 -9.84300423 1.79057539
1.39709365 -9.98369503 1.57750726
1.45522535 -9.92680550 1.63481367
1.51125610 -9.84446907 1.68914366
1.49418056 -9.98445415 1.47704411
1.55606949 -9.92746067 1.53080726
1.61515117 -9.84511280 1.58166468
1.58454621 -9.98544025 1.37062824
1.65013123 -9.92757607 1.42077720
1.71263802 -9.84423256 1.46757185
1.66659117 -9.98610210 1.25726748
1.73585522 -9.92921734 1.30375504
1.80126095 -9.84530735 1.34724271
1.74191713 -9.98844337 1.13934779
1.81345999 -9.93144131 1.18089843
1.88185012 -9.84718227 1.22048843
1.88306081 -9.93293190 1.05360091
1.81131124 -9.98908424 1.01743603
1.95362997 -9.85017586 1.08858466
1.94494748 -9.93485165 0.92242932
1.87304664 -9.98886204 0.89155573
2.01760054 -9.85164642 0.95285416
1.92572236 -9.98951530 0.76135266
1.99932182 -9.93576050 0.78747833
2.07423949 -9.85146332 0.81374574
2.04595041 -9.93459415 0.64983445
1.96960044 -9.99009037 0.62791348
2.12267303 -9.85084915 0.67130661
2.08406544 -9.93391514 0.50930870
2.00571370 -9.98986626 0.49194673
2.16148138 -9.84984016 0.52596205
2.11350560 -9.93281078 0.36660981
2.03409886 -9.98933220 0.35416117
2.19116068 -9.84913731 0.37834981
2.13409328 -9.93166256 0.22213927
2.05503440 -9.98900986 0.21476929
2.21058202 -9.84935856 0.22915493
2.14494824 -9.93101597 0.07648762
2.06583095 -9.98841953 0.07398372
2.22033501 -9.84952927 0.07875531
2.14343643 -9.93209648 -0.06951834
2.06445718 -9.98942661 -0.06729789
2.21901512 -9.85119247 -0.07188052
2.13082910 -9.93496323 -0.21507549
2.05231047 -9.99115944 -0.20775275
2.20833802 -9.85283661 -0.22213839
2.10938215 -9.93788052 -0.35909724
2.03118157 -9.99238491 -0.34705013
2.18855548 -9.85370445 -0.37149864
2.08200383 -9.93768883 -0.50207961
2.00262737 -9.99227905 -0.48471767
2.16098166 -9.85193920 -0.51920539
1.96841049 -9.99150848 -0.62096786
2.04771900 -9.93478394 -0.64369196
2.12559485 -9.84918404 -0.66577828
1.92792952 -9.98989868 -0.75547004
1.86119366 -9.99719524 -0.73156482
1.93856442 -9.99563026 -0.61236954
1.90227330 -9.99678421 -0.60190511
1.89779556 -9.99507809 -0.74467486
1.81369627 -9.99519348 -0.85938197
1.85006344 -9.99242306 -0.87506682
1.75206935 -9.96209908 -0.83257133
1.82870126 -9.98619366 -0.71989566
1.79966056 -9.96349239 -0.70940763
1.78124225 -9.98460197 -0.84530342
1.69565618 -9.96137905 -0.95181388
1.72447920 -9.98433304 -0.96667194
1.75656188 -9.99480915 -0.98306543
1.79253268 -9.99127769 -1.00130141
1.63135338 -9.96017075 -1.06711161
1.65935111 -9.98330212 -1.08383572
1.69055915 -9.99372292 -1.10240245
1.72559237 -9.98987484 -1.12309504
1.56035972 -9.95781136 -1.17813373
1.58716154 -9.98115635 -1.19655871
1.61712205 -9.99179745 -1.21706235
1.65084064 -9.98818588 -1.23999906
1.48112953 -9.95545578 -1.28343940
1.50665283 -9.97951984 -1.30347073
1.53536797 -9.99071121 -1.32591128
1.56787372 -9.98746586 -1.35111570
1.41973734 -9.97670650 -1.40532768
1.39616430 -9.95204258 -1.38416255
1.47778118 -9.98624039 -1.45651591
1.44673777 -9.98862362 -1.42928004
1.32735860 -9.97515297 -1.50170434
1.30499923 -9.95050335 -1.47898018
1.38229907 -9.98458099 -1.55674303
1.35293210 -9.98702908 -1.52745199
1.20958948 -9.95021725 -1.56959331
1.23094130 -9.97459793 -1.59425437
1.25516689 -9.98586559 -1.62191546
1.28279173 -9.98241997 -1.65311980
1.10977364 -9.95092583 -1.65519845
1.13032675 -9.97387409 -1.68212724
1.15305972 -9.98397541 -1.71160722
1.17840219 -9.97965336 -1.74418151
1.00457275 -9.95198631 -1.73449659
1.02345979 -9.97442055 -1.76281905
1.04415023 -9.98372459 -1.79352736
1.06701159 -9.97828579 -1.82707024
0.89286625 -9.95272160 -1.80474770
0.91016775 -9.97395420 -1.83453465
0.94923294 -9.97645473 -1.90072286
0.92885619 -9.98239040 -1.86637676
0.79190844 -9.97187805 -1.89791179
0.77671301 -9.95124149 -1.86734533
0.82656151 -9.97485447 -1.96603692
0.80843186 -9.98025227 -1.93062794
0.66986454 -9.96954918 -1.95316303
0.65690207 -9.94811249 -1.92240751
0.70004719 -9.97306538 -2.02308345
0.68415791 -9.97838306 -1.98651695
0.54468483 -9.96658707 -2.00068998
0.53389704 -9.94521236 -1.96974552
0.57040519 -9.97121143 -2.07242918
0.55677247 -9.97575569 -2.03470540
0.41676867 -9.96493626 -2.04009104
0.40806478 -9.94415855 -2.00919390
0.43761262 -9.97030163 -2.11201930
0.42655027 -9.97412300 -2.07417727
0.28640249 -9.96315575 -2.07013798
0.27987331 -9.94241047 -2.03973675
0.30220103 -9.96932983 -2.14138103
0.29379243 -9.97259331 -2.10377526
0.15464045 -9.95969868 -2.09208250
0.15019514 -9.93824959 -2.06227183
0.16569763 -9.96820259 -2.16316032
0.15976784 -9.97012711 -2.12545991
0.02191285 -9.95600510 -2.10547614
0.01941855 -9.93393326 -2.07592535
0.02848855 -9.96657848 -2.17730975
0.02490765 -9.96731663 -2.13901901
-0.11130858 -9.95355701 -2.11086178
-0.11187255 -9.93109894 -2.08192515
-0.10934576 -9.96506691 -2.18167973
-0.11047887 -9.96530914 -2.14388490
-0.24306400 -9.92903423 -2.08090949
-0.24424583 -9.95126820 -2.10897207
-0.24666706 -9.96334171 -2.17832541
-0.24544388 -9.96311760 -2.14119220
-0.37392694 -9.92727757 -2.07122445
-0.37690845 -9.94931698 -2.09933448
-0.38358602 -9.96185398 -2.16814446
-0.38011214 -9.96124554 -2.13141274
-0.50390112 -9.92535210 -2.05435848
-0.50869119 -9.94729424 -2.08284640
-0.51397657 -9.95898056 -2.11516094
-0.51985615 -9.95918179 -2.15203452
-0.63278943 -9.92465019 -2.03024077
-0.63949215 -9.94650841 -2.05877590
-0.64690048 -9.95752811 -2.09106684
-0.65515333 -9.95639992 -2.12782216
-0.75962567 -9.92462921 -1.99709952
-0.76829332 -9.94578266 -2.02598882
-0.77778631 -9.95611668 -2.05820894
-0.78827292 -9.95431232 -2.09442115
-0.88416755 -9.92272472 -1.95642292
-0.89478999 -9.94305134 -1.98505247
-0.90633363 -9.95305443 -2.01670551
-0.91899264 -9.95147800 -2.05197287
-1.00558257 -9.92063427 -1.90717149
-1.01784444 -9.94138622 -1.93487990
-1.03127635 -9.95140743 -1.96563530
-1.04611671 -9.94939899 -2.00007582
-1.12323582 -9.91776371 -1.84979439
-1.13716972 -9.93866348 -1.87662864
-1.15252233 -9.94885921 -1.90653372
-1.16957355 -9.94705486 -1.94007659
-1.23683870 -9.91560555 -1.78502357
-1.25243342 -9.93709278 -1.81096017
-1.26972163 -9.94772530 -1.83996773
-1.28903532 -9.94618988 -1.87268376
-1.34633946 -9.91337585 -1.71382761
-1.36349106 -9.93512344 -1.73865402
-1.38256335 -9.94576740 -1.76655138
-1.40392780 -9.94396687 -1.79801548
-1.45106566 -9.91094589 -1.63601756
-1.46967149 -9.93335438 -1.65968657
-1.49046826 -9.94426441 -1.68633187
-1.51387215 -9.94227409 -1.71649683
-1.55066013 -9.90925980 -1.55171168
-1.57096517 -9.93216133 -1.57445931
-1.59364057 -9.94320202 -1.60013616
-1.61914098 -9.94093418 -1.62923813
-1.64467013 -9.90658474 -1.46157098
-1.66690779 -9.92933846 -1.48361003
-1.69163835 -9.94030476 -1.50827110
-1.71934509 -9.93804932 -1.53600311
-1.73288560 -9.90460110 -1.36576116
-1.75661874 -9.92835236 -1.38652468
-1.78318286 -9.93961716 -1.40986300
-1.81311238 -9.93688297 -1.43627214
-1.81467879 -9.90163326 -1.26449478
-1.83987057 -9.92558002 -1.28381741
-1.86798346 -9.93720436 -1.30559659
-1.89957535 -9.93501091 -1.33021045
-1.88942683 -9.89925385 -1.15817332
-1.91560411 -9.92369556 -1.17572427
-1.94506526 -9.93566608 -1.19566107
-1.97842324 -9.93365574 -1.21833789
-1.95756662 -9.89700890 -1.04757643
-1.98429096 -9.92177677 -1.06319034
-2.01457810 -9.93414021 -1.08100116
-2.04908204 -9.93259525 -1.10141039
-2.01859975 -9.89572239 -0.93310547
-2.04591131 -9.92060184 -0.94682968
-2.07685637 -9.93348122 -0.96251452
-2.11210346 -9.93291187 -0.98053789
-2.07324743 -9.89555073 -0.81561095
-2.10074806 -9.91996670 -0.82739818
-2.13211536 -9.93275452 -0.84086257
-2.16804957 -9.93251324 -0.85638201
-2.12093019 -9.89658165 -0.69490391
-2.14854336 -9.92051888 -0.70468330
-2.18025446 -9.93288231 -0.71606898
-2.21679497 -9.93227959 -0.72927350
-2.16152167 -9.89683247 -0.57174015
-2.18923426 -9.91919041 -0.57972431
-2.25716376 -9.93118095 -0.59935397
-2.22087812 -9.93105984 -0.58888954
-2.22113371 -9.92106533 -0.45214328
-2.19328237 -9.89868069 -0.44593075
-2.28918052 -9.93202305 -0.46737930
-2.25286460 -9.93261337 -0.45925343
-2.24547172 -9.91975975 -0.32293233
-2.21733093 -9.89827633 -0.31849146
-2.31334066 -9.93161488 -0.33375111
-2.27725029 -9.93126965 -0.32798740
-2.26142406 -9.91947651 -0.19254035
-2.23324895 -9.89746380 -0.18980023
-2.33011556 -9.93129921 -0.19910720
-2.29347730 -9.93116665 -0.19561118
-2.26932502 -9.91964149 -0.06146333
-2.24080610 -9.89720726 -0.06049484
-2.30184317 -9.93135262 -0.06254993
-2.33908582 -9.93105125 -0.06373101
-2.26913881 -9.91952419 0.06996802
-2.24054337 -9.89685535 0.06914126
-2.33932757 -9.93068790 0.07197587
-2.30182147 -9.93124294 0.07088927
-2.26016331 -9.91901588 0.20076159
-2.23189521 -9.89672852 0.19821045
-2.32968688 -9.93073273 0.20721033
-2.29251552 -9.93077374 0.20371431
-2.24223042 -9.91885662 0.33061028
-2.21489716 -9.89688206 0.32635838
-2.30966926 -9.93229103 0.34114558
-2.27358150 -9.93104839 0.33547637
-2.21727920 -9.92018223 0.45904166
-2.19089222 -9.89768887 0.45330158
-2.28233910 -9.93393040 0.47335643
-2.24753046 -9.93266296 0.46565574
-2.15941525 -9.89852715 0.57852042
-2.18580651 -9.92016125 0.58600849
-2.21571326 -9.93224430 0.59453595
-2.24978113 -9.93363190 0.60429174
-2.12007976 -9.89993858 0.70151877
-2.14659667 -9.92152023 0.71094388
-2.17650223 -9.93308258 0.72162092
-2.21042562 -9.93342209 0.73376250
-2.09835410 -9.92179108 0.83254862
-2.07239819 -9.89948368 0.82149369
-2.16094184 -9.93447018 0.85947740
-2.12766123 -9.93386269 0.84511542
-2.04096556 -9.92096138 0.95009041
-2.01607108 -9.89766788 0.93757087
-2.10154700 -9.93509674 0.98084593
-2.06925106 -9.93385029 0.96440518
-1.97528040 -9.92058945 1.06316769
-1.95204878 -9.89558029 1.04958510
-2.03407001 -9.93725777 1.09774983
-2.00239587 -9.93490410 1.07908869
-1.90349722 -9.91967106 1.17218196
-1.88173282 -9.89374065 1.15758371
-1.95979667 -9.93836498 1.21037829
-1.92929077 -9.93496323 1.18963850
-1.82609475 -9.91977787 1.27734601
-1.80579031 -9.89300537 1.26170838
-1.87992787 -9.94014549 1.31899107
-1.85057569 -9.93590832 1.29624331
-1.72406065 -9.89322948 1.36153388
-1.74385715 -9.91974831 1.37882495
-1.76749361 -9.93569565 1.39965928
-1.79561675 -9.93983555 1.42453301
-1.63627267 -9.89480114 1.45628059
-1.65528738 -9.92191887 1.47505987
-1.67806315 -9.93791962 1.49773681
-1.70523036 -9.94148350 1.52501988
-1.54295790 -9.89645100 1.54575980
-1.56100857 -9.92359829 1.56602716
-1.58251321 -9.93934536 1.59035754
-1.60805428 -9.94233990 1.61941230
-1.46116686 -9.92657757 1.65108907
-1.44419622 -9.89925671 1.62947512
-1.48130441 -9.94211483 1.67697847
-1.50514913 -9.94446850 1.70780480
-1.35582209 -9.92785072 1.72984385
-1.34009588 -9.90091896 1.70700169
-1.37435043 -9.94324303 1.75700891
-1.39616215 -9.94573212 1.78922892
-1.24513137 -9.92919064 1.80113435
-1.23078120 -9.90202904 1.77725267
-1.26205337 -9.94486141 1.82952762
-1.28198493 -9.94766903 1.86325943
-1.11758280 -9.90335178 1.84112585
-1.13044190 -9.93123150 1.86585784
-1.16331899 -9.94916916 1.93017983
-1.14555764 -9.94698429 1.89524329
-1.00028682 -9.90525055 1.89767635
-1.01172638 -9.93250942 1.92349494
-1.04047263 -9.95070457 1.98951769
-1.02501369 -9.94812393 1.95387244
-0.88916284 -9.93490410 1.97262812
-0.87948972 -9.90770435 1.94659698
-0.90036911 -9.95063400 2.00324178
-0.91338027 -9.95353317 2.03928876
-0.75531834 -9.90906811 1.98675394
-0.76302642 -9.93649578 2.01221824
-0.77201897 -9.95284557 2.04245400
-0.78251809 -9.95680523 2.07833529
-0.63458622 -9.93685055 2.04273748
-0.62883872 -9.90959072 2.01866698
-0.64132947 -9.95391369 2.07193398
-0.64924127 -9.95959854 2.10703588
-0.50470650 -9.93758869 2.06598115
-0.50064284 -9.91040897 2.04278469
-0.50950468 -9.95513344 2.09451628
-0.51516056 -9.96193123 2.12921667
-0.37385681 -9.93945789 2.08284712
-0.37131158 -9.91192055 2.05986309
-0.37681839 -9.95723629 2.11133504
-0.38027087 -9.96412468 2.14629507
-0.24250077 -9.94186974 2.09366584
-0.24132411 -9.91504192 2.06983161
-0.24494044 -9.96490383 2.15822411
-0.24370252 -9.95887184 2.12286234
-0.11079186 -9.91986656 2.07233548
-0.11045082 -9.94610405 2.09654784
-0.10893755 -9.96794224 2.16164923
-0.10984551 -9.96251202 2.12602758
0.01963409 -9.92381096 2.06687880
0.02148250 -9.94965076 2.09118557
0.02712292 -9.97061157 2.15534234
0.02394728 -9.96563625 2.12040567
0.14949608 -9.92526436 2.05176091
0.15300390 -9.95058060 2.07713079
0.16271169 -9.97150612 2.14230299
0.15736212 -9.96636581 2.10703588
0.27790236 -9.92650986 2.02799749
0.28318775 -9.95321751 2.05383968
0.29761028 -9.97346401 2.12109065
0.28969109 -9.96928596 2.08459520
0.41183910 -9.95475006 2.02287149
0.40462044 -9.92750835 1.99636793
0.43132409 -9.97406387 2.09172893
0.42065296 -9.97071552 2.05438304
0.53809363 -9.95695877 1.98316336
0.52904207 -9.92890453 1.95670712
0.54907697 -9.97292709 2.01465130
0.56230956 -9.97536564 2.05199718
0.65093094 -9.93023968 1.91062105
0.66203982 -9.95744228 1.93745530
0.67517722 -9.97319794 1.96861243
0.69069076 -9.97615147 2.00482464
0.78237557 -9.96237659 1.88253486
0.76951355 -9.93452644 1.85640919
0.79766625 -9.97776604 1.91314852
0.81579518 -9.97920132 1.94895911
0.88485998 -9.93733120 1.79541779
0.89963835 -9.96430206 1.82102382
0.91690433 -9.97904491 1.85059822
0.93709135 -9.98010445 1.88494420
0.99620473 -9.94017792 1.72708011
1.01242626 -9.96712780 1.75157595
1.03139150 -9.98166656 1.77987468
1.05357897 -9.98230743 1.81263804
1.12034285 -9.96915054 1.67452180
1.10231948 -9.94239235 1.65078199
1.14121640 -9.98340607 1.70175767
1.16544044 -9.98365688 1.73303282
1.20392251 -9.94490528 1.56864917
1.22359347 -9.97154808 1.59132600
1.24628592 -9.98573589 1.61730993
1.27253401 -9.98597145 1.64719141
1.30083728 -9.94763088 1.48077643
1.32215595 -9.97349072 1.50246108
1.34641838 -9.98718834 1.52688599
1.37415850 -9.98726463 1.55461788
1.39150417 -9.94939327 1.38617134
1.41429329 -9.97511768 1.40650964
1.44018495 -9.98858833 1.42946994
1.46974754 -9.98832512 1.45552468
1.49930418 -9.97651386 1.30427480
1.47506094 -9.95019054 1.28523564
1.52689886 -9.99017048 1.32581782
1.55845451 -9.98964214 1.35036075
1.57778525 -9.97751236 1.19686675
1.55276906 -9.95184994 1.17967010
1.63933825 -9.99024391 1.23877168
1.60642433 -9.99080849 1.21642554
1.62509656 -9.95600128 1.07015967
1.65100813 -9.98055649 1.08563197
1.68046224 -9.99321175 1.10308838
1.71410704 -9.99253559 1.12295425
1.69167447 -9.96051025 0.95663363
1.71881580 -9.98329067 0.97054684
1.74913728 -9.99473572 0.98599547
1.78324342 -9.99347496 1.00323927
1.75051618 -9.96450520 0.83854854
1.77879369 -9.98568535 0.85085547
1.80997145 -9.99589252 0.86436713
1.84462595 -9.99380207 0.87931967
1.80098033 -9.96667576 0.71661311
1.83006978 -9.98659515 0.72712475
1.86188900 -9.99618530 0.73853409
1.89699388 -9.99418926 0.75110084
1.87140489 -9.98867607 0.59947288
1.84160614 -9.96810818 0.59082735
1.90404058 -9.99826431 0.60892159
1.94009030 -9.99553871 0.61936241
1.87503231 -9.96863079 0.46298650
1.90536261 -9.98885059 0.46983680
1.93865895 -9.99820805 0.47725400
1.97551990 -9.99536705 0.48535627
1.90115201 -9.96956062 0.33320868
1.93212092 -9.98952961 0.33816925
1.96602404 -9.99853516 0.34353137
2.00345850 -9.99523163 0.34938958
1.95094156 -9.99039173 0.20498988
1.91899908 -9.97054672 0.20196630
1.98569798 -9.99910831 0.20824969
2.02385449 -9.99533463 0.21184018
1.92788005 -9.97070312 0.06951921
1.96023595 -9.99077320 0.07058220
1.99547219 -9.99940109 0.07169241
2.03418827 -9.99518681 0.07294437
1.92770803 -9.97062683 -0.06297512
1.95951331 -9.99098873 -0.06394361
1.99437308 -9.99990273 -0.06507745
2.03290677 -9.99597263 -0.06630578
1.91893852 -9.97105503 -0.19532771
1.95012581 -9.99094963 -0.19823319
1.98416770 -10.00000000 -0.20142213
2.02165318 -9.99688244 -0.20491815
1.90167475 -9.96917057 -0.32661733
1.93170607 -9.98913097 -0.33136532
1.96469605 -9.99880409 -0.33658570
2.00124097 -9.99694157 -0.34232581
1.87523305 -9.96686459 -0.45632434
1.90452778 -9.98751926 -0.46289116
1.93691611 -9.99780369 -0.47009581
1.97300720 -9.99645138 -0.47812718
1.84090924 -9.96429253 -0.58402342
1.86993372 -9.98590660 -0.59250367
1.79226029 -9.85515499 -0.56959057
1.85535467 -9.94988060 -0.45188344
1.82534552 -9.85902596 -0.44489139
1.82127297 -9.94655037 -0.57828337
1.75157773 -9.85213375 -0.69166774
1.78004634 -9.94475746 -0.70232111
1.71918201 -9.75507545 -0.67973870
1.75891149 -9.75720406 -0.55976391
1.67202711 -9.75294018 -0.79694974
1.70357323 -9.84949970 -0.81100470
1.73232090 -9.94345284 -0.82394940
1.61679876 -9.74997902 -0.91038132
1.64794922 -9.84725857 -0.92677480
1.67614841 -9.94228077 -0.94172740
1.55498874 -9.74659538 -1.02026963
1.58531904 -9.84474373 -1.03900170
1.61241472 -9.94088936 -1.05574954
1.48627090 -9.74367809 -1.12616587
1.51553977 -9.84201813 -1.14681137
1.54225004 -9.93838596 -1.16566145
1.41192961 -9.74208927 -1.22781026
1.43951762 -9.83931065 -1.25020361
1.46392775 -9.93548012 -1.26990414
1.33115435 -9.74057770 -1.32425785
1.35694039 -9.83653450 -1.34832835
1.38039088 -9.93167400 -1.36991858
1.24433565 -9.73842812 -1.41531956
1.26868224 -9.83413124 -1.44118547
1.29002821 -9.93014431 -1.46369696
1.15152943 -9.73521805 -1.50045240
1.17475557 -9.83276749 -1.52842045
1.19524741 -9.92996502 -1.55296361
1.05371189 -9.73122025 -1.57897115
1.07612073 -9.83223248 -1.60970294
1.09582937 -9.93174171 -1.63689160
0.97254682 -9.83312130 -1.68515086
0.95165932 -9.72921562 -1.65212762
0.99171215 -9.93309784 -1.71512675
0.86445153 -9.83486366 -1.75410271
0.84558737 -9.72981453 -1.71975672
0.88102221 -9.93476009 -1.78424406
0.75212204 -9.83522701 -1.81601524
0.73620689 -9.73237133 -1.78174007
0.76633716 -9.93382359 -1.84636915
0.63576138 -9.83443832 -1.86994374
0.62234348 -9.73551655 -1.83607006
0.64809710 -9.93004990 -1.90138423
0.51620436 -9.83385086 -1.91666746
0.50522912 -9.73720551 -1.88298285
0.52661419 -9.92728615 -1.94872212
0.39416856 -9.83475971 -1.95658827
0.38522330 -9.73803234 -1.92233670
0.40219700 -9.92679977 -1.98819411
0.26971892 -9.83552456 -1.98840666
0.26308343 -9.73894787 -1.95387173
0.27548337 -9.92513943 -2.01913857
0.13908406 -9.73869896 -1.97702098
0.14346294 -9.83249283 -2.01134348
0.14722914 -9.92055702 -2.04216981
0.01372497 -9.73811150 -1.99249327
0.01585535 -9.82878113 -2.02558732
0.01778200 -9.91586208 -2.05610657
-0.11211099 -9.82744598 -2.03286290
-0.11234056 -9.73926640 -2.00057197
-0.11220695 -9.91276836 -2.06250811
-0.23851533 -9.74061584 -2.00092626
-0.24044937 -9.82694435 -2.03246117
-0.24223650 -9.91094017 -2.06217742
-0.36443692 -9.73986244 -1.99211526
-0.36819571 -9.82536125 -2.02329612
-0.37188220 -9.90937805 -2.05235076
-0.48923868 -9.73755360 -1.97550929
-0.49494627 -9.82313538 -2.00607586
-0.50064796 -9.90748882 -2.03524852
-0.61262536 -9.73514175 -1.95009220
-0.62045670 -9.82168007 -1.98101306
-0.62824005 -9.90670872 -2.01106000
-0.73446482 -9.73234177 -1.91754150
-0.74426043 -9.82107449 -1.94841504
-0.75372243 -9.90718746 -1.97756433
-0.85356337 -9.72882843 -1.87681758
-0.86578912 -9.81977177 -1.90823448
-0.87691200 -9.90598011 -1.93700576
-0.96960890 -9.72509956 -1.82860565
-0.98407495 -9.81658649 -1.85943198
-0.99723154 -9.90349960 -1.88839221
-1.08256507 -9.72185993 -1.77340162
-1.09881020 -9.81365395 -1.80373192
-1.11376715 -9.90052891 -1.83160555
-1.19135869 -9.71819592 -1.71120560
-1.20979393 -9.81060123 -1.74082720
-1.22626793 -9.89792156 -1.76754344
-1.29618013 -9.71448421 -1.64232457
-1.31615818 -9.80701065 -1.67107224
-1.33472645 -9.89545059 -1.69707978
-1.39623368 -9.71062469 -1.56732559
-1.41848314 -9.80373001 -1.59503388
-1.43849373 -9.89246178 -1.62004936
-1.49070668 -9.70626926 -1.48554707
-1.51500237 -9.79999447 -1.51221597
-1.53693581 -9.89034176 -1.53640461
-1.57940483 -9.70032310 -1.39791036
-1.60607076 -9.79545403 -1.42377615
-1.62961507 -9.88779068 -1.44668925
-1.69135261 -9.79010582 -1.32990336
-1.66174209 -9.69256020 -1.30460453
-1.71685672 -9.88494205 -1.35177720
-1.77004039 -9.78487682 -1.23083389
-1.73791921 -9.68495369 -1.20636177
-1.79764605 -9.88187408 -1.25145566
-1.84323668 -9.78232574 -1.12753594
-1.80906641 -9.68064594 -1.10476458
-1.87178576 -9.87911034 -1.14636254
-1.91011429 -9.78075790 -1.02015150
-1.87512827 -9.68126869 -0.99976599
-1.93960679 -9.87665081 -1.03711200
-1.97092879 -9.78182125 -0.90938920
-1.93632078 -9.68491268 -0.89209813
-2.00024414 -9.87537766 -0.92389297
-2.02510715 -9.78476143 -0.79517812
-1.99101400 -9.69114590 -0.78081608
-2.05481410 -9.87562561 -0.80774486
-2.07300639 -9.78921700 -0.67810881
-2.03975630 -9.69877911 -0.66639245
-2.10247207 -9.87700462 -0.68836069
-2.11300516 -9.79388905 -0.55780333
-2.08086729 -9.70654774 -0.54844910
-2.14295411 -9.87862301 -0.56637800
-2.14541888 -9.79741096 -0.43534821
-2.11434627 -9.71283340 -0.42835620
-2.17460537 -9.88037109 -0.44177333
-2.16891551 -9.79811668 -0.31074354
-2.13791418 -9.71431923 -0.30571213
-2.19839287 -9.88080502 -0.31549150
-2.18416333 -9.79637146 -0.18495779
-2.15192676 -9.71147537 -0.18167436
-2.21434355 -9.87953854 -0.18798137
-2.19104099 -9.79507828 -0.05858148
-2.15776896 -9.70747185 -0.05721143
-2.22168732 -9.87888527 -0.05980981
-2.19069552 -9.79413986 0.06805465
-2.15673494 -9.70611954 0.06732238
-2.22139096 -9.87831593 0.06857434
-2.14945674 -9.70732117 0.19147824
-2.18227220 -9.79465008 0.19398215
-2.21297312 -9.87855816 0.19653331
-2.13468385 -9.71052742 0.31468922
-2.16692162 -9.79641342 0.31934273
-2.19661689 -9.87910748 0.32352376
-2.11301827 -9.71383762 0.43688446
-2.14394689 -9.79804611 0.44335681
-2.17324162 -9.87949371 0.44947484
-2.08150148 -9.71332932 0.55681205
-2.11262465 -9.79873657 0.56548119
-2.14167905 -9.88105011 0.57351261
-2.04194379 -9.71051311 0.67440104
-2.07337403 -9.79796886 0.68536150
-2.10222554 -9.88238430 0.69516456
-1.99500930 -9.70713520 0.78901374
-2.02639866 -9.79577827 0.80219471
-2.05493021 -9.88137150 0.81407642
-1.94110680 -9.70400238 0.90048474
-1.97179282 -9.79275799 0.91560268
-1.99935865 -9.87881756 0.92918515
-1.88086987 -9.70215702 1.00867236
-1.91032243 -9.78951263 1.02544379
-1.93662274 -9.87545776 1.04060888
-1.81430531 -9.70075989 1.11274970
-1.84264255 -9.78759384 1.13171792
-1.86737299 -9.87298298 1.14796972
-1.74158275 -9.69957924 1.21255159
-1.76867318 -9.78634167 1.23348045
-1.79249275 -9.87165451 1.25150383
-1.66202772 -9.69753838 1.30751097
-1.68837118 -9.78568268 1.33058941
-1.71104133 -9.87207699 1.35019541
-1.57722342 -9.69598293 1.39807665
-1.60213411 -9.78514862 1.42271411
-1.62378490 -9.87309265 1.44399738
-1.51074231 -9.78565025 1.50976026
-1.48663414 -9.69585228 1.48283148
-1.53107548 -9.87465763 1.53246069
-1.41369307 -9.78751087 1.59113705
-1.39137137 -9.69690990 1.56300354
-1.43300617 -9.87724972 1.61527848
-1.31201482 -9.78914928 1.66675019
-1.29112577 -9.69709587 1.63660884
-1.32969427 -9.87924576 1.69195461
-1.20495737 -9.78905201 1.73480451
-1.18565774 -9.69625664 1.70322216
-1.22129333 -9.88019943 1.76154423
-1.09383261 -9.78837585 1.79624462
-1.07602334 -9.69402218 1.76289070
-1.10907018 -9.88087273 1.82487416
-0.97913432 -9.78927326 1.85097611
-0.96310329 -9.69227409 1.81556714
-0.99267626 -9.88331795 1.88057423
-0.86134529 -9.79192543 1.89940071
-0.84748226 -9.69325733 1.86269259
-0.87304765 -9.88585377 1.92937672
-0.74044555 -9.79479790 1.93991196
-0.72901928 -9.69890594 1.90372348
-0.75019836 -9.88714981 1.97000611
-0.61742276 -9.79901123 1.97354937
-0.60843545 -9.70627880 1.93854201
-0.62503117 -9.88800335 2.00291109
-0.49241063 -9.80265236 1.99917901
-0.48581427 -9.71266556 1.96509278
-0.49795732 -9.88901043 2.02771401
-0.36589187 -9.80577087 2.01680088
-0.36136535 -9.71535778 1.98207676
-0.36961967 -9.89023876 2.04502869
-0.23844816 -9.80830383 2.02584791
-0.23616645 -9.71674919 1.99084044
-0.24050178 -9.89384079 2.05433559
-0.11075199 -9.81244659 2.02771401
-0.11065382 -9.72054291 1.99247038
-0.11096902 -9.89908504 2.05653262
0.01701429 -9.81742191 2.02173781
0.01522126 -9.72565746 1.98699009
0.01847884 -9.90330124 2.05091047
0.14001268 -9.72765350 1.97217929
0.14371760 -9.81835175 2.00614738
0.14723061 -9.90520000 2.03498960
0.26320004 -9.72370529 1.94716394
0.26940593 -9.81590080 1.98202956
0.27447206 -9.90520573 2.01094246
0.38404888 -9.71868038 1.91383362
0.39266932 -9.81304932 1.94917178
0.39991826 -9.90567303 1.97891152
0.50246537 -9.71636772 1.87447977
0.51392782 -9.81251431 1.90988874
0.52313071 -9.90630722 1.93927419
0.61885780 -9.71707916 1.82924414
0.63235986 -9.81313133 1.86337757
0.64359492 -9.90839195 1.89276302
0.74791145 -9.81583595 1.81077194
0.73201925 -9.71924973 1.77670944
0.76103854 -9.91198826 1.83909440
0.86013174 -9.81900406 1.75067830
0.84198356 -9.72178936 1.71779680
0.87505180 -9.91546345 1.77836299
0.94768864 -9.72258091 1.65144336
0.96797234 -9.82157898 1.68323815
0.98544210 -9.91828346 1.71073389
1.04868340 -9.72282887 1.57800341
1.07166886 -9.82346630 1.60946751
1.09031296 -9.92061043 1.63488448
1.14436328 -9.72134304 1.49837458
1.16996038 -9.82402706 1.52865767
1.19079697 -9.92321491 1.55346036
1.23508251 -9.71974850 1.41265130
1.26336730 -9.82532024 1.44206035
1.28653359 -9.92656040 1.46620178
1.35141957 -9.82656956 1.34986472
1.32088923 -9.72018337 1.32215643
1.37620616 -9.92839336 1.37247074
1.43339658 -9.82880783 1.25218880
1.40226245 -9.72421932 1.22740960
1.45879734 -9.92868042 1.27243268
1.51009202 -9.83338165 1.15007198
1.47907519 -9.73310089 1.12871802
1.53602648 -9.93087101 1.16814268
1.58143258 -9.84119987 1.04386866
1.55053091 -9.74308968 1.02556181
1.60770512 -9.93591118 1.05976617
1.64538395 -9.84884453 0.93263394
1.61404383 -9.75089741 0.91647667
1.67333078 -9.94180202 0.94720852
1.70254421 -9.85532284 0.81759608
1.67072868 -9.75677872 0.80380100
1.73130882 -9.94701099 0.83018643
1.75116956 -9.85907555 0.69849521
1.71935916 -9.76180744 0.68720400
1.78116024 -9.95022011 0.70943207
1.79206836 -9.86121941 0.57639444
1.76053190 -9.76673508 0.56737095
1.82131207 -9.95104408 0.58494550
1.82530046 -9.86308289 0.45178980
1.79384959 -9.77055359 0.44482136
1.85439503 -9.95183277 0.45828575
1.85004270 -9.86432552 0.32496470
1.81860363 -9.77240181 0.32026398
1.88005710 -9.95291615 0.32980716
1.86683190 -9.86477757 0.19710022
1.83514559 -9.77268505 0.19410026
1.89719176 -9.95395565 0.19988759
1.87473929 -9.86425495 0.06796017
1.84335041 -9.77224541 0.06694444
1.90579665 -9.95387840 0.06883418
1.87490904 -9.86400127 -0.06151057
1.84288609 -9.77046204 -0.06042398
1.90605354 -9.95359516 -0.06229009
1.83426785 -9.76850986 -0.18741445
1.86731839 -9.86455917 -0.19043803
1.89767158 -9.95448971 -0.19334349
1.81681728 -9.76494598 -0.31317657
1.85073292 -9.86363506 -0.31839699
1.88124633 -9.95269489 -0.32338116
1.79194582 -9.76069736 -0.43754503
1.74527955 -9.66016006 -0.42710423
1.76995993 -9.66379738 -0.30559403
1.71328616 -9.65843868 -0.54653573
1.65579534 -9.57088184 -0.52974069
1.68793559 -9.57221603 -0.41430125
1.61742103 -9.56756878 -0.64265257
1.67468524 -9.65707111 -0.66339248
1.57260907 -9.56431770 -0.75315511
1.62875354 -9.65597630 -0.77783978
1.51963890 -9.56391621 -0.86001980
1.57505691 -9.65349293 -0.88872021
1.46211994 -9.56171989 -0.96442789
1.51419032 -9.65052509 -0.99593925
1.39811015 -9.55954361 -1.06467855
1.44731498 -9.64802742 -1.09888279
1.32668757 -9.55861282 -1.16006315
1.37468922 -9.64662457 -1.19807053
1.25010741 -9.55729294 -1.25112486
1.29614985 -9.64570332 -1.29262829
1.16821229 -9.55567265 -1.33739150
1.21120167 -9.64368057 -1.38125706
1.08145416 -9.55361176 -1.41820145
1.12063444 -9.64036846 -1.46398044
0.98957515 -9.55198765 -1.49327135
1.02511108 -9.63659763 -1.54082191
0.89345461 -9.55074692 -1.56300282
