1.89520359 0.67276084 3.80769897
1.79588950 0.68548405 3.81047416
1.69722354 0.69735634 3.81437445
1.70432472 0.85122025 3.82006764
1.60493970 0.86261648 3.82348132
1.50557506 0.87312120 3.82471728
1.50885713 1.02609372 3.82484889
1.40839827 1.03490674 3.81774759
1.30843592 1.04315257 3.80944133
1.30907404 1.19561863 3.80247164
1.20954728 1.20375288 3.79287863
1.11112463 1.21124911 3.78018570
1.11161089 1.36449504 3.77672148
1.01366436 1.37125170 3.76146555
0.91644704 1.37698531 3.74078012
0.91981024 1.52933991 3.72444081
0.82227898 1.53364503 3.70171928
0.72567976 1.53680563 3.67755914
0.72911376 1.68802559 3.65674233
0.63480389 1.68793440 3.62199640
0.54066616 1.68638444 3.58647060
0.54274285 1.83521378 3.56150031
0.45037788 1.82969308 3.51894426
0.35825607 1.82265282 3.47636819
0.35996801 1.96838224 3.44728518
0.26760307 1.95742166 3.40221715
0.17686905 1.94412100 3.35276246
0.17705138 2.08451200 3.31912088
0.08010770 2.07190037 3.27947235
-0.02440307 2.06749392 3.26649570
-0.02600360 2.20368099 3.22861981
-0.12711069 2.21410465 3.26359868
-0.21876656 2.23029232 3.31580853
-0.21876656 2.23029232 3.31580853
-0.22309205 2.36781645 3.27223945
-0.31629777 2.38426781 3.32357788
-0.41206640 2.39592719 3.36976051
-0.41692877 2.53597403 3.32388210
-0.51472336 2.54607344 3.36671138
-0.61468577 2.55265808 3.40481043
-0.62003440 2.69425464 3.35615611
-0.72200257 2.69931960 3.39134765
-0.82385927 2.70070744 3.42377353
-0.83047414 2.84420824 3.36989236
-0.93342495 2.84437037 3.40000868
-1.03685176 2.84205055 3.42789626
-1.04214966 2.98925900 3.37285018
-1.14627552 2.98539972 3.39756727
-1.25063431 2.97696137 3.41642952
-1.25744176 3.12636805 3.35392761
-1.36194229 3.11668396 3.37019610
-1.46595681 3.10434556 3.38408422
-1.47328067 3.25746989 3.31719613
-1.57572496 3.24394655 3.32950425
-1.67658889 3.22992659 3.34155869
-1.68136013 3.39049673 3.26364923
-1.77946877 3.37437987 3.26925135
-1.87657452 3.35588241 3.27491355
-1.87973511 3.52445507 3.18612456
-1.97512889 3.50463057 3.19096684
-2.06973267 3.48317552 3.19772339
-2.07329822 3.61209965 3.12068510
-2.16771960 3.58526516 3.12390661
-2.26166487 3.55667853 3.12771535
-2.17201471 3.67090368 3.06926560
-2.26663876 3.64138532 3.07278061
-2.36124229 3.60947561 3.07633615
-2.27296996 3.72703385 3.01421952
-2.36828256 3.69336200 3.01871705
-2.46406126 3.65691423 3.02600050
-2.37758207 3.77526259 2.95618486
-2.28053689 3.81035304 2.94834423
-2.29040360 3.89412761 2.88049388
-2.18413019 3.84077334 2.94312716
-2.19134259 3.92652345 2.87520599
-2.19755220 4.00866699 2.79801559
-2.09176517 3.94847465 2.86604857
-2.09564495 4.03266478 2.79359913
-1.99015164 3.96637440 2.86399198
-1.99319065 4.04923773 2.79370022
-1.88939905 3.97920918 2.86456943
-1.88817334 4.05574131 2.79577684
-1.88669443 4.13135099 2.72602201
-1.78285217 4.05773687 2.79973793
-1.77749336 4.12932491 2.73548341
-1.76899433 4.19721603 2.67034793
-1.66796827 4.12185907 2.74257445
-1.65841579 4.18766356 2.68186545
-1.64616859 4.25019550 2.62238240
-1.75661552 4.26197672 2.60547566
-1.63254380 4.31256580 2.56521893
-1.74143088 4.32186508 2.54544544
-1.61674118 4.36644697 2.50546241
-1.72315633 4.37826872 2.48865700
-1.59863889 4.42060184 2.45048714
-1.70386899 4.43038750 2.43282056
-1.57837892 4.47162628 2.39596772
-1.68014443 4.47880840 2.37826061
-1.78481734 4.48726702 2.35690665
-1.65435374 4.52928591 2.32660794
-1.75250280 4.53641748 2.30475760
-1.84329772 4.54481554 2.27809572
-1.72036052 4.58563900 2.25178814
-1.80895710 4.59310484 2.22775984
-1.89162755 4.60178614 2.19859576
-1.77802014 4.64243793 2.17391920
-1.85804689 4.65116978 2.14867520
-1.93498397 4.66072226 2.11578345
-1.82427347 4.70122194 2.09237289
-1.89930606 4.71008587 2.06339121
-1.97125924 4.72036743 2.02913165
-1.86727536 4.76092768 2.01036072
-1.93677688 4.77255678 1.97781336
-2.00497174 4.78658724 1.93776965
-1.90209186 4.82617474 1.92720401
-1.97024620 4.83941460 1.89063478
-2.03689122 4.85523796 1.84875774
-1.93640208 4.89448118 1.84507036
-2.00271273 4.90877438 1.80674863
-2.06833458 4.92366552 1.76042449
-1.97181642 4.96628237 1.76455760
-2.03760028 4.98054504 1.72427058
-2.10352612 4.99549675 1.67959750
-2.01027989 5.03983593 1.68932235
-2.07556748 5.05436230 1.64805281
-2.13889980 5.06828070 1.60219443
-2.04989815 5.11576986 1.61805797
-2.11357498 5.12958717 1.57572496
-2.17354441 5.14119625 1.52876246
-2.09023547 5.19259548 1.55141306
-2.15190673 5.20549107 1.50985992
-2.21302080 5.21857882 1.46518683
-2.13239646 5.27141666 1.49208188
-2.18930650 5.28178978 1.44435966
-2.24483895 5.29156542 1.39594865
-2.17162991 5.34866762 1.43060315
-2.22661519 5.35802794 1.38286066
-2.28174233 5.36729717 1.33564496
-2.21512771 5.42703342 1.37652946
-2.26844168 5.43556261 1.32781446
-2.32146192 5.44375801 1.27887666
-2.25797749 5.50442600 1.32246590
-2.31076455 5.51223612 1.27410543
-2.36336946 5.51933718 1.22561336
-2.30546665 5.58153534 1.27404463
-2.35502243 5.58804893 1.22253382
-2.40300798 5.59409666 1.16975677
-2.35644078 5.65770245 1.22736585
-2.40652323 5.66338539 1.17622983
-2.45235109 5.66838932 1.12155843
-2.40927863 5.73284626 1.18128467
-2.45664620 5.73764801 1.12777817
-2.50220060 5.74199390 1.07277262
-2.46805239 5.80661297 1.13926566
-2.51374888 5.81092834 1.08390534
-2.55602121 5.81466627 1.02555680
-2.53185105 5.87782669 1.09938395
-2.57360673 5.88193941 1.04009330
-2.61561561 5.88475561 0.97986060
-2.59381604 5.94819927 1.05548072
-2.63637185 5.95091438 0.99490356
-2.67864418 5.95193720 0.93381995
-2.66640735 6.01233196 1.01637900
-2.70724106 6.01467180 0.95259076
-2.74579573 6.01616144 0.88758683
-2.74172354 6.07347631 0.97571743
-2.78125048 6.07499599 0.91004491
-2.81817436 6.07475281 0.84085733
-2.82249975 6.12916088 0.93343496
-2.85970712 6.12933302 0.86299133
-2.89367294 6.13051796 0.79260832
-2.93973374 6.18231249 0.81390154
-2.90504861 6.18130970 0.88728291
-2.97145057 6.18296099 0.73965907
-2.86363745 6.18268728 0.95771652
-2.77926517 6.13094378 1.00061691
-2.82206416 6.18328524 1.02846420
-2.77699590 6.18259621 1.09572709
-2.73759055 6.12850237 1.06724155
-2.68995953 6.12651682 1.13163769
-2.72873688 6.18059063 1.16079175
-2.63786101 6.12594938 1.19066501
-2.67665887 6.17858458 1.22384059
-2.58503318 6.12420750 1.24726105
-2.62166333 6.17777443 1.28175354
-2.52877164 6.12185717 1.30267191
-2.56123805 6.17683220 1.33690107
-2.46828556 6.11948681 1.35494256
-2.50060010 6.17380333 1.39087343
-2.40648270 6.11655951 1.40549099
-2.43653822 6.17173672 1.44213104
-2.34354520 6.11278057 1.45177484
-2.37125063 6.16855621 1.48970139
-2.27695084 6.10936689 1.49394572
-2.30192137 6.16587162 1.53276372
-2.20969820 6.10306597 1.53335130
-2.23290586 6.15967226 1.57417500
-2.14043975 6.09818363 1.57005215
-2.16229010 6.15555954 1.60956919
-2.07036066 6.09227753 1.60234642
-2.08922267 6.15081882 1.64236987
-1.99933946 6.08558178 1.63199675
-2.01686430 6.14435577 1.67271924
-1.92797399 6.07758904 1.65967190
-1.94393873 6.13739681 1.69977629
-1.85654747 6.06857347 1.68536139
-1.86976719 6.12986994 1.72424018
-1.78310549 6.06215096 1.70439565
-1.79453194 6.12299156 1.74390244
-1.70789051 6.05468512 1.72097838
-1.71871936 6.11524248 1.76080942
-1.63356698 6.04626751 1.73652780
-1.70076907 5.98977232 1.68874478
-1.62695217 5.98191166 1.70204544
-1.55324662 5.97371626 1.71246934
-1.62232280 5.91389894 1.67636597
-1.54957950 5.90594721 1.68549323
-1.47683632 5.89669847 1.69450867
-1.54736102 5.83571625 1.66456473
-1.47536743 5.82623482 1.67400563
-1.40319157 5.81713772 1.67856419
-1.47615755 5.75371408 1.66281223
-1.40484273 5.74403000 1.66893077
-1.33247423 5.73458862 1.67045021
-1.40793228 5.67042542 1.66440260
-1.33628309 5.66034651 1.66788721
-1.26395524 5.65034819 1.66932571
-1.34148991 5.58613443 1.67035902
-1.26937473 5.57588291 1.67083502
-1.19659102 5.56591463 1.67101741
-1.27649617 5.50188351 1.68429780
-1.20358074 5.49058867 1.67952657
-1.13012838 5.47985077 1.67585957
-1.21200883 5.41602182 1.69264483
-1.13770556 5.40604401 1.69423532
-1.06229818 5.39460754 1.68889689
-1.14617419 5.33220673 1.71263134
-1.07076681 5.32015228 1.70594537
-0.99464023 5.30829000 1.69950294
-1.07951915 5.24918175 1.73567688
-1.00237942 5.23578978 1.72685385
-0.92360902 5.22441387 1.72138357
-1.01100004 5.16687584 1.76200461
-0.93151027 5.15295696 1.75079083
-0.85218269 5.13823843 1.73577821
-0.94014102 5.08427572 1.78592157
-0.85888863 5.07007408 1.77243853
-0.77671444 5.05435228 1.75330305
-0.86632407 5.00436068 1.81344461
-0.78328878 4.98760557 1.79326582
-0.70079046 4.96977711 1.76788008
-0.79084575 4.92244959 1.83552802
-0.70605797 4.90491486 1.81231010
-0.62131077 4.88592100 1.78476667
-0.71197391 4.84205866 1.85897875
-0.62632507 4.82258892 1.83178985
-0.54157788 4.80143738 1.80052888
-0.63094437 4.76213312 1.88223720
-0.54504234 4.73987770 1.85138130
-0.46117640 4.71614313 1.81623042
-0.54733169 4.68242073 1.90608299
-0.46282762 4.65697432 1.87023318
-0.38178793 4.62741518 1.82946014
-0.46650475 4.59717703 1.92272663
-0.38338846 4.56851912 1.88388836
-0.30405065 4.53648853 1.84071445
-0.38635653 4.50952244 1.93750608
-0.30556002 4.47686386 1.89523387
-0.23042612 4.44129753 1.84942627
-0.30818367 4.41843414 1.94969249
-0.23169237 4.38152075 1.90512085
-0.15534289 4.34614658 1.86215961
-0.15647745 4.40383673 1.80371976
-0.23142900 4.32564354 1.96227396
-0.15670031 4.28671408 1.91709423
-0.15534289 4.34614658 1.86215961
-0.15670031 4.28671408 1.91709423
-0.07244945 4.26001167 1.88537753
-0.15751070 4.22985458 1.97311306
-0.07251023 4.20236206 1.94157851
0.02122226 4.20801449 1.94674468
0.02138434 4.15198565 2.00266194
-0.07223672 4.14615059 1.99671590
0.10949470 4.17878962 2.03188705
0.02272149 4.09663582 2.05704999
0.11156122 4.12363195 2.08667994
0.19369490 4.16122437 2.12946892
0.11391137 4.06895018 2.14049029
0.19743286 4.10650206 2.18329954
0.28142032 4.14661694 2.22750664
0.19931704 4.05427217 2.23849750
0.28598896 4.09368801 2.28207660
0.37599361 4.13186789 2.32297134
0.29047653 4.04102230 2.33566403
0.38209185 4.07938433 2.37678170
0.47605732 4.11746264 2.41623783
0.38809890 4.02761984 2.43072367
0.48251009 4.06633711 2.47115231
0.58339435 4.09794235 2.50159287
0.49237669 4.01055098 2.52047491
0.59166038 4.04692793 2.55679107
0.69577610 4.07720661 2.58353424
0.59953135 3.99587274 2.61108756
0.70522738 4.02598953 2.63744569
0.81268597 4.05502176 2.66049123
0.71498251 3.97269559 2.68946314
0.82378840 4.00047207 2.71163750
0.93306023 4.02916002 2.73018527
0.83342189 3.94346046 2.76033235
0.94412208 3.97244263 2.77983236
1.05493367 4.00084686 2.79421687
0.95192224 3.91487384 2.82979345
1.06350362 3.94518280 2.84775376
1.17427480 3.97024417 2.85677958
1.06956136 3.88359237 2.89841366
1.18144679 3.90712428 2.90847254
1.29145813 3.93121338 2.91716409
1.18509352 3.84312344 2.96229315
1.29455781 3.86187363 2.97018456
1.40344477 3.87871003 2.97392249
1.29632044 3.78982973 3.02185726
1.40424502 3.80596662 3.02937365
1.51130855 3.81532669 3.02978921
1.40225959 3.68784118 3.10820508
1.50751984 3.69337225 3.11122394
1.61091638 3.69543886 3.11330056
1.71203363 3.69271374 3.11559987
1.69808471 3.51406193 3.22143769
1.79596031 3.50217915 3.22515535
1.89341056 3.48519135 3.22884274
1.99109375 3.46419191 3.23178053
2.08914161 3.43764114 3.23445463
2.18876958 3.40522528 3.23903346
2.28939056 3.36641765 3.24538469
2.38931227 3.32318306 3.24764395
2.41562986 3.49346757 3.14714456
2.51482248 3.44262528 3.15076089
2.54179859 3.56593728 3.06599355
2.61282992 3.39023304 3.15140939
2.63956285 3.50966549 3.07123065
2.70850730 3.33626080 3.15031528
2.73410559 3.45287681 3.07262874
2.80121660 3.28051567 3.14743853
2.82653141 3.39472079 3.07164598
2.89204192 3.22264314 3.14164400
2.91602969 3.33210754 3.06847525
2.97904825 3.16029334 3.13071394
3.00275207 3.26790380 3.06417012
3.02421761 3.33864117 3.01603246
3.08986998 3.20226169 3.06069565
3.10914707 3.27106452 3.01439166
3.13344908 3.33809447 2.96473455
3.19431973 3.20090437 3.01133227
3.21489382 3.26766086 2.96336699
3.24281192 3.33135796 2.91202831
3.16321063 3.40319967 2.91402388
3.27527833 3.39301896 2.86195588
3.19581914 3.46393871 2.85961580
3.30799842 3.44737649 2.80594730
3.35367393 3.31865478 2.86390090
3.38544178 3.37185740 2.81047559
3.41853619 3.42012668 2.75257254
3.46059585 3.28967309 2.81192398
3.49120855 3.33877301 2.75723243
3.52550864 3.38557315 2.70215583
3.56043649 3.25196958 2.76200366
3.59260941 3.30115056 2.70921659
3.62798333 3.34449649 2.65339041
3.65457439 3.21550155 2.71794844
3.68881392 3.25959730 2.66177797
3.72591972 3.29998541 2.60513115
3.76723957 3.13860512 2.67678046
3.80554104 3.17866921 2.61890793
3.84575701 3.21634221 2.56065059
3.93929720 3.06509185 2.58417225
3.98481083 3.09782171 2.52619863
4.03139877 3.12472701 2.46481085
4.11305618 2.97172427 2.48760343
4.16059637 2.99589419 2.42365289
4.20839977 3.01731920 2.35668373
4.28445482 2.86689949 2.37764263
4.33366632 2.88734174 2.30905271
4.38629150 2.90645695 2.23876119
4.45194387 2.75326157 2.25209212
4.50338364 2.77123213 2.17861938
4.55397272 2.78787541 2.10101390
4.61369896 2.63545012 2.10868216
4.66439962 2.65274191 2.02751088
4.71457338 2.66949701 1.94429338
4.77288103 2.51736522 1.95060432
4.82394648 2.53408980 1.86686993
4.87174940 2.54952788 1.77910399
4.92005920 2.39269590 1.78290284
4.96231127 2.40600657 1.69128752
4.99920464 2.41792965 1.59605575
5.04582310 2.26102662 1.59970248
5.08422518 2.27379036 1.50394404
5.11993361 2.28643250 1.40598738
5.16218519 2.13045144 1.40553153
5.19869375 2.14357996 1.30648077
5.23045111 2.15543199 1.20563710
5.29859543 2.01108003 1.09823930
5.26465988 1.99894440 1.19917417
5.32812405 2.02229381 0.99600780
5.35915232 1.86571527 0.98636401
5.38782024 1.87615931 0.88406157
5.41089630 1.88527620 0.78068537
5.43912840 1.72677267 0.77038324
5.46012783 1.73474503 0.66695637
5.47794628 1.74223089 0.56326610
5.50087070 1.58172178 0.55402762
5.51623774 1.58839750 0.45044881
5.52661037 1.59450591 0.34701180
5.53708506 1.60021913 0.24393947
5.54697180 1.60472703 0.14123185
5.56124496 1.44266796 0.13046372
5.56725216 1.44553471 0.02790803
5.56819439 1.44602096 -0.07453623
5.58473635 1.28389096 -0.08479787
5.57894230 1.28213859 -0.18589485
5.57583189 1.27862346 -0.28611049
5.58975077 1.11366725 -0.29267472
5.58010721 1.10812616 -0.39174569
5.56621885 1.10104525 -0.49030003
5.55176353 1.09185731 -0.58954322
5.53450155 1.08107913 -0.68921185
5.51370525 1.06942976 -0.78896159
5.48685074 1.05703056 -0.88785017
5.48677969 0.89685577 -0.89061564
5.46013832 0.88512528 -0.99099338
5.43235111 0.87255394 -1.09225249
5.43184519 0.71486092 -1.09853303
5.39737272 0.70222884 -1.19817126
5.36099577 0.68932331 -1.29830587
5.35230446 0.53373730 -1.30254030
5.31476307 0.52244240 -1.40265453
5.27422285 0.51156282 -1.50238407
5.25887585 0.35817501 -1.50452137
5.21552992 0.34918973 -1.60285294
5.17021847 0.34053877 -1.70090079
5.14841890 0.18992656 -1.70091081
5.09679651 0.18355483 -1.79619336
5.04395866 0.17755789 -1.89135420
5.02195644 0.02911350 -1.89388657
4.96546173 0.02493995 -1.98759890
4.90334463 0.02145525 -2.07853532
4.87445450 -0.12415275 -2.07639813
4.81173944 -0.12702966 -2.16592646
4.74746513 -0.12976475 -2.25381422
4.72084332 -0.27620339 -2.24981260
4.65442181 -0.27868524 -2.33415484
4.58551741 -0.28094423 -2.41566038
4.55893660 -0.42810211 -2.40731335
4.48792553 -0.42999643 -2.48540521
4.41627598 -0.43215409 -2.56239295
4.38853025 -0.57909924 -2.54700541
4.31506777 -0.58131766 -2.62023497
4.24061251 -0.58391100 -2.69187403
4.21243143 -0.73133224 -2.66947675
4.13521051 -0.73297328 -2.73490596
4.05629778 -0.73450291 -2.79841065
4.02512836 -0.87990832 -2.77027988
3.94521284 -0.88079971 -2.83116102
3.86129642 -0.88016152 -2.88673377
3.82856631 -1.02334845 -2.85770130
3.74421430 -1.02147448 -2.91178536
3.65862656 -1.01921558 -2.96485615
3.62274599 -1.15819848 -2.93196416
3.53683400 -1.15410590 -2.98368764
3.44835877 -1.14810908 -3.03231144
3.41279268 -1.28482294 -3.00150609
3.32303119 -1.27595925 -3.04631114
3.23317838 -1.26802754 -3.09247327
3.19657874 -1.40158093 -3.05700827
3.10677671 -1.39268672 -3.10101295
3.01744056 -1.38465369 -3.14605069
2.98133755 -1.51654565 -3.10631084
2.89147472 -1.50748956 -3.14567566
2.80035567 -1.49839282 -3.18136358
2.76683569 -1.63058889 -3.13882780
2.67697287 -1.62179589 -3.17341161
2.58686686 -1.61312473 -3.20567560
2.55514979 -1.74580693 -3.16260290
2.46555042 -1.73676085 -3.19150376
2.37554598 -1.72795784 -3.21867228
2.34571314 -1.86012352 -3.16952181
2.25779510 -1.85271835 -3.19282055
2.17110300 -1.84783590 -3.21772003
2.14508915 -1.98160195 -3.16311955
2.05958223 -1.97687125 -3.18108010
1.97423732 -1.97222161 -3.19795656
1.95160699 -2.10833788 -3.14614177
1.86732590 -2.10340452 -3.15928030
1.78308523 -2.09745812 -3.16724253
1.76200461 -2.23219681 -3.11003876
1.67982042 -2.22973514 -3.12286305
1.59746385 -2.22642255 -3.13218260
1.57810545 -2.35952020 -3.06906295
1.49707592 -2.35497189 -3.07339859
1.41618824 -2.35027170 -3.07457352
1.39884579 -2.48472643 -3.01309490
1.31954849 -2.47999573 -3.01101828
1.24026120 -2.47660208 -3.00873899
1.22567415 -2.61042905 -2.94553804
1.14777470 -2.60657978 -2.94155717
1.07024002 -2.60215306 -2.93430424
1.05721295 -2.73572659 -2.87158942
0.98114711 -2.73007417 -2.86077070
0.90561813 -2.72354007 -2.84771323
0.89517415 -2.85439897 -2.77936625
0.82108366 -2.84731817 -2.76450562
0.74791497 -2.83930516 -2.74689984
0.73992240 -2.96863461 -2.67577744
0.66835427 -2.96047997 -2.65767527
0.59707993 -2.95173788 -2.63720274
0.59217703 -3.08039832 -2.56431746
0.52240187 -3.07112956 -2.54310536
0.45425767 -3.06007767 -2.51831746
0.45159349 -3.18930554 -2.44490576
0.38556641 -3.17730165 -2.41842604
0.32091704 -3.16398072 -2.38972783
0.32014716 -3.29503179 -2.31788611
0.25831389 -3.27937102 -2.28577423
0.19698714 -3.26300073 -2.25321627
0.13703805 -3.38081241 -2.15155220
0.19943859 -3.39537930 -2.18135452
0.07131489 -3.37007451 -2.12841535
0.00181326 -3.36942625 -2.12300611
0.07707884 -3.50473189 -2.05593562
0.00828630 -3.50371909 -2.04957390
-0.06027324 -3.51123548 -2.05898476
-0.06739461 -3.37756062 -2.13325763
-0.06027324 -3.51123548 -2.05898476
-0.05235162 -3.64898276 -1.98839915
-0.11615009 -3.66313434 -2.01081681
-0.17885451 -3.67822766 -2.03517938
-0.17006172 -3.81716013 -1.96691346
-0.23206718 -3.83131194 -1.99214709
-0.29461968 -3.84404516 -2.01671219
-0.28575596 -3.98541880 -1.95216429
-0.34857181 -3.99596405 -1.97476423
-0.41133702 -4.00587130 -1.99784017
-0.40250373 -4.14780188 -1.93491304
-0.46406347 -4.15700006 -1.95966041
-0.52663618 -4.16475964 -1.98175383
-0.51535141 -4.30960798 -1.92702174
-0.57785326 -4.31601000 -1.94763613
-0.64054757 -4.32180452 -1.96725798
-0.62685186 -4.46865845 -1.92057908
-0.68861419 -4.47399664 -1.94124424
-0.75062978 -4.47837305 -1.95965028
-0.73508030 -4.62700939 -1.92048788
-0.79697436 -4.63029194 -1.93704033
-0.85920268 -4.63348246 -1.95277214
-0.84296435 -4.78231192 -1.91952550
-0.90474701 -4.78446960 -1.93371761
-0.96669167 -4.78626299 -1.94548857
-0.94999754 -4.93564939 -1.91984963
-1.01148629 -4.93667221 -1.92947304
-1.07283342 -4.93763494 -1.93705034
-1.05637217 -5.08723402 -1.91719568
-1.11710131 -5.08767939 -1.92280757
-1.17791140 -5.08818626 -1.92757881
-1.16214919 -5.23721790 -1.91736782
-1.22259462 -5.23713732 -1.92111599
-1.28297937 -5.23727894 -1.92162240
-1.26918232 -5.38520670 -1.91639543
-1.32900989 -5.38507509 -1.91663849
-1.38867533 -5.38521671 -1.91390336
-1.37726891 -5.53186846 -1.92210877
-1.43682289 -5.53164530 -1.91966724
-1.49596167 -5.53193903 -1.91218126
-1.48706758 -5.67711163 -1.92949331
-1.54631770 -5.67686844 -1.92259490
-1.60547662 -5.67663527 -1.91476452
-1.60266054 -5.81517267 -1.96024799
-1.66222465 -5.81566906 -1.94894302
-1.72192049 -5.81552696 -1.93739486
-1.72748184 -5.94276953 -2.00834489
-1.78864646 -5.94251633 -1.99396038
-1.84914255 -5.94317484 -1.97741830
-1.86492503 -6.05434084 -2.07044172
-1.92768002 -6.05475664 -2.05257225
-1.99019217 -6.05503988 -2.03300142
-2.00678492 -6.13472223 -2.10662580
-2.07116079 -6.13566446 -2.08403611
-2.13418937 -6.13812590 -2.05709028
-2.07905197 -6.19788265 -2.12212467
-2.14454222 -6.19779110 -2.09765053
-2.20907021 -6.19929075 -2.06939816
-2.15298033 -6.26192379 -2.13185954
-2.21771097 -6.26352453 -2.10301971
-2.28193498 -6.26584435 -2.07234597
-2.22753692 -6.32787991 -2.13705611
-2.29244971 -6.32990599 -2.10563302
-2.35673451 -6.33212471 -2.07185984
-2.30689526 -6.38881207 -2.14673042
-2.37272954 -6.38978434 -2.11394978
-2.43846297 -6.39052391 -2.07950783
-2.39120674 -6.44422293 -2.15994978
-2.45703125 -6.44561052 -2.12409997
-2.52203512 -6.44828510 -2.08396506
-2.47289467 -6.50532627 -2.16294837
-2.53864837 -6.50784874 -2.12204361
-2.60476637 -6.50973320 -2.08061218
-2.55272889 -6.57053280 -2.15567493
-2.61872554 -6.57265043 -2.11359525
-2.68348646 -6.57570934 -2.06649089
-2.62854147 -6.63856554 -2.13953805
-2.69406199 -6.64126062 -2.09180570
-2.75863051 -6.64411688 -2.04187512
-2.69968414 -6.70812845 -2.11179209
-2.76564026 -6.71076202 -2.06245923
-2.83105946 -6.71337557 -2.01139402
-2.76867938 -6.77692127 -2.07881904
-2.83386564 -6.78023386 -2.02630544
-2.89766407 -6.78448820 -1.97127950
-2.83621573 -6.84683752 -2.04097366
-2.90022683 -6.85093069 -1.98622131
-2.96255660 -6.85543776 -1.92875397
-2.90010524 -6.91724157 -1.99763763
-2.96341753 -6.92158699 -1.94057548
-3.02364016 -6.92594290 -1.87859046
-2.95880842 -6.98723888 -1.94625854
-3.01952744 -6.99162579 -1.88475955
-3.07989168 -6.99595070 -1.82217669
-3.01010656 -7.05611277 -1.88478994
-3.07004547 -7.06041813 -1.82180190
-3.12680364 -7.06405449 -1.75541008
-3.04701018 -7.11952591 -1.80939257
-3.10253239 -7.12232208 -1.74264634
-3.15662622 -7.12537098 -1.67483652
-3.06528449 -7.16949701 -1.71838510
-3.11491108 -7.16673183 -1.64921772
-3.16384888 -7.16642809 -1.57923996
-3.06642914 -7.19572401 -1.61731851
-3.11596441 -7.19748640 -1.55049121
-3.16152906 -7.19698000 -1.48052359
-3.06028008 -7.20587397 -1.51546180
-3.10537863 -7.20566130 -1.44833052
-3.14737749 -7.20639038 -1.37941647
-3.10537863 -7.20566130 -1.44833052
-3.04740500 -7.20637035 -1.41448641
-3.08863401 -7.20672464 -1.34802377
-3.14737749 -7.20639038 -1.37941647
-3.12795854 -7.20614767 -1.27858293
-3.18768454 -7.20707941 -1.30933738
-3.02888751 -7.20463800 -1.31596243
-3.06729007 -7.20501280 -1.24863875
-3.10388970 -7.20507383 -1.18102133
-3.00687528 -7.19175291 -1.21897817
-3.04219818 -7.19085121 -1.15214074
-3.07683253 -7.18933201 -1.08500957
-2.98502493 -7.15821266 -1.12648165
-3.01929426 -7.15625763 -1.06017089
-3.05315900 -7.15411997 -0.99342459
-2.97093391 -7.10979128 -1.03879666
-3.00423121 -7.10775566 -0.97204030
-3.03445888 -7.10411835 -0.90608412
-2.98908687 -7.05019712 -0.89053458
-2.95811963 -7.05767298 -0.95386714
-3.01822066 -7.04178905 -0.82683748
-2.94309688 -6.99400616 -0.87650466
-2.97560382 -6.98049259 -0.81637323
-3.00220513 -6.97129488 -0.75272667
-2.92509604 -6.92595291 -0.80161387
-2.95180869 -6.91598463 -0.73924369
-2.97387171 -6.90981579 -0.67434108
-2.89322710 -6.86971188 -0.72270155
-2.91243362 -6.86688519 -0.65775836
-2.93239975 -6.85941935 -0.59367627
-2.84580874 -6.83232164 -0.63981819
-2.86480260 -6.82445097 -0.57722521
-2.87522626 -6.82771254 -0.51320386
-2.79226184 -6.80035162 -0.55980164
-2.80406332 -6.79974365 -0.49835336
-2.80944228 -6.80018950 -0.43764454
-2.72939539 -6.77707291 -0.48563015
-2.73407531 -6.77682018 -0.42748415
-2.73829961 -6.77603960 -0.36842653
-2.65744209 -6.75696468 -0.41500404
-2.66210198 -6.75813007 -0.35849917
-2.66582990 -6.75397682 -0.30092049
-2.58503318 -6.74301624 -0.34722453
-2.58858895 -6.74220514 -0.29177314
-2.59158754 -6.73949051 -0.23528852
-2.51018310 -6.73178196 -0.28129879
-2.51237106 -6.73174095 -0.22782274
-2.51297879 -6.73080969 -0.17425552
-2.43241549 -6.72422504 -0.22010371
-2.43312454 -6.72351551 -0.16754949
-2.43097687 -6.72047663 -0.11835842
-2.35273314 -6.71650553 -0.16204892
-2.35038280 -6.71318293 -0.11319214
-2.34719205 -6.71078253 -0.06545978
-2.26892781 -6.71045828 -0.10926172
-2.26474428 -6.70917225 -0.06308937
-2.25871706 -6.70922232 -0.01758561
-2.18598390 -6.70301247 -0.06009091
-2.17898417 -6.70341825 -0.01690690
-2.16849947 -6.70260763 0.02418021
-2.10128736 -6.69972086 -0.01578247
-2.09076238 -6.69889021 0.02525398
-2.07908249 -6.69762325 0.06565225
-2.01472688 -6.69632721 0.02581113
-2.00469828 -6.69617510 0.06570290
-1.99327159 -6.69529390 0.10500713
-1.93462932 -6.69328833 0.06717175
-1.92257452 -6.69124174 0.10430817
-1.91056061 -6.69033003 0.14090770
-1.85814810 -6.68904400 0.10581753
-1.84573889 -6.68812180 0.14167757
-1.83350194 -6.68737221 0.17791243
-1.78487825 -6.68680477 0.14541553
-1.77518368 -6.68603516 0.18109325
-1.76165009 -6.68519402 0.21506912
-1.71835482 -6.68497181 0.18480080
-1.70803237 -6.68428230 0.21968837
-1.66796827 -6.68445444 0.19012916
-1.72785664 -6.68572044 0.14907245
-1.67550504 -6.68516397 0.15424885
-1.62523007 -6.68486977 0.16020527
-1.68449020 -6.68591356 0.11849011
-1.63224006 -6.68555880 0.12428444
-1.58251202 -6.68540668 0.13070683
-1.63751769 -6.68617630 0.08812049
-1.58724272 -6.68607521 0.09452263
-1.53753495 -6.68628788 0.10103619
-1.59118319 -6.68680477 0.05831816
-1.54070568 -6.68697739 0.06471017
-1.49353051 -6.68729115 0.07172009
-1.54275191 -6.68773699 0.02867791
-1.49425983 -6.68779707 0.03530290
-1.44619310 -6.68791914 0.04275855
-1.49534369 -6.68839550 -0.00048624
-1.44543338 -6.68848658 0.00652369
-1.39927125 -6.68925619 0.01383752
-1.44357967 -6.68972254 -0.02890076
-1.39736676 -6.68935776 -0.02200227
-1.35154903 -6.68921518 -0.01514429
-1.39454055 -6.69016838 -0.05741660
-1.34776032 -6.68984365 -0.05112589
-1.30302644 -6.69030952 -0.04393362
-1.34437704 -6.69033003 -0.08662126
-1.29923785 -6.69092798 -0.07993549
-1.25561821 -6.68941879 -0.07500220
-1.29537833 -6.69104958 -0.11633242
-1.25089777 -6.68999577 -0.11156122
-1.20767319 -6.69039106 -0.10637467
-1.24611640 -6.69050217 -0.14776568
-1.20291209 -6.69097805 -0.14327811
-1.16091335 -6.69016838 -0.14015809
-1.19816113 -6.69157553 -0.18018155
-1.15597999 -6.69029951 -0.17708178
-1.11428511 -6.69025898 -0.17394149
-1.15050983 -6.69054222 -0.21442080
-1.10873389 -6.69041109 -0.21151350
-1.06770754 -6.69088697 -0.20962934
-1.10316241 -6.69055319 -0.24911588
-1.06269324 -6.69139338 -0.24802187
-1.02229500 -6.69227505 -0.24703926
-1.05766881 -6.69173813 -0.28645492
-1.01729083 -6.69242668 -0.28553310
-0.97712547 -6.69282246 -0.28502658
-1.01241827 -6.69104958 -0.32471576
-0.97259742 -6.69117069 -0.32486773
-0.93263477 -6.69142437 -0.32477656
-0.96813011 -6.69120073 -0.36496207
-0.92827886 -6.69132280 -0.36508366
-0.88895440 -6.69097805 -0.36614731
-0.92423701 -6.69148445 -0.40590736
-0.88522655 -6.69040108 -0.40736610
-0.84537524 -6.69097805 -0.40845001
-0.88130623 -6.69045210 -0.44839242
-0.84186023 -6.69006634 -0.44972956
-0.80226219 -6.69029951 -0.45182645
-0.83905417 -6.68992472 -0.49267048
-0.79956758 -6.68907404 -0.49493957
-0.75963533 -6.68834448 -0.49695542
-0.79706556 -6.69112062 -0.53834647
-0.75719404 -6.69020844 -0.54044336
-0.71680588 -6.68970251 -0.54257065
-0.75518829 -6.69174814 -0.58488345
-0.71513444 -6.69116068 -0.58804399
-0.67480707 -6.69021845 -0.59119445
-0.71378714 -6.69101906 -0.63368958
-0.67319638 -6.69129229 -0.63670832
-0.63201815 -6.69065428 -0.63972700
-0.67212266 -6.69093800 -0.68276924
-0.63088357 -6.69167709 -0.68595004
-0.58905703 -6.69301462 -0.68887758
-0.63062018 -6.69517183 -0.73387486
-0.58833778 -6.69696474 -0.73659980
-0.54596412 -6.69809914 -0.73965907
-0.58807439 -6.69806910 -0.78566933
-0.54580206 -6.69848490 -0.78908312
-0.50281054 -6.69728947 -0.79202086
-0.54553866 -6.69783640 -0.83892250
-0.50235468 -6.69665098 -0.84148538
-0.45919093 -6.69545555 -0.84407872
-0.50267881 -6.69522285 -0.89258093
-0.45942390 -6.69423056 -0.89545774
-0.41479135 -6.69540501 -0.89736217
-0.45956573 -6.69460440 -0.94716108
-0.41531807 -6.69688463 -0.94947076
-0.36981434 -6.69946718 -0.95118272
-0.41586512 -6.70070314 -1.00176156
-0.37013850 -6.70469427 -1.00283539
-0.32437137 -6.70868492 -1.00390911
-0.37059435 -6.70978975 -1.05524778
-0.32453343 -6.71381140 -1.05597711
-0.27679095 -6.71880579 -1.05659497
-0.32459420 -6.71861315 -1.10939240
-0.27716574 -6.72295904 -1.10950375
-0.22923081 -6.72891521 -1.10988879
-0.27692264 -6.72277641 -1.16359782
-0.22854196 -6.72705126 -1.16328371
-0.18017142 -6.73218679 -1.16364837
-0.22827858 -6.72963428 -1.21782351
-0.17952310 -6.73398972 -1.21751952
-0.13039280 -6.73847771 -1.21788418
-0.17896596 -6.73854923 -1.27215040
-0.13002813 -6.74250889 -1.27187693
-0.08085731 -6.74659204 -1.27235293
-0.12979513 -6.75110960 -1.32615316
-0.08066484 -6.75325727 -1.32647729
-0.03146365 -6.75489855 -1.32711554
-0.08076614 -6.76521111 -1.38017619
-0.03164599 -6.76709509 -1.38067257
0.01751470 -6.76897955 -1.38121963
0.01628897 -6.78910780 -1.43292296
-0.03224365 -6.78609896 -1.43320656
0.06528758 -6.78702021 -1.43602264
0.01475935 -6.81370306 -1.48467684
0.06321093 -6.81449270 -1.48631787
0.11204745 -6.81298351 -1.48962033
0.10973782 -6.84433556 -1.53893292
0.06107351 -6.84473085 -1.53644097
0.15837175 -6.84150934 -1.54360282
0.10719521 -6.87388515 -1.59069705
0.15564679 -6.87257814 -1.59490097
0.20369317 -6.86706781 -1.60385585
0.15259767 -6.90345430 -1.64646244
0.20038067 -6.89815664 -1.65613651
0.24806239 -6.89036608 -1.66823173
0.19726065 -6.93129110 -1.70685720
0.24512470 -6.92585182 -1.71846604
0.29315081 -6.91922712 -1.73272908
0.24376728 -6.96578360 -1.76333177
0.29200613 -6.95989847 -1.77987397
0.34087306 -6.95553255 -1.79567671
0.29217833 -7.00335598 -1.82252109
0.34093383 -6.99823046 -1.84019780
0.39033765 -6.99375248 -1.85747957
0.34140995 -7.04301500 -1.87973511
0.39065167 -7.03834486 -1.89766514
0.44033909 -7.03395891 -1.91603065
0.39009449 -7.08218718 -1.93787086
0.43983260 -7.07915831 -1.95597315
0.49050266 -7.07622051 -1.97309279
0.43745205 -7.12119770 -1.99794161
0.48866910 -7.12082291 -2.01438260
0.54045343 -7.11929321 -2.03017497
0.48475894 -7.15586233 -2.06228685
0.53639138 -7.15432215 -2.07877851
0.58902663 -7.15514278 -2.09309220
0.53052610 -7.17247581 -2.13266993
0.58303982 -7.17196894 -2.14857411
0.63560414 -7.17112780 -2.16450834
0.57591844 -7.17648697 -2.20453191
0.62981993 -7.17644691 -2.21896720
0.68449134 -7.17701387 -2.23257160
0.62342799 -7.17782402 -2.27366877
0.67837286 -7.17808771 -2.28880310
0.73419899 -7.17915106 -2.29977369
0.67133254 -7.17701387 -2.34173203
0.72898209 -7.17702389 -2.35476923
0.78573006 -7.17735815 -2.36379504
0.72256982 -7.17570734 -2.40708017
0.78094876 -7.17542362 -2.41891217
0.84037113 -7.17447138 -2.42717814
0.77503288 -7.17015553 -2.47049403
0.83598477 -7.17047977 -2.48082638
0.89625806 -7.16992331 -2.48889995
0.83121359 -7.15963078 -2.53017950
0.89275306 -7.15804052 -2.53979278
0.95578164 -7.15843534 -2.54707623
0.95578164 -7.15843534 -2.54707623
0.89275306 -7.15804052 -2.53979278
0.88893414 -7.13502502 -2.58311868
0.95295542 -7.13434649 -2.59216475
0.88667518 -7.09897280 -2.61643600
0.95109153 -7.09796953 -2.62583661
0.88621926 -7.05264807 -2.63344431
0.95057487 -7.05057096 -2.64299703
0.88685745 -7.00243378 -2.64130521
0.95155752 -6.99957752 -2.65124273
1.01710844 -6.99653864 -2.65870857
0.95304662 -6.94495678 -2.64934850
1.01850641 -6.94159317 -2.65726995
1.08478665 -6.93835211 -2.66485739
1.02000558 -6.88492680 -2.65225577
1.08652902 -6.88085413 -2.65863752
1.15302217 -6.87667036 -2.66490793
1.08807898 -6.82007456 -2.64626884
1.15402496 -6.81574869 -2.65219498
1.22068012 -6.81187963 -2.65541625
1.15504801 -6.75415897 -2.63572359
1.22116637 -6.74999571 -2.64077854
1.28842926 -6.74664211 -2.64129519
1.22187543 -6.68798971 -2.62418556
1.28836846 -6.68407965 -2.62456036
1.35538828 -6.68063593 -2.62274718
1.28796327 -6.62049389 -2.60170722
1.35436511 -6.61681652 -2.60094762
1.42097974 -6.61372757 -2.59770608
1.35261261 -6.55409241 -2.57064867
1.41888273 -6.55111408 -2.56806564
1.48547709 -6.54804516 -2.56517863
1.41634023 -6.48990870 -2.53273225
1.48167849 -6.48756933 -2.52814341
1.54731035 -6.48530006 -2.52122474
1.47735286 -6.42976761 -2.48535466
1.54221511 -6.42790318 -2.47854733
1.60721898 -6.42625189 -2.47067618
1.53693736 -6.37280655 -2.43213177
1.60093832 -6.37105417 -2.42477751
1.66572952 -6.36973715 -2.41572118
1.59520483 -6.31489325 -2.37945604
1.65884125 -6.31271553 -2.37187862
1.72234595 -6.31100368 -2.36168814
1.65230739 -6.25039625 -2.33488417
1.71480930 -6.24869442 -2.32541251
1.77747309 -6.24733686 -2.31303382
1.76971364 -6.18256617 -2.28115487
1.70817411 -6.18316364 -2.29326010
1.83178985 -6.18093491 -2.26906967
1.82083952 -6.12271833 -2.22569323
1.76073849 -6.12274885 -2.23992586
1.88039351 -6.12409592 -2.20885754
1.80412495 -6.03524590 -2.16129708
1.86235201 -6.03540802 -2.14603138
1.92055881 -6.03542852 -2.12966132
1.95256948 -5.91656351 -2.03166413
1.89625692 -5.91616821 -2.04954362
2.00821328 -5.91733313 -2.01256919
1.98715317 -5.78685951 -1.95158672
2.04126740 -5.78746700 -1.93272483
2.09493589 -5.78787231 -1.91295123
2.07818079 -5.65116882 -1.86755896
2.13004637 -5.65223217 -1.84565794
2.18102026 -5.65351868 -1.82197404
2.22077012 -5.51349258 -1.76829541
2.17061687 -5.51230717 -1.79233372
2.27028537 -5.51473856 -1.74328458
2.26537251 -5.37197685 -1.72423005
2.31412792 -5.37336493 -1.69827712
2.36147523 -5.37490463 -1.67001462
2.36408901 -5.23149443 -1.66246772
2.41107154 -5.23308516 -1.63377976
2.45655513 -5.23470592 -1.60305548
2.46682692 -5.09157991 -1.60453463
2.51208735 -5.09336281 -1.57281756
2.55581856 -5.09526682 -1.53909492
2.57421446 -4.95366049 -1.54757380
2.61835074 -4.95619297 -1.51331425
2.66164613 -4.95868492 -1.47788978
2.68752837 -4.81859732 -1.49088657
2.73078322 -4.82133245 -1.45417559
2.77153587 -4.82366276 -1.41504347
2.80292869 -4.68472004 -1.43085647
2.84403610 -4.68719196 -1.39076209
2.88065577 -4.68892431 -1.34614968
2.91809630 -4.55187559 -1.36506236
2.95504022 -4.55374002 -1.31914318
2.98982644 -4.55586720 -1.27189720
3.03513765 -4.42174625 -1.29209626
3.07212234 -4.42466402 -1.24506295
3.10752630 -4.42757082 -1.19695568
3.16089106 -4.29608440 -1.21929228
3.19447184 -4.29867744 -1.16807520
3.22459841 -4.30031872 -1.11464977
3.28558064 -4.17186069 -1.13747263
3.31384301 -4.17290401 -1.08170712
3.34094095 -4.17347145 -1.02494907
3.40983462 -4.04847765 -1.04774153
3.43615222 -4.04904509 -0.98903835
3.46138597 -4.04938936 -0.93007189
3.53428125 -3.92535830 -0.95159799
3.55889702 -3.92662454 -0.89068657
3.58369517 -3.92851877 -0.82966369
3.65833259 -3.80393052 -0.84875870
3.68070960 -3.80505490 -0.78517294
3.70181060 -3.80589581 -0.72082746
3.77943635 -3.68222904 -0.73703545
3.79831839 -3.68209743 -0.67054236
3.81660295 -3.68267512 -0.60392779
3.89840221 -3.55938315 -0.61836296
3.91401291 -3.55938315 -0.54964131
3.92887330 -3.55889702 -0.48031190
4.01230383 -3.43521023 -0.49195123
4.02648544 -3.43534207 -0.42089972
4.03932047 -3.43529129 -0.34976715
4.12473631 -3.31161451 -0.35809398
4.13532209 -3.31134105 -0.28434789
4.14114666 -3.30986214 -0.20983192
4.21996784 -3.18290329 -0.21321534
4.22373629 -3.18173838 -0.13617702
4.22428322 -3.17960095 -0.05972623
4.30779457 -3.05433393 -0.05959453
4.30527210 -3.05115318 0.01873029
4.30160522 -3.04867125 0.09703486
4.38400221 -2.92214799 0.09981047
4.37742805 -2.91871405 0.17980674
4.36888838 -2.91515851 0.25920534
4.44734478 -2.78544450 0.26433110
4.43700218 -2.78191900 0.34576583
4.42692280 -2.78070354 0.42697769
4.50305939 -2.64957118 0.43540582
4.48831034 -2.64631939 0.51771170
4.47318649 -2.64374661 0.60018981
4.54671955 -2.51173282 0.61212289
4.52786779 -2.50817728 0.69529998
4.50901604 -2.50601983 0.77906460
4.55743742 -2.37042022 0.87797350
4.57814264 -2.37205100 0.79281092
4.53000498 -2.36634779 0.96160638
4.59447241 -2.23050499 0.97589976
4.56446743 -2.22636199 1.06016076
4.52915430 -2.22049665 1.14287186
4.59247684 -2.08436012 1.15838075
4.55629253 -2.07926488 1.24238849
4.51738310 -2.07359195 1.32580876
4.58147573 -1.93883336 1.34367800
4.53913212 -1.93317056 1.42754400
4.49199772 -1.92601883 1.50929260
4.54968786 -1.78934550 1.52700996
4.49885559 -1.78237605 1.60908294
4.44782114 -1.77668309 1.69196618
4.50409269 -1.64162040 1.71321881
4.44597721 -1.63478255 1.79402554
4.38497496 -1.62862349 1.87377870
4.43173456 -1.49228442 1.89431202
4.36899996 -1.48737144 1.97523010
4.30588007 -1.48377526 2.05618882
4.34616661 -1.34762871 2.07777572
4.27712107 -1.34420478 2.15740728
4.20387125 -1.34124684 2.23424292
4.24332762 -1.20668042 2.25990224
4.16549921 -1.20347941 2.33466125
4.08626270 -1.20112920 2.40830612
4.11962080 -1.06608677 2.43294215
4.03796291 -1.06497252 2.50737715
3.95283055 -1.06354415 2.57819557
3.98205566 -0.92953497 2.60411811
3.89375281 -0.92777234 2.67362976
3.80381918 -0.92609084 2.74137902
3.83107901 -0.79270965 2.76863885
3.73800492 -0.79099768 2.83527374
3.64390755 -0.78999484 2.89951777
3.66660905 -0.65624899 2.92635202
3.56986761 -0.65462816 2.98857021
3.47139454 -0.65260220 3.04712129
3.48989153 -0.51776236 3.07053161
3.39015198 -0.51521975 3.12881970
3.28827500 -0.51093477 3.18013787
3.30699515 -0.37635830 3.20773196
3.20803595 -0.37241772 3.26501679
3.10582447 -0.36620808 3.31319499
3.12310624 -0.22894715 3.33854008
3.01995277 -0.22020501 3.38248372
2.91824818 -0.21033843 3.42600203
2.93552995 -0.07100087 3.45147872
2.83302474 -0.05925012 3.49109721
2.73160362 -0.04713469 3.53023911
2.74777102 0.09597121 3.54809833
2.64767694 0.10946432 3.58770680
2.54662037 0.12335248 3.62067938
2.56480384 0.26948723 3.63713074
2.46360540 0.28421620 3.66614294
2.36398745 0.29813477 3.69512463
2.38035750 0.44738954 3.70693612
2.28060794 0.46238187 3.73473263
2.18008828 0.47789082 3.75341249
2.19460440 0.62860435 3.76509237
2.09386206 0.64475149 3.78126955
1.99438584 0.65926772 3.79532003
2.00515413 0.81145006 3.80206680
1.90428996 0.82577384 3.81135559
1.80394280 0.83888203 3.81760573
1.81137800 0.99120611 3.81972313
1.71030140 1.00424337 3.82438302
1.60973120 1.01574087 3.82614541
1.61290193 1.16705203 3.81807184
1.51084256 1.17751634 3.81510377
1.40938091 1.18702841 3.81061602
1.41207552 1.33801532 3.80140829
1.31067455 1.34786165 3.79653549
1.21083379 1.35666466 3.78592968
1.21487558 1.50959659 3.77825093
1.11573374 1.51724470 3.76322842
1.01757443 1.52377856 3.74511600
1.02252793 1.67578864 3.72636533
0.92367989 1.68123865 3.70620704
0.82544965 1.68545258 3.68406272
0.82989675 1.83685493 3.66137171
0.73220342 1.83860743 3.63423324
0.63776183 1.83741200 3.59689450
0.64087170 1.98627186 3.57115412
0.54632884 1.98238194 3.53213358
0.45155296 1.97680032 3.49306226
0.45481479 2.12305665 3.46089983
0.36177117 2.11292672 3.41557860
0.27016595 2.09933233 3.36683297
0.27078387 2.23999691 3.32844043
0.17819607 2.22304940 3.27916813
0.08082693 2.20773292 3.23710871
-0.02840440 2.33733559 3.18352127
0.07945938 2.34263349 3.19339800
-0.12947097 2.34989667 3.22074890
-0.22309205 2.36781645 3.27223945
-0.13294555 2.48406792 3.17343187
-0.22656661 2.50402403 3.22600651
-0.22656661 2.50402403 3.22600651
-0.32059288 2.52206564 3.27704096
-0.42001837 2.67478466 3.27565312
-0.32380408 2.65916419 3.22766757
-0.51920080 2.68614030 3.31800652
-0.52352631 2.82488036 3.26386189
-0.62463343 2.83451390 3.30293298
-0.72716886 2.84094644 3.33811450
-0.73201096 2.98269486 3.28118420
-0.83585310 2.98772955 3.31318450
-0.93817586 2.99100161 3.34652233
-0.94414240 3.13544440 3.28277469
-1.04824793 3.13581944 3.31007504
-1.15269792 3.13321590 3.33443737
-1.15954578 3.28088045 3.26489520
-1.26486695 3.27550149 3.28402066
-1.36968160 3.26733661 3.30040073
-1.37654972 3.41972136 3.22597599
-1.48012853 3.41187072 3.24003625
-1.58159018 3.40254116 3.25338769
-1.58518636 3.56190586 3.16479087
-1.68518925 3.55371046 3.17382693
-1.78318644 3.54140282 3.18148518
-1.78560758 3.66426873 3.10349464
-1.88273358 3.65068460 3.10817480
-1.97825897 3.63316989 3.11416149
-1.88530660 3.73357797 3.05187225
-1.98164248 3.71850467 3.05933809
-2.07693481 3.69685698 3.06457520
-1.98542094 3.80109406 2.99665403
-2.08197975 3.78243470 3.00352216
-2.17773795 3.75640082 3.00872874
-2.08684206 3.86643243 2.93701887
-1.98883462 3.88524365 2.93063712
-1.88812268 3.81561017 2.99184227
-1.88932812 3.89795685 2.92906690
-1.78877819 3.82523394 2.98810434
-1.78817034 3.90457153 2.92772961
-1.78602278 3.98268366 2.86522794
-1.68583751 3.90749907 2.92513657
-1.68108654 3.98106289 2.86550140
-1.67491746 4.05238819 2.80389094
-1.57448912 3.97554207 2.86586618
-1.56753993 4.04462814 2.80652475
-1.55857491 4.11096954 2.74883485
-1.45980787 4.03325272 2.80471158
-1.45105553 4.09897566 2.74791288
-1.44130039 4.16295671 2.69237041
-1.54929590 4.17530489 2.68830824
-1.43039048 4.22363472 2.63532853
-1.53758562 4.23649979 2.63074970
-1.41853833 4.28178120 2.57873249
-1.52511561 4.29666185 2.57288742
-1.40563285 4.33850861 2.52284551
-1.51055896 4.35410833 2.51798320
-1.39069116 4.39428425 2.46869063
-1.49373305 4.40695667 2.46178222
-1.37462497 4.44872236 2.41413093
-1.47603607 4.46124315 2.40729308
-1.35825503 4.50003099 2.35740304
-1.45752859 4.51200438 2.35102105
-1.55627537 4.52228642 2.34109378
-1.43786633 4.56211710 2.29450607
-1.53456688 4.57202435 2.28448749
-1.63059890 4.57926750 2.27048802
-1.51247346 4.62183332 2.22803330
-1.60364306 4.62919807 2.21346664
-1.69425559 4.63610649 2.19701529
-1.57885516 4.67867279 2.15702248
-1.66688442 4.68527746 2.14005470
-1.74756944 4.69345236 2.11882234
-1.63846982 4.73634243 2.08454251
-1.71800017 4.74353456 2.06287456
-1.79341769 4.75181103 2.03826904
-1.68828905 4.79691982 2.01051283
-1.76226819 4.80553007 1.98555255
-1.83439338 4.81503201 1.95997453
-1.73090577 4.86176157 1.93552065
-1.80204856 4.87092924 1.90970969
-1.86958480 4.88203144 1.87950206
-1.77160788 4.92941952 1.86233175
-1.83921528 4.94025850 1.83431232
-1.90608299 4.95233345 1.80286884
-1.81321168 5.00323629 1.79513979
-1.87951231 5.01347780 1.76485121
-1.94452631 5.02584648 1.72841382
-1.85569656 5.07727623 1.72839355
-1.92100453 5.08957434 1.69646382
-1.98632252 5.10232735 1.66119134
-1.90000510 5.15417290 1.66529405
-1.96459365 5.16664267 1.63266551
-2.02816939 5.17945719 1.59331048
-1.94598496 5.23361158 1.60680366
-2.00933766 5.24628448 1.57281756
-2.07009721 5.25796461 1.53112280
-1.99249160 5.31472254 1.55359101
-2.05247116 5.32559204 1.51347637
-2.11347365 5.33774757 1.47440517
-2.04009223 5.39610624 1.50244486
-2.09833932 5.40619612 1.46096265
-2.15707302 5.41692352 1.41925764
-2.08847308 5.47682190 1.45381081
-2.14712548 5.48683023 1.41305804
-2.20468378 5.49629164 1.37066424
-2.13960886 5.55738544 1.40874279
-2.19654942 5.56601620 1.36613619
-2.25190973 5.57405949 1.32111859
-2.19389534 5.63654089 1.36645007
-2.25113988 5.64444208 1.32428920
-2.30421066 5.65122938 1.27625299
-2.25118017 5.71482515 1.32644701
-2.30722952 5.72157192 1.28202713
-2.35913539 5.72736597 1.23260307
-2.31466484 5.79121542 1.29188359
-2.36749244 5.79695892 1.24295580
-2.41809177 5.80238867 1.19141459
-2.37780476 5.86641979 1.25476730
-2.43234444 5.87025928 1.20674121
-2.48260951 5.87479782 1.15383244
-2.44784331 5.93811989 1.22320247
-2.49980998 5.94176674 1.17052674
-2.54983163 5.94486666 1.11527789
-2.52275443 6.00602102 1.19151592
-2.57312059 6.00854349 1.13480842
-2.62281823 6.01014376 1.07751334
-2.60436130 6.06803656 1.16063988
-2.65378523 6.07047796 1.10205829
-2.69987655 6.07241249 1.04032636
-2.55172586 6.06638575 1.21732712
-2.46959233 6.00301218 1.24445510
-2.49692297 6.06448078 1.27204907
-2.41395879 6.00007486 1.29537833
-2.43988109 6.06165504 1.32281029
-2.35614681 5.99524260 1.34342480
-2.38009405 6.05761290 1.37207222
-2.29544830 5.99055290 1.38705456
-2.31815958 6.05402708 1.41687715
-2.23444557 5.98561907 1.43038034
-2.25423956 6.04909372 1.45888603
-2.17071795 5.97918653 1.46988714
-2.18851638 6.04305601 1.49830163
-2.10627127 5.97142744 1.50745916
-2.12190175 6.03658295 1.53550899
-2.03945422 5.96424532 1.53875053
-2.05332208 6.02970457 1.56829965
-1.97256613 5.95644522 1.56976843
-1.98449910 6.02236080 1.59858823
-1.90469539 5.94756126 1.59809184
-1.91444027 6.01489496 1.62445009
-1.83384645 5.94041967 1.61805797
-1.84396625 6.00606155 1.64887345
-1.76411176 5.93136311 1.64173162
-1.77269185 5.99784613 1.67071354
-1.69305015 5.92333031 1.65881073
-1.75852001 5.86223650 1.61955726
-1.68906903 5.85308886 1.64018190
-1.61872661 5.84377956 1.65629864
-1.68602991 5.78203773 1.62351799
-1.61643720 5.77289009 1.63873315
-1.54721916 5.76339865 1.65444469
-1.61781490 5.69993448 1.63320220
-1.54880965 5.69021940 1.64716136
-1.47839630 5.68040371 1.65637958
-1.55272996 5.61637211 1.64585459
-1.48292434 5.60637426 1.65653157
-1.41287577 5.59636545 1.66692495
-1.48964059 5.53255701 1.66304529
-1.41971350 5.52226496 1.67298257
-1.34846950 5.51199341 1.67962778
-1.42822266 5.44884300 1.68373048
-1.35705960 5.43813562 1.69026446
-1.28487360 5.42745876 1.69506598
-1.36738205 5.36561537 1.70878196
-1.29500353 5.35442162 1.71226656
-1.22116637 5.34247828 1.71128392
-1.30584264 5.28242779 1.73390424
-1.23088098 5.27197409 1.73811817
-1.15539241 5.26022291 1.73757124
-1.24266207 5.20125675 1.76522601
-1.16601884 5.19093418 1.76904488
-1.08917296 5.17915344 1.76702917
-1.17793155 5.12126064 1.79957676
-1.10018420 5.11056328 1.80136979
-1.02121115 5.09711075 1.79411674
-1.11254287 5.04295588 1.83765531
-1.03134108 5.03045559 1.83318794
-0.94926816 5.01796532 1.82559049
-1.04324377 4.96690035 1.87693930
-0.95956016 4.95412636 1.86925054
-0.87579560 4.93848562 1.85391378
-0.96993321 4.89053059 1.91291058
-0.88454789 4.87588263 1.89924538
-0.79852426 4.85962391 1.88097084
-0.89261127 4.81687546 1.94936848
-0.80537206 4.80085993 1.93195486
-0.71829498 4.78232241 1.90912211
-0.81279731 4.74331188 1.98423564
-0.72496051 4.72242403 1.95876884
-0.63461143 4.70489883 1.93608797
-0.73147404 4.66548347 2.01216412
-0.64101356 4.64565897 1.98717344
-0.55339950 4.62165117 1.95576036
-0.64671671 4.58857679 2.04060888
-0.55606371 4.56684780 2.01229572
-0.47108352 4.53801823 1.97507823
-0.56165546 4.50915766 2.06525517
-0.47350460 4.48254633 2.03096533
-0.38891941 4.45234919 1.99219799
-0.47746539 4.42609215 2.08526182
-0.39163429 4.39579344 2.04708195
-0.31082758 4.36136198 2.00485015
-0.39426807 4.34019041 2.10258389
-0.31142527 4.30645752 2.06167936
-0.23309033 4.26899672 2.01743174
-0.31396788 4.24982071 2.11559081
-0.23485291 4.21240044 2.07222438
-0.15743980 4.17399788 2.02849340
-0.15751070 4.22985458 1.97311306
-0.23531890 4.15720272 2.12714911
-0.15746005 4.11841488 2.08336759
-0.15743980 4.17399788 2.02849340
-0.15746005 4.11841488 2.08336759
-0.07186192 4.09016275 2.05132627
-0.15708524 4.06357145 2.13697529
-0.07096035 4.03478193 2.10401249
0.02397761 4.04193354 2.11110330
-0.07001826 3.97943187 2.15664768
0.02726984 3.98345375 2.15959525
0.11603865 4.01524115 2.19420958
0.02918441 3.92870116 2.21182537
0.11804439 3.96177554 2.24767542
0.20229524 4.00167751 2.29227757
0.12019193 3.90920091 2.30082726
0.20607372 3.94874835 2.34497356
0.29500461 3.98838687 2.38915014
0.21019661 3.89577889 2.39661622
0.30043426 3.93654180 2.44139051
0.39294103 3.97629166 2.48441243
0.30438495 3.88474703 2.49359012
0.39880627 3.92374778 2.53623748
0.49742138 3.96121836 2.57588601
0.40459049 3.87069702 2.58703899
0.50492769 3.90726614 2.62634325
0.60883069 3.94040108 2.66010642
0.51168436 3.85231113 2.67544317
0.61614448 3.88609457 2.71018887
0.72376519 3.91509676 2.73666859
0.62341779 3.82951903 2.75877237
0.73186916 3.85791326 2.78532267
0.84124225 3.88595271 2.80951309
0.73912221 3.79958487 2.83354139
0.84881949 3.82739162 2.85808611
0.95848638 3.85760903 2.88135481
0.96499997 3.79598856 2.93065715
0.85522163 3.76620674 2.90595055
1.07542658 3.82121229 2.94841504
0.96995348 3.73135948 2.97823763
1.07903290 3.75396967 2.99784946
1.18726134 3.77440166 3.01463461
1.08298349 3.64802027 3.06847525
1.19007754 3.66547441 3.08672953
1.29637110 3.67862296 3.09956408
1.29310918 3.51901531 3.19042993
1.39680970 3.52341175 3.20071197
1.49854469 3.52431345 3.21017313
1.59900355 3.52108192 3.21673751
1.59006894 3.34771776 3.30705619
1.68866384 3.33738542 3.31359005
1.78623557 3.32336545 3.31840181
1.88351357 3.30492902 3.32176471
1.98074090 3.28321028 3.32402396
