2.18624496 7.32905674 2.59591413
2.17032075 7.14263582 2.57687783
2.21135020 7.14595461 2.51551533
2.27395725 7.14554024 2.47707987
2.32810926 6.95917082 2.43651748
2.26280499 6.95870399 2.46748400
2.39061284 6.96103907 2.39590335
2.44103050 6.77726221 2.34486318
2.38412905 6.77446127 2.39481401
2.49736118 6.78058290 2.28707981
2.54954267 6.59805202 2.22857046
2.49424911 6.59431696 2.28614640
2.60525107 6.60178709 2.17099476
2.65608382 6.42055273 2.10880280
2.60369492 6.41598797 2.16980195
2.70727944 6.42522097 2.04661036
2.76127625 6.24580240 1.98400331
2.71314049 6.24051142 2.04878902
2.80707741 6.25093746 1.91807652
2.86314917 6.07364559 1.85484684
2.81755519 6.06783628 1.92020309
2.90469694 6.07935143 1.78731203
3.00480604 5.82010508 1.65291667
2.96471047 5.81356955 1.72097015
3.04085588 5.82669210 1.58289206
3.08987308 5.65344620 1.51291955
3.05579424 5.64633989 1.58392954
3.12161756 5.66044855 1.44081998
3.17063451 5.48948526 1.36892819
3.14189863 5.48201609 1.44284296
3.19568777 5.49669504 1.29356110
3.23567963 5.32666540 1.21762335
3.22266030 5.32049274 1.29646587
3.24434185 5.33257818 1.13748419
3.30098414 5.17027712 1.06066453
3.27349305 5.15964365 1.13660228
3.33781147 5.18334818 0.98861700
3.40954804 5.02981281 0.91143435
3.37479496 5.01601505 0.98576415
3.43506789 5.04117250 0.83357751
3.49414802 4.88960791 0.74669510
3.47179222 4.87778187 0.82667869
3.51505160 4.90070772 0.66681522
3.56521010 4.75386429 0.57417536
3.54928589 4.74317884 0.65654498
3.57978559 4.76423788 0.49165010
3.62672806 4.62211418 0.39465311
3.61614656 4.61314058 0.47837129
3.63398981 4.62973833 0.31098664
3.66765332 4.48133898 0.29454386
3.67092133 4.48844481 0.21015134
3.67486334 4.49581051 0.12586245
3.71853781 4.35570955 0.10729297
3.71781158 4.36177826 0.02284862
3.71921206 4.36810637 -0.06185519
3.77735853 4.23703146 -0.08218828
3.77497268 4.24190664 -0.16746269
3.77274203 4.24693871 -0.25263321
3.82264090 4.19740200 -0.26373342
3.81735039 4.20274496 -0.35035643
3.81034780 4.20725775 -0.43599391
3.86792374 4.15227509 -0.36166412
3.85863876 4.15611362 -0.44870201
3.84893918 4.15990019 -0.53573996
3.89479208 4.09350681 -0.45990595
3.88421059 4.09672260 -0.54704762
3.87015414 4.09910870 -0.63335937
3.91024947 4.02711296 -0.55757719
3.89499998 4.02877283 -0.64388895
3.87959433 4.03058815 -0.73020071
3.92217970 3.95636201 -0.65540415
3.90708566 3.95791841 -0.74218285
3.89079833 3.95890355 -0.82890940
3.93457675 3.88374424 -0.75437230
3.91823769 3.88524818 -0.84151387
3.89951229 3.88607812 -0.92808503
3.94967079 3.80915523 -0.85525954
3.93053079 3.81024432 -0.94250500
3.90962720 3.81060743 -1.02897227
3.96217155 3.73373604 -0.95625037
3.94178653 3.73544765 -1.04458511
3.91828942 3.73591447 -1.13167500
3.97394609 3.65914655 -1.05926442
3.95179749 3.66049528 -1.14754725
3.92726302 3.66096210 -1.23489630
3.98452759 3.58424664 -1.16295254
3.96118593 3.58538771 -1.25144303
3.93535495 3.58652878 -1.33972573
3.99982929 3.51121306 -1.26856017
3.97285676 3.51219916 -1.35767269
3.94297981 3.51292539 -1.44559264
4.01481962 3.43942523 -1.37634611
3.98598003 3.44067001 -1.46519935
3.95324969 3.44144821 -1.55410469
4.02861738 3.36841512 -1.48485816
3.99490142 3.36919284 -1.57412648
3.96020031 3.37002301 -1.66339493
4.03987265 3.29776788 -1.59477067
4.00403070 3.29849410 -1.68476522
3.96533561 3.29896116 -1.77408552
4.04832745 3.22701740 -1.70623934
4.00994396 3.22748423 -1.79581928
3.96912193 3.22717309 -1.88565791
4.05351496 3.15522957 -1.81807125
4.01150036 3.15471053 -1.90811777
3.96849990 3.15465856 -1.99863100
4.05439663 3.08240366 -1.93047357
4.01144791 3.08235192 -2.02124619
3.96595812 3.08281875 -2.11186314
4.05496693 3.01051188 -2.04474354
4.00963259 3.01123810 -2.13665724
3.96232748 3.01175666 -2.22711849
4.05273628 2.93919063 -2.16098428
4.00506830 2.93996835 -2.25243115
3.95542812 2.94038367 -2.34330726
4.04744577 2.86833596 -2.27800298
3.99785805 2.86895847 -2.36976099
3.94484663 2.86838770 -2.46120787
4.03873158 2.79654813 -2.39507365
3.98577261 2.79618502 -2.48729873
3.93104935 2.79504371 -2.57838249
4.02721643 2.72429299 -2.51344132
3.97062635 2.72221804 -2.60499191
3.91201329 2.71926141 -2.69488287
4.01144791 2.65022254 -2.63191223
3.95205688 2.64711022 -2.72268486
3.89276934 2.64451694 -2.81413174
3.99744320 2.57957554 -2.75323629
3.93602896 2.57641125 -2.84509826
3.87357759 2.57298779 -2.93555975
3.98136353 2.50955057 -2.87642765
3.91839314 2.50607586 -2.96849680
3.85334802 2.50187421 -3.05776548
3.89961624 2.43656969 -3.09184432
3.96492052 2.44071913 -3.00148654
3.83192587 2.43159008 -3.18147588
3.87705278 2.36483335 -3.21508718
3.94489884 2.36986494 -3.12550759
3.80775452 2.35995770 -3.30425215
3.85303688 2.29356384 -3.33879757
3.92228317 2.29786944 -3.24849176
3.78213048 2.28858447 -3.42827320
3.89821601 2.22509551 -3.37043834
3.82658315 2.22006416 -3.46058798
3.75339460 2.21404719 -3.54985642
3.87082839 2.15024710 -3.49129534
3.79805470 2.14480066 -3.58196425
3.72258377 2.13702011 -3.66941714
3.83980989 2.07114530 -3.60909247
3.76480603 2.06393528 -3.69820499
3.68819404 2.05573988 -3.78565788
3.80381227 1.98670065 -3.72144270
3.72906733 1.98006141 -3.81180048
3.65089941 1.97124350 -3.89842319
3.76729560 1.90137458 -3.83358550
3.68980193 1.89323103 -3.92176461
3.61028504 1.88498366 -4.00802517
3.64965439 1.80640054 -4.03079557
3.73093486 1.81610024 -3.94567704
3.56749201 1.79721940 -4.11596632
3.60981846 1.72060740 -4.14122725
3.69198060 1.72994399 -4.05621195
3.52454400 1.71095955 -4.22463417
3.56744051 1.63419211 -4.25015450
3.65359664 1.64508462 -4.16783619
3.48112893 1.62511468 -4.33299065
3.52376556 1.54793215 -4.35804415
3.61210060 1.55846167 -4.27717829
3.43387485 1.53771365 -4.43704224
3.47749782 1.46063483 -4.46354771
3.56832218 1.47152746 -4.38475704
3.38480592 1.44932711 -4.54031515
3.42723560 1.37105525 -4.56552410
3.52117252 1.38319290 -4.48984575
3.33309150 1.36016238 -4.64156532
3.37666249 1.28297973 -4.66900492
3.47272587 1.29491007 -4.59477854
3.27976918 1.27136099 -4.74250460
3.32173204 1.19324470 -4.76958084
3.42044067 1.20558965 -4.69753361
3.22048187 1.18152189 -4.84074640
3.26151085 1.10392439 -4.86906767
3.36348748 1.11575067 -4.79831696
3.15818572 1.09204614 -4.93867731
3.19869614 1.01408553 -4.96710205
3.30321431 1.02663803 -4.89853001
3.09340000 1.00189602 -5.03458500
3.13328791 0.92341667 -5.06321716
3.23915482 0.93617678 -4.99599314
3.02508736 0.91345757 -5.13075209
3.06398988 0.83611929 -5.16104412
3.17265725 0.84576714 -5.09283447
2.95283198 0.82657528 -5.22759295
2.99023080 0.74685109 -5.25472116
3.10092115 0.75572079 -5.18692732
2.87647963 0.73709947 -5.31966305
2.91242552 0.65836066 -5.34803581
3.02607274 0.66577816 -5.27941132
2.79514742 0.64866102 -5.41085005
2.82990026 0.56857365 -5.43740749
2.94665956 0.57671732 -5.37132549
2.71023583 0.56240112 -5.50343847
2.74281025 0.48086149 -5.52760983
2.86304522 0.48703399 -5.46048975
2.61930799 0.47432575 -5.59000874
2.65017033 0.39190423 -5.61241722
2.77377677 0.39724693 -5.54685354
2.52319264 0.38640609 -5.67424583
2.54990578 0.30222094 -5.69131136
2.67740250 0.30678552 -5.62782288
2.41872644 0.29817513 -5.75241470
2.44211960 0.21383442 -5.76631546
2.57335091 0.21668731 -5.70365667
2.30891752 0.21004784 -5.82617331
2.33080673 0.12627771 -5.84054184
2.46390533 0.12933813 -5.77840137
2.19646311 0.12171314 -5.89946604
2.21617389 0.03872114 -5.91264153
2.35124326 0.04307821 -5.85330153
2.08053374 0.03208179 -5.96757126
2.09982944 -0.05049531 -5.98193979
2.23567700 -0.04401165 -5.92550468
1.96242559 -0.05832769 -6.03536558
1.97964633 -0.13950448 -6.04931879
2.11663532 -0.13104957 -5.99397278
1.84213889 -0.15029326 -6.09895802
1.85707748 -0.23152177 -6.11156273
1.99577796 -0.22000656 -6.06130075
1.71920681 -0.24459295 -6.15783072
1.73352301 -0.32685903 -6.16944981
1.87217176 -0.31243908 -6.12318182
1.59528935 -0.34060445 -6.20907879
1.60820496 -0.42245552 -6.21976376
1.74607551 -0.40653127 -6.17852688
1.47106063 -0.43573418 -6.25638390
1.48345745 -0.51774079 -6.26509762
1.62023878 -0.50311339 -6.22930765
1.34693551 -0.52873713 -6.29876184
1.35922873 -0.60908383 -6.30503845
1.49518001 -0.59575325 -6.27080393
1.22130632 -0.61764240 -6.33304787
1.23349571 -0.69487691 -6.33839035
1.37095141 -0.68450296 -6.30970669
1.09422469 -0.70198309 -6.36385870
1.10599911 -0.77792090 -6.36811209
1.24563336 -0.76962179 -6.34103584
0.96470517 -0.78315967 -6.39026070
0.97585720 -0.85821569 -6.39363194
1.11761808 -0.85168004 -6.37013483
0.83347392 -0.86257279 -6.41489840
0.84322554 -0.93596888 -6.41069698
0.98685366 -0.93057448 -6.39399481
0.69985664 -0.93980724 -6.43004465
0.70898581 -1.01294422 -6.42127848
0.85261399 -1.00760150 -6.40333223
0.56432021 -1.01626384 -6.43445396
0.57168573 -1.08727396 -6.41749239
0.71635133 -1.08328009 -6.40462828
0.42593098 -1.09033430 -6.42589569
0.43257034 -1.16129243 -6.40623665
0.57759905 -1.15620911 -6.39487696
0.28650424 -1.16523457 -6.41619539
0.29397354 -1.23940861 -6.40976381
0.43988401 -1.23468852 -6.40021944
0.14754441 -1.24303949 -6.41495085
0.15511745 -1.31830299 -6.41137171
0.30165035 -1.31399786 -6.40618467
0.00842894 -1.32157075 -6.41520977
0.01574262 -1.39776802 -6.41598797
0.16248299 -1.39424086 -6.41313505
-0.13053094 -1.39932406 -6.41261625
-0.12352846 -1.47645497 -6.40914154
0.02269320 -1.47453558 -6.41334248
-0.26798657 -1.47593629 -6.40203476
-0.26056913 -1.55342996 -6.39513588
-0.11647414 -1.55368948 -6.40385008
-0.40310806 -1.55088830 -6.37807083
-0.39527565 -1.62900472 -6.37137985
-0.25315168 -1.63128710 -6.38725233
-0.53376865 -1.62361014 -6.33600426
-0.52572882 -1.70188212 -6.32848310
-0.38837692 -1.70784700 -6.36458492
-0.66520739 -1.69700634 -6.30166626
-0.65696007 -1.77533019 -6.29378223
-0.51825953 -1.78077650 -6.32059908
-0.79934329 -1.77387786 -6.30545282
-0.79042166 -1.85292768 -6.29414511
-0.64871269 -1.85412061 -6.28294134
-0.93384242 -1.84696257 -6.28854322
-0.92424637 -1.92756867 -6.27873993
-0.78139627 -1.93254828 -6.28320074
-1.06699288 -1.92004752 -6.26421642
-1.07721114 -1.83861148 -6.27495289
-1.05703378 -2.00080919 -6.25311565
-0.91449481 -2.00807095 -6.26712132
-1.06699288 -1.92004752 -6.26421642
-1.19952083 -1.99121320 -6.23361301
-1.05703378 -2.00080919 -6.25311565
-1.18914676 -2.07394576 -6.22396517
-1.04660773 -2.08245277 -6.24040794
-1.32997394 -2.06175661 -6.19621468
-1.31877005 -2.14557838 -6.18693018
-1.17747593 -2.15610838 -6.20876741
-1.45866358 -2.13354445 -6.15969801
-1.44548845 -2.21809268 -6.14424086
-1.30543935 -2.22934842 -6.16918993
-1.58315146 -2.20429540 -6.11093998
-1.56836867 -2.28956962 -6.09325266
-1.43163919 -2.30310774 -6.12759066
-1.70416451 -2.27629113 -6.05865526
-1.68870711 -2.36348462 -6.04247189
-1.55389690 -2.37614083 -6.07789898
-1.82123518 -2.35134721 -6.00522900
-1.80484426 -2.43999290 -5.98935652
-1.67304230 -2.45109320 -6.02623653
-1.93534923 -2.42915201 -5.95211411
-1.91698730 -2.51899076 -5.93338919
-1.78741586 -2.52889800 -5.97151375
-2.04339457 -2.50877237 -5.89137411
-2.02435827 -2.59840393 -5.87104130
-1.89940333 -2.60748100 -5.91414547
-2.15029860 -2.59197211 -5.83551073
-2.13064003 -2.68232989 -5.81460714
-2.00573683 -2.68803525 -5.85158968
-2.24885178 -2.67351198 -5.76460409
-2.22997117 -2.76454377 -5.74530840
-2.11092925 -2.77196121 -5.79308033
-2.34813118 -2.75842309 -5.69841766
-2.32810926 -2.84841776 -5.67543936
-2.21036410 -2.85386395 -5.72295284
-2.44424629 -2.84343839 -5.62662935
-2.42323899 -2.93115044 -5.59991646
-2.30699801 -2.93550754 -5.64836311
-2.53844213 -2.92777872 -5.55136633
-2.51722765 -3.01549101 -5.52444506
-2.40259480 -3.01912165 -5.57439613
-2.62874818 -3.01305318 -5.47195339
-2.60742950 -3.10118032 -5.44544697
-2.49601269 -3.10263276 -5.49726534
-2.71563053 -3.09946871 -5.38968706
-2.69524550 -3.18795896 -5.36473751
-2.58605933 -3.18863320 -5.41847515
-2.80147552 -3.18702507 -5.30674696
-2.78062344 -3.27468586 -5.28065634
-2.67351198 -3.27515244 -5.33709097
-2.88441539 -3.27437472 -5.22007227
-2.86361575 -3.36177564 -5.19418907
-2.75889015 -3.36099768 -5.25233603
-2.96590328 -3.36130881 -5.13241196
-2.94432545 -3.44699812 -5.10409069
-2.84214139 -3.44741273 -5.16566038
-3.04267120 -3.44627213 -5.04008293
-3.02088547 -3.53139067 -5.01098394
-2.92217684 -3.53206491 -5.07462835
-3.11399245 -3.52947140 -4.94401979
-3.09189558 -3.61412334 -4.91549110
-2.99847770 -3.61578298 -4.98126268
-3.18085289 -3.61116672 -4.84702253
-3.12991667 -3.77523184 -4.78368950
-3.04241180 -3.77922606 -4.85262489
-3.20984817 -3.76734734 -4.70852947
-3.16067553 -3.93099761 -4.64887905
-3.22857332 -3.91802955 -4.56526518
-3.31768608 -3.92399502 -4.50675535
-3.35648489 -4.09661818 -4.39590883
-3.26218486 -4.08458471 -4.44591141
-3.44902086 -4.10554028 -4.33931875
-3.47666788 -4.26789379 -4.20788002
-3.38760710 -4.26218796 -4.27230310
-3.56318712 -4.27110910 -4.13692236
-3.58035588 -4.42796421 -3.99635434
-3.49757147 -4.42625284 -4.07000923
-3.66251826 -4.42946815 -3.91865277
-3.67143965 -4.58414507 -3.77419424
-3.59363461 -4.58367825 -3.85350394
-3.74867415 -4.58596039 -3.69338083
-3.67641926 -4.73830318 -3.63092947
-3.75069714 -4.73949575 -3.54970121
-3.82373023 -4.74100018 -3.46676064
-3.74981546 -4.89412069 -3.40985942
-3.81709099 -4.89360142 -3.32515550
-3.88478136 -4.89546919 -3.24174833
-3.80759883 -5.04781103 -3.18775153
-3.87129521 -5.04921198 -3.10330725
-3.93488789 -5.05263519 -3.01907063
-3.85308886 -5.20394039 -2.96839356
-3.91164994 -5.20528889 -2.88285923
-3.97015929 -5.20783043 -2.79628849
-3.89479208 -5.36338902 -2.75453329
-3.94961882 -5.36437416 -2.66754723
-4.00366783 -5.36618996 -2.57957554
-3.93063450 -5.52314901 -2.54254055
-3.98167443 -5.52434206 -2.45482802
-4.03048420 -5.52444458 -2.36462593
-3.95656967 -5.68238926 -2.33199978
-3.99853253 -5.67995214 -2.24107146
-4.03193665 -5.67424583 -2.14609742
-3.96741009 -5.83831120 -2.12104416
-3.99168539 -5.83037424 -2.02549958
-4.02239227 -5.82638025 -1.93161488
-3.95848870 -5.99298811 -1.91081488
-4.00895834 -5.99905634 -1.82813406
-4.06544495 -6.00886011 -1.74892855
-4.00320053 -6.17546606 -1.73087776
-4.04920912 -6.18080807 -1.64627790
-4.08743763 -6.18386936 -1.55685389
-4.03525639 -6.35322475 -1.54596090
-4.06917953 -6.35509205 -1.45555162
-4.10107946 -6.35659599 -1.36467516
-4.05309963 -6.52745628 -1.35715401
-4.08333969 -6.52896023 -1.26658893
-4.10813379 -6.52958250 -1.17410457
-4.07094288 -6.70339918 -1.17218554
-4.09599590 -6.70417786 -1.08063483
-4.11394358 -6.70402241 -0.98737240
-4.10185766 -6.87980986 -0.89587373
-4.08245802 -6.87929058 -0.98835802
-4.11721087 -6.87996531 -0.80261141
-4.10595512 -7.05627108 -0.71334302
-4.09091282 -7.05611563 -0.80619037
-4.11954498 -7.05632353 -0.61992508
-4.11015654 -7.23299217 -0.53252411
-4.09760427 -7.23314810 -0.62589008
-4.11747026 -7.23242235 -0.43812051
-4.10730362 -7.40867662 -0.35165319
-4.10113144 -7.40955830 -0.44641972
-4.11264610 -7.40784645 -0.25657538
-4.09916019 -7.58264875 -0.17047116
-4.09770775 -7.58456802 -0.26622319
-4.09236526 -7.58083344 -0.07316288
-4.07753038 -7.75356054 0.01387504
-4.08961630 -7.75646544 -0.08426306
-4.05652285 -7.75138235 0.11190950
-4.03292227 -7.92234516 0.20231897
-4.06196928 -7.92359018 0.10335094
-4.01730919 -7.92301989 0.30455479
-4.03110647 -8.09076691 0.40414524
-4.02571201 -8.08822536 0.29879719
-4.04018354 -8.09450245 0.50887096
-4.05045414 -8.25286102 0.50757414
-4.04329634 -8.25996780 0.61209232
-4.02913570 -8.26780033 0.71375757
-4.04703045 -8.41998672 0.71588427
-4.02472687 -8.43295383 0.81422985
-4.00299311 -8.44457245 0.90967077
-4.02794266 -8.58602333 0.91148627
-4.00543118 -8.60319138 1.00568223
-3.97980738 -8.61548424 1.09489870
-4.00999546 -8.75361538 1.09629917
-3.98815823 -8.76777458 1.18717551
-3.96118569 -8.77327347 1.27281308
-3.99827266 -8.89994049 1.28059351
-3.96512794 -8.89999199 1.36794281
-3.92809272 -8.89086342 1.45482504
-3.95568752 -8.97608566 1.46509528
-3.91808200 -8.96949863 1.55405235
-3.87373281 -8.96130180 1.64555109
-3.90195036 -9.03495884 1.65763700
-3.84805703 -9.01669979 1.75292218
-3.79229712 -8.99278736 1.84104955
-3.81377125 -9.06187725 1.86013758
-3.75629926 -9.03677368 1.94961345
-3.69441819 -9.01057816 2.04147530
-3.70598531 -9.07754326 2.05345726
-3.64431167 -9.05793667 2.14039135
-3.58533549 -9.04595470 2.22296882
-3.52023840 -9.06976318 2.29330420
-3.59010768 -9.08179665 2.22654748
-3.43652010 -9.06960678 2.34154344
-3.43641663 -9.09777260 2.33822370
-3.51914907 -9.10498238 2.29045129
-3.37318707 -9.09995079 2.40601802
-3.36623645 -9.12588596 2.39891195
-3.43076301 -9.12547112 2.32919836
-3.33962703 -9.15405178 2.48781681
-3.32681513 -9.18118000 2.47811723
-3.35285378 -9.14616776 2.38713717
-3.28843117 -9.20509148 2.56733370
-3.26913571 -9.22832870 2.55104661
-3.30798626 -9.20021534 2.46349001
-3.21700621 -9.23984432 2.63704705
-3.19511724 -9.25753212 2.61785507
-3.24843955 -9.24772930 2.53398132
-3.12846398 -9.25177383 2.69576406
-3.10750866 -9.26474285 2.67631292
-3.17286515 -9.27164173 2.59907818
-3.03660250 -9.26344585 2.75593305
-3.08608627 -9.27791691 2.65727663
-3.01569867 -9.27864265 2.73793435
-2.95469952 -9.30400848 2.82211947
-2.93322515 -9.31889439 2.80412078
-2.99479485 -9.29384136 2.71993542
-2.87886548 -9.35369968 2.89131403
-2.85469413 -9.36568165 2.86994362
-2.91180301 -9.33341789 2.78461742
-2.79374671 -9.38840103 2.95008278
-2.76921225 -9.39981174 2.92767525
-2.83342719 -9.38062000 2.84815812
-2.69576406 -9.41003036 3.00345755
-2.67454958 -9.42491722 2.97954488
-2.74670076 -9.41293526 2.90485191
-2.60270929 -9.44960785 3.05522346
-2.58439922 -9.46895504 3.03141522
-2.65955901 -9.44742870 2.95718932
-2.52282953 -9.50796032 3.10367012
-2.50628304 -9.52616692 3.07923913
-2.57641125 -9.49639416 3.00994086
-2.43480587 -9.53156185 3.13577771
-2.49762058 -9.55236149 3.06181097
-2.42126775 -9.55640793 3.12198019
-2.33614922 -9.52985001 3.17120481
-2.41172361 -9.58301735 3.11165786
-2.32338905 -9.56123161 3.16975260
-2.23899651 -9.53508854 3.22452760
-2.23474312 -9.56973839 3.22592783
-2.31700897 -9.59178257 3.16824818
-2.14614916 -9.55370998 3.28474832
-2.13344121 -9.62700176 3.28993535
-2.22333169 -9.64178562 3.23012948
-2.04661059 -9.60921192 3.34439921
-1.96424103 -9.67892456 3.38713980
-2.05039716 -9.69842815 3.33412886
-1.88648760 -9.67705727 3.43112564
-1.81039429 -9.77089119 3.45939493
-1.89141524 -9.77426243 3.41639447
-1.72714281 -9.77089119 3.49891973
-1.72060728 -9.86171532 3.47894979
-1.63704467 -9.86181831 3.51951218
-1.55104399 -9.86197472 3.55587316
-1.54383409 -9.90274429 3.53865242
-1.45648491 -9.90248489 3.57319784
-1.36789083 -9.90289879 3.60722446
-1.44548845 -9.93645859 3.54689980
-1.35694647 -9.93645859 3.58097816
-1.26705563 -9.93739319 3.61448622
-1.34574246 -9.96784019 3.55286431
-1.25564408 -9.96830845 3.58569837
-1.16352296 -9.96804905 3.61578298
-1.24283230 -9.99263573 3.55234623
-1.15065920 -9.98998928 3.58160090
-1.05812299 -9.98947144 3.60992169
-1.13743234 -9.99517727 3.54197192
-1.04427373 -9.99336147 3.56899619
-0.95090753 -9.99315262 3.59399772
-1.03151357 -9.98900318 3.52817440
-0.93877006 -9.98786259 3.55286431
-0.84405524 -9.98667049 3.57387233
-0.92720300 -9.96846294 3.51349545
-0.83378500 -9.96711445 3.53481388
-0.73849976 -9.96571445 3.55431724
-0.82434464 -9.93905258 3.49814177
-0.73004490 -9.94019413 3.51712632
-0.63429278 -9.93754768 3.53476214
-0.72226447 -9.90673828 3.48320317
-0.62760156 -9.90518284 3.50016475
-0.53371680 -9.90082455 3.51857853
-0.62391883 -9.85896492 3.47843122
-0.53029335 -9.85585308 3.49414778
-0.53371680 -9.90082455 3.51857853
-0.62760156 -9.90518284 3.50016475
-0.43495622 -9.85258579 3.50825644
-0.43744603 -9.89828300 3.53097558
-0.52754432 -9.80683613 3.47526717
-0.43371138 -9.80481339 3.48807883
-0.33868542 -9.80294609 3.49959397
-0.43231085 -9.75257969 3.47417784
-0.33795923 -9.75180244 3.48372173
-0.24365950 -9.75081730 3.49129486
-0.33712932 -9.69951725 3.46873140
-0.24345200 -9.69801331 3.47905374
-0.14961909 -9.69770145 3.48501897
-0.24267398 -9.64650536 3.46167731
-0.14930788 -9.64718056 3.46551538
-0.05656423 -9.64764786 3.46976900
-0.14868544 -9.59769630 3.44201875
-0.05682357 -9.59780025 3.44642735
0.03586819 -9.59769630 3.45062876
-0.05625300 -9.50915337 3.38184929
0.03389714 -9.50640488 3.38563585
0.12461785 -9.50847912 3.38304210
0.20978847 -9.46449471 3.27245522
0.12103882 -9.46625710 3.27510071
0.29693016 -9.46490860 3.26799440
0.37276414 -9.44608021 3.13520718
0.28842348 -9.44587326 3.14241695
0.45855722 -9.44561386 3.12519622
0.44657525 -9.42958641 3.02721357
0.52889299 -9.42818546 3.01476479
0.61056244 -9.42836666 2.99995613
0.59284878 -9.41319466 2.89634562
0.67163938 -9.41283131 2.88119936
0.75084490 -9.41220856 2.86465311
0.64383703 -9.39405537 2.73523712
0.71863365 -9.39384651 2.71770501
0.79177046 -9.39327621 2.69877243
0.75328285 -9.37263203 2.54285097
0.82335931 -9.37382507 2.52194762
0.89421380 -9.37309837 2.49943590
0.84338111 -9.35624123 2.33542275
0.91024160 -9.35504818 2.31280756
0.97606468 -9.35375118 2.28998470
0.97653157 -9.33943558 2.09588695
0.91402811 -9.34016132 2.11912465
1.03862000 -9.33803463 2.06958866
0.96854347 -9.32688236 1.89670587
1.02596366 -9.32542992 1.87201571
1.08162034 -9.32408142 1.84556210
1.00796473 -9.31728745 1.67485774
1.06159842 -9.31614494 1.64798903
1.11372781 -9.31500435 1.62070549
1.03810132 -9.31018066 1.45435822
1.08768904 -9.30929852 1.42712641
1.13649869 -9.30846882 1.39932406
1.09702575 -9.30571938 1.31804371
1.14417553 -9.30499363 1.28920388
1.19174039 -9.30374908 1.25927496
1.10714018 -9.29876900 1.21124339
1.15221548 -9.29882145 1.18219602
1.19697928 -9.29809380 1.15159261
1.11549139 -9.29498291 1.10698450
1.15926969 -9.29477596 1.07710731
1.20268488 -9.29430866 1.04608905
1.12296069 -9.29171467 1.00282931
1.16430116 -9.29155922 0.97284853
1.20517468 -9.29005527 0.94125968
1.12788844 -9.28922462 0.90069729
1.16782820 -9.28901768 0.86993837
1.20699012 -9.28891373 0.83777887
1.13623929 -9.28834438 0.80385590
1.17405272 -9.28824043 0.77117777
1.21145093 -9.28839493 0.73875898
1.14277518 -9.28777218 0.70551026
1.17965460 -9.28818703 0.67340273
1.21653426 -9.28860378 0.64134699
1.15086663 -9.28751278 0.61131430
1.18950999 -9.28766918 0.58112592
1.22576702 -9.28839493 0.54865527
1.16513097 -9.28621674 0.52375764
1.20247746 -9.28663158 0.49222061
1.23671174 -9.28792763 0.45793456
1.17892838 -9.28497124 0.43563047
1.21342206 -9.28621674 0.40155181
1.15527570 -9.28398609 0.37872902
1.11699557 -9.28424549 0.40876174
1.14075220 -9.28481579 0.46633753
1.09744060 -9.28440094 0.35621738
1.05801940 -9.28450489 0.38484961
1.07918239 -9.28455639 0.43936509
1.03960550 -9.28486824 0.33370578
0.99873185 -9.28600883 0.36098936
1.01823509 -9.28481579 0.41317064
0.97922879 -9.28720188 0.30886003
0.93783653 -9.28880978 0.33562499
0.95739144 -9.28766918 0.38754690
0.91833335 -9.29000282 0.28349552
0.87694103 -9.29155922 0.31026047
0.89654791 -9.29057312 0.36192304
0.85857904 -9.29223442 0.25984281
0.81537122 -9.29254436 0.28416988
0.83513379 -9.29228497 0.33552122
0.79700935 -9.29197502 0.23546393
0.75359410 -9.29104042 0.25864980
0.77242291 -9.29135132 0.30818567
0.73523206 -9.29046917 0.20994383
0.69129813 -9.28958797 0.23297413
0.71002322 -9.29010677 0.28178382
0.67262489 -9.28901768 0.18411258
0.62806857 -9.28896618 0.20594986
0.64689738 -9.28943348 0.25470763
0.60939533 -9.28839493 0.15724389
0.56473523 -9.28844643 0.17871808
0.58387530 -9.28875828 0.22752778
0.54632133 -9.28839493 0.13167198
0.50093508 -9.28880978 0.15216066
0.51991951 -9.28875828 0.19967359
0.48262492 -9.28875828 0.10527014
0.43713489 -9.28922462 0.12570687
0.45611936 -9.28917313 0.17316799
0.41903225 -9.28907013 0.07985380
0.37307537 -9.28958797 0.09935685
0.39190423 -9.28969288 0.14500251
0.35471338 -9.28943348 0.05407438
0.32737789 -9.29010677 0.11808200
0.30865279 -9.28995132 0.07269566
0.29029077 -9.28979588 0.02736126
0.26290339 -9.29046917 0.09136888
0.24423018 -9.29036617 0.04629381
0.22586818 -9.29026222 0.00210050
0.19791022 -9.29083252 0.06434461
0.17928888 -9.29072857 0.02041063
0.16087501 -9.29067707 -0.02378256
0.13302080 -9.29124832 0.03820210
0.11424384 -9.29145527 -0.00542061
0.09557063 -9.29171467 -0.04925084
0.06776828 -9.29233742 0.01257826
0.04904319 -9.29254436 -0.03104446
0.03036997 -9.29275131 -0.07461523
0.00194519 -9.29327011 -0.01392735
-0.01698739 -9.29332352 -0.05692752
-0.03540125 -9.29332352 -0.09966849
-0.06429286 -9.29389381 -0.03929174
-0.08296609 -9.29389381 -0.08208452
-0.10117246 -9.29389381 -0.12477355
-0.13058278 -9.29441261 -0.06450056
-0.14878920 -9.29446316 -0.10718959
-0.16704744 -9.29441261 -0.14972304
-0.19640587 -9.29498291 -0.08950200
-0.21471602 -9.29493141 -0.13182794
-0.23312989 -9.29487896 -0.17415386
-0.26331824 -9.29534626 -0.11398464
-0.28173211 -9.29529381 -0.15631057
-0.30004224 -9.29518986 -0.19863652
-0.33048996 -9.29565716 -0.13867480
-0.34880009 -9.29560566 -0.18068947
-0.36669523 -9.29544926 -0.22270425
-0.39843971 -9.29596806 -0.16269059
-0.41617930 -9.29581165 -0.20460162
-0.43397069 -9.29565716 -0.24651253
-0.46602640 -9.29627895 -0.18655083
-0.48402533 -9.29617500 -0.22830616
-0.50160921 -9.29581165 -0.27026913
-0.53548044 -9.29710960 -0.20968488
-0.55259752 -9.29648685 -0.25175145
-0.56955898 -9.29576111 -0.29397362
-0.60358578 -9.29757595 -0.23328575
-0.62033981 -9.29799080 -0.27550793
-0.63709384 -9.29840660 -0.31778204
-0.67298788 -9.30058479 -0.25647163
-0.69010502 -9.30105114 -0.29859015
-0.70722210 -9.30146694 -0.34065676
-0.74430919 -9.30369663 -0.27893132
-0.75992209 -9.30312634 -0.32167229
-0.77491254 -9.30203724 -0.36467257
-0.81402254 -9.30400848 -0.30222106
-0.83020604 -9.30245209 -0.34485826
-0.84633756 -9.30089474 -0.38754728
-0.88622570 -9.30255604 -0.32488826
-0.90235716 -9.30099964 -0.36752546
-0.91589534 -9.30079269 -0.41125181
-0.97041076 -9.30167389 -0.39190435
-0.95728761 -9.30167389 -0.34797037
-0.98363763 -9.30167389 -0.43578640
-1.04359925 -9.30323029 -0.41540149
-1.03011322 -9.30317783 -0.37151945
-1.05703378 -9.30385208 -0.45943910
-1.11652875 -9.30769157 -0.43972856
-1.10330188 -9.30629063 -0.39537966
-1.12908125 -9.30914402 -0.48423302
-1.18779802 -9.31256676 -0.46514487
-1.17638671 -9.31137371 -0.41991410
-1.19848347 -9.31339741 -0.51073861
-1.26083112 -9.31536674 -0.49154675
-1.25133884 -9.31448650 -0.44569355
-1.27027142 -9.31624889 -0.53739977
-1.33723569 -9.31884289 -0.51815599
-1.32712102 -9.31780529 -0.47225109
-1.34615731 -9.31956959 -0.56457978
-1.40544486 -9.32174778 -0.49917161
-1.41265488 -9.32205772 -0.54621780
-1.41991651 -9.32237053 -0.59321207
-1.48081195 -9.32470417 -0.52806330
-1.48880005 -9.32511902 -0.57521296
-1.49554312 -9.32537842 -0.62272620
-1.56141806 -9.32823086 -0.55752552
-1.56603444 -9.32828331 -0.60545325
-1.57044339 -9.32833481 -0.65343314
-1.64119422 -9.33181000 -0.58818054
-1.64601815 -9.33144665 -0.63740528
-1.64933777 -9.33092976 -0.68626696
-1.72299325 -9.33372974 -0.62314093
-1.72600174 -9.33051300 -0.67319548
-1.72771347 -9.32900906 -0.72319835
-1.80344367 -9.33046150 -0.66385907
-1.80494797 -9.32963181 -0.71510649
-1.80515540 -9.32926846 -0.76609474
-1.88394594 -9.33175945 -0.70883042
-1.88441288 -9.33300400 -0.76168603
-1.88202679 -9.33305454 -0.81412661
-1.96424103 -9.33870983 -0.75862551
-1.96226990 -9.33850098 -0.81205171
-1.95952082 -9.33839703 -0.86428475
-2.04380941 -9.34415531 -0.80966568
-2.04178643 -9.34446716 -0.86480343
-2.03623652 -9.34462261 -0.91869664
-2.12472677 -9.35131359 -0.86661887
-2.11907291 -9.35141754 -0.92077130
-2.11321163 -9.35167599 -0.97611660
-2.27743220 -9.36827469 -0.99064016
-2.28433084 -9.36682224 -0.93285716
-2.26980734 -9.36858654 -1.04863095
-2.42012668 -9.38347340 -1.12939274
-2.43029332 -9.38279819 -1.06886029
-2.40996027 -9.38414764 -1.18997693
-2.54311061 -9.40043449 -1.28147566
-2.55747867 -9.39908504 -1.21855736
-2.52708268 -9.40178299 -1.34314919
-2.64249372 -9.41983414 -1.44595575
-2.66344929 -9.41884804 -1.37997699
-2.61935949 -9.41884804 -1.50980759
-2.72382569 -9.43451309 -1.61935699
-2.74919033 -9.43404675 -1.55291152
-2.69612718 -9.43596554 -1.68289804
-2.78254271 -9.45168209 -1.79747880
-2.81423545 -9.45111179 -1.73072219
-2.74996829 -9.45235538 -1.86205709
-2.82061529 -9.46719074 -1.97834969
-2.85702825 -9.46698284 -1.91263044
-2.78295803 -9.46703625 -2.04209805
-2.85770249 -9.48954678 -2.08118224
-2.81708813 -9.49201107 -2.14542317
-2.77484012 -9.49450016 -2.20844531
-2.83384204 -9.54276562 -2.24164224
-2.78606987 -9.54842091 -2.30212283
-2.73829770 -9.55256939 -2.36338091
-2.83296037 -9.64666176 -2.32525682
-2.78456593 -9.64826965 -2.38848615
-2.73554873 -9.64972210 -2.45026350
-2.75894165 -9.74889755 -2.46001506
-2.70686436 -9.74894905 -2.52065110
-2.65380144 -9.74936485 -2.58025002
-2.67994380 -9.84267807 -2.59186864
-2.62584329 -9.84252357 -2.65079331
-2.56935692 -9.84122562 -2.70800591
-2.52656388 -9.88178921 -2.77362132
-2.58263540 -9.88298130 -2.71739435
-2.46810627 -9.88189220 -2.82699561
-2.48263025 -9.92058754 -2.83965182
-2.54264379 -9.91892815 -2.78705597
-2.42266846 -9.92058754 -2.89152217
-2.44377947 -9.94600296 -2.91408563
-2.50477862 -9.94564056 -2.86091876
-2.38366199 -9.94600296 -2.96590400
-2.40664077 -9.96555805 -2.99069715
-2.46774340 -9.96478176 -2.93867183
-2.34548593 -9.96519566 -3.04137444
-2.36944985 -9.97567368 -3.06917667
-2.43107128 -9.97629642 -3.01849985
-2.30772424 -9.97463608 -3.11985397
-2.33205128 -9.97562122 -3.14900494
-2.39439917 -9.97857857 -3.09884691
-2.26876998 -9.97499943 -3.19532490
-2.26876998 -9.97499943 -3.19532490
-2.33205128 -9.97562122 -3.14900494
-2.29283762 -9.97131634 -3.22504640
-2.35622311 -9.97375488 -3.17825985
-2.20543647 -9.97422123 -3.24169636
-2.22898555 -9.96882629 -3.27089953
-2.25097823 -9.95518398 -3.29802775
-2.31576419 -9.95871067 -3.25305629
-2.18557048 -9.94989395 -3.34149432
-2.20543647 -9.92795277 -3.36566591
-2.27079296 -9.93127251 -3.32157636
-2.13831663 -9.92556667 -3.40711021
-2.15579700 -9.89584541 -3.42702866
-2.22276092 -9.89828300 -3.38511753
-2.08867741 -9.89345932 -3.46847272
-2.17208433 -9.86415291 -3.44445682
-2.10527539 -9.86212921 -3.48662710
-2.03416181 -9.86083221 -3.52615190
-2.11767244 -9.82473183 -3.49720860
-2.04661059 -9.82379818 -3.53725219
-1.97357750 -9.82317543 -3.57542849
-2.05724382 -9.78390980 -3.54352880
-1.98296595 -9.78505135 -3.58186078
-1.90796196 -9.78603649 -3.61791039
-1.91755784 -9.74817085 -3.62263036
-1.99136889 -9.74422932 -3.58243108
-1.84317625 -9.75081730 -3.65904331
-1.85272026 -9.71170616 -3.66127324
-1.92808735 -9.70880127 -3.62278581
-1.77226985 -9.71990204 -3.69773793
-1.78383696 -9.64956665 -3.70250988
-1.86454654 -9.63955498 -3.66511178
-1.70369768 -9.66440105 -3.74156833
-1.62672246 -9.60651398 -3.78259730
-1.70603180 -9.59639931 -3.74774075
-1.54284859 -9.61714840 -3.81838775
-1.45612180 -9.57912636 -3.86133623
-1.54222620 -9.56097126 -3.82554626
-1.36934316 -9.58312035 -3.89557052
-1.30030429 -9.52684116 -3.92835236
-1.38257003 -9.54183197 -3.90910864
-1.21534121 -9.50765038 -3.94297981
-1.13878083 -9.46999168 -3.96766973
-1.22638941 -9.48280430 -3.95184970
-1.04956448 -9.45479393 -3.98727703
-1.05796742 -9.43373489 -3.99827290
-1.14765072 -9.44773960 -3.98074079
-0.96864724 -9.40971947 -4.01175928
-0.97860622 -9.39171982 -4.03100300
-1.06605911 -9.42221928 -4.01948786
-0.88928598 -9.35909462 -4.03624201
-0.90168291 -9.34218502 -4.06108809
-0.98700917 -9.37999725 -4.05481148
-0.81257021 -9.31692410 -4.06591177
-0.82252926 -9.30151844 -4.09096479
-0.91200513 -9.32895756 -4.08733416
-0.72968185 -9.29742050 -4.10377693
-0.73699558 -9.28362274 -4.12888241
-0.83124346 -9.28772068 -4.11658907
-0.64689726 -9.28045845 -4.13827038
-0.55996305 -9.26801109 -4.14324951
-0.65338099 -9.27309418 -4.16690254
-0.74296057 -9.27579117 -4.15792894
-0.56712115 -9.25763607 -4.16965151
-0.56712115 -9.25763607 -4.16965151
-0.57308620 -9.24975204 -4.19849157
-0.65986472 -9.26577950 -4.19558716
-0.48833051 -9.22028923 -4.19823170
-0.57308620 -9.24975204 -4.19849157
-0.49548858 -9.21131611 -4.22546434
-0.57920682 -9.24119282 -4.22707176
-0.40782818 -9.17920876 -4.21721649
-0.41607553 -9.16717529 -4.24097347
-0.50259477 -9.20234299 -4.25274754
-0.32597727 -9.16681194 -4.24792337
-0.33443210 -9.14979839 -4.26763439
-0.42219624 -9.15420723 -4.26514482
-0.25548586 -9.18283939 -4.30150557
-0.34174576 -9.13273335 -4.28734493
-0.26383695 -9.16048431 -4.32064533
-0.17985934 -9.18211269 -4.34881115
-0.18753611 -9.15731907 -4.36670589
-0.26871273 -9.13460159 -4.33496141
-0.09894206 -9.17791271 -4.39305639
-0.10309167 -9.14772415 -4.40477848
-0.19127075 -9.12790966 -4.37739182
-0.00744329 -9.17013073 -4.42500830
-0.00936249 -9.13589668 -4.42910576
-0.10527020 -9.11400795 -4.41053677
0.09214719 -9.16063976 -4.44238472
0.09126541 -9.12547112 -4.43989468
-0.01034801 -9.10041809 -4.42703056
0.19490178 -9.15156174 -4.44975042
0.19391623 -9.11577129 -4.44108772
0.09064297 -9.09020042 -4.43159533
0.29895306 -9.13978767 -4.44746733
0.29589275 -9.06924438 -4.42241430
0.19495364 -9.04476166 -4.41380453
0.39999592 -9.08952522 -4.42116976
0.49528122 -9.03609848 -4.38283777
0.39247477 -9.01628494 -4.39051437
0.59767264 -9.04937744 -4.37344885
0.66287333 -8.96213245 -4.33496141
0.57438308 -8.96176910 -4.34725475
0.75297159 -8.96949863 -4.32168293
0.80157381 -8.85714817 -4.28070545
0.71904862 -8.86523914 -4.29471064
0.88140184 -8.85818577 -4.26452160
0.91418374 -8.71849823 -4.22126245
0.84073573 -8.72679710 -4.23858738
0.98363775 -8.71170425 -4.20160389
1.01294434 -8.55993176 -4.16617680
0.94468331 -8.56968403 -4.18101168
1.07918239 -8.54992104 -4.14859295
1.11435032 -8.38736057 -4.11876774
1.04878652 -8.39560795 -4.13718128
1.17830598 -8.38035774 -4.09765577
1.22405541 -8.20991325 -4.06949091
1.15818036 -8.21582603 -4.09003115
1.28889298 -8.20363712 -4.04812002
1.34200776 -8.03168774 -4.01808739
1.27675533 -8.03557777 -4.04189634
1.40663803 -8.02733040 -3.99360490
1.46732581 -7.85377312 -3.96310544
1.40113974 -7.85657406 -3.98836613
1.52956998 -7.85180187 -3.92913032
1.59005058 -7.67663717 -3.88934588
1.52998483 -7.67855644 -3.93001223
1.64617383 -7.67508078 -3.84235168
1.71370876 -7.49867153 -3.80785823
1.64970112 -7.49950123 -3.84603453
1.78637862 -7.49934530 -3.79115605
1.79685640 -7.32350636 -3.80241179
1.87056375 -7.32495880 -3.78513885
1.94406354 -7.32656574 -3.76423573
2.02887106 -7.15228271 -3.74737763
1.95827591 -7.15140152 -3.77990055
2.09816957 -7.15316439 -3.71283221
2.18323636 -6.97820663 -3.68809032
2.11398983 -6.97748041 -3.72621465
2.25211978 -6.97898531 -3.64892840
2.33915782 -6.80366373 -3.62138534
2.27157092 -6.80340433 -3.66620135
2.40653682 -6.80402708 -3.57682872
2.50057721 -6.63041830 -3.55338383
2.43293881 -6.63010645 -3.60219359
2.56790471 -6.63083267 -3.50467753
2.66754699 -6.45836592 -3.48278832
2.60011578 -6.45826149 -3.53522944
2.73482251 -6.45872879 -3.42972565
2.83913302 -6.28766108 -3.40731788
2.77258396 -6.28781700 -3.46349263
2.90640855 -6.28781700 -3.35052037
3.01585436 -6.11835718 -3.32500029
2.94977188 -6.11851263 -3.38615489
3.08017325 -6.11846066 -3.26291156
3.19340539 -5.95019436 -3.23500562
3.13079834 -5.95066118 -3.30248809
3.25310802 -5.94900179 -3.16524005
3.37126780 -5.78275824 -3.13671207
3.31177282 -5.78452110 -3.20917439
3.42951798 -5.78083897 -3.06238222
3.54269862 -5.61153460 -3.02347922
3.49160647 -5.61724138 -3.10496736
3.58569860 -5.60276937 -2.93830872
3.69877553 -5.43211651 -2.89338946
3.65395975 -5.43984509 -2.97975278
3.76257539 -5.43782234 -2.81869650
3.84344101 -5.28226328 -2.86429000
3.91688895 -5.29658031 -2.79680729
3.98048186 -5.30394602 -2.71962476
4.12551022 -5.15621948 -2.68035889
4.06585979 -5.15134382 -2.76335120
4.17981815 -5.15808725 -2.59358025
4.31763697 -5.00470734 -2.54347396
4.26784182 -5.00548506 -2.63502455
4.36514997 -5.00403261 -2.45161223
4.50571775 -4.85335112 -2.39834166
4.45877552 -4.85329866 -2.49233007
4.55105209 -4.85423231 -2.30305624
4.68964911 -4.70339394 -2.24236846
4.64447021 -4.70173454 -2.33993578
4.72927761 -4.70313549 -2.14282966
4.86393213 -4.55125904 -2.07420564
4.82425117 -4.55037737 -2.17607856
4.90169334 -4.55307484 -1.97139907
5.03043556 -4.40083647 -1.89385343
4.99464512 -4.39839888 -1.99961662
5.06529188 -4.40332556 -1.78777921
5.18718719 -4.24797535 -1.70385337
5.15513134 -4.24595213 -1.81283247
5.21695995 -4.25088024 -1.59347415
5.33003616 -4.09475088 -1.50150824
5.30332375 -4.09117174 -1.61489642
5.35436392 -4.09807062 -1.38682377
5.45882940 -3.94080091 -1.28469157
5.43533278 -3.93639183 -1.40233290
5.47662115 -3.94292736 -1.16585732
5.56931353 -3.78363442 -1.05428493
5.55613852 -3.78223395 -1.17628312
5.57984352 -3.78404951 -0.93156034
5.65593624 -3.62278557 -0.93819958
5.64488745 -3.61469364 -0.81360793
5.65972281 -3.62039995 -0.68969029
5.73431206 -3.55774069 -0.57111531
5.69924784 -3.54088306 -0.69197249
5.75267363 -3.56775141 -0.44501930
5.78898239 -3.48688602 -0.44564173
5.76782036 -3.47526717 -0.57168597
5.80179405 -3.49544477 -0.31757456
5.83587313 -3.41343832 -0.31783387
5.82466984 -3.40529442 -0.44657543
5.83981562 -3.41935158 -0.18810694
5.86803246 -3.33060169 -0.31809321
5.87368679 -3.33713722 -0.18815875
5.87316751 -3.34222031 -0.05770564
5.90610552 -3.25435233 -0.18836628
5.90636492 -3.25969529 -0.05770564
5.90594959 -3.26628304 0.07394062
5.93945742 -3.18422437 0.07430371
5.94090986 -3.17789602 -0.05770564
5.93027735 -3.18920350 0.20677979
5.97026825 -3.10102463 0.07445929
5.96228027 -3.10667872 0.20745403
5.95081711 -3.11264396 0.34076017
5.98214674 -3.03017020 0.34200498
5.99314308 -3.02384186 0.20807658
5.96891975 -3.03712106 0.47598535
5.99993753 -2.95480323 0.47759330
6.01363230 -2.94785261 0.34288675
5.98380661 -2.96222043 0.61266285
6.01394320 -2.87990260 0.61453021
6.02929688 -2.87217426 0.47883815
5.99490690 -2.88685322 0.74980730
6.02400589 -2.80432820 0.75183022
6.04376888 -2.79753327 0.61603445
6.00258350 -2.81070781 0.88726294
6.02965975 -2.72766399 0.88866347
6.05668449 -2.72309971 0.75369757
6.00517750 -2.73290324 1.02419984
6.03080130 -2.64954805 1.02565217
6.05683994 -2.64477587 0.89006388
6.00056124 -2.65281558 1.16030693
6.05663204 -2.56640005 1.02684522
6.02659988 -2.56982374 1.16222608
5.99371386 -2.57272840 1.29667318
6.04957819 -2.48610544 1.16315973
6.01632929 -2.48869848 1.29791820
5.98707438 -2.49300432 1.43272841
6.04050064 -2.40524030 1.29937041
6.00839281 -2.40840411 1.43376577
5.96975040 -2.41037488 1.56608629
6.02965975 -2.32390761 1.43418062
5.99169064 -2.32608652 1.56707180
5.94630432 -2.32733107 1.69788802
6.00911856 -2.24081206 1.56644940
5.96777916 -2.24299049 1.69871795
5.92441511 -2.24522090 1.83057165
5.98728180 -2.15854597 1.69866610
5.94371176 -2.16093206 1.83103836
5.89194536 -2.16186595 1.96081734
5.95968723 -2.07607245 1.83010495
5.91160345 -2.07762861 1.96133602
5.85693264 -2.07757688 2.08986998
5.92669821 -1.99276936 1.95977998
5.87373829 -1.99276936 2.08904004
5.81076860 -1.99105752 2.21337271
5.88919592 -1.90806556 2.08743215
5.82513571 -1.90609455 2.21093464
5.74795294 -1.90184104 2.32727909
5.83836317 -1.82107961 2.20766711
5.76252937 -1.81724119 2.32453012
5.72212219 -1.81910837 2.45804358
5.77689743 -1.73269296 2.32152176
5.73566103 -1.73435283 2.45441270
5.70049238 -1.73699808 2.59005284
5.74681234 -1.64959705 2.44964075
5.71465302 -1.65265739 2.58605909
5.66169357 -1.65234625 2.71671963
5.72653103 -1.56826496 2.58061266
5.67647648 -1.56867969 2.71267366
5.61475134 -1.56644952 2.84022212
5.68835497 -1.48594713 2.70619011
5.62751150 -1.48356104 2.83462024
5.56505966 -1.47977459 2.96253157
5.64099741 -1.40373313 2.82792902
5.57470751 -1.39979100 2.95324707
5.50364590 -1.39372218 3.07612705
5.58383703 -1.32115591 2.94282103
5.51723576 -1.31628001 3.06772399
5.44420242 -1.30938137 3.18904805
5.52008867 -1.23951256 3.05180001
5.45068645 -1.23261380 3.17530251
5.37008095 -1.22498870 3.29086924
5.45255375 -1.15677977 3.15761495
5.37485218 -1.15008867 3.27354455
5.29917336 -1.14049244 3.38973331
5.37843180 -1.07632947 3.25430083
5.30031538 -1.06761527 3.36851859
5.22629690 -1.05817473 3.48512220
5.31208944 -0.99660492 3.35233521
5.23200226 -0.98695707 3.46535993
5.15061760 -0.97917670 3.57791805
5.25529242 -0.92045993 3.46100283
5.16949844 -0.91081208 3.57008553
5.08526182 -0.90355003 3.67984271
5.20606756 -0.85095394 3.58025193
5.11835575 -0.84104687 3.68679309
5.03313255 -0.83352560 3.79307485
5.14631319 -0.77558678 3.69021678
5.06181622 -0.76874000 3.79712081
4.97597122 -0.76189303 3.90195012
5.07302094 -0.69809282 3.78633189
4.98727942 -0.69254285 3.89142060
4.90148640 -0.68548858 3.99526429
4.99059868 -0.61883557 3.87186551
4.90454674 -0.61307788 3.97373819
4.81771612 -0.60659420 4.07400322
4.90267992 -0.53911114 3.94738841
4.81600428 -0.53345728 4.04666758
4.73010731 -0.52676612 4.14278269
4.81273651 -0.46037257 4.01689434
4.72694349 -0.45430368 4.11134958
4.64197969 -0.44569317 4.20347071
4.71879959 -0.38033694 4.07457352
4.63611937 -0.37328270 4.16659117
4.55302334 -0.36493164 4.25710392
4.62958336 -0.29807112 4.12877798
4.54856205 -0.29044625 4.21892786
4.46614075 -0.28193942 4.30581045
4.54871798 -0.21061818 4.18261909
4.46479273 -0.20403065 4.26607847
4.38231945 -0.19567961 4.34912157
4.47278023 -0.11958630 4.23749781
4.38755751 -0.11310240 4.31561327
4.30285406 -0.10610007 4.39191484
4.40119934 -0.02564970 4.29050875
4.31577015 -0.01926968 4.36572075
4.23023605 -0.01268214 4.43859768
4.32531404 0.06906515 4.33682871
4.24289179 0.07601564 4.41152143
4.16114473 0.08384802 4.48424339
4.24367046 0.16300175 4.37453794
4.16332340 0.17109346 4.44736338
4.08157635 0.17970395 4.51759577
4.16083384 0.25704211 4.40737247
4.08100605 0.26565260 4.47812223
3.99848056 0.27509293 4.54560566
4.07592249 0.35030445 4.43641901
3.99588704 0.35958922 4.50525045
3.91367292 0.36975580 4.57013941
3.98795104 0.44169956 4.46313238
3.90827847 0.45212537 4.52879953
3.82679081 0.46255136 4.59306669
3.89997935 0.53319830 4.48605871
3.82004762 0.54367608 4.55120802
3.73938990 0.55477625 4.61339951
3.81143713 0.62365961 4.50857019
3.73166108 0.63408554 4.57055569
3.65146995 0.64518571 4.63062048
3.72460675 0.71375793 4.53040791
3.64477873 0.72350949 4.58974695
3.56396508 0.73331290 4.64747858
3.63834667 0.80370057 4.55120802
3.55815601 0.81257039 4.60857534
3.47879434 0.82237375 4.66682577
3.55411005 0.89255404 4.57501554
3.47412634 0.90080130 4.63222885
3.39600992 0.91076040 4.68923378
3.46919870 0.97985131 4.59918737
3.39180851 0.98794299 4.65728235
3.31192875 0.99613845 4.71148586
3.38262749 1.06336212 4.62164736
3.30435562 1.07103896 4.67766619
3.22649860 1.07830060 4.73145628
3.29470778 1.14355314 4.64120245
3.21721387 1.14951825 4.69462872
3.13982391 1.15641689 4.74795055
3.20196414 1.22016525 4.65525913
3.12711549 1.22628582 4.70858145
3.05205941 1.23235464 4.76112556
3.11103606 1.29599929 4.66905642
3.03696537 1.30103052 4.72144508
2.96201324 1.30621755 4.77129173
3.01969266 1.37198877 4.68622541
2.94546676 1.37577546 4.73534632
2.87196684 1.37992501 4.78042173
2.93047643 1.44777083 4.70443153
2.85889554 1.45207632 4.75075197
2.78741884 1.45669258 4.79551554
2.77569604 1.52962196 4.77077389
2.84426808 1.52495360 4.72424603
2.70779824 1.53449762 4.81631565
2.68715382 1.60172129 4.78768349
2.75489593 1.59840143 4.74234867
2.61910033 1.60530043 4.83275747
2.59103870 1.66759634 4.80417776
2.65831399 1.66604018 4.75770235
2.52910566 1.67029345 4.84743786
2.49590898 1.72916591 4.81937599
2.55753064 1.72693563 4.77544165
2.46136355 1.78611922 4.79229975
2.52407432 1.78622305 4.74665403
2.39818597 1.78404450 4.83913803
2.36006117 1.83679628 4.81652260
2.42360210 1.83923423 4.76921749
2.29942513 1.82880831 4.86429501
2.32183313 1.88960016 4.79375219
2.26083398 1.87870729 4.84173155
2.19988656 1.86771083 4.88960743
2.21653676 1.92523491 4.81839037
2.15574527 1.91423833 4.86668158
2.09733963 1.89572072 4.91673613
2.11134434 1.96035075 4.84489632
2.05184960 1.93944705 4.89484644
1.99489617 1.92009974 4.94863558
2.00739694 1.98716760 4.87658882
1.95065105 1.96533036 4.92985916
1.89297152 1.93908405 4.98017311
1.90894759 2.01745963 4.91720295
1.85126805 1.99027979 4.96637535
1.79353666 1.95962465 5.01321363
1.81345475 2.04583263 4.95833588
1.75551593 2.01569605 5.00522614
1.69866633 1.98364043 5.05035305
1.71884370 2.06969285 4.99485159
1.66240919 2.03883028 5.04112005
1.60597456 2.00760460 5.08718061
1.62438846 2.08520198 5.02172041
1.56956184 2.05631042 5.06845570
1.51447582 2.02658892 5.11404943
1.53273404 2.09318995 5.03961611
1.47837424 2.06652880 5.08531332
1.42313266 2.03903770 5.13126993
1.44258380 2.10231900 5.05470991
1.38884652 2.07353115 5.09682798
1.33583534 2.04412103 5.13697577
1.35928059 2.11331558 5.07032251
1.30621755 2.08385324 5.11026335
1.25113153 2.05408001 5.14299297
1.28121614 2.12815070 5.08920336
1.22597468 2.09868836 5.12053299
1.17031801 2.07285690 5.15170717
1.14899945 2.12441564 5.13194513
1.20387793 2.14915776 5.10206747
1.09240913 2.09687257 5.16301489
1.07166123 2.15216637 5.13972521
1.12757707 2.17488527 5.10953665
1.01574528 2.13100338 5.16970587
0.99842066 2.19034266 5.15704918
1.05537403 2.20901585 5.12535667
0.94483888 2.17125440 5.18526697
0.92772180 2.23012686 5.18360758
0.98695737 2.24568772 5.14926910
0.87388068 2.21295810 5.21089077
0.91439128 2.28246379 5.18044329
0.85401446 2.26674724 5.20751905
0.79840982 2.24874830 5.22899342
0.89442122 2.32593107 5.16296291
0.95739144 2.34377432 5.13152933
0.97523475 2.29818034 5.14719439
0.94151926 2.38335085 5.09952593
0.87761533 2.36581898 5.13126993
0.87071663 2.40824890 5.09516859
0.92839611 2.42168307 5.06254244
0.87092412 2.45156002 5.05569553
0.92538768 2.46343851 5.01964569
0.82865006 2.44875932 5.08354998
0.78679091 2.44611406 5.10792875
0.87268764 2.49793196 5.01082802
0.83430380 2.49720573 5.04303980
0.80064017 2.49730968 5.06887054
0.76868826 2.49720573 5.08448315
0.74529481 2.44512820 5.12063694
0.83482254 2.54451132 5.00211382
0.80281878 2.54523730 5.02472878
0.77418649 2.54679370 5.04220963
0.74462056 2.54585981 5.05419159
0.73849988 2.49637604 5.09267902
0.79721671 2.59243917 4.98613739
0.77091873 2.59648514 5.00398159
0.74047095 2.59280229 5.01435471
0.71463972 2.58771896 5.02026844
0.71567708 2.54145074 5.05751085
0.73108244 2.63782549 4.97457123
0.75950724 2.63777351 4.96186304
0.70333201 2.62641406 4.98281813
0.67547780 2.61463976 4.99018383
0.68860090 2.57630754 5.02177286
0.70898581 2.66899943 4.94313765
0.68341386 2.65976667 4.95076275
0.65887934 2.65022254 4.95683098
0.63512290 2.63128996 4.96009922
0.65208441 2.60068655 4.98743439
0.66038352 2.69114804 4.92072964
0.63304812 2.67574239 4.93447495
0.61152196 2.65649867 4.93763924
0.61385614 2.61204624 4.95610523
0.59051466 2.63709927 4.93483829
0.60706115 2.70110703 4.91237879
0.58527577 2.68191504 4.91606188
0.56613564 2.65997386 4.91429806
0.55778462 2.63326073 4.89889240
0.58200794 2.61759591 4.91777325
0.55747342 2.70453048 4.89645481
0.53734785 2.67211175 4.89769936
0.53122717 2.64529490 4.88182735
0.54953730 2.60644388 4.88276100
0.52894485 2.61692190 4.86154556
0.50368416 2.65577269 4.86455441
0.50855994 2.68424916 4.88110113
0.50347668 2.62470245 4.84359884
0.50316548 2.59632945 4.82113886
0.52749258 2.58792639 4.83986473
0.47774914 2.63237906 4.82580805
0.47790474 2.66412354 4.84639978
0.47956461 2.59892321 4.80428171
0.50596642 2.56448126 4.79961252
0.45591184 2.60156846 4.78737211
0.45300710 2.63554335 4.80998707
0.42702022 2.63269019 4.80033875
0.42805761 2.59456611 4.77985048
0.40264133 2.62402821 4.79919815
0.40269321 2.58180571 4.78223705
0.41047370 2.53859806 4.77118826
0.38246387 2.56567430 4.79312992
0.38920698 2.52023625 4.78555632
0.40730959 2.48091865 4.78078461
0.42484170 2.50130367 4.76610470
0.45627496 2.48138547 4.76148844
0.43713489 2.45830345 4.78047323
0.48573714 2.46753597 4.76615715
0.46659708 2.44118619 4.78337765
0.50264674 2.50130367 4.76262951
0.51452500 2.45996308 4.77642775
0.52676636 2.49974751 4.78166580
0.52842623 2.53185511 4.79982090
0.50741881 2.53496742 4.77979898
0.52744061 2.56079841 4.81916809
0.54839611 2.55078745 4.84064245
0.54932976 2.52495623 4.82067251
0.54808497 2.57744884 4.86107922
0.56867737 2.56697083 4.88229418
0.56929976 2.54072452 4.86206484
0.57407188 2.59466958 4.90075970
