1.84136236 -2.98057818 -1.59309793
1.84421039 -3.11594462 -1.59006655
2.07682657 -3.22838640 -1.22738922
1.96925867 -3.24046278 -1.41198719
1.84671187 -3.25175166 -1.58604920
1.70899773 -3.12589073 -1.75223541
1.71015692 -3.26138568 -1.74921381
1.97266173 -3.37713647 -1.40613711
1.84902024 -3.38811302 -1.58108592
1.71135044 -3.39759898 -1.74484003
1.56070817 -3.26854348 -1.90068853
1.56099546 -3.40499926 -1.89660692
1.85103106 -3.52507448 -1.57517159
1.71279693 -3.53453541 -1.73960423
1.56180775 -3.54221320 -1.89183187
1.39858389 -3.41023040 -2.03410292
1.39859378 -3.54798365 -2.02989745
1.71420872 -3.67214537 -1.73348176
1.56274879 -3.68006587 -1.88625431
1.39893532 -3.68623281 -2.02504325
1.22458112 -3.55235767 -2.15337563
1.22398186 -3.69098806 -2.14923501
1.56290233 -3.81842399 -1.87900257
1.39847469 -3.82485843 -2.01822734
1.22303081 -3.82994556 -2.14324117
1.03922534 -3.69485664 -2.25914049
1.03769970 -3.83414125 -2.25376129
1.39666200 -3.96376133 -2.00882101
1.22084129 -3.96913075 -2.13420105
1.03520334 -3.97366810 -2.24493909
0.84305632 -3.83778191 -2.34875727
0.84029239 -3.97764063 -2.33968759
1.21671510 -4.10834074 -2.12120366
1.03107202 -4.11324978 -2.23179269
0.83617103 -4.11751461 -2.32585287
0.63712913 -3.98116755 -2.41780233
0.63322097 -4.12130356 -2.40316010
1.02422655 -4.25237513 -2.21281648
0.82973659 -4.25691748 -2.30612826
0.62737596 -4.26090527 -2.38265824
0.42365786 -4.12469196 -2.46404243
0.41856086 -4.26447153 -2.44292617
0.82024097 -4.39516687 -2.27969694
0.61892051 -4.39933777 -2.35559273
0.41120505 -4.40300274 -2.41521192
0.20414355 -4.26729488 -2.48564911
0.19792707 -4.40579176 -2.45715714
0.60826081 -4.53647232 -2.32331157
0.40199676 -4.54021215 -2.38235116
0.19025919 -4.54303026 -2.42392969
-0.01987835 -4.40740156 -2.47980905
-0.02589177 -4.54466009 -2.44656682
0.39220887 -4.67694998 -2.34837079
0.18208613 -4.67979336 -2.38954830
-0.03227668 -4.68150234 -2.41231894
-0.24494545 -4.54531908 -2.45086646
-0.24937873 -4.68219090 -2.41683173
0.17413098 -4.81665564 -2.35620713
-0.03848327 -4.81837416 -2.37877965
-0.25363863 -4.81910753 -2.38330722
-0.46772408 -4.68210649 -2.40266967
-0.46982428 -4.81911278 -2.36940789
-0.04427875 -4.95526600 -2.34579015
-0.25746763 -4.95602417 -2.35007477
-0.47145891 -4.95611334 -2.33619070
-0.68541062 -4.81852818 -2.33621526
-0.68463790 -4.95563793 -2.30331993
-0.26079628 -5.09296513 -2.31712985
-0.47249916 -5.09315348 -2.30314636
-0.68317169 -5.09265327 -2.26994395
-0.89096135 -5.09146452 -2.21663046
-0.89518660 -4.95460701 -2.25046706
-0.68087327 -5.22916842 -2.23460650
-0.47284588 -5.22970867 -2.26818037
-0.88594359 -5.22794056 -2.18138218
-1.08634770 -5.22602320 -2.10887456
-1.09416413 -5.08961678 -2.14340949
-0.88026208 -5.36407423 -2.14494991
-0.67794091 -5.36529255 -2.19776797
-1.07794201 -5.36219215 -2.07338357
-1.26957858 -5.35996771 -1.98395991
-1.28089201 -5.22376919 -2.01821756
-1.06891179 -5.49815226 -2.03707504
-0.87401581 -5.49989605 -2.10753727
-1.25765574 -5.49612188 -1.94919693
-1.43869209 -5.49395704 -1.84432876
-1.45362175 -5.35759497 -1.87750661
-1.24504936 -5.63219166 -1.91372585
-1.05922794 -5.63392496 -2.00002384
-1.42272735 -5.63027906 -1.81027913
-1.58995366 -5.62801552 -1.68979788
-1.60913837 -5.49138641 -1.72180176
-1.40566289 -5.76654720 -1.77561545
-1.23153150 -5.76818609 -1.87768984
-1.56992710 -5.76461983 -1.65725422
-1.72278881 -5.76235151 -1.52380991
-1.74552476 -5.62545967 -1.55391657
-1.54920220 -5.90115499 -1.62422991
-1.38824677 -5.90296841 -1.74096644
-1.69916606 -5.89901066 -1.49285126
-1.86334598 -5.76003838 -1.37674880
-1.83706331 -5.89668703 -1.34810829
-1.67466652 -6.03527784 -1.46082258
-1.52795708 -6.03757191 -1.59073520
-1.80961680 -6.03280163 -1.31802630
-1.96005619 -5.89392805 -1.18964446
-1.93044472 -6.02992821 -1.16227210
-1.65070200 -6.17157555 -1.42895257
-1.78266525 -6.16884661 -1.28774631
-1.90163088 -6.16593361 -1.13482034
-2.03607559 -6.02675343 -0.99500608
-2.00557280 -6.16262484 -0.97055614
-1.75744271 -6.30520296 -1.25834298
-1.87482798 -6.30233002 -1.10810685
-1.97719967 -6.29891253 -0.94657683
-2.09409976 -6.15923166 -0.79655349
-2.06375027 -6.29526138 -0.77520943
-1.85013533 -6.43911314 -1.08222044
-1.95135784 -6.43575478 -0.92341971
-2.03639746 -6.43200016 -0.75465780
-2.13323665 -6.29136848 -0.59538162
-2.10484862 -6.42796803 -0.57773274
-1.92725468 -6.57294369 -0.90084213
-2.01125932 -6.56924820 -0.73473525
-2.07894754 -6.56518173 -0.56064349
-2.15695310 -6.42386627 -0.39450186
-2.13045263 -6.56105518 -0.38045406
-1.98821616 -6.70700264 -0.71560532
-2.05520082 -6.70298529 -0.54427254
-2.10622048 -6.69889832 -0.36690655
-2.16496301 -6.55707788 -0.19559364
-2.14065170 -6.69501495 -0.18490422
-2.03694749 -6.84196234 -0.52981859
-2.08759594 -6.83794498 -0.35471132
-2.12180901 -6.83408165 -0.17506184
-2.15911293 -6.69154739 0.00014445
-2.13940358 -6.83051491 0.00762406
-2.07577705 -6.97811604 -0.34426957
-2.10893035 -6.97416782 -0.16620024
-2.12567759 -6.97047281 0.01470246
-2.13993835 -6.82723045 0.19178113
-2.12537551 -6.96706963 0.19707136
-2.09658623 -7.11458683 -0.15756151
-2.11271977 -7.11075783 0.02165206
-2.11129284 -7.10715628 0.20223278
-2.10635924 -6.96357298 0.37891516
-2.09196997 -7.10349131 0.38250142
-2.09830022 -7.25116110 0.02854223
-2.09614539 -7.24734259 0.20734468
-2.07648540 -7.24342442 0.38586971
-2.04010773 -7.23929787 0.56244808
-2.05628061 -7.09964705 0.56088281
-2.07885337 -7.38749361 0.21227331
-2.05944586 -7.38335752 0.38898048
-2.02349901 -7.37903357 0.56384993
-1.97133493 -7.37446117 0.73531640
-1.98768115 -7.23490953 0.73559380
-2.00705862 -7.51896143 0.56520712
-2.04226732 -7.52345467 0.39197230
-1.95543957 -7.51422596 0.73504394
-1.88882136 -7.50938654 0.90018004
-1.90495944 -7.36982012 0.90246850
-1.93870211 -7.65408516 0.73424155
-1.99014771 -7.65901852 0.56627208
-1.87272298 -7.64914179 0.89770830
-1.79147243 -7.64410877 1.05475545
-1.80689228 -7.50441837 1.05884206
-1.85581708 -7.78897095 0.89465702
-1.92083013 -7.79397821 0.73280007
-1.77562642 -7.78391314 1.05021811
-1.67958534 -7.77868795 1.19715548
-1.69431674 -7.63890791 1.20307970
-1.75792825 -7.92360878 1.04435337
-1.83698428 -7.92869568 0.89040697
-1.66319954 -7.91836834 1.18985915
-1.55479455 -7.91310263 1.32604754
-1.56978345 -7.77342701 1.33466649
-1.64592719 -8.05801964 1.18165636
-1.73910522 -8.06324005 1.03750277
-1.53898835 -8.05276775 1.31640339
-1.42009223 -8.04770565 1.44117427
-1.43427360 -7.90800524 1.45200729
-1.52396464 -8.19265175 1.30711079
-1.62922430 -8.19783783 1.17346346
-1.40671325 -8.18765926 1.43092573
-1.40671325 -8.18765926 1.43092573
-1.29069483 -8.04299545 1.55554307
-1.42009223 -8.04770565 1.44117427
-1.27896023 -8.18301773 1.54431367
-1.39521623 -8.32798290 1.42221260
-1.51109087 -8.33292675 1.29922497
-1.39521623 -8.32798290 1.42221260
-1.26898420 -8.32342625 1.53496659
-1.14119673 -8.17868805 1.64573431
-1.13271141 -8.31920052 1.63576329
-1.38572061 -8.46864033 1.41507483
-1.26065755 -8.46414185 1.52718985
-1.12563312 -8.45999146 1.62741661
-0.98708683 -8.31529808 1.72270000
-0.98114276 -8.45618153 1.71367013
-1.25329685 -8.60504150 1.52006197
-1.11910963 -8.60093021 1.61941695
-0.97570890 -8.59720516 1.70499170
-0.82873195 -8.45259094 1.78474629
-0.82446218 -8.59372807 1.77571118
-1.11359155 -8.74208164 1.61240780
-0.97114682 -8.73842621 1.69741797
-0.82090068 -8.73501873 1.76769173
-0.66755855 -8.59053326 1.83247697
-0.66498780 -8.73189259 1.82402158
-0.96693641 -8.87982082 1.69014132
-0.81776017 -8.87647247 1.76015246
-0.66277367 -8.87335587 1.81602681
-0.50340331 -8.87046814 1.85752630
-0.50466150 -8.72900963 1.86581826
-0.66094583 -9.01497936 1.80878997
-0.81497639 -9.01813889 1.75315857
-0.50245726 -9.01200676 1.85002697
-0.34101146 -9.00930214 1.87713194
-0.34112042 -8.86788368 1.88523054
-0.50174892 -9.15363979 1.84353292
-0.65943509 -9.15679073 1.80249906
-0.34103620 -9.15071201 1.87014747
-0.17854032 -9.14807129 1.88148582
-0.17782210 -9.00690460 1.88942122
-0.34078363 -9.29199219 1.86258864
-0.50076318 -9.29529667 1.83658338
-0.17902079 -9.28894043 1.87252021
-0.01714905 -9.28664780 1.86849809
-0.01580667 -9.14597130 1.87812257
-0.17892669 -9.42920589 1.85961676
-0.33949572 -9.43281746 1.85056686
-0.01833290 -9.42666912 1.85495055
0.14088385 -9.42522335 1.83779693
0.14338036 -9.28501225 1.85070550
-0.01925424 -9.56595993 1.83736610
-0.17795584 -9.56862926 1.84143281
0.13774835 -9.56472015 1.81936538
0.29168481 -9.56399822 1.78808987
0.29707408 -9.42417240 1.80584264
0.13342899 -9.70327187 1.79395473
-0.02017557 -9.70390987 1.81224251
0.28434885 -9.70286560 1.76359022
0.43221244 -9.70184994 1.71982217
0.44197556 -9.56303596 1.74278605
0.27308482 -9.83720589 1.72297251
0.12588501 -9.83756256 1.75174165
0.41758013 -9.83681583 1.68209207
0.55841488 -9.83787060 1.63023520
0.57589042 -9.70139980 1.66288793
0.38828573 -9.94497299 1.60178292
0.25128001 -9.94379902 1.63905716
0.52131891 -9.94614029 1.55211532
0.64810091 -9.94501209 1.48899925
0.69264179 -9.83803940 1.56184864
0.38828573 -9.94497299 1.60178292
0.46270546 -9.97302341 1.42569494
0.52131891 -9.94614029 1.55211532
0.34221435 -9.97338486 1.47140968
0.64810091 -9.94501209 1.48899925
0.57863456 -9.97164154 1.36911237
0.68918931 -9.97263718 1.30113208
0.76877040 -9.94419479 1.41188991
0.50830138 -9.96589088 1.24625838
0.40384433 -9.96642113 1.29707026
0.60771596 -9.96647453 1.18628776
0.70175105 -9.96736717 1.11551869
0.79375523 -9.97596073 1.22163022
0.52674288 -9.94748878 1.07167125
0.43782955 -9.94713688 1.12433565
0.61115855 -9.94764709 1.00995696
0.68753982 -9.94784641 0.94030738
0.78916347 -9.96804523 1.03536785
0.51968926 -9.92760086 0.90474701
0.44499215 -9.92694664 0.95798111
0.58853650 -9.92828941 0.84395909
0.65327233 -9.92907143 0.77491379
0.75963628 -9.94860268 0.86260855
0.49208894 -9.91062641 0.74816054
0.43099883 -9.90984821 0.79970551
0.54880530 -9.91155148 0.68959165
0.59836894 -9.91157722 0.62523234
0.70938420 -9.92921543 0.70068723
0.44588873 -9.89707279 0.60455686
0.39793494 -9.89652348 0.65336257
0.48827487 -9.89670658 0.54995066
0.52482593 -9.89680576 0.49143142
0.64100266 -9.91090298 0.55488425
0.38412490 -9.88657761 0.47850803
0.34818807 -9.88654804 0.52393556
0.41380566 -9.88649273 0.42908305
0.43895894 -9.88632870 0.37811765
0.55522978 -9.89647865 0.43028182
0.31135467 -9.87815094 0.36895391
0.28697905 -9.87819672 0.41008687
0.33141589 -9.87815094 0.32707801
0.45949072 -9.88620090 0.32461122
0.34493372 -9.87799358 0.28384975
0.23606321 -9.87145424 0.28000590
0.22165875 -9.87145901 0.31529382
0.24439479 -9.87139511 0.24430686
0.35299289 -9.87807655 0.24116145
0.25649592 -9.87191963 0.20977679
0.16879617 -9.86668873 0.20872666
0.16239639 -9.86657524 0.23942778
0.18067442 -9.86734390 0.17972457
0.25830886 -9.87215233 0.17397866
0.18251212 -9.86768436 0.14832506
0.12621193 -9.86439037 0.15266918
0.11656766 -9.86363316 0.17959580
0.13032816 -9.86501980 0.12272099
0.18096669 -9.86805153 0.11576149
0.08477187 -9.86233521 0.12922975
0.07545952 -9.86133480 0.15554214
0.04062233 -9.85962582 0.13679358
0.20387113 -9.87151337 0.34902644
0.18059516 -9.87141514 0.38131756
0.25749657 -9.87802315 0.44755423
0.22448222 -9.87789249 0.48184162
0.15192002 -9.87114239 0.40944788
0.18593493 -9.87765598 0.51348382
0.12109508 -9.87085438 0.43348667
0.14474255 -9.87718010 0.53808242
0.08629750 -9.87044907 0.45375594
0.03603054 -9.86495018 0.38317510
0.04803260 -9.86985397 0.46841303
0.00405642 -9.86451912 0.39541495
0.01043638 -9.86942863 0.47988009
-0.02899259 -9.86402988 0.40314218
-0.05861880 -9.86015606 0.34528661
-0.06039708 -9.86403942 0.41338578
-0.08929514 -9.85994816 0.35003695
-0.11094639 -9.85700035 0.30112720
-0.11997146 -9.86002159 0.35528255
-0.14125122 -9.85712337 0.30454502
-0.15817696 -9.85499001 0.26199540
-0.17348292 -9.85757065 0.30877522
-0.19110212 -9.85566330 0.26609185
-0.20552638 -9.85548401 0.22749507
-0.22687548 -9.85709858 0.27058458
-0.24256781 -9.85745621 0.23288931
-0.21494278 -9.85655975 0.18949267
-0.25419837 -9.85857487 0.19552588
-0.22068375 -9.85808945 0.15087606
-0.26119751 -9.86004734 0.15693405
-0.26409030 -9.86175060 0.11603887
-0.22285829 -9.85993290 0.11045145
-0.26408038 -9.86360741 0.07322674
-0.22259080 -9.86213684 0.06823868
-0.26151454 -9.86579227 0.02810137
-0.21959896 -9.86448860 0.02336593
-0.17959540 -9.86359406 0.02068615
-0.21458118 -9.86717987 -0.02458782
-0.17357703 -9.86636162 -0.02747069
-0.13402918 -9.86574841 -0.02727255
-0.16507702 -9.86964130 -0.08089793
-0.12402333 -9.86915112 -0.08047194
-0.08427240 -9.86866093 -0.07611296
-0.11158538 -9.87315845 -0.14045252
-0.06918933 -9.87280655 -0.13602419
-0.02902726 -9.87226677 -0.12632546
-0.05000487 -9.87807655 -0.20692201
-0.00553335 -9.87766075 -0.19727778
0.03724409 -9.87729931 -0.18373027
0.02420185 -9.88452721 -0.28047985
0.07275496 -9.88402081 -0.26478752
0.11726116 -9.88340187 -0.24400803
0.11471012 -9.89262581 -0.35905048
0.17084694 -9.89256096 -0.33796388
0.22050959 -9.89217377 -0.31163165
0.29120433 -9.90374088 -0.40976325
0.23020335 -9.90386486 -0.44034550
0.34840107 -9.90354729 -0.37348461
0.43496156 -9.91823864 -0.46806461
0.36801648 -9.91907692 -0.51182783
0.49736923 -9.91754055 -0.41835737
0.59514427 -9.93460560 -0.50614136
0.52099198 -9.93680000 -0.56708783
0.55699813 -9.91658974 -0.36105165
0.65962750 -9.93337631 -0.44248039
0.60800320 -9.91551971 -0.29982284
0.72128230 -9.93270779 -0.36748609
0.65408462 -9.91478634 -0.22907853
0.77210397 -9.93207836 -0.28827155
0.69146287 -9.91510391 -0.15391582
0.81255835 -9.93228149 -0.20223613
0.84521598 -9.93363953 -0.10974648
0.93596703 -9.95308113 -0.25043261
0.97126973 -9.95313168 -0.14743184
0.99587321 -9.95269012 -0.04188009
1.09939408 -9.97159195 -0.18170433
1.12647426 -9.97079945 -0.06352145
1.14194369 -9.96934891 0.05683102
1.27622020 -9.97456932 0.04448718
1.25919056 -9.97667885 -0.08790201
1.28135192 -9.97237873 0.17668320
1.41344404 -9.94179726 0.17599468
1.40757418 -9.94302559 0.03217306
1.40645468 -9.94183731 0.32075253
1.40645468 -9.94183731 0.32075253
1.48772490 -9.83034134 0.17665350
1.48052275 -9.83106899 0.32858875
1.41344404 -9.94179726 0.17599468
1.38850856 -9.94550800 0.46512887
1.46215570 -9.83328915 0.47945413
1.49570489 -9.69916534 0.48634917
1.51739550 -9.69877815 0.33257127
1.45889640 -9.69949245 0.63712043
1.48273695 -9.56283855 0.64410967
1.52100182 -9.56299686 0.49143142
1.43046379 -9.56295300 0.79252303
1.44866741 -9.42482185 0.79930425
1.50158942 -9.42505455 0.64937019
1.38181150 -9.42464352 0.94342804
1.39528000 -9.28523064 0.94918388
1.46210611 -9.28572655 0.80393070
1.31647134 -9.28490353 1.08816600
1.32709658 -9.14452457 1.09313929
1.40618730 -9.14520359 0.95340419
1.23432434 -9.14367771 1.22411680
1.24202704 -9.00264072 1.22787631
1.33558166 -9.00373459 1.09657204
1.13598990 -9.00156498 1.34954154
1.14284515 -8.86029434 1.35350919
1.24900627 -8.86143875 1.23097229
1.02621281 -8.85940266 1.46646130
1.03279591 -8.71802807 1.47108769
1.14990890 -8.71895409 1.35746193
0.90508753 -8.71737480 1.57318199
0.91131401 -8.57587624 1.57831860
1.03954244 -8.57656002 1.47550619
0.77405071 -8.57558823 1.66937673
0.78010374 -8.43399143 1.67533576
0.91809022 -8.43430805 1.58360398
0.63310701 -8.43410492 1.75261354
0.63912541 -8.29249191 1.76016748
0.78709787 -8.29241276 1.68219125
0.48419821 -8.29301739 1.82384825
0.49002835 -8.15151978 1.83351243
0.64632261 -8.15103340 1.76933622
0.32879063 -8.15261364 1.88474023
0.33412048 -8.01141739 1.89720798
0.49700272 -8.01030350 1.84544003
0.16706248 -8.01304245 1.93442774
0.17106980 -7.87216759 1.94872308
0.34001997 -7.87048388 1.91116166
-0.00111988 -7.87418413 1.96950758
0.00107943 -7.73354721 1.98444700
0.17509690 -7.73142242 1.96296418
-0.17447360 -7.73599386 1.98903871
-0.17416154 -7.59540701 2.00230885
0.00315984 -7.59288120 1.99775684
-0.35137892 -7.59837437 1.99016309
-0.35277081 -7.45789623 2.00241280
-0.17387423 -7.45482540 2.01432085
-0.53007740 -7.46144247 1.97444606
-0.53321779 -7.32117748 1.98654222
-0.35419244 -7.31752729 2.01467252
-0.70925629 -7.32522964 1.94262052
-0.53644246 -7.18107128 1.99910402
-0.71411556 -7.18518257 1.95449865
-0.88698381 -7.18963051 1.89351761
-0.71912837 -7.04526377 1.96683776
-0.89359158 -7.04979086 1.90476680
-1.06165993 -7.05472040 1.82684994
-0.89772773 -6.90970993 1.90973997
-1.06726229 -6.91476202 1.83183312
-1.22885180 -6.92012644 1.73855078
-1.07220089 -6.77496719 1.83550358
-1.23561811 -6.78046083 1.74276626
-1.38846493 -6.78603315 1.63364816
-1.24562895 -6.64146900 1.75221229
-1.40047181 -6.64711571 1.64260876
-1.53005254 -6.79157162 1.51072478
-1.54409027 -6.65276718 1.51908624
-1.41626322 -6.50914907 1.65678024
-1.56221974 -6.51487541 1.53204417
-1.56221974 -6.51487541 1.53204417
-1.69481707 -6.52034330 1.39373064
-1.54409027 -6.65276718 1.51908624
-1.71725583 -6.38314009 1.40751100
-1.58252370 -6.37768602 1.54779088
-1.83805895 -6.38835049 1.25530827
-1.86399019 -6.25165701 1.26827621
-1.74138379 -6.24648094 1.42288637
-1.97196400 -6.25655079 1.10348201
-2.00170898 -6.12049580 1.11521161
-1.89210069 -6.11562681 1.28284419
-2.09336162 -6.12489462 0.93751860
-2.12676716 -5.98951864 0.94726694
-2.03369331 -5.98511505 1.12822413
-2.20163774 -5.99358082 0.75802273
-2.23813415 -5.85882378 0.76490301
-2.16160941 -5.85457325 0.95757991
-2.29530644 -5.86298466 0.56579655
-2.33277869 -5.72835112 0.56911540
-2.27447724 -5.72402239 0.77176839
-2.37104368 -5.73232412 0.36207858
-2.40885782 -5.59758234 0.36175168
-2.37017679 -5.59363937 0.57248366
-2.42689300 -5.60147524 0.14885010
-2.46375132 -5.46619320 0.14503105
-2.44604778 -5.46250772 0.36142972
-2.46211648 -5.46965599 -0.07127350
-2.50110960 -5.33075285 0.14140517
-2.49910378 -5.33390808 -0.07800515
-2.47660017 -5.33671665 -0.29532015
-2.53591704 -5.19777918 -0.08445447
-2.51286387 -5.20026064 -0.30465233
-2.47034907 -5.20248985 -0.52135319
-2.50504756 -5.06530571 -0.53310758
-2.54889989 -5.06331968 -0.31370717
-2.43912292 -5.06702423 -0.74653423
-2.47088933 -4.92920160 -0.76043838
-2.53857231 -4.92749786 -0.54432702
-2.38259506 -4.93098974 -0.96932280
-2.41096306 -4.79323578 -0.98594642
-2.50180793 -4.79107094 -0.77419394
-2.29960585 -4.79558897 -1.18825257
-2.32348609 -4.65804291 -1.20713496
-2.43700790 -4.65511084 -1.00208449
-2.19082975 -4.66110468 -1.40085196
-2.21035576 -4.52393007 -1.42192864
-2.34590530 -4.52040339 -1.22604203
-2.05946589 -4.52787304 -1.60592711
-2.22791076 -4.38657284 -1.44244552
-2.07542062 -4.39094162 -1.62895060
-1.91043293 -4.39540958 -1.80252230
-1.92315352 -4.25798273 -1.82622921
-2.09008741 -4.25371790 -1.65135968
-1.74130964 -4.26120758 -1.98201823
-1.75080013 -4.12287378 -2.00478387
-1.93466020 -4.11996651 -1.84861851
-1.55409610 -4.12517262 -2.14067054
-1.56045139 -3.98606157 -2.16172218
-1.75889397 -3.98385715 -2.02569699
-1.35181463 -3.98793888 -2.27777529
-1.35482621 -3.84798074 -2.29556274
-1.56482530 -3.84613299 -2.17994094
-1.13707042 -3.84943724 -2.39060354
-1.13712502 -3.70860744 -2.40402722
-1.35549510 -3.70717597 -2.30961061
-0.91375685 -3.70949912 -2.47905111
-1.13555479 -3.56719303 -2.41579628
-0.91154271 -3.56807971 -2.48933434
-0.68398404 -3.56827784 -2.54106259
-0.67942697 -3.42682910 -2.54924083
-0.90748584 -3.42637825 -2.49900842
-0.45026836 -3.42680907 -2.57852530
-0.44309586 -3.28578615 -2.58564305
-0.67269039 -3.28535008 -2.55719590
-0.21451184 -3.28594947 -2.59403896
-0.20472394 -3.14555573 -2.59926486
-0.43349120 -3.14482260 -2.59187937
0.02091776 -3.14613032 -2.58766913
0.03259288 -3.00636578 -2.58986330
-0.19260794 -3.00520658 -2.60217738
0.25258774 -3.00724244 -2.55956841
0.26475820 -2.86803722 -2.55814195
0.04598188 -2.86659098 -2.58889222
0.47665417 -2.86907744 -2.50991559
0.48789844 -2.73060036 -2.50405574
0.27810755 -2.72881722 -2.55291104
0.68955088 -2.73194289 -2.43900776
0.69827873 -2.59478354 -2.42808580
0.49950913 -2.59230161 -2.49320316
0.88812721 -2.59687376 -2.34778118
0.70642710 -2.45823359 -2.41093206
0.89231783 -2.46207738 -2.33102894
1.06943119 -2.46557450 -2.23735046
1.06805408 -2.33415151 -2.21690297
0.89570588 -2.32825661 -2.30897141
1.23216486 -2.33901548 -2.11247540
1.22344196 -2.21162891 -2.09011102
1.06450260 -2.20435786 -2.19066477
1.37402964 -2.21537876 -1.97690129
1.35687137 -2.09315395 -1.95295167
1.21151412 -2.08690786 -2.06108427
1.49350059 -2.09147000 -1.83222270
1.46795619 -1.97540224 -1.80821860
1.33628500 -1.97536254 -1.92338490
1.58604968 -1.96182978 -1.68190229
1.54824042 -1.84851623 -1.66145468
1.43915200 -1.86552131 -1.78133154
1.64137900 -1.82072735 -1.53697109
1.58303809 -1.70706689 -1.52560806
1.50350153 -1.74130464 -1.64081883
1.65530813 -1.67134321 -1.40574586
1.57113004 -1.56086290 -1.40549338
1.51167464 -1.60137653 -1.51703382
1.63162088 -1.52681839 -1.28311980
1.46781743 -1.46172583 -1.41052103
1.52249277 -1.42442691 -1.29292750
1.57794082 -1.39655375 -1.16498661
1.44739461 -1.30708599 -1.18173885
1.39736533 -1.33630097 -1.30726755
1.50682509 -1.28618765 -1.04204834
1.36553490 -1.21070290 -1.06754851
1.31226110 -1.23397887 -1.20545578
1.42499518 -1.19285083 -0.91656923
1.27437735 -1.12979412 -0.94915754
1.21630895 -1.14883006 -1.09875977
1.33741927 -1.11712849 -0.78537375
1.18324029 -1.06728721 -0.82279658
1.11822200 -1.08088958 -0.98601073
1.24752522 -1.05790067 -0.64754570
1.09530258 -1.01691139 -0.68742555
1.02597988 -1.02782369 -0.86399883
1.15474832 -1.00870895 -0.50500703
1.00762272 -0.97458971 -0.54343545
0.94182694 -0.98371905 -0.72981656
1.05509603 -0.96721917 -0.36318162
0.91409779 -0.93695390 -0.39757794
0.86065072 -0.94506747 -0.58080375
0.94699323 -0.93220371 -0.22925189
0.81877977 -0.90265679 -0.26108235
0.77645314 -0.90737742 -0.42394978
0.83166355 -0.89987284 -0.11167827
0.70233059 -0.86043417 -0.14386541
0.68378514 -0.86735398 -0.28164887
0.70126069 -0.86017144 -0.01208051
0.70233059 -0.86043417 -0.14386541
0.58107662 -0.80459446 -0.04593197
0.70126069 -0.86017144 -0.01208051
0.57658392 -0.80656099 -0.16453588
0.57103115 -0.80249435 0.06766903
0.68651938 -0.85805142 0.11421603
0.47482640 -0.71542388 0.03218297
0.47808576 -0.71868759 -0.06971318
0.45510694 -0.71631050 0.12940806
0.38514534 -0.60799932 0.09635906
0.39899498 -0.60821223 0.00737640
0.36625805 -0.60478491 0.18219136
0.32884511 -0.48358533 0.15394716
0.34851503 -0.48401609 0.07340506
0.29942197 -0.48236698 0.23049186
0.29208601 -0.35730827 0.21535431
0.32152891 -0.35785830 0.13971607
0.25175059 -0.35599577 0.28481570
0.26872090 -0.23411754 0.28558347
0.30910587 -0.23609886 0.21372464
0.22280796 -0.23198295 0.35267210
0.26070631 -0.11986292 0.37096503
0.30747128 -0.12180973 0.29988390
0.20663513 -0.11683132 0.43847969
0.25514364 -0.01753066 0.47486225
0.31439608 -0.01990331 0.40260226
0.19093288 -0.01520780 0.54090083
0.22722639 0.08717375 0.57384586
0.29708400 0.08489031 0.50561291
0.14806627 0.08690120 0.63264751
0.21872139 0.19468699 0.56245303
0.14041327 0.18881747 0.61741090
0.06211506 0.19195308 0.67272037
0.01470125 0.21649718 0.58816111
0.08470749 0.22171316 0.53977144
-0.05957481 0.21071638 0.62773871
-0.05957481 0.21071638 0.62773871
0.01470125 0.21649718 0.58816111
-0.01157151 0.13465720 0.53460014
-0.07882863 0.13248269 0.57178521
-0.13643159 0.20787799 0.65916795
-0.15080135 0.13123919 0.59921217
-0.08599123 0.03044763 0.54571557
-0.15393189 0.02864966 0.57317221
-0.22473069 0.02702962 0.58991462
-0.15443218 -0.07717946 0.55658329
-0.22321989 -0.07828939 0.57325143
-0.29357782 -0.08135007 0.57988399
-0.22206576 -0.20485328 0.55624646
-0.29015502 -0.20619535 0.56327039
-0.35865048 -0.20688388 0.56026369
-0.35357323 -0.34162143 0.55089188
-0.28648949 -0.34020445 0.55295742
-0.41977528 -0.34300834 0.53851336
-0.41711035 -0.47919637 0.54589880
-0.35009104 -0.47759160 0.55798513
-0.48238119 -0.48067251 0.52541655
-0.41394019 -0.61587530 0.55677646
-0.48039487 -0.61771810 0.53643787
-0.54587865 -0.48205450 0.49918839
-0.54451644 -0.61928344 0.50944191
-0.47764078 -0.75490224 0.55016863
-0.54349113 -0.75653654 0.52323210
-0.54349113 -0.75653654 0.52323210
-0.60614163 -0.75812185 0.48968777
-0.54451644 -0.61928344 0.50944191
-0.55328399 -0.88194644 0.56636626
-0.62074912 -0.88367045 0.53017676
-0.68298346 -0.88552779 0.48326823
-0.73110563 -0.99263495 0.55686069
-0.65825123 -0.99098063 0.60771710
-0.79393440 -0.99542850 0.49812344
-0.86098349 -1.08706117 0.57755589
-0.78504807 -1.08581793 0.64379764
-0.92815143 -1.08572924 0.50662833
-0.86098349 -1.08706117 0.57755589
-1.01274538 -1.15592849 0.58970660
-0.92815143 -1.08572924 0.50662833
-0.93543786 -1.15647340 0.67146230
-1.08140433 -1.15365493 0.50074381
-0.98821616 -1.08470356 0.42676488
-1.17899108 -1.20974183 0.58078551
-1.10124254 -1.21248138 0.68003160
-1.24265695 -1.21418548 0.47184077
-1.34892201 -1.26663184 0.54401159
-1.27715218 -1.26278770 0.66306132
-1.40540040 -1.27416098 0.41669962
-1.51863980 -1.32712245 0.48005345
-1.45560801 -1.31876123 0.61802018
-1.56614292 -1.33363140 0.33643496
-1.68635654 -1.38663733 0.39011475
-1.63272631 -1.37975228 0.54454160
-1.71959865 -1.39561296 0.23288435
-1.84607363 -1.44879735 0.27655339
-1.80639708 -1.44053030 0.44357178
-1.86145890 -1.46099770 0.10783607
-1.99025202 -1.51641595 0.14025104
-1.97236025 -1.50373065 0.31914759
-1.98695791 -1.52204299 -0.04250421
-2.11304140 -1.58232117 -0.02378041
-2.11642957 -1.57573771 0.17051128
-2.10065293 -1.57971048 -0.21137019
-2.20618987 -1.66871774 -0.20194882
-2.21712232 -1.67072415 -0.00455631
-2.18595028 -1.65817213 -0.39338237
-2.07896233 -1.56887269 -0.39330807
-2.15274286 -1.64198947 -0.57631105
-2.04595757 -1.55331397 -0.56960911
-2.10889053 -1.63046801 -0.74965489
-2.00097585 -1.54303551 -0.73651844
-2.05287242 -1.62990296 -0.91201705
-1.94670677 -1.54471493 -0.89020222
-1.99951482 -1.62826860 -1.06735528
-2.11552310 -1.75620461 -0.92336035
-2.06064939 -1.75531828 -1.08525169
-2.01365685 -1.74523771 -1.25309741
-2.10516548 -1.89109528 -1.10209835
-2.05510664 -1.88002968 -1.27703702
-1.92595696 -1.74130964 -1.40913403
-1.96780801 -1.87390220 -1.43895841
-1.80199337 -1.74388063 -1.54032946
-1.84059525 -1.87620556 -1.57506776
-1.68870950 -1.88460171 -1.67855382
-1.65584385 -1.75074124 -1.63967466
-1.52962148 -1.89412689 -1.76376688
-1.50316072 -1.75898862 -1.72005820
-1.36541176 -1.90350378 -1.84035122
-1.34719825 -1.76860785 -1.79281342
-1.32405090 -1.64096904 -1.72984612
-1.18128932 -1.78377032 -1.85333908
-1.16748929 -1.65919232 -1.78906882
-1.14281631 -1.57067561 -1.67921245
-0.98564541 -1.59294605 -1.72993529
-0.99990124 -1.67607892 -1.84102488
-0.97234058 -1.53145969 -1.60197437
-0.81328732 -1.53712118 -1.65538180
-0.98564541 -1.59294605 -1.72993529
-0.81903821 -1.59547198 -1.78730047
-0.97234058 -1.53145969 -1.60197437
-0.81296533 -1.48098481 -1.52102113
-0.96616364 -1.47079039 -1.47102654
-0.65477395 -1.47166717 -1.56662202
-0.64962733 -1.52445042 -1.70284021
-0.66376430 -1.42053831 -1.43220699
-0.50533020 -1.41112208 -1.46295750
-0.49081677 -1.46331096 -1.59527242
-0.67557323 -1.36945915 -1.30192292
-0.52139407 -1.35901237 -1.33334231
-0.53752726 -1.30743277 -1.20589161
-0.38833117 -1.30129063 -1.22195053
-0.36547625 -1.35431147 -1.34804893
-0.55019307 -1.25731909 -1.07800996
-0.40851623 -1.24902248 -1.09576297
-0.55580032 -1.20458078 -0.95230794
-0.42348045 -1.19470847 -0.97027874
-0.55110449 -1.14277220 -0.82929546
-0.43157920 -1.13007164 -0.84901488
-0.53641272 -1.05478036 -0.71720028
-0.55110449 -1.14277220 -0.82929546
-0.43448189 -1.04210961 -0.74063474
-0.43157920 -1.13007164 -0.84901488
-0.64673460 -1.05776191 -0.69122970
-0.68081880 -1.14526367 -0.80467713
-0.61030734 -0.93974257 -0.60129589
-0.52011609 -0.93848944 -0.62595385
-0.69873035 -0.93679029 -0.56597334
-0.66031677 -0.80072600 -0.50606704
-0.58706605 -0.80325192 -0.53989869
-0.72836637 -0.79501957 -0.46457750
-0.71117318 -0.64981091 -0.44185132
-0.64651662 -0.65381348 -0.48186973
-0.76344633 -0.64811200 -0.38846371
-0.75620443 -0.50503325 -0.37914637
-0.70515972 -0.50643545 -0.43186527
-0.78815383 -0.50458771 -0.31366256
-0.78152126 -0.36396095 -0.30838227
-0.75054276 -0.36473870 -0.37234536
-0.80141401 -0.36313343 -0.23903486
-0.80945337 -0.22491431 -0.24156110
-0.78989244 -0.22647963 -0.31113639
-0.82646328 -0.22373538 -0.17097530
-0.84368622 -0.09303045 -0.17502716
-0.82589859 -0.09472935 -0.24717823
-0.85861576 -0.09190080 -0.10236592
-0.87592781 0.02376095 -0.10473365
-0.86100823 0.02311185 -0.17896016
-0.88331330 0.02448349 -0.02955111
-0.90448898 0.13717820 -0.02911521
-0.89708871 0.13786674 -0.10646236
-0.90648037 0.13514711 0.04814774
-1.00724709 0.18196175 -0.03138882
-1.00424540 0.18516190 0.05793563
-0.98895425 0.18922360 0.14431778
-1.10548270 0.15790360 0.06988320
-1.08887386 0.16091992 0.17007042
-0.98895425 0.18922360 0.14431778
-1.00424540 0.18516190 0.05793563
-0.96389014 0.19447407 0.22885230
-1.05867326 0.16489241 0.26678035
-1.09648740 0.05652257 0.17635629
-1.06843638 0.05794892 0.27333370
-1.02499020 0.05937034 0.36328226
-0.97288054 -0.03831521 0.33850050
-1.01127434 -0.03818164 0.25376782
-0.92365867 -0.03498197 0.41401488
-0.86975592 -0.12944764 0.37946004
-0.91458905 -0.13112682 0.30946866
-0.81424332 -0.12642638 0.44403741
-0.77702850 -0.23107609 0.41146886
-0.82779080 -0.23323089 0.35203809
-0.72267008 -0.23108643 0.46372706
-0.75347513 -0.35119578 0.39131352
-0.70140511 -0.35154769 0.44283864
-0.64483249 -0.35197353 0.48838508
-0.69686782 -0.48269373 0.43921277
-0.64183563 -0.48345128 0.48403591
-0.58199376 -0.48364988 0.52329159
-0.59934551 -0.61535043 0.55112463
-0.65976197 -0.61529619 0.51103687
-0.53185070 -0.61517692 0.58541197
-0.56207126 -0.73632175 0.64941472
-0.63558447 -0.73580670 0.61317080
-0.48592284 -0.73546469 0.67835736
-0.52319705 -0.82156992 0.78487003
-0.61006469 -0.82238680 0.75205392
-0.43306521 -0.82016277 0.80799252
-0.46502444 -0.87184173 0.93722641
-0.56757945 -0.87399137 0.91027999
-0.35960647 -0.86910707 0.95289391
-0.46502444 -0.87184173 0.93722641
-0.37959835 -0.90818453 1.08890414
-0.35960647 -0.86910707 0.95289391
-0.49796453 -0.91076535 1.07087886
-0.25892392 -0.90525740 1.09354043
-0.25267768 -0.86594218 0.95663869
-0.26565060 -0.94051069 1.23214626
-0.39963976 -0.94342792 1.22613287
-0.13128500 -0.93652290 1.22230387
-0.12650003 -0.97070128 1.36076093
-0.27347696 -0.97535264 1.37090540
0.01981809 -0.96563905 1.33408689
0.03841313 -1.00167477 1.47124624
-0.12144262 -1.00766850 1.49907434
0.19327089 -0.99807888 1.42488265
0.22405124 -1.03992498 1.55868840
0.05536856 -1.04401648 1.60687995
0.38602206 -1.03613555 1.49080229
0.42713520 -1.08484209 1.61880279
0.25249854 -1.08917165 1.68937862
0.59312332 -1.08062685 1.53015685
0.64277101 -1.13843286 1.65213895
0.46454316 -1.14444625 1.74344981
0.81005186 -1.13442063 1.54103959
0.86413795 -1.20627940 1.65233731
0.68695033 -1.21049023 1.76731026
1.02936816 -1.20308936 1.52005696
1.08758533 -1.28751540 1.61998165
0.91350341 -1.29146302 1.75752735
1.24773324 -1.28327501 1.46701121
1.30661929 -1.38001454 1.55499327
1.13955629 -1.38310552 1.71397722
1.45525551 -1.37983656 1.37911820
1.51153100 -1.48748338 1.45441961
1.35352290 -1.49174321 1.63147843
1.65017128 -1.48636878 1.26160896
1.69884324 -1.60540867 1.32248116
1.55459070 -1.60772192 1.51830828
1.82186568 -1.60681057 1.11429024
1.86420214 -1.73283458 1.16501784
1.73722208 -1.73168051 1.37596786
1.97148275 -1.73657930 0.94705385
2.00836563 -1.86705661 0.99073291
1.89845490 -1.86301458 1.21048009
2.09542131 -1.87449658 0.76509619
2.12883210 -2.00789142 0.80355918
2.03860617 -2.00046611 1.03010249
2.19697094 -2.01737213 0.57430655
2.22513580 -2.15375352 0.60792518
2.15409422 -2.14400578 0.83774745
2.27389693 -2.16469550 0.37737966
2.29552841 -2.30344009 0.40658483
2.24452353 -2.29219127 0.63775939
2.32493687 -2.31491232 0.17599963
2.34142160 -2.45461750 0.20114799
2.31051254 -2.44308615 0.43303588
2.35025358 -2.46591616 -0.02886754
2.36327600 -2.60551739 -0.00755311
2.35259652 -2.59440231 0.22409704
2.35296297 -2.61666274 -0.23473035
2.36234951 -2.75580835 -0.21659601
2.37101316 -2.74495530 0.01226540
2.33508611 -2.76709700 -0.43933994
2.34198117 -2.90563869 -0.42403892
2.36854148 -2.89466166 -0.19976439
2.29690552 -2.91723919 -0.64101219
2.30222058 -3.05514646 -0.62835628
2.34677625 -3.04391193 -0.40979299
2.24089241 -3.06689596 -0.83911306
2.24528122 -3.20432281 -0.82879019
2.30618811 -3.19290519 -0.61647809
2.16871190 -3.21620083 -1.03268659
2.17312527 -3.35346913 -1.02432525
2.24900126 -3.34182882 -0.81889331
2.08108163 -3.36538219 -1.22042978
2.17719698 -3.49102497 -1.01599860
2.08464789 -3.50276947 -1.21301448
1.97528195 -3.51429605 -1.39941549
2.08739209 -3.64057755 -1.20501482
1.97772908 -3.65198016 -1.39220333
1.85300767 -3.66265488 -1.56860840
1.97983408 -3.79016495 -1.38429272
1.85465705 -3.80080986 -1.56114364
1.71506560 -3.81033516 -1.72610140
1.71447611 -3.94895053 -1.71662557
1.85439467 -3.93938565 -1.55146468
1.56168890 -3.95714378 -1.86950696
1.55793929 -4.09592295 -1.85655379
1.71072149 -4.08765030 -1.70346427
1.39261508 -4.10268450 -1.99578357
1.54950368 -4.23413181 -1.83798862
1.38491237 -4.24114656 -1.97745597
1.20942879 -4.24710989 -2.10264802
1.37250423 -4.37848854 -1.95284760
1.19793200 -4.38473463 -2.07739568
1.01363611 -4.39031744 -2.18684554
1.18317568 -4.52121067 -2.04728889
1.00014317 -4.52704096 -2.15578794
0.80810022 -4.53210831 -2.24789143
0.98605561 -4.66352654 -2.12406158
0.79539979 -4.66875219 -2.21535754
0.59698200 -4.67319536 -2.29004455
0.78311044 -4.80558968 -2.18402219
0.58606964 -4.81010199 -2.25804090
0.38273799 -4.81385660 -2.31575274
0.57555854 -4.94708300 -2.22691870
0.37369803 -4.95086241 -2.28411555
0.16659692 -4.95360184 -2.32377720
0.36504939 -5.08787346 -2.25296831
0.15944916 -5.09050369 -2.29161477
-0.04964822 -5.09213352 -2.31305313
0.15227664 -5.22672176 -2.25713921
-0.05472543 -5.22837591 -2.27808237
-0.26357514 -5.22941637 -2.28229284
-0.05954508 -5.36420298 -2.24168491
-0.26596269 -5.36544132 -2.24590015
-0.47264773 -5.36583281 -2.23162436
-0.26805794 -5.50122404 -2.20871496
-0.47213754 -5.50183296 -2.19466710
-0.67461717 -5.50122881 -2.16036987
-0.67067927 -5.63660479 -2.12121844
-0.47113201 -5.63717937 -2.15557027
-0.86719006 -5.63541079 -2.06915331
-0.85991848 -5.77084160 -2.03048205
-0.66636980 -5.77180719 -2.08157134
-1.04892981 -5.76960802 -1.96256125
-1.03827512 -5.90562344 -1.92578733
-0.85248345 -5.90655899 -1.99260843
-1.21770167 -5.90451384 -1.84225333
-1.20324767 -6.04091549 -1.80646992
-1.02713990 -6.04178667 -1.88910735
-1.37044930 -6.03944921 -1.70626307
-1.35256767 -6.17597437 -1.67164385
-1.18860555 -6.17746019 -1.77093947
-1.50706387 -6.17405748 -1.55742848
-1.48655188 -6.31046391 -1.52419126
-1.33490884 -6.31250429 -1.63724256
-1.62779772 -6.30796194 -1.39754808
-1.60581446 -6.44438791 -1.36653006
-1.46688199 -6.44686031 -1.49140477
-1.73412704 -6.44188690 -1.22996998
-1.58486164 -6.58084440 -1.33605683
-1.71183193 -6.57858562 -1.20199323
-1.82692373 -6.57611370 -1.05695808
-1.69197369 -6.71581888 -1.17589390
-1.80577290 -6.71352625 -1.03299356
-1.90497446 -6.71056890 -0.87915134
-1.78910482 -6.85193348 -1.01226854
-1.88732553 -6.84918404 -0.86019468
-1.97008669 -6.84581614 -0.69881827
-1.87446153 -6.98866653 -0.84427452
-1.95731688 -6.98556614 -0.68467641
-2.02506924 -6.98199987 -0.51767284
-1.94425476 -7.12535572 -0.67078704
-2.01262140 -7.12214518 -0.50566095
-2.06286860 -7.11842585 -0.33374861
-1.99462068 -7.26170778 -0.49215794
-2.04730010 -7.25855732 -0.32294521
-2.08254862 -7.25504017 -0.14886336
-2.02959681 -7.39855433 -0.31217161
-2.06551862 -7.39534950 -0.14012064
-2.08168650 -7.39154053 0.03533828
-2.04742908 -7.53564453 -0.13177419
-2.06399798 -7.53195953 0.04189161
-2.06126380 -7.52779388 0.21704836
-2.04473925 -7.67223930 0.04806353
-2.04282236 -7.66808844 0.22148660
-2.02484131 -7.66368008 0.39472142
-2.00514674 -7.80373716 0.39681670
-2.02238464 -7.80816984 0.22536014
-1.97172618 -7.79904604 0.56665844
-1.95049608 -7.93879557 0.56587583
-1.98323286 -7.94352674 0.39809963
-1.90115035 -7.93377304 0.73036301
-1.88031626 -8.07349300 0.72704923
-1.92842865 -8.07850647 0.56440961
-1.81710637 -8.06837654 0.88527536
-1.79837751 -8.20830059 0.88019806
-1.86063671 -8.21345615 0.72362143
-1.72128797 -8.20309830 1.03079593
-1.70620000 -8.34338379 1.02517378
-1.78245234 -8.34864426 0.87589365
-1.61500812 -8.33808327 1.16649401
-1.60333300 -8.47867489 1.16083729
-1.69378674 -8.48400974 1.02059186
-1.50042629 -8.47352886 1.29274607
-1.38572061 -8.46864033 1.41507483
-1.49121785 -8.61433887 1.28701484
-1.59330714 -8.61947536 1.15586901
-1.37743366 -8.60948944 1.40865529
-1.37743366 -8.60948944 1.40865529
-1.37032068 -8.75051689 1.40297866
-1.48349571 -8.75533676 1.28210604
-1.37032068 -8.75051689 1.40297866
-1.24697125 -8.74612331 1.51376128
-1.36391091 -8.89170837 1.39771330
-1.24120545 -8.88737392 1.50783205
-1.10851419 -8.88342285 1.60570109
-1.23606884 -9.02885246 1.50247240
-1.10393727 -9.02500439 1.59956372
-0.96322632 -9.02147293 1.68354857
-0.96022958 -9.16347694 1.67825329
-1.10027671 -9.16692924 1.59480357
-0.81262356 -9.16009331 1.74714005
-0.80992889 -9.30230999 1.74060154
-0.95717329 -9.30584621 1.67310178
-0.65746361 -9.29874897 1.79531181
-0.80478227 -9.44445705 1.72895622
-0.65359008 -9.44052410 1.78334951
-0.49829143 -9.43663597 1.82490325
-0.64666027 -9.58142757 1.76379335
-0.49307054 -9.57694530 1.80508983
-0.33650389 -9.57277012 1.83205092
-0.48497179 -9.71554661 1.77761817
-0.33106008 -9.71090508 1.80391073
-0.17581597 -9.70668983 1.81523442
-0.32244617 -9.84305191 1.75850809
-0.17189288 -9.84070301 1.77238250
-0.02225102 -9.83873749 1.76987612
-0.02759079 -9.95099068 1.68473721
-0.16814810 -9.95004463 1.68633723
0.11238205 -9.94665146 1.66732621
0.11238205 -9.94665146 1.66732621
-0.02759079 -9.95099068 1.68473721
-0.03665547 -9.97642231 1.54443252
0.09102304 -9.97590160 1.53089988
0.21787930 -9.97339058 1.50647485
0.25128001 -9.94379902 1.63905716
0.18333440 -9.96670341 1.36980081
0.06935692 -9.96681690 1.39129364
0.29534537 -9.96668816 1.33752954
0.24806032 -9.94677067 1.20622027
0.14694682 -9.94660664 1.23456347
0.34456220 -9.94699860 1.16951072
0.28382382 -9.92654037 1.04388273
0.19876917 -9.92615032 1.07603514
0.36638683 -9.92655659 1.00445378
0.29733658 -9.90841103 0.88519591
0.22453667 -9.90812397 0.91911685
0.36719918 -9.90906525 0.84495467
0.28822237 -9.89565182 0.73703521
0.22904423 -9.89520645 0.77000499
0.34480488 -9.89618206 0.69793814
0.26261333 -9.88589859 0.60191172
0.21357481 -9.88548279 0.63392550
0.30809045 -9.88625526 0.56485546
0.16284224 -9.88505173 0.65979701
0.10133602 -9.87663078 0.55737579
0.10997472 -9.88456631 0.67975914
0.05663168 -9.87611103 0.57158214
0.05557658 -9.88420010 0.69504535
0.01290813 -9.87595177 0.58567452
-0.02629795 -9.86923504 0.49091130
-0.03242530 -9.87536240 0.59102422
-0.06533560 -9.86872578 0.49340785
-0.09473891 -9.86376190 0.41598138
-0.10425436 -9.86820984 0.49082702
-0.12988320 -9.86347961 0.41427246
-0.15304029 -9.86012650 0.35627326
-0.16507702 -9.86336517 0.41005218
-0.18750101 -9.86044788 0.35569373
-0.20833497 -9.85829830 0.31145003
-0.22373009 -9.86108589 0.35534200
-0.24613923 -9.85959625 0.31513038
-0.26666111 -9.85902119 0.27770257
-0.28833216 -9.86140347 0.32134193
-0.31137037 -9.86151791 0.28677225
-0.28387415 -9.85967064 0.24042836
-0.32990101 -9.86243439 0.25066701
-0.29726809 -9.86096764 0.20361972
-0.34544969 -9.86381054 0.21369492
-0.30525297 -9.86240387 0.16447310
-0.35444012 -9.86518764 0.17412229
-0.35885853 -9.86670876 0.13222159
-0.30887386 -9.86391544 0.12328568
-0.35889813 -9.86812019 0.08873085
-0.30933455 -9.86565399 0.08022588
-0.35569328 -9.86968613 0.04384820
-0.30645168 -9.86747169 0.03507079
-0.34982353 -9.87135601 -0.00238177
-0.30172119 -9.86950874 -0.01208051
-0.25689799 -9.86816025 -0.01984743
-0.29497465 -9.87190914 -0.06314499
-0.25044370 -9.87097931 -0.07197687
-0.20747803 -9.87017632 -0.07753954
-0.24284522 -9.87418842 -0.12928757
-0.19850743 -9.87382221 -0.13726749
-0.15467492 -9.87351418 -0.14164133
-0.18864030 -9.87823582 -0.20514378
-0.14219733 -9.87822628 -0.20967117
-0.09576426 -9.87827015 -0.21092932
-0.12749071 -9.88462543 -0.29198655
-0.07654512 -9.88482857 -0.29369551
-0.02581252 -9.88456059 -0.28927705
-0.05398739 -9.89300632 -0.38913733
0.00379389 -9.89296246 -0.38505083
0.06177825 -9.89299202 -0.37485674
0.03970101 -9.90408134 -0.49508542
0.10290623 -9.90424156 -0.48369259
0.16732505 -9.90366554 -0.46457249
0.15319799 -9.91921425 -0.59918082
0.22701338 -9.91918468 -0.57649434
0.29768333 -9.91908646 -0.54762107
0.28505221 -9.93842983 -0.69477129
0.36672863 -9.93840885 -0.65949827
0.44638899 -9.93797874 -0.61629480
0.43742836 -9.95917892 -0.77295065
0.52615345 -9.95872879 -0.72406077
0.61095542 -9.95773315 -0.66524911
0.60711163 -9.97856140 -0.83146507
0.70111698 -9.97825336 -0.76340550
0.69006103 -9.95604801 -0.59758586
0.78884649 -9.97891808 -0.68627632
0.76547629 -9.95504761 -0.52064490
0.87067640 -9.97819042 -0.60121667
0.83223814 -9.95469666 -0.43787870
0.94429374 -9.97659492 -0.50865763
0.89046514 -9.95333862 -0.34704348
1.00842023 -9.97437096 -0.40651885
1.06004953 -9.97268200 -0.29659322
1.12864876 -9.97963619 -0.46692038
1.18613291 -9.97898197 -0.34592399
1.22969806 -9.97787285 -0.21881510
1.31055212 -9.94905853 -0.39391738
1.35634625 -9.94600296 -0.25437051
1.38924170 -9.94521523 -0.11177736
1.46355247 -9.83323002 -0.12560228
1.35634625 -9.94600296 -0.25437051
1.43099391 -9.83549309 -0.27486271
1.38924170 -9.94521523 -0.11177736
1.48307371 -9.83149052 0.02499560
1.40757418 -9.94302559 0.03217306
1.52162087 -9.69976044 0.02185515
1.50328851 -9.70175552 -0.13277476
1.52616334 -9.69887829 0.17747080
1.55235159 -9.56368446 0.17821875
1.54679906 -9.56443882 0.02050783
1.54378247 -9.56321907 0.33561760
1.56439352 -9.42619896 0.33795071
1.57229900 -9.42683315 0.17903112
1.54053307 -9.42555046 0.49519596
1.55439258 -9.28700924 0.49784109
1.57773781 -9.28781128 0.33954066
1.51541448 -9.28629494 0.65306538
1.52580655 -9.14683247 0.65557677
1.56455696 -9.14776516 0.49964410
1.47270119 -9.14599037 0.80720985
1.48191953 -9.00582027 0.80969155
1.53456426 -9.00690937 0.65734506
1.41557395 -9.00475502 0.95660400
1.42332590 -8.86395073 0.95869440
1.48997390 -8.86528683 0.81136578
1.34286821 -8.86268234 1.09906352
1.35010016 -8.72148991 1.10127270
1.43079078 -8.72293282 0.96031910
1.25612938 -8.72013855 1.23396909
1.26367342 -8.57876873 1.23693120
1.35775805 -8.58020496 1.10339284
1.15713084 -8.57752609 1.36118698
1.16512561 -8.43604660 1.36510992
1.27212381 -8.43735981 1.24009144
1.04695272 -8.43503094 1.48011780
1.05571008 -8.29351807 1.48558640
1.17455673 -8.29458237 1.36975634
0.92605036 -8.29275036 1.58982050
0.93544203 -8.15130615 1.59734976
1.06624603 -8.15211868 1.49238241
0.79542947 -8.15096951 1.69059718
0.80522227 -8.00973320 1.70076656
0.94640869 -8.01005554 1.60639942
0.65481770 -8.00981808 1.78052592
0.66423905 -7.86881924 1.79301834
0.81606036 -7.86870050 1.71203542
0.50471020 -7.86932945 1.85864079
0.51250190 -7.72846508 1.87158906
0.67370993 -7.72789526 1.80503523
0.34597889 -7.72965860 1.92465472
0.35145730 -7.58880901 1.93621576
0.51961994 -7.58755159 1.88233781
0.17891105 -7.59066200 1.97554076
0.18246752 -7.44990158 1.98615599
0.35658908 -7.44802427 1.94618714
0.00510653 -7.45221949 2.00957060
0.00705320 -7.31160784 2.01991820
0.18597947 -7.30926514 1.99581504
-0.17358693 -7.31432724 2.02585721
-0.17317581 -7.17403698 2.03781986
0.00928720 -7.17124367 2.03122163
-0.35561898 -7.17735100 2.02735329
-0.35677809 -7.03720045 2.03894925
-0.17243280 -7.03383636 2.04906893
-0.53950363 -7.04104376 2.01115084
-0.54109371 -6.90078354 2.01689649
-0.35705051 -6.89692974 2.04520011
-0.72197157 -6.90506792 1.97211802
-0.72414607 -6.76507568 1.97540689
-0.54202986 -6.76069689 2.02023530
-0.90131396 -6.76983595 1.91342545
-0.72838622 -6.62580633 1.98612118
-0.90757006 -6.63068485 1.92409480
-1.08027983 -6.63588142 1.84546483
-0.91635239 -6.49259996 1.94162500
-1.09165788 -6.49789476 1.86224687
-1.25917649 -6.50347757 1.76759756
-1.10468030 -6.36076069 1.88275385
-1.27475488 -6.36631823 1.78663361
-1.43430841 -6.37196493 1.67428052
-1.29175472 -6.22987223 1.80832446
-1.45401311 -6.23547888 1.69429731
-1.58252370 -6.37768602 1.54779088
-1.60446727 -6.24110126 1.56561327
-1.47538686 -6.09973669 1.71670651
-1.62818408 -6.10519505 1.58546150
-1.62818408 -6.10519505 1.58546150
-1.76748335 -6.11051035 1.44016373
-1.60446727 -6.24110126 1.56561327
-1.79526675 -5.97516870 1.45895684
-1.65321350 -5.96982431 1.60657275
-1.92235088 -5.98029041 1.29892778
-1.95407724 -5.84545946 1.31606150
-1.82432330 -5.84029818 1.47881007
-2.06707406 -5.85017490 1.14203918
-2.10053420 -5.71525002 1.15590870
-1.98598206 -5.71072245 1.33348250
-2.19665480 -5.71967793 0.96793246
-2.23232913 -5.58494043 0.97859704
-2.13436604 -5.58040810 1.16999114
-2.31161284 -5.58941889 0.77893096
-2.34769320 -5.45442915 0.78569734
-2.26757717 -5.45000553 0.98903394
-2.40674257 -5.45857000 0.57563895
-2.44306588 -5.32326794 0.57867044
-2.38287711 -5.31908274 0.79204756
-2.48312378 -5.32722569 0.36106816
-2.51979876 -5.19156742 0.36068174
-2.47911167 -5.18771410 0.58155829
-2.53804207 -5.19486141 0.13790312
-2.57452846 -5.05845499 0.13460417
-2.55580497 -5.05540895 0.36033994
-2.57217598 -5.06106091 -0.09058179
-2.61006451 -4.92137003 0.13160242
-2.60777593 -4.92370796 -0.09630792
-2.58397484 -4.92568445 -0.32228145
-2.64285111 -4.78577614 -0.10162786
-2.61798978 -4.78742075 -0.33039516
-2.57095742 -4.78913450 -0.55520958
-2.64951801 -4.64832973 -0.33788964
-2.60125232 -4.65015697 -0.56567609
-2.53030992 -4.65246058 -0.78771174
-2.62938738 -4.51075411 -0.57577115
-2.55682540 -4.51354742 -0.80093241
-2.46133375 -4.51674271 -1.01816821
-2.58009124 -4.37414980 -0.81329602
-2.48369861 -4.37825632 -1.03399420
-2.36623883 -4.38256025 -1.24460721
-2.50307107 -4.23942709 -1.04910207
-2.38324881 -4.24437571 -1.26208770
-2.24389005 -4.24904680 -1.46266532
-2.39921856 -4.10620070 -1.27998447
-2.25935459 -4.11145163 -1.48333573
-2.10387778 -4.11612749 -1.67340219
-2.27308035 -3.97334599 -1.50349104
-2.11588979 -3.97780395 -1.69426584
-1.94464111 -3.98121214 -1.86950207
-1.95218515 -3.84155631 -1.88825536
-2.12490463 -3.83844543 -1.71298969
-1.76476860 -3.84401321 -2.04413867
-1.76742864 -3.70325303 -2.05934548
-1.95622218 -3.70091486 -1.90412116
-1.56642020 -3.70533323 -2.19472146
-1.56591499 -3.56387925 -2.20781851
-1.76746345 -3.56176901 -2.07263565
-1.35439062 -3.56574678 -2.32202864
-1.56402266 -3.42194009 -2.22085071
-1.35184932 -3.42385197 -2.33433270
-1.13224101 -3.42535782 -2.42694640
-1.34723783 -3.28149652 -2.34589410
-1.12687147 -3.28319550 -2.43752670
-0.90133876 -3.28449845 -2.50819707
-0.89270997 -3.14251423 -2.51632524
-1.11894596 -3.14079046 -2.44687390
-0.66349190 -3.14385200 -2.56444263
-0.65153939 -3.00232363 -2.56973767
-0.88117850 -3.00044632 -2.52245784
-0.42130587 -3.00386906 -2.59605026
-0.40647048 -2.86291528 -2.59755087
-0.63668412 -2.86079550 -2.57232356
-0.17827284 -2.86485219 -2.60216260
-0.16184247 -2.72446823 -2.59914112
-0.38914850 -2.72197199 -2.59538651
0.06110460 -2.72675157 -2.58485556
0.07760431 -2.58690286 -2.57553315
-0.14347035 -2.58409929 -2.59072518
0.29235348 -2.58963203 -2.54270220
0.30724832 -2.45074415 -2.52620721
0.09523343 -2.44724679 -2.55980635
0.51130319 -2.45440435 -2.47627711
0.32278708 -2.31250978 -2.50228763
0.52310711 -2.31727481 -2.45201540
0.71420878 -2.32249069 -2.38732910
0.53464353 -2.18123507 -2.41966486
0.72120303 -2.18801141 -2.35607314
0.89762288 -2.19583774 -2.27971196
0.89809835 -2.06511760 -2.24219990
0.72694886 -2.05513167 -2.31625319
1.05871189 -2.07658458 -2.15669966
1.05202007 -1.95112062 -2.11478376
0.89775163 -1.93657720 -2.19572234
1.19722354 -1.96545064 -2.02506304
1.18258619 -1.84753025 -1.98128998
1.04527843 -1.82843506 -2.06366491
1.31410861 -1.86245966 -1.88837934
1.29230869 -1.75498116 -1.84670150
1.16995513 -1.73382521 -1.92750597
1.40770805 -1.76298082 -1.75171041
1.16083097 -1.62641108 -1.86167562
1.16223788 -1.52699161 -1.77841413
1.04030025 -1.59742892 -1.92553961
1.04455018 -1.49563193 -1.83282197
1.04054296 -1.70984077 -2.00151968
0.90173423 -1.68909121 -2.07157540
