-2.52217531 1.20775402 -0.37167493
-2.61406136 1.37980151 -0.22324865
-2.61325407 1.38004863 -0.30320928
-2.52878642 1.20802629 -0.29327047
-2.53014684 1.20884466 -0.21594258
-2.60574722 1.37939703 -0.15044239
-2.52305126 1.21020174 -0.14553416
-2.57589674 1.37914264 -0.02761427
-2.59081221 1.37891209 -0.07803742
-2.50998044 1.21231055 -0.07546830
-2.49511886 1.21178102 -0.02662088
-1.28807557 1.37965834 -2.23099923
-1.24709201 1.20979834 -2.15975404
-2.57614136 1.37965989 0.00000493
-2.49394917 1.20979726 0.00013706
-1.39723837 1.52138531 -2.26027250
-1.42256498 1.66620517 -2.30141735
-1.36917150 1.66638124 -2.31419444
-1.34475756 1.52129245 -2.27275586
-1.53776407 1.52102327 -2.20602727
-1.56583107 1.66686571 -2.24645305
-1.49574077 1.66655743 -2.27701807
-1.46901703 1.52118957 -2.23616672
-1.60823369 1.52092540 -2.16420698
-1.63764393 1.66705167 -2.20394754
-1.73606789 1.52088618 -2.06913018
-1.76784420 1.66712999 -2.10715318
-1.70743573 1.66711533 -2.15562868
-1.67675066 1.52089107 -2.11673975
-1.82466567 1.52088618 -1.99143052
-1.85806406 1.66712999 -2.02802944
-1.90978646 1.52088618 -1.90994310
-1.94475091 1.66712511 -1.94504941
-2.02773094 1.66712511 -1.85836506
-1.99127877 1.52088618 -1.82481980
-2.10685468 1.66712260 -1.76814270
-2.06897378 1.52088869 -1.73622203
-2.18196082 1.66712022 -1.67455351
-2.14273429 1.52089107 -1.64432120
-2.25292230 1.66712022 -1.57777870
-2.21241355 1.52089107 -1.54928839
-2.31958723 1.66711771 -1.47799909
-2.27788424 1.52089107 -1.45130479
-2.38184285 1.66711533 -1.37541080
-2.33901453 1.52089357 -1.35056126
-2.43956232 1.66711283 -1.27019942
-2.39569640 1.52089357 -1.24724865
-2.49263287 1.66711044 -1.16257560
-2.44781780 1.52089357 -1.14156258
-2.54096150 1.66711044 -1.05273974
-2.49527550 1.52089596 -1.03369904
-2.58445549 1.66710925 -0.94089270
-2.53798628 1.52089596 -0.92386812
-2.62302637 1.66710675 -0.82725960
-2.57586718 1.52089727 -0.81228530
-2.65660596 1.66710556 -0.71205562
-2.60883999 1.52089846 -0.69914639
-2.68513036 1.66710305 -0.59549129
-2.63685060 1.52089965 -0.58468628
-2.70853639 1.66710246 -0.47779647
-2.65984058 1.52089965 -0.46911043
-2.72031522 1.66708171 -0.40124178
-2.67141390 1.52091134 -0.39393568
-2.72816443 1.66682231 -0.23319723
-2.72725916 1.66701686 -0.31664696
-2.67826486 1.52094555 -0.31086278
-2.67924833 1.52104890 -0.22892517
-2.71958590 1.66650665 -0.15721507
-2.67097831 1.52121699 -0.15431319
-2.68849730 1.66633499 -0.02901872
-2.70412230 1.66615164 -0.08164396
-2.65596485 1.52141631 -0.08010250
-2.64053059 1.52132118 -0.02841192
-1.34420455 1.66672385 -2.32861090
-1.32017720 1.52110159 -2.28681016
-2.64052582 1.52110350 -0.00009783
-2.68873692 1.66672397 -0.00019081
-1.48158121 2.19769859 -2.39741898
-1.48781073 2.43439460 -2.40762711
-1.43193376 2.43439960 -2.42094231
-1.42593908 2.19769859 -2.41068053
-1.63067794 2.19769859 -2.33998823
-1.63753867 2.43440461 -2.34995151
-1.56428957 2.43440461 -2.38200927
-1.55773711 2.19770336 -2.37190890
-1.70543420 2.19769859 -2.29565763
-1.71261311 2.43440938 -2.30543494
-1.84101987 2.19770336 -2.19483089
-1.84877121 2.43440938 -2.20418262
-1.78559303 2.43440938 -2.25488949
-1.77810836 2.19769859 -2.24532270
-1.93498337 2.19769859 -2.11242843
-1.94313121 2.43440938 -2.12142777
-2.02526450 2.19769859 -2.02600336
-2.03379393 2.43440938 -2.03464055
-2.12058592 2.43441439 -1.94397771
-2.11168456 2.19769859 -1.93572235
-2.20333600 2.43440938 -1.84961534
-2.19409204 2.19770098 -1.84176123
-2.28189206 2.43440938 -1.75173461
-2.27232027 2.19770098 -1.74429154
-2.35610771 2.43440938 -1.65051639
-2.34621787 2.19770098 -1.64349902
-2.42583585 2.43441176 -1.54616141
-2.41565251 2.19770098 -1.53958452
-2.49094462 2.43440938 -1.43886542
-2.48049188 2.19770098 -1.43273866
-2.55131149 2.43440938 -1.32882905
-2.54060435 2.19770098 -1.32316232
-2.60682392 2.43440938 -1.21626258
-2.59587693 2.19770098 -1.21107543
-2.65736938 2.43440938 -1.10138655
-2.64621210 2.19770098 -1.09667885
-2.70285988 2.43440938 -0.98441106
-2.69151163 2.19770217 -0.98019773
-2.74320221 2.43441057 -0.86556143
-2.73168278 2.19770098 -0.86185211
-2.77832317 2.43441057 -0.74506748
-2.76665711 2.19770098 -0.74186224
-2.80815434 2.43441057 -0.62315941
-2.79636097 2.19770098 -0.62046796
-2.83264160 2.43441010 -0.50006211
-2.82074547 2.19770169 -0.49788940
-2.84496355 2.43441010 -0.41999385
-2.83301353 2.19770288 -0.41815877
-2.85325813 2.43440485 -0.24424687
-2.85225010 2.43440819 -0.33151844
-2.84027076 2.19770098 -0.33005530
-2.84127879 2.19770169 -0.24315071
-2.84440088 2.43440032 -0.16478050
-2.83245564 2.19770050 -0.16402200
-2.81193709 2.43439746 -0.03068741
-2.82834506 2.43439507 -0.08573987
-2.81646848 2.19770122 -0.08531412
-2.80012894 2.19770074 -0.03049657
-1.40566266 2.43440461 -2.43575025
-1.39979780 2.19769859 -2.42545414
-2.81225014 2.43440390 -0.00053336
-2.80040288 2.19770074 -0.00046974
-1.47075176 2.87793159 -2.38013005
-1.41551089 2.87794137 -2.39329863
-1.42835891 2.65574479 -2.41498208
-1.48409891 2.65576434 -2.40169597
-1.61876214 2.87798524 -2.32311058
-1.54635227 2.87796092 -2.35480595
-1.56038940 2.65573502 -2.37614179
-1.63345742 2.65570545 -2.34416246
-1.69297528 2.87800002 -2.27910280
-1.70834589 2.65569091 -2.29976344
-1.82757235 2.87800479 -2.17901015
-1.76511848 2.87800479 -2.22913480
-1.78114486 2.65568590 -2.24934030
-1.84416890 2.65568590 -2.19876051
-1.92085576 2.87800479 -2.09720469
-1.93829632 2.65568590 -2.11621118
-2.01048112 2.87800479 -2.01140594
-2.02873397 2.65568590 -2.02963924
-2.11530590 2.65568590 -1.93920159
-2.09627485 2.87800479 -1.92178547
-2.19785523 2.65568590 -1.84507418
-2.17808032 2.87800479 -1.82849967
-2.27621555 2.65568590 -1.74743319
-2.25574088 2.87800479 -1.73173952
-2.35025001 2.65568590 -1.64646947
-2.32910514 2.87800741 -1.63168108
-2.41980219 2.65568590 -1.54237378
-2.39803076 2.87800741 -1.52852011
-2.48474932 2.65568590 -1.43533719
-2.46239567 2.87800741 -1.42245245
-2.54496932 2.65568590 -1.32557487
-2.52207255 2.87800479 -1.31367373
-2.60033989 2.65568590 -1.21329224
-2.57694864 2.87800479 -1.20239913
-2.65076303 2.65568352 -1.09869504
-2.62691689 2.87800479 -1.08883452
-2.69614100 2.65568471 -0.98200834
-2.67188358 2.87800479 -0.97319996
-2.73638058 2.65568590 -0.86345720
-2.71176600 2.87800622 -0.85571069
-2.77141833 2.65568590 -0.74326175
-2.74648571 2.87800622 -0.73659676
-2.80117607 2.65568590 -0.62165219
-2.77597427 2.87800622 -0.61608332
-2.82559991 2.65568542 -0.49886322
-2.80018282 2.87800479 -0.49439541
-2.83789253 2.65568662 -0.41899067
-2.81236291 2.87800622 -0.41524222
-2.84616733 2.65570688 -0.24367921
-2.82056928 2.87798572 -0.24150649
-2.81956601 2.87800050 -0.32777977
-2.84515929 2.65569115 -0.33073547
-2.83732486 2.65573192 -0.16441348
-2.81180978 2.87796021 -0.16295521
-2.80494428 2.65574813 -0.03065316
-2.77972269 2.87794566 -0.03039870
-2.79594493 2.87793112 -0.08481498
-2.82130814 2.65576243 -0.08556370
-1.38952374 2.87797546 -2.40790105
-1.40214419 2.65571523 -2.42973113
-2.80528188 2.65571690 -0.00057250
-2.78006530 2.87797379 -0.00058718
-1.41253567 3.30289721 -2.28587794
-1.35947001 3.30298519 -2.29849839
-1.39298832 3.08946991 -2.35521460
-1.44733620 3.08956289 -2.34223437
-1.55462730 3.30323005 -2.23103094
-1.48511434 3.30308318 -2.26150560
-1.52176702 3.08937192 -2.31736302
-1.59305382 3.08921051 -2.28621554
-1.62588465 3.30332303 -2.18874836
-1.66610730 3.08911276 -2.24293447
-1.75514054 3.30336213 -2.09260964
-1.69516265 3.30335236 -2.14074993
-1.73711264 3.08907843 -2.19376659
-1.79858053 3.08906865 -2.14443970
-1.84472430 3.30336213 -2.01404858
-1.89037871 3.08906865 -2.06393099
-1.93079937 3.30335975 -1.93165338
-1.97858489 3.08906865 -1.97949517
-2.06301832 3.08907104 -1.89129376
-2.01319218 3.30336213 -1.84558070
-2.14352703 3.08907104 -1.79949081
-2.09175324 3.30335975 -1.75599682
-2.21995449 3.08907104 -1.70426226
-2.16633582 3.30335975 -1.66307080
-2.29215384 3.08907342 -1.60579419
-2.23679304 3.30335975 -1.56698108
-2.35998821 3.08907342 -1.50427020
-2.30298829 3.30336213 -1.46790862
-2.42333031 3.08907342 -1.39988101
-2.36479855 3.30335975 -1.36604202
-2.48206282 3.08907342 -1.29283214
-2.42211199 3.30336213 -1.26157701
-2.53606319 3.08907104 -1.18332422
-2.47481060 3.30335712 -1.15471411
-2.58524323 3.08907104 -1.07156026
-2.52280164 3.30335975 -1.04565144
-2.62949562 3.08907223 -0.95775837
-2.56598711 3.30336094 -0.93459964
-2.66874194 3.08907342 -0.84213597
-2.60428405 3.30335712 -0.82177144
-2.70291352 3.08907342 -0.72491097
-2.63762879 3.30335832 -0.70737737
-2.73193240 3.08907485 -0.60630846
-2.66594768 3.30335832 -0.59164006
-2.75575423 3.08907342 -0.48655105
-2.68919206 3.30335784 -0.47477472
-2.76774335 3.08908510 -0.40865549
-2.70089746 3.30334997 -0.39876318
-2.77577376 3.08921576 -0.23766993
-2.70881534 3.30322456 -0.23191512
-2.70782185 3.30331969 -0.31476539
-2.77481937 3.08911753 -0.32257792
-2.76710224 3.08937693 -0.16036162
-2.70044732 3.30307269 -0.15647614
-2.73549008 3.08947897 -0.02991179
-2.66966200 3.30297828 -0.02917042
-2.68526745 3.30288982 -0.08143599
-2.75142837 3.08956981 -0.08346436
-1.36744654 3.08927894 -2.36964083
-1.33449090 3.30316639 -2.31248903
-2.73589134 3.08927751 -0.00057740
-2.66992140 3.30316687 -0.00054070
-1.33230340 3.67199826 -2.15588808
-1.28226447 3.67199826 -2.16781354
-1.32281733 3.49415684 -2.23646283
-1.37440264 3.49431324 -2.22410178
-1.46637702 3.67200303 -2.10424161
-1.40078378 3.67200303 -2.13294721
-1.44513166 3.49398065 -2.20056129
-1.51287305 3.49370646 -2.17105079
-1.53360212 3.67200303 -2.06438112
-1.58227825 3.49353528 -2.12998652
-1.65552497 3.67200303 -1.97371089
-1.59895301 3.67199826 -2.01911569
-1.64971876 3.49348140 -2.08330441
-1.70809639 3.49346685 -2.03646350
-1.74002182 3.67200303 -1.89961040
-1.79527497 3.49346185 -1.96000659
-1.82120585 3.67200303 -1.82189095
-1.87904036 3.49346185 -1.87982082
-1.95922601 3.49346685 -1.79605544
-1.89892280 3.67200065 -1.74070942
-2.03567791 3.49346685 -1.70887446
-1.97302580 3.67200303 -1.65621006
-2.10825920 3.49346685 -1.61843920
-2.04337072 3.67200303 -1.56856167
-2.17682767 3.49346924 -1.52492583
-2.10982513 3.67200303 -1.47792816
-2.24125123 3.49346924 -1.42851067
-2.17226195 3.67200065 -1.38448095
-2.30140257 3.49346924 -1.32937717
-2.23056865 3.67200065 -1.28839850
-2.35717940 3.49347162 -1.22771358
-2.28462768 3.67200065 -1.18986690
-2.40846372 3.49346924 -1.12371337
-2.33433127 3.67200303 -1.08906949
-2.45516777 3.49346924 -1.01757717
-2.37959671 3.67199945 -0.98620218
-2.49719357 3.49347281 -0.90950310
-2.42032576 3.67200184 -0.88145328
-2.53446293 3.49347043 -0.79969919
-2.45645475 3.67200303 -0.77503079
-2.56691217 3.49347162 -0.68837327
-2.48790574 3.67200422 -0.66713041
-2.59447265 3.49347281 -0.57574087
-2.51461458 3.67200112 -0.55796999
-2.61709547 3.49347353 -0.46200988
-2.53654265 3.67200255 -0.44773784
-2.62847304 3.49349117 -0.38803408
-2.54757762 3.67200184 -0.37604243
-2.63603830 3.49371672 -0.22565138
-2.55500603 3.67200065 -0.21866828
-2.55410075 3.67200208 -0.29681584
-2.63518190 3.49354792 -0.30628732
-2.62772417 3.49399805 -0.15222853
-2.54707360 3.67199993 -0.14750871
-2.59765816 3.49417567 -0.02835075
-2.51800585 3.67200303 -0.02743565
-2.53269625 3.67200112 -0.07673328
-2.61274505 3.49433303 -0.07920453
-1.29862356 3.49382401 -2.25027251
-1.25875342 3.67200303 -2.18109226
-2.51826048 3.67200160 -0.00043304
-2.59810352 3.49382377 -0.00049421
-1.17553127 4.03689051 -1.98710585
-1.22130311 4.03716946 -1.97601581
-1.16562426 4.19207001 -1.88579714
-1.12173641 4.19239044 -1.89603198
-1.28429282 4.03658247 -1.95532095
-1.34461558 4.03609800 -1.92927265
-1.28240144 4.19330549 -1.83987963
-1.22526443 4.19274807 -1.86531997
-1.40637219 4.03580427 -1.89288414
-1.34104085 4.19364071 -1.80482721
-1.46633780 4.03570890 -1.85142851
-1.51822901 4.03568459 -1.80980515
-1.44758332 4.19378042 -1.72547340
-1.39813399 4.19374609 -1.76518941
-1.52146125 4.19378042 -1.66068399
-1.59571350 4.03568697 -1.74185205
-1.67016160 4.03568459 -1.67058361
-1.59244466 4.19377565 -1.59273458
-1.74142873 4.03568697 -1.59613431
-1.66039407 4.19377565 -1.52175236
-1.80938065 4.03568697 -1.51864743
-1.72518468 4.19377279 -1.44787443
-1.87388742 4.03568697 -1.43827212
-1.78668928 4.19377041 -1.37124264
-1.93483174 4.03569174 -1.35515630
-1.84479523 4.19377279 -1.29199648
-1.99208629 4.03568935 -1.26946533
-1.89938772 4.19377041 -1.21029496
-2.04555321 4.03569174 -1.18135452
-1.95036387 4.19377041 -1.12628746
-2.09511995 4.03569174 -1.09100008
-1.99763060 4.19376707 -1.04014015
-2.14070344 4.03569174 -0.99856699
-2.04109025 4.19376802 -0.95200849
-2.18221045 4.03569412 -0.90423274
-2.08066440 4.19376707 -0.86206746
-2.21956301 4.03569555 -0.80817848
-2.11627960 4.19376469 -0.77048713
-2.25268745 4.03569651 -0.71058518
-2.14786744 4.19376469 -0.67743623
-2.28152990 4.03569841 -0.61164123
-2.17536449 4.19376326 -0.58309835
-2.30602217 4.03569889 -0.51153505
-2.19872141 4.19376087 -0.48765209
-2.32612991 4.03569889 -0.41045511
-2.21788931 4.19375801 -0.39127851
-2.33623004 4.03572989 -0.34470290
-2.22756386 4.19372702 -0.32859334
-2.34277272 4.03612280 -0.20036639
-2.23439050 4.19327307 -0.19102216
-2.23334813 4.19361687 -0.25933245
-2.34214640 4.03582716 -0.27204347
-2.33516812 4.03661346 -0.13510111
-2.22785258 4.19271421 -0.12882026
-2.30831718 4.03692436 -0.02501824
-2.20268512 4.19235849 -0.02380342
-2.21576548 4.19203472 -0.06693151
-2.32159829 4.03720284 -0.07020285
-1.15420997 4.03630829 -1.99968469
-1.10098529 4.19306326 -1.90733111
-2.30888486 4.03630638 -0.00026666
-2.20228863 4.19306421 -0.00018348
-1.05076766 4.37353516 -1.77589405
-1.09160435 4.37389708 -1.76586533
-1.00577879 4.56930637 -1.62681603
-0.96801287 4.56930637 -1.63581645
-1.14806366 4.37312174 -1.74761856
-1.20212281 4.37248564 -1.72453690
-1.10697258 4.56930923 -1.58783424
-1.05746698 4.56930637 -1.60950112
-1.25741994 4.37210131 -1.69212437
-1.15771139 4.56930637 -1.55774808
-1.31106055 4.37197924 -1.65509856
-1.35746121 4.37194490 -1.61789715
-1.24973702 4.56930923 -1.48931706
-1.20703590 4.56930637 -1.52358496
-1.42673433 4.37194729 -1.55714190
-1.31350982 4.56930637 -1.43338740
-1.49329388 4.37194490 -1.49342358
-1.37478685 4.56930637 -1.37472808
-1.55701041 4.37194729 -1.42686272
-1.43344331 4.56930923 -1.31345165
-1.61776137 4.37194967 -1.35758603
-1.48937178 4.56930923 -1.24967706
-1.67543435 4.37194967 -1.28572726
-1.54246676 4.56930923 -1.18352389
-1.72991920 4.37195206 -1.21141744
-1.59262323 4.56930637 -1.11511886
-1.78110814 4.37195206 -1.13480401
-1.63975060 4.56930780 -1.04458654
-1.82890594 4.37195444 -1.05602944
-1.68375587 4.56930637 -0.97206867
-1.87322676 4.37195444 -0.97524738
-1.72455585 4.56930780 -0.89769894
-1.91397536 4.37195826 -0.89260632
-1.76207221 4.56930637 -0.82162231
-1.95108807 4.37195969 -0.80826837
-1.79623652 4.56930637 -0.74398088
-1.98448169 4.37195826 -0.72239268
-1.82698023 4.56930637 -0.66492194
-2.01409745 4.37196064 -0.63513941
-1.85424471 4.56930780 -0.58459884
-2.03988147 4.37196207 -0.54667807
-1.87798333 4.56930733 -0.50316161
-2.06178021 4.37196302 -0.45717871
-1.89814472 4.56930637 -0.42076886
-2.07975411 4.37196207 -0.36680892
-1.91468978 4.56930637 -0.33757362
-2.08876801 4.37200403 -0.30802086
-1.92302358 4.56930876 -0.28345707
-2.09442997 4.37251520 -0.17896140
-1.92862666 4.56930923 -0.16467650
-1.92794156 4.56930733 -0.22366154
-2.09400916 4.37212992 -0.24305651
-2.08738327 4.37316084 -0.12060398
-1.92263699 4.56930637 -0.11097164
-2.06322384 4.37357235 -0.02220445
-1.90069914 4.56930876 -0.02034430
-1.91178799 4.56930733 -0.05755119
-2.07494879 4.37394190 -0.06258421
-1.03190303 4.37275934 -1.78747094
-0.95037162 4.56930637 -1.64602160
-1.90068448 4.56930685 0.00003612
-2.06394792 4.37275887 -0.00008132
-0.85349274 4.84370995 -1.44192958
-0.88678604 4.84370995 -1.43399608
-0.79147679 5.07076359 -1.27953327
-0.76161754 5.07112312 -1.28636467
-0.93235475 4.84370995 -1.41873026
-0.97599667 4.84370995 -1.39962852
-0.87043667 5.07215548 -1.24792707
-0.83179843 5.07152939 -1.26538777
-1.02072859 4.84370995 -1.37310660
-0.91014051 5.07252979 -1.22402692
-1.06421030 4.84370995 -1.34298956
-1.10185635 4.84371471 -1.31277728
-0.98239011 5.07268667 -1.17014217
-0.94884729 5.07265234 -1.19709766
-1.15807831 4.84371233 -1.26347065
-1.03250980 5.07268429 -1.12618649
-1.21209586 4.84371233 -1.21175873
-1.08066726 5.07268667 -1.08008552
-1.26380837 4.84370995 -1.15773928
-1.12676942 5.07268286 -1.03192997
-1.31311345 4.84370995 -1.10151577
-1.17072570 5.07267904 -0.98180962
-1.35992026 4.84371233 -1.04319549
-1.21245551 5.07267666 -0.92981869
-1.40414083 4.84371138 -0.98288816
-1.25187552 5.07267809 -0.87605572
-1.44568455 4.84371233 -0.92071086
-1.28891480 5.07267570 -0.82062525
-1.48448062 4.84371376 -0.85677910
-1.32349992 5.07267666 -0.76363128
-1.52044821 4.84371138 -0.79121679
-1.35556746 5.07267332 -0.70518512
-1.55352128 4.84371376 -0.72414750
-1.38505352 5.07266951 -0.64539510
-1.58364117 4.84371281 -0.65569919
-1.41190445 5.07266951 -0.58437371
-1.61074400 4.84371185 -0.58600366
-1.43606627 5.07267046 -0.52223969
-1.63478112 4.84371138 -0.51518977
-1.45749760 5.07266808 -0.45911106
-1.65570605 4.84371042 -0.44339848
-1.47615433 5.07266617 -0.39510891
-1.67348182 4.84371233 -0.37076044
-1.49200201 5.07266474 -0.33035317
-1.68806946 4.84371138 -0.29741776
-1.50500667 5.07266378 -0.26496801
-1.69541228 4.84371138 -0.24971046
-1.51158357 5.07262468 -0.22244367
-1.70035720 4.84371185 -0.14499389
-1.51640868 5.07211637 -0.12912305
-1.51555717 5.07249975 -0.17545763
-1.69975281 4.84371185 -0.19699384
-1.69507706 4.84371233 -0.09764680
-1.51221490 5.07148647 -0.08693085
-1.67573535 4.84371042 -0.01775221
-1.49528563 5.07108498 -0.01566301
-1.50430441 5.07072020 -0.04493929
-1.68551266 4.84370995 -0.05055341
-0.83799368 4.84370995 -1.45101810
-0.74753517 5.07188177 -1.29403162
-1.67561543 4.84370899 0.00021435
-1.49443173 5.07188225 0.00036826
-0.63333070 5.44012737 -1.06907082
-0.65802479 5.44012737 -1.06318510
-0.60721505 5.62684345 -0.98075444
-0.58443189 5.62684822 -0.98618382
-0.69182330 5.44012880 -1.05186260
-0.72419536 5.44012880 -1.03769457
-0.66826695 5.62684441 -0.95723724
-0.63840038 5.62684441 -0.97030914
-0.75737363 5.44012976 -1.01802123
-0.69887859 5.62684441 -0.93908584
-0.78962702 5.44012737 -0.99568099
-0.81754839 5.44012737 -0.97327340
-0.75439715 5.62684584 -0.89780021
-0.72863746 5.62684059 -0.91847545
-0.85925126 5.44012499 -0.93670267
-0.79287392 5.62684822 -0.86405671
-0.89931840 5.44012880 -0.89834458
-0.82984102 5.62684202 -0.82866776
-0.93767530 5.44012594 -0.85827744
-0.86522996 5.62684679 -0.79170066
-0.97424722 5.44012737 -0.81657457
-0.89897221 5.62684584 -0.75322390
-1.00896454 5.44012737 -0.77331680
-0.93100417 5.62684584 -0.71331209
-1.04176354 5.44012594 -0.72858489
-0.96126467 5.62684870 -0.67204112
-1.07258070 5.44012737 -0.68246436
-0.98969620 5.62684822 -0.62948924
-1.10135472 5.44012737 -0.63504344
-1.01624620 5.62684870 -0.58573848
-1.12803447 5.44012499 -0.58641499
-1.04086065 5.62684679 -0.54087192
-1.15256584 5.44012880 -0.53666717
-1.06349587 5.62684774 -0.49497288
-1.17490733 5.44012737 -0.48589778
-1.08410740 5.62684441 -0.44813180
-1.19500995 5.44012737 -0.43420109
-1.10265398 5.62684822 -0.40043315
-1.21283722 5.44012785 -0.38167617
-1.11910367 5.62684822 -0.35197353
-1.22836196 5.44012451 -0.32842577
-1.13342464 5.62684679 -0.30284226
-1.24154520 5.44012594 -0.27454776
-1.14559007 5.62684631 -0.25313357
-1.25236487 5.44012594 -0.22014615
-1.15557289 5.62684774 -0.20294042
-1.25781143 5.44012737 -0.18476211
-1.16059852 5.62684488 -0.17029311
-1.26147664 5.44012594 -0.10708922
-1.16398239 5.62684202 -0.09863072
-1.16356897 5.62684488 -0.13421662
-1.26103139 5.44012594 -0.14566019
-1.25756180 5.44012880 -0.07196943
-1.16036856 5.62684345 -0.06622808
-1.24321640 5.44012785 -0.01270853
-1.14713144 5.62684441 -0.01155366
-1.15382338 5.62684488 -0.03400037
-1.25046861 5.44012880 -0.03703927
-0.62196666 5.44012737 -1.07604170
-0.57399637 5.62684584 -0.99270326
-1.24286163 5.44012690 0.00061783
-1.14670336 5.62684488 0.00074384
-0.53293461 5.87896776 -0.89882541
-0.55370647 5.87896633 -0.89387554
-0.50421065 6.21336222 -0.81338888
-0.48530200 6.21336079 -0.81789339
-0.58213556 5.87896872 -0.88435268
-0.60936332 5.87896490 -0.87243450
-0.55487484 6.21336222 -0.79386848
-0.53008902 6.21336222 -0.80471754
-0.63726997 5.87896776 -0.85588694
-0.58027846 6.21336603 -0.77880615
-0.66439986 5.87896776 -0.83709812
-0.68788522 5.87896872 -0.81824815
-0.62635249 6.21336079 -0.74454397
-0.60497379 6.21336365 -0.76170319
-0.72296095 5.87896872 -0.78748733
-0.65828168 6.21336412 -0.71654308
-0.75666410 5.87897015 -0.75522417
-0.68896055 6.21336460 -0.68717200
-0.78892601 5.87896633 -0.72152227
-0.71832919 6.21336269 -0.65649432
-0.81968689 5.87896633 -0.68644530
-0.74633014 6.21336031 -0.62456387
-0.84889036 5.87896824 -0.65005928
-0.77291310 6.21336222 -0.59144431
-0.87647778 5.87896776 -0.61243522
-0.79802680 6.21335983 -0.55719435
-0.90239769 5.87896919 -0.57364160
-0.82162106 6.21336412 -0.52188009
-0.92659998 5.87897110 -0.53375673
-0.84365302 6.21336079 -0.48557481
-0.94904053 5.87896681 -0.49285397
-0.86408120 6.21336365 -0.44833979
-0.96967423 5.87897253 -0.45100921
-0.88286388 6.21336365 -0.41024840
-0.98846543 5.87896633 -0.40830564
-0.89996803 6.21336222 -0.37137645
-1.00537515 5.87897110 -0.36482155
-0.91536194 6.21336365 -0.33179498
-1.02036893 5.87896824 -0.32064500
-0.92901248 6.21336508 -0.29157731
-1.03342736 5.87896776 -0.27585188
-0.94089770 6.21336222 -0.25080425
-1.04451621 5.87896872 -0.23053271
-0.95099062 6.21336365 -0.20955162
-1.05361819 5.87896824 -0.18477556
-0.95927542 6.21336079 -0.16790016
-1.05819857 5.87897110 -0.15501300
-0.96344715 6.21336460 -0.14080456
-1.06128144 5.87896824 -0.08968408
-0.96625364 6.21336031 -0.08133814
-0.96591109 6.21336079 -0.11086827
-1.06090713 5.87896872 -0.12212344
-1.05799055 5.87897015 -0.06014172
-0.96325630 6.21336365 -0.05444563
-1.04592311 5.87896872 -0.01029602
-0.95227033 6.21336460 -0.00907263
-0.95782447 6.21336222 -0.02769993
-1.05202293 5.87896872 -0.03076084
-0.52348882 5.87896872 -0.90488607
-0.47679088 6.21336222 -0.82356012
-1.04539943 5.87896824 0.00091266
-0.95161945 6.21336222 0.00113287
-0.45676830 6.64980650 -0.73609769
-0.43964821 6.64980841 -0.74017894
-0.50264353 6.64980650 -0.71842706
-0.48020047 6.64980698 -0.72824842
-0.52564567 6.64980888 -0.70478386
-0.56736314 6.64980841 -0.67376363
-0.54800671 6.64980459 -0.68930066
-0.59627551 6.64980698 -0.64841014
-0.62405372 6.64980650 -0.62181860
-0.65064532 6.64980936 -0.59403789
-0.67599875 6.64980841 -0.56512684
-0.70006895 6.64981270 -0.53513426
-0.72280806 6.64980888 -0.50412381
-0.74417204 6.64980602 -0.47214934
-0.76412064 6.64980936 -0.43927449
-0.78261703 6.64980745 -0.40556282
-0.79962456 6.64981079 -0.37107307
-0.81511265 6.64980745 -0.33587375
-0.82904947 6.64980841 -0.30003336
-0.84140939 6.64981031 -0.26362047
-0.85217148 6.64980698 -0.22670351
-0.86131144 6.64981031 -0.18935104
-0.86881202 6.64980936 -0.15163645
-0.87258863 6.64980841 -0.12710018
-0.87513083 6.64980841 -0.07325155
-0.87482250 6.64980698 -0.09999481
-0.87241614 6.64980650 -0.04890613
-0.86247122 6.64980698 -0.00781988
-0.86749935 6.64980698 -0.02468795
-0.43205526 6.64980841 -0.74550313
-0.86165398 6.64980745 0.00141914
-0.43461889 7.20432854 -0.69954288
-0.41833803 7.20432425 -0.70342344
-0.42229813 6.98092508 -0.71042126
-0.43873742 6.98092127 -0.70650148
-0.47824427 7.20432663 -0.68273842
-0.45690227 7.20433140 -0.69208020
-0.46123612 6.98092508 -0.69896543
-0.48278427 6.98092413 -0.68953556
-0.50011724 7.20432949 -0.66977054
-0.50487006 6.98092127 -0.67644042
-0.53978926 7.20432901 -0.64026731
-0.52138090 7.20432949 -0.65504092
-0.52634054 6.98092079 -0.66156894
-0.54492748 6.98092318 -0.64665335
-0.56728244 7.20432663 -0.61615187
-0.57268614 6.98092508 -0.62230796
-0.59369785 7.20432472 -0.59086692
-0.59935844 6.98092413 -0.59677339
-0.62489176 6.98092365 -0.57009864
-0.61898524 7.20432520 -0.56445152
-0.64923596 6.98092508 -0.54234242
-0.64309454 7.20433140 -0.53695953
-0.67234695 6.98092413 -0.51354390
-0.66598415 7.20433092 -0.50843990
-0.69418079 6.98092556 -0.48377153
-0.68760753 7.20432854 -0.47895139
-0.71469331 6.98092604 -0.45306939
-0.70792305 7.20433092 -0.44854286
-0.73384792 6.98092508 -0.42150110
-0.72689414 7.20432854 -0.41728285
-0.75160784 6.98092079 -0.38913026
-0.74448401 7.20432854 -0.38522032
-0.76793760 6.98092413 -0.35601559
-0.76065719 7.20432854 -0.35242373
-0.78280908 6.98092222 -0.32222074
-0.77538437 7.20432854 -0.31895185
-0.79619175 6.98092556 -0.28780439
-0.78863853 7.20432663 -0.28487316
-0.80805856 6.98092365 -0.25284487
-0.80039287 7.20432949 -0.25024149
-0.81839132 6.98092413 -0.21739598
-0.81062645 7.20432901 -0.21513516
-0.82716668 6.98092556 -0.18153115
-0.81931740 7.20432758 -0.17961776
-0.83436996 6.98092318 -0.14531888
-0.82645100 7.20432472 -0.14375293
-0.83799487 6.98092604 -0.12176132
-0.83004284 7.20432901 -0.12042049
-0.84043676 6.98092079 -0.07006095
-0.83245903 7.20432854 -0.06921437
-0.83216423 7.20432711 -0.09464126
-0.84014070 6.98092175 -0.09573252
-0.83782971 6.98092175 -0.04667957
-0.82987773 7.20432758 -0.04605808
-0.82827997 6.98092175 -0.00723266
-0.82041967 7.20432854 -0.00699287
-0.82519948 7.20432520 -0.02303393
-0.83310747 6.98092508 -0.02343031
-0.41124666 7.20432901 -0.70871341
-0.41508690 6.98092508 -0.71567690
-0.82733673 6.98092413 0.00163935
-0.81938469 7.20432901 0.00179595
-0.43473083 7.38359308 -0.69946945
-0.44077680 7.66017342 -0.70883083
-0.42427209 7.66017485 -0.71276528
-0.41844875 7.38359308 -0.70335007
-0.47835928 7.38359213 -0.68266499
-0.48500106 7.66017342 -0.69179636
-0.46336666 7.66017485 -0.70126539
-0.45701420 7.38359880 -0.69200194
-0.50023347 7.38359737 -0.66969222
-0.50717497 7.66017485 -0.67864740
-0.53990912 7.38359499 -0.64018899
-0.54739136 7.66017485 -0.64874291
-0.52873105 7.66017056 -0.66371721
-0.52149957 7.38358879 -0.65496260
-0.56740475 7.38359451 -0.61607355
-0.57526261 7.66017342 -0.62429965
-0.59382260 7.38359213 -0.59078860
-0.60204256 7.66017294 -0.59866720
-0.62767619 7.66017532 -0.57188481
-0.61911124 7.38359308 -0.56436831
-0.65211701 7.66017485 -0.54401118
-0.64322424 7.38359737 -0.53687143
-0.67532223 7.66017294 -0.51510495
-0.66611505 7.38359499 -0.50835186
-0.69724292 7.66017103 -0.48521024
-0.68774086 7.38359356 -0.47885841
-0.71783739 7.66017294 -0.45438576
-0.70805764 7.38359499 -0.44844988
-0.73706782 7.66017485 -0.42269024
-0.72702992 7.38359118 -0.41718498
-0.75489873 7.66017294 -0.39019218
-0.74462104 7.38359261 -0.38512245
-0.77129579 7.66017675 -0.35694540
-0.76079547 7.38359642 -0.35232097
-0.78622478 7.66017532 -0.32301351
-0.77552384 7.38359642 -0.31884906
-0.79966128 7.66017342 -0.28846011
-0.78877920 7.38359356 -0.28476548
-0.81157702 7.66017294 -0.25335869
-0.80053353 7.38359785 -0.25013384
-0.82195014 7.66017246 -0.21777278
-0.81076717 7.38359642 -0.21502261
-0.83076102 7.66017342 -0.18176113
-0.81945932 7.38359261 -0.17950031
-0.83799243 7.66017246 -0.14540206
-0.82659411 7.38359547 -0.14363059
-0.84163326 7.66017485 -0.12175643
-0.83018601 7.38359356 -0.12030304
-0.84408367 7.66017294 -0.06984564
-0.84378397 7.66017103 -0.09562486
-0.83230859 7.38359356 -0.09451892
-0.83260339 7.38359451 -0.06909203
-0.84146565 7.66017294 -0.04637127
-0.83002204 7.38359308 -0.04593575
-0.82056284 7.38359451 -0.00686075
-0.83187914 7.66017294 -0.00676777
-0.83672500 7.66017246 -0.02302904
-0.82534385 7.38359261 -0.02290181
-0.41717583 7.66017294 -0.71829009
-0.41139346 7.38359070 -0.70870358
-0.81945324 7.38359070 0.00192318
-0.83064479 7.66017294 0.00213849
-0.45422611 7.89696074 -0.73019117
-0.46786505 8.06464100 -0.75193810
-0.45035225 8.06465626 -0.75611234
-0.43722102 7.89696264 -0.73424304
-0.49979058 7.89695835 -0.71263802
-0.51479787 8.06470394 -0.73386621
-0.49183732 8.06467342 -0.74390781
-0.47750044 7.89696836 -0.72239578
-0.52263737 7.89696407 -0.69909269
-0.53832972 8.06472397 -0.71991962
-0.56407470 7.89696026 -0.66827798
-0.58100760 8.06473446 -0.68818492
-0.56120461 8.06472969 -0.70407432
-0.54484671 7.89695835 -0.68370736
-0.59279007 7.89696217 -0.64309579
-0.61058301 8.06473827 -0.66224420
-0.62038112 7.89696026 -0.61668038
-0.63899988 8.06473160 -0.63504100
-0.66620189 8.06473446 -0.60662901
-0.64679283 7.89696026 -0.58909053
-0.69213891 8.06473827 -0.57704753
-0.67197752 7.89696264 -0.56037515
-0.71676081 8.06473923 -0.54636985
-0.69588369 7.89696503 -0.53058815
-0.74002230 8.06473446 -0.51464987
-0.71846867 7.89696169 -0.49978325
-0.76187694 8.06473923 -0.48193645
-0.73968834 7.89696264 -0.46802410
-0.78228545 8.06474209 -0.44830796
-0.75950354 7.89696503 -0.43537432
-0.80120641 8.06473827 -0.41381824
-0.77787519 7.89696217 -0.40188774
-0.81860417 8.06474400 -0.37854064
-0.79476649 7.89696407 -0.36763290
-0.83444828 8.06474209 -0.34253389
-0.81014937 7.89696074 -0.33267337
-0.84870565 8.06474209 -0.30587137
-0.82399321 7.89696217 -0.29707277
-0.86135060 8.06474590 -0.26861677
-0.83626992 7.89696407 -0.26090452
-0.87235737 8.06473827 -0.23085324
-0.84695864 7.89696169 -0.22423716
-0.88170773 8.06473827 -0.19264440
-0.85603738 7.89696264 -0.18713425
-0.88938326 8.06474304 -0.15405875
-0.86348903 7.89696264 -0.14967413
-0.89324552 8.06474400 -0.12896463
-0.86723876 7.89696264 -0.12530914
-0.89584279 8.06472206 -0.07387792
-0.89552838 8.06473827 -0.10123288
-0.86945552 7.89696026 -0.09837993
-0.86976379 7.89695883 -0.07182263
-0.89306080 8.06469059 -0.04896975
-0.86706746 7.89696217 -0.04763870
-0.88288343 8.06467152 -0.00694394
-0.88802409 8.06465530 -0.02419859
-0.86218250 7.89696264 -0.02358690
-0.85718739 7.89696312 -0.00683138
-0.44289327 8.06469917 -0.76209712
-0.42994919 7.89696026 -0.74000275
-0.85583675 7.89695978 0.00234402
-0.88144106 8.06469822 0.00251040
-0.48219091 8.20755768 -0.77482039
-0.50639808 8.41032314 -0.81354302
-0.48744905 8.41036606 -0.81806469
-0.46413800 8.20752048 -0.77911693
-0.53053308 8.20741844 -0.75616616
-0.55719805 8.41047001 -0.79399818
-0.53234613 8.41040325 -0.80486190
-0.50688380 8.20748138 -0.76653069
-0.55477571 8.20738220 -0.74178398
-0.58266777 8.41051483 -0.77890646
-0.59875041 8.20736504 -0.70907551
-0.62885433 8.41053104 -0.74457335
-0.60742301 8.41052723 -0.76176929
-0.57834429 8.20736885 -0.72545421
-0.62922621 8.20736694 -0.68234694
-0.66085935 8.41053200 -0.71650392
-0.65850800 8.20736027 -0.65431666
-0.69161165 8.41053104 -0.68706429
-0.68653828 8.20736027 -0.62503368
-0.72105002 8.41053867 -0.65631324
-0.74911821 8.41053677 -0.62429965
-0.71326560 8.20736313 -0.59455663
-0.77576482 8.41053677 -0.59110177
-0.73863870 8.20736217 -0.56294429
-0.80093849 8.41053963 -0.55676866
-0.76260728 8.20735645 -0.53025049
-0.82458776 8.41053867 -0.52137846
-0.78512740 8.20735931 -0.49654859
-0.84667480 8.41054344 -0.48498026
-0.80615747 8.20736027 -0.46189249
-0.86715066 8.41053581 -0.44766203
-0.82565457 8.20735550 -0.42635551
-0.88597739 8.41054058 -0.40948254
-0.84358209 8.20736027 -0.38999641
-0.90312439 8.41054249 -0.37051031
-0.85990822 8.20735645 -0.35289353
-0.91855371 8.41054630 -0.33083341
-0.87459987 8.20735550 -0.31511530
-0.93223733 8.41054630 -0.29052031
-0.88763016 8.20735836 -0.27672538
-0.94415188 8.41054726 -0.24965915
-0.89897221 8.20734978 -0.23781186
-0.95426929 8.41054249 -0.20830865
-0.90860635 8.20734882 -0.19843836
-0.96257365 8.41054440 -0.16654709
-0.91651559 8.20735168 -0.15867826
-0.96675521 8.41054440 -0.13939767
-0.92049646 8.20735741 -0.13282074
-0.96955675 8.41049194 -0.07978444
-0.96922159 8.41053581 -0.10938063
-0.92285150 8.20736599 -0.10424730
-0.92318672 8.20740318 -0.07606044
-0.96653748 8.41043282 -0.05283076
-0.92033869 8.20745754 -0.05039377
-0.95551962 8.41039085 -0.00734031
-0.96107626 8.41035271 -0.02601410
-0.91516984 8.20753002 -0.02486412
-0.90986282 8.20749760 -0.00708585
-0.47943342 8.41045380 -0.82463181
-0.45645940 8.20743370 -0.78529745
-0.95387048 8.41045475 0.00288721
-0.90831518 8.20743370 0.00265721
-0.53021866 8.56239891 -0.85050893
-0.55412245 8.68320370 -0.88700503
-0.53343743 8.68328762 -0.89195728
-0.51036674 8.56228352 -0.85519695
-0.58325988 8.56198120 -0.82991683
-0.60966182 8.68349934 -0.86571807
-0.58249158 8.68336105 -0.87756044
-0.55731183 8.56217861 -0.84134817
-0.60986733 8.56185627 -0.81408131
-0.63749874 8.68359280 -0.84925616
-0.65815687 8.56177425 -0.77813327
-0.68796718 8.68364716 -0.81175202
-0.66455030 8.68363571 -0.83053344
-0.63574690 8.56180191 -0.79613179
-0.69163001 8.56176281 -0.74877197
-0.72293407 8.68365860 -0.78108901
-0.72379285 8.56174755 -0.71798176
-0.75653195 8.68366241 -0.74892861
-0.78869361 8.68366718 -0.71533924
-0.75458187 8.56174183 -0.68581158
-0.81936026 8.68367767 -0.68036991
-0.78393584 8.56172371 -0.65232992
-0.84847319 8.68368816 -0.64409894
-0.81180340 8.56171227 -0.61759549
-0.87597740 8.68369770 -0.60659474
-0.83812821 8.56170177 -0.58168662
-0.90181780 8.68370533 -0.56792593
-0.86286145 8.56168556 -0.54466200
-0.92594790 8.68371582 -0.52817070
-0.88595778 8.56167793 -0.50659019
-0.94832367 8.68372536 -0.48739767
-0.90736955 8.56165695 -0.46755922
-0.96889371 8.68373394 -0.44568503
-0.92705750 8.56164742 -0.42761806
-0.98763108 8.68374443 -0.40312093
-0.94498873 8.56163597 -0.38686454
-1.00448942 8.68375301 -0.35977384
-0.96112031 8.56162643 -0.34535745
-1.01944160 8.68376255 -0.31573188
-0.97542661 8.56161213 -0.30319461
-1.03245842 8.68376446 -0.27108312
-0.98788309 8.56159782 -0.26044455
-1.04351795 8.68377686 -0.22590587
-0.99846053 8.56157970 -0.21719533
-1.05259538 8.68378448 -0.18028818
-1.00714171 8.56156921 -0.17352529
-1.05716360 8.68379021 -0.15062347
-1.01151407 8.56156540 -0.14512312
-1.06021225 8.68372726 -0.08549032
-1.05985749 8.68378067 -0.11783668
-1.01410282 8.56158543 -0.11373589
-1.01449180 8.56166077 -0.08277929
-1.05688703 8.68361664 -0.05604093
-1.01140642 8.56181622 -0.05458265
-0.99993348 8.56193066 -0.00700755
-1.04482937 8.68353558 -0.00635181
-1.05089009 8.68348789 -0.02675792
-1.00578129 8.56200409 -0.02654261
-0.52520281 8.68356228 -0.90004146
-0.50208932 8.56189060 -0.86226320
-0.99779010 8.56189346 0.00368975
-1.04205966 8.68356133 0.00481527
-0.59767747 8.85183907 -0.95539731
-0.63140631 8.95845509 -1.00931442
-0.60783285 8.95845222 -1.01493227
-0.57530051 8.85163307 -0.96061379
-0.65715736 8.85094070 -0.93191803
-0.69457346 8.95845604 -0.98498368
-0.66367191 8.95845604 -0.99850947
-0.62804812 8.85132408 -0.94490552
-0.68703985 8.85070705 -0.91403699
-0.72624576 8.95844936 -0.96620226
-0.74133992 8.85059834 -0.87357712
-0.78369236 8.95845604 -0.92349136
-0.75703478 8.95844936 -0.94487613
-0.71613693 8.85063171 -0.89382660
-0.77899581 8.85059738 -0.84054565
-0.82350141 8.95845604 -0.88857096
-0.81517506 8.85058594 -0.80590910
-0.86174941 8.95845222 -0.85195738
-0.84980792 8.85057735 -0.76972616
-0.89836538 8.95845413 -0.81370944
-0.88282961 8.85057354 -0.73206544
-0.93327600 8.95845413 -0.77389550
-0.91418010 8.85056877 -0.69299531
-0.96641999 8.95845032 -0.73260373
-0.99773139 8.95845222 -0.68990260
-0.94379467 8.85056210 -0.65260392
-1.02714658 8.95845604 -0.64587039
-0.97161698 8.85055733 -0.61095005
-1.05463111 8.95845318 -0.60058546
-0.99759924 8.85055447 -0.56813145
-1.08011436 8.95845318 -0.55413592
-1.02168775 8.85054684 -0.52421671
-1.10353482 8.95845413 -0.50664890
-1.04383600 8.85054016 -0.47929394
-1.12485850 8.95845318 -0.45818317
-1.06400716 8.85053730 -0.43345115
-1.14405096 8.95845318 -0.40882680
-1.08215737 8.85052967 -0.38676667
-1.16107082 8.95845509 -0.35868749
-1.09825230 8.85052586 -0.33933839
-1.17588842 8.95845222 -0.30785325
-1.11226499 8.85051441 -0.29124454
-1.18847466 8.95845413 -0.25642204
-1.12416601 8.85051250 -0.24259287
-1.19880497 8.95845413 -0.20449167
-1.13393354 8.85050488 -0.19347140
-1.20400429 8.95845222 -0.17070660
-1.13886380 8.85052395 -0.16151652
-1.20750320 8.95845604 -0.09655952
-1.20707750 8.95845127 -0.13337860
-1.14180970 8.85058880 -0.12621444
-1.14234316 8.85080910 -0.09140173
-1.20376456 8.95845509 -0.06303870
-1.13902283 8.85116577 -0.05969151
-1.19006991 8.95845413 -0.00646926
-1.19699192 8.95845509 -0.02969405
-1.13291574 8.85166550 -0.02814769
-1.12625074 8.85147476 -0.00616586
-0.56639546 8.85105991 -0.96927541
-0.59860480 8.95845318 -1.02439630
-1.18645847 8.95845222 0.00620504
-1.12261236 8.85106087 0.00587228
-0.69570142 5.25568342 -1.17472136
-0.72273707 5.25596237 -1.16810155
-0.76007974 5.25536299 -1.15599000
-0.79583573 5.25486851 -1.14068913
-0.83241868 5.25456762 -1.11922479
-0.86791039 5.25447226 -1.09471667
-0.89861494 5.25444412 -1.07009721
-0.94445777 5.25444651 -1.02989304
-0.98850214 5.25445127 -0.98772651
-1.03066742 5.25445127 -0.94367969
-1.07087040 5.25445032 -0.89783812
-1.10903525 5.25445032 -0.85028380
-1.14508843 5.25445366 -0.80110973
-1.17896402 5.25445509 -0.75041014
-1.21059346 5.25445747 -0.69828033
-1.23992062 5.25445795 -0.64482319
-1.26688898 5.25445700 -0.59013778
-1.29144478 5.25446129 -0.53432554
-1.31354153 5.25446415 -0.47749552
-1.33314025 5.25446463 -0.41975650
-1.35020161 5.25446606 -0.36121863
-1.36469626 5.25446749 -0.30199200
-1.37658763 5.25446987 -0.24218854
-1.38255537 5.25449848 -0.20328909
-1.38632333 5.25490141 -0.11788379
-1.38602972 5.25459862 -0.16029741
-1.38169408 5.25540686 -0.07926632
-1.36572635 5.25572538 -0.01414785
-1.37350965 5.25601387 -0.04087153
-0.68335378 5.25508642 -1.18261826
-1.36585367 5.25508690 0.00049243
-1.27923048 3.86028743 -2.06988502
-1.23112440 3.86050272 -2.08122849
-1.40768123 3.86113882 -2.01989627
-1.34483826 3.86075211 -2.04763794
-1.47213423 3.86137366 -1.98152471
-1.58913171 3.86146903 -1.89444888
-1.53483534 3.86144471 -1.93804181
-1.67023742 3.86146903 -1.82332110
-1.74816716 3.86146665 -1.74872386
-1.82276452 3.86146665 -1.67079651
-1.89389229 3.86146426 -1.58968949
-1.96141839 3.86146426 -1.50555837
-2.02520585 3.86146426 -1.41855967
-2.08513713 3.86146188 -1.32886326
-2.14110470 3.86146188 -1.23663700
-2.19299102 3.86145926 -1.14205933
-2.24070787 3.86145687 -1.04530895
-2.28415298 3.86145806 -0.94656688
-2.32325244 3.86145806 -0.84602398
-2.35792804 3.86145687 -0.74386865
-2.38811636 3.86145687 -0.64029908
-2.41375852 3.86145496 -0.53551590
-2.43480587 3.86145377 -0.42971000
-2.44541001 3.86143017 -0.36089200
-2.45272112 3.86111546 -0.20984766
-2.45171785 3.86135340 -0.28484866
-2.44532204 3.86072707 -0.14155081
-2.41756082 3.86048055 -0.02627833
-2.43179131 3.86025667 -0.07361120
-1.20844030 3.86097240 -2.09378529
-2.41749239 3.86097002 -0.00035230
-1.46433151 1.97603047 -2.36931038
-1.40933526 1.97600114 -2.38241553
-1.61167383 1.97590816 -2.31253052
-1.53958941 1.97596693 -2.34408903
-1.68555176 1.97587395 -2.26871872
-1.81954944 1.97585917 -2.16907120
-1.75737441 1.97585917 -2.21897078
-1.91241431 1.97585917 -2.08762789
-2.00163841 1.97585917 -2.00221586
-2.08705544 1.97585917 -1.91299176
-2.16849375 1.97586167 -1.82012200
-2.24580717 1.97586167 -1.72379243
-2.31884336 1.97586167 -1.62418413
-2.38746548 1.97586167 -1.52148318
-2.45154166 1.97586167 -1.41588533
-2.51095438 1.97586167 -1.30759597
-2.56558585 1.97586167 -1.19681573
-2.61532879 1.97586405 -1.08375990
-2.66009998 1.97586536 -0.96863914
-2.69980145 1.97586536 -0.85167348
-2.73436451 1.97586536 -0.73309296
-2.76372576 1.97586656 -0.61311293
-2.78782153 1.97586656 -0.49196818
-2.79994774 1.97586966 -0.41317225
-2.80712175 1.97588241 -0.32610130
-2.80812502 1.97591889 -0.24020968
-2.79941440 1.97597730 -0.16200586
-2.78362775 1.97604573 -0.08421797
-2.76747417 1.97601306 -0.03004147
-1.38352180 1.97593749 -2.39705682
-2.76767492 1.97593582 -0.00036208
-1.12047637 0.83653295 -1.89262974
-1.05184424 0.72761965 -1.77643728
-1.09308219 0.72803557 -1.76700246
-1.16395557 0.83630294 -1.88184428
-1.22449124 0.83722293 -1.86292589
-1.14919412 0.72785693 -1.74812317
-1.20257545 0.72714984 -1.72399795
-1.28231585 0.83776122 -1.83857560
-1.25744677 0.72675347 -1.69100559
-1.34137607 0.83804750 -1.80413473
-1.39861357 0.83813804 -1.76468289
-1.31093085 0.72662866 -1.65381467
-1.35727775 0.72659934 -1.61658454
-1.44811177 0.83816737 -1.72501576
-1.52199709 0.83816737 -1.66021538
-1.42652142 0.72659689 -1.55585551
-1.59298289 0.83816493 -1.59225380
-1.49305415 0.72659689 -1.49216104
-1.66093969 0.83816493 -1.52126789
-1.55674613 0.72659934 -1.42562842
-1.72573519 0.83816493 -1.44738507
-1.61747515 0.72659934 -1.35638463
-1.78724468 0.83816493 -1.37073255
-1.67512357 0.72659934 -1.28454733
-1.72958887 0.72660178 -1.21027303
-1.84535551 0.83816248 -1.29148638
-1.78076065 0.72660178 -1.13368893
-1.89995050 0.83816248 -1.20977390
-1.82854128 0.72660178 -1.05495167
-1.95093143 0.83816004 -1.12575161
-1.87284017 0.72660422 -0.97419828
-1.99819827 0.83816004 -1.03959572
-1.91357899 0.72660297 -0.89159518
-2.04166269 0.83816004 -0.95145309
-1.95067215 0.72660422 -0.80728906
-2.08123684 0.83815885 -0.86150962
-1.98405588 0.72660422 -0.72144639
-2.11685705 0.83815885 -0.76991212
-2.01366186 0.72660422 -0.63423353
-2.14844012 0.83815759 -0.67685640
-2.03943634 0.72660542 -0.54580706
-2.17594194 0.83815759 -0.58250868
-2.06133008 0.72660607 -0.45634314
-2.19929385 0.83815634 -0.48705506
-2.07929921 0.72660851 -0.36600819
-2.21846676 0.83815575 -0.39067170
-2.08837175 0.72664028 -0.30725622
-2.22806787 0.83812577 -0.32796574
-2.09384274 0.72676659 -0.24233839
-2.09498787 0.72717035 -0.17833073
-2.23390603 0.83774501 -0.19030036
-2.23360753 0.83803314 -0.25867304
-2.08919382 0.72788495 -0.12003877
-2.22607636 0.83720440 -0.12804462
-2.07747865 0.72805691 -0.06200126
-2.06501961 0.72762978 -0.02157074
-2.19977832 0.83650678 -0.02311710
-2.21217847 0.83627248 -0.06616078
-1.10078228 0.83735013 -1.90568566
-1.03280103 0.72744346 -1.78773153
-2.06461835 0.72744244 0.00056768
-2.20076680 0.83734918 0.00046003
-0.98431325 0.63590956 -1.66214347
-1.02233863 0.63556701 -1.65241504
-1.07589364 0.63670236 -1.63639355
-1.12688446 0.63725042 -1.61527300
-1.17885399 0.63751465 -1.58510923
-1.22917676 0.63759786 -1.55047262
-1.27268529 0.63762969 -1.51563060
-1.33760810 0.63762480 -1.45868921
-1.39998865 0.63762236 -1.39896834
-1.45970702 0.63762236 -1.33658528
-1.51664591 0.63762236 -1.27164793
-1.57069528 0.63761985 -1.20430291
-1.62176192 0.63761985 -1.13465786
-1.66973579 0.63761741 -1.06284988
-1.71453381 0.63761497 -0.98902577
-1.75607026 0.63761497 -0.91330296
-1.79426444 0.63761377 -0.83585763
-1.82904041 0.63761252 -0.75680721
-1.86033964 0.63761133 -0.67631811
-1.88809335 0.63760889 -0.59454679
-1.91225779 0.63760763 -0.51164025
-1.93278134 0.63760644 -0.42775503
-1.94962978 0.63760644 -0.34305745
-1.95804667 0.63757342 -0.28795606
-1.96300876 0.63722014 -0.16696791
-1.96287668 0.63748533 -0.22706072
-1.95579565 0.63666594 -0.11224824
-1.93229198 0.63586074 -0.02006353
-1.94286692 0.63551682 -0.05786132
-0.96746236 0.63700330 -1.67439687
-1.93379915 0.63700259 0.00064598
-1.22559464 0.95665979 -1.98176086
-1.27296424 1.07258320 -2.05858970
-1.22503686 1.07210362 -2.06974697
-1.17946315 0.95622432 -1.99252665
-1.34882414 0.95573491 -1.93417597
-1.40058804 1.07085085 -2.00861669
-1.33816838 1.07165337 -2.03635335
-1.28862357 0.95631236 -1.96074796
-1.41056597 0.95539731 -1.89742541
-1.46464217 1.07038105 -1.97036862
-1.52699339 1.07022929 -1.92709005
-1.47063434 0.95528960 -1.85578132
-1.52264786 0.95526272 -1.81402946
-1.58099365 1.07019019 -1.88373327
-1.66166639 1.07019269 -1.81298232
-1.60034037 0.95526516 -1.74589169
-1.73917770 1.07019508 -1.73878622
-1.67498660 0.95526516 -1.67443609
-1.81338108 1.07019758 -1.66127241
-1.74644709 0.95526761 -1.59978986
-1.88412964 1.07020247 -1.58059728
-1.81458247 0.95527005 -1.52209008
-1.87926543 0.95527250 -1.44150305
-1.95129359 1.07020485 -1.49691761
-2.01474333 1.07020974 -1.41038990
-1.94037116 0.95527494 -1.35816586
-2.07435656 1.07021224 -1.32117069
-1.99778235 0.95527738 -1.27224493
-2.13002563 1.07021463 -1.22943616
-2.05139112 0.95527983 -1.18389678
-2.18163800 1.07021713 -1.13536251
-2.10109496 0.95528227 -1.09329760
-2.22909546 1.07022202 -1.03912592
-2.14680076 0.95528471 -1.00062346
-2.27231550 1.07022440 -0.94091237
-2.18842030 0.95528597 -0.90604091
-2.31120443 1.07022810 -0.84090775
-2.22587562 0.95528841 -0.80972606
-2.34569907 1.07023060 -0.73929811
-2.25909305 0.95528960 -0.71187460
-2.37572598 1.07023549 -0.63627899
-2.28800893 0.95529205 -0.61266273
-2.40123105 1.07023787 -0.53205615
-2.31257463 0.95529449 -0.51228625
-2.33273125 0.95529634 -0.41093099
-2.42216563 1.07024038 -0.42681545
-2.34289026 0.95533001 -0.34501487
-2.43272591 1.07029057 -0.35836446
-2.34892893 0.95544440 -0.27216947
-2.34988809 0.95579183 -0.20032236
-2.44013476 1.07093430 -0.20813246
-2.43903375 1.07045019 -0.28272974
-2.34280205 0.95637906 -0.13490537
-2.43295121 1.07174420 -0.14020997
-2.32948184 0.95672894 -0.06981136
-2.31573582 0.95627826 -0.02447751
-2.40529776 1.07219148 -0.02553451
-2.41960144 1.07268512 -0.07263004
-1.20256805 1.07116890 -2.08240151
-1.15805876 0.95577896 -2.00511289
-2.31550598 0.95578027 0.00035237
-2.40470076 1.07116652 0.00025450
-1.44426787 1.81241465 -2.33668518
-1.39003754 1.81247330 -2.34962869
-1.58964312 1.81266415 -2.28076649
-1.51852262 1.81255651 -2.31185532
-1.66252518 1.81272781 -2.23757601
-1.79469752 1.81275225 -2.13929892
-1.73337150 1.81274736 -2.18851829
-1.88629258 1.81275225 -2.05897117
-1.97429323 1.81275225 -1.97472882
-2.05854058 1.81275225 -1.88672316
-2.13886333 1.81275225 -1.79513061
-2.21511960 1.81274986 -1.70011747
-2.28715754 1.81274986 -1.60186958
-2.35484028 1.81274986 -1.50057304
-2.41804051 1.81274736 -1.39642370
-2.47663593 1.81274736 -1.28961217
-2.53051877 1.81274736 -1.18034887
-2.57958150 1.81274736 -1.06883955
-2.62374091 1.81274617 -0.95529443
-2.66289902 1.81274498 -0.83993387
-2.69698763 1.81274366 -0.72297311
-2.72594261 1.81274366 -0.60463732
-2.74971056 1.81274366 -0.48515147
-2.76167059 1.81273639 -0.40743211
-2.76873684 1.81271434 -0.32155028
-2.76969600 1.81264889 -0.23683314
-2.76105881 1.81254089 -0.15970099
-2.74543381 1.81239629 -0.08297990
-2.72952485 1.81245601 -0.02954233
-1.36463022 1.81260550 -2.36415768
-2.72973514 1.81260741 -0.00027400
-0.57915539 8.78556061 -0.92609471
-0.55749536 8.78545284 -0.93119377
-0.63699108 8.78527069 -0.90360397
-0.60870147 8.78542328 -0.91609228
-0.66600490 8.78518009 -0.88632971
-0.71867543 8.78514385 -0.84713238
-0.69423217 8.78515530 -0.86675549
-0.75518620 8.78514767 -0.81510895
-0.79026687 8.78514385 -0.78152943
-0.82384765 8.78514194 -0.74645245
-0.85586733 8.78514481 -0.70993680
-0.88626486 8.78514671 -0.67206067
-0.91498023 8.78514767 -0.63290250
-0.94195962 8.78514862 -0.59252089
-0.96715403 8.78515148 -0.55100405
-0.99051338 8.78515244 -0.50843012
-1.01199114 8.78515244 -0.46486774
-1.03155077 8.78515530 -0.42041475
-1.04915285 8.78515625 -0.37515917
-1.06476080 8.78515720 -0.32916960
-1.07835019 8.78515244 -0.28255361
-1.08989406 8.78515720 -0.23537977
-1.09936798 8.78515720 -0.18774594
-1.10414171 8.78516865 -0.15676977
-1.10743260 8.78530216 -0.08876899
-1.10697997 8.78520012 -0.12253449
-1.10410011 8.78544903 -0.05802771
-1.09157741 8.78549480 -0.00612671
-1.09799051 8.78560066 -0.02744302
-0.54893285 8.78531361 -0.93969876
-1.08827186 8.78531265 0.00553952
-1.42009616 0.38129294 0.04364071
-1.78908956 0.54629195 0.05463163
-1.78067994 0.54740775 0.01982869
-1.41185546 0.38129297 0.01599215
-1.80248320 0.54817677 0.10481989
-1.42815590 0.38129294 0.08333719
-1.43260658 0.38129294 0.12323920
-1.81147015 0.55007672 0.15546814
-1.43209767 0.38129324 0.16706584
-1.81286728 0.55122823 0.21111758
-1.80887902 0.55159247 0.26745215
-1.42843974 0.38129354 0.21150908
-1.42224932 0.38129324 0.25171450
-1.80122066 0.55169404 0.31840378
-1.40995431 0.38129324 0.31352982
-1.78564203 0.55169034 0.39668104
-1.39497268 0.38129386 0.37475795
-1.76666725 0.55168790 0.47421446
-1.37733388 0.38129324 0.43527159
-1.74432576 0.55168301 0.55083770
-1.35707211 0.38129324 0.49496314
-1.71866155 0.55167931 0.62641370
-1.33422911 0.38129324 0.55370533
-1.68972600 0.55167568 0.70080543
