0.76298100 2.24972725 -1.94438326
0.76565325 2.16453743 -1.94856274
0.82287419 2.16502619 -1.91876066
0.70903927 2.16424823 -1.97935450
0.71197224 2.07908273 -1.98453605
0.77065963 2.07972646 -1.95738184
0.65378177 2.07888317 -2.01274943
0.65959066 1.99459350 -2.02517772
0.71964681 1.99520457 -1.99985254
0.59842658 1.99405181 -2.04792428
0.60312742 1.90945673 -2.05891466
0.66480070 1.91005957 -2.03641653
0.54105079 1.90920818 -2.08047175
0.54560095 1.82492280 -2.09298563
0.60793012 1.82499611 -2.07093167
0.48168722 1.82442176 -2.10950375
0.48656324 1.74020946 -2.12517881
0.55046886 1.74065363 -2.10702729
0.42178184 1.73967588 -2.14025903
0.42618534 1.65546370 -2.15591359
0.49153703 1.65590775 -2.14079666
0.36017779 1.65514600 -2.16888785
0.36407617 1.57105196 -2.18449354
0.43127316 1.57185042 -2.17404485
0.29658583 1.57022107 -2.19295025
0.30109525 1.48732865 -2.21528149
0.36889514 1.48766685 -2.20465755
0.23223217 1.48602104 -2.22013688
0.23601240 1.40296161 -2.24267578
0.30561280 1.40392709 -2.23684669
0.16626942 1.40193510 -2.24491620
0.16908830 1.32098591 -2.27413988
0.24014296 1.32074964 -2.26838803
0.09780147 1.31963360 -2.27152467
0.09934535 1.23922598 -2.30149364
0.17193571 1.23972297 -2.30180740
0.02677534 1.23863125 -2.29663396
0.10117843 1.16024828 -2.33602500
0.02708085 1.15828490 -2.32797575
-0.04702080 1.15858221 -2.32299781
0.02742303 1.07917678 -2.36340737
-0.04799030 1.07908726 -2.35716248
-0.12310220 1.07838655 -2.34617209
-0.04839358 0.99990588 -2.39270830
-0.12522042 0.99969816 -2.38226771
-0.20163992 0.99874496 -2.36817741
-0.12816560 0.92360049 -2.42398071
-0.20584381 0.92204845 -2.40872121
-0.28359535 0.92227656 -2.39435792
-0.21026766 0.84786528 -2.45443439
-0.29034519 0.84899366 -2.44007111
-0.37025979 0.84941322 -2.42174029
-0.29790568 0.77846050 -2.49089670
-0.38019919 0.78050125 -2.47328281
-0.46170655 0.78127116 -2.45111847
-0.39041156 0.70960140 -2.52312231
-0.47426933 0.71159339 -2.50113344
-0.55666876 0.71265662 -2.47412992
-0.48985875 0.64414382 -2.55327058
-0.57502002 0.64578140 -2.52458072
-0.65842158 0.64732933 -2.49113703
-0.59357494 0.57641727 -2.57076240
-0.67989719 0.57930946 -2.53722906
-0.76213372 0.58095515 -2.49771571
-0.69892466 0.50485748 -2.57444906
-0.78318977 0.50739938 -2.53509450
-0.86419606 0.50994533 -2.49223280
-0.89103252 0.44010866 -2.53260970
-0.97192889 0.44270149 -2.48724270
-0.72202975 0.43708205 -2.61982393
-0.80965149 0.44012091 -2.57910085
-0.61120933 0.50228912 -2.60988855
-0.63132846 0.43322033 -2.65644932
-0.50537074 0.57343131 -2.59988403
-0.52087057 0.49970040 -2.64127517
-0.40271363 0.64134532 -2.57675052
-0.30624828 0.70751172 -2.54184031
-0.21600319 0.77757239 -2.50653911
-0.13027976 0.84710354 -2.46593809
-0.04925717 0.92280209 -2.43238044
0.02876730 0.99908715 -2.39729500
0.10347997 1.08125854 -2.37148905
0.17528823 1.16054976 -2.33582139
0.24411874 1.23895717 -2.29472351
0.31024846 1.31993484 -2.25744653
0.37492400 1.40482736 -2.22900510
0.43631214 1.48808634 -2.19207430
0.49705666 1.57202971 -2.15770602
0.55675429 1.65679169 -2.12397313
0.61295277 1.74065363 -2.08396697
0.66994965 1.82556236 -2.04815245
0.72483647 1.91047108 -2.00972676
0.77630961 1.99507439 -1.96746802
0.82659745 2.07989335 -1.92470396
0.87848198 2.16550684 -1.88616419
0.92815876 2.25108767 -1.84547377
0.97513884 2.33650970 -1.80155289
1.02760589 2.42259169 -1.76645541
1.07310724 2.50823355 -1.72239196
1.12145197 2.59409571 -1.68222272
1.16214252 2.67950511 -1.63415921
1.20405102 2.76528597 -1.58798158
1.24222004 2.85085464 -1.53898931
1.27715063 2.93644357 -1.48771155
1.30997109 3.02187753 -1.43461704
1.34180987 3.10718560 -1.38089132
1.37096405 3.19226146 -1.32560527
1.40292501 3.27715778 -1.27137029
1.43227077 3.36198521 -1.21546912
1.45845950 3.44674325 -1.15791428
1.48277450 3.53146458 -1.09937751
1.50849068 3.61599851 -1.04115856
1.53459382 3.70033693 -0.98283374
1.55767453 3.78449225 -0.92272872
1.57995677 3.86841917 -0.86180496
1.60004330 3.95210576 -0.79981387
1.61658192 4.03557634 -0.73655194
1.62874138 4.11907148 -0.67212492
1.63780904 4.20266056 -0.60669988
1.64734924 4.28593206 -0.54056197
1.65498316 4.36901188 -0.47338945
1.65200937 4.36812353 -0.40662014
1.66267800 4.45173693 -0.40545511
1.66267800 4.45173693 -0.40545511
1.66051495 4.53528547 -0.33754522
1.66508555 4.53616524 -0.40488482
1.66579425 4.61790466 -0.26827478
1.66417706 4.70066261 -0.19876400
1.66225851 4.78292322 -0.12819003
1.66283274 4.86386871 -0.05537969
1.65891409 4.94480991 0.01771173
1.64863658 5.02643108 0.09006583
1.63315713 5.10830116 0.16207369
1.62216258 5.18845606 0.23707560
1.60925364 5.26831388 0.31261522
1.58587146 5.34973097 0.38453346
1.55841184 5.43119812 0.45511556
1.53604412 5.51012278 0.53086293
1.51522827 5.58677435 0.61136818
1.48067248 5.66721010 0.68320489
1.42686105 5.74914503 0.74072325
1.37847161 5.83042049 0.80428261
1.33355272 5.91062450 0.87219244
1.29288256 5.98712111 0.94721472
1.25586236 6.05856657 1.02996445
1.21990120 6.12276554 1.11994064
1.18522310 6.18008852 1.21838582
1.13321221 6.25198603 1.29878104
1.06945336 6.33064222 1.36573768
1.00068796 6.41008043 1.42783463
0.93240333 6.48580742 1.49585867
0.86399245 6.55578613 1.57150817
0.79662436 6.61685705 1.65655553
0.72623366 6.67077398 1.74744415
0.65040076 6.72325325 1.83729005
0.56571198 6.78638506 1.91326153
0.47288838 6.85893059 1.97388792
0.37703815 6.92954540 2.03473830
0.27933851 6.99298239 2.10314918
0.17670989 7.05065584 2.17509174
0.06910750 7.09501219 2.25385761
-0.04504106 7.14137745 2.32575560
-0.16440782 7.17520809 2.40052128
-0.28957123 7.22060776 2.46279740
-0.42030722 7.27281809 2.51287746
-0.55594367 7.31571198 2.56110406
-0.69493669 7.34721279 2.60774183
-0.83628833 7.37448931 2.64486003
-0.97924495 7.40008354 2.67133808
-1.12256408 7.42179489 2.68689871
-1.26961863 7.43993425 2.69069123
-1.41984248 7.45287609 2.68873191
-1.56426954 7.47338247 2.67765594
-1.71059096 7.50587320 2.62579584
-1.87073767 7.52464390 2.60441804
-2.02989888 7.57197809 2.58818483
-2.15594625 7.63507748 2.49725556
-2.21247864 7.66029644 2.34053850
-2.28662109 7.66778421 2.20254350
-2.37933064 7.71306944 2.08923388
-2.43858027 7.71207523 1.95627797
-2.48930788 7.68768692 1.81851506
-2.53703761 7.66971445 1.67864215
-2.58093810 7.66147804 1.54137218
-2.61137962 7.64597797 1.40700269
-2.63050485 7.61552048 1.26965129
-2.64624906 7.57806015 1.13026309
-2.65126348 7.55215216 0.99008870
-2.64635086 7.52382898 0.85416299
-2.63524652 7.48427916 0.72160202
-2.61811733 7.43815041 0.59138751
-2.59062099 7.39856005 0.46108738
-2.55869651 7.35548210 0.33683643
-2.49449348 7.30588675 0.31743419
-2.52481699 7.30672598 0.21708269
-1.73059189 7.35240269 1.56549168
-1.68827200 7.40286922 1.68468320
-1.64580548 7.35448027 1.63054597
-1.77526641 7.40008736 1.61762881
-1.60045075 7.40189171 1.75014901
-1.55947101 7.35610104 1.69246364
-1.64177668 7.44751120 1.80689728
-1.73178554 7.44771910 1.73955369
-1.54811800 7.45104313 1.86678231
-1.58774936 7.49430370 1.92505848
-1.68260980 7.49377871 1.86162531
-1.48971570 7.49479294 1.98213673
-1.52791739 7.53230190 2.04314613
-1.62748265 7.53225708 1.98360729
-1.42561054 7.53229380 2.09732008
-1.45902574 7.57000637 2.15735984
-1.56542242 7.56826735 2.10165834
-1.35061669 7.57060957 2.20919132
-1.38140869 7.60621595 2.26954508
-1.49245727 7.60334063 2.21698403
-1.26914608 7.60732889 2.31887937
-1.29679728 7.64024258 2.37881756
-1.41010666 7.64179468 2.32693696
-1.17991948 7.63867807 2.42546344
-1.20482504 7.67006063 2.48311615
-1.32308376 7.67488384 2.43529701
-1.07904649 7.67651320 2.52312231
-1.10139394 7.68345881 2.58662891
-1.23076117 7.69102716 2.54137588
-0.97215700 7.71737480 2.61944127
-0.99115181 7.73636150 2.68078041
-1.12095499 7.69668961 2.64354825
-0.86573184 7.74087095 2.71837902
-1.01049292 7.73806810 2.74141502
-0.88239664 7.75476980 2.78032947
-0.75133479 7.73014927 2.80738187
-0.76185262 7.74541712 2.86601615
-0.89747691 7.75913286 2.84111857
-0.62156421 7.73210049 2.88179302
-0.77266788 7.74328709 2.92298055
-0.63074189 7.72733879 2.93356752
-0.49125597 7.75128746 2.96581769
-0.63950002 7.70693064 2.97765970
-0.50229114 7.73418665 3.01735187
-0.36621884 7.75965786 3.06199789
-0.50980681 7.70203400 3.05871868
-0.37524578 7.73013306 3.12008262
-0.22622776 7.72820663 3.12518263
-0.22605668 7.67419100 3.16045928
-0.37820318 7.67310762 3.15411258
-0.07855810 7.66065884 3.10396767
-0.22407287 7.60908031 3.15945721
-0.07633395 7.61623716 3.10857487
0.07692054 7.61816406 3.11446905
-0.07709977 7.57516813 3.08617854
0.07901434 7.57500076 3.08916831
0.22625628 7.56412077 3.11177659
0.08076188 7.54257154 3.04859185
0.22399954 7.53064871 3.05512166
0.35634866 7.54363871 3.03547907
0.21950644 7.51829338 2.99357891
0.35334238 7.52469254 2.97694659
0.49042496 7.53042030 2.95301461
0.35050312 7.50155067 2.92320871
0.48736164 7.50686264 2.90242958
0.62828964 7.50823593 2.87773156
0.48224938 7.48271084 2.85068321
0.61846018 7.48789263 2.82515049
0.75164026 7.49144030 2.79433823
0.60899734 7.46202564 2.77370167
0.73911828 7.46686077 2.74090958
0.86604548 7.47661257 2.70214200
0.72774094 7.43592644 2.68772173
0.85218734 7.44824505 2.64737749
0.97549731 7.45527554 2.60569692
0.83827215 7.40974140 2.59166789
0.95871031 7.42216969 2.54834986
1.07749450 7.42395020 2.50572419
0.94209427 7.37927961 2.49118996
1.05648732 7.38813591 2.44581890
1.17127132 7.38817215 2.39940095
1.03533757 7.34682989 2.38446331
1.14669156 7.35081387 2.33792329
1.25837970 7.35280991 2.28768015
1.12356615 7.30387497 2.27857184
1.23292828 7.30472994 2.23034549
1.33997667 7.30971622 2.17534852
1.31195903 7.26112700 2.11685252
1.20746875 7.25746059 2.17034197
1.41468942 7.26442242 2.06010008
1.38466334 7.21454620 2.00192595
1.28265798 7.21558046 2.05528927
1.48353612 7.21883583 1.94230974
1.44771767 7.17825079 1.87964654
1.35147619 7.17367220 1.93846035
1.54059815 7.18233252 1.81764340
1.41172802 7.13503122 1.81851506
1.50401390 7.13473749 1.75996614
1.59117520 7.13952017 1.69430077
1.46795893 7.08552074 1.70362520
1.55325484 7.08904457 1.64003730
1.63767469 7.09011173 1.57412350
1.51980686 7.03144932 1.59070277
1.60055256 7.03546953 1.52439785
1.68175840 7.03666306 1.45698905
1.57110894 6.97002792 1.48256671
1.64934123 6.97306681 1.41539419
1.72726786 6.97363758 1.34794867
1.70368218 6.90036631 1.31726277
1.62857032 6.89822817 1.38557184
1.77575934 6.90305090 1.24568665
1.76004350 6.82343817 1.22486675
1.68797863 6.82111597 1.29506195
1.82693505 6.82717323 1.14944530
1.73143101 6.75227308 1.19244146
1.80094993 6.75307560 1.12119532
1.86682308 6.75435495 1.04648674
1.75451171 6.70094252 1.07544553
1.81783080 6.70262527 1.00207305
1.87807834 6.70538664 0.92622787
1.76923752 6.65054512 0.95831919
1.82992923 6.65014172 0.88618916
1.88749218 6.64992571 0.81113428
1.78746259 6.58744144 0.85121375
1.84291959 6.58802843 0.77773947
1.89607108 6.58766985 0.70296568
1.80765927 6.51790285 0.75073600
1.85768211 6.51948690 0.67595404
1.90021396 6.52402067 0.59632868
1.82442176 6.44742203 0.65226644
1.86823666 6.45045710 0.57516670
1.90875196 6.45388699 0.49572057
1.84889960 6.37118196 0.56117004
1.88974488 6.37404966 0.48335737
1.92907488 6.37600899 0.40444896
1.87730432 6.29201269 0.47478259
1.91697240 6.29354858 0.39681110
1.95336127 6.29555702 0.31709203
1.89752126 6.21378851 0.38594696
1.93321764 6.21585798 0.30684301
1.96616042 6.21751642 0.22691214
1.88935375 6.14827013 0.28703341
1.92289114 6.14893007 0.20951815
1.95245707 6.14958143 0.13054046
1.87891746 6.08064127 0.19200194
1.90601456 6.08198547 0.11513028
1.92895257 6.08338308 0.03658034
1.87303114 6.00582695 0.10366736
1.88937831 6.01021814 0.02525184
1.90799022 6.01225471 -0.05305370
1.86323845 5.93081236 0.01649781
1.88053870 5.93328524 -0.06039421
1.89277971 5.93575764 -0.13828425
1.86239934 5.85154963 -0.06614605
1.87609863 5.85350132 -0.14264701
1.88804615 5.85462523 -0.21972641
1.87276638 5.76901150 -0.14457378
1.88381386 5.77031517 -0.22135991
1.89325213 5.77159882 -0.29849225
1.89335811 5.68734980 -0.29944953
1.88451040 5.68591166 -0.22243530
1.89921176 5.77286530 -0.37604418
1.89822197 5.68882465 -0.37691185
1.87954879 5.60477924 -0.30181628
1.88495040 5.60637999 -0.37867165
1.88495040 5.60637999 -0.37867165
1.88939869 5.60757399 -0.45592621
1.89822197 5.68882465 -0.37691185
1.85775137 5.52721548 -0.38208523
1.86314881 5.52815628 -0.45815441
1.86514890 5.52936602 -0.53424805
1.83356678 5.44965124 -0.46067593
1.83759153 5.45015574 -0.53553528
1.83826351 5.45066500 -0.61026019
1.81812823 5.36823702 -0.53646809
1.82210791 5.36801338 -0.61047608
1.82098365 5.36812305 -0.68452072
1.80583835 5.28513288 -0.68394226
1.80623329 5.28523111 -0.61047608
1.80330038 5.28496170 -0.75731063
1.78952372 5.20160532 -0.75575453
1.79272568 5.20168257 -0.68302977
1.77844381 5.20236301 -0.82785207
1.76147747 5.11961317 -0.82503718
1.77158391 5.11893702 -0.75344080
1.74353766 5.12106752 -0.89483726
1.72690535 5.03824854 -0.89144802
1.74165976 5.03746653 -0.82171327
1.70838714 5.03938532 -0.96056372
1.69344938 4.95641518 -0.95729673
1.70712030 4.95626831 -0.88777369
1.67423463 4.95699739 -1.02515769
1.65704429 4.87439060 -1.02006578
1.67865849 4.87340498 -0.95363462
1.63241971 4.87544966 -1.08564556
1.61560416 4.79282188 -1.07986534
1.63851380 4.79208469 -1.01453400
1.58610368 4.79458570 -1.14264250
1.57255924 4.71102524 -1.13731849
1.59844244 4.71016216 -1.07385683
1.54448843 4.71185255 -1.19979417
1.53143275 4.62809229 -1.19396091
1.55783343 4.62752628 -1.13132215
1.50418901 4.62836933 -1.25624514
1.49409080 4.54409599 -1.25115323
1.52146482 4.54386377 -1.18953705
1.46694064 4.54394960 -1.31300592
1.45837808 4.45956230 -1.30814207
1.48971164 4.45928955 -1.24872959
1.43212414 4.45898390 -1.36977470
1.42783058 4.37432766 -1.36639774
1.45506632 4.37471437 -1.30553091
1.39272499 4.37420559 -1.42319894
1.38685501 4.28975677 -1.41850626
1.42086899 4.28990746 -1.36170495
1.35094261 4.28942299 -1.47415483
1.34614408 4.20498276 -1.46996319
1.37977922 4.20551205 -1.41334522
1.30510318 4.20493793 -1.52144039
1.30133104 4.12034702 -1.51777828
1.34011114 4.12060738 -1.46508312
1.25959778 4.12009001 -1.56822085
1.25420034 4.03564167 -1.56276643
1.29757130 4.03570271 -1.51421809
1.20916331 4.03558064 -1.60976279
1.20628333 3.95100164 -1.60655284
1.24852991 3.95131564 -1.55758905
1.16099381 3.95068407 -1.65273857
1.15621138 3.86619925 -1.64701521
1.20064557 3.86667562 -1.60039377
1.10807860 3.86591792 -1.68963253
1.15428054 3.78149819 -1.64403760
1.10833931 3.78098059 -1.68890738
1.06021452 3.78047562 -1.73127222
1.10461605 3.69639373 -1.68330228
1.05493939 3.69592142 -1.72333694
1.00432980 3.69522858 -1.76177478
1.05426717 3.61102486 -1.72085214
1.00080621 3.61048293 -1.75513494
0.95038396 3.60956645 -1.79393542
1.00076532 3.52544379 -1.75342405
0.94878310 3.52466178 -1.78966224
0.89683729 3.52379012 -1.82601035
0.94849795 3.43973684 -1.78733230
0.89560711 3.43888521 -1.82187581
0.84153503 3.43809915 -1.85445595
0.89418542 3.35402536 -1.81752527
0.84196687 3.35312104 -1.85301387
0.78641200 3.35238385 -1.88271403
0.84011334 3.26832247 -1.84776711
0.78739774 3.26746678 -1.88221705
0.73236436 3.26673770 -1.91289473
0.78745890 3.18266034 -1.87998879
0.73279619 3.18186998 -1.91122460
0.67715579 3.18118143 -1.94087589
0.73227477 3.09709954 -1.90755844
0.67715579 3.09639907 -1.93804479
0.61910385 3.09576750 -1.96238816
0.62094098 3.01100135 -1.96352875
0.67919660 3.01164508 -1.93944204
0.56303573 3.01041889 -1.98836923
0.56460810 2.92559576 -1.98872781
0.62306327 2.92621899 -1.96517861
0.50499600 2.92496824 -2.00896096
0.50718755 2.84015322 -2.01120543
0.56678742 2.84079695 -1.99071956
0.44686666 2.83953023 -2.02952003
0.44888306 2.75469851 -2.03138590
0.50960720 2.75536680 -2.01421165
0.38784114 2.75403881 -2.04731321
0.38965389 2.66920328 -2.04876757
0.45111534 2.66988349 -2.03420877
0.32754880 2.66855145 -2.06047487
0.32956517 2.58387518 -2.06432843
0.39181691 2.58450651 -2.05246615
0.26673499 2.58319068 -2.07275248
0.26824629 2.49846125 -2.07411313
0.33131272 2.49916601 -2.06663799
0.20539980 2.49798870 -2.08433366
0.20719622 2.41344237 -2.08963728
0.27059263 2.41412282 -2.08233333
0.14357577 2.41252184 -2.09136462
0.14527036 2.32842779 -2.10248923
0.20881750 2.32881474 -2.09466410
0.08115701 2.32751536 -2.10285187
0.08252165 2.24271679 -2.10679913
0.14674090 2.24363327 -2.10661173
0.01840422 2.24173903 -2.10500669
0.08400033 2.15839028 -2.11739016
0.01980145 2.15709496 -2.11231470
-0.04408379 2.15575480 -2.10206962
0.02076688 2.07262206 -2.12159824
-0.04352571 2.07137966 -2.11157727
-0.10841710 2.07116795 -2.10529184
-0.04397380 1.98790479 -2.12775326
-0.10908923 1.98744047 -2.11867738
-0.17391951 1.98692727 -2.10775638
-0.10987543 1.90354598 -2.13231564
-0.17518231 1.90324044 -2.12155342
-0.23994744 1.90260911 -2.10842848
-0.17608665 1.81883693 -2.13148475
-0.24229379 1.81922793 -2.12365532
-0.30748254 1.81895506 -2.11023712
-0.24373175 1.73479593 -2.13435650
-0.30959263 1.73486102 -2.12243342
-0.37448403 1.73449850 -2.10572791
-0.31218746 1.65093803 -2.13541961
-0.37750658 1.65061629 -2.11792803
-0.44330230 1.65093803 -2.10272956
-0.38191822 1.56780946 -2.13682508
-0.44755509 1.56778097 -2.11822534
-0.51194954 1.56758142 -2.09548283
-0.45318064 1.48548341 -2.13741159
-0.51808834 1.48539782 -2.11387467
-0.58154994 1.48502302 -2.08604860
-0.52551842 1.40388238 -2.13495541
-0.58895969 1.40307164 -2.10529995
-0.65342742 1.40349126 -2.07742071
-0.59954274 1.32324255 -2.13161111
-0.66359490 1.32296968 -2.10064793
-0.72487718 1.32176805 -2.06413293
-0.67360365 1.24238300 -2.12345982
-0.73810393 1.24298584 -2.09074926
-0.80099118 1.24306738 -2.05468225
-0.75104558 1.16397154 -2.11686087
-0.81365985 1.16342974 -2.07835364
-0.87721109 1.16408563 -2.04083633
-0.83069539 1.08683097 -2.10831451
-0.89284939 1.08617520 -2.06647515
-0.95384651 1.08547044 -2.02248502
-0.90929830 1.00858247 -2.09290838
-0.97102863 1.00822413 -2.04810762
-1.02749193 1.00533593 -1.99674451
-0.98988909 0.93214673 -2.07612133
-1.04869866 0.93033808 -2.02549553
-1.10673022 0.92895722 -1.97432363
-1.07566142 0.86029369 -2.06064606
-1.13461363 0.85885167 -2.00821543
-1.19546402 0.86143017 -1.95810699
-1.16694117 0.79412317 -2.04776144
-1.22766531 0.79527605 -1.99481761
-1.28538728 0.79566294 -1.93839920
-1.31986570 0.73151708 -1.97499585
-1.26104796 0.73090190 -2.03266072
-1.37848783 0.73361081 -1.91751003
-1.41536963 0.67123693 -1.95356500
-1.35653162 0.66969711 -2.01366591
-1.47238290 0.67283779 -1.89225423
-1.45128202 0.60737205 -1.98693132
-1.50956202 0.60927844 -1.92463064
-1.56336927 0.61036199 -1.85860682
-1.59583950 0.54196739 -1.88369155
-1.53934360 0.53958029 -1.94936919
-1.64754891 0.54235029 -1.81424606
-1.67315912 0.46917740 -1.83270323
-1.61971450 0.46791461 -1.90202653
-1.72440839 0.47037095 -1.76176262
-1.76193368 0.40611094 -1.78720188
-1.70935249 0.40404162 -1.85917711
-1.81099939 0.40569139 -1.71319795
-1.65539443 0.40289080 -1.93039882
-1.56475842 0.46681070 -1.97027051
-1.59937525 0.40191928 -2.00041461
-1.50659251 0.46487167 -2.03606224
-1.54080594 0.40037543 -2.06811690
-1.48158491 0.53806496 -2.01395917
-1.39184093 0.60551041 -2.04837251
-1.29732275 0.66922456 -2.07276058
-1.19938278 0.72929692 -2.08731961
-1.10532486 0.79352850 -2.09930372
-1.01547492 0.86161351 -2.11174035
-0.93037063 0.93464381 -2.12573695
-0.84742135 1.00973129 -2.13739944
-0.76570219 1.08593488 -2.14556694
-0.68705034 1.16469669 -2.15346956
-0.60871226 1.24276590 -2.15585661
-0.53320521 1.32279050 -2.15792203
-0.45925429 1.40373158 -2.15850854
-0.38593474 1.48465645 -2.15431690
-0.31544223 1.56762207 -2.15203166
-0.24590294 1.65109694 -2.15001106
-0.17763051 1.73493433 -2.14643049
-0.10981025 1.81857622 -2.13935900
-0.04389233 1.90334654 -2.13774991
0.02155307 1.98813701 -2.13121176
0.08537312 2.07383204 -2.12671447
0.14853327 2.15930700 -2.11679554
0.21096832 2.24455786 -2.10463595
0.27202246 2.32916522 -2.08399963
0.33385050 2.41481948 -2.07444310
0.39402071 2.49983382 -2.05681682
0.45325395 2.58507276 -2.03692985
0.51191282 2.67055583 -2.01706719
0.56849426 2.75594926 -1.99157929
0.62546664 2.84143662 -1.96755350
0.68064272 2.92682981 -1.93955195
0.73548871 3.01232934 -1.91112280
0.78956085 3.09788990 -1.88128829
0.84226829 3.18348694 -1.84906256
0.89344406 3.26913309 -1.81426227
0.94863236 3.35480356 -1.78559279
1.00228894 3.44049859 -1.75412476
1.05225086 3.52612805 -1.71671748
1.10112095 3.61174154 -1.67809629
1.15337634 3.69676852 -1.64187849
1.19871879 3.78201532 -1.59774578
1.24599218 3.86680603 -1.55466020
1.28937113 3.95153546 -1.50748456
1.33334494 4.03624058 -1.45996678
1.37441444 4.12099838 -1.40942228
1.41266489 4.20565891 -1.35650706
1.44976258 4.29009104 -1.30210507
1.48491716 4.37460041 -1.24596357
1.51816535 4.45894337 -1.18798101
1.54765773 4.54333830 -1.12741160
1.58385110 4.62673569 -1.06869161
1.62551916 4.70857334 -1.01084328
1.66183066 4.79074049 -0.94937372
1.69003987 4.87370205 -0.88467783
1.72090507 4.95553923 -0.81844217
1.75315523 5.03649712 -0.75114739
1.77934396 5.11826086 -0.68166107
1.79258299 5.20195580 -0.61021537
1.80542278 5.28484392 -0.53701395
1.81670654 5.36727190 -0.46221164
1.81490195 5.36569118 -0.38813445
1.82987213 5.44844532 -0.38568220
1.82987213 5.44844532 -0.38568220
1.85775137 5.52721548 -0.38208523
1.85059011 5.52593994 -0.30617496
1.87084365 5.60306835 -0.22554341
1.87223685 5.68444538 -0.14591399
1.85458612 5.76765537 -0.06939265
1.83981156 5.85048676 0.00812263
1.83815348 5.93017721 0.09079092
1.84377098 6.00585938 0.17779346
1.84685051 6.07942724 0.26741120
1.85436225 6.14687729 0.36391726
1.85601187 6.21333265 0.46189392
1.83528996 6.28978872 0.55094951
1.80402958 6.36876631 0.63662815
1.77520120 6.44581699 0.72544342
1.75092292 6.51894140 0.82054412
1.72900736 6.58680630 0.92215431
1.70854604 6.64746952 1.03043699
1.68764067 6.69934225 1.14581990
1.66293049 6.74762154 1.26394820
1.61269569 6.81990623 1.36112642
1.54925859 6.89731932 1.44852006
1.49142253 6.96687889 1.54699779
1.43375349 7.03274441 1.64880764
1.37788498 7.08455944 1.76179111
1.31734014 7.13273764 1.87504351
1.25261164 7.17159891 1.99266279
1.18055892 7.21294928 2.10709643
1.10211492 7.25125694 2.22071123
1.01424885 7.30083990 2.32303858
0.92281425 7.34236574 2.42709708
0.82200652 7.37748766 2.52795768
0.71442854 7.40781450 2.62652493
0.60066700 7.43254519 2.72065616
0.47683156 7.45862007 2.79790258
0.34734207 7.47769260 2.87029743
0.21544105 7.50218248 2.93690372
0.07984126 7.52203274 2.99839783
-0.07481452 7.54237556 3.04932117
-0.22217053 7.55173731 3.12712550
-0.37309089 7.60717392 3.14855242
-0.51179469 7.65771389 3.08298898
-0.64703602 7.67820406 3.01140881
-0.78376418 7.73456955 2.97986341
-0.91171795 7.75487185 2.90046597
-1.02838397 7.73824358 2.80002499
-1.14072800 7.70677567 2.69691181
-1.25423288 7.70127249 2.59957862
-1.34956181 7.70526838 2.49214721
-1.43757045 7.67615080 2.38334727
-1.52212882 7.64412880 2.26972818
-1.60167277 7.60134411 2.15910721
-1.66715074 7.56696749 2.04120278
-1.72405386 7.53420830 1.91715574
-1.77571046 7.49036503 1.79444456
-1.82068229 7.44564152 1.67033219
-1.85632968 7.40346432 1.54320121
-1.81162262 7.35205650 1.49479544
-1.89172065 7.35009289 1.42226613
-2.55224824 7.33016920 -1.02427781
-2.52401853 7.33462572 -1.12432384
-2.59074712 7.38150787 -1.14278924
-2.61980748 7.37696600 -1.03986323
-2.57501936 7.32703257 -0.92256171
-2.64197183 7.37562180 -0.93527931
-2.68812084 7.42074823 -1.05606365
-2.70922995 7.42195415 -0.94851416
-2.65999317 7.37481928 -0.82996213
-2.72906399 7.41825962 -0.84031707
-2.59096313 7.32871914 -0.82021010
-2.77850056 7.46277905 -0.96148437
-2.79913306 7.45929193 -0.85083896
-2.79913306 7.45929193 -0.85083896
-2.81248188 7.46012306 -0.73958671
-2.72906399 7.41825962 -0.84031707
-2.88338566 7.49736309 -0.74710643
-2.86896539 7.49816561 -0.86137313
-2.89609098 7.49146080 -0.63261980
-2.95364213 7.52996778 -0.75437367
-2.96503973 7.52707195 -0.63623708
-2.96911740 7.52563000 -0.51716769
-3.03169107 7.55841351 -0.63964260
-3.03556061 7.55682898 -0.51776648
-3.03644466 7.55316257 -0.39612266
-3.10106707 7.58239412 -0.51810056
-3.10170674 7.57909489 -0.39382517
-3.09595490 7.57743645 -0.27147660
-3.16468787 7.60483122 -0.39113256
-3.15796638 7.60683966 -0.26728085
-3.14606762 7.60390282 -0.14455749
-3.20704007 7.62975311 -0.13892379
-3.22008348 7.63170862 -0.26281220
-3.18410635 7.62995720 -0.01143441
-3.24468780 7.64050770 -0.00219971
-3.26905560 7.64508629 -0.13266684
-3.21857238 7.64181900 0.13062194
-3.27574849 7.65661812 0.14364095
-3.30344033 7.65290737 0.00629768
-3.24991393 7.66710329 0.27551347
-3.33058619 7.67087555 0.15654998
-3.30635309 7.67792702 0.29252046
-3.27534938 7.68374777 0.42186740
-3.36117029 7.69271421 0.30848464
-3.33133984 7.69497824 0.43760750
-3.28973293 7.68224478 0.56583422
-3.34186602 7.68942642 0.58057636
-3.38927794 7.70557833 0.45237407
-3.28537035 7.67175961 0.71250588
-3.32200766 7.64873981 0.72423357
-3.39201927 7.68280315 0.59586430
-3.30124068 7.68415117 0.86496192
-3.35163426 7.62278366 0.73423815
-3.34272552 7.65229177 0.87875897
-3.31960845 7.67017078 1.02754474
-3.36481619 7.60469246 0.88858843
-3.35105991 7.61778545 1.04140711
-3.27281547 7.61358547 1.17559743
-3.34609437 7.55478430 1.04141116
-3.27486038 7.55355787 1.17334878
-3.15180731 7.55418921 1.26618874
-3.24528670 7.50511122 1.15299344
-3.13954592 7.51407290 1.25869751
-3.05441713 7.51422358 1.38322556
-3.03063583 7.47627068 1.37217796
-3.11191511 7.48002195 1.24412644
-2.97518706 7.46113300 1.50547624
-2.93018246 7.43787766 1.47925091
-2.99857712 7.44646025 1.35368824
-2.85267949 7.44375563 1.58654368
-2.88854694 7.41771364 1.44794571
-2.80909681 7.42106247 1.55592692
-2.72261953 7.42646742 1.66105664
-2.76635718 7.39961863 1.52533066
-2.68122458 7.40502453 1.63172328
-2.59040904 7.40940762 1.73884904
-2.63965011 7.38609505 1.60000265
-2.55253339 7.38561010 1.70628119
-2.46362853 7.38949203 1.80840063
-2.42440438 7.36488771 1.77167344
-2.51342750 7.36165714 1.67265415
-2.33388638 7.36536884 1.86588216
-2.38424754 7.33785963 1.73390782
-2.29290247 7.34175014 1.82568049
-2.19877148 7.34574270 1.91483378
-2.25069261 7.30848980 1.78342569
-2.15934372 7.30617189 1.87388253
-2.06082511 7.31554127 1.95666087
-2.11291361 7.27414989 1.82436073
-2.01840758 7.27874517 1.90821838
-1.92154288 7.28318071 1.98752594
-1.97506917 7.23689747 1.85852122
-1.88006616 7.24086523 1.93687987
-1.78262317 7.24129677 2.00997519
-1.83940005 7.19080973 1.88704014
-1.74325252 7.19316769 1.95824945
-1.64442039 7.19351482 2.02520204
-1.70198762 7.14430618 1.90268254
-1.60404360 7.14969158 1.96609104
-1.50452304 7.15021276 2.02777672
-1.56264424 7.10756683 1.90432811
-1.46542931 7.10811710 1.96464097
-1.36458087 7.11272860 2.01780868
-1.42551684 7.06810617 1.90010393
-1.32928777 7.06666422 1.95547533
-1.22859001 7.07047319 2.00276923
-1.29437351 7.01946449 1.89371657
-1.19668210 7.02251148 1.94048893
-1.09691715 7.02485371 1.98302066
-1.16810620 6.96501350 1.88513362
-1.07047176 6.96864319 1.92602372
-0.97103274 6.97126245 1.96398103
-1.04662526 6.90624094 1.87492943
-0.94914562 6.90928793 1.91158712
-0.85062313 6.91096163 1.94497395
-0.93184119 6.83698225 1.87174392
-0.83423531 6.84069347 1.90165198
-0.73686963 6.84119844 1.93252933
-0.82135481 6.76283979 1.86976421
-0.72427839 6.76577711 1.89670658
-0.62716126 6.76691723 1.92438626
-0.70897818 6.69553757 1.85347819
-0.61326647 6.69676304 1.88018024
-0.51664627 6.69938231 1.90030360
-0.59702528 6.63669491 1.82341969
-0.50363541 6.63771296 1.84511936
-0.40966713 6.64153814 1.85982072
-0.48930880 6.58768225 1.77811372
-0.39773169 6.58989811 1.79360139
-0.30520546 6.59343433 1.80373633
-0.38713643 6.52837563 1.73781025
-0.29673657 6.53337812 1.74443388
-0.20613711 6.53488541 1.75313091
-0.28978711 6.46104431 1.70168614
-0.20027937 6.46501207 1.70658255
-0.11089788 6.46790791 1.70910406
-0.19551739 6.38818502 1.67348099
-0.10723577 6.39081669 1.67567265
-0.01888898 6.39205885 1.67673159
-0.10424988 6.31062460 1.65154505
-0.01667297 6.31171656 1.65314186
0.07105058 6.31115055 1.65537405
-0.01460769 6.23086500 1.63336885
0.07232152 6.23144388 1.63095331
0.15885559 6.23180199 1.62563324
0.15674551 6.15790796 1.58797348
0.07170641 6.15814447 1.59182298
0.24199642 6.15586758 1.58361065
0.23574355 6.09972143 1.52145267
0.15265976 6.10039759 1.52749372
0.31784561 6.10104990 1.50989616
0.31173125 6.03296041 1.46334362
0.23070052 6.03473234 1.46983683
0.39125887 6.03488731 1.44834900
0.38455382 5.96259403 1.40822470
0.30690002 5.96008921 1.42491806
0.46254975 5.96356821 1.39324224
0.45799148 5.88496923 1.36810851
0.38115242 5.88400364 1.38252485
0.53205240 5.88788557 1.34327221
0.53076106 5.80552721 1.33154869
0.45655352 5.80331516 1.35473514
0.60342073 5.80787373 1.30391371
0.60566926 5.72462273 1.30263865
0.53239864 5.72253656 1.32849753
0.67808449 5.72658205 1.27485311
0.67779529 5.64430904 1.26734567
0.60652065 5.64201975 1.29735935
0.74915135 5.64585638 1.23823202
0.74299622 5.56535101 1.21860576
0.67258930 5.56393385 1.24806964
0.81266189 5.56697273 1.18642485
0.80143923 5.48952675 1.15848446
0.73259658 5.48815012 1.18941891
0.86965877 5.49072838 1.12616920
0.86274594 5.40957975 1.10956955
0.79511303 5.40856075 1.14122498
0.92710781 5.41119242 1.07197893
0.92085493 5.32890701 1.05868292
0.85638714 5.32774210 1.09449744
0.98183978 5.33071566 1.01792717
0.97351754 5.24875212 1.00244367
0.91365695 5.24678087 1.04390001
1.03207874 5.25062990 0.95909315
1.02441227 5.16849136 0.94538158
0.96472687 5.16706181 0.98606807
1.08088362 5.17053652 0.90056050
1.07330692 5.08767653 0.88879216
1.01719403 5.08596182 0.93258262
1.12776601 5.08957911 0.84261858
1.12150490 5.00638914 0.83277291
1.06624746 5.00479221 0.87702370
1.17366660 5.00851154 0.78456259
1.16747069 4.92527294 0.77529943
1.11366343 4.92376995 0.82065409
1.21840620 4.92719984 0.72651881
1.21015322 4.84437275 0.71571988
1.15843153 4.84280443 0.76267552
1.25967515 4.84604692 0.66661346
1.24908805 4.76377773 0.65388769
1.19844997 4.76256800 0.70099813
1.29617405 4.76527262 0.60381174
1.23821163 4.68156147 0.64124757
1.28590870 4.68289757 0.59249139
1.32923079 4.68443775 0.53962916
1.27767611 4.60007048 0.58307749
1.32119775 4.60145140 0.53118062
1.36424267 4.60255146 0.47876650
1.31516075 4.51801729 0.52459782
1.35612011 4.51927996 0.47111231
1.39547455 4.52051449 0.41633552
1.35096300 4.43574810 0.46569860
1.38835394 4.43706799 0.41011119
1.42275095 4.43846560 0.35276395
1.38157570 4.35341787 0.40423712
1.41567934 4.35472155 0.34714657
1.45142448 4.35554028 0.29123729
1.41377282 4.27027321 0.34493461
1.44545281 4.27146292 0.28698859
1.47571909 4.27266407 0.22820343
1.43404269 4.18815088 0.27955848
1.46575117 4.18920565 0.22190982
1.49756134 4.19003677 0.16440782
1.45586479 4.10570240 0.21573843
1.49121070 4.10610151 0.16037503
1.51585555 4.10740519 0.09987082
1.48033452 4.02276945 0.15409772
1.51209569 4.02328682 0.09711712
1.53403986 4.02467966 0.03565564
1.50112569 3.94010115 0.09117383
1.52423882 3.94123340 0.03082036
1.54641116 3.94226837 -0.02999750
1.51964808 3.85721278 0.02787519
1.53889561 3.85845923 -0.03359036
1.55773556 3.85957527 -0.09536958
1.53530669 3.77434921 -0.03614447
1.55168235 3.77557111 -0.09819254
1.56525123 3.77663445 -0.16090459
1.56587863 3.69218564 -0.16179669
1.55079031 3.69115114 -0.09960198
1.57783437 3.69326949 -0.22479795
1.56297421 3.60788822 -0.16345054
1.57560623 3.60891056 -0.22613408
1.58430326 3.60990047 -0.28946123
1.57035553 3.52462912 -0.22782053
1.58103621 3.52553773 -0.29061404
1.59153783 3.52634001 -0.35347277
1.58904898 3.44197321 -0.35439336
1.57937419 3.44114208 -0.29156318
1.59502876 3.44275522 -0.41764718
1.59654415 3.52716303 -0.41694656
1.59234846 3.35838413 -0.41843748
1.58721983 3.35755324 -0.35527730
1.59502876 3.44275522 -0.41764718
1.59504104 3.35912967 -0.48172387
1.59234846 3.35838413 -0.41843748
1.59524477 3.27471781 -0.48233083
1.59302068 3.27396417 -0.41903630
1.59827948 3.27544689 -0.54560506
1.59904540 3.19108415 -0.54616314
1.59835684 3.19035912 -0.48284820
1.59561944 3.19169903 -0.60940474
1.59860122 3.10737300 -0.60987723
1.59999859 3.10672927 -0.54672933
1.59314680 3.10789442 -0.67287445
1.59458077 3.02344608 -0.67347324
1.60057688 3.02296138 -0.61050862
1.59315085 3.02405310 -0.73679638
1.59319174 2.93942118 -0.73716706
1.59950972 2.93902206 -0.67432052
1.58374929 2.93975520 -0.79959393
1.59489846 2.85481405 -0.73774958
1.58974946 2.85526204 -0.80092597
1.57531297 2.85531497 -0.86238748
1.59106934 2.77048373 -0.80119890
1.57787931 2.77053666 -0.86299443
1.55766642 2.77035737 -0.92300981
1.57701969 2.68568087 -0.86274594
1.56049347 2.68557882 -0.92376745
1.54224801 2.68544459 -0.98446310
1.56486440 2.60084128 -0.92492032
1.54831767 2.60077214 -0.98627996
1.52878511 2.60064173 -1.04677188
1.55285966 2.51600599 -0.98755902
1.52896821 2.51559854 -1.04656410
1.50455976 2.51524830 -1.10527599
1.53674877 2.43090558 -1.04925263
1.51048255 2.43036389 -1.10751235
1.48547518 2.43002176 -1.16619563
1.52054429 2.34588695 -1.11133337
1.49485254 2.34544706 -1.17005742
1.46771872 2.34502769 -1.22813785
1.50464523 2.26095390 -1.17395175
1.47883940 2.26064014 -1.23286724
1.44859743 2.26000047 -1.28966045
1.48418784 2.17567039 -1.23509145
1.45663452 2.17534447 -1.29359138
1.42481208 2.17479062 -1.34975731
1.46198320 2.09046006 -1.29620254
1.43124425 2.08997941 -1.35317504
1.39873743 2.08955169 -1.40940595
1.44048297 2.00562477 -1.35847068
1.40694153 2.00508714 -1.41464460
1.37082970 2.00444746 -1.46911991
1.41636372 1.92080152 -1.42055523
1.38063061 1.92021501 -1.47573125
1.34150434 1.91947770 -1.52871168
1.39130330 1.83613312 -1.48289251
1.35170031 1.83527768 -1.53612149
1.31213820 1.83474410 -1.58928108
1.36512673 1.75172126 -1.54607713
1.32309604 1.75066638 -1.59788442
1.27735841 1.74940348 -1.64637983
1.33622098 1.66701627 -1.60855699
1.29002714 1.66566789 -1.65773690
1.24132788 1.66444993 -1.70452952
1.25221646 1.58057177 -1.71495771
1.30169368 1.58192015 -1.66817725
1.20324445 1.57965934 -1.76266694
1.21698856 1.49675882 -1.77748239
1.26809919 1.49838006 -1.73097479
1.16453779 1.49543488 -1.82222199
1.18147147 1.41386652 -1.84214568
1.23276949 1.41475856 -1.79433048
1.12831593 1.41317010 -1.88749218
1.14303350 1.33018804 -1.90500438
1.19983900 1.33278692 -1.86295736
1.08664358 1.32925928 -1.94783342
1.10608256 1.24930799 -1.97317898
1.16607356 1.25216353 -1.93281448
1.04543984 1.24718153 -2.01255393
1.06777096 1.17024481 -2.04444957
1.12724459 1.17053401 -2.00055313
1.00612211 1.16971111 -2.08520937
1.02662420 1.09145033 -2.11645746
1.08760500 1.09090459 -2.07243061
0.96210754 1.08949924 -2.15368557
0.98171753 1.01147878 -2.18674231
1.04760289 1.01364589 -2.14875245
0.91613775 1.01063156 -2.22443461
0.93597180 0.93357658 -2.26097822
1.00381649 0.93548703 -2.22360373
0.86710465 0.93186158 -2.29500031
0.88718307 0.85760921 -2.33677864
0.95810330 0.85954005 -2.30195379
0.81425458 0.85689634 -2.36853981
0.83375460 0.78595579 -2.41525531
0.90900910 0.78692114 -2.38346553
0.75783205 0.78625315 -2.44548893
0.77634627 0.71659166 -2.49509645
0.85426897 0.71689713 -2.46444321
0.69681460 0.71528810 -2.52076793
0.71292138 0.64677125 -2.57365870
0.79488087 0.64829880 -2.54712772
0.62893730 0.64435971 -2.59431553
0.64150828 0.57265735 -2.64428139
0.72687322 0.57453120 -2.62167764
0.55554450 0.57012773 -2.66246176
0.56535357 0.49307680 -2.70620728
0.65298337 0.49700370 -2.68853641
0.47796807 0.49020907 -2.72246885
0.48842484 0.42403859 -2.78203630
0.57753748 0.42592871 -2.76317573
1.67161131 0.44731882 -2.11804199
1.73633575 0.45214596 -2.04691410
1.78210998 0.39441174 -2.08525825
1.71804953 0.39188209 -2.16188145
1.79972792 0.45912391 -1.97266173
1.84504604 0.39916965 -2.00626826
1.76852071 0.53350663 -1.95168710
1.69926238 0.52044690 -2.01515269
1.83575428 0.54660302 -1.88466525
1.79834294 0.61677784 -1.86026073
1.73349631 0.60479349 -1.92505848
1.85763323 0.62650949 -1.78916121
1.81051064 0.68903011 -1.76000690
1.75686622 0.68366927 -1.83139968
1.86036670 0.69368619 -1.68455291
1.81051874 0.75504982 -1.65723991
1.76443076 0.75278497 -1.73043311
1.85355163 0.75718027 -1.58216047
1.80514979 0.82151365 -1.55799627
1.76312733 0.81962353 -1.63022828
1.84459794 0.82397813 -1.48435903
1.80098665 0.89251941 -1.46420729
1.76142049 0.88982272 -1.53465497
1.83597028 0.89399403 -1.39067602
1.79639590 0.96656811 -1.37441850
1.76140416 0.96480423 -1.44526136
1.83122456 0.97002655 -1.30251646
1.79060328 1.04181850 -1.28730595
1.76014149 1.04100382 -1.35842574
1.82057631 1.04450703 -1.21566880
1.78137267 1.11713004 -1.20233607
1.75235689 1.11573267 -1.27262497
1.80565500 1.11726844 -1.12972128
1.76944935 1.19171226 -1.11860049
1.74291849 1.19050241 -1.18823349
1.79305959 1.19325614 -1.04763961
1.73620939 1.26797700 -1.10853076
1.76113939 1.27007484 -1.03995693
1.78526688 1.27320337 -0.97141963
1.72962236 1.34749246 -1.03214788
1.75427556 1.35071445 -0.96516275
1.77164912 1.35228288 -0.89636886
1.74386764 1.43134201 -0.89180654
1.72587073 1.42957008 -0.95926017
1.75847936 1.43250704 -0.82335079
1.74098754 1.51478839 -0.82176620
1.72566700 1.51354182 -0.88926876
1.74839330 1.51442981 -0.75335115
1.71826959 1.59581912 -0.81885368
1.73018062 1.59647906 -0.75220239
1.73908114 1.59687006 -0.68478137
1.71154010 1.67856479 -0.75054049
1.71883166 1.67850780 -0.68375897
1.72570372 1.67899656 -0.61696523
1.70286751 1.76115572 -0.68298090
1.71065199 1.76183200 -0.61683893
1.70940542 1.76127779 -0.55057073
1.69358802 1.84397471 -0.55087620
1.69312358 1.84425581 -0.61668003
1.69332731 1.84376693 -0.48509675
1.68430030 1.84263039 -0.42000985
1.68304968 1.92740071 -0.48547968
1.68416595 1.92776728 -0.55080694
1.67571330 1.92651260 -0.42063719
1.67571330 1.92651260 -0.42063719
1.66608346 2.01035404 -0.42132562
1.67176199 2.01101398 -0.48589113
1.65785491 2.00951910 -0.35691488
1.66608346 2.01035404 -0.42132562
1.64639211 2.09319353 -0.35818583
1.65504825 2.09407735 -0.42213213
1.63803315 2.09246850 -0.29403582
1.62709975 2.17614293 -0.29529861
1.63551962 2.17693305 -0.35905755
1.61333132 2.17494106 -0.23261100
1.60983193 2.25940180 -0.23270470
1.61793840 2.26006579 -0.29631293
1.59588826 2.25828171 -0.17024113
1.58517504 2.34210277 -0.17211087
1.60001493 2.34324741 -0.23409376
1.57319057 2.34128809 -0.10950067
1.56365442 2.42525983 -0.11137856
1.58188760 2.42657971 -0.17232269
1.54737663 2.42411518 -0.05001077
1.54010952 2.50823355 -0.05123283
1.55786598 2.50945973 -0.11208328
1.51945245 2.50677538 0.00860738
1.51995766 2.59122777 0.00989461
1.53204787 2.59212399 -0.05252415
1.49934959 2.58989167 0.06959633
1.49229836 2.67405891 0.06802801
1.51297569 2.67536688 0.00855035
1.46593451 2.67252350 0.12514302
1.46504235 2.75698781 0.12616548
1.48741817 2.75836492 0.06731922
1.43876410 2.75553775 0.18328865
1.43278813 2.83992100 0.18181404
1.46185684 2.84143257 0.12605143
1.40728784 2.83854032 0.23927529
1.40470111 2.92310262 0.23943417
1.43108547 2.92451215 0.18241692
1.37375855 2.92159128 0.29400730
1.37008429 3.00622725 0.29353070
1.40108788 3.00772214 0.23901458
1.34007859 3.00470781 0.34863341
1.37106597 3.09095263 0.29576707
1.34224975 3.08939242 0.35169670
1.30676520 3.08779955 0.40354055
1.30490351 3.17248440 0.40412715
1.33838809 3.17405677 0.35096753
1.26667345 3.17081833 0.45394644
1.26610732 3.25555611 0.45564511
1.30485475 3.25719762 0.40607429
1.22729063 3.25383711 0.50504076
1.22718060 3.33853388 0.50730568
1.26361024 3.34026098 0.45588142
1.18315792 3.33680654 0.55218786
1.18445325 3.42136097 0.55599254
1.22588921 3.42318177 0.50858885
1.13964844 3.41962981 0.60042262
1.14074016 3.50414753 0.60443503
1.18378520 3.50592351 0.55806595
1.09364605 3.50252199 0.64670199
1.09404933 3.58713770 0.65008307
1.14168930 3.58863640 0.60830897
1.04573321 3.58559775 0.69098133
1.04573715 3.67036390 0.69415873
1.09639168 3.67169595 0.65583897
0.99451250 3.66886497 0.73156190
0.99521321 3.75366354 0.73601013
1.04529727 3.75520349 0.69679826
0.94239169 3.75209928 0.77153546
0.94180912 3.83697152 0.77457428
0.99482214 3.83859277 0.73874754
0.89055192 3.83492255 0.81303662
0.89167213 3.91944432 0.81911433
0.94476658 3.92129374 0.78278244
0.84061038 3.91718769 0.85831803
0.84074479 4.00168896 0.86318588
0.89595747 4.00343609 0.82960778
0.78661162 3.99946070 0.89863783
0.78668487 4.08376646 0.90370125
0.84296894 4.08576250 0.87112111
0.72877151 4.08184004 0.93313664
0.73152107 4.16546917 0.94426954
0.78714114 4.16786051 0.90968525
0.67296815 4.16350174 0.97342795
0.67204756 4.24780369 0.97756255
0.73138666 4.24968958 0.94936961
0.61365342 4.24559164 1.00771892
0.61509138 4.32948208 1.01747918
0.67450392 4.33143711 0.98860997
0.55310035 4.32810497 1.04007494
0.55452198 4.41192627 1.05087805
0.61578798 4.41358423 1.02517402
0.49104819 4.41070414 1.07049203
0.49229065 4.49434614 1.08223605
0.55638766 4.49553537 1.06243062
0.42780250 4.49315262 1.09987855
0.42893901 4.57644033 1.11302388
0.49350861 4.57790661 1.09357274
0.36252007 4.57543802 1.12496340
0.36298037 4.65870476 1.13793349
0.43010816 4.65965843 1.12597358
0.29650846 4.65650558 1.15320110
0.29666734 4.73956442 1.16678226
0.36419022 4.74142599 1.15384889
0.22869226 4.73748732 1.17812705
0.22840303 4.82029009 1.19291401
0.29718465 4.82211876 1.18300712
0.15940145 4.81812286 1.20174551
0.15836270 4.90068483 1.21748555
0.22828491 4.90242863 1.21079278
0.08853826 4.89882374 1.22242677
0.08721028 4.98139381 1.23855793
0.15745023 4.98339415 1.23236620
0.01677074 4.97934914 1.24164975
0.01467694 5.06278324 1.25238752
0.08574789 5.06442928 1.25215542
-0.05629624 5.06089735 1.25154841
-0.05913141 5.14270163 1.27111769
0.01249353 5.14524794 1.26862061
-0.13053639 5.14068127 1.26879990
-0.06179551 5.22487354 1.28882134
-0.13440217 5.22250652 1.28725708
-0.20608822 5.22106886 1.27820158
-0.13803984 5.30454350 1.30385268
-0.21056911 5.30286121 1.29655278
-0.28197408 5.30208302 1.28246665
-0.21508259 5.38478804 1.31415451
-0.28770146 5.38352966 1.30214989
-0.35986412 5.38256359 1.28605127
-0.29382399 5.46445370 1.32296968
-0.36744088 5.46270227 1.30943751
-0.44003940 5.46139097 1.29121649
-0.37651265 5.53901196 1.34200943
-0.45107463 5.53677559 1.32658708
-0.52535957 5.53461266 1.30871642
-0.45896506 5.61684895 1.35026646
-0.53387326 5.61510563 1.33142233
-0.60791379 5.61357832 1.30884683
-0.53707099 5.69902468 1.33478701
-0.61121339 5.69759846 1.31210148
-0.68412554 5.69625425 1.28610015
-0.61373490 5.78176641 1.31288362
-0.68661857 5.78060102 1.28678048
-0.75904602 5.77917576 1.25954068
-0.69211787 5.86416149 1.29566884
-0.76483858 5.86269522 1.26801360
-0.83692384 5.86067438 1.23907530
-0.77665180 5.94254827 1.29159129
-0.84916478 5.94102478 1.26056314
-0.92149043 5.93816566 1.22899735
-0.86644882 6.01666641 1.29327369
-0.93941391 6.01390839 1.25992775
-1.01011014 6.01208353 1.22158360
-1.03781831 6.07684469 1.26770413
-0.96484095 6.08018112 1.30586088
-1.10756934 6.07639647 1.22398281
-1.06916404 6.13656712 1.31993079
-1.14148152 6.13549995 1.27542341
-1.21288252 6.13238764 1.22906661
-1.23501396 6.20799208 1.25718629
-1.16342163 6.20978880 1.30637419
-1.30539238 6.20531988 1.20627117
-1.32375586 6.28480244 1.22778749
-1.25326753 6.28668499 1.27991247
-1.39028895 6.28343010 1.17081916
-1.34003377 6.36549520 1.24687612
-1.40998852 6.36246872 1.19261253
-1.47403669 6.36204910 1.13136697
-1.43414867 6.43831778 1.21941233
-1.50148022 6.43657446 1.15938878
-1.56455886 6.43664789 1.09496999
-1.59738326 6.50770664 1.12702060
-1.53313959 6.50719738 1.19254327
-1.66099155 6.50660706 1.06192958
-1.63955259 6.56773853 1.16941381
-1.70491648 6.56658554 1.10239196
-1.76689529 6.56662226 1.03114986
-1.81730521 6.61838436 1.07512367
-1.75271940 6.61897898 1.14801550
-1.88096249 6.61525202 1.00221968
-1.85876977 6.68172789 1.11244953
-1.92328632 6.67922688 1.03718281
-1.98215306 6.67908001 0.95682418
-2.01882315 6.75002861 0.98447537
-1.95623302 6.75222492 1.06388068
-2.07660198 6.74917364 0.90189666
-2.11050606 6.82355213 0.92543763
-2.05115461 6.82479429 1.00865185
-2.16352725 6.82529116 0.83830070
-2.20844603 6.89213800 0.86604142
-2.15263438 6.89140081 0.95365494
-2.26135302 6.89270878 0.77685958
-2.25915337 6.95352650 0.89637703
-2.31076097 6.95620680 0.80376935
-2.36157417 6.95432901 0.70970327
-2.36917949 7.00993633 0.83393788
-2.42114568 7.00722790 0.73782694
-2.46887922 7.00586700 0.63988698
-2.48443604 7.05490065 0.76817882
-2.53361583 7.05294085 0.66838133
-2.58033514 7.04788542 0.56703180
-2.60196161 7.09326887 0.69815481
-2.64680719 7.09265804 0.59327763
-2.69008040 7.08915854 0.48672208
-2.71674538 7.13130331 0.62058657
-2.75895548 7.13122988 0.51105332
-2.79710817 7.13287592 0.39932445
-2.82432771 7.17829180 0.53362477
-2.86446023 7.17833662 0.42038867
-2.89852691 7.17990065 0.30518508
-2.92865491 7.22491693 0.44042233
-2.96391535 7.22600508 0.32327563
-2.99400258 7.22765446 0.20469099
-3.06116271 7.26682186 0.22116844
-3.03056240 7.26553059 0.34193650
-3.08806849 7.26915550 0.09923536
-3.12779379 7.30076647 0.23817137
-3.15289068 7.30532074 0.11346829
-3.17692876 7.30415154 -0.01299457
-3.23740435 7.33900499 -0.00325475
-3.21498346 7.33311415 0.12731422
-3.26145029 7.33284140 -0.13249169
-3.29517102 7.35916853 0.00590662
-3.31859803 7.35626030 -0.12609217
-3.33163738 7.36011410 -0.25655931
-3.37361932 7.37583780 -0.12006334
-3.38745689 7.38019657 -0.25154477
-3.39664698 7.37744665 -0.38703460
-3.44394040 7.39565134 -0.24654657
-3.44947243 7.39984655 -0.38347027
-3.45194507 7.40018940 -0.52618241
-3.50076246 7.42186451 -0.37955153
-3.50031018 7.42462206 -0.52796257
-3.50177240 7.42666674 -0.67593366
-3.54272389 7.44994354 -0.52935165
-3.55289960 7.44749498 -0.68127406
-3.55607677 7.43743372 -0.81421387
-3.53368855 7.44347048 -0.94530421
-3.59763908 7.47662497 -0.67732275
-3.61586428 7.46132088 -0.81720787
-3.58169127 7.47458029 -0.95156938
-3.58169127 7.47458029 -0.95156938
-3.61819410 7.51468420 -0.96180612
-3.66210699 7.50394201 -0.82016534
-3.61819410 7.51468420 -0.96180612
-3.54979134 7.52598000 -1.09962201
-3.64281464 7.56510210 -0.97137892
-3.55555964 7.56631184 -1.10100281
-3.57482743 7.57371330 -1.25022864
-3.54674840 7.60389471 -1.09877062
-3.56094050 7.62573290 -1.24478638
-3.58157730 7.65762806 -1.39973140
-3.52544785 7.66510773 -1.23793066
-3.53366041 7.70476341 -1.38835812
-3.48736835 7.71058846 -1.53476906
-3.47631717 7.73016167 -1.37605596
-3.43447351 7.74225187 -1.51722026
-3.35032272 7.69186258 -1.63564193
-3.37453985 7.74114370 -1.49185836
-3.30738759 7.70736647 -1.61593008
-3.24696088 7.69265270 -1.75189245
-3.25931191 7.70363855 -1.59600651
-3.20183825 7.69722271 -1.73409927
-3.15206361 7.71841335 -1.86868465
-3.10081482 7.70068121 -1.84487081
-3.15350986 7.68857956 -1.71351576
-3.04473829 7.70704460 -1.96278334
-2.99071097 7.68789864 -1.93648469
-3.04765916 7.68570328 -1.81880021
-2.92930651 7.68612289 -2.05086541
-2.93699360 7.66696119 -1.91011262
-2.87575603 7.66728258 -2.02350354
-2.80887675 7.67391443 -2.13424253
-2.82128882 7.65105772 -1.99392951
-2.75524068 7.65751028 -2.10327959
-2.68383980 7.66428041 -2.21009994
-2.69999123 7.63988400 -2.07042646
-2.63032556 7.64291048 -2.17554808
-2.55645609 7.64591694 -2.27756166
-2.57513332 7.61989927 -2.14044642
-2.50292993 7.62257147 -2.23968196
-2.42652273 7.62330055 -2.33733273
-2.44823861 7.59470892 -2.20157790
-2.37213278 7.60256243 -2.29520416
-2.29305339 7.60796785 -2.38663054
-2.31835413 7.57126570 -2.25432634
-2.24102616 7.57603931 -2.34343886
-2.16145372 7.57895231 -2.43093419
-2.18787456 7.54091358 -2.29946089
-2.11020851 7.54396868 -2.38504195
-2.02879500 7.54831553 -2.46642685
-2.05803061 7.50642729 -2.33839989
-1.97865796 7.51013803 -2.41780925
-1.89550090 7.51535606 -2.49290895
-1.80932117 7.51917744 -2.56641603
-2.45747328 7.34074831 -1.32215095
-2.41914558 7.34193802 -1.41935360
-2.48332381 7.38872242 -1.44521236
-2.52236867 7.38769197 -1.34573662
-2.49319816 7.33743238 -1.22410095
-2.55909157 7.38437128 -1.24536896
-2.42863274 7.28722620 -1.20387995
-2.39487934 7.28919744 -1.29984832
-2.59010339 7.42876911 -1.37029195
-2.62631321 7.42679739 -1.26677132
-2.65852642 7.42479372 -1.16134000
-2.69441867 7.46646976 -1.28797805
