-2.15420914 5.67852831 0.39454150
-2.07023478 7.25102091 0.77597815
-2.07985640 8.55777931 0.77463323
-2.13736272 8.55777931 0.58618236
-2.12751675 7.25102091 0.58719969
-2.17876339 8.55777931 0.39326549
-2.16876245 7.25102091 0.39395523
-2.19371319 7.25102091 0.19772770
-2.20381784 8.55777931 0.19738284
-2.17902207 5.67852831 0.19802082
-2.14989829 2.71381974 0.19917612
-2.16324449 4.08467102 0.19845191
-1.65541530 2.71381974 1.46913719
-1.66608894 4.08467102 1.46370566
-1.78075612 4.08467102 1.30606842
-1.76946175 2.71381974 1.31091380
-1.67871082 5.67852831 1.46055019
-1.79410219 5.67852831 1.30325782
-1.88199091 4.08467102 1.13848186
-1.87016201 2.71381974 1.14272368
-1.89597511 5.67852831 1.13605046
-1.69050515 7.25102091 1.45837748
-1.69867837 8.55777931 1.45582545
-1.81517339 8.55777931 1.29903316
-1.80656910 7.25102091 1.30130935
-1.91802919 8.55777931 1.13236046
-1.90902817 7.25102091 1.13434339
-1.99715805 7.25102091 0.95880777
-2.00650382 8.55777931 0.95711797
-1.98360491 5.67852831 0.96023893
-1.95675731 2.71381974 0.96587747
-1.96905184 4.08467102 0.96230811
-1.08369994 2.71381974 1.97936344
-1.09130430 4.08467102 1.97203493
-1.25021756 4.08467102 1.86524785
-1.24176824 2.71381974 1.87217975
-1.10028791 5.67852831 1.96779311
-1.26020133 5.67852831 1.86123025
-1.39971590 4.08467102 1.74426961
-1.39045644 2.71381974 1.75075316
-1.41064811 5.67852831 1.74052787
-1.10870254 7.25102091 1.96486199
-1.11465156 8.55777931 1.96143043
-1.27609944 8.55777931 1.85521233
-1.26954710 7.25102091 1.85845411
-1.42801213 8.55777931 1.73488939
-1.42087340 7.25102091 1.73792422
-1.56156063 7.25102091 1.60423779
-1.56923378 8.55777931 1.60142708
-1.55052495 5.67852831 1.60663450
-1.52871227 2.71381974 1.61608386
-1.53871334 4.08467102 1.61010039
-0.38240209 2.71381974 2.25085759
-0.38623005 4.08467102 2.24251175
-0.57021493 4.08467102 2.19943810
-0.56538683 2.71381974 2.20761156
-0.39074779 5.67852831 2.23770094
-0.57588792 5.67852831 2.19471359
-0.74995792 4.08467102 2.13965607
-0.74418151 2.71381974 2.14760518
-0.75676906 5.67852831 2.13506937
-0.39504132 7.25102091 2.23435569
-0.39823133 8.55777931 2.23045874
-0.58516479 8.55777931 2.18760943
-0.58125055 7.25102091 2.19143724
-0.76780468 8.55777931 2.12815499
-0.76318347 7.25102091 2.13187933
-0.93946069 7.25102091 2.05618167
-0.94475430 8.55777931 2.05257797
-0.93201166 5.67852831 2.05925107
-0.91738939 2.71381974 2.07135582
-0.92409694 4.08467102 2.06368256
0.36391780 2.71381974 2.25085759
0.36409023 4.08467102 2.24251175
0.17722575 4.08467102 2.26835918
0.17805344 2.71381974 2.27679133
0.36433163 5.67852831 2.23770094
0.17629464 5.67852831 2.26349664
-0.01106991 4.08467102 2.27698088
-0.00924213 2.71381974 2.28542995
-0.01320806 5.67852831 2.27208376
0.36443511 7.25102091 2.23435569
0.36415923 8.55777931 2.23045874
0.17429443 8.55777931 2.25615120
0.17529453 7.25102091 2.26011705
-0.01703605 8.55777931 2.26472092
-0.01529449 7.25102091 2.26868677
-0.39823133 8.55777931 2.23045874
-0.39504132 7.25102091 2.23435569
-0.20590074 7.25102091 2.26011705
-0.20836653 8.55777931 2.25615120
-0.39074779 5.67852831 2.23770094
-0.20269352 5.67852831 2.26349664
-0.38623005 4.08467102 2.24251175
-0.38240209 2.71381974 2.25085759
-0.19653770 2.71381974 2.27679133
-0.19938283 4.08467102 2.26835918
1.06521571 2.71381974 1.97936344
1.06916440 4.08467102 1.97203493
0.90195715 4.08467102 2.06368256
0.89890516 2.71381974 2.07135582
1.07388902 5.67852831 1.96779311
0.90561271 5.67852831 2.05925107
0.72780091 4.08467102 2.13965607
0.72567999 2.71381974 2.14760518
0.73037010 5.67852831 2.13506937
1.07811368 7.25102091 1.96486199
1.08056211 8.55777931 1.96143043
0.91066504 8.55777931 2.05257797
0.90887165 7.25102091 2.05618167
0.73371530 8.55777931 2.12815499
0.73259455 7.25102091 2.13187933
0.55066156 7.25102091 2.19143724
0.55109268 8.55777931 2.18760943
0.54948908 5.67852831 2.19471359
0.54690254 2.71381974 2.20761156
0.54805785 4.08467102 2.19943810
1.63691378 2.71381974 1.46913719
1.64393175 4.08467102 1.46370566
1.51655626 4.08467102 1.61010039
1.51022804 2.71381974 1.61608386
1.65231192 5.67852831 1.46055019
1.52412617 5.67852831 1.60663450
1.37755895 4.08467102 1.74426961
1.37197208 2.71381974 1.75075316
1.38424933 5.67852831 1.74052787
1.65989888 7.25102091 1.45837748
1.66457188 8.55777931 1.45582545
1.53514457 8.55777931 1.60142708
1.53097165 7.25102091 1.60423779
1.39392269 8.55777931 1.73488939
1.39026713 7.25102091 1.73792422
1.23895812 7.25102091 1.85845411
1.24201024 8.55777931 1.85521233
1.23380244 5.67852831 1.86123025
1.22326684 2.71381974 1.87217975
1.22806036 4.08467102 1.86524785
2.01007390 2.71381974 0.78170294
2.01909184 4.08467102 0.77882326
1.94691193 4.08467102 0.96230811
1.93827295 2.71381974 0.96587747
2.02985168 5.67852831 0.77715069
1.95718884 5.67852831 0.96023893
1.85983372 4.08467102 1.13848186
1.85166061 2.71381974 1.14272368
1.86957622 5.67852831 1.13605046
2.03962851 7.25102091 0.77597815
2.04576707 8.55777931 0.77463323
1.97241473 8.55777931 0.95711797
1.96656919 7.25102091 0.95880777
1.88393974 8.55777931 1.13236046
1.87842202 7.25102091 1.13434339
1.77596295 7.25102091 1.30130935
1.78108418 8.55777931 1.29903316
1.76770341 5.67852831 1.30325782
1.75097752 2.71381974 1.31091380
1.75859892 4.08467102 1.30606842
2.14108753 4.08467102 0.19845191
2.13141394 2.71381974 0.19917612
2.15260601 5.67852831 0.19802082
2.11644697 4.08467102 0.39538643
2.10689425 2.71381974 0.39686933
2.12781024 5.67852831 0.39454150
2.16972852 8.55777931 0.19738284
2.16310716 7.25102091 0.19772770
2.14467406 8.55777931 0.39326549
2.13817358 7.25102091 0.39395523
2.09692764 7.25102091 0.58719969
2.10327315 8.55777931 0.58618236
2.08680606 5.67852831 0.58807909
2.06637287 2.71381974 0.59154499
2.07570148 4.08467102 0.58935511
3.54026914 -8.69115543 -0.00000000
3.52447462 -8.69117355 -0.31189486
3.49060869 -8.56157303 -0.30818757
3.50616217 -8.56152153 -0.00000000
3.47753835 -8.69301796 -0.62144470
3.44013786 -8.56603909 -0.61406457
3.47422767 -8.47315025 -0.30634257
3.48917770 -8.47309875 -0.00000000
3.42175674 -8.47896099 -0.61035728
3.40796208 -8.69320774 -0.92628711
3.31795263 -8.69320774 -1.22407699
3.27608633 -8.56919479 -1.20954096
3.36494040 -8.56888485 -0.91528594
3.25484252 -8.48539257 -1.20224714
3.34311032 -8.48382378 -0.90976816
3.24884200 -8.38936520 -1.20119524
3.33704066 -8.38550282 -0.90897495
3.33602357 -8.42674923 -0.90816450
3.24787641 -8.42954159 -1.20014346
3.41825628 -8.37833023 -0.60982281
3.41635966 -8.42055893 -0.60928822
3.47262406 -8.37160492 -0.30606666
3.48640156 -8.37157059 -0.00000000
3.48428059 -8.41407490 -0.00000000
3.46996856 -8.41412735 -0.30579078
3.20313001 -8.69320774 -1.51246953
3.16274667 -8.56919479 -1.49450207
3.06465030 -8.69320774 -1.78937793
3.02604270 -8.56919479 -1.76813424
3.14224434 -8.48539257 -1.48548377
3.00645447 -8.48539257 -1.75746071
2.90365052 -8.69320774 -2.05275035
2.72126913 -8.69320774 -2.30051804
2.68709326 -8.56919479 -2.27320457
2.86711192 -8.56919479 -2.02838588
2.66974664 -8.48539257 -2.25947905
2.84857559 -8.48539257 -2.01614308
2.66403913 -8.42954159 -2.25553036
2.66479778 -8.38936520 -2.25749612
2.84329915 -8.38936520 -2.01436710
2.84248877 -8.42954159 -2.01260829
3.00090194 -8.38936520 -1.75592613
3.00002289 -8.42954159 -1.75439155
3.13645077 -8.38936520 -1.48419058
3.13553715 -8.42954159 -1.48288012
2.51867890 -8.69320774 -2.53061104
2.48710656 -8.56919479 -2.50055623
2.29632807 -8.69320774 -2.74149537
2.26760077 -8.56919479 -2.70894027
2.47107053 -8.48539257 -2.48546839
2.25301313 -8.48539257 -2.69257641
2.05468178 -8.69320774 -2.93163586
1.79418886 -8.69320774 -3.09948111
1.77182448 -8.56919479 -3.06268406
2.02902389 -8.56919479 -2.89680457
1.76044405 -8.48539257 -3.04418230
2.01598811 -8.48539257 -2.87931991
1.75668502 -8.42954159 -3.03885436
1.75715053 -8.38936520 -3.04152679
2.01222920 -8.38936520 -2.87680268
2.01169467 -8.42954159 -2.87428498
2.24882293 -8.38936520 -2.69023132
2.24820232 -8.42954159 -2.68786907
2.46579409 -8.42954159 -2.48112297
2.46648383 -8.38936520 -2.48329568
1.51534927 -8.69320774 -3.24353075
1.49641621 -8.56919479 -3.20500946
1.22287023 -8.69320774 -3.36294007
1.20754099 -8.56919479 -3.32300472
1.48681188 -8.48539257 -3.18566251
1.19976437 -8.48539257 -3.30295086
0.92149371 -8.69320774 -3.45689797
0.61596155 -8.69320774 -3.52461195
0.60815036 -8.56919479 -3.48274565
0.90988898 -8.56919479 -3.41584182
0.60420173 -8.48539257 -3.46172595
0.90399188 -8.48539257 -3.39523649
0.60308093 -8.38936520 -3.45869136
0.90231925 -8.38936520 -3.39225340
0.90206063 -8.42954159 -3.38928747
0.60289121 -8.42954159 -3.45565677
1.19752276 -8.38936520 -3.30005407
1.19719517 -8.42954159 -3.29715729
1.48362184 -8.42954159 -3.18007565
1.48403573 -8.38936520 -3.18286920
0.31101570 -8.69320774 -3.56521988
0.30704975 -8.56919479 -3.52288771
0.00765620 -8.69320774 -3.57877302
0.00756998 -8.56919479 -3.53626847
0.30504954 -8.48539257 -3.50162697
0.00750101 -8.48539257 -3.51492143
-0.29311681 -8.69320774 -3.56521988
-0.59030324 -8.69320774 -3.52461195
-0.58271623 -8.56919479 -3.48274565
-0.28935778 -8.56919479 -3.52288771
-0.57888824 -8.48539257 -3.46172595
-0.28746107 -8.48539257 -3.50162697
-0.57785368 -8.38936520 -3.45869136
-0.28694376 -8.38936520 -3.49855757
-0.28684029 -8.42954159 -3.49548841
-0.57764673 -8.42954159 -3.45565677
0.00748377 -8.38936520 -3.51183510
0.00748377 -8.42954159 -3.50876546
0.30448052 -8.38936520 -3.49855757
0.30439433 -8.42954159 -3.49548841
-0.86395276 -8.42954159 -3.38928747
-0.86426312 -8.38936520 -3.39225340
-0.86581498 -8.48539257 -3.39523649
-1.14368904 -8.42954159 -3.29715729
-1.14408565 -8.38936520 -3.30005407
-1.14613760 -8.48539257 -3.30295086
-0.88292021 -8.69320774 -3.45689797
-0.87155694 -8.56919479 -3.41584182
-1.16879511 -8.69320774 -3.36294007
-1.15374184 -8.56919479 -3.32300472
-1.71169710 -8.69320774 -3.09948111
-1.68966031 -8.56919479 -3.06268406
-1.42714989 -8.56919479 -3.20500946
-1.44577253 -8.69320774 -3.24353075
-1.67852116 -8.48537540 -3.04418230
-1.41775227 -8.48539257 -3.18566251
-1.41470039 -8.42954159 -3.18007565
-1.67491746 -8.42954159 -3.03885436
-1.67550361 -8.38936520 -3.04152679
-1.41520023 -8.38936520 -3.18286920
-1.92287445 -8.38936520 -2.87680268
-1.92221916 -8.42954159 -2.87428498
-1.92634034 -8.48539257 -2.87931991
-2.15562320 -8.38936520 -2.69023132
-2.15488172 -8.42954159 -2.68786907
-2.15950274 -8.48537540 -2.69257641
-1.96443057 -8.69320774 -2.93163586
-1.93913484 -8.56919479 -2.89680457
-2.20219684 -8.69320774 -2.74149537
-2.17384911 -8.56919479 -2.70894027
-2.62586212 -8.69320774 -2.30051804
-2.59204841 -8.56919479 -2.27320457
-2.39206171 -8.56919479 -2.50055623
-2.42327189 -8.69320774 -2.53061104
-2.57494307 -8.48537540 -2.25947905
-2.37628412 -8.48537540 -2.48546839
-2.37118030 -8.42954159 -2.48110580
-2.56942511 -8.42954159 -2.25553036
-2.57030463 -8.38936520 -2.25749612
-2.37200785 -8.38936520 -2.48329568
-2.74882340 -8.38936520 -2.01436710
-2.74787498 -8.42954159 -2.01260829
-2.75378942 -8.48537540 -2.01614308
-2.90640879 -8.38936520 -1.75592613
-2.90540862 -8.42954159 -1.75439155
-2.91166806 -8.48537540 -1.75746071
-2.80822635 -8.69320774 -2.05275035
-2.77206707 -8.56919479 -2.02838588
-2.96922588 -8.69320774 -1.78937793
-2.93099785 -8.56919479 -1.76813424
-3.22252822 -8.69320774 -1.22407699
-3.18104124 -8.56919479 -1.20954096
-3.06768465 -8.56919479 -1.49450207
-3.10770607 -8.69320774 -1.51246953
-3.16019416 -8.48537540 -1.20224714
-3.04745841 -8.48539257 -1.48548377
-3.15352106 -8.42954159 -1.20014346
-3.15464187 -8.38936520 -1.20119524
-3.04197502 -8.38936520 -1.48419058
-3.04090595 -8.42954159 -1.48288012
-3.27125764 -8.42954159 -0.90818173
-3.27282667 -8.38936520 -0.90897495
-3.27646518 -8.48539257 -0.90976816
-3.35445595 -8.42954159 -0.60928822
-3.35952544 -8.38936520 -0.60982281
-3.35585284 -8.48539257 -0.61035728
-3.29329443 -8.56919479 -0.91528594
-3.33029819 -8.69320774 -0.92628711
-3.41032410 -8.69320774 -0.62144470
-3.37054396 -8.56919479 -0.61406457
-3.46817493 -8.69320774 -0.00000000
-3.43087792 -8.56919479 -0.00000000
-3.41625571 -8.56919479 -0.30818757
-3.45362163 -8.69320774 -0.31189486
-3.41741109 -8.48539257 -0.00000000
-3.40301299 -8.48539257 -0.30634257
-3.41668677 -8.42954159 -0.00000000
-3.42220449 -8.38936520 -0.00000000
-3.40828943 -8.38936520 -0.30606666
-3.40251279 -8.42954159 -0.30579078
-3.45362163 -8.69320774 0.31189486
-3.41625571 -8.56919479 0.30818757
-3.41032410 -8.69320774 0.62144470
-3.37054396 -8.56919479 0.61406457
-3.40301299 -8.48539257 0.30634257
-3.35585284 -8.48539257 0.61035728
-3.29329443 -8.56919479 0.91528594
-3.33029819 -8.69320774 0.92628711
-3.22252822 -8.69320774 1.22407699
-3.18104124 -8.56919479 1.20954096
-3.27646518 -8.48539257 0.90976816
-3.16019416 -8.48539257 1.20224714
-3.15464187 -8.38936520 1.20119524
-3.27282667 -8.38936520 0.90897495
-3.27125764 -8.42954159 0.90818173
-3.15352106 -8.42954159 1.20014346
-3.35952544 -8.38936520 0.60982281
-3.35445595 -8.42954159 0.60928822
-3.40828943 -8.38936520 0.30606666
-3.40251279 -8.42954159 0.30579078
-3.10770607 -8.69320774 1.51246953
-3.06768465 -8.56919479 1.49450207
-2.96922588 -8.69320774 1.78937793
-2.93099785 -8.56919479 1.76813424
-3.04745841 -8.48539257 1.48548377
-2.91166806 -8.48539257 1.75746071
-2.80822635 -8.69320774 2.05275035
-2.62586212 -8.69320774 2.30051804
-2.59204841 -8.56919479 2.27320457
-2.77206707 -8.56919479 2.02838588
-2.57494307 -8.48537540 2.25947905
-2.75378942 -8.48539257 2.01614308
-2.56942511 -8.42954159 2.25553036
-2.57030463 -8.38936520 2.25749612
-2.74882340 -8.38936520 2.01436710
-2.74787498 -8.42954159 2.01260829
-2.90640879 -8.38936520 1.75592613
-2.90540862 -8.42954159 1.75439155
-3.04197502 -8.38936520 1.48419058
-3.04090595 -8.42954159 1.48288012
-2.42327189 -8.69320774 2.53061104
-2.39206171 -8.56919479 2.50055623
-2.20219684 -8.69320774 2.74149537
-2.17384911 -8.56919479 2.70894027
-2.37628412 -8.48537540 2.48546839
-2.15950274 -8.48539257 2.69257641
-1.96443057 -8.69320774 2.93163586
-1.71169710 -8.69320774 3.09948111
-1.68966031 -8.56890106 3.06268406
-1.93913484 -8.56919479 2.89680457
-1.67852116 -8.48354816 3.04333735
-1.92634034 -8.48539257 2.87931991
-1.67491746 -8.42612839 3.03675032
-1.67550361 -8.38448524 3.03814721
-1.92287445 -8.38936520 2.87680268
-1.92221916 -8.42954159 2.87428498
-2.15562320 -8.38936520 2.69023132
-2.15488172 -8.42954159 2.68786907
-2.37118030 -8.42954159 2.48110580
-2.37200785 -8.38936520 2.48329568
-1.44577253 -8.69232845 3.24335837
-1.42714989 -8.56367683 3.20140576
-1.16879511 -8.68793106 3.35990500
-1.15374184 -8.55484772 3.31046891
-1.41775227 -8.47587490 3.17838597
-1.14613760 -8.46442509 3.28187966
-0.88292021 -8.68589687 3.44832826
-0.59030324 -8.68593121 3.50938654
-0.58271623 -8.55167580 3.44332767
-0.87155694 -8.55172729 3.38720107
-0.57888824 -8.46095943 3.40487552
-0.86581498 -8.46101093 3.35171461
-0.57785368 -8.35796547 3.38399386
-0.86426312 -8.35796547 3.33347130
-0.86395276 -8.40095329 3.33659244
-0.57764673 -8.40091896 3.38802886
-1.14408565 -8.36110401 3.26870584
-1.14368904 -8.40429878 3.27011991
-1.41470039 -8.41735172 3.17021275
-1.41520023 -8.37526035 3.17109227
-0.59030324 -8.68593121 3.50938654
-0.29311681 -8.68589687 3.54171753
-0.28935778 -8.55174446 3.47471023
-0.58271623 -8.55167580 3.44332767
0.00765620 -8.68589687 3.55527067
0.00756998 -8.55174446 3.48809099
-0.28746107 -8.46106243 3.43724108
-0.57888824 -8.46095943 3.40487552
0.00750101 -8.46106243 3.45053530
0.30704975 -8.55174446 3.47471023
0.31101570 -8.68589687 3.54171753
0.61596155 -8.68593121 3.50938654
0.60815036 -8.55167580 3.44332767
0.30504954 -8.46106243 3.43724108
0.60418445 -8.46094227 3.40485811
0.60308093 -8.35796547 3.38397670
0.30448052 -8.35801697 3.41946292
0.30437708 -8.40102196 3.42191148
0.60289121 -8.40091896 3.38801146
0.00748377 -8.35801697 3.43275762
0.00748377 -8.40102196 3.43518901
-0.28694376 -8.35801697 3.41946292
-0.57785368 -8.35796547 3.38399386
-0.57764673 -8.40091896 3.38802886
-0.28684029 -8.40102196 3.42191148
0.90206063 -8.40095329 3.33755803
0.90231925 -8.35796547 3.33448863
0.90399188 -8.46101093 3.35259414
1.19719517 -8.40428066 3.27074051
1.19752276 -8.36108685 3.26951647
1.19976437 -8.46440792 3.28220725
0.92149371 -8.68589687 3.44874215
0.90988898 -8.55172729 3.38790822
1.22287023 -8.68793106 3.35990500
1.20754099 -8.55484772 3.31055498
1.51534927 -8.69256973 3.24344444
1.79418886 -8.69320774 3.09948111
1.77180731 -8.56900501 3.06268406
1.49641621 -8.56426334 3.20187116
1.76044405 -8.48382378 3.04350972
1.48679459 -8.47665024 3.17905855
1.48362184 -8.41823101 3.17098856
1.75668502 -8.42650795 3.03704381
1.75715053 -8.38493443 3.03850937
1.48401845 -8.37572575 3.17193699
2.01222920 -8.38936520 2.87680268
2.01167727 -8.42954159 2.87428498
2.01598811 -8.48539257 2.87931991
2.24882293 -8.38936520 2.69023132
2.24820232 -8.42954159 2.68786907
2.25301313 -8.48539257 2.69257641
2.05468178 -8.69320774 2.93163586
2.02902389 -8.56919479 2.89680457
2.29632807 -8.69320774 2.74149537
2.26760077 -8.56919479 2.70894027
2.72126913 -8.69320774 2.30051804
2.68709326 -8.56919479 2.27320457
2.48710656 -8.56919479 2.50055623
2.51867890 -8.69320774 2.53061104
2.66974664 -8.48539257 2.25947905
2.47107053 -8.48539257 2.48546839
2.46579409 -8.42954159 2.48110580
2.66403913 -8.42954159 2.25553036
2.66479778 -8.38936520 2.25749612
2.46648383 -8.38936520 2.48329568
2.84329915 -8.38936520 2.01436710
2.84248877 -8.42954159 2.01260829
2.84857559 -8.48539257 2.01614308
3.00088477 -8.38936520 1.75592613
3.00002289 -8.42954159 1.75439155
3.00645447 -8.48539257 1.75746071
2.90365052 -8.69320774 2.05275035
2.86711192 -8.56919479 2.02838588
3.06465030 -8.69320774 1.78937793
3.02604270 -8.56919479 1.76813424
3.31795263 -8.69320774 1.22407699
3.27608633 -8.56919479 1.20954096
3.16274667 -8.56919479 1.49450207
3.20313001 -8.69320774 1.51246953
3.25484252 -8.48539257 1.20224714
3.14224434 -8.48539257 1.48548377
3.24787641 -8.42954159 1.20014346
3.24884200 -8.38936520 1.20119524
3.13645077 -8.38936520 1.48419058
3.13553715 -8.42954159 1.48288012
3.33602357 -8.42674923 0.90818173
3.33704066 -8.38550282 0.90897495
3.34311032 -8.48382378 0.90976816
3.41635966 -8.42055893 0.60928822
3.41825628 -8.37833023 0.60982281
3.42175674 -8.47896099 0.61035728
3.40796208 -8.69320774 0.92628711
3.36494040 -8.56888485 0.91528594
3.47753835 -8.69301796 0.62144470
3.44013786 -8.56603909 0.61406457
3.49060869 -8.56157303 0.30818757
3.52447462 -8.69117355 0.31189486
3.47422767 -8.47315025 0.30634257
3.47262406 -8.37160492 0.30606666
3.46996856 -8.41412735 0.30579078
3.62470913 -9.43816566 -1.33019161
3.55323601 -9.26980305 -1.30543041
3.65657473 -9.26980305 -0.98784530
3.73701406 -9.43816566 -1.00658870
3.46958947 -9.07112694 -1.27649641
3.56385779 -9.07112694 -0.96596372
3.73763466 -9.26980305 -0.66274214
3.82552338 -9.43816566 -0.67531240
3.63453794 -9.07112694 -0.64805096
3.38680482 -8.86972618 -1.24788988
3.47872829 -8.86972618 -0.94430619
3.54490781 -8.86972618 -0.63353217
3.60074091 -8.86972618 -0.00000000
3.58608437 -8.86972618 -0.31796446
3.68937111 -9.07112694 -0.00000000
3.67557645 -9.07112694 -0.32525834
3.79381299 -9.26980305 -0.00000000
3.88287401 -9.43816566 -0.00000000
3.86842442 -9.43816566 -0.33893222
3.77965641 -9.26980305 -0.33262119
3.49904060 -9.43816566 -1.64356947
3.43008518 -9.26980305 -1.61297989
3.34745574 -9.43816566 -1.94448042
3.28156948 -9.26980305 -1.90828693
3.34940434 -9.07112694 -1.57723498
3.20444083 -9.07112694 -1.86600661
3.17123032 -9.43816566 -2.23068285
2.97162294 -9.43816566 -2.49993539
2.91330671 -9.26980305 -2.45339608
3.10889626 -9.26980305 -2.18917847
2.84504104 -9.07112694 -2.39904547
3.03592300 -9.07112694 -2.14067340
2.96370864 -8.86972618 -2.09268570
2.77748179 -8.86972618 -2.34528112
3.12812233 -8.86972618 -1.82419181
3.26955104 -8.86972618 -1.54188645
2.74987578 -9.43816566 -2.74996161
2.69602513 -9.26980305 -2.69878387
2.50660872 -9.43816566 -2.97912359
2.45762086 -9.26980305 -2.92366958
2.63296676 -9.07112694 -2.63898444
2.40028715 -9.07112694 -2.85890436
2.19869709 -9.26980305 -3.12644958
2.24244308 -9.43816566 -3.18574905
1.95798206 -9.43816566 -3.36814737
1.91984010 -9.26980305 -3.30545115
2.14750195 -9.07112694 -3.05718350
1.87516308 -9.07112694 -3.23221922
1.83096874 -8.86972618 -3.15978074
2.09684157 -8.86972618 -2.98865914
2.34353995 -8.86972618 -2.79482841
2.57058096 -8.86972618 -2.57984042
0.67317450 -9.43816566 -3.83012700
0.65984553 -9.26980305 -3.75882649
0.98669022 -9.26980305 -3.68662906
1.00648546 -9.43816566 -3.75655031
0.64424038 -9.07112694 -3.67554188
0.96351540 -9.07112694 -3.60494804
1.30891383 -9.26980305 -3.58642912
1.33503723 -9.43816566 -3.65443611
1.27832437 -9.07112694 -3.50695515
0.62880772 -8.86972618 -3.59317088
0.94056469 -8.86972618 -3.52414656
1.24804533 -8.86972618 -3.42836070
1.54643869 -8.86972618 -3.30662346
1.58382201 -9.07112694 -3.38242459
1.65386379 -9.43816566 -3.52468109
1.62160194 -9.26980305 -3.45907068
-0.64605045 -9.43816566 -3.83012700
-0.63306636 -9.26980305 -3.75882649
-0.31432596 -9.26980305 -3.80215859
-0.32075766 -9.43816566 -3.87425232
-0.61785787 -9.07112694 -3.67554188
-0.30679065 -9.07112694 -3.71790838
0.00817350 -9.26980305 -3.81659102
0.00834593 -9.43816566 -3.88897800
0.00800106 -9.07112694 -3.73203039
-0.60282177 -8.86972618 -3.59317088
-0.29932436 -8.86972618 -3.63458920
0.00781139 -8.86972618 -3.64838362
0.31753364 -8.86972618 -3.63458920
0.32536203 -9.07112694 -3.71790838
0.34005323 -9.43816566 -3.87425232
0.33327666 -9.26980305 -3.80215859
-1.87345541 -9.43816566 -3.36814737
-1.83576179 -9.26980305 -3.30545115
-1.55054224 -9.26980305 -3.45907068
-1.58239043 -9.43816566 -3.52468109
-1.79163659 -9.07112694 -3.23221922
-1.51327956 -9.07112694 -3.38242459
-1.25349367 -9.26980305 -3.58642912
-1.27922058 -9.43816566 -3.65443611
-1.22336984 -9.07112694 -3.50695515
-1.74799395 -8.86972618 -3.15978074
-1.47641373 -8.86972618 -3.30662346
-1.19357359 -8.86972618 -3.42836070
-0.90162909 -8.86972618 -3.52414656
-0.92414868 -9.07112694 -3.60494804
-0.96632558 -9.43816566 -3.75655031
-0.94689250 -9.26980305 -3.68662906
-2.87404323 -9.43816566 -2.49993539
-2.81620979 -9.26980305 -2.45339608
-2.59892845 -9.26980305 -2.69878387
-2.65229607 -9.43816566 -2.74996161
-2.74851322 -9.07112694 -2.39904547
-2.53645635 -9.07112694 -2.63898444
-2.36183453 -9.26980305 -2.92366958
-2.41033959 -9.43816566 -2.97912359
-2.30506992 -9.07112694 -2.85890436
-2.68154049 -8.86972618 -2.34528112
-2.47465658 -8.86972618 -2.57984042
-2.24889159 -8.86972618 -2.79482841
-2.00609016 -8.86972618 -2.98865914
-2.05618167 -9.07112694 -3.05718350
-2.15008783 -9.43816566 -3.18574905
-2.10682487 -9.26980305 -3.12644958
-3.40146089 -9.43816566 -1.64356947
-3.53850985 -9.43816566 -1.33019161
-3.45613933 -9.26980305 -1.30543041
-3.33300567 -9.26980305 -1.61297989
-3.37306142 -9.07112694 -1.27649641
-3.25287628 -9.07112694 -1.57723498
-3.18447256 -9.26980305 -1.90828693
-3.24987626 -9.43816566 -1.94448042
-3.10793018 -9.07112694 -1.86600661
-3.29086328 -8.86972618 -1.24788988
-3.17360950 -8.86972618 -1.54188645
-3.03219795 -8.86972618 -1.82419181
-2.86778426 -8.86972618 -2.09268570
-2.93941236 -9.07112694 -2.14067340
-3.07365060 -9.43816566 -2.23068285
-3.01179934 -9.26980305 -2.18917847
-3.80439997 -9.43816566 -0.00000000
-3.74472117 -9.26980305 -0.00000000
-3.73590994 -9.26980305 -0.33262119
-3.79527807 -9.43816566 -0.33893222
-3.65003896 -9.07112694 -0.00000000
-3.64146924 -9.07112694 -0.32525834
-3.71808052 -9.43816566 -0.67531240
-3.65919495 -9.26980305 -0.66274214
-3.58227324 -9.07112694 -0.64805096
-3.52964687 -8.86972618 -0.31796446
-3.55563235 -8.86972618 -0.00000000
-3.48964262 -8.86972618 -0.63353217
-3.39942646 -8.86972618 -0.94430619
-3.49003935 -9.07112694 -0.96596372
-3.59084320 -9.26980305 -0.98781085
-3.65488410 -9.43816566 -1.00655413
-3.53850985 -9.43816566 1.33019161
-3.45613933 -9.26980305 1.30543041
-3.59370542 -9.26980305 0.98784530
-3.65774655 -9.43816566 1.00658870
-3.37306142 -9.07112694 1.27649641
-3.49003935 -9.07112694 0.96596372
-3.71808052 -9.43816566 0.67531240
-3.65919495 -9.26980305 0.66274214
-3.58227324 -9.07112694 0.64805096
-3.29086328 -8.86972618 1.24788988
-3.39942646 -8.86972618 0.94430619
-3.48964262 -8.86972618 0.63353217
-3.52964687 -8.86972618 0.31796446
-3.63620996 -9.07112694 0.32525834
-3.78995013 -9.43816566 0.33893222
-3.73058200 -9.26980305 0.33262119
-3.40146089 -9.43816566 1.64356947
-3.33300567 -9.26980305 1.61297989
-3.24987626 -9.43816566 1.94448042
-3.18447256 -9.26980305 1.90828693
-3.25287628 -9.07112694 1.57723498
-3.10793018 -9.07112694 1.86600661
-3.07365060 -9.43816566 2.23068285
-2.87404323 -9.43816566 2.49993539
-2.81620979 -9.26980305 2.45341325
-3.01179934 -9.26980305 2.18917847
-2.74851322 -9.07112694 2.39904547
-2.93941236 -9.07112694 2.14067340
-2.86778426 -8.86972618 2.09268570
-2.68154049 -8.86972618 2.34528112
-3.03219795 -8.86972618 1.82419181
-3.17360950 -8.86972618 1.54188645
-2.65229607 -9.43816566 2.74997902
-2.59892845 -9.26980305 2.69878387
-2.41033959 -9.43816566 2.97912359
-2.36183453 -9.26980305 2.92368698
-2.53645635 -9.07112694 2.63898444
-2.30506992 -9.07112694 2.85890436
-2.15008783 -9.43816566 3.18574905
-1.87345541 -9.43816566 3.36814737
-1.83576179 -9.26980305 3.30546856
-2.10682487 -9.26980305 3.12644958
-1.79163659 -9.07112694 3.23221922
-2.05618167 -9.07112694 3.05718350
-2.00609016 -8.86972618 2.98865914
-1.74799395 -8.86972618 3.15978074
-2.24889159 -8.86972618 2.79482841
-2.47465658 -8.86972618 2.57984042
-1.58239043 -9.43816566 3.52468109
-1.55055952 -9.26980305 3.45908809
-1.27922058 -9.43816566 3.65443611
-1.25349367 -9.26980305 3.58642912
-1.51327956 -9.07112694 3.38244200
-1.22336984 -9.07112694 3.50695515
-0.96632558 -9.43816566 3.75655031
-0.64605045 -9.43816566 3.83012700
-0.63306636 -9.26980305 3.75882649
-0.94689250 -9.26980305 3.68662906
-0.61785787 -9.07112694 3.67554188
-0.92414868 -9.07112694 3.60494804
-0.90162909 -8.86972618 3.52488804
-0.60282177 -8.86972618 3.59367132
-1.19357359 -8.86972618 3.42836070
-1.47641373 -8.86972618 3.30662346
0.67317450 -9.43816566 3.83012700
0.65984553 -9.26980305 3.75882649
0.33327666 -9.26980305 3.80215859
0.34005323 -9.43816566 3.87425232
0.64424038 -9.07112694 3.67554188
0.32536203 -9.07112694 3.71790838
0.00817350 -9.26980305 3.81659102
0.00832869 -9.43816566 3.88897800
0.00800106 -9.07112694 3.73203039
0.62880772 -8.86972618 3.59367132
0.31753364 -8.86972618 3.63115788
0.00781139 -8.86972618 3.64495230
-0.60282177 -8.86972618 3.59367132
-0.29932436 -8.86972618 3.63115788
-0.61785787 -9.07112694 3.67554188
-0.30679065 -9.07112694 3.71790838
-0.63306636 -9.26980305 3.75882649
-0.64605045 -9.43816566 3.83012700
-0.32077491 -9.43816566 3.87425232
-0.31432596 -9.26980305 3.80215859
1.65386379 -9.43816566 3.52468109
1.95798206 -9.43816566 3.36814737
1.91984010 -9.26980305 3.30546856
1.62160194 -9.26980305 3.45908809
1.87516308 -9.07112694 3.23221922
1.58382201 -9.07112694 3.38244200
1.33503723 -9.43816566 3.65443611
1.30891383 -9.26980305 3.58642912
1.27832437 -9.07112694 3.50695515
1.54643869 -8.86972618 3.30662346
1.83096874 -8.86972618 3.15978074
1.24804533 -8.86972618 3.42836070
0.94056469 -8.86972618 3.52478480
0.96351540 -9.07112694 3.60494804
1.00648546 -9.43816566 3.75655031
0.98669022 -9.26980305 3.68662906
2.97162294 -9.43816566 2.49993539
2.91330671 -9.26980305 2.45341325
2.69602513 -9.26980305 2.69878387
2.74987578 -9.43816566 2.74997902
2.84504104 -9.07112694 2.39904547
2.63296676 -9.07112694 2.63898444
2.45762086 -9.26980305 2.92368698
2.50660872 -9.43816566 2.97912359
2.40028715 -9.07112694 2.85890436
2.77748179 -8.86972618 2.34528112
2.57058096 -8.86972618 2.57984042
2.34353995 -8.86972618 2.79482841
2.09682417 -8.86972618 2.98865914
2.14750195 -9.07112694 3.05718350
2.19869709 -9.26980305 3.12644958
2.24244308 -9.43816566 3.18574905
3.49904060 -9.43816566 1.64356947
3.64336610 -9.43816566 1.33991683
3.57189322 -9.26980305 1.31515563
3.43008518 -9.26980305 1.61297989
3.48824668 -9.07112694 1.28622150
3.34940434 -9.07112694 1.57723498
3.28156948 -9.26980305 1.90828693
3.34745574 -9.43816566 1.94448042
3.20444083 -9.07112694 1.86600661
3.38680482 -8.86972618 1.24788988
3.26955104 -8.86972618 1.54188645
3.12812233 -8.86972618 1.82419181
2.96370864 -8.86972618 2.09268570
3.03592300 -9.07112694 2.14067340
3.17123032 -9.43816566 2.23068285
3.10889626 -9.26980305 2.18917847
3.77965641 -9.26980305 0.33262119
3.86842442 -9.43816566 0.33893222
3.67557645 -9.07112694 0.32525834
3.82552338 -9.43816566 0.67531240
3.73763466 -9.26980305 0.66274214
3.63453794 -9.07112694 0.64805096
3.58608437 -8.86972618 0.31796446
3.54490781 -8.86972618 0.63353217
3.47872829 -8.86972618 0.94430619
3.56385779 -9.07112694 0.96596372
3.73701406 -9.43816566 1.00658870
3.65657473 -9.26980305 0.98784530
3.88287401 -9.43816566 -0.00000000
3.94058704 -9.54859161 -0.00000000
3.92594767 -9.54859161 -0.34303609
3.86842442 -9.43816566 -0.33893222
3.97360778 -9.61599445 -0.00000000
3.95884752 -9.61599445 -0.34541565
3.88247752 -9.54859161 -0.68348569
3.82552338 -9.43816566 -0.67531240
3.91506720 -9.61599445 -0.68822759
3.98755741 -9.65527439 -0.00000000
3.99154067 -9.68136311 -0.00000000
3.97672892 -9.68136311 -0.34684682
3.97278023 -9.65527439 -0.34651920
3.93275881 -9.68136311 -0.69107270
3.92884445 -9.65527439 -0.69043469
3.72404695 -9.68132877 -1.36121213
3.72070193 -9.65527439 -1.35997069
3.83659339 -9.65527439 -1.02912545
3.84047318 -9.68136311 -1.03007388
3.70749378 -9.61599445 -1.35560811
3.82314372 -9.61599445 -1.02581477
3.67616296 -9.54859161 -1.34629679
3.62470913 -9.43816566 -1.33019161
3.73701406 -9.43816566 -1.00658870
3.79129553 -9.54859161 -1.01877952
3.54363155 -9.54859161 -1.66348529
3.49904060 -9.43816566 -1.64356947
3.56915164 -9.61599445 -1.67498648
3.39008069 -9.54859161 -1.96803451
3.34745574 -9.43816566 -1.94448042
3.41447997 -9.61599445 -1.98165679
3.58413577 -9.68132877 -1.68191826
3.58089423 -9.65527439 -1.68036640
3.42879200 -9.68132877 -1.98984718
3.42570519 -9.65527439 -1.98801947
3.04361367 -9.68132877 -2.55825186
3.04088902 -9.65527439 -2.55590677
3.24527240 -9.65527439 -2.28063655
3.24818683 -9.68132877 -2.28274012
3.03095698 -9.61599445 -2.54771614
3.23465061 -9.61599445 -2.27332520
3.00935149 -9.54859161 -2.53021455
2.97162294 -9.43816566 -2.49993539
3.17123032 -9.43816566 -2.23068285
3.21156216 -9.54859161 -2.25770307
2.78472424 -9.54859161 -2.78327560
2.74987578 -9.43816566 -2.74996161
2.80465722 -9.61599445 -2.80251884
2.53830171 -9.54859161 -3.01521373
2.50660872 -9.43816566 -2.97912359
2.55644155 -9.61599445 -3.03606081
2.81636524 -9.68132877 -2.81412363
2.81383061 -9.65527439 -2.81153727
2.56708074 -9.68132877 -3.04863119
2.56478715 -9.65527439 -3.04582047
2.00509048 -9.68132877 -3.44672441
2.00329709 -9.65527439 -3.44355202
2.29437947 -9.65527439 -3.25706673
2.29643154 -9.68132877 -3.26006722
1.99679649 -9.61599445 -3.43251610
2.28693032 -9.61599445 -3.24663472
1.98267436 -9.54859161 -3.40894485
1.95798206 -9.43816566 -3.36814737
2.24244308 -9.43816566 -3.18574905
2.27073908 -9.54859161 -3.22432208
1.67474544 -9.54859161 -3.56737542
1.65386379 -9.43816566 -3.52468109
1.68669486 -9.61599445 -3.59203315
1.35195279 -9.54859161 -3.69869924
1.33503723 -9.43816566 -3.65443611
1.36162627 -9.61599445 -3.72428846
1.69371283 -9.68132877 -3.60691381
1.69219553 -9.65527439 -3.60358596
1.36733365 -9.68132877 -3.73970366
1.36609221 -9.65527439 -3.73625493
0.68967623 -9.68132877 -3.91948128
0.68902093 -9.65527439 -3.91587734
1.03002238 -9.65527439 -3.84066272
1.03097081 -9.68132877 -3.84419751
0.68674487 -9.61599445 -3.90332437
1.02664268 -9.61599445 -3.82835102
0.68179607 -9.54859161 -3.87651110
0.67317450 -9.43816566 -3.83012700
1.00648546 -9.43816566 -3.75655031
1.01929712 -9.54859161 -3.80205512
0.34443301 -9.54859161 -3.92118835
0.34005323 -9.43816566 -3.87425232
0.34695053 -9.61599445 -3.94831204
0.00844939 -9.54859161 -3.93608642
0.00834593 -9.43816566 -3.88897800
0.00851836 -9.61599445 -3.96329618
0.34846789 -9.68132877 -3.96464133
0.34812304 -9.65527439 -3.96100283
0.00860458 -9.68132877 -3.97971177
0.00857009 -9.65527439 -3.97603893
-0.66201770 -9.68132877 -3.91948128
-0.66144866 -9.65527439 -3.91587734
-0.32837915 -9.65527439 -3.96100283
-0.32865503 -9.68132877 -3.96465826
-0.65925878 -9.61599445 -3.90332437
-0.32729283 -9.61599445 -3.94831204
-0.65444791 -9.54859161 -3.87651110
-0.64605045 -9.43816566 -3.83012700
-0.32075766 -9.43816566 -3.87425232
-0.32493052 -9.54859161 -3.92118835
-0.97889584 -9.54859161 -3.80205512
-0.96632558 -9.43816566 -3.75655031
-0.98608625 -9.61599445 -3.82835102
-1.29586017 -9.54859161 -3.69869924
-1.27922058 -9.43816566 -3.65443611
-1.30537844 -9.61599445 -3.72428846
-0.99024189 -9.68132877 -3.84419751
-0.98936242 -9.65527439 -3.84066272
-1.31091344 -9.68132877 -3.73970366
-1.30974102 -9.65527439 -3.73625493
-1.91990852 -9.68132877 -3.44672441
-1.91818440 -9.65527439 -3.44355202
-1.62015295 -9.65527439 -3.60358596
-1.62161863 -9.68132877 -3.60691381
-1.91178703 -9.61599445 -3.43251610
-1.61475575 -9.61599445 -3.59203315
-1.89783740 -9.54859161 -3.40894485
-1.87345541 -9.43816566 -3.36814737
-1.58239043 -9.43816566 -3.52468109
-1.60297883 -9.54859161 -3.56737542
-2.17807364 -9.54859161 -3.22432208
-2.15008783 -9.43816566 -3.18574905
-2.19407535 -9.61599445 -3.24663472
-2.44170475 -9.54859161 -3.01521373
-2.41033959 -9.43816566 -2.97912359
-2.45965505 -9.61599445 -3.03606081
-2.20340395 -9.68132877 -3.26006722
-2.20142102 -9.65527439 -3.25706673
-2.47012186 -9.68132877 -3.04863119
-2.46789742 -9.65527439 -3.04582047
-2.94536138 -9.68132877 -2.55825186
-2.94268847 -9.65527439 -2.55590677
-2.71564746 -9.65527439 -2.81153727
-2.71809602 -9.68132877 -2.81412363
-2.93285990 -9.61599445 -2.54771614
-2.70657754 -9.61599445 -2.80251884
-2.91146111 -9.54859161 -2.53021455
-2.87404323 -9.43816566 -2.49993539
-2.65229607 -9.43816566 -2.74996161
-2.68681693 -9.54859161 -2.78327560
-3.11367202 -9.54859161 -2.25770307
-3.07365060 -9.43816566 -2.23068285
-3.13655376 -9.61599445 -2.27332520
-3.29219103 -9.54859161 -1.96803451
-3.24987626 -9.43816566 -1.94448042
-3.31638288 -9.61599445 -1.98165679
-3.14991736 -9.68132877 -2.28274012
-3.14707208 -9.65527439 -2.28063655
-3.33052254 -9.68132877 -1.98984718
-3.32750487 -9.65527439 -1.98801947
-3.64274502 -9.68132877 -1.36121213
-3.63946891 -9.65527439 -1.35997069
-3.48271108 -9.65527439 -1.68036640
-3.48586631 -9.68132877 -1.68191826
-3.62741590 -9.61599445 -1.35560811
-3.47107172 -9.61599445 -1.67498648
-3.44574142 -9.54859161 -1.66348529
-3.59787846 -9.54859161 -1.34629679
-3.53850985 -9.43816566 -1.33019161
-3.40146089 -9.43816566 -1.64356947
-3.65488410 -9.43816566 -1.00655413
-3.70726919 -9.54859161 -1.01874506
-3.73759985 -9.61599445 -1.02578032
-3.76793051 -9.54859161 -0.68348569
-3.71808052 -9.43816566 -0.67531240
-3.80305505 -9.61599445 -0.68822759
-3.75320482 -9.68132877 -1.03003931
-3.74992871 -9.65527439 -1.02909100
-3.83207536 -9.68132877 -0.69107270
-3.82267785 -9.65527439 -0.69043469
-3.88877082 -9.68132877 -0.00000000
-3.87968349 -9.65527439 -0.00000000
-3.87132072 -9.65527439 -0.34651920
-3.87971807 -9.68132877 -0.34684682
-3.86376834 -9.61599445 -0.00000000
-3.85602593 -9.61599445 -0.34541565
-3.84247279 -9.54859161 -0.00000000
-3.80439997 -9.43816566 -0.00000000
-3.79527807 -9.43816566 -0.33893222
-3.83461022 -9.54859161 -0.34303609
-3.82926464 -9.54859161 0.34303609
-3.78995013 -9.43816566 0.33893222
-3.85069799 -9.61599445 0.34541565
-3.76793051 -9.54859161 0.68348569
-3.71808052 -9.43816566 0.67531240
-3.80305505 -9.61599445 0.68822759
-3.87439013 -9.68132877 0.34684682
-3.86599255 -9.65527439 0.34651920
-3.83207536 -9.68132877 0.69107270
-3.82267785 -9.65527439 0.69043469
-3.64274502 -9.68132877 1.36121213
-3.63946891 -9.65527439 1.35997069
-3.75279117 -9.65527439 1.02912545
-3.75606704 -9.68132877 1.03007388
-3.62741590 -9.61599445 1.35560811
-3.74046206 -9.61599445 1.02581477
-3.59787846 -9.54859161 1.34629679
-3.53850985 -9.43816566 1.33019161
-3.65774655 -9.43816566 1.00658870
-3.71011424 -9.54859161 1.01877952
-3.44574142 -9.54859161 1.66348529
-3.40146089 -9.43816566 1.64356947
-3.47107172 -9.61599445 1.67498648
-3.29219103 -9.54859161 1.96803451
-3.24987626 -9.43816566 1.94448042
-3.31638288 -9.61599445 1.98165679
-3.48586631 -9.68132877 1.68191826
-3.48271108 -9.65527439 1.68036640
-3.33052254 -9.68132877 1.98984718
-3.32750487 -9.65527439 1.98801947
-2.94536138 -9.68132877 2.55825186
-2.94268847 -9.65527439 2.55590677
-3.14707208 -9.65527439 2.28063655
-3.14991736 -9.68132877 2.28274012
-2.93285990 -9.61599445 2.54771614
-3.13655376 -9.61599445 2.27332520
-2.91146111 -9.54859161 2.53021455
-2.87404323 -9.43816566 2.49993539
-3.07365060 -9.43816566 2.23068285
-3.11367202 -9.54859161 2.25770307
-2.68681693 -9.54859161 2.78327560
-2.65229607 -9.43816566 2.74997902
-2.70657754 -9.61599445 2.80253625
-2.44170475 -9.54859161 3.01521373
-2.41033959 -9.43816566 2.97912359
-2.45965505 -9.61599445 3.03606081
-2.71809602 -9.68132877 2.81412363
-2.71564746 -9.65527439 2.81153727
-2.47012186 -9.68132877 3.04863119
-2.46789742 -9.65527439 3.04583764
-1.91990852 -9.68132877 3.44672441
-1.91818440 -9.65527439 3.44356918
-2.20142102 -9.65527439 3.25706673
-2.20340395 -9.68132877 3.26006722
-1.91178703 -9.61599445 3.43253374
-2.19407535 -9.61599445 3.24663472
-1.89783740 -9.54859161 3.40894485
-1.87345541 -9.43816566 3.36814737
-2.15008783 -9.43816566 3.18574905
-2.17807364 -9.54859161 3.22433901
-1.60297883 -9.54859161 3.56737542
-1.58239043 -9.43816566 3.52468109
-1.61475575 -9.61599445 3.59205008
-1.29587746 -9.54859161 3.69869924
-1.27922058 -9.43816566 3.65443611
-1.30539572 -9.61599445 3.72428846
-1.62161863 -9.68132877 3.60691381
-1.62015295 -9.65527439 3.60360336
-1.31091344 -9.68132877 3.73970366
-1.30975819 -9.65527439 3.73625493
-0.66201770 -9.68132877 3.91948128
-0.66144866 -9.65527439 3.91587734
-0.98937970 -9.65527439 3.84066272
-0.99025917 -9.68132877 3.84419751
-0.65925878 -9.61599445 3.90332437
-0.98608625 -9.61599445 3.82835102
-0.65444791 -9.54859161 3.87651110
-0.64605045 -9.43816566 3.83012700
-0.96632558 -9.43816566 3.75655031
-0.97889584 -9.54859161 3.80205512
-0.32493052 -9.54859161 3.92118835
-0.32077491 -9.43816566 3.87425232
-0.32731009 -9.61599445 3.94831204
0.00844939 -9.54859161 3.93608642
0.00832869 -9.43816566 3.88897800
0.00851836 -9.61599445 3.96329618
-0.32865503 -9.68132877 3.96465826
-0.32837915 -9.65527439 3.96100283
0.00858733 -9.68132877 3.97971177
0.00855285 -9.65527439 3.97603893
0.68967623 -9.68132877 3.91948128
0.68902093 -9.65527439 3.91587734
0.34812304 -9.65527439 3.96100283
0.34845066 -9.68132877 3.96465826
0.68674487 -9.61599445 3.90332437
0.34695053 -9.61599445 3.94831204
0.68179607 -9.54859161 3.87651110
0.67317450 -9.43816566 3.83012700
0.34005323 -9.43816566 3.87425232
0.34443301 -9.54859161 3.92118835
1.01929712 -9.54859161 3.80205512
1.00648546 -9.43816566 3.75655031
1.02664268 -9.61599445 3.82835102
1.35195279 -9.54859161 3.69869924
1.33503723 -9.43816566 3.65443611
1.36162627 -9.61599445 3.72428846
1.03097081 -9.68132877 3.84419751
1.03002238 -9.65527439 3.84066272
1.36733365 -9.68132877 3.73970366
1.36609221 -9.65527439 3.73625493
2.00509048 -9.68132877 3.44672441
2.00329709 -9.65527439 3.44356918
1.69219553 -9.65527439 3.60360336
1.69371283 -9.68132877 3.60691381
1.99679649 -9.61599445 3.43253374
1.68669486 -9.61599445 3.59205008
1.67474544 -9.54859161 3.56737542
1.98267436 -9.54859161 3.40894485
1.95798206 -9.43816566 3.36814737
1.65386379 -9.43816566 3.52468109
2.27073908 -9.54859161 3.22433901
2.24244308 -9.43816566 3.18574905
2.28693032 -9.61599445 3.24663472
2.53830171 -9.54859161 3.01521373
2.50660872 -9.43816566 2.97912359
2.55644155 -9.61599445 3.03606081
2.29643154 -9.68132877 3.26006722
2.29437947 -9.65527439 3.25706673
2.56708074 -9.68132877 3.04863119
2.56478715 -9.65527439 3.04582047
3.04361367 -9.68132877 2.55825186
3.04088902 -9.65527439 2.55590677
2.81383061 -9.65527439 2.81153727
2.81636524 -9.68132877 2.81412363
3.03095698 -9.61599445 2.54771614
2.80465722 -9.61599445 2.80253625
3.00935149 -9.54859161 2.53021455
2.97162294 -9.43816566 2.49993539
2.74987578 -9.43816566 2.74997902
2.78472424 -9.54859161 2.78327560
3.21156216 -9.54859161 2.25770307
3.17123032 -9.43816566 2.23068285
3.23465061 -9.61599445 2.27332520
3.39008069 -9.54859161 1.96803451
3.34745574 -9.43816566 1.94448042
3.41447997 -9.61599445 1.98165679
3.24818683 -9.68132877 2.28274012
3.24527240 -9.65527439 2.28063655
3.42879200 -9.68132877 1.98984718
3.42570519 -9.65527439 1.98801947
3.74270415 -9.68132877 1.37095451
3.73935890 -9.65527439 1.36969578
3.58089423 -9.65527439 1.68036640
3.58413577 -9.68132877 1.68191826
3.72615075 -9.61599445 1.36533320
3.56915164 -9.61599445 1.67498648
3.54363155 -9.54859161 1.66348529
3.69481993 -9.54859161 1.35602200
3.64336610 -9.43816566 1.33991683
3.49904060 -9.43816566 1.64356947
3.79129553 -9.54859161 1.01877952
3.73701406 -9.43816566 1.00658870
3.82314372 -9.61599445 1.02581477
3.82552338 -9.43816566 0.67531240
3.88247752 -9.54859161 0.68348569
3.91506720 -9.61599445 0.68822759
3.84047318 -9.68136311 1.03007388
3.83659339 -9.65527439 1.02912545
3.93275881 -9.68136311 0.69107270
3.92884445 -9.65527439 0.69043469
3.97276282 -9.65527439 0.34651920
3.97672892 -9.68136311 0.34684682
3.95884752 -9.61599445 0.34541565
3.86842442 -9.43816566 0.33893222
3.92594767 -9.54859161 0.34303609
3.94215608 -9.90445614 -0.00000000
3.92208505 -9.92938900 -0.00000000
3.90763545 -9.92938900 -0.33839765
3.92763734 -9.90445614 -0.34000129
3.88752985 -9.95239162 -0.00000000
3.87318349 -9.95239162 -0.33551803
3.86473441 -9.92938900 -0.67422611
3.88452935 -9.90445614 -0.67745060
3.83064437 -9.95239162 -0.66850132
3.82491970 -9.97210026 -0.00000000
3.70452785 -9.98612022 -0.00000000
3.69081950 -9.98612022 -0.32139587
3.81081486 -9.97210026 -0.33024162
3.76894832 -9.97210026 -0.65798301
3.64365911 -9.98603344 -0.64036047
3.55046010 -9.98518848 -0.95449698
3.44738007 -9.98494720 -1.26135683
3.54192424 -9.96989346 -1.29605019
3.67837000 -9.97161770 -0.98075831
3.60118937 -9.95018482 -1.31677639
3.74654937 -9.95239162 -0.99643236
3.77874255 -9.92938900 -1.00496781
3.63383079 -9.92718220 -1.32805347
3.65224648 -9.90224838 -1.33441627
3.79717541 -9.90445614 -1.00977862
3.49917841 -9.92718220 -1.64093125
3.51545620 -9.90224838 -1.64879417
3.47024465 -9.95018482 -1.62699878
3.34762836 -9.92718220 -1.94137657
3.36318183 -9.90224838 -1.95065343
3.31997013 -9.95018482 -1.92487490
3.32804012 -9.98494720 -1.55852592
3.41706681 -9.96989346 -1.60139251
3.18411088 -9.98494720 -1.84386647
3.26917171 -9.96989346 -1.89457858
3.09722257 -9.96989346 -2.17343545
3.01676583 -9.98494720 -2.11525702
2.82722878 -9.98494720 -2.37057686
2.90246058 -9.96989346 -2.43577361
3.14527941 -9.95018482 -2.20819783
2.94739652 -9.95018482 -2.47472596
2.97184730 -9.92718220 -2.49591780
2.98562479 -9.90224838 -2.50786710
3.18614578 -9.90224838 -2.23776984
3.17143726 -9.92718220 -2.22711372
2.75015163 -9.92718220 -2.74556470
2.76284242 -9.90224838 -2.75868678
2.72758031 -9.95018482 -2.72223473
2.50691915 -9.92718220 -2.97434711
2.51847196 -9.90224838 -2.98857284
2.48641706 -9.95018482 -2.94908595
2.61665463 -9.98494720 -2.60767078
2.68609309 -9.96989346 -2.67938542
2.38557863 -9.98494720 -2.82496977
2.44870615 -9.96989346 -2.90266752
2.19085145 -9.96989346 -3.10398173
2.13451791 -9.98494720 -3.02088690
1.86398935 -9.98494720 -3.19385314
1.91309798 -9.96989346 -3.28170729
2.22449279 -9.95018482 -3.15362501
1.94242871 -9.95018482 -3.33417845
1.95837855 -9.92718220 -3.36275029
1.96734500 -9.90224838 -3.37883806
2.25308204 -9.90224838 -3.19585347
2.24278784 -9.92718220 -3.18062758
1.65427768 -9.92718220 -3.51902533
1.66186464 -9.90224838 -3.53585482
1.64081073 -9.95018482 -3.48914289
1.33548558 -9.92718220 -3.64857340
1.34160686 -9.90224838 -3.66602349
1.32458782 -9.95018482 -3.61758733
1.57452786 -9.98494720 -3.34228253
1.61601508 -9.96989346 -3.43422341
1.27094424 -9.98494720 -3.46532989
1.30453396 -9.96989346 -3.56065035
0.64092970 -9.98494720 -3.63191652
0.65798324 -9.96989346 -3.73180652
0.98355198 -9.96989346 -3.66012621
0.95813555 -9.98494720 -3.56215072
0.66813946 -9.95018482 -3.79150224
0.99870867 -9.95018482 -3.71866703
0.67365730 -9.92718220 -3.82397127
0.67676109 -9.90224838 -3.84226632
1.01157212 -9.90224838 -3.76846528
1.00695097 -9.92718220 -3.75051522
0.34058779 -9.92718220 -3.86804485
0.34212241 -9.90224838 -3.88654685
0.33782887 -9.95018482 -3.83519650
0.00893220 -9.92718220 -3.88273597
0.00889771 -9.90224838 -3.90130687
0.00894944 -9.95018482 -3.84974980
0.32420674 -9.98493004 -3.67376566
0.33274212 -9.96989346 -3.77482820
0.00900117 -9.98493004 -3.68771529
0.00898393 -9.96989346 -3.78915715
-0.61247796 -9.98494720 -3.63191652
-0.62954873 -9.96989346 -3.73180652
-0.31217054 -9.96989346 -3.77482820
-0.30358341 -9.98494720 -3.67376566
-0.63977396 -9.95018482 -3.79150224
-0.31730902 -9.95018482 -3.83519650
-0.64534354 -9.92718220 -3.82397127
-0.64851630 -9.90224838 -3.84226632
-0.32172328 -9.90224838 -3.88654685
-0.32011965 -9.92718220 -3.86804485
-0.96556681 -9.92718220 -3.75053239
-0.97025704 -9.90224838 -3.76846528
-0.95725566 -9.95018482 -3.71866703
-1.27841008 -9.92718220 -3.64859056
-1.28460038 -9.90224838 -3.66604066
-1.26744342 -9.95018482 -3.61758733
-0.94204718 -9.96989346 -3.66014385
-0.91659617 -9.98494720 -3.56215072
-1.24733782 -9.96989346 -3.56065035
-1.21373081 -9.98494720 -3.46532989
-1.50160599 -9.98494720 -3.34228253
-1.77799714 -9.98494720 -3.19385314
-1.82714033 -9.96989346 -3.28170729
-1.54314494 -9.96989346 -3.43422341
-1.85652268 -9.95018482 -3.33419561
-1.56797504 -9.95018482 -3.48914289
-1.87252438 -9.92718220 -3.36275029
-1.88155973 -9.90224838 -3.37883806
-1.58914971 -9.90224838 -3.53587174
-1.58151090 -9.92718220 -3.51902533
-2.14910531 -9.92718220 -3.18064499
-2.15946841 -9.90224838 -3.19585347
-2.13074112 -9.95018482 -3.15362501
-2.40930486 -9.92718220 -2.97434711
-2.42090964 -9.90224838 -2.98859024
-2.38873386 -9.95018482 -2.94908595
-2.09704804 -9.96989346 -3.10398173
-2.04067993 -9.98494720 -3.02088690
-2.35098839 -9.96989346 -2.90266752
-2.28782654 -9.98494720 -2.82496977
-2.51759219 -9.98494720 -2.60767078
-2.72814894 -9.98494720 -2.37057686
-2.80343246 -9.96989346 -2.43577361
-2.58706498 -9.96989346 -2.67938542
-2.84841990 -9.95018482 -2.47472596
-2.62860394 -9.95018482 -2.72223473
-2.87293983 -9.92718220 -2.49591780
-2.88676906 -9.90224838 -2.50786710
-2.66398692 -9.90224838 -2.75870395
-2.65122700 -9.92718220 -2.74556470
-3.07251263 -9.92718220 -2.22711372
-3.08728981 -9.90224838 -2.23776984
-3.04630303 -9.95018482 -2.20819783
-3.24870348 -9.92718220 -1.94137657
-3.26432586 -9.90224838 -1.95065343
-3.22099376 -9.95018482 -1.92487490
-2.99819446 -9.96989346 -2.17343545
-2.91770315 -9.98494720 -2.11525702
-3.17014360 -9.96989346 -1.89457858
-3.08504844 -9.98494720 -1.84386647
-3.34950733 -9.98494720 -1.26135683
-3.44970751 -9.96989346 -1.29605019
-3.31803870 -9.96989346 -1.60139251
-3.22897744 -9.98494720 -1.55852592
-3.51145530 -9.95018482 -1.31677639
-3.37126803 -9.95018482 -1.62699878
-3.54590726 -9.92718220 -1.32805347
-3.56606436 -9.90224838 -1.33439898
-3.41660070 -9.90224838 -1.64879417
-3.40025401 -9.92718220 -1.64093125
-3.66455770 -9.92718220 -1.00493336
-3.68036962 -9.90224838 -1.00974417
-3.63596845 -9.95018482 -0.99639791
-3.76236105 -9.92718220 -0.67422611
-3.78210449 -9.90224838 -0.67745060
-3.72589159 -9.95018482 -0.66850132
-3.45710492 -9.98494720 -0.95449698
-3.58044529 -9.96989346 -0.98070663
-3.53899264 -9.98494720 -0.64036047
-3.65683293 -9.96989346 -0.65798301
-3.61503506 -9.98494720 -0.00000000
-3.75622249 -9.96989346 -0.00000000
-3.74498010 -9.96989346 -0.33024162
-3.58680797 -9.98494720 -0.32139587
-3.82241893 -9.95018482 -0.00000000
-3.81191778 -9.95018482 -0.33551803
-3.85249114 -9.92718220 -0.00000000
-3.86573410 -9.90224838 -0.00000000
-3.85656047 -9.90224838 -0.34000129
-3.84292126 -9.92718220 -0.33839765
-3.83759308 -9.92718220 0.33839765
-3.85123253 -9.90224838 0.34001851
