-1.20918608 1.38910711 0.96810025
-1.42758894 1.12811077 0.90989077
-1.38527501 1.11277997 0.98193121
-1.49815798 1.01425254 0.93890435
-1.45168614 0.99467254 1.02214074
-1.52622473 0.89277446 1.03913128
-1.57866228 0.90527076 0.95214784
-1.48407602 0.87151194 1.12341142
-1.45291233 0.82966560 1.20667064
-1.56975353 0.76325446 1.14641356
-1.61860931 0.78079259 1.05949831
-1.52532923 0.73173714 1.23710990
-1.47712922 0.69453913 1.33122861
-1.41884553 0.77991432 1.29730439
-1.65850520 0.65180308 1.17956769
-1.60009027 0.63388276 1.27051520
-1.54042053 0.60563350 1.37282968
-1.47406077 0.58178163 1.47159076
-1.42201662 0.65764344 1.43453538
-1.68427336 0.52221459 1.31928551
-1.61037362 0.51118982 1.42323685
-1.53473413 0.49357751 1.52750754
-1.45080197 0.47056973 1.64004838
-1.39806211 0.55226046 1.58426857
-1.69822967 0.40063956 1.49097121
-1.60710549 0.39108625 1.59767735
-1.51022065 0.38284475 1.70552981
-1.40300119 0.37403858 1.81101549
-1.35383177 0.45416656 1.74866509
-1.69343877 0.28634781 1.68016660
-1.58459961 0.28043333 1.78753436
-1.46666336 0.27587053 1.89226711
-1.34310353 0.27219182 1.99336660
-1.28691304 0.36732560 1.91040409
-1.66936445 0.17169675 1.88175535
-1.54407072 0.16978040 1.98969352
-1.41035306 0.16768153 2.09042263
-1.26969421 0.16558263 2.18424463
-1.21145034 0.27013287 2.08477044
-1.62590408 0.05871682 2.09572101
-1.48573577 0.05515216 2.20115519
-1.33935630 0.05374910 2.29874158
-1.18489516 0.05117683 2.38391137
-1.12405050 0.16343245 2.26788020
-1.56635988 -0.05261483 2.31739759
-1.41110015 -0.05664716 2.41941547
-1.25054193 -0.05940198 2.50918818
-1.08512437 -0.06186585 2.58922482
-1.02697754 0.05109127 2.46168947
-1.48500001 -0.16327345 2.54064274
-1.31696451 -0.16653015 2.63667750
-1.14424074 -0.17166327 2.71929240
-0.96698850 -0.17630018 2.79107046
-0.91561741 -0.06509970 2.65709019
-1.38607347 -0.27238074 2.76380777
-1.20521641 -0.27625337 2.85273623
-1.02068663 -0.27713743 2.93099356
-0.83147413 -0.28572688 2.98853588
-0.78644532 -0.17954545 2.84876108
-1.26392806 -0.38771620 2.98080182
-1.07251966 -0.38303939 3.06711817
-0.87276721 -0.39766878 3.12390757
-0.67233038 -0.40638936 3.17281485
-0.63926733 -0.29461285 3.03332520
-1.11956751 -0.50218475 3.19169331
-0.91167623 -0.51307267 3.25649595
-0.70522219 -0.52163363 3.30854583
-0.49712560 -0.53032565 3.34829903
-0.47232121 -0.41525257 3.20868969
-0.95123553 -0.63333029 3.38384867
-0.73621488 -0.64104128 3.44026160
-0.52012199 -0.64420110 3.48805666
-0.30291119 -0.66770506 3.50133443
-0.28970766 -0.54304445 3.37049675
-0.76634055 -0.76523423 3.56711245
-0.54245102 -0.76577044 3.61895680
-0.31510520 -0.78924590 3.63237143
-0.08816433 -0.79591322 3.64843798
-0.08474795 -0.67898083 3.51218820
-0.55968118 -0.90741599 3.72759080
-0.32415661 -0.91414040 3.75825262
-0.08795330 -0.91962707 3.77656054
0.14782795 -0.92345417 3.78591442
0.13846287 -0.80436575 3.65348005
-0.32947797 -1.05251789 3.86771941
-0.08572894 -1.05718899 3.88726497
0.15776341 -1.06027448 3.89866042
0.39831275 -1.08081269 3.87240195
0.38037533 -0.94225276 3.76529670
-0.08170230 -1.21496391 3.96649170
0.16819504 -1.22215021 3.96891594
0.41480717 -1.23717320 3.94715166
0.66018736 -1.24772465 3.92494202
0.63468146 -1.09567595 3.83847761
0.17810194 -1.38788164 4.02685738
0.43019512 -1.40053761 4.00755119
0.67978448 -1.41286278 3.98075604
0.92223871 -1.42892385 3.93101048
0.89278609 -1.26614678 3.86993766
0.44449940 -1.56689620 4.05860853
0.69745380 -1.58109224 4.02264833
0.94793284 -1.59471774 3.97732282
1.18988526 -1.60702002 3.90853333
1.15535653 -1.44174528 3.86763358
0.71313262 -1.75122654 4.04922056
0.97013074 -1.76318669 4.00512123
1.22278857 -1.77199852 3.93507719
1.47279429 -1.77534652 3.84673047
1.42434895 -1.61572933 3.82478380
0.99237430 -1.93058920 4.02449036
1.25340474 -1.93594468 3.95091558
1.51571858 -1.93442750 3.85654068
1.71062303 -1.75573242 3.73853016
1.27861416 -2.09974241 3.95420074
1.54915226 -2.09426737 3.85367179
1.29711616 -2.26496601 3.95180535
1.57308400 -2.25564671 3.84669042
1.30712569 -2.43048668 3.93475795
1.58877420 -2.41938734 3.84396434
1.86572874 -2.40111947 3.71109653
2.11921930 -2.39165735 3.58410311
-3.99182701 -2.28185987 1.35785806
-3.89271784 -2.28796816 1.60691130
-3.89406967 -2.10962653 1.59912026
-3.99124527 -2.10295916 1.34801960
-4.07445860 -2.27607083 1.10245121
-4.07551956 -2.09708476 1.09291506
-3.98772621 -1.92530203 1.34324574
-4.07103682 -1.91865182 1.08621907
-4.13968897 -1.91305673 0.82477796
-4.05725145 -1.74199831 1.08029890
-4.12010908 -1.73642039 0.81629121
-4.17754889 -1.73027778 0.55173028
-4.10046673 -1.56094766 0.80962956
-4.15253925 -1.55486202 0.54307240
-4.18463850 -1.54924977 0.27382892
-4.10298157 -1.38616478 0.53138602
-4.13671780 -1.37933779 0.26323187
-4.15135288 -1.37341762 -0.00594316
-4.06995344 -1.21741068 0.25222990
-4.08601999 -1.20945442 -0.01450977
-4.07663155 -1.20401335 -0.27832356
-3.99391437 -1.05835819 -0.02053833
-3.98669958 -1.05072689 -0.27953839
-3.95784545 -1.04624975 -0.53366202
-3.87857914 -0.90983427 -0.27812394
-3.85205793 -0.90249389 -0.52682352
-3.80985236 -0.89818776 -0.76992232
-3.73109293 -0.77265447 -0.51692808
-3.69352412 -0.76275331 -0.75448304
-3.75323415 -0.89582080 -1.00726628
-3.63745332 -0.75943959 -0.98664832
-3.56730676 -0.63780743 -0.73514259
-3.51349998 -0.63356984 -0.96219760
-3.63745332 -0.75943959 -0.98664832
-3.51349998 -0.63356984 -0.96219760
-3.44311953 -0.63327897 -1.18246543
-3.38222361 -0.51692820 -0.93567646
-3.31390166 -0.51706505 -1.15220284
-3.23314047 -0.51854801 -1.36157703
-3.18216300 -0.40790647 -1.12096488
-3.10225749 -0.40918976 -1.32833719
-3.01465225 -0.41062137 -1.52924752
-2.97207594 -0.30629355 -1.29751575
-2.88514376 -0.30899128 -1.49762177
-2.79077411 -0.31524801 -1.68744445
-2.75491643 -0.21343546 -1.46864247
-2.66322756 -0.22073585 -1.65858495
-2.56796241 -0.23098503 -1.83436584
-2.53739786 -0.13118003 -1.62929189
-2.44409466 -0.14342542 -1.80623055
-2.34688497 -0.15709659 -1.97785366
-2.32322693 -0.05709775 -1.77511811
-2.23517108 -0.07792681 -1.94901109
-2.13442492 0.00302817 -1.89278638
-2.20475459 0.02869949 -1.73539352
-2.01984811 0.09290340 -1.83121169
-2.08323646 0.11802144 -1.69160795
-1.96819174 0.06323396 -1.96028113
-1.89213037 0.18912654 -1.78421509
-1.29298711 0.22773901 -2.21427917
-1.25615418 0.18264742 -2.31500244
-1.96135330 0.21177502 -1.64949942
-1.84389627 0.30824912 -1.60517764
-1.75959897 0.28200749 -1.75248122
-1.65187204 0.38383144 -1.69388378
-1.74056649 0.40955406 -1.55251753
-1.56455195 0.35805181 -1.82088852
-1.46787250 0.46846515 -1.74837458
-1.56151772 0.49102238 -1.62313223
-1.45803964 0.34872660 -1.92057359
-1.35443056 0.44930151 -1.85815489
-1.30636740 0.35512021 -2.02251744
-1.21617866 0.44177294 -1.96445048
-1.14108109 0.35363159 -2.12754679
-1.05572867 0.43091354 -2.07549691
-1.22342777 0.28163105 -2.17892909
0.95348805 3.81142020 0.90221959
0.98980778 3.79872394 0.88771003
0.99179822 3.90130663 0.87208253
-1.35225749 0.19563991 -2.23920345
-0.88824642 0.44431099 -2.14525580
-0.97375274 0.53533834 -1.99779844
-0.80564886 0.55669206 -2.05714869
-0.70577550 0.45994991 -2.20356798
-0.62812847 0.57804585 -2.10598755
-0.50580055 0.48538733 -2.23574138
-0.44191602 0.59989578 -2.13670087
-0.55190736 0.70138323 -2.00626826
-0.37836236 0.71997088 -2.03379297
-0.47760832 0.83619040 -1.91707742
-0.31293219 0.85492063 -1.93837404
-0.41573715 0.98027134 -1.83207870
-0.24777579 0.99475235 -1.84878981
-0.36881474 1.11624765 -1.74607038
-0.19457957 1.12308609 -1.76546800
-0.33916813 1.24662316 -1.66382074
-0.17193112 1.24589312 -1.68666315
-0.00512758 1.24437034 -1.69258332
-0.00742607 1.36694908 -1.62751818
-0.16613640 1.37390733 -1.62371957
0.15715313 1.25878298 -1.67927146
0.15037170 1.36670399 -1.61710930
0.31534445 1.29122996 -1.63380349
0.30654398 1.38234854 -1.58628786
0.46895012 1.31106102 -1.58558059
0.45914021 1.40310335 -1.54160118
0.47706619 1.25237226 -1.61775386
0.61523265 1.32209706 -1.52768469
0.60503483 1.41607881 -1.48388791
0.73912901 1.41912448 -1.41602230
0.59116971 1.53460252 -1.43582475
0.72389501 1.54438972 -1.36937940
0.84430093 1.54916346 -1.29551375
0.71133029 1.67765105 -1.33290565
0.83150804 1.68468344 -1.25678146
0.93855631 1.68964553 -1.17777145
0.82598138 1.82333469 -1.23782885
0.93110198 1.83241463 -1.15543664
1.02644110 1.83676064 -1.07230866
0.93139285 1.97063255 -1.14158297
1.02691448 1.97903347 -1.05777633
1.11059570 1.97982073 -0.97189915
1.02856278 2.11641860 -1.03659356
1.10845697 2.12085032 -0.94901687
1.17679584 2.12421536 -0.85987741
1.11036181 2.26035142 -0.92691022
1.17819321 2.27749586 -0.83925939
1.23372209 2.27890468 -0.75595456
1.15138113 2.41403699 -0.84871572
1.21794641 2.43498564 -0.75402677
1.26997912 2.43624067 -0.66405463
1.25200176 2.59275508 -0.68001866
1.18880737 2.56760859 -0.77958405
1.30127394 2.58370376 -0.57759011
1.28456843 2.73968196 -0.59141529
1.22809279 2.73526740 -0.70467472
1.33402336 2.72911906 -0.46253410
1.32355165 2.88215446 -0.46744475
1.26565015 2.88995695 -0.61045915
1.36485624 2.87734079 -0.31422687
1.31571507 3.03290844 -0.46474129
1.35950625 3.03346181 -0.30601388
1.37905216 3.03483057 -0.14455448
1.35525155 3.18906379 -0.29047763
1.37397039 3.19561696 -0.12549350
1.37462056 3.20127487 0.03147157
1.37139797 3.35758972 -0.10021574
1.36682963 3.35603285 0.06297752
1.34673059 3.32514858 0.22094069
1.33599663 3.41289043 0.25512156
1.35753870 3.49634361 0.09993596
1.30139947 3.31090689 0.40220821
1.28868079 3.36262012 0.43431303
1.32415628 3.51030564 0.29258761
1.23795414 3.20802784 0.56975323
1.22327340 3.24583602 0.59949678
1.27606463 3.41293025 0.46546537
1.14952183 3.11314487 0.72404337
1.20708120 3.27939534 0.62902933
1.14952183 3.11314487 0.72404337
1.20708120 3.27939534 0.62902933
1.13218331 3.14859200 0.75299984
1.05923033 3.01220512 0.85087699
1.08073807 2.97984910 0.82306123
1.08073807 2.97984910 0.82306123
-0.54164684 6.04068756 1.17972171
-0.41435692 6.01787996 1.22681522
-0.52830648 6.11201000 1.17699552
-0.39602596 6.10711050 1.22891402
-0.66870862 6.12235594 1.10375726
-0.68366313 6.05942392 1.12411869
-0.66870862 6.12235594 1.10375726
-0.52830648 6.11201000 1.17699552
-0.53063345 6.19380856 1.17538142
-0.67487979 6.19602203 1.09974766
-0.78855556 6.10353470 1.02855146
-0.79756135 6.17384672 1.01504552
-0.78855556 6.10353470 1.02855146
-0.88927305 6.13052893 0.93712485
-0.87448394 6.06565237 0.95226747
-0.91154516 6.21191168 0.91826916
-0.81039983 6.24875593 1.00561774
-0.98592401 6.08620167 0.83802712
-1.01031780 6.18346834 0.81650221
-1.08708632 6.03715754 0.71381706
-1.11400664 6.17027092 0.68439859
-1.18731904 6.01996183 0.54565036
-1.20591807 6.16605616 0.52195245
-1.17050529 5.87849855 0.56877226
-1.25195074 5.86409712 0.37382209
-1.26035762 6.01480579 0.35867366
-1.24826622 5.71375418 0.38201797
-1.29938078 5.85468054 0.17746317
-1.29717350 5.69569111 0.18526550
-1.24832904 5.55443907 0.38124228
-1.29731607 5.53178453 0.18963437
-1.25080431 5.38396263 0.37805974
-1.29858220 5.36213541 0.19308497
-1.17121816 5.40034294 0.56022274
-1.06448352 5.39617968 0.72014219
-1.18283033 5.22897100 0.54559904
-1.25406671 5.20744038 0.37670234
-1.08516991 5.23514795 0.69520664
-0.97127742 5.20810747 0.83096623
-0.95356822 5.33556271 0.84975344
-1.09637153 5.06018782 0.68855071
-1.18786097 5.04526806 0.54225683
-0.98513120 5.05574512 0.82119048
-0.85740209 5.03849792 0.94410580
-0.84964538 5.15517950 0.94940436
-1.09772336 4.87392426 0.69465345
-0.98772061 4.88088799 0.82470948
-0.86175954 4.88800621 0.94579977
-0.72317100 4.89258051 1.05698311
-0.72041053 5.01890612 1.05409718
-0.98509693 4.69882202 0.83615637
-0.85850853 4.70738888 0.95530170
-0.72107786 4.71372509 1.06343949
-0.56995887 4.72139120 1.15344584
-0.57238853 4.89027643 1.14939070
-0.71750754 4.53076982 1.06857252
-0.85545152 4.52131319 0.96322954
-0.56807673 4.54062557 1.15686798
-0.40612680 4.55176401 1.22043312
-0.40690818 4.73228455 1.22218394
-0.56562424 4.35316372 1.15955424
-0.71548277 4.34120941 1.07473242
-0.40460399 4.36617327 1.21973157
-0.23780043 4.38264513 1.26088202
-0.23867878 4.56633663 1.26233077
-0.40301841 4.17840385 1.22203577
-0.56155199 4.16223478 1.15987933
-0.23651715 4.19806910 1.26084208
-0.06681056 4.22039270 1.27609313
-0.06702158 4.40313196 1.27731943
-0.23391637 4.01469183 1.26314628
-0.40025795 3.98893499 1.22402620
-0.06459761 4.04008913 1.27641833
0.10224586 4.06504202 1.26875281
0.10120783 4.24372005 1.26709318
-0.05965840 3.86343026 1.27613878
-0.22980419 3.83172417 1.26174891
0.10635807 3.89109206 1.26805127
0.26199991 3.91384912 1.24454153
0.26168051 4.08811808 1.24230015
0.11630490 3.72494435 1.26977944
-0.05281995 3.69501805 1.27737069
0.27303612 3.74875617 1.24397123
0.41651252 3.77655506 1.20513642
0.40675387 3.93994784 1.20618582
0.30459911 3.60790348 1.23996735
0.13291340 3.57222247 1.26946008
0.44939870 3.66418481 1.19260013
0.34747776 3.51018023 1.23107576
0.48417273 3.58880830 1.18361723
0.59622872 3.68692493 1.13468719
0.69127125 3.81015944 1.08114302
0.62886393 3.64285445 1.11885440
0.51719576 3.52859664 1.17331672
0.72472209 3.77344680 1.06293762
0.78857237 3.91648936 1.01615202
0.74551123 3.94851446 1.04312372
0.75586867 3.73749733 1.04451537
0.66153336 3.59863520 1.10397398
0.82257646 3.88901043 0.99509484
0.85615271 3.86768508 0.97066694
0.89664733 4.03803635 0.93268186
0.86249495 4.05291605 0.95977318
0.82416201 4.07716179 0.98834187
0.78503621 3.70320821 1.02707410
0.68978262 3.55897927 1.08801568
0.81250978 3.67453122 1.00880599
0.71591592 3.52231717 1.07206309
0.88690013 3.84543014 0.94846904
0.91982627 3.82804561 0.92466849
0.96086836 4.01389885 0.88036394
0.92908293 4.02541971 0.90650862
0.83981800 3.64680099 0.99300736
0.74155867 3.48947668 1.06022274
0.86478776 3.61901951 0.97854340
0.76720715 3.45663595 1.04837656
0.88931262 3.59087300 0.96746147
0.93956017 3.69479561 0.92758286
0.99379438 4.00389528 0.85646075
1.26354551 3.44873667 0.49822035
1.29973972 3.64680099 0.39554086
1.27584791 3.56176805 0.46401668
0.79327202 3.42315102 1.03698683
1.01531935 4.19043827 0.82661450
1.03206480 4.37847567 0.79985952
0.98375636 4.20007706 0.85196638
1.00084388 4.38900995 0.82860500
0.95282078 4.21016121 0.87913769
0.96981710 4.39947033 0.85778964
0.91990036 4.22074652 0.90766072
0.93403924 4.41174412 0.88938683
0.88466430 4.23460007 0.93650311
0.89669865 4.42429161 0.92141169
0.84488839 4.25059843 0.96722192
0.85854816 4.43698215 0.95365340
0.80122268 4.26842737 0.99971467
0.81126642 4.45088673 0.98859864
0.77796960 4.10274172 1.01999617
0.72500157 4.12566376 1.05378926
0.74547130 4.28897715 1.03696394
0.67596883 4.30184412 1.07856512
0.65549338 4.13806343 1.09419823
0.56481969 4.30133629 1.13520610
0.54928344 4.13506889 1.14678991
0.42309430 4.28558922 1.19349551
0.41262275 4.10998535 1.20104694
0.26592961 4.26538181 1.23939133
0.27312168 4.44702578 1.23594642
0.43555638 4.46582413 1.18571031
0.10452155 4.42559242 1.26646578
0.10834857 4.60919237 1.26232493
0.28011414 4.63271332 1.22967839
-0.06573830 4.58548880 1.27750194
-0.06241318 4.76167488 1.27932131
0.11414899 4.78690100 1.26392770
-0.23880424 4.74519730 1.26312351
-0.24600203 4.90709019 1.26018047
-0.07360908 4.91742468 1.27700567
-0.41521814 4.89720583 1.21835124
-0.26149264 5.02659464 1.26169193
-0.42312312 5.02815151 1.21688545
-0.57461286 5.01923180 1.14805603
-0.57301021 5.09896040 1.14675570
-0.42662507 5.10058022 1.21155274
-0.71767294 5.11615038 1.05535185
-0.57133335 5.17361307 1.14168525
-0.71266526 5.20305443 1.05929875
-0.83891714 5.25604534 0.95726377
-0.70345420 5.28538370 1.06472278
-0.82157290 5.36679506 0.97459656
-0.69354725 5.36845446 1.07073426
-0.80833519 5.45690966 0.99042368
-0.57144743 5.30958939 1.14105797
-0.56541318 5.38163519 1.15148950
-0.68077719 5.45661926 1.08904231
-0.57309002 5.24204302 1.14168525
-0.43158707 5.22779036 1.20323133
-0.43555668 5.28599405 1.20384741
-0.42850152 5.16663170 1.20599759
-0.28309739 5.17697191 1.25407779
-0.29111642 5.22948980 1.25018227
-0.27500415 5.11940718 1.25658154
-0.11729762 5.12874365 1.27713120
-0.13272551 5.19386578 1.27590489
-0.09677085 5.04302073 1.27686882
0.07259925 5.07475471 1.26975083
0.03945641 5.17884874 1.27471292
0.10813754 4.94520617 1.26533651
0.28049627 4.98759460 1.23180008
0.28645068 4.81654167 1.23043692
0.44634160 4.83687449 1.17719507
0.43539667 5.01561594 1.18252206
0.44351271 4.64973831 1.17915142
0.59160316 4.65950823 1.11448550
0.59165454 4.84837294 1.11372685
0.58125138 4.47699738 1.12280107
0.68909818 4.47441959 1.06637669
0.69539487 4.65747786 1.05882537
0.76701325 4.65017748 1.01355696
0.69977510 4.84997559 1.05418849
0.78179097 4.84746027 1.00286293
0.75657022 4.46459246 1.02481568
0.82101369 4.63995695 0.97506422
0.87269276 4.62900639 0.93756974
0.84727240 4.84272099 0.95317429
0.89623666 4.84658241 0.91541177
0.87288100 5.06829309 0.93786055
0.79549068 5.05369759 0.99451303
0.78120917 5.23187351 1.00728881
0.87466615 5.25585699 0.93923503
0.69300508 5.04255867 1.05903637
0.66953534 5.22519541 1.07658601
0.57512015 5.03581715 1.12302351
0.76850188 5.39216423 1.02090871
0.65745538 5.39381218 1.08710885
0.66956383 5.55240297 1.08699477
0.77204943 5.55362368 1.02523196
0.68829972 5.70959044 1.08173621
0.78682709 5.71177483 1.02122247
0.59792829 5.71089649 1.13034105
0.64487922 5.86873436 1.11251771
0.71917826 5.86616182 1.07258213
0.57496619 5.87135220 1.14825571
0.52155322 5.71640587 1.16446495
0.51073372 5.87507677 1.17488515
0.45946527 5.72305632 1.18893850
0.44907358 5.87917757 1.19824088
0.40762648 5.73240995 1.20705843
0.34473440 5.59665060 1.22197294
0.36621362 5.74082804 1.22078669
0.30271697 5.61618471 1.23462331
0.24996561 5.47848034 1.24461579
0.21753570 5.50152254 1.25261199
0.12968522 5.37543011 1.26337445
0.10045498 5.41348362 1.26963115
-0.02315053 5.33173561 1.28083849
-0.00330817 5.28713465 1.27892208
0.01806842 5.23294592 1.27683461
-0.14621419 5.24838543 1.27277374
-0.15871048 5.29535341 1.27131367
-0.29953477 5.28066111 1.24746740
-0.17465737 5.34129477 1.27105129
-0.30883709 5.33145618 1.24982870
-0.44055861 5.34446001 1.20918584
-0.44055861 5.34446001 1.20918584
-0.30883709 5.33145618 1.24982870
-0.32111093 5.37921715 1.26155496
-0.45257011 5.39325380 1.23290086
-0.56541318 5.38163519 1.15148950
-0.57758439 5.43726730 1.19372380
-0.68077719 5.45661926 1.08904231
-0.20473744 5.42692661 1.29460657
-0.18977155 5.38767004 1.27374339
-0.18977155 5.38767004 1.27374339
-0.06153485 5.41273069 1.28648496
-0.08101788 5.45077324 1.29185760
-0.08101788 5.45077324 1.29185760
-0.04236550 5.37349081 1.28267491
0.07356884 5.44490957 1.27389169
0.04933482 5.47700310 1.27750194
0.14701807 5.56292582 1.26584971
0.11164518 5.58967495 1.27354944
0.02439356 5.50869703 1.28159130
0.18199171 5.53411198 1.25950181
0.26211402 5.63892460 1.24557960
0.22434564 5.66120815 1.25443709
0.28700960 5.76778841 1.24527168
0.32642055 5.75259495 1.23344839
0.24685724 5.78243494 1.25742579
0.18513432 5.68258476 1.26432121
0.20732652 5.79659700 1.27621865
0.14742872 5.70293999 1.27986884
0.07988258 5.61755943 1.28380990
0.00036486 5.53918791 1.29296410
-0.39602596 6.10711050 1.22891402
-0.27069804 6.09743166 1.26478887
-0.27231210 6.19298744 1.26603794
-0.39177120 6.19909620 1.23095596
-0.28239584 6.00771618 1.26826239
-0.27069804 6.09743166 1.26478887
-0.28116959 6.29181767 1.26527369
-0.40149558 6.28808117 1.22943306
-0.54303849 6.27976036 1.17061901
-0.41829231 6.38331223 1.22517824
-0.55903101 6.37351942 1.16556573
-0.68297875 6.27001286 1.09292638
-0.69900548 6.35940886 1.08523810
-0.82648933 6.34124374 0.99380016
-0.72066724 6.47568560 1.07638633
-0.84969670 6.47095776 0.98028290
-0.93531138 6.32065964 0.89936787
-0.96336681 6.46893263 0.87756926
-1.03693008 6.30884790 0.79290700
-1.06682765 6.46418715 0.76288968
-1.13913608 6.31275463 0.65673673
-1.16299951 6.47292519 0.62510532
-1.22170520 6.31861782 0.49386293
-1.23959136 6.48389864 0.46697676
-1.28156304 6.32694483 0.31782547
-1.29118490 6.49121571 0.29445264
-1.27077210 6.16813755 0.33932751
-1.30815840 6.17040777 0.15008654
-1.31462038 6.33196974 0.13289058
-1.30064690 6.01183414 0.16561137
-1.31883526 6.00794983 -0.02539768
-1.32245696 6.17005968 -0.03800804
-1.31890941 5.84561253 -0.01529685
-1.31600058 5.83757067 -0.20400742
-1.31635427 6.00261164 -0.21338388
-1.31809950 5.68187714 -0.00726066
-1.31669068 5.67055607 -0.19622216
-1.31958807 5.51460028 -0.00087278
-1.31685615 5.50084925 -0.18912137
-1.31977057 5.34362745 0.00526985
-1.31828201 5.32834244 -0.18300724
-1.32036948 5.16931248 0.01091628
-1.31911480 5.15354252 -0.17685890
-1.30010498 5.18720436 0.19703746
-1.30061841 5.00942135 0.20157172
-1.32252538 4.99264765 0.01734408
-1.25624537 5.02761555 0.37868714
-1.25906861 4.84591484 0.38472140
-1.30341303 4.83022451 0.20907177
-1.18963468 4.86129665 0.54797167
-1.19035327 4.67674971 0.55627596
-1.26108205 4.66397381 0.39350474
-1.09678793 4.68844748 0.70376182
-1.09536207 4.50177908 0.71330947
-1.19063842 4.49163246 0.56597179
-0.98262167 4.51136637 0.84561276
-0.98099619 4.32149220 0.85513180
-1.09487724 4.31297731 0.72346157
-0.85305601 4.33086872 0.97153383
-0.84999329 4.13707113 0.97906244
-0.97899431 4.12840748 0.86520982
-0.71172988 4.14825535 1.07962584
-0.70710433 3.95028806 1.08320189
-0.84532219 3.93819118 0.98758912
-0.55874586 3.96729589 1.16247439
-0.55677247 3.76869559 1.16680336
-0.70465761 3.74478054 1.08911085
-0.39659062 3.79981923 1.22339308
-0.39446324 3.61470199 1.23013461
-0.55656141 3.56962180 1.17413807
-0.22870342 3.65831041 1.26497722
-0.20112145 3.49990821 1.27011597
-0.35071763 3.44765329 1.23799968
-0.03779132 3.54337430 1.28028512
-0.13671793 3.36138821 1.28087842
0.01411592 3.40338302 1.28395247
0.18140426 3.44993448 1.26739538
0.06515053 3.32844520 1.28536701
0.22918218 3.37013745 1.26212537
0.38343811 3.44656944 1.22012508
0.27168441 3.31703806 1.25503027
0.41803533 3.39440560 1.21243107
0.54736143 3.48630548 1.16304481
0.44687775 3.35628939 1.20554698
0.57601565 3.44603348 1.15097630
0.47345024 3.31978154 1.19629037
0.60301578 3.40824223 1.13942099
0.50059301 3.28309679 1.18750691
0.62986201 3.37055945 1.12844753
0.52896202 3.24597287 1.17993271
0.65657133 3.33286524 1.11850643
0.55684626 3.20843840 1.17226720
0.68324643 3.29553580 1.10902727
0.58827239 3.17298579 1.17250109
1.04786897 4.55826569 0.78605145
1.06431770 4.72967815 0.77082890
1.01365960 4.57225084 0.81329685
1.03498483 4.74342346 0.79373401
0.98092175 4.58486700 0.84350812
1.00661016 4.77306986 0.81582922
0.94623893 4.59832716 0.87456924
0.90946299 4.61366415 0.90606946
1.07426465 4.89757681 0.76159495
1.04442418 4.93684483 0.77561408
1.11432576 5.00602770 0.70746911
1.09223616 5.04640865 0.71754140
1.14572334 5.09345102 0.64462835
1.14018524 5.15249872 0.64703512
1.14920247 5.05709124 0.65308654
1.19313061 5.06078148 0.59240168
1.20900321 5.12792826 0.54184043
1.26473188 4.87390137 0.40488884
1.25800180 4.78504181 0.42839855
1.25634205 4.87683868 0.44860020
1.25345612 4.75555468 0.44637015
1.25072420 4.64584303 0.44179028
1.18475783 5.20400095 0.57498324
1.13376319 5.23838711 0.65195727
1.18419325 5.30944633 0.56470567
1.13071764 5.31921673 0.65650290
1.17684722 5.43735838 0.56722087
1.13061488 5.44078636 0.65693069
1.07372284 5.44176149 0.74178684
1.07712209 5.58018446 0.74118227
1.13359773 5.58595037 0.65354282
1.00905120 5.57547951 0.82264489
1.00894856 5.43504286 0.81995851
0.93530542 5.56427193 0.89559221
0.94158489 5.42063570 0.88643241
0.85721928 5.55559111 0.96145004
0.86276871 5.40240765 0.95319152
0.87072504 5.71250486 0.95845008
0.94670659 5.71481466 0.89118916
0.88298750 5.86304235 0.95428085
0.95767444 5.86364698 0.88818341
0.80476445 5.86443949 1.01594675
0.82159543 6.00183010 1.01336312
0.89490205 5.99971962 0.95395005
0.74887627 6.00736809 1.05864286
0.76960260 6.13659191 1.05217516
0.83282554 6.12584066 1.00882876
0.70221621 6.14487314 1.09296060
0.67599732 6.01224470 1.10379720
0.63344955 6.15378189 1.13025558
0.60654056 6.01653337 1.14022517
0.56190526 6.16028929 1.16330719
0.53962177 6.01936293 1.16869688
0.49049786 6.16440201 1.19327879
0.47379813 6.02211189 1.19464207
0.42781109 6.16418505 1.21491218
0.41680336 6.02437067 1.21391964
0.40367401 5.88197756 1.21357751
0.36985245 6.02306986 1.22852063
0.35992843 5.88658047 1.22802436
0.32506314 6.01936293 1.24235713
0.32038060 5.89166784 1.24113655
0.27970919 6.01358509 1.25573754
0.27975482 5.89178228 1.25467658
0.24060623 5.89620781 1.27670336
0.23310046 6.00721979 1.27107978
-0.18767838 6.31867456 1.30685759
-0.21278505 6.41372299 1.29646599
-0.29503471 6.39449072 1.26411009
-0.43941224 6.48964787 1.21964025
-0.46728507 6.62026834 1.21166110
-0.58036768 6.48299742 1.15845919
-0.60919869 6.62042809 1.14809036
-0.74762750 6.62860155 1.06260097
-0.64132059 6.79303789 1.13478410
-0.77528358 6.80140495 1.04854190
-0.87579006 6.63400221 0.96317816
-0.89960772 6.80775833 0.94764769
-0.99131942 6.63727617 0.85394549
-1.01464093 6.81207037 0.83549476
-1.09532785 6.63858223 0.73360234
-1.11666453 6.81772804 0.71078849
-1.18576765 6.64714289 0.59590358
-1.20498836 6.82433844 0.57113916
-1.25506473 6.65505409 0.43982828
-1.27224934 6.83035564 0.41563988
-1.30382371 6.66116238 0.27111405
-1.31727254 6.83427382 0.24879642
-1.33017933 6.66434479 0.09486558
-1.34093046 6.83584785 0.07508597
-1.32139039 6.49645758 0.11449691
-1.33135438 6.49900723 -0.06861854
-1.33843803 6.66688824 -0.08508445
-1.32652926 6.33366346 -0.05248344
-1.31906903 6.33291054 -0.23673387
-1.32181823 6.49979973 -0.25059330
-1.31705582 6.16756153 -0.22415774
-1.28561819 6.16378593 -0.40578458
-1.28742623 6.33081198 -0.41684932
-1.28708398 5.99704504 -0.39629972
-1.28708398 5.99704504 -0.39629972
-1.28561819 6.16378593 -0.40578458
-1.22805309 5.99133587 -0.57028395
-1.22697520 6.15993595 -0.57885051
-1.23032320 5.82225084 -0.56292647
-1.28897762 5.82965994 -0.38803545
-1.28897762 5.82965994 -0.38803545
-1.28908026 5.66045523 -0.38036996
-1.23323202 5.65156364 -0.55678952
-1.28908026 5.66045523 -0.38036996
-1.29063153 5.48920298 -0.37381098
-1.23657978 5.47926140 -0.55171347
-1.29063153 5.48920298 -0.37381098
-1.29424763 5.31570911 -0.36876342
-1.24001336 5.30477571 -0.54728758
-1.29424763 5.31570911 -0.36876342
-1.29777229 5.13968325 -0.36356753
-1.24523771 5.12740946 -0.54362023
-1.29777229 5.13968325 -0.36356753
-1.30040169 4.96146679 -0.35757318
-1.25083280 4.94789839 -0.53920573
-1.30040169 4.96146679 -0.35757318
-1.32387137 4.97675753 -0.17036836
-1.32867944 4.79912949 -0.16265158
-1.30841506 4.78240061 -0.35133362
-1.32541704 4.81511593 0.02504947
-1.33098924 4.63765287 0.03478528
-1.33517563 4.62273788 -0.15365721
-1.30479896 4.65084505 0.21756424
-1.31097019 4.47177315 0.22856621
-1.33677840 4.46135283 0.04561616
-1.26350594 4.48153162 0.40352002
-1.31613171 4.29250145 0.24080014
-1.26461804 4.29856443 0.41387179
-1.19078100 4.30520344 0.57612401
-1.26826835 4.11295128 0.42683581
-1.19096351 4.11612749 0.58772480
-1.09312057 4.12118673 0.73413277
-1.19083798 3.92375016 0.60141885
-1.08856356 3.92562652 0.74582487
-0.97315961 3.93035483 0.87520802
-1.08303690 3.72531509 0.76202273
-0.96480972 3.72576547 0.88780123
-0.83937341 3.73139477 0.99622989
-0.95227921 3.51123548 0.90878999
-0.82934105 3.50960422 1.01063681
-0.70358533 3.52472973 1.09478569
-0.50398690 3.40041709 1.19192147
-0.43929818 3.27121067 1.22038734
-0.27920762 3.31088400 1.25752270
-0.39458868 3.18403888 1.23620892
-0.23816545 3.24172401 1.26847911
-0.09066243 3.28317666 1.28556669
-0.20095605 3.17633343 1.27652669
-0.05258611 3.20817590 1.29071689
0.10693981 3.26685333 1.28354764
-0.01953453 3.15564704 1.29328346
0.14159977 3.22075772 1.28177381
0.29922074 3.28418612 1.25020516
0.17884339 3.18083382 1.27948105
0.33315066 3.24381685 1.24332678
0.21593875 3.14312792 1.27576804
0.36185619 3.21159816 1.23732674
0.25398088 3.10724187 1.27073193
0.39324236 3.17629361 1.23079050
0.28848684 3.07688236 1.26369953
0.42428634 3.13907862 1.22452247
0.32725897 3.03835535 1.26066530
0.45864400 3.10394526 1.22347295
0.45864400 3.10394526 1.22347295
0.32725897 3.03835535 1.26066530
0.36300260 3.00811553 1.26343143
0.15069680 2.84471703 1.31711245
0.24454162 2.93743825 1.29149830
0.24454162 2.93743825 1.29149830
0.06355926 3.07683659 1.29415035
0.02155894 3.11886549 1.29452670
-0.10268535 3.01991034 1.30123401
-0.14098983 3.06592011 1.29279292
-0.17348246 3.11492991 1.28489363
-0.30953291 3.00946736 1.27591074
-0.33168519 3.05505490 1.25902271
-0.36765122 3.12463164 1.24707961
-0.49416551 3.01059651 1.21506608
-0.46367475 2.95894599 1.23193693
-0.58754265 2.87762618 1.18639481
-0.46367475 2.95894599 1.23193693
-0.58754265 2.87762618 1.18639481
-0.55310512 2.83681202 1.20882082
-0.61250669 2.56888604 1.20963645
-0.60452759 2.70428038 1.20278656
-0.64700699 2.57931757 1.18543661
-0.63729966 2.72939277 1.17643654
-0.61176527 2.43821955 1.20996726
-0.61250669 2.56888604 1.20963645
-0.64700699 2.57931757 1.18543661
-0.58080685 2.44415116 1.23952258
-0.64700699 2.57931757 1.18543661
-0.63729966 2.72939277 1.17643654
-0.69960433 2.59132338 1.15075386
-0.77723420 2.60430455 1.10123634
-0.86264926 2.62989020 1.03888035
-0.85776144 2.44718552 1.05847740
-0.95225638 2.45250678 0.98128676
-0.97873193 2.66033554 0.94037008
-0.95469177 2.27170110 0.99991435
-0.84770620 2.27332091 1.08260882
-1.00269210 2.87323451 0.90107322
-1.02621329 3.08937860 0.86107486
-1.05434847 3.30595064 0.81664485
-1.16887403 3.32463503 0.67247260
-1.07080293 3.51877522 0.78276056
-1.17996728 3.52796364 0.63875371
-1.26104772 3.34296584 0.51318055
-1.26712191 3.53700948 0.47780761
-1.32841706 3.35355759 0.34650248
-1.32752168 3.54150367 0.30769038
-1.35563970 3.33102298 0.24168991
-1.34808254 3.15326858 0.30944136
-1.33969855 2.93850470 0.37418711
-1.36394393 3.12952518 0.24932683
-1.37192881 3.30709696 0.16640414
-1.35146475 2.95663619 0.33548337
-1.35928988 2.71259618 0.34827623
-1.34955990 2.70155430 0.37793425
-1.36785650 2.93022895 0.27976620
-1.37642312 3.10241103 0.19782454
-1.37490034 2.70667624 0.29788613
-1.40215147 2.50780773 0.24567659
-1.38486993 2.46807146 0.31383303
-1.38202965 2.90009761 0.22642171
-1.38920462 2.69635272 0.24851695
-1.42726958 2.51252437 0.20173141
-1.44099772 2.35552502 0.16068928
0.70064777 3.10325503 -1.25604010
0.53672445 3.11774755 -1.33505595
0.53402102 3.16961503 -1.30870020
0.67907721 3.16097975 -1.23456657
0.54064846 3.23452616 -1.30271733
0.69015336 3.21639466 -1.22929657
0.81067902 3.16039228 -1.14495933
0.83689779 3.24439311 -1.13164747
0.70134354 3.28448272 -1.22123182
0.84525907 3.32446957 -1.12169492
0.70840442 3.35122466 -1.21468997
0.85092264 3.41944933 -1.11474812
0.71466118 3.43098760 -1.20769191
0.96845967 3.41288495 -1.00973022
0.85624397 3.55232882 -1.10632408
0.97582281 3.56544089 -0.99720544
1.07594717 3.42528415 -0.89021415
1.08475900 3.58316183 -0.87326336
1.17330527 3.44886780 -0.74941838
1.18108475 3.60410500 -0.73097336
1.25496757 3.46936059 -0.58976698
1.26055121 3.62439799 -0.57028961
1.24909866 3.31878924 -0.60785264
1.31162000 3.33254576 -0.44018793
1.31626844 3.48692727 -0.41858888
1.31210482 3.18117595 -0.45687625
1.24783814 3.17389250 -0.62144971
1.25169945 3.03289127 -0.62369120
1.20006025 2.86519837 -0.73774338
1.12992477 2.80640674 -0.84523654
1.15735269 2.68663406 -0.80974394
1.08709741 2.63903308 -0.90434724
1.06872094 2.74398232 -0.93682849
1.11596262 2.53275466 -0.87839085
1.03716922 2.48978448 -0.97935927
1.01030600 2.58839750 -0.99843735
1.07460117 2.38284469 -0.94935900
0.98718983 2.34314847 -1.04792070
0.94599372 2.44204116 -1.07956922
1.02368629 2.23976755 -1.02418852
0.91432244 2.20722914 -1.12986803
0.88079166 2.29473186 -1.14707541
0.93451834 2.10454392 -1.12618363
0.81362194 2.07168651 -1.22222996
0.79019213 2.16652346 -1.22797906
0.82157826 1.95495939 -1.22710073
0.69566858 1.93558478 -1.30679524
0.67894608 2.03777337 -1.30745685
0.70269531 1.81231570 -1.31306899
0.56245846 1.79635167 -1.37129581
0.55346411 1.91192663 -1.37301815
0.57659167 1.66644382 -1.39736056
0.43327498 1.65172899 -1.45637429
0.41929579 1.77613854 -1.43430197
0.44654125 1.52072597 -1.49228334
0.29537660 1.50521255 -1.53466010
0.28428337 1.63492084 -1.49974918
0.13390580 1.62478006 -1.52815807
0.12355401 1.74149001 -1.50107241
0.27214640 1.75727725 -1.47878885
0.14303134 1.49553370 -1.56435812
-0.01042039 1.49649763 -1.57762992
-0.01642044 1.62111831 -1.54354608
-0.16589686 1.62602901 -1.53681600
-0.02325319 1.73392153 -1.52080631
-0.16844630 1.73409259 -1.51705909
-0.16504133 1.50511563 -1.57310712
-0.31606910 1.51694453 -1.55308795
-0.31073636 1.64125168 -1.51866746
-0.32301021 1.38251960 -1.60048378
-0.47627947 1.39271176 -1.55928755
-0.46033257 1.53126025 -1.51582146
-0.50058764 1.25321627 -1.62712455
-0.65131879 1.25839508 -1.57081997
-0.62003523 1.40452933 -1.50588036
-0.53670764 1.11360693 -1.70562708
-0.69355869 1.11482179 -1.64944232
-0.83763957 1.12220204 -1.57871366
-0.78796816 1.27017283 -1.50125480
-0.58758825 0.97006774 -1.79083121
-0.74909329 0.96663427 -1.73076224
-0.89542711 0.97143668 -1.65478075
-1.02727401 0.98236448 -1.56464314
-0.96694857 1.13497210 -1.49164462
-0.81323445 0.81134605 -1.80749679
-0.96257967 0.81519592 -1.72994101
-1.09527087 0.82691085 -1.63542318
-1.21620131 0.84702128 -1.53228176
-1.14604878 0.99861372 -1.46391428
-1.04192626 0.67011118 -1.81353676
-1.17542160 0.68327481 -1.71221471
-1.29313540 0.70278633 -1.60274804
-1.39974463 0.72599369 -1.48611784
-1.32232571 0.86956137 -1.41779613
-1.37730718 0.57725877 -1.67467439
-1.26425874 0.55790120 -1.78752887
-1.47876036 0.60090530 -1.55514693
-1.57278776 0.63003862 -1.42553568
-1.49463892 0.75408328 -1.35873663
-1.65317810 0.51667655 -1.48876429
-1.74196970 0.53833264 -1.34034872
-1.65987396 0.65383923 -1.28293192
-1.83152544 0.43099338 -1.39562094
-1.91984367 0.44965512 -1.22776222
-1.82778394 0.55937839 -1.17978466
-1.93279624 0.32907245 -1.44398642
-2.02053261 0.34420949 -1.27089190
-2.10326147 0.35806891 -1.08863771
-2.00072432 0.46508870 -1.05040729
-2.04467535 0.23052230 -1.48669958
-2.13100314 0.24435888 -1.30947590
-2.21336102 0.25594833 -1.12222540
-2.28469419 0.26525071 -0.93071449
-2.17478275 0.37138078 -0.90235680
-2.24946404 0.15025744 -1.34568143
-2.33186197 0.16035827 -1.15444422
-2.40462089 0.16824615 -0.95912910
-2.46503782 0.17325379 -0.76170933
-2.34493446 0.27553976 -0.74046391
-2.45512533 0.06671306 -1.18440461
-2.52960682 0.07329488 -0.98436123
-2.59093618 0.07762950 -0.78292054
-2.59093618 0.07762950 -0.78292054
-2.63990617 0.08123980 -0.58283156
-2.51089931 0.17913978 -0.56664515
-2.46503782 0.17325379 -0.76170933
-2.65653729 -0.02064121 -1.00953054
-2.71928692 -0.01793777 -0.80482751
-2.71928692 -0.01793777 -0.80482751
-2.77028728 -0.01520580 -0.59987921
-2.80764484 -0.01368868 -0.39534155
-2.67360234 0.08481586 -0.38518941
-2.84990764 -0.11375029 -0.82695127
-2.90246511 -0.11160576 -0.61777669
-2.94266319 -0.11161719 -0.40737587
-2.96729088 -0.11360767 -0.19940469
-2.82906723 -0.01237119 -0.19492178
-3.03538418 -0.20946583 -0.63724267
-3.07641506 -0.21303050 -0.42276382
-3.10570812 -0.21411416 -0.20803407
-3.11810184 -0.21511798 0.00329075
-2.97748852 -0.11214191 0.00403220
-3.21309876 -0.31106734 -0.44136852
-3.24294496 -0.31729555 -0.22054745
-3.25787663 -0.32034686 -0.00036517
-3.25450015 -0.32152179 0.21642354
-3.11376143 -0.21551150 0.21179232
-3.37847042 -0.42204538 -0.23723009
-3.39448023 -0.42861575 -0.00681579
-3.39360762 -0.43129638 0.21796918
-3.37269306 -0.43077737 0.44171613
-3.23484015 -0.32017580 0.43011528
-3.52698874 -0.54555964 0.21910988
-3.52561998 -0.54140180 -0.01755542
-3.50681567 -0.54376304 0.45246717
-3.46585345 -0.54403114 0.68150121
-3.33261490 -0.43017280 0.66038126
-3.63113427 -0.66610229 0.46353757
-3.65173507 -0.66540653 0.22022775
-3.59053111 -0.66606814 0.70158881
-3.53116965 -0.66992939 0.93341178
-3.40685105 -0.54925549 0.90428430
-3.70671058 -0.79512620 0.72228670
-3.74823785 -0.79451591 0.47537801
-3.64627671 -0.79788661 0.96299577
-3.57115650 -0.80104637 1.19813251
-3.45533633 -0.67536479 1.16054666
-3.75322223 -0.93320704 0.99114799
-3.81354785 -0.93100548 0.74279064
-3.67583799 -0.93697137 1.23275816
-3.58313942 -0.94223565 1.46719348
-3.48059106 -0.80562621 1.42652774
-3.84699321 -1.07847440 1.01669955
-3.76572990 -1.08476532 1.26354551
-3.67289519 -1.08872914 1.50309682
-3.56411266 -1.09287548 1.73665369
-3.47702074 -0.94565207 1.69500697
-3.82938099 -1.24681211 1.28498495
-3.74698853 -1.24502122 1.53399813
-3.63318157 -1.25202513 1.76957405
-3.50319409 -1.25983882 1.99336660
-3.44042158 -1.09802580 1.95962501
-3.80129147 -1.41158521 1.55734813
-3.68565941 -1.41868591 1.79464650
-3.55182743 -1.42805684 2.02054358
-3.41307354 -1.43380582 2.24152446
-3.36522722 -1.26632941 2.21065140
-3.72514439 -1.59021783 1.81431210
-3.59643435 -1.59760952 2.04656863
-3.45397878 -1.60431671 2.26900935
-3.30187297 -1.60728240 2.48466897
-3.26460099 -1.43649793 2.45567822
-3.62325764 -1.77224374 2.06293178
-3.47951317 -1.77885985 2.28751159
-3.32344365 -1.78211665 2.50333047
-3.15449548 -1.78309178 2.71049762
-3.13578248 -1.60862851 2.69030738
-3.49230027 -1.95521092 2.29850221
-3.33500433 -1.95796573 2.51697326
-3.16617632 -1.95778322 2.72720289
-2.98079085 -1.95651698 2.92275763
-2.96572232 -1.78244734 2.90025759
-3.34093046 -2.13365531 2.52787256
-3.17069912 -2.13339281 2.73866701
-2.98554754 -2.13232064 2.93496871
-2.78542995 -2.13113451 3.11632204
-2.78179121 -1.95581555 3.10493207
-3.16992903 -2.30966425 2.74616146
-2.98494864 -2.30871749 2.94220638
-2.78518462 -2.30647612 3.12341142
-2.56883526 -2.30470777 3.28819013
-2.57024956 -2.13088918 3.28362179
-2.12008095 -2.31463194 3.60482383
-1.88242877 -2.32691145 3.74329805
-1.88591945 -2.15233397 3.74108553
-2.12176323 -2.14051080 3.60058618
-2.34833336 -2.30638456 3.45146322
-2.34394741 -2.13323307 3.43914938
-2.12209988 -1.96635556 3.59196234
-2.34572697 -1.95971680 3.43184328
-2.56972504 -1.95696759 3.27438760
-2.34517956 -1.78628576 3.42391539
-2.56408429 -1.78293777 3.26131535
-2.77365255 -1.78120399 3.08935022
-2.55066395 -1.61020267 3.24091983
-2.75752854 -1.60862851 3.06751752
-2.95387602 -1.60865140 2.88492107
-2.73223948 -1.43837440 3.03784227
-2.92594051 -1.43718231 2.85603857
-3.10340381 -1.43682885 2.66193247
-2.88293648 -1.27156520 2.81436920
-3.05726862 -1.27070963 2.62297797
-3.21677732 -1.26948905 2.42032790
-2.99135351 -1.11696708 2.56694698
-3.15285850 -1.11097264 2.37391901
-3.30085230 -1.10660958 2.17048192
-3.21649218 -0.96017873 2.11688662
-3.07327247 -0.96372056 2.31581187
-3.35265684 -0.95230794 1.91145349
-3.24941254 -0.82112831 1.85418499
-3.12289834 -0.82146478 2.05779862
-3.37644577 -0.81003505 1.64766252
-3.26542234 -0.68413103 1.59542441
-3.14999557 -0.68693137 1.79957438
-3.36670446 -0.68034965 1.38196087
-3.24719405 -0.56116998 1.33527803
-3.14904881 -0.56369096 1.54151523
-3.32989407 -0.56040013 1.12063956
-3.20691609 -0.44023943 1.08412600
-3.12527680 -0.44422618 1.28884614
-3.27678919 -0.43330401 0.87509388
-3.14118385 -0.32463589 0.84365642
-3.07572508 -0.32885647 1.04463518
-3.19582272 -0.31969100 0.63906175
-3.05401754 -0.21422251 0.61607111
-3.00180793 -0.22000013 0.81246418
-3.09281826 -0.21424535 0.41545737
-2.94902825 -0.11098982 0.40066826
-2.91157341 -0.11234724 0.59355950
-2.97158527 -0.11106967 0.20411547
-2.82965469 -0.00935975 0.19648993
-2.80602527 -0.00984455 0.38590771
-2.83661294 -0.01096242 0.00237249
-2.69680953 0.08732539 0.00044472
-2.68783236 0.08922464 0.18855070
-2.69284558 0.08609914 -0.19026776
-2.55707455 0.18572728 -0.18500347
-2.56347394 0.19152200 -0.00004007
-2.54335213 0.18548773 -0.37378818
-2.41922760 0.29068816 -0.36333939
-2.43360615 0.29617488 -0.17948249
-2.39103556 0.28381547 -0.55019063
-2.27714276 0.39556345 -0.53360492
-2.30356717 0.40374795 -0.35176137
-2.34493446 0.27553976 -0.74046391
-2.23365378 0.38454437 -0.71791810
-2.12802577 0.49753571 -0.69283432
-2.16835499 0.50945598 -0.51457250
-2.23365378 0.38454437 -0.71791810
-2.12802577 0.49753571 -0.69283432
-2.07198358 0.48356795 -0.87181467
-1.97387254 0.59978175 -0.83940762
-2.02715993 0.61412030 -0.66609645
-1.90723896 0.58118278 -1.01201165
-1.82027817 0.70255244 -0.96952081
-1.88303900 0.72124845 -0.80479902
-1.74565411 0.67963028 -1.13070071
-1.66772759 0.80833465 -1.08138287
-1.73606086 0.82839370 -0.92478287
-1.58365858 0.78091240 -1.22357023
-1.51090515 0.91844004 -1.16831505
-1.58985829 0.94111139 -1.03093004
-1.42215919 0.89368135 -1.29757273
-1.35135651 1.03870332 -1.23891830
-1.43830001 1.05966926 -1.11421776
-1.25425482 1.01854157 -1.35418534
-1.19026780 1.16961491 -1.29233694
-1.28588057 1.18807709 -1.18223727
-1.08393228 1.15020609 -1.39609432
-1.02908778 1.30409694 -1.33237529
-1.13155627 1.32192028 -1.23424149
-0.91427141 1.28627932 -1.42185688
-0.87204289 1.44023871 -1.36510170
-0.98324901 1.45980155 -1.28074181
-0.75109518 1.42142296 -1.43957198
-0.72401512 1.57050586 -1.39817619
-0.83932209 1.59442043 -1.32184100
-0.59771192 1.54554749 -1.46193516
-0.58242089 1.67243242 -1.43646932
-0.70505112 1.70287752 -1.37159801
-0.44970128 1.65795708 -1.48426425
-0.44380388 1.75617075 -1.46999979
-0.57413948 1.77953792 -1.42512500
-0.30882570 1.74334359 -1.49759889
-0.30941886 1.81564081 -1.49092019
-0.44047311 1.83189571 -1.46277928
-0.17224482 1.81058180 -1.50904584
-0.17594635 1.88003290 -1.50037646
-0.30992076 1.87793970 -1.48580420
-0.03683884 1.88769269 -1.50447738
-0.03078176 1.82262182 -1.51055145
0.11231818 1.83601344 -1.49084032
0.10149300 1.90892661 -1.49035561
0.24393705 1.93099904 -1.46520329
0.25829268 1.85494900 -1.46844280
0.40574434 1.87886369 -1.42813647
0.39090395 1.96539104 -1.42726958
0.53707236 1.99755847 -1.37410748
0.37205401 2.03469944 -1.42827332
0.51820529 2.08049822 -1.37779760
0.65833944 2.12800789 -1.31269264
0.49201497 2.16184664 -1.38025022
0.62916052 2.21472931 -1.31726682
0.76090485 2.25469351 -1.23789728
0.72732854 2.33888817 -1.25242412
0.60023826 2.29072809 -1.32563949
0.84052521 2.38553095 -1.17195392
0.80416560 2.47538352 -1.19180763
0.69535494 2.41886210 -1.26691663
0.91741931 2.53011370 -1.09836209
0.78487080 2.54426408 -1.20068800
0.89977854 2.60720181 -1.11152577
0.99171835 2.67603707 -1.02097178
0.88557690 2.71826553 -1.12249339
0.98195404 2.77191806 -1.02460492
0.85532004 2.77700543 -1.19265175
0.92916274 2.86906505 -1.08943045
0.76816535 2.61085200 -1.20872986
0.76905513 2.71037173 -1.22530985
0.61190182 2.63769841 -1.29952896
0.63517761 2.56585741 -1.28861833
0.50476223 2.49687982 -1.35405982
0.46922961 2.56081557 -1.36677289
0.66436231 2.49403930 -1.27862012
0.53890884 2.42968726 -1.34379923
0.41186988 2.35031796 -1.39393282
0.37803692 2.40654254 -1.40299559
0.57103652 2.36156487 -1.33487916
0.44256023 2.28605700 -1.38846314
0.30835199 2.21792912 -1.43265367
0.28819022 2.26221657 -1.43423343
0.46764407 2.22615337 -1.38532054
0.33108598 2.16224623 -1.43087983
0.19796142 2.10577011 -1.46272218
0.18227118 2.14643621 -1.46325839
0.35340366 2.10262203 -1.42888939
0.21316685 2.05477571 -1.46330965
0.07947763 2.01448059 -1.48577571
0.06827603 2.05676603 -1.48482323
0.22925061 1.99777520 -1.46340668
0.09045110 1.96642888 -1.48776054
-0.04389973 1.94506955 -1.49921870
-0.05086366 1.99055469 -1.49648106
-0.17990457 1.97229803 -1.49314463
-0.18071446 2.00722003 -1.48977375
-0.05776486 2.02822042 -1.49539745
-0.17782851 1.93415880 -1.49434793
-0.30986944 1.92669296 -1.48149228
-0.30854052 1.96800888 -1.47751129
-0.43281904 1.98831332 -1.44967270
-0.30675533 2.00629640 -1.47482502
-0.42957374 2.03112912 -1.44663286
-0.43594456 1.94553149 -1.45264423
-0.56091887 1.97151077 -1.41317618
-0.55708039 2.01628876 -1.40848231
-0.43769550 1.89404070 -1.45688760
-0.56344551 1.92205024 -1.41430557
-0.68488365 1.94471014 -1.35706556
-0.67969352 2.00308490 -1.35444772
-0.56775165 1.86050427 -1.41683793
-0.69060421 1.87472308 -1.36027658
-0.80312794 1.92356193 -1.29059172
-0.79623812 1.99613845 -1.28916001
-0.69626206 1.80579090 -1.36450291
-0.81030291 1.83935010 -1.29443014
-0.91489875 1.88474953 -1.21427929
-0.90658879 1.97899961 -1.21226025
-0.81977630 1.73470294 -1.30073810
-0.92719537 1.75914800 -1.22217286
-1.02679503 1.78049028 -1.13644981
-1.01160669 1.91516066 -1.12730157
-0.94682670 1.61578000 -1.24038982
-1.04681408 1.63320971 -1.15209448
-1.14028823 1.64837515 -1.05868316
-1.11588311 1.79691064 -1.04193199
-1.08516991 1.47830355 -1.18789506
-1.17929995 1.49538541 -1.09048569
-1.26365983 1.50947881 -0.98574150
-1.22419775 1.66110539 -0.95825642
-1.22684979 1.34022272 -1.13100874
-1.31411850 1.35761833 -1.02174175
-1.39006579 1.37332571 -0.90365148
-1.33814144 1.52220893 -0.87277299
-1.37312651 1.20676160 -1.06592643
-1.44917655 1.22477877 -0.94146544
-1.51359713 1.24142158 -0.80859178
-1.45322597 1.38749874 -0.77794141
-1.51436150 1.07949460 -0.98259878
-1.57453310 1.09512770 -0.84075367
-1.63589656 1.11543775 -0.70048839
-1.56737506 1.25660419 -0.67219919
-1.65430737 0.96013808 -0.88424826
-1.70770895 0.97662681 -0.73155510
-1.75078726 0.99218589 -0.57784677
-1.67547870 1.12974775 -0.55168498
-1.79180074 0.84531593 -0.76706487
-1.83190191 0.85833693 -0.60736221
-1.75078726 0.99218589 -0.57784677
-1.83190191 0.85833693 -0.60736221
-1.86055040 0.87024581 -0.44534954
-1.78036547 1.00560045 -0.42215925
-1.92910600 0.73486835 -0.63707155
-1.92910600 0.73486835 -0.63707155
-1.95916331 0.74734181 -0.47096950
-1.97915971 0.75826395 -0.30540931
-1.88203537 0.88446456 -0.28511068
-2.06192827 0.62665647 -0.49386889
-2.02715993 0.61412030 -0.66609645
-2.08255792 0.63680291 -0.32312998
-2.09021735 0.64575171 -0.15390815
-1.98631191 0.76843315 -0.14056204
-2.19180179 0.51851308 -0.33689815
-2.19964433 0.52597320 -0.16465919
-2.19332457 0.53087246 0.00460254
-2.08282590 0.65264714 0.01123567
-2.31484270 0.40982783 -0.17271248
-2.31229353 0.41468149 0.00074700
-2.29675722 0.41818342 0.16919315
-2.17549014 0.53518999 0.16814370
-2.43490648 0.29964831 -0.00034806
-2.42137218 0.30392590 0.17355630
-2.39538145 0.30795825 0.34286368
-2.26786923 0.42092678 0.33285978
-2.55187321 0.19420834 0.18091376
-2.52683473 0.19685474 0.35607287
-2.48943138 0.19721407 0.52443916
-2.35801792 0.30926436 0.50623941
-2.66319323 0.09054784 0.36940759
-2.62638330 0.08984632 0.54563898
-2.57967186 0.08941858 0.71767831
-2.44321060 0.19749354 0.68809438
-2.76821113 -0.01185786 0.56985021
-2.71935558 -0.01522862 0.74926406
-2.66035867 -0.01827998 0.92219323
-2.52268267 0.08754783 0.88307309
-2.86106348 -0.11722940 0.78090692
-2.79845095 -0.12215719 0.96276760
-2.72560620 -0.12579028 1.13821769
-2.58941913 -0.02114312 1.08878005
-2.93719935 -0.22596596 1.00390673
-2.86149716 -0.23088233 1.18837965
-2.77349281 -0.23369986 1.36600256
-2.64235854 -0.12856789 1.30729675
-2.99619007 -0.33522725 1.23956811
-2.90132451 -0.34170637 1.42441750
-2.80157638 -0.33840409 1.60691130
-2.67278099 -0.23984246 1.53682709
-3.02993774 -0.44677562 1.48568416
-2.92364216 -0.44589728 1.67477679
-2.80446815 -0.45024902 1.85615826
-2.68835139 -0.34133562 1.78135741
-3.03893209 -0.56332588 1.73867846
-2.91597676 -0.56614918 1.92730916
-2.78171706 -0.57201803 2.10785794
-2.67351651 -0.45709315 2.02962351
-3.02320170 -0.68945235 1.99480391
-2.88686037 -0.69318813 2.18275023
-2.74052644 -0.69909692 2.36263752
-2.63911319 -0.57857698 2.28059888
-2.98430967 -0.82425380 2.25272036
-2.83562613 -0.82690018 2.44015336
-2.67372203 -0.83084124 2.61986947
-2.58259773 -0.70717299 2.53409505
-2.91329026 -0.97238410 2.50280023
-2.75507045 -0.96765602 2.69411159
-2.57488108 -0.96969211 2.86973262
-2.49842024 -0.83459979 2.78791642
-2.82429338 -1.11561525 2.75901127
-2.63884521 -1.11783957 2.93742704
-2.44062710 -1.12076545 3.10482359
-2.38083744 -0.97409517 3.03091264
-2.69285131 -1.27367544 2.99513483
-2.48827934 -1.27795303 3.16192698
-2.27506685 -1.28483701 3.31867504
-2.22812748 -1.13091767 3.25287437
-2.52806115 -1.44009101 3.21102214
-2.31236744 -1.44502461 3.37240744
-2.08748555 -1.45234787 3.52289915
-2.05729151 -1.28887510 3.47199583
-2.33300257 -1.61442900 3.40325761
-2.10651231 -1.62160397 3.55624747
-1.87101054 -1.63233209 3.69496679
-1.85395718 -1.46260846 3.65950274
