8.55380000 -41.32100000 50.46750000
-4.00570000 8.50740000 11.34490000
-18.21220000 -18.01040000 -15.92660000
-2.89840000 115.75980000 -11.58840000
-1.35160000 116.07200000 -12.71970000
0.19740000 -52.56470000 57.40260000
-0.42900000 -55.25670000 58.19180000
23.94220000 -32.60580000 34.16640000
28.82950000 -35.02380000 33.71090000
-3.62460000 103.98150000 -14.70920000
-1.42760000 106.88190000 -15.57170000
-19.29770000 -112.93770000 31.40540000
-22.15300000 -110.15710000 29.15040000
-20.79710000 -113.01770000 30.57710000
1.58570000 -4.72760000 -19.40980000
-0.11730000 -5.44010000 -19.60930000
-0.50140000 -4.02850000 -19.43510000
19.58680000 -61.95430000 -55.56940000
21.94070000 -65.59070000 -55.18810000
48.44240000 42.33890000 7.95320000
50.85340000 42.12070000 8.03030000
52.65430000 42.36640000 7.59220000
49.91490000 43.64270000 7.75370000
15.96170000 9.29100000 -7.82390000
-11.67890000 -17.73410000 12.90900000
-56.76330000 -39.26930000 2.02720000
-57.08270000 -39.36260000 -0.13040000
-58.51170000 -41.96650000 2.39100000
-5.25700000 -44.07950000 -45.69510000
-11.08000000 -43.55760000 -44.54870000
-7.69280000 -37.29420000 -47.25180000
-7.56570000 -35.26860000 -45.12270000
-5.16060000 -34.99290000 -45.01840000
44.71960000 -25.98640000 0.95260000
45.24850000 -27.64940000 1.85780000
36.52660000 -78.49790000 37.92800000
35.63440000 -82.99650000 36.96720000
40.15660000 -66.45070000 -38.24960000
41.06550000 -68.78470000 -37.32160000
10.26230000 -83.26660000 -55.44340000
11.38100000 -87.33100000 -53.36270000
13.77600000 -86.90230000 -52.95740000
16.79760000 -98.67790000 35.10020000
-10.78920000 116.47490000 -1.62360000
-11.35910000 115.33090000 -1.47620000
-19.04550000 -89.20870000 -44.02500000
-30.68750000 -100.62350000 32.31070000
-27.76340000 -101.66380000 33.24360000
42.38160000 -98.29370000 -15.78220000
27.06760000 32.85280000 -5.77550000
25.97310000 28.70690000 0.12640000
47.33660000 -92.99210000 -15.85890000
48.33190000 -91.03130000 -17.12650000
-54.12340000 43.73300000 -8.48430000
-53.84990000 45.28550000 -8.11880000
49.72180000 -64.23350000 30.22200000
47.96930000 -62.80960000 32.76470000
-7.52950000 -91.40040000 42.20450000
-3.50940000 -89.17940000 44.74920000
-61.22430000 -66.71370000 -1.84340000
-61.22270000 -66.14820000 -0.33990000
-61.10250000 -68.02440000 1.36870000
-19.56730000 -105.85740000 -32.13170000
-19.20310000 -107.03550000 -30.96490000
21.02870000 -37.95060000 43.02550000
-49.89210000 11.82320000 3.79680000
-52.00800000 14.94700000 3.93560000
-51.14310000 14.85790000 3.27040000
13.70740000 115.27540000 4.59330000
13.63230000 115.80680000 4.07540000
-15.55450000 -103.42450000 -37.95470000
39.97640000 -22.76830000 -2.63640000
39.20820000 -21.91690000 -2.45150000
35.55070000 -104.79420000 -7.12690000
33.60330000 -104.87530000 -13.25480000
36.55730000 -103.62270000 -12.23810000
58.28100000 15.10390000 4.98590000
51.27130000 -76.61140000 14.84580000
52.77470000 -67.78150000 15.34080000
52.35260000 -65.46840000 17.07240000
50.86590000 -67.98830000 20.48030000
-10.34860000 0.41020000 13.96200000
-47.29490000 -98.22240000 5.06740000
-18.95040000 -10.68790000 4.32990000
-19.70470000 -11.67920000 3.18470000
-19.26760000 -10.29550000 3.06020000
-18.83260000 -8.52470000 3.55080000
-3.53000000 -49.52780000 56.28090000
23.77450000 70.21620000 -6.18130000
-28.65140000 -70.59250000 44.02880000
3.04070000 -10.22510000 18.52290000
4.96900000 -9.77330000 18.22790000
4.63630000 -8.55110000 18.12940000
3.18790000 -11.36330000 18.98340000
4.75570000 -11.16940000 18.71610000
51.75370000 -65.46970000 -26.59850000
53.14920000 -64.76500000 23.73160000
52.14350000 -66.84370000 26.13510000
9.21670000 -5.11460000 -17.23520000
8.69530000 -5.97330000 -17.51930000
44.96010000 46.57860000 -5.82250000
2.71230000 -50.88900000 50.31540000
-3.81270000 -50.41070000 50.10180000
-32.60110000 -115.20580000 -6.50290000
-32.86270000 -114.64500000 -3.86480000
-33.48170000 -115.46810000 -3.51390000
18.60710000 52.12910000 8.08990000
20.35540000 49.86020000 3.71950000
-8.28130000 -113.17020000 -33.69700000
-8.40980000 -111.30450000 -33.41550000
-11.05000000 -110.65940000 -32.83980000
-17.11750000 -115.37110000 -26.36100000
-19.98880000 -115.68830000 -25.01620000
48.06670000 -83.94130000 -20.98450000
46.59070000 -84.39440000 -24.21060000
2.72020000 54.13100000 26.79250000
0.80790000 56.70240000 26.66370000
1.27250000 54.41620000 27.02650000
-7.75850000 -105.55490000 -24.35370000
-9.41820000 -106.27210000 -18.90990000
-11.67850000 -105.07470000 -24.99840000
-50.57780000 -33.51360000 -0.85820000
-7.05060000 48.57620000 -28.40520000
-25.57710000 38.38110000 8.79930000
-22.46140000 45.94910000 15.67070000
-39.94830000 -84.33360000 28.48770000
-34.39260000 -84.97740000 35.04300000
-34.26300000 -82.60170000 36.46590000
-23.06400000 -70.99950000 -55.31850000
-24.22140000 -66.26560000 -55.25130000
25.26810000 -29.30770000 -25.93450000
21.11120000 -27.57910000 -26.88320000
26.67760000 -111.21510000 0.41640000
26.55090000 -111.64390000 -4.14950000
37.25750000 -30.14030000 -2.55600000
36.41470000 -28.81800000 -0.79190000
38.03470000 -31.24430000 -4.46590000
35.99660000 -29.33750000 -1.64420000
37.05870000 44.85160000 7.39820000
-36.59560000 -101.12670000 24.83450000
-37.27340000 -101.66130000 22.59810000
-37.91010000 -101.69010000 21.30710000
12.73910000 115.64530000 -4.70990000
13.22740000 116.09440000 -6.52890000
9.63990000 16.43280000 -16.82420000
8.99650000 14.80200000 -16.50910000
7.29880000 16.64790000 -18.28880000
36.08360000 42.75430000 6.47530000
2.61250000 -108.49260000 12.09910000
4.10940000 -108.38340000 10.85120000
-9.72820000 -62.07190000 -53.42030000
-43.79160000 0.88610000 -1.62720000
-44.60330000 2.63310000 -0.71900000
-45.20470000 4.01730000 1.69990000
-1.17160000 103.68650000 11.01260000
0.26490000 104.49660000 11.23270000
3.83700000 -108.51880000 -6.46570000
-2.60660000 -4.99100000 19.47040000
-3.22710000 -8.40600000 18.68520000
-6.97760000 110.39370000 -2.48970000
-6.94470000 110.35520000 -3.32530000
-6.73260000 112.60550000 -1.45580000
4.87860000 -116.01750000 32.12130000
4.02060000 -115.54660000 31.51960000
7.93740000 5.20890000 -10.08650000
6.07960000 3.64140000 -11.28940000
21.66570000 -109.53600000 -10.00160000
19.53220000 -109.27320000 -9.22830000
27.50560000 -107.28360000 19.12440000
25.90580000 -106.23850000 22.80570000
13.65020000 -114.98520000 27.22460000
12.62750000 -115.43030000 28.21240000
-13.81210000 66.92910000 -21.76720000
-14.15090000 69.05550000 -20.40600000
30.89030000 -29.59150000 19.82130000
27.70620000 -28.98590000 23.24860000
-55.66110000 29.87950000 -0.28600000
11.15710000 43.49440000 25.16160000
-13.55360000 64.44840000 20.42940000
-12.43950000 67.98000000 19.53990000
-15.23810000 64.15220000 19.44130000
-43.57750000 -43.62670000 -17.02490000
52.65300000 36.98340000 -4.78070000
53.47550000 36.27380000 -5.02080000
50.29250000 38.71190000 -4.14400000
52.16070000 36.93640000 -3.98910000
-56.32860000 30.45510000 3.69160000
-22.40670000 -99.98480000 39.13750000
-18.64970000 14.95660000 -4.35520000
-18.57670000 12.75480000 -2.21250000
13.63840000 110.95560000 5.01530000
13.23350000 115.22440000 5.37970000
-46.54830000 -5.39760000 0.31780000
-45.44820000 -7.33130000 1.45370000
-46.65580000 -4.28820000 1.43410000
-45.09820000 -7.02930000 2.17920000
-45.98840000 -4.67060000 2.15280000
28.66140000 -115.70590000 1.43890000
0.23420000 52.67280000 -29.39200000
9.50870000 95.39100000 9.71970000
0.43940000 -24.95430000 -31.85930000
3.77070000 -26.91180000 -34.13430000
2.93120000 -25.77720000 -32.68900000
-8.54280000 -108.69230000 -9.45480000
-2.07640000 -108.50380000 -5.50250000
-11.60020000 -92.87560000 -50.25380000
6.44620000 43.96760000 18.15660000
4.28540000 36.37680000 17.77110000
-40.16310000 -10.49200000 3.34920000
-39.99100000 -14.13560000 3.50240000
-39.76130000 -12.43070000 2.68910000
-39.60370000 -15.23970000 2.89190000
-40.22330000 -15.39420000 3.69500000
-39.96760000 -17.17090000 3.47020000
7.70090000 31.15570000 23.90130000
40.38990000 -15.88680000 5.95470000
40.68620000 -14.21500000 5.93070000
39.89090000 -15.62700000 6.07110000
40.56930000 -12.11990000 6.08040000
-16.34840000 80.73790000 -7.12680000
-62.25680000 28.67580000 0.72350000
-62.61560000 29.81950000 -0.30790000
42.36520000 -36.93290000 15.43240000
43.78770000 -38.80930000 17.27040000
47.49410000 -41.98970000 14.94450000
-17.11020000 -5.31680000 -10.59620000
-7.27160000 -99.75910000 33.12440000
-19.07400000 -100.73530000 28.06900000
59.41050000 25.45790000 6.74310000
-33.50480000 51.32920000 -1.97690000
-30.38120000 50.75780000 -0.95790000
-13.07940000 85.97960000 -8.99120000
-15.84270000 -0.14110000 -8.86750000
-46.25090000 1.98750000 3.87960000
-26.07140000 36.47160000 6.98090000
-27.53630000 40.39350000 6.26200000
-27.53000000 37.96430000 4.45600000
-25.87520000 33.62390000 4.50540000
-26.11610000 35.83100000 6.43370000
-28.26770000 -108.55420000 2.87230000
-27.94170000 -108.60160000 0.21480000
-27.51990000 -108.65980000 5.65050000
-29.25080000 -109.24300000 5.30350000
44.84070000 -86.87850000 29.83830000
42.63010000 -88.56480000 31.50540000
-41.59090000 -73.16230000 31.39440000
27.64000000 -68.34600000 46.39710000
27.42210000 -72.90660000 46.02450000
-14.97940000 -37.98660000 -38.13840000
17.37990000 -16.04990000 11.68310000
18.23250000 -14.76060000 8.37380000
57.08390000 -58.73470000 3.60810000
57.01440000 -54.54570000 -1.81020000
-0.80540000 111.03030000 -11.49370000
-25.99060000 62.81020000 -0.96420000
-45.52500000 2.35860000 3.55670000
-44.68990000 0.72830000 3.58920000
-19.78310000 53.48110000 -1.35950000
10.70360000 -13.69320000 -10.58710000
11.46660000 -11.87810000 -8.46310000
11.79830000 -109.89370000 -31.04970000
10.94530000 -110.95240000 -31.47180000
-17.31390000 7.44010000 -4.10810000
-9.22110000 -75.30200000 58.19750000
-11.38810000 -73.42650000 58.34850000
13.32550000 36.26330000 22.98400000
34.40350000 -91.16960000 -34.70890000
42.03090000 -88.84540000 -27.79020000
39.21200000 -10.21880000 1.95500000
-60.66550000 37.86880000 -5.43050000
52.98570000 46.18060000 3.42030000
50.97340000 47.26890000 3.64230000
49.51900000 47.33220000 4.88770000
-14.56270000 38.89730000 21.95200000
-14.06930000 40.95060000 22.65010000
-41.60430000 -79.98360000 -30.19350000
-13.00150000 -108.21830000 33.64870000
-11.50940000 -107.04460000 34.28930000
-29.09860000 -45.23080000 46.58580000
-26.54530000 -45.57220000 48.26970000
8.47820000 -63.18140000 -58.78180000
12.93900000 -65.62790000 -58.22840000
39.28950000 49.09850000 -3.66890000
36.88650000 47.93500000 -5.09920000
37.22980000 48.68770000 -4.13740000
-2.62230000 -18.50630000 24.61450000
-5.92060000 -17.44560000 23.27100000
-8.09050000 -19.41680000 24.93080000
7.22130000 115.87240000 -12.78860000
8.10020000 114.96030000 -11.05030000
-49.62920000 -89.83860000 -21.94360000
0.99060000 -23.03250000 -29.40840000
-3.57320000 -23.15680000 -29.64120000
-36.11650000 -31.10350000 -20.99730000
-35.43760000 -31.38970000 -22.90380000
13.06100000 15.81380000 5.05790000
10.80490000 -24.13370000 28.51910000
6.95380000 -24.96340000 31.01250000
20.79560000 -106.80860000 27.29290000
32.42360000 -109.40400000 3.83570000
-14.72580000 -64.29350000 -52.39730000
-16.38750000 -66.74330000 -51.85820000
43.04090000 -17.16050000 3.51230000
17.01320000 -105.15340000 18.59310000
20.10770000 -105.53150000 11.74960000
12.80380000 -105.67040000 18.77820000
52.75650000 -70.93120000 24.50210000
53.60000000 -68.34870000 22.99080000
42.43770000 -24.08670000 -2.14090000
6.90330000 -38.96820000 -40.80330000
-1.89120000 -38.68900000 -41.20760000
3.66130000 -36.01520000 -38.22900000
-17.39670000 -116.05950000 30.45180000
-24.32900000 -115.43520000 27.17540000
-19.98960000 -115.82120000 29.60540000
9.94250000 62.70790000 23.38450000
10.30360000 66.56670000 21.83420000
11.38220000 69.25660000 20.12140000
-2.34860000 -65.02640000 59.89110000
45.30980000 40.53140000 4.68840000
46.97050000 39.45790000 1.92930000
-11.86780000 16.42920000 -16.03620000
-13.26990000 16.22330000 -14.89190000
57.01460000 22.12810000 -5.18600000
56.11430000 23.33510000 -4.92520000
55.50200000 -64.01740000 -16.86400000
54.59950000 -61.97240000 -18.62980000
54.55130000 -64.25310000 -19.81230000
-10.65560000 59.40460000 14.05020000
-43.56710000 -30.31590000 -4.61400000
-42.58680000 -31.10860000 -5.43210000
-40.76280000 -29.76990000 -5.09800000
-36.14300000 -115.98940000 0.71950000
-36.15680000 -115.98580000 -1.37740000
-35.23860000 -116.14300000 -1.30040000
-36.32560000 -115.79300000 -2.43120000
-36.66350000 -115.55220000 0.33730000
-18.24370000 -115.85210000 -29.91030000
-16.28180000 10.09790000 7.17130000
-14.79800000 10.90980000 9.73950000
13.89430000 79.55580000 -14.62570000
13.11930000 -7.91620000 2.71080000
-18.80690000 -110.86440000 -30.08170000
-20.03610000 -113.72390000 -29.62710000
-20.61130000 -111.62440000 -29.10600000
10.43380000 116.58670000 7.03500000
1.88350000 -116.21570000 -30.31210000
-0.72700000 -116.17170000 -30.50930000
-4.78160000 -116.20630000 -30.63410000
2.35730000 60.78050000 -28.06590000
-15.18750000 6.89510000 8.20990000
-14.21450000 4.67770000 9.43980000
-15.72450000 5.97980000 7.32200000
-1.04680000 -114.37500000 35.68660000
3.00390000 -115.51230000 34.65360000
2.34890000 -114.83160000 35.24890000
50.91200000 -37.19740000 0.32780000
17.55750000 53.41850000 -11.95220000
15.31950000 55.99730000 -14.41900000
17.01310000 51.07420000 -13.10880000
19.16810000 51.21650000 -9.22210000
7.60430000 -59.18500000 58.29800000
-2.17060000 -82.46870000 49.41620000
-9.01290000 -68.92650000 52.07980000
14.67220000 -3.33920000 -11.44880000
11.45620000 97.74260000 -6.28680000
9.59050000 113.35990000 -8.87070000
10.49160000 113.30360000 -7.69260000
57.57750000 39.75780000 -4.31860000
56.08740000 39.33490000 -5.38090000
52.15440000 -76.64680000 11.75600000
-37.12310000 -94.52750000 34.46440000
-38.61480000 -94.80420000 32.55220000
-19.73660000 -30.07770000 35.69730000
-8.90890000 116.83510000 -7.15230000
-57.91220000 14.98060000 -3.03170000
-59.00920000 17.02820000 -2.95490000
-16.76150000 60.01740000 -9.86860000
-17.51780000 60.28690000 -8.09800000
-18.36200000 55.43090000 -8.14720000
-25.05780000 64.98700000 -4.63710000
13.05110000 -9.70110000 -13.38400000
11.95150000 -9.80820000 -15.01420000
13.09260000 -8.42470000 -13.33350000
-23.10870000 70.15640000 -1.40680000
-21.86870000 72.46020000 -2.71370000
47.79860000 8.21730000 0.35720000
49.71760000 11.01570000 1.51230000
-46.39840000 -34.39830000 6.86520000
-50.44460000 -41.72570000 -14.64060000
-48.92820000 -42.29060000 -20.23330000
-39.14620000 -73.46950000 -45.26790000
-11.51100000 -105.91490000 16.92690000
-7.29420000 -106.19060000 16.45970000
-51.05140000 49.01630000 2.56020000
4.15100000 -81.03820000 56.75200000
8.41220000 -77.46900000 57.28010000
-31.52440000 -49.19280000 36.47570000
-28.79020000 -48.89830000 38.66730000
-51.47590000 5.09600000 -3.66220000
-50.28520000 2.01240000 -2.24940000
-52.67200000 6.15090000 -2.83500000
-52.37840000 4.95760000 -0.94270000
-7.29160000 -30.60550000 40.28060000
-11.64350000 -108.41160000 10.64600000
-13.47070000 -108.56640000 16.32050000
-11.96810000 -108.73330000 21.31990000
22.16600000 -22.40770000 15.96090000
24.42180000 -23.64900000 15.24030000
23.51900000 -22.10130000 13.66600000
-32.02960000 -97.47250000 -23.64400000
44.68230000 49.43880000 3.41970000
41.44120000 50.23050000 1.26990000
44.78430000 49.79910000 2.03550000
41.78920000 50.19910000 -0.03790000
-59.39080000 -55.55040000 4.16860000
-41.00610000 -5.80660000 2.70710000
26.51480000 -25.10020000 14.90500000
-3.17720000 -5.24510000 19.42700000
-3.62890000 -4.89280000 19.31740000
-2.76130000 -4.40560000 19.44160000
-1.99020000 0.66180000 -17.31470000
-6.31540000 0.47980000 -16.25500000
-7.51690000 0.87690000 -15.68040000
-8.83930000 0.94690000 -15.04930000
-42.80690000 -9.34630000 3.84200000
-42.18700000 -11.52740000 4.03480000
-43.92780000 -9.89070000 2.82100000
-43.46710000 -8.19320000 3.49950000
8.18840000 36.83950000 -26.77620000
-53.92380000 -89.25660000 -9.36950000
61.53450000 30.64500000 4.57530000
60.39760000 32.46010000 5.75230000
-26.70400000 45.45440000 -10.53060000
-26.75530000 47.86690000 -9.99530000
-26.06910000 46.62390000 -11.26280000
-32.58770000 -88.39090000 44.05430000
-31.36490000 -87.14040000 45.70610000
19.89010000 56.78770000 -4.92350000
18.65810000 61.80120000 -4.96800000
53.41990000 -76.63610000 20.64060000
53.55130000 -80.45790000 17.29120000
54.25430000 -57.10450000 16.48930000
52.98170000 -49.99820000 12.76030000
-20.96810000 -103.90030000 34.03340000
-19.02520000 -104.20430000 34.56860000
-37.32330000 -43.60300000 -38.44230000
14.16620000 -3.25040000 11.97360000
14.72200000 -2.96870000 11.29950000
15.02880000 -2.37200000 10.46280000
13.96360000 -0.48920000 10.27810000
4.66600000 -116.39760000 -29.99830000
5.70770000 -116.83200000 -31.00620000
4.32220000 -115.83640000 -29.59060000
62.70830000 29.32020000 1.26210000
49.14860000 -94.11020000 -0.59960000
-41.33450000 -21.14970000 3.76880000
37.17250000 -26.75850000 2.85060000
-23.73110000 -111.44260000 -19.58610000
-47.27200000 3.88980000 -4.90900000
-46.84270000 2.15430000 -4.94870000
-14.68010000 -46.58070000 -52.79950000
-13.80960000 -49.10280000 -54.25660000
15.53980000 -110.06180000 -29.15140000
-17.46300000 -0.10860000 -3.87320000
-17.76690000 -0.04810000 -2.63390000
48.96620000 -37.76540000 -3.98220000
-45.83820000 -25.38260000 -2.11780000
-46.29890000 -26.45450000 -2.01340000
30.41590000 -76.56290000 -49.37720000
31.67670000 -74.83900000 -48.96510000
-33.37350000 -115.68870000 14.54250000
-33.84400000 -115.77070000 13.14270000
4.27060000 -46.71220000 -54.09400000
-1.02190000 -46.45620000 -54.32710000
11.68460000 -116.82380000 -28.23140000
12.20500000 -116.82820000 -28.84880000
14.80400000 -116.88650000 -27.05180000
1.16790000 115.98330000 -15.42310000
-40.36140000 -25.79380000 -2.98610000
-40.96520000 -21.03140000 -3.91490000
-56.59730000 -46.90230000 7.85120000
19.00110000 -110.57070000 -18.09410000
18.52220000 -109.95200000 -17.27950000
18.13900000 -109.50720000 -15.81490000
-17.34870000 -113.16980000 32.37920000
-15.08560000 -112.89010000 33.32370000
18.65840000 -5.90540000 -3.72840000
18.78210000 -4.95160000 -2.80930000
-40.78230000 -7.89860000 -2.43230000
-41.47770000 -5.02790000 -2.32090000
52.30020000 37.32330000 5.96690000
50.67400000 37.88320000 1.75560000
-8.43960000 -115.28370000 34.69400000
-3.68860000 -115.30990000 35.23910000
25.69570000 -35.52230000 26.31260000
-13.10840000 -96.62340000 46.18430000
-46.60780000 45.45820000 4.19100000
-48.83600000 44.45630000 4.24790000
-47.72950000 44.06390000 3.41960000
45.96710000 -2.42290000 -3.22440000
47.00300000 -2.57950000 -2.53150000
-45.62730000 -49.44240000 -33.75340000
-46.76690000 -52.10780000 -34.00330000
-47.00280000 -55.78540000 -35.57930000
53.88720000 33.73150000 -1.94350000
-38.79430000 -90.02480000 -37.34560000
-36.84330000 -92.81390000 -36.70120000
-5.67110000 -116.68670000 -32.94370000
40.03630000 -10.68340000 5.50740000
39.78410000 -10.61150000 5.05970000
39.17830000 -13.18490000 5.11740000
-53.82320000 19.16760000 -0.87710000
35.54480000 -91.72490000 36.61530000
-18.67600000 -58.74230000 56.47470000
-35.95570000 -91.54210000 38.87800000
28.31300000 -117.00420000 -10.60620000
-17.68820000 21.48110000 -13.99680000
-15.75490000 18.36660000 -14.06740000
41.23560000 -52.63150000 30.76230000
30.72010000 45.39630000 7.33990000
29.98250000 44.21910000 7.74370000
-44.42390000 -18.37170000 -0.82460000
-44.61460000 -19.47110000 -0.31300000
-44.61110000 -20.29610000 0.31740000
-24.84150000 28.26470000 -1.84780000
-23.99530000 26.34500000 -3.68520000
-21.79470000 -108.67430000 2.17330000
-15.50720000 -108.58560000 4.15120000
13.86820000 99.56290000 -9.03450000
13.31310000 92.73410000 -10.31060000
12.65080000 104.07670000 -10.86300000
13.53810000 103.83500000 -9.64860000
15.08080000 5.29690000 7.72990000
14.95740000 2.38870000 7.47740000
1.52330000 22.63390000 21.58150000
47.34270000 -37.92230000 -5.46750000
47.89110000 -39.46030000 -8.19490000
24.80440000 -112.08640000 -10.79390000
22.65460000 -111.23970000 -13.81750000
-9.90700000 114.24180000 -8.87430000
-9.15080000 115.16170000 -10.00380000
-45.03310000 -97.98140000 15.65430000
-43.90570000 -99.43600000 14.20330000
-51.73260000 49.99250000 0.27600000
-53.83140000 49.05170000 -1.34310000
-55.75150000 47.51650000 -2.22470000
40.64890000 -10.00030000 -3.11180000
39.82560000 -14.55960000 -2.92180000
-0.71720000 -110.20210000 -27.17730000
3.33660000 -109.87780000 -25.97900000
2.20290000 -110.17230000 -26.81340000
5.48090000 -110.62400000 -26.47330000
12.68290000 -108.96800000 22.51340000
13.25390000 -109.54310000 23.36830000
-19.44140000 -104.43870000 19.26840000
-12.13020000 21.19170000 -18.80500000
3.93720000 -114.44090000 30.89800000
-58.04630000 43.94710000 -4.92720000
42.08150000 -12.90630000 -2.62750000
51.72900000 -88.11750000 12.43310000
-12.05080000 -33.49860000 33.95160000
-46.29050000 -71.43260000 23.87790000
-45.07700000 -78.13140000 23.17860000
-51.17790000 -50.72100000 26.65210000
-47.93530000 -49.90060000 31.50430000
-18.54950000 38.59660000 18.81440000
7.10000000 -13.57540000 11.88410000
55.04820000 37.88560000 -5.86600000
14.00110000 -22.05530000 24.23690000
8.96310000 9.39130000 -15.21790000
28.61060000 -109.75510000 -15.14070000
31.17640000 -110.44500000 -8.68940000
26.34490000 -111.98960000 -5.97000000
19.34350000 -112.05050000 -19.25660000
11.48790000 29.05570000 -23.18700000
18.41700000 46.10130000 21.09050000
24.95420000 28.54340000 -7.43940000
16.39170000 8.78230000 -6.56180000
17.11770000 8.85750000 -4.00930000
16.67280000 6.08130000 -3.77220000
50.89370000 -86.19630000 -17.72400000
50.56780000 -84.76520000 -20.41910000
48.71860000 -85.37200000 -24.12270000
3.27160000 -113.43260000 -29.00720000
2.93840000 -114.76750000 -29.34260000
29.99100000 42.00510000 -7.49420000
30.50770000 40.15530000 -6.92280000
17.38100000 29.18310000 3.49120000
14.81210000 18.58290000 1.32430000
21.40730000 47.31550000 -20.33400000
21.74830000 41.44640000 -19.12010000
21.60000000 38.65320000 -18.56370000
2.79710000 18.08230000 -20.08050000
18.00840000 -75.56580000 -55.58730000
14.85210000 -74.07850000 -56.93020000
57.36890000 -73.75150000 5.09500000
58.03720000 -70.02680000 3.74110000
58.10950000 -67.81200000 4.23980000
-1.57010000 -108.76390000 1.30220000
40.50570000 50.22310000 0.17630000
14.81760000 -115.43360000 -24.66410000
16.00390000 -115.60840000 -24.12970000
30.36250000 -102.47600000 -19.91140000
45.31730000 -77.27540000 -35.08400000
-7.20560000 -108.90710000 -11.91460000
-13.99540000 -109.01060000 -10.23490000
-8.15120000 -115.36100000 -33.65640000
-8.13700000 -114.67540000 -33.82510000
-9.94650000 -113.09370000 -33.26770000
25.12330000 -22.68610000 -12.04870000
-7.17950000 -50.43500000 56.43270000
-7.20310000 -52.45700000 57.13200000
-48.99220000 -80.71970000 -4.28000000
-56.84410000 39.43250000 -8.11200000
-58.14130000 37.23220000 -7.75170000
-8.74170000 -8.21670000 9.38780000
-28.50940000 50.90510000 1.88890000
-42.06740000 -102.85200000 3.02610000
5.38970000 -11.74550000 -13.36090000
29.18210000 37.42860000 5.19920000
29.45520000 -108.55240000 -13.55780000
27.58240000 -108.89390000 -17.27530000
30.53030000 -114.94480000 -12.05450000
-21.26730000 -14.36480000 2.52900000
-29.76450000 -111.24770000 -9.86660000
-8.44020000 4.03940000 -9.26700000
-7.45360000 3.94580000 -10.13190000
55.01190000 17.22950000 7.11170000
56.04110000 21.34890000 7.22650000
-59.90970000 42.21690000 -1.88190000
-0.56530000 -106.16290000 -35.60850000
-19.32150000 47.11380000 19.32970000
-28.82880000 50.86270000 -3.55640000
32.52170000 -84.23220000 44.81660000
-34.19320000 -108.77070000 13.71360000
-56.84900000 -84.79300000 5.36820000
-47.92750000 -41.53630000 -21.32990000
-3.43850000 34.99030000 -27.33580000
-4.66960000 31.17820000 -26.07030000
-4.82250000 32.71720000 -26.45570000
-5.96630000 27.04380000 -24.32310000
-14.90110000 17.27890000 12.24290000
-17.07520000 17.43410000 9.73400000
-5.12150000 45.26760000 18.25440000
19.49770000 -104.66150000 -25.39110000
18.02560000 -105.12190000 -23.72070000
17.40290000 -105.72580000 -18.30470000
-33.91110000 -115.63020000 -1.97270000
-25.62880000 -102.41270000 -34.14000000
-1.83290000 78.55460000 10.96480000
21.70300000 -68.26620000 55.00770000
2.85580000 86.41000000 9.26340000
0.65150000 86.68690000 9.26790000
6.39660000 83.07680000 8.76500000
4.70150000 83.19280000 9.40500000
14.03340000 -53.38050000 55.41580000
40.25050000 49.93550000 2.90770000
35.71780000 49.39000000 3.78390000
36.15290000 49.12510000 4.50090000
-2.28780000 -110.32430000 30.65790000
-0.53290000 -109.11110000 27.61760000
-28.79920000 -113.31490000 23.74760000
-51.48550000 -36.53520000 -5.50470000
8.13360000 94.42560000 -10.58740000
18.44900000 -50.90870000 -46.98910000
20.69430000 -54.16290000 -47.89500000
-10.31560000 -97.63240000 45.81370000
16.29580000 2.65350000 2.82200000
-46.91700000 -62.57680000 38.58280000
17.08440000 -21.93840000 -14.03830000
19.26610000 -25.67360000 -17.91740000
-7.00760000 -21.55330000 28.02320000
-7.01340000 -23.66440000 30.41110000
-44.57740000 -30.34750000 4.53250000
-8.50530000 86.89660000 10.42660000
43.40020000 -14.20150000 3.65490000
43.56750000 -12.55070000 4.00130000
54.48190000 -75.95250000 -17.32130000
-7.34420000 115.94590000 -3.84560000
13.45610000 -116.03480000 -30.10340000
12.73290000 -115.33630000 -30.94000000
-45.08260000 -85.18560000 34.62280000
-25.65380000 -109.10390000 -9.71920000
44.09210000 41.26120000 -4.16610000
47.68770000 40.28650000 -4.05290000
12.38800000 -8.62920000 -5.68520000
-0.26930000 -65.37720000 -54.70550000
7.65030000 -65.62590000 -54.34020000
52.92580000 47.00380000 0.60610000
-26.80200000 -105.70760000 -26.94920000
-25.80390000 -107.27420000 -25.76710000
-27.19900000 -106.44020000 -24.79750000
-26.07520000 -106.42910000 -26.24910000
12.22770000 116.39800000 3.72040000
47.88940000 -2.27220000 -1.88040000
47.57720000 -3.67020000 -1.00950000
-31.03390000 47.97520000 4.51250000
-29.63000000 47.52250000 4.96040000
-26.93530000 -71.60760000 -46.52110000
-29.38380000 -67.12970000 -45.41460000
11.53300000 -108.78800000 19.65230000
-57.20430000 -56.96190000 -16.12170000
-58.12040000 -61.51100000 -16.91920000
48.18930000 6.54170000 -3.91140000
4.84300000 -13.18620000 -19.95850000
47.43470000 -83.53590000 28.41350000
3.89780000 -24.10560000 -30.34800000
8.65720000 -23.19330000 -27.89410000
8.78420000 -24.46350000 -29.34640000
34.44250000 -105.76400000 -2.07230000
34.72200000 -105.69230000 0.18690000
34.20520000 -41.38990000 -35.76340000
30.93200000 -39.99060000 -37.30820000
46.49890000 -6.79820000 0.69590000
-7.71260000 37.19280000 16.29810000
-7.49570000 45.14650000 17.39140000
8.27830000 112.67930000 -9.99760000
-26.48740000 33.18160000 -1.55800000
-29.40890000 39.92600000 -4.21860000
19.64680000 15.94090000 -2.06850000
19.30770000 15.10760000 -1.36140000
40.30820000 -37.72000000 -8.21050000
37.45200000 -34.84920000 -6.58430000
42.68120000 -40.53870000 -9.98390000
-49.29310000 -31.61370000 1.43780000
18.10160000 83.74680000 -0.70160000
19.14640000 80.68120000 -2.25370000
10.56710000 -111.17180000 27.21660000
8.80210000 -110.46470000 28.16470000
7.98450000 -110.14990000 28.29210000
-27.87450000 -59.04590000 -45.49140000
-27.77680000 -53.02580000 -42.98750000
-6.96570000 116.75680000 4.13090000
-6.97070000 116.50130000 2.78200000
-3.87120000 80.62540000 -13.27460000
19.34600000 48.56770000 -22.52690000
18.18820000 50.70740000 -23.38130000
-1.81770000 9.18530000 16.95200000
-1.78860000 11.96780000 17.47830000
29.16560000 -97.71170000 -35.93170000
32.47640000 -114.44830000 6.23750000
32.58140000 -114.70940000 4.70920000
32.93550000 -114.29200000 1.27630000
38.15290000 -29.47000000 5.19460000
50.57420000 37.95430000 -2.41550000
50.45140000 37.90030000 -0.15450000
49.58830000 38.53480000 -2.09870000
-3.32840000 -53.66000000 -57.31340000
-4.74980000 -87.94610000 53.96410000
-1.37690000 -86.81880000 54.66550000
0.32980000 -90.56960000 52.45180000
17.63700000 -5.37240000 5.45630000
45.00440000 -32.92530000 -3.20400000
17.12230000 -22.08200000 22.07250000
16.05440000 -21.32770000 21.89470000
19.77050000 -14.07640000 0.38960000
20.79050000 -15.79480000 0.20690000
17.16140000 -0.61500000 -1.45740000
16.70210000 1.70470000 -1.68090000
43.53410000 -16.03590000 0.05770000
43.31740000 -15.79370000 -0.60400000
21.21550000 -116.22850000 24.68370000
21.67690000 -116.44230000 23.23890000
35.15490000 -50.82910000 42.95420000
37.99950000 -50.69180000 40.27460000
-17.47060000 -83.19830000 -54.08510000
-16.59820000 4.35970000 -5.50060000
-16.28320000 1.71470000 -5.71000000
-16.59040000 1.75550000 -5.01500000
28.18270000 -115.77950000 6.85170000
7.78670000 113.37050000 5.08180000
2.44800000 75.62260000 19.30310000
15.88370000 -21.82700000 -22.64220000
17.10310000 -23.86240000 -24.28860000
47.52140000 -87.97110000 9.09310000
37.09410000 -98.77480000 -16.79520000
40.26490000 -97.25450000 -4.46580000
-24.56410000 -17.98590000 -0.80380000
53.67240000 10.09690000 6.54160000
34.03620000 48.67310000 4.55990000
47.34160000 -51.75680000 20.90550000
-52.87220000 -67.69020000 -30.28840000
-6.60370000 95.69690000 9.38820000
-3.77880000 -10.73000000 12.64900000
-4.27600000 -7.66370000 12.05060000
-2.70720000 -7.63770000 12.50700000
27.66720000 -29.75020000 24.97650000
30.34960000 -30.73180000 23.68410000
-50.99960000 -70.61310000 32.77560000
23.93970000 -114.44760000 -22.99610000
22.57820000 -114.82340000 -24.29950000
27.06420000 53.36470000 8.38760000
26.15410000 53.58800000 10.74150000
32.61280000 39.26430000 -2.48120000
51.38860000 46.00140000 5.33700000
8.78560000 -0.61870000 15.02620000
10.35190000 0.55040000 13.07090000
-58.80530000 -65.94710000 -16.59410000
-59.27180000 -64.19260000 -14.40220000
-21.62900000 -16.27520000 -7.79990000
-32.65770000 -24.62300000 -2.17100000
-36.95340000 -27.35730000 -2.44480000
-18.61370000 -17.09150000 -13.99140000
-21.04030000 -17.85400000 -11.94000000
-20.34300000 -17.65050000 -12.69450000
49.21140000 -57.35150000 -21.42150000
47.93480000 -54.20550000 -20.93410000
-25.04390000 33.41860000 -9.35310000
-24.75450000 38.00530000 -12.26660000
-22.49650000 -51.19630000 44.52740000
-26.45390000 -92.10460000 45.08950000
-27.69230000 -93.02930000 43.58930000
-27.37470000 -94.13210000 42.74200000
-30.60340000 -93.34860000 41.36560000
-31.83130000 -102.16470000 -29.22370000
-25.19620000 -110.84820000 -25.55120000
-24.96660000 -109.66620000 -25.77610000
-18.52210000 -3.89220000 -4.93340000
-22.27930000 -114.97620000 29.16910000
-12.90060000 -10.85680000 -14.72020000
-13.99630000 -10.88220000 -13.71580000
-38.20720000 47.73610000 -9.04930000
-59.05550000 -72.02540000 -13.94550000
-31.99780000 -115.79750000 12.87100000
1.10930000 -53.72510000 51.72130000
-5.54770000 -53.43660000 51.28700000
-40.41240000 -92.56040000 -8.44470000
-25.63050000 -22.44070000 -15.11860000
-29.69110000 -25.68690000 -16.75950000
-26.71920000 -23.55890000 -15.58130000
-25.66690000 49.76020000 10.75080000
50.18490000 46.71870000 -4.04220000
51.45790000 45.94950000 -4.15350000
3.31610000 -21.73700000 -22.23330000
-11.69570000 -5.71490000 15.54300000
-7.74760000 -6.19010000 17.45200000
-36.25530000 44.39020000 -0.01780000
-34.92690000 43.85100000 -1.54810000
-16.37010000 64.80270000 -20.80070000
-17.84390000 64.22470000 -19.69770000
15.41730000 49.14250000 23.41660000
16.23820000 -0.28780000 -5.44610000
-12.71150000 -2.79640000 0.50690000
-12.85930000 -7.13120000 1.65620000
15.56310000 -7.06700000 -11.08660000
-54.98780000 24.06370000 3.10500000
12.75770000 94.70090000 7.04540000
12.55270000 91.43260000 7.91910000
-30.55860000 -58.57180000 51.30940000
-28.50210000 -30.82140000 -29.93170000
-51.42300000 -59.90500000 11.40210000
-51.57140000 -57.16100000 9.56960000
-51.81950000 -62.32260000 9.62780000
-45.54890000 -75.64430000 -38.37390000
-44.70960000 -72.89360000 -40.13350000
-57.89710000 32.24740000 -6.99150000
-57.44170000 34.50010000 -7.20840000
-4.12400000 16.23710000 -19.21100000
-0.81150000 16.27170000 -19.46000000
34.27080000 -75.76970000 46.56130000
31.39500000 -75.60050000 48.66210000
28.28220000 46.50680000 -7.97530000
27.75040000 46.56090000 -9.07770000
-21.13580000 -106.40920000 30.28470000
-21.67220000 -105.53600000 30.69310000
-25.37030000 -106.07670000 27.44700000
7.11690000 -8.54970000 -17.67160000
5.12480000 -9.46830000 -18.37230000
8.27810000 -8.94920000 -17.18890000
25.79510000 -21.06230000 -2.04960000
27.46440000 -22.51610000 -0.12240000
-15.79660000 52.40400000 -24.35930000
-51.22080000 40.12770000 -0.25880000
25.13720000 -101.45600000 33.61620000
21.74880000 -102.05730000 35.00060000
39.58850000 -29.15910000 -2.82910000
18.29200000 -9.79570000 0.57580000
-15.80210000 -2.60360000 10.20120000
-16.94480000 -3.58510000 9.08870000
-15.72370000 -3.71940000 10.94820000
-15.77450000 6.21320000 -8.52440000
-15.35200000 3.92670000 -8.91120000
-52.83520000 -59.84070000 -1.11360000
-52.24000000 -60.27720000 -8.27270000
4.18270000 38.66900000 -20.11750000
1.39560000 38.72100000 -20.44530000
-0.04070000 38.77620000 -20.46070000
27.38640000 -116.39910000 15.60920000
27.95860000 -116.12460000 16.14610000
2.87120000 -104.02970000 -31.96760000
-2.71660000 -40.64520000 51.16950000
-17.57670000 -0.59540000 1.05520000
11.50300000 -26.42950000 31.52750000
25.01800000 -60.30430000 46.84670000
33.48040000 -59.81120000 41.57510000
35.74380000 -62.40950000 40.52090000
37.13300000 -59.36420000 38.58090000
-1.36100000 60.01360000 17.50390000
-5.11410000 55.14550000 17.99930000
-18.86000000 -3.15520000 1.99760000
-17.57840000 -0.88260000 1.91020000
16.89930000 61.98480000 6.75040000
22.80580000 -109.95270000 -10.13780000
10.59940000 113.71340000 8.14710000
-27.19100000 -20.27280000 1.69620000
15.39280000 115.55420000 -4.11060000
15.81220000 115.03660000 -3.94350000
14.38310000 56.53350000 12.50500000
-6.01950000 -85.83020000 55.00730000
-10.61470000 -85.18170000 54.75480000
-9.05110000 -87.22840000 53.99570000
30.14440000 -61.52280000 -50.12170000
29.76790000 -63.70280000 -50.82390000
51.25740000 -77.56900000 -24.77490000
29.08510000 -50.70990000 39.66680000
10.87020000 60.38320000 23.80010000
37.86140000 -100.40880000 20.95020000
39.38400000 -99.99110000 19.07650000
3.95580000 61.22100000 -19.83040000
-5.05210000 -4.81760000 -18.59690000
25.16060000 -24.24250000 3.43880000
21.27340000 -20.80220000 1.41770000
18.66740000 -109.39690000 -12.95590000
-55.27930000 -66.04640000 25.46360000
-53.76650000 -66.78160000 28.41510000
2.50600000 -98.52930000 -40.74750000
5.04050000 -100.42190000 -38.35340000
-41.10430000 -92.11120000 -1.38380000
-11.64290000 102.85480000 -4.94430000
14.89850000 16.61900000 12.55360000
15.92510000 16.46900000 11.10390000
17.29620000 18.02260000 9.96830000
16.83620000 16.88170000 9.88870000
-15.73710000 82.33360000 -6.12960000
32.80580000 46.35920000 6.96690000
29.57940000 47.53290000 6.02900000
19.88640000 -57.10240000 -54.36740000
-15.95820000 0.11820000 7.57850000
53.44220000 -44.26600000 9.59630000
53.92140000 -45.42750000 9.54670000
-15.41450000 71.05770000 -2.97740000
-0.30220000 100.31160000 11.58010000
-2.46990000 100.16220000 10.95520000
-5.52720000 83.55010000 7.44390000
-6.40490000 80.82380000 7.79280000
-16.02590000 -71.37810000 -57.58650000
-46.25840000 -39.83670000 -21.85980000
10.43610000 105.27870000 8.21710000
9.09450000 104.67590000 9.24290000
11.32190000 101.97000000 7.83930000
-22.02900000 21.43600000 0.61040000
-21.60640000 21.03080000 2.47410000
-22.93130000 23.21240000 -0.68160000
15.92750000 76.43650000 12.21770000
13.41890000 79.62800000 12.32730000
-50.57810000 -92.40550000 14.59030000
-8.73780000 -74.68420000 -58.53830000
-5.20430000 -78.52580000 -58.00450000
37.14120000 -48.11110000 -38.93790000
35.88450000 -49.25040000 -40.93960000
35.94510000 -46.13510000 -38.62100000
12.70540000 79.96190000 12.78310000
-3.01790000 -106.87120000 2.87360000
-8.17900000 -106.81870000 3.75780000
3.97010000 -114.45080000 -33.89350000
-31.87490000 -114.24480000 7.71760000
49.20530000 43.27640000 -6.18980000
49.36670000 41.80700000 -5.96310000
11.75210000 9.09270000 12.66050000
-50.23340000 -45.95220000 -22.77760000
-1.43760000 68.68100000 -25.31810000
26.07520000 -115.34930000 13.07560000
-8.87210000 101.60160000 6.36050000
-7.77310000 100.59800000 7.78260000
-8.82290000 99.75110000 6.87210000
54.78200000 11.38340000 -3.98780000
-48.39270000 7.29740000 -4.36810000
3.30760000 68.88350000 -25.09650000
0.55820000 70.13330000 -24.69920000
24.80160000 -21.60430000 9.56350000
22.71790000 -20.01950000 9.61440000
13.26750000 105.11450000 5.45290000
13.38940000 98.92340000 5.75660000
13.29530000 101.84160000 5.51620000
20.58130000 -104.72500000 30.46510000
7.52010000 -8.38890000 16.99000000
-48.83600000 43.70080000 3.70070000
9.38810000 -4.45720000 -9.65630000
10.03210000 -4.33410000 -8.98000000
10.61780000 1.83300000 -7.25660000
10.95890000 -4.38090000 -7.79350000
12.17200000 -4.26680000 -5.54120000
-3.01790000 111.06940000 -10.36940000
-52.59470000 -51.46190000 24.29570000
-51.42590000 -49.80800000 25.31150000
-52.01430000 -48.44930000 22.41620000
6.80640000 18.65540000 18.55960000
6.89650000 23.27470000 14.18480000
7.77240000 30.80010000 15.70150000
-11.80590000 4.26120000 12.66970000
-30.51200000 -100.19900000 15.60690000
-28.26780000 -101.91110000 15.07820000
-26.73120000 -102.98050000 13.32350000
-12.21800000 -108.42940000 -0.07120000
-10.37780000 -108.27770000 1.75780000
57.62130000 -72.26880000 -4.65510000
-14.59150000 -108.90590000 24.81340000
-14.88560000 -109.51710000 26.14380000
46.72200000 -84.91090000 -28.34050000
47.70680000 -86.26290000 -25.26880000
-27.73340000 -23.39860000 -13.24750000
10.42020000 103.59480000 -13.03120000
10.12470000 102.26560000 -13.15950000
8.51210000 -18.55340000 -16.91210000
-28.88400000 -86.91010000 47.36170000
-37.16980000 -106.21330000 5.27290000
-38.20090000 -105.44090000 3.04810000
-36.81270000 -48.96690000 -42.73940000
11.39960000 -115.59540000 32.39470000
11.33930000 -114.97760000 32.83370000
36.49910000 41.17440000 -4.90040000
24.99840000 -113.55920000 22.78410000
26.57090000 -113.74140000 20.72270000
10.77720000 -3.83360000 7.21060000
-0.30770000 29.28570000 -25.87140000
-29.45900000 -87.33800000 -39.36920000
-23.56950000 -87.12030000 -43.33770000
-28.33840000 -85.07810000 -41.67040000
-17.50630000 34.95950000 -20.92820000
-16.24470000 40.71510000 -23.31140000
-15.09420000 -21.31770000 14.16370000
-12.13940000 79.13170000 11.86440000
7.17400000 104.10400000 10.31490000
-13.96940000 -100.66130000 -42.09310000
18.50660000 17.33870000 -8.01760000
17.60720000 16.81510000 -8.87450000
-59.96760000 30.56520000 3.70500000
-60.10400000 32.43050000 3.51430000
11.67670000 115.66060000 -12.21210000
10.44250000 115.20960000 -13.49320000
-12.82910000 -13.08830000 16.54110000
-13.15160000 -14.46580000 17.37080000
-33.79120000 -49.83840000 34.37340000
-32.46730000 -46.70980000 32.89940000
-3.80390000 -73.27360000 59.02370000
12.43660000 -110.12810000 -22.82880000
15.95910000 -110.25300000 -20.58350000
-0.82780000 -19.27270000 25.42210000
17.26230000 -18.07850000 -6.09030000
-23.24860000 -85.73650000 41.79810000
-16.55060000 -87.09350000 43.39340000
-10.95590000 -86.92230000 45.21760000
-14.88950000 -6.92430000 11.95670000
-12.53040000 -5.59700000 15.05190000
-13.66130000 -6.16150000 13.90250000
-8.40090000 7.92510000 8.66090000
-20.02670000 -113.85480000 25.73950000
-20.97360000 -114.80230000 25.66320000
19.60700000 -30.69930000 34.30140000
16.74790000 -9.68130000 -8.54390000
41.01490000 -57.66780000 -39.94740000
42.16230000 -59.92880000 -39.42430000
-55.67540000 45.58440000 -6.44710000
-56.57170000 44.20900000 -6.70670000
-42.93940000 -87.76780000 12.31630000
-39.17600000 -16.30290000 0.93840000
-39.29000000 -15.12170000 -0.73820000
8.19740000 2.14250000 9.08660000
-24.36890000 -115.10230000 22.77300000
-40.84720000 -18.73650000 -4.01090000
-40.74450000 -16.76540000 -4.04690000
-52.98790000 -86.69400000 -18.40430000
30.47770000 -116.37060000 -9.81930000
-9.94920000 1.15420000 -14.31530000
8.52420000 115.91440000 -12.89010000
6.78530000 116.06490000 -13.35530000
5.40370000 -116.56590000 -32.27960000
7.49860000 -116.08210000 -32.42940000
40.33140000 -93.49500000 -29.20370000
39.85250000 -94.80230000 -27.96100000
2.70820000 20.69030000 -15.57330000
-1.60420000 15.32330000 -14.14410000
5.49310000 -57.07790000 -52.90180000
-0.30140000 -53.74240000 -51.77120000
-5.97860000 -13.38090000 -19.98160000
-7.32320000 -13.19760000 -19.43310000
-12.46130000 17.19120000 14.45800000
7.20720000 46.43930000 18.07650000
54.76530000 6.67030000 3.12100000
55.09690000 6.75890000 2.42460000
56.37910000 9.07980000 2.73600000
11.27600000 -16.51600000 18.88310000
9.30020000 -15.90230000 19.39350000
12.87910000 -17.01990000 18.26600000
-8.05240000 0.77310000 9.06740000
-6.98040000 -3.69840000 10.42040000
31.25870000 -112.49340000 10.80760000
31.81520000 -110.79440000 7.86300000
14.81260000 61.38040000 -23.85500000
-2.27200000 -64.40630000 53.36920000
-20.59200000 21.48040000 7.32610000
-22.14280000 24.00770000 6.39130000
-21.30130000 22.44300000 6.79840000
-21.11200000 23.29780000 8.15430000
52.54230000 11.97000000 7.01160000
13.97300000 -89.11090000 51.26680000
-59.92620000 23.56030000 -5.92060000
-61.20000000 29.25430000 -5.79380000
-60.22060000 26.56940000 -6.22560000
-11.38300000 107.52860000 -0.07950000
-10.85560000 108.48960000 1.85990000
15.73780000 106.85870000 -0.02870000
15.39740000 106.61060000 1.40140000
6.22730000 20.64270000 -14.58610000
4.77860000 20.67410000 -15.10530000
5.08730000 -88.07790000 -49.66110000
1.54360000 -85.78190000 -51.01430000
50.53990000 11.15260000 -3.57230000
12.13600000 -115.11180000 -31.30650000
39.35860000 -102.15690000 -10.60880000
38.90690000 -103.17070000 -7.06810000
42.83940000 -40.55180000 23.72190000
40.48010000 -38.77000000 24.73700000
-29.98410000 -36.89670000 -37.70040000
-29.04430000 -35.42940000 -36.53360000
-4.84620000 -17.99000000 -18.45710000
-10.61130000 113.92100000 -7.28240000
-11.40260000 109.46940000 -4.92440000
-55.54700000 -39.16550000 -4.84320000
-55.57010000 -40.11460000 -6.22710000
5.84870000 -108.50630000 0.83950000
5.76840000 -108.43240000 2.86560000
-55.07340000 18.81460000 4.34330000
-54.07370000 17.80150000 4.28680000
-54.71730000 20.53310000 4.27800000
-39.96330000 -82.08000000 30.04810000
-29.78790000 -62.08750000 52.51420000
54.42270000 36.40640000 7.61320000
22.51120000 21.55110000 1.44600000
-12.79270000 15.15820000 -14.78480000
-15.25740000 15.07540000 -12.12440000
-14.00540000 15.10280000 -13.56420000
14.87830000 16.02760000 -12.69380000
-60.51690000 -60.98700000 3.28750000
-13.66420000 -18.52790000 21.38300000
-18.01360000 -21.67680000 23.21190000
21.73500000 66.43590000 -14.90030000
20.71920000 67.89140000 -15.42820000
53.47310000 -50.20530000 11.72170000
-4.91070000 -115.74860000 32.31870000
-3.19060000 -115.95120000 32.64250000
42.57430000 48.24750000 5.95460000
45.75500000 47.33410000 6.43010000
7.32750000 81.86110000 -17.57680000
-11.16000000 20.97420000 -10.62790000
-17.89500000 -17.30640000 16.10580000
-14.76690000 -15.80120000 17.33150000
-16.06480000 -16.04710000 16.42820000
24.63780000 -41.16660000 -43.24890000
34.31880000 -57.26510000 46.18240000
-9.48860000 -108.28180000 5.74320000
-10.00330000 -108.23270000 8.26440000
-32.10250000 -91.44530000 31.09310000
29.88490000 48.51690000 -4.31260000
36.41940000 49.41600000 -2.15850000
-22.71700000 -55.62200000 54.33260000
5.92770000 27.17120000 23.03550000
-38.02300000 -77.24860000 45.34030000
50.09410000 41.57380000 7.97430000
-20.11400000 -19.92470000 -8.39290000
-32.26280000 -29.78030000 -9.47220000
-17.82930000 -16.65440000 -4.20350000
-26.29850000 -115.68050000 -24.08470000
-24.14360000 -116.25970000 -25.23060000
23.09820000 -27.25260000 24.11650000
43.12730000 -46.59010000 31.09970000
-45.32250000 -2.16610000 3.56520000
-47.64640000 -0.16710000 2.85050000
-44.45100000 -14.07220000 -0.82940000
15.43860000 89.93990000 -7.42380000
13.63220000 38.95890000 13.35480000
-40.20790000 -25.80500000 2.68620000
-10.29560000 -112.05860000 -27.81280000
44.39660000 -26.28080000 -0.71990000
43.69140000 -24.59760000 -0.98770000
54.01710000 16.60260000 -4.64250000
-17.80120000 -27.04870000 31.90150000
53.95590000 -58.40100000 -8.49340000
54.49940000 -58.16060000 -1.76710000
52.75120000 -55.51950000 -10.00970000
-47.49820000 -91.08680000 24.45300000
54.86710000 -45.72690000 8.28020000
56.03720000 -47.23420000 6.98660000
56.60010000 -47.75370000 6.14570000
-18.96200000 -94.30810000 46.60500000
-23.31490000 -91.82430000 46.88310000
-28.73560000 47.14010000 -8.53550000
-27.53640000 46.75050000 -9.50580000
4.74760000 114.44120000 -16.10540000
-25.79770000 -104.40110000 -30.71290000
10.50810000 -96.10620000 -47.15580000
8.99370000 -52.07690000 -55.83080000
9.75040000 -55.62240000 -56.85060000
-13.65450000 19.42250000 3.82580000
-16.70720000 39.86200000 -10.10020000
-6.22400000 114.19500000 -5.72520000
9.16160000 -108.80240000 -6.74310000
49.27750000 -49.30750000 -22.19910000
27.57150000 -105.57140000 22.26180000
1.41570000 57.55090000 26.36520000
23.51440000 -63.21740000 -49.65980000
20.19940000 -63.08910000 -51.04280000
-46.46710000 -83.64440000 -12.88080000
-46.69450000 -81.59290000 -16.38780000
-45.07390000 -83.98920000 -17.54010000
1.04210000 0.51340000 16.80420000
3.35300000 0.43440000 16.42600000
-5.85900000 58.22530000 25.48560000
-43.05400000 -58.24930000 41.53230000
-13.28100000 0.89170000 -11.44290000
-11.24790000 1.02230000 -13.33980000
14.90770000 75.44070000 -1.73530000
15.58170000 72.76590000 -1.17410000
-49.37510000 -78.15990000 7.34970000
-50.60650000 -75.83120000 2.90520000
-5.66060000 15.08030000 -18.43490000
-7.24470000 14.99520000 -17.82430000
-8.36720000 89.64010000 -6.09880000
18.29020000 -109.23260000 -9.31170000
-34.37670000 50.48110000 -5.71830000
-35.97690000 51.47290000 -3.36940000
-21.63940000 64.75870000 12.09380000
-4.01520000 116.63270000 6.37970000
5.01830000 83.08180000 -13.28810000
3.42650000 83.09420000 -13.64790000
30.48540000 49.19110000 -2.16060000
29.46480000 50.40050000 -2.44890000
29.50540000 48.78950000 -4.61520000
-41.15960000 -7.07340000 3.68810000
-40.58360000 -7.74070000 3.21230000
-26.73620000 -110.22430000 -14.46680000
-27.23840000 -110.77860000 -14.41990000
10.00270000 113.25250000 2.94460000
11.48960000 112.46390000 0.10450000
-10.19140000 84.37280000 -1.77790000
-10.06010000 84.26750000 -3.65370000
-11.07530000 81.69230000 -1.74630000
-17.74370000 45.45890000 7.42990000
-16.66660000 37.42720000 7.50580000
-16.96330000 35.17040000 5.63850000
-14.55180000 26.91070000 7.17230000
40.59960000 -82.16190000 -38.69520000
-20.24300000 32.49660000 15.13370000
-19.85760000 25.52290000 11.99470000
30.04770000 -76.04230000 49.43440000
-58.91130000 38.35630000 -7.22160000
13.41090000 -108.38120000 -30.41740000
15.90220000 -107.64460000 -29.30040000
0.85150000 -111.67030000 31.21520000
38.99100000 -101.33330000 -14.98410000
-28.05170000 -98.60510000 -37.51070000
13.19930000 -72.76200000 -52.99350000
-40.35220000 -53.11210000 -41.70730000
-25.72240000 -69.58430000 -54.39260000
-23.08970000 -67.37540000 -55.70870000
-25.51160000 -66.89740000 -54.69460000
4.52400000 -4.16840000 11.86680000
47.43100000 46.26550000 7.00820000
0.87370000 1.55810000 -17.10620000
16.25490000 113.28190000 -2.87040000
16.26160000 113.97920000 -2.92000000
-34.08290000 -33.61510000 30.36200000
-10.57730000 -56.36390000 51.34600000
-12.29300000 -59.16850000 51.50190000
-5.48550000 -44.32570000 -52.96800000
48.04350000 -69.18000000 -33.33000000
45.99390000 -70.75060000 -36.07040000
48.79410000 -67.63990000 -32.22860000
26.54360000 41.10050000 10.16810000
26.90800000 44.72370000 9.37740000
25.57980000 38.93570000 11.29850000
5.72900000 14.88080000 17.48150000
-42.01170000 -19.59920000 -4.00050000
-41.56160000 -20.37440000 -4.06670000
-42.32630000 -23.52690000 -4.12430000
-30.11820000 -108.58730000 21.27020000
-7.50270000 114.86150000 7.20570000
-7.89350000 112.68000000 6.75340000
-8.44940000 115.34610000 5.96330000
-8.58710000 116.24860000 5.09710000
5.37930000 -110.00040000 34.67220000
4.06220000 -112.42580000 35.22660000
