-28.73570000 -86.22200000 -47.20470000
-41.97330000 -55.54720000 -43.47190000
-57.36480000 -52.21350000 -16.87550000
-55.28340000 -48.24860000 -19.42240000
-53.02790000 -44.96250000 -22.06860000
-53.33450000 -49.44470000 -25.59460000
-31.35950000 -81.40180000 -48.03980000
-27.63150000 -83.14790000 -49.39090000
-53.10510000 -40.74720000 -15.39310000
29.46450000 -96.73520000 -35.57010000
4.01210000 -89.55120000 -52.52640000
4.55360000 -92.58490000 -50.24920000
-0.60300000 -91.60440000 -51.33800000
25.27700000 -96.20730000 -39.49990000
-1.62170000 -106.90140000 -34.21320000
-4.85170000 -106.48070000 -34.34350000
18.46690000 -69.36060000 -56.59730000
15.63580000 -72.31270000 -56.98940000
13.94490000 -68.02440000 -57.89460000
9.56040000 -91.62190000 -50.19470000
9.08070000 -71.14980000 -58.52250000
-9.59060000 -105.41840000 -34.20770000
31.38000000 -93.08480000 -38.51590000
25.23520000 -92.76770000 -43.31630000
-12.33570000 -91.63090000 -50.07670000
-6.97800000 -90.18560000 -52.02040000
-5.21390000 -93.76180000 -49.24280000
-11.80490000 -103.20700000 -36.34350000
-6.01970000 -104.69500000 -35.88670000
23.84660000 -71.93180000 -54.43280000
19.95750000 -73.33300000 -55.63490000
49.59630000 -72.56690000 -33.62970000
47.76450000 -76.37170000 -34.61060000
22.06780000 -76.87270000 -54.04060000
53.16660000 -69.55300000 -28.60720000
12.94440000 -89.76820000 -50.85100000
7.91800000 -87.62970000 -53.25310000
23.20280000 -67.15410000 -55.12580000
-14.67860000 -89.10820000 -51.37230000
-12.29660000 -86.65610000 -53.41930000
51.20160000 -68.16860000 -32.26580000
-2.70790000 -103.24720000 -37.84750000
-9.71000000 -100.79000000 -40.59570000
-5.60400000 -87.42020000 -53.97880000
20.10910000 -65.26860000 -56.34350000
-8.73340000 -85.90950000 -54.34060000
6.59220000 -84.96700000 -54.79360000
11.64330000 -84.22330000 -54.28360000
16.96830000 -63.78810000 -57.27790000
0.07650000 -105.91470000 -34.74490000
29.12700000 -89.01950000 -44.31400000
19.22870000 -88.63880000 -49.75930000
14.90630000 -86.39610000 -52.50430000
46.30040000 -74.17290000 -37.53980000
-2.25190000 -88.05150000 -53.75760000
9.48530000 -67.27830000 -58.83910000
11.08060000 -63.70100000 -58.56000000
46.82340000 -68.61690000 -38.25740000
43.20540000 -72.40250000 -41.42930000
21.44440000 -93.16370000 -45.01550000
24.46960000 -87.95400000 -47.96470000
10.91670000 -58.93280000 -58.08630000
6.53600000 -60.36320000 -58.87130000
0.85190000 -87.80320000 -53.83650000
-1.43900000 -85.88920000 -54.88010000
43.36580000 -66.03470000 -42.16460000
4.20630000 -102.59720000 -38.93140000
-4.17980000 -100.10680000 -42.27010000
34.82890000 -89.30430000 -39.64960000
-4.94780000 -84.98520000 -55.03030000
15.38440000 -60.87430000 -57.42580000
18.47110000 -86.01700000 -51.64510000
-4.96900000 -80.44090000 -56.80790000
-8.92480000 -82.44160000 -55.61520000
-12.84930000 -84.13120000 -54.24840000
-16.13100000 -84.14260000 -53.52010000
16.89310000 -83.10390000 -53.51610000
30.33840000 -85.36060000 -46.20240000
26.76820000 -84.15280000 -49.03290000
13.17490000 -53.31330000 -56.73710000
49.24270000 -65.11140000 -35.39600000
27.45570000 -73.71870000 -52.41070000
27.51520000 -68.46130000 -53.08930000
37.79600000 -90.74050000 -35.11780000
18.98780000 -81.01030000 -53.75620000
12.95390000 -79.88110000 -55.80440000
-15.89440000 -81.00770000 -54.79050000
16.15040000 -77.44180000 -55.80880000
32.04340000 -71.96040000 -50.16160000
-10.55380000 -78.96100000 -56.62680000
38.36110000 -76.14420000 -44.60300000
33.69470000 -75.73360000 -48.24930000
38.69060000 -71.91320000 -45.55080000
34.15220000 -65.65410000 -49.48880000
30.83260000 -65.38750000 -51.52390000
2.54900000 -84.15900000 -55.49860000
-17.92000000 -77.21330000 -55.55700000
-19.79280000 -79.64020000 -54.15950000
-1.03040000 -96.76570000 -46.58690000
-9.13320000 -97.22380000 -45.10290000
37.02580000 -68.69320000 -47.28850000
38.75650000 -87.21720000 -37.99350000
-13.49580000 -75.14900000 -57.17680000
1.63710000 -99.59400000 -43.26530000
-1.82480000 -82.74070000 -56.14200000
41.10080000 -88.53100000 -33.99580000
7.44530000 -99.71640000 -42.49020000
3.90990000 -95.92480000 -47.23460000
22.52470000 -62.89340000 -55.45270000
42.04620000 -85.09630000 -36.11850000
26.29960000 -63.58470000 -53.83410000
-0.59980000 -79.43540000 -57.35600000
35.77920000 -86.00020000 -41.76050000
47.14940000 -61.43800000 -37.95010000
-5.74220000 -77.05040000 -57.82740000
44.00810000 -60.59830000 -41.48670000
-7.08800000 -72.66430000 -58.69430000
7.66310000 -80.18780000 -56.59020000
3.38190000 -77.61570000 -57.82040000
-11.49790000 -69.28270000 -58.67190000
35.41010000 -82.73160000 -44.04060000
24.70970000 -59.00880000 -54.06290000
31.43680000 -60.86740000 -50.92970000
10.52230000 -101.93470000 -38.67660000
43.70380000 -55.30210000 -40.60870000
18.21670000 -57.83700000 -56.27950000
46.45520000 -54.97270000 -37.40330000
39.28290000 -82.75120000 -40.63080000
0.94940000 -74.65440000 -58.61350000
34.27490000 -79.64960000 -46.41010000
-14.61190000 -98.52030000 -42.22240000
15.93280000 -100.36480000 -39.08130000
21.93650000 -55.13840000 -54.53290000
-1.21240000 -70.85380000 -59.28630000
-8.13830000 -67.29260000 -59.33580000
10.88800000 -97.47740000 -44.35960000
22.42740000 -85.12210000 -50.63180000
38.84010000 -63.04850000 -46.13280000
24.53890000 -80.19730000 -51.85560000
36.10980000 -57.44890000 -47.54690000
45.03920000 -81.46870000 -35.04440000
10.37790000 -94.51190000 -47.58930000
-15.56560000 -92.87160000 -48.05240000
-12.64390000 -94.74410000 -47.08510000
-20.14950000 -90.99340000 -47.91920000
33.13790000 -54.34700000 -48.85310000
29.97950000 -80.59530000 -48.86660000
28.19780000 -77.44600000 -51.01970000
28.89200000 -55.74030000 -51.52880000
10.50580000 -75.90220000 -57.42550000
6.66740000 -74.19070000 -58.35210000
27.33560000 -50.65500000 -51.01910000
19.68810000 -49.49750000 -53.94120000
42.35540000 -77.65880000 -40.29640000
14.88000000 -96.18910000 -44.68800000
4.43980000 -69.20660000 -59.29520000
32.50760000 -49.00430000 -47.63570000
27.92650000 -45.46320000 -48.80920000
-0.67970000 -66.65950000 -59.67230000
20.12170000 -97.42140000 -41.03520000
40.79470000 -60.22140000 -44.38280000
3.30590000 -64.50660000 -59.49650000
-17.64340000 -86.34520000 -52.12400000
39.98880000 -55.57770000 -44.18800000
-22.58000000 -83.42290000 -51.67390000
41.64210000 -49.86390000 -40.68510000
16.86570000 -93.60580000 -46.60500000
37.02990000 -51.00190000 -45.11820000
-21.19810000 -82.00040000 -52.84300000
-18.95930000 -82.45640000 -53.36670000
37.28430000 -45.82970000 -42.77930000
32.38220000 -41.65620000 -44.44870000
-49.88000000 -31.78090000 -12.09910000
-27.13240000 -80.59220000 -50.78800000
-39.08730000 -25.92880000 -29.01220000
-32.64390000 -9.84490000 -23.54410000
-29.26820000 -8.20330000 -26.44260000
13.37140000 -17.67670000 -42.18460000
17.54520000 -14.56910000 -38.89790000
17.69860000 -24.32350000 -44.03320000
-25.42450000 -76.95350000 -52.91110000
-46.18810000 -25.52450000 -14.51010000
-14.21660000 -38.50500000 -51.76950000
-17.47590000 -39.87930000 -51.46120000
-18.55140000 -33.39900000 -48.18940000
-23.25980000 -42.19380000 -50.23750000
-41.31680000 -14.25730000 -9.81170000
20.89890000 -25.94530000 -43.45400000
-25.72180000 -7.49220000 -29.47650000
-28.98290000 -20.44120000 -35.42270000
-30.93230000 -16.40180000 -30.98440000
-24.89120000 -15.77760000 -35.49460000
23.55890000 -18.56470000 -37.96880000
-42.57230000 -37.43980000 -33.22050000
-36.32560000 -25.35930000 -31.96570000
-22.20070000 -76.98060000 -54.25890000
-28.83850000 -72.19950000 -52.55140000
-30.09400000 -30.29840000 -40.48640000
-26.30530000 -34.46000000 -45.06560000
-30.88970000 -43.63090000 -46.89820000
-23.38730000 -71.06110000 -55.16950000
-11.51340000 -60.60220000 -58.65820000
-16.05070000 -58.92070000 -57.57390000
-13.55190000 -54.64430000 -57.44640000
6.43370000 -53.61680000 -57.92660000
1.46800000 -54.49430000 -58.37400000
8.48630000 -55.62510000 -58.06170000
-9.71660000 -53.86750000 -57.82060000
-6.48830000 -58.75980000 -58.97230000
-19.83740000 -73.54810000 -55.90870000
5.36100000 -50.76000000 -57.35530000
-16.75620000 -53.18900000 -56.41350000
-14.75610000 -49.28340000 -55.82120000
-8.28160000 -48.76430000 -56.64360000
9.28900000 -48.29980000 -56.20240000
-30.00590000 -69.34780000 -52.33910000
-21.19590000 6.09640000 -23.88960000
-22.33100000 -5.75120000 -30.95660000
2.03990000 -59.22560000 -59.08630000
-1.28520000 -60.55230000 -59.36330000
-3.81710000 -54.89710000 -58.50780000
-34.43710000 -67.90970000 -49.92400000
3.34600000 -46.68050000 -56.29200000
-17.24510000 4.59070000 -27.70150000
-18.04470000 9.78730000 -23.75960000
-3.33360000 -49.76070000 -57.34210000
-0.00230000 -44.03450000 -55.48220000
-16.14010000 -2.43930000 -32.46790000
-6.21120000 -43.57190000 -55.11490000
-30.66280000 -64.89790000 -52.34170000
-25.56410000 -66.88770000 -54.78840000
8.20430000 -40.82580000 -53.79040000
5.37490000 -27.10700000 -48.38080000
4.08170000 -13.60110000 -41.91670000
8.52860000 -16.86420000 -42.95810000
-34.82080000 -29.92290000 -36.49670000
-33.52150000 -39.75570000 -43.09330000
-36.56370000 -38.96290000 -40.30430000
-0.06700000 -16.26910000 -43.46010000
4.15940000 -36.62560000 -52.60760000
-1.99420000 -7.78040000 -38.79330000
13.24380000 -47.65090000 -55.25030000
-26.84200000 -62.16550000 -54.26410000
19.65040000 -52.48130000 -54.80930000
-3.80250000 -37.18490000 -52.81950000
1.48190000 -4.83000000 -37.24000000
7.42260000 -3.38990000 -35.93070000
-16.85190000 -70.41050000 -57.39240000
15.58490000 -40.35270000 -52.01490000
4.32010000 -1.80620000 -35.52640000
-19.60610000 -48.86180000 -54.37270000
-9.72820000 -40.77680000 -53.60400000
-12.55570000 -46.46450000 -55.35040000
-5.19680000 -12.78390000 -41.39700000
-7.16360000 -3.24350000 -35.84730000
21.36220000 -45.37980000 -51.87310000
-17.93840000 -67.35280000 -57.45290000
13.25990000 -33.63790000 -49.87120000
-10.88470000 -35.78220000 -51.41190000
-21.26840000 -31.62880000 -46.22520000
-7.07930000 -30.28900000 -49.69180000
-14.64890000 -64.36920000 -58.34840000
8.85420000 -32.63490000 -50.41420000
-3.01160000 1.31380000 -33.94460000
-11.03140000 -27.41260000 -47.66320000
-23.39830000 -64.99660000 -55.80710000
-0.36240000 -28.19760000 -49.13570000
-22.77090000 -23.32590000 -41.17860000
-22.40490000 -59.64400000 -55.82340000
-19.96200000 -63.09620000 -56.97900000
11.46810000 -4.40160000 -35.42690000
-6.26390000 -19.07550000 -44.46990000
-14.89170000 -25.76600000 -45.81500000
-26.78430000 -57.35380000 -53.79710000
-53.03720000 -42.53450000 -18.74770000
-50.09340000 -35.89100000 -18.08840000
15.21310000 -1.76250000 -32.54190000
-20.44570000 -54.95000000 -55.87410000
-17.91540000 -15.79150000 -39.41860000
-50.42750000 -45.25530000 -27.82950000
-49.51340000 -39.47800000 -23.97380000
-36.43920000 -62.90270000 -48.86100000
-46.88560000 -40.54510000 -29.66490000
-38.78040000 -57.91010000 -46.64410000
-26.15570000 -21.41170000 -38.09190000
-46.81190000 -46.56860000 -34.38670000
-31.58010000 -60.77850000 -51.71400000
-33.48300000 -57.91740000 -50.26540000
1.32570000 2.62960000 -33.38660000
-22.48470000 -12.84880000 -35.34000000
-11.57700000 -6.87280000 -36.73660000
-11.56530000 2.76390000 -31.39860000
-13.33340000 -13.54510000 -40.02210000
-10.09860000 -13.03950000 -40.69050000
-9.04920000 5.69240000 -30.56200000
22.14040000 -39.77260000 -49.33830000
-37.85910000 -54.37080000 -46.64430000
-41.80630000 -51.06040000 -42.17170000
-36.03440000 -50.05550000 -46.54000000
-40.01860000 -47.84970000 -42.36620000
-5.11990000 6.11550000 -31.14610000
-41.01130000 -15.86480000 -13.86440000
17.19230000 -30.74490000 -47.35190000
-45.37110000 -49.04590000 -37.55780000
-32.70620000 -52.99040000 -49.75960000
-12.47970000 8.34750000 -27.91410000
-14.40770000 10.52180000 -25.52810000
-10.68140000 10.96420000 -26.84830000
-9.50050000 9.80580000 -28.18340000
23.22950000 -31.90390000 -45.32600000
-28.05450000 -53.48260000 -52.44640000
-40.77370000 -41.24170000 -37.74540000
-23.91030000 -53.00320000 -54.22900000
34.39860000 -37.07540000 -40.61440000
39.39580000 -42.46500000 -39.15230000
-6.50240000 10.42400000 -28.45850000
-24.88390000 -48.73560000 -52.37340000
-29.26190000 -47.81500000 -49.84380000
-44.34090000 -25.14430000 -19.06430000
-39.40540000 -16.55190000 -18.87000000
-37.08140000 -14.27210000 -20.91980000
-1.97770000 8.72880000 -30.00250000
4.49240000 6.31310000 -31.08960000
27.53790000 -35.48320000 -44.65440000
7.56030000 6.87270000 -30.25630000
4.68860000 9.95120000 -29.00520000
1.21720000 9.95950000 -29.32800000
28.45680000 -31.09950000 -41.87180000
-3.91850000 11.62700000 -28.13650000
-8.89550000 12.85780000 -26.40950000
-5.13320000 14.90440000 -26.29400000
-0.62970000 12.00800000 -28.11320000
-34.75330000 -5.32880000 -14.86580000
-1.24910000 12.70100000 -27.62160000
2.64200000 12.76810000 -27.78100000
-0.60460000 14.87320000 -26.84850000
-34.16300000 -1.18780000 -9.70410000
-6.06920000 -64.58630000 -59.51760000
-3.43870000 19.71190000 -24.37190000
10.43990000 -25.80130000 -46.91020000
-42.94350000 -28.25880000 -25.34510000
-31.11780000 -14.99350000 30.79990000
-31.08170000 -10.50840000 27.29830000
-39.91330000 -10.28320000 6.22980000
-36.36060000 -5.46460000 10.57020000
-32.61350000 2.70060000 6.45110000
-24.63840000 2.95020000 23.39000000
-21.57430000 12.85330000 17.86800000
-25.93910000 5.75670000 18.87940000
-35.66990000 -1.77970000 1.53060000
-23.70700000 12.63310000 14.76250000
-24.93340000 12.88630000 11.95780000
-40.74840000 -20.30430000 21.84280000
-40.89430000 -17.27390000 17.29470000
-15.50200000 4.93560000 29.79790000
-19.48450000 3.49790000 28.04370000
-26.15580000 -9.40430000 31.60960000
-21.32530000 4.56210000 25.67350000
-18.96540000 12.72960000 21.23390000
-30.76820000 -0.83400000 18.08100000
-34.90380000 -5.46410000 15.28170000
-35.71870000 -10.42760000 20.07010000
-6.64420000 6.21800000 32.66750000
-9.99920000 6.02650000 31.78980000
-41.65380000 -15.54350000 11.57190000
-14.39530000 -2.69670000 35.21880000
-33.91450000 -11.57190000 24.41690000
-26.52610000 12.36840000 8.83270000
-23.93650000 16.82340000 8.72610000
-31.04960000 3.53170000 10.87760000
-40.81680000 -11.20510000 1.88450000
-12.08080000 15.41230000 24.97450000
-14.65110000 17.44960000 21.77120000
-16.01830000 12.17230000 24.38250000
-31.03860000 6.58340000 2.69060000
-17.09490000 17.08130000 19.50090000
-13.23220000 23.66400000 19.16800000
-40.55700000 -10.67120000 -1.54460000
-10.62180000 23.15240000 21.47740000
-19.98680000 17.25600000 15.69720000
-24.77550000 17.69050000 4.26880000
-22.62460000 20.61730000 7.29810000
-22.02550000 17.10660000 12.54500000
-28.57840000 5.68980000 14.04130000
-20.27100000 20.61430000 12.43020000
-16.29160000 21.88260000 17.04890000
-22.50500000 -10.19180000 35.12030000
-28.07120000 10.94580000 6.13290000
-19.59310000 26.92060000 7.99880000
-17.52000000 26.06960000 12.44390000
-26.64500000 14.36350000 3.58420000
-14.12270000 28.36620000 15.32640000
-11.69060000 11.95490000 27.48310000
-16.10670000 31.04230000 11.31660000
-8.06260000 15.78720000 26.82410000
-4.96880000 15.04500000 28.13690000
-22.00720000 23.98650000 4.09820000
-18.89400000 31.23260000 5.61990000
-20.48510000 28.79260000 2.74910000
-22.99120000 23.01820000 -0.34030000
-20.26170000 30.30410000 0.83340000
-8.56480000 17.40530000 -24.23090000
-19.60520000 23.56010000 -12.48890000
-19.25840000 20.85740000 -15.03580000
-22.25050000 19.84260000 -10.87470000
-25.13310000 12.24470000 -13.20750000
-27.15330000 10.59820000 -10.91880000
-8.44490000 21.92720000 -22.14780000
-13.52520000 18.89320000 -21.20950000
-10.75930000 26.13550000 -19.16460000
-20.93420000 26.59490000 -6.60270000
-23.61750000 18.97470000 -8.32720000
-25.79440000 14.55560000 -7.98840000
-14.66800000 24.09730000 -17.75910000
-19.45130000 17.85050000 -16.80190000
-15.71590000 27.22240000 -15.04000000
-20.10710000 12.59560000 -19.90590000
-35.99290000 -2.86950000 -5.26710000
-18.16120000 36.26610000 2.19700000
-34.55830000 0.22490000 -2.44980000
-17.65970000 14.77300000 -20.66590000
-14.87820000 14.52450000 -22.75790000
-23.28060000 9.38660000 -19.01600000
-26.05210000 7.37800000 -17.09160000
-15.84940000 31.34280000 -12.72210000
-19.45350000 28.10650000 -8.78390000
-17.70980000 31.51250000 -9.87680000
-11.78700000 14.55470000 -24.41930000
-18.30320000 32.64040000 -7.69690000
-6.77860000 27.02800000 -20.47460000
-19.21370000 33.79260000 -1.02800000
-22.69660000 23.58540000 -3.26220000
-21.42370000 26.56030000 -4.63760000
-22.59630000 15.11110000 -14.66780000
-18.73700000 33.97750000 -4.38700000
-13.86490000 31.57920000 -14.76500000
-12.13990000 29.39910000 -16.92070000
-29.40730000 9.82310000 0.77060000
-29.38270000 9.73330000 -3.35540000
-28.93440000 9.56780000 -6.78780000
-11.93110000 34.45440000 -15.09330000
-25.04770000 18.15270000 1.26520000
-25.04050000 17.41230000 -5.36150000
-27.87050000 12.38970000 -2.10830000
-24.98720000 18.37800000 -1.46310000
-15.93160000 38.22710000 -8.59640000
-17.35890000 38.84970000 -3.57630000
-16.64270000 40.05770000 -5.58300000
-16.28140000 35.29150000 8.32140000
-16.05600000 44.75650000 0.69660000
-14.39140000 37.03320000 -11.55460000
56.91440000 -74.71430000 -17.03470000
59.57040000 -58.11070000 7.49820000
60.14090000 -62.08810000 6.88980000
60.41630000 -61.61110000 2.50410000
59.63730000 -56.72130000 2.64830000
53.74490000 -78.05410000 21.99850000
55.90150000 -80.81560000 11.48860000
57.82160000 -77.35340000 8.36790000
59.70130000 -61.89460000 -9.80830000
59.29660000 -65.27430000 -12.30850000
58.24630000 -59.04180000 -15.12710000
57.87360000 -63.64140000 -17.83500000
55.79400000 -76.26790000 18.32180000
60.45330000 -62.58020000 -2.78130000
59.99500000 -58.90370000 -3.43600000
59.90440000 -57.52020000 0.84360000
57.40180000 -69.21510000 -18.64220000
58.29250000 -72.39410000 -13.85760000
50.32000000 -73.60580000 31.59900000
50.29120000 -67.65070000 33.86660000
58.96520000 -57.83670000 -11.31210000
59.41980000 -55.80370000 -3.60300000
52.63010000 -71.20200000 28.94130000
57.42210000 -63.24100000 19.98440000
58.99800000 -65.04220000 14.06160000
58.01070000 -60.82000000 17.51900000
56.78280000 -59.06860000 -20.18450000
55.57130000 -62.61080000 -24.05780000
59.54420000 -61.81390000 11.01540000
58.39130000 -55.64030000 12.70540000
57.66100000 -74.61520000 13.86330000
55.28110000 -58.49660000 -23.92480000
54.36130000 -68.21440000 26.69600000
52.57030000 -66.00330000 30.57380000
55.50460000 -69.66640000 -23.71570000
57.78890000 -56.86670000 16.07000000
59.03130000 -72.95270000 9.19100000
55.31570000 -66.04370000 -24.74300000
47.70700000 -66.37350000 37.51430000
57.16770000 -53.85620000 -15.85830000
59.04830000 -75.25380000 3.28920000
45.65090000 -67.28120000 39.74500000
58.53700000 -67.19800000 -15.26390000
49.50200000 -63.68560000 35.47360000
52.71160000 -62.72460000 30.40070000
59.79090000 -70.72410000 6.54440000
55.66790000 -54.95200000 -21.36880000
55.09430000 -50.55450000 -19.56040000
57.02100000 -50.42650000 -12.16330000
56.01980000 -70.52040000 22.04090000
56.29670000 -66.12740000 22.65910000
59.01810000 -53.28680000 -1.43110000
58.73600000 -53.00550000 -5.65510000
55.17460000 -49.45330000 19.04970000
58.18160000 -70.98120000 15.09940000
58.15190000 -66.94110000 17.12160000
56.63180000 -48.84430000 13.26090000
54.34170000 -73.53730000 24.39160000
58.14480000 -51.85470000 9.43600000
58.02190000 -49.37570000 2.45070000
57.99790000 -49.97010000 -4.14600000
59.05250000 -55.39850000 -7.77470000
58.33190000 -53.03530000 -8.78050000
60.37850000 -66.04880000 -4.73020000
60.02130000 -70.78590000 -4.41030000
59.81080000 -67.71100000 -8.70210000
58.85140000 -74.30270000 -8.49720000
57.03490000 -48.07750000 -8.12520000
58.80930000 -53.04220000 4.88160000
54.80820000 -63.94830000 26.55580000
59.73270000 -73.03620000 -0.97060000
57.13570000 -46.41860000 -1.41160000
50.41170000 -61.17840000 34.01200000
59.86830000 -66.31200000 9.46390000
55.51490000 -48.53550000 -16.23830000
60.35510000 -68.09770000 3.91470000
60.50280000 -67.57460000 -0.25570000
54.33050000 -59.90130000 26.88840000
55.98810000 -60.76190000 23.50270000
60.19510000 -63.05840000 -7.10240000
59.76090000 -59.17570000 -7.24800000
55.84040000 -45.81830000 -11.21670000
60.27180000 -64.52470000 6.54250000
54.72200000 -41.53500000 -8.33460000
54.36010000 -42.72500000 -12.29150000
54.14270000 -45.43100000 -17.42500000
53.09520000 -53.42860000 26.57520000
55.46560000 -54.74580000 21.98070000
52.98620000 -41.12390000 -15.51120000
51.96670000 -41.16090000 -18.53650000
56.51500000 -46.02340000 8.99520000
55.54770000 -42.34790000 -4.39330000
50.45120000 -37.06430000 19.38160000
52.35390000 -42.50100000 20.53210000
53.28000000 -40.40490000 14.89880000
28.49790000 -36.36580000 45.96600000
32.16150000 -43.23690000 46.49380000
44.87140000 -18.40120000 4.26530000
49.31190000 -27.00380000 2.81140000
47.16790000 -22.82800000 -1.73380000
41.22500000 -12.49410000 8.74030000
34.08570000 1.68480000 9.24560000
40.32260000 -13.42580000 14.50260000
42.95720000 -62.64450000 42.92850000
37.94700000 -4.98780000 4.79470000
38.70000000 -61.93450000 46.64590000
50.41060000 -29.55370000 -3.54270000
47.03680000 -23.46250000 -6.12690000
45.84040000 -30.15180000 23.06130000
48.44140000 -38.10700000 25.30380000
38.92920000 -8.17570000 -3.40360000
39.33820000 -10.37450000 -6.65380000
37.83520000 -7.99900000 -8.35850000
40.51080000 -58.66310000 44.81630000
37.78970000 -4.57640000 0.77430000
41.35550000 -12.02640000 0.29880000
49.43620000 -28.66820000 -7.37890000
47.17780000 -25.00010000 -9.96980000
45.51890000 -21.44540000 -8.73780000
46.20000000 -61.33200000 39.50910000
35.24900000 -38.49660000 42.07500000
37.56630000 -46.68530000 43.86050000
37.58580000 -5.09000000 -3.94610000
44.69800000 -57.75990000 40.54720000
31.14040000 -34.12230000 43.17310000
42.95850000 -52.14480000 40.75340000
43.92760000 -17.18560000 -4.41670000
49.06900000 -29.28010000 12.49900000
36.72630000 -57.36170000 47.62160000
43.38620000 -15.60730000 0.38030000
52.88860000 -35.25950000 5.50740000
54.07410000 -39.74160000 10.06410000
33.18140000 1.26730000 13.23020000
55.72790000 -42.06200000 2.02200000
45.71580000 -22.00960000 11.35950000
47.93710000 -25.10810000 7.77780000
36.25250000 -53.50700000 47.14330000
24.80810000 -29.26060000 44.81440000
43.21750000 -45.01040000 37.55440000
34.76140000 -5.79110000 18.25700000
30.33900000 4.16560000 16.47870000
33.68940000 -21.44600000 33.78130000
38.74750000 -27.41960000 32.11180000
35.76010000 -19.27570000 29.75870000
38.45800000 -38.47250000 39.17710000
30.92160000 -14.12510000 31.21760000
42.07640000 -38.74830000 35.37270000
33.28020000 -12.11440000 26.75490000
39.84640000 -52.13600000 43.81290000
41.71820000 -12.58230000 4.25670000
52.83640000 -35.16430000 -3.12020000
52.41090000 -33.69050000 1.85080000
41.78080000 -13.41970000 -2.92230000
43.34810000 -18.44640000 -11.26270000
32.63580000 6.35250000 3.61570000
26.70920000 -9.16250000 31.69890000
30.18020000 -17.92020000 34.69580000
40.91210000 -13.58910000 -8.80280000
48.56170000 -58.11180000 35.94190000
52.36230000 -35.22370000 -7.31210000
32.32420000 6.90860000 0.08460000
52.74800000 -38.55930000 -12.31070000
50.59840000 -32.79580000 -11.08220000
51.55080000 -57.67520000 31.38750000
48.48500000 -50.78950000 33.46460000
46.94990000 -52.63580000 36.32330000
44.59540000 -38.42030000 31.94690000
50.19780000 -48.88010000 29.73990000
43.22240000 -29.46680000 27.28800000
46.49170000 -38.86680000 29.52750000
27.20910000 1.30610000 23.92530000
31.75760000 -3.74190000 21.74480000
26.71220000 8.17380000 19.01050000
16.72720000 -24.04730000 46.13510000
34.01780000 -29.70640000 38.53800000
24.05260000 0.30170000 27.95300000
23.68580000 9.23640000 22.18070000
17.92450000 -11.22340000 38.74670000
19.15930000 -4.43470000 34.28080000
14.26020000 -3.52320000 36.15940000
48.75810000 -30.19010000 -13.55860000
51.85820000 -45.93150000 24.68740000
22.95460000 -6.69920000 33.24420000
18.71290000 8.69750000 26.91960000
21.15880000 10.56900000 23.73210000
36.09010000 -28.26020000 35.69470000
20.65680000 -21.54210000 43.19880000
38.82290000 -21.38480000 27.22310000
20.11350000 14.87470000 21.49480000
17.04670000 12.87820000 25.22880000
45.69260000 -25.63760000 18.01060000
30.16240000 8.26930000 12.20570000
46.71820000 -44.36800000 32.88870000
49.61390000 -43.44910000 27.49690000
23.71630000 -20.16270000 40.77250000
28.13930000 9.32080000 15.67290000
26.04690000 13.59380000 14.69030000
10.69890000 9.26390000 30.52490000
27.77580000 11.92410000 13.07110000
27.89230000 13.34970000 10.84170000
30.91210000 9.37460000 6.80410000
29.43450000 13.11570000 3.06950000
42.07030000 -21.21380000 21.17680000
33.37480000 -49.29670000 47.92240000
28.82510000 -22.69740000 38.84420000
14.06830000 9.26230000 29.32050000
28.07440000 14.93450000 6.98570000
51.94910000 -38.18920000 -14.62440000
13.61600000 12.42750000 27.43860000
26.19020000 20.89000000 3.66570000
22.59460000 14.02130000 19.59600000
16.97630000 20.22300000 21.08230000
38.18400000 -15.43390000 22.17950000
23.84100000 15.62330000 16.51810000
23.48180000 20.33930000 13.28620000
19.88650000 18.23610000 19.70030000
21.56010000 20.79640000 16.10950000
22.31480000 22.75790000 13.30730000
25.79650000 18.62520000 9.66200000
24.19480000 20.74200000 11.48150000
25.32140000 21.43230000 7.28020000
23.76060000 24.28180000 8.74170000
23.31690000 26.81920000 6.27540000
53.00950000 -63.62290000 -29.40670000
52.98870000 -54.63360000 -27.31890000
54.12790000 -51.63780000 -22.93010000
52.94320000 -58.26050000 -28.63810000
49.33880000 -53.07150000 -32.72200000
50.28150000 -56.90460000 -32.78650000
51.45550000 -48.99660000 -26.79900000
45.69720000 -50.46100000 -36.44810000
48.74230000 -48.14210000 -31.08330000
52.17780000 -44.87630000 -21.69610000
48.19000000 -44.19730000 -29.13760000
45.18450000 -46.92960000 -35.32520000
51.09540000 -62.67840000 -32.58070000
42.51670000 -43.26310000 -36.30710000
44.43620000 -39.12540000 -31.08280000
48.85190000 -40.93520000 -25.30740000
8.80850000 19.76130000 -23.44880000
7.26120000 13.47020000 -26.79070000
5.45670000 16.45170000 -25.74260000
34.07720000 -30.39750000 -37.04390000
28.70630000 -23.38970000 -37.31090000
1.64920000 18.14440000 -25.37770000
5.64040000 21.68020000 -23.54960000
2.82150000 24.23510000 -22.76080000
39.28250000 -35.13170000 -34.83910000
19.30490000 2.50130000 -27.84330000
20.27740000 -8.69670000 -33.92960000
15.56830000 5.42970000 -28.30480000
34.49870000 -24.75540000 -33.09890000
39.53960000 -30.57990000 -31.45100000
12.72760000 4.87090000 -29.89790000
36.08440000 -21.61360000 -29.10330000
50.43890000 -41.38100000 -22.30520000
29.29040000 6.62750000 -13.35200000
34.91150000 -6.92950000 -17.21830000
29.20500000 2.83700000 -17.56770000
33.07850000 -17.95530000 -29.84010000
33.98380000 -14.18230000 -25.78020000
48.58970000 -36.36190000 -21.57790000
11.21930000 8.49940000 -28.36050000
12.92650000 11.99750000 -25.61350000
17.70500000 8.80700000 -25.01590000
29.45070000 -15.79100000 -31.79600000
20.55760000 6.91610000 -24.19720000
15.94850000 15.39580000 -22.23030000
51.17260000 -38.68420000 -17.69820000
26.81760000 -4.63380000 -26.31960000
9.74840000 3.40010000 -31.74610000
11.97170000 19.40500000 -22.42890000
10.53110000 15.15540000 -24.92120000
30.77390000 -9.87670000 -26.04330000
51.08860000 -37.32490000 -16.63340000
38.92560000 -13.19690000 -15.82460000
44.35430000 -24.13540000 -17.79730000
41.33290000 -21.38200000 -21.05160000
24.00680000 -7.40850000 -30.60660000
40.69750000 -27.51310000 -27.71050000
48.29160000 -31.67480000 -17.16870000
23.33030000 7.38340000 -21.45960000
20.89240000 14.88700000 -18.48990000
38.47940000 -20.80210000 -25.30120000
46.30710000 -26.29440000 -15.49410000
18.11060000 16.57760000 -20.00680000
26.90280000 13.91100000 -10.03970000
33.47320000 1.84490000 -8.41400000
32.48830000 1.45920000 -12.33760000
44.00630000 -31.88150000 -26.19800000
19.57770000 20.07180000 -16.76900000
16.02460000 25.21000000 -17.33720000
44.04110000 -20.67760000 -13.23250000
28.60870000 14.39580000 -2.34460000
31.96940000 6.69540000 -4.26600000
38.07950000 -15.77040000 -21.21370000
31.70210000 -6.63610000 -22.30210000
27.47670000 15.06390000 -6.72810000
26.84950000 3.29960000 -20.48510000
45.25900000 -29.56470000 -21.82460000
27.76320000 17.18480000 0.68690000
9.85740000 26.43620000 -20.41640000
13.71200000 23.57260000 -19.66810000
22.84390000 27.45880000 -5.51590000
24.86530000 24.12890000 -1.98980000
24.84220000 15.31870000 -12.85010000
23.18700000 14.47970000 -16.21040000
34.69270000 -10.55560000 -21.60010000
20.09160000 24.83900000 -13.30030000
21.57560000 24.53480000 -11.24130000
36.53980000 -7.40170000 -13.44200000
9.13430000 10.05560000 -28.07600000
23.57010000 22.58270000 -8.94610000
26.46100000 -16.95490000 -35.09270000
20.36680000 31.34320000 -8.15770000
24.03090000 26.77250000 1.70910000
11.91800000 28.51300000 -18.72530000
16.89360000 29.34730000 -14.40150000
17.91860000 31.05970000 13.83880000
16.70480000 30.81150000 15.56730000
18.71140000 26.57200000 15.85000000
18.41330000 30.03900000 13.94230000
-8.76040000 36.55900000 16.38460000
-10.55790000 36.14590000 15.04440000
-10.94680000 30.00300000 17.46620000
14.46070000 32.33210000 16.71850000
13.36770000 30.19330000 18.66310000
15.93690000 32.98420000 14.61980000
13.62620000 32.80690000 16.71410000
16.23350000 32.79870000 14.92240000
-5.10770000 49.83830000 14.76510000
-8.78960000 46.29800000 13.24320000
-6.69950000 43.73600000 15.27510000
-7.66930000 31.28830000 19.19850000
16.57460000 33.88150000 13.56850000
12.59700000 35.45890000 16.40840000
-5.74440000 37.34710000 17.88630000
11.46260000 34.13230000 18.04290000
9.96100000 33.63250000 19.23070000
12.70840000 32.75280000 17.86570000
-4.16580000 45.01380000 16.28470000
13.09890000 33.53740000 16.83390000
9.25590000 47.30070000 15.41400000
7.52070000 47.37240000 16.33680000
7.38760000 41.97770000 17.63170000
1.20090000 41.61640000 18.58290000
-1.75030000 41.90400000 17.97110000
-2.31730000 36.40540000 19.55500000
10.44110000 35.86060000 18.13780000
1.76470000 8.78770000 32.27530000
14.73640000 18.78300000 23.40480000
-14.10070000 37.33940000 10.78990000
-12.73040000 35.78100000 13.16450000
3.47940000 38.33050000 19.61330000
5.34580000 48.63620000 16.60380000
3.31190000 49.57840000 16.63070000
-0.97700000 50.04770000 16.17090000
4.25230000 16.00560000 28.18300000
0.75940000 22.69360000 25.31370000
0.07220000 15.74600000 28.39940000
11.97200000 39.94790000 15.37320000
14.67750000 37.65040000 13.69470000
1.52940000 48.60870000 16.77800000
23.03700000 24.60110000 10.28870000
21.41850000 24.48240000 13.44830000
21.38870000 26.00680000 12.22530000
-10.82670000 46.23560000 11.41110000
3.41250000 24.39560000 24.51140000
-2.45910000 51.91310000 15.43900000
21.97720000 28.69940000 8.25210000
20.58760000 29.16720000 11.01320000
7.31720000 9.27270000 31.43140000
-2.26990000 26.15410000 23.57540000
0.86440000 30.23030000 22.31740000
11.81180000 25.04910000 21.93100000
12.56510000 17.42540000 25.18450000
19.73620000 28.23970000 13.22630000
19.57050000 26.53150000 14.89580000
18.79480000 31.80930000 12.04110000
18.64840000 31.61710000 12.76610000
18.24630000 31.39210000 13.44120000
-1.54980000 32.57260000 21.09320000
-5.41340000 30.24770000 20.71720000
-3.13640000 29.17900000 21.98420000
5.23370000 39.90460000 18.88540000
-1.70230000 10.61310000 31.19210000
-5.39880000 23.05140000 24.12280000
-2.09080000 19.71490000 26.38850000
4.18480000 10.43470000 31.23770000
19.45980000 33.46130000 9.73620000
10.20990000 15.93670000 26.85900000
8.15340000 19.23050000 25.80760000
21.36270000 31.82920000 6.08630000
17.43500000 32.58510000 13.88230000
17.89480000 32.34300000 13.05260000
18.00190000 33.12180000 12.58330000
17.47790000 34.21140000 12.34580000
1.77720000 56.75730000 15.27030000
18.80580000 34.29220000 10.55950000
1.04810000 36.39720000 20.14210000
4.29710000 55.07320000 15.33530000
20.37540000 24.19830000 15.44800000
16.57000000 37.58560000 11.51670000
14.78880000 42.32810000 11.71680000
18.23030000 37.14300000 9.28280000
11.24680000 44.54740000 14.53630000
10.31770000 38.80490000 17.03190000
7.05220000 24.33930000 23.87990000
4.50660000 29.62380000 22.39350000
-7.98470000 22.55230000 23.31860000
9.18630000 42.13970000 16.71370000
20.52580000 24.51050000 14.54580000
20.04560000 25.88140000 14.37480000
6.98570000 35.80960000 19.69450000
11.04700000 47.47520000 13.96970000
9.96710000 48.23070000 15.06170000
7.94890000 50.11300000 15.55930000
9.05030000 48.83630000 15.53740000
7.53510000 30.23400000 21.54930000
6.78990000 54.34400000 14.92300000
9.21350000 52.72160000 14.39580000
9.51450000 27.77100000 21.74600000
10.35920000 52.24660000 13.94100000
7.49020000 12.36410000 29.48680000
7.21070000 91.24100000 -15.25210000
8.26450000 81.56330000 -13.22260000
5.13450000 85.70480000 -14.95200000
-11.06540000 97.83910000 -9.99560000
-13.26670000 101.52800000 -8.00330000
-10.63960000 99.38800000 -11.28780000
-13.41230000 98.64940000 -5.44130000
-12.45990000 98.01310000 -7.55460000
9.05790000 90.56430000 -14.23450000
6.54120000 60.68010000 13.96950000
4.71970000 65.68820000 14.11440000
4.54290000 59.29140000 14.62230000
5.08250000 92.61850000 -16.12390000
11.03780000 93.28080000 -10.83950000
8.80120000 94.19050000 -12.43300000
10.34960000 89.50570000 -9.54310000
7.11540000 64.84140000 13.38860000
15.68690000 85.80880000 -5.00480000
15.70680000 85.37510000 -5.39310000
15.01640000 86.47850000 -7.35490000
15.21180000 86.60600000 -6.62030000
8.68520000 58.11590000 13.43530000
15.86620000 86.45620000 -5.21460000
-2.06480000 24.06420000 -22.68650000
15.52240000 87.38700000 -6.25940000
16.18770000 86.24920000 -3.24550000
16.17810000 87.49240000 -4.31020000
16.00460000 87.82930000 -5.46390000
15.41730000 88.38020000 -6.97440000
15.85370000 89.13550000 -6.25680000
16.29030000 89.08330000 -4.56720000
15.22630000 89.01340000 -7.13430000
15.42380000 89.64730000 -7.14720000
14.43660000 89.68770000 -8.96130000
13.63120000 89.15750000 -10.02030000
9.56870000 96.44960000 -15.48350000
-7.63410000 91.05990000 -12.09910000
-5.14390000 94.42420000 -14.68260000
-4.48220000 85.09130000 -13.49210000
14.93240000 89.88490000 -8.40040000
11.09340000 92.89230000 -13.45870000
12.03980000 90.69030000 -12.12230000
15.42280000 49.21480000 7.97090000
15.04490000 46.30880000 9.84460000
16.78140000 44.92520000 7.38290000
16.18610000 90.04070000 -5.14750000
13.59420000 92.70260000 -11.11700000
-5.31250000 30.95190000 -19.60310000
-2.54490000 30.62410000 -20.39100000
18.00220000 43.13880000 5.35280000
17.34150000 48.21140000 3.26800000
-7.76120000 96.48220000 -13.34730000
16.44520000 49.48880000 5.42160000
18.31770000 43.97770000 3.14010000
11.55210000 95.16440000 -13.70070000
-0.01560000 25.96030000 -22.17300000
14.24290000 95.46620000 -8.36740000
11.97320000 89.98900000 -8.28400000
14.01010000 91.03010000 -5.92520000
15.35890000 90.45230000 -7.41230000
-2.00720000 94.08730000 -16.02900000
-0.23090000 84.91770000 -14.89650000
-2.71220000 85.19900000 -14.30910000
15.36690000 91.79400000 -8.14360000
9.44450000 61.90000000 12.50880000
15.87440000 91.10710000 -6.63240000
16.30430000 91.24340000 -5.38730000
16.61420000 91.89600000 -5.07980000
17.03240000 92.36970000 -3.36770000
12.54110000 49.67810000 11.94150000
14.43870000 50.36770000 9.25440000
16.18840000 91.85990000 -6.53250000
0.18970000 31.56330000 -20.37250000
15.67360000 92.59540000 -7.52750000
-13.60900000 103.90050000 -9.79500000
-9.63540000 100.93180000 -13.30910000
16.52150000 92.88900000 -6.05840000
-12.80120000 105.76520000 -13.10210000
1.61720000 89.97480000 -15.87920000
16.03200000 53.23180000 4.34650000
15.59630000 55.12470000 4.59090000
15.47370000 54.16460000 5.91410000
9.01320000 65.10840000 12.35370000
15.05910000 58.48610000 5.14750000
15.12710000 55.69540000 5.89310000
15.79910000 58.01570000 2.36810000
16.30970000 55.05360000 1.45520000
-8.05030000 32.60360000 -18.10780000
15.82790000 93.33400000 -7.83540000
16.23220000 56.17500000 -0.17680000
16.44360000 53.70390000 -2.12780000
15.54890000 58.87200000 -3.06120000
15.74970000 54.66370000 -4.20130000
3.16450000 66.69260000 14.30750000
0.98780000 69.28650000 14.29200000
1.76360000 63.06240000 14.58240000
14.82390000 92.79720000 -9.34930000
-6.72850000 36.57910000 -17.25680000
14.15440000 57.60430000 7.41880000
-2.77310000 98.49090000 -16.90220000
12.63820000 94.36780000 -9.76880000
-1.53970000 92.04010000 -12.04970000
0.37230000 96.14760000 -14.02620000
-2.63970000 97.62480000 -13.50510000
-5.96470000 99.11420000 -15.58970000
11.34060000 96.47090000 -11.74020000
15.21210000 95.98800000 -10.25390000
15.80980000 51.38530000 6.08050000
2.49830000 95.70720000 -14.17700000
4.09750000 89.31360000 -12.09860000
4.53100000 97.48390000 -14.77170000
2.10510000 96.34230000 -17.20780000
16.14960000 94.11250000 -7.23270000
16.72370000 51.51440000 2.88030000
16.19770000 95.92150000 -8.33760000
15.39150000 52.50120000 6.65160000
13.28590000 97.98230000 -13.36510000
14.68030000 53.04900000 7.86340000
13.84540000 54.82240000 8.76490000
5.42060000 71.67930000 13.72060000
2.28020000 79.54440000 14.57600000
-1.13220000 84.19830000 14.49560000
0.03870000 76.74130000 14.32360000
-7.22730000 42.90860000 -15.37670000
-5.24980000 39.13250000 -17.18340000
14.74940000 54.90090000 7.22380000
6.62620000 95.54740000 -13.76630000
-1.44870000 38.40040000 -18.26830000
5.01830000 83.01400000 14.33940000
3.74310000 74.82880000 14.23490000
6.19810000 97.02340000 -16.97180000
6.02650000 28.64960000 -20.84010000
17.93190000 46.60630000 -0.74600000
17.70670000 46.25480000 -3.03090000
17.29840000 48.82820000 -1.91180000
18.07960000 45.85620000 1.22840000
17.42990000 48.79420000 1.17360000
14.22470000 62.78810000 6.08390000
13.37950000 60.09520000 8.18390000
-2.38010000 77.51280000 13.76430000
17.24490000 49.82950000 2.08240000
-4.94180000 71.18550000 12.35140000
-6.39250000 64.42030000 11.61630000
-3.71300000 64.89050000 13.20600000
15.42970000 63.34080000 1.66080000
-3.15270000 70.77040000 13.25600000
-3.17490000 80.29380000 9.63000000
-1.72170000 88.65840000 11.92010000
-1.32370000 82.07160000 10.64810000
15.09920000 62.71700000 3.70410000
-0.78980000 63.85430000 14.29560000
16.91640000 51.59890000 -0.45600000
1.36420000 84.84550000 11.55630000
2.52760000 73.01720000 10.85400000
-0.24450000 72.96500000 10.48380000
-0.80320000 70.11070000 13.93950000
3.64920000 32.41530000 -20.01600000
15.63890000 61.82330000 0.16480000
15.42670000 62.34700000 -2.22250000
0.58850000 87.40530000 15.14330000
15.93220000 50.93150000 -5.47640000
-7.26050000 67.80770000 10.64360000
-6.42820000 76.51350000 11.50030000
16.54070000 50.44160000 -3.74140000
-3.57430000 88.32290000 10.99420000
-0.40050000 102.45600000 -15.96940000
7.08800000 33.73520000 -18.93320000
-2.32840000 91.03140000 15.14480000
-4.67850000 85.57950000 13.27950000
-3.84230000 80.88420000 13.30220000
-0.22870000 100.12020000 -18.10320000
0.65090000 93.59300000 13.59270000
-2.73850000 101.31240000 -17.94470000
9.21220000 33.99530000 -18.02850000
14.65070000 66.12410000 4.41100000
15.10640000 66.95320000 2.45280000
12.36530000 65.10180000 8.90450000
3.36910000 88.56180000 15.19720000
2.20050000 38.50360000 -18.39040000
2.99280000 86.27750000 11.79680000
5.13640000 73.06630000 10.60060000
5.38490000 85.13170000 10.96070000
8.00180000 84.35470000 13.30300000
7.67460000 79.36130000 13.21530000
6.00820000 87.92040000 14.57890000
7.43250000 73.10950000 9.61730000
-8.60670000 103.77530000 -16.01970000
6.14210000 87.08760000 11.46440000
15.23530000 65.63880000 -1.80990000
15.29310000 67.57560000 0.32480000
4.14740000 42.51340000 -17.29080000
6.04310000 43.17580000 -16.68620000
-8.00920000 76.31370000 9.96820000
3.39360000 94.42860000 13.95680000
14.10540000 67.84580000 5.57930000
-6.62170000 104.40450000 -17.70470000
5.61730000 95.46580000 13.92740000
-4.05570000 72.89340000 8.73630000
-4.85170000 72.87840000 8.19340000
-3.80490000 77.16010000 9.07120000
-5.74690000 72.86150000 7.68520000
-7.49220000 77.29980000 5.48860000
-6.75630000 72.84250000 6.65030000
-7.59030000 72.82690000 5.19060000
-5.28360000 77.83710000 7.91100000
14.45610000 58.62050000 -5.98970000
14.79300000 60.11420000 -5.08990000
-1.94540000 72.93300000 9.76850000
-7.07830000 96.41160000 -9.90670000
-9.07730000 104.87950000 -11.66510000
-9.61820000 100.71100000 -8.68480000
-15.74630000 41.15670000 5.86730000
14.99580000 63.61910000 -3.74420000
-10.80120000 104.46860000 -14.47560000
14.23610000 63.71900000 -5.76350000
-5.90650000 59.87780000 -12.08110000
-8.19680000 55.61140000 -11.30010000
-8.59730000 60.81400000 -9.78400000
-6.13430000 89.56850000 12.85910000
14.03650000 61.72660000 -6.49700000
-2.48000000 95.11370000 13.18020000
-6.28830000 66.21950000 -11.25630000
-13.56020000 45.85170000 7.83190000
-6.46800000 101.73400000 -12.69040000
-4.39650000 96.20850000 15.45810000
-7.64440000 67.85470000 -9.95820000
-5.29980000 84.79770000 8.90470000
-6.39210000 92.24670000 9.62350000
-5.75880000 94.85390000 11.11110000
11.92420000 55.66210000 11.48770000
10.48600000 57.06890000 12.62710000
13.32700000 60.00970000 -7.78600000
12.47260000 65.44980000 -8.45400000
12.02160000 61.27620000 -9.35130000
11.34520000 66.39830000 -9.66810000
-9.60460000 63.86730000 -8.16710000
-6.28350000 94.08180000 13.86140000
-8.23150000 92.75230000 11.87910000
14.41830000 65.28760000 -4.84140000
14.83720000 67.21540000 -3.64760000
-7.40940000 88.63410000 7.47510000
-7.94200000 96.35670000 9.46460000
13.63250000 66.77150000 -6.61980000
14.28850000 69.01580000 -5.26930000
-14.60380000 48.55770000 3.65440000
-6.66770000 105.64290000 -14.30860000
-4.62930000 67.20580000 -12.25760000
-4.87140000 56.70310000 -13.20060000
11.78360000 70.44780000 -9.31630000
-12.68130000 45.08310000 9.60570000
-7.65140000 96.62830000 13.49150000
9.63260000 66.93500000 -11.11630000
10.15130000 71.33580000 -10.91570000
13.32790000 70.28340000 -7.27190000
-0.10300000 102.58190000 -19.05300000
12.56550000 72.86360000 -8.60290000
-9.29860000 95.57790000 11.62140000
-0.05390000 61.36430000 -14.15370000
-3.02510000 63.92100000 -13.19940000
-2.50270000 68.61450000 -13.08390000
-0.25110000 66.42540000 -13.65230000
15.32300000 72.25890000 -1.37110000
-4.05760000 104.99610000 -19.32830000
14.94140000 73.39030000 -3.73690000
10.58060000 62.86070000 11.50070000
11.37660000 60.18730000 10.82020000
9.37650000 66.63570000 11.99770000
-4.20440000 104.17700000 -15.16130000
-2.78010000 105.85380000 -16.63700000
-6.19210000 72.49530000 -11.06350000
11.05590000 66.06480000 10.56540000
-16.95780000 41.52710000 -1.22590000
-1.00890000 107.31540000 -17.96810000
-4.61780000 75.22490000 -12.19450000
-12.41980000 60.86790000 -2.69960000
-11.43080000 68.73570000 -3.36000000
-11.56780000 63.77990000 -4.39610000
-11.97150000 66.71390000 -1.06200000
0.93840000 44.87210000 -16.90970000
0.63640000 95.72740000 16.64850000
3.21470000 96.20880000 16.74350000
3.50350000 50.09750000 -15.76350000
-6.25770000 108.68730000 -16.55410000
-8.95660000 108.17440000 -14.12440000
12.20640000 66.32800000 8.81150000
9.59330000 67.18280000 11.65960000
11.71300000 69.01590000 9.50560000
5.53900000 50.47690000 -15.24210000
9.78360000 69.44850000 11.56930000
-11.66950000 74.79590000 -1.83980000
-15.41010000 42.18390000 -7.29940000
8.11400000 43.50680000 -15.85700000
7.81260000 70.32400000 12.80400000
-10.42980000 70.85080000 -5.84290000
-16.36560000 43.11210000 -3.57010000
-15.03470000 46.44480000 -5.11270000
-3.40020000 109.83760000 -18.89780000
-10.42200000 66.23820000 -6.41790000
-9.32310000 71.29380000 -7.75530000
9.88000000 44.93240000 -14.53900000
-4.43970000 100.43680000 16.55800000
-1.00680000 105.78220000 -20.60980000
-15.19530000 48.08410000 -2.46080000
-2.27910000 98.68470000 16.80000000
-12.09270000 65.38810000 1.50650000
-11.62000000 70.46670000 1.91820000
-11.75960000 74.22700000 0.67370000
-0.37750000 98.19330000 14.65970000
10.75900000 71.41000000 10.80800000
-5.70530000 107.53330000 -20.17530000
-9.35680000 108.07650000 -18.37360000
9.60980000 72.04590000 11.60640000
-4.02290000 98.81410000 13.46680000
-11.17880000 74.41460000 -3.97220000
-8.60390000 109.69440000 -20.66930000
10.80960000 73.33520000 10.42430000
9.77340000 72.66960000 11.52120000
9.68100000 72.33190000 11.31010000
9.31310000 73.30710000 11.63510000
10.33690000 74.57260000 10.91760000
-3.99420000 108.67920000 -21.88120000
7.90920000 56.17070000 -13.19930000
-7.90260000 102.84920000 12.13010000
0.05340000 107.66600000 -21.84860000
-1.19300000 44.08210000 -16.95390000
-0.64170000 53.54320000 -15.14490000
-7.95450000 111.83010000 -23.93620000
3.24140000 55.23370000 -14.86390000
-4.70050000 111.38020000 -24.78270000
-8.25660000 72.81430000 -0.87040000
-7.56200000 72.82740000 -2.53480000
-8.02310000 74.81790000 -1.64310000
-7.19840000 74.38390000 -3.56690000
-8.49580000 72.80980000 0.20620000
-8.71420000 72.80570000 0.56320000
8.05140000 87.18280000 10.78690000
8.99560000 84.19360000 9.01000000
-2.02110000 110.85820000 -24.76050000
8.00470000 91.37330000 14.37860000
10.43250000 87.68600000 12.15350000
-8.51230000 82.53550000 -2.44940000
-9.14310000 83.63190000 0.18790000
13.13530000 71.59650000 7.44010000
7.82050000 92.74880000 12.37540000
-10.56780000 77.95550000 -5.90800000
10.51260000 94.16460000 13.58880000
-6.48370000 72.84770000 -4.53010000
-6.03270000 74.84300000 -5.33340000
9.81390000 86.79430000 9.66060000
10.58880000 89.01540000 9.89250000
11.65650000 87.01240000 8.38360000
-11.70840000 81.89780000 -3.07230000
-2.22900000 57.43550000 -14.18690000
-4.88570000 50.61630000 -14.55270000
9.08460000 100.63920000 -17.19350000
-8.20740000 73.51620000 -9.23290000
5.99210000 93.14500000 15.51210000
7.16230000 102.01750000 -18.44140000
2.83490000 60.74840000 -14.24080000
-9.97610000 38.06000000 -15.07130000
-7.96920000 78.30510000 -9.68780000
8.81510000 101.52270000 -15.22520000
6.49910000 103.23510000 -16.54610000
-9.69960000 79.29190000 -7.59670000
6.07850000 60.13370000 -13.48470000
3.36640000 101.99730000 -19.07090000
8.25930000 98.83800000 14.19020000
2.81740000 68.05760000 -13.68890000
2.46310000 104.67900000 -17.31790000
12.53140000 90.46200000 10.97070000
0.93910000 71.11270000 -13.71900000
5.16870000 66.28820000 -13.32580000
12.32540000 91.31260000 8.89900000
-11.24490000 43.64630000 -12.34260000
-13.64930000 44.20740000 -9.32620000
-0.67710000 72.00450000 -13.53460000
-1.86430000 76.73000000 -13.46300000
10.92240000 95.27800000 11.47160000
16.16880000 43.52930000 -8.49690000
14.35760000 46.22790000 -10.04970000
14.87940000 52.11550000 -7.29770000
6.56040000 105.09090000 -20.07580000
14.13750000 94.02740000 10.34800000
14.14350000 88.26230000 8.48840000
14.27570000 90.11080000 5.43630000
12.96650000 88.54880000 7.29160000
14.11670000 92.83240000 7.27580000
12.16850000 51.45920000 -11.11940000
12.98520000 56.07000000 -9.06930000
-8.29470000 46.65400000 -13.75150000
5.77510000 73.47670000 -13.29040000
14.96540000 89.00070000 7.32280000
7.71130000 67.15830000 -12.30630000
7.69530000 72.45640000 -12.48270000
3.45860000 74.55680000 -13.76960000
11.52820000 101.85160000 -13.95490000
13.15110000 94.39770000 9.26220000
14.73290000 76.04760000 4.72320000
13.88110000 93.66520000 8.40450000
15.05710000 73.44950000 3.21720000
10.91440000 49.31090000 -12.75700000
13.97920000 100.50570000 -11.39500000
11.87870000 101.54390000 -15.93480000
3.72000000 81.04380000 -14.54470000
10.57220000 99.49700000 15.15460000
-4.16180000 72.89140000 -7.18250000
-3.39140000 77.76320000 -8.20380000
10.44790000 58.38190000 -11.19550000
-6.90270000 81.31840000 -5.42050000
-5.23750000 81.31860000 -7.42330000
15.35620000 72.00650000 0.18600000
-11.41440000 51.88100000 -9.18680000
10.38200000 99.21240000 13.32630000
10.96750000 72.33970000 10.20260000
10.03470000 105.46990000 -19.10290000
14.73820000 56.13780000 -6.22050000
-2.81970000 72.91660000 -8.02640000
-1.35550000 77.98610000 -9.28940000
12.85630000 104.09760000 -16.61700000
5.60190000 100.21550000 17.39190000
9.37020000 107.15310000 -17.57650000
12.35830000 74.78440000 8.62140000
-3.72730000 45.32150000 -16.14880000
-6.37220000 81.89520000 -11.74690000
2.59730000 106.23480000 -21.14740000
14.06150000 76.21310000 6.17510000
-9.17590000 84.83760000 -9.35880000
11.59760000 75.26330000 9.68310000
