35.33250000 -132.12950000 37.36920000
34.62950000 -131.38230000 38.41420000
48.44770000 -85.45270000 -44.96570000
52.61870000 -75.81930000 -48.93530000
-20.23230000 -118.24010000 23.45450000
-16.87650000 -119.53090000 24.35870000
-21.23190000 -122.14520000 25.58140000
-21.23460000 -117.53890000 22.10900000
-18.91880000 -117.01480000 22.34680000
-20.03670000 -116.52950000 19.90620000
-12.23480000 -117.51750000 22.96210000
-54.49240000 -67.22010000 -22.10310000
-56.99820000 -58.09640000 -34.70800000
-17.12070000 -116.32870000 20.39200000
36.66930000 -127.23340000 38.67770000
33.78620000 -124.55500000 38.74900000
49.21540000 -71.20230000 -53.46460000
52.35630000 -67.48530000 -55.04870000
-12.92080000 -122.25200000 25.43590000
-3.44950000 -118.45260000 23.68690000
-6.60200000 -116.56740000 21.45880000
54.90090000 -67.31680000 -55.17640000
53.68630000 -72.66710000 27.81530000
53.37100000 -72.71270000 -47.13170000
10.11570000 -118.98330000 23.81560000
18.18250000 -120.89610000 24.37640000
55.50490000 -67.23350000 -51.98670000
55.64000000 -66.86590000 26.20560000
46.21540000 -66.75750000 -54.97960000
-4.80720000 -116.47980000 -33.64870000
-22.55250000 -118.41080000 -34.69670000
-3.04170000 -114.34230000 -33.14250000
-26.63140000 -116.37680000 -33.63560000
-31.74090000 -111.66220000 4.45560000
-31.44030000 -114.35840000 2.70250000
-31.82260000 -115.05070000 19.76950000
54.87190000 -70.16560000 -53.83800000
55.31810000 -69.60780000 -52.89660000
31.09370000 -120.61960000 34.57150000
56.74900000 -65.31940000 -55.05770000
58.46390000 -59.65720000 -56.14080000
47.76240000 -86.10390000 39.23230000
55.99980000 -65.22320000 -50.20830000
50.89540000 -79.00670000 38.95840000
-33.77020000 -120.29050000 18.18780000
-35.20400000 -121.79630000 26.95050000
-33.92170000 -120.51750000 28.56110000
-32.63920000 -118.79160000 16.70970000
-32.53040000 -118.34950000 26.92520000
-31.96770000 -117.22950000 13.16650000
51.85540000 -62.10640000 -56.51520000
-32.08390000 -116.66650000 26.94380000
39.40840000 -61.80480000 -56.93970000
56.69610000 -58.44920000 -58.01590000
-37.13690000 -130.50200000 -1.60360000
-38.31070000 -129.65840000 -2.02030000
-56.47270000 -62.09750000 -14.99130000
57.65680000 -61.23100000 -56.88810000
-32.22010000 -116.21280000 30.81340000
-29.14080000 -130.60480000 4.90560000
33.25320000 -118.89680000 33.54000000
-32.19940000 -111.82720000 23.37910000
-32.14870000 -113.87180000 31.42550000
34.04890000 -115.50920000 32.53360000
-34.12920000 -130.82380000 1.06040000
26.99890000 -113.18900000 32.43630000
48.12720000 -53.46790000 -59.16550000
-33.36850000 -107.87840000 22.77220000
-32.51570000 -110.49090000 26.88360000
-33.67590000 -107.94570000 29.70550000
57.63250000 -50.43970000 -60.21670000
-27.77510000 -113.87470000 32.93320000
-17.92080000 -112.62660000 32.88570000
-27.76070000 -129.44420000 7.81840000
54.70880000 -52.31970000 -59.30560000
-59.55950000 -51.49620000 -15.75750000
-57.64620000 -58.91170000 -7.62240000
59.53660000 -53.10160000 -59.44890000
38.74520000 -129.92480000 38.56070000
59.66420000 -55.34820000 -58.42950000
59.87670000 -52.65950000 -56.76480000
-22.96710000 -110.34280000 33.20640000
-9.09610000 -109.84630000 33.38920000
59.40570000 -52.81190000 -54.16520000
39.73420000 -127.75280000 38.35880000
40.58260000 -127.05120000 37.55390000
40.26750000 -125.08770000 37.75860000
15.65120000 -44.47680000 -61.90940000
-32.27870000 -109.75310000 10.29910000
39.18800000 -124.78260000 38.21110000
-33.48910000 -107.06820000 13.20440000
-60.28470000 -47.28790000 -35.42650000
39.33910000 -123.52500000 36.99720000
37.85820000 -123.34080000 37.43350000
-34.70090000 -105.06640000 19.18650000
41.08810000 -127.49650000 36.48540000
-15.58720000 -111.41460000 -32.87850000
-1.50850000 -111.37030000 -32.98240000
40.77740000 -124.26520000 36.08490000
39.03410000 -121.53720000 34.37760000
-39.77840000 -97.42770000 17.40370000
37.97890000 -120.99650000 34.64320000
-61.66300000 -42.49460000 -16.85890000
2.32420000 -35.46820000 -63.62140000
36.60380000 -117.98360000 32.85350000
60.72760000 -51.78300000 -58.61670000
-12.34620000 -109.58090000 -33.06950000
-38.65510000 -99.55310000 31.29510000
-8.90950000 -108.09230000 -33.40270000
-3.93870000 -108.17180000 -33.61760000
35.92620000 -115.60970000 32.27610000
39.18230000 -121.57040000 33.14900000
61.33980000 -48.77540000 -60.03980000
36.93690000 -118.03230000 31.40480000
1.98100000 -108.88880000 -33.44850000
36.10640000 -114.10510000 30.95050000
55.14370000 -44.46550000 -61.36910000
57.58490000 -41.73220000 -62.05430000
-3.61920000 -106.05980000 -34.21710000
1.73030000 -107.38390000 -34.14260000
34.61720000 -112.82370000 32.11330000
35.83520000 -112.81030000 31.66090000
-8.34480000 -105.53720000 -34.50820000
-1.37800000 -105.25710000 -35.01100000
61.16930000 -44.62470000 -61.74440000
61.94260000 -44.40390000 -61.43610000
62.27200000 -44.62980000 -60.25180000
3.61770000 -106.05030000 -34.59700000
-38.80540000 -125.18230000 -12.88150000
-38.64170000 -123.60580000 -7.15680000
-38.95690000 -123.16730000 -26.31760000
-38.14520000 -122.78890000 -9.48120000
-36.85340000 -121.96620000 -10.66830000
-5.99270000 -119.25570000 -25.71440000
-20.59430000 -120.78000000 -26.21060000
-35.60600000 -121.16850000 -23.61190000
-35.29000000 -121.25490000 -16.08340000
-33.62330000 -119.90100000 -20.41220000
-21.07420000 -118.10080000 -24.61070000
-23.77570000 -123.16690000 -26.73780000
57.60970000 -60.18520000 25.26530000
33.37530000 -87.95380000 -46.34000000
-15.79680000 -117.26230000 -24.41870000
-13.29810000 -116.40150000 -22.57990000
-2.74300000 -116.82760000 -23.70820000
-23.77580000 -118.96650000 -12.90410000
-23.15800000 -118.21260000 -21.69240000
-22.61870000 -117.16660000 -14.89660000
-21.17500000 -116.51020000 -20.34660000
-16.60940000 -116.20140000 -18.90290000
-20.29620000 -116.24890000 -6.92610000
-22.14000000 -117.62020000 -23.04400000
-23.77780000 -120.17150000 -24.34040000
-19.61160000 -116.76750000 -23.21330000
-62.06180000 -38.51490000 -48.27770000
-31.51090000 -115.35290000 -15.91840000
-32.11660000 -116.56520000 -25.83490000
-31.94060000 -117.71840000 -14.36600000
-33.68430000 -120.18220000 -12.02930000
27.36690000 -110.42420000 32.45420000
-32.39740000 -118.87110000 -13.80740000
19.89740000 -109.06520000 33.08790000
28.83530000 -107.18610000 33.50020000
21.34810000 -106.65450000 33.88030000
31.99860000 -109.47810000 32.57310000
1.73400000 -117.81240000 -24.86390000
-32.01030000 -112.82900000 -27.53790000
-31.73210000 -111.68640000 -15.32490000
-0.22570000 -116.35380000 -20.56980000
9.72640000 -111.36740000 32.78740000
10.49790000 -116.59920000 -22.60450000
-31.42900000 -115.95430000 -2.64530000
16.32030000 -106.04320000 34.37390000
3.61130000 -116.47340000 -4.67640000
7.79100000 -105.28030000 34.96840000
9.69360000 -108.66700000 33.41400000
13.78140000 -104.46270000 35.41860000
-62.39990000 -38.02990000 -37.80700000
-32.67720000 -109.92250000 -29.46770000
-32.46790000 -109.23020000 -18.06870000
-34.10970000 -106.14760000 -28.48140000
22.28280000 -97.55450000 39.38960000
22.90100000 -102.79330000 36.02480000
-32.78400000 -119.40540000 -3.80550000
-33.71990000 -106.58780000 -17.06930000
-38.64490000 -125.20570000 7.76170000
-35.44060000 -103.65540000 -19.40330000
-35.74360000 -103.68970000 -31.00940000
-38.33820000 -129.44920000 6.38420000
14.00270000 -96.48210000 40.30230000
-4.58320000 -103.04710000 36.41270000
-18.67780000 -107.41140000 34.19170000
0.06200000 -105.82660000 34.84760000
-24.53640000 -109.79580000 -32.68330000
-22.17750000 -108.85450000 -33.02570000
-37.69140000 -130.45250000 9.00160000
-16.03140000 -108.53760000 -33.14220000
-19.13840000 -105.13760000 -34.65050000
-22.36020000 -106.19060000 -33.84850000
59.19420000 -54.34800000 23.37810000
2.03490000 -108.98210000 33.64530000
61.05240000 -47.01760000 2.86930000
-38.96690000 -98.44450000 -13.59180000
-41.48010000 -94.78570000 -12.00720000
-11.67370000 -107.58810000 -33.70380000
-63.05540000 -34.98110000 -20.71340000
61.63190000 -43.45080000 18.27740000
-15.93750000 -106.42920000 -33.80980000
-13.70470000 -105.54720000 -34.53870000
-33.36530000 -131.23940000 16.70750000
32.51210000 -105.80220000 34.25090000
34.98370000 -100.77750000 37.44960000
34.47800000 -96.27080000 40.22040000
-32.95620000 -107.75240000 -10.57400000
-32.57730000 -108.89990000 -3.05590000
-37.01710000 -131.10480000 17.86730000
-34.47760000 -105.00980000 -7.55880000
-38.68830000 -126.80960000 16.52260000
-38.20720000 -129.85190000 14.68910000
-32.66700000 -108.33840000 2.90630000
-33.90400000 -105.78340000 0.03530000
-37.47730000 -100.44510000 -2.67620000
-63.80810000 -29.77980000 -38.32460000
57.20250000 -62.81280000 -27.93230000
35.81760000 -109.92610000 29.17460000
36.01160000 -111.07240000 30.90330000
-37.79850000 -122.77800000 10.24080000
34.82640000 -110.85080000 32.57530000
35.82290000 -110.19730000 32.69130000
36.73030000 -108.60880000 33.07950000
36.87480000 -106.77080000 30.23210000
15.97500000 -118.39670000 -25.13430000
-35.27080000 -121.51690000 2.46480000
-35.67280000 -121.60280000 13.03000000
-34.10510000 -120.66920000 5.17040000
14.20770000 -117.02880000 -23.81180000
39.32820000 -101.45920000 31.46150000
3.93380000 -101.27520000 37.22410000
-34.60130000 -121.13950000 -3.05970000
35.23290000 -107.51880000 33.92160000
6.27960000 -96.23170000 40.58790000
38.71030000 -104.86430000 34.84410000
39.70630000 -102.52340000 34.82290000
36.43100000 -106.89280000 34.60240000
35.36570000 -131.65500000 -39.34240000
38.44610000 -131.68650000 -37.58300000
40.07540000 -131.02770000 -34.51780000
39.79660000 -131.10320000 -38.21420000
40.45260000 -130.44740000 -37.06660000
39.41280000 -101.92530000 37.44090000
38.08630000 -102.15010000 37.06730000
32.84170000 -131.70870000 -30.06460000
23.99340000 -118.62230000 -24.99050000
26.15370000 -121.89890000 -26.22580000
22.77820000 -117.40580000 -23.87220000
38.92190000 -131.74090000 -30.21700000
40.74100000 -128.95450000 -33.40520000
20.15200000 -116.47960000 -17.92670000
40.44070000 -130.84490000 -29.53420000
21.25850000 -116.75660000 -22.14120000
24.40850000 -117.47460000 -22.53210000
23.69110000 -116.75020000 -18.58390000
40.05440000 -131.54720000 -6.12280000
40.58660000 -131.05680000 -22.16040000
41.03310000 -130.71620000 -14.53780000
32.12780000 -131.06030000 -25.62670000
31.83910000 -131.28270000 -28.68320000
33.74040000 -131.64330000 -19.90570000
35.97150000 -131.82430000 -19.74760000
38.76720000 -131.80030000 -12.91000000
29.53460000 -130.37440000 -30.01400000
18.91850000 -114.97110000 -33.31460000
12.67990000 -111.90600000 -33.14300000
30.73120000 -130.10310000 -28.23570000
57.93700000 -58.93180000 -41.37090000
28.81110000 -128.00610000 -28.61270000
29.52150000 -127.61830000 -26.70960000
32.20250000 -130.87460000 -15.45820000
31.34360000 -130.16690000 -22.87640000
15.96770000 -105.36050000 -35.35080000
13.44730000 -108.24480000 -33.93580000
7.04980000 -105.26780000 -35.16530000
12.46720000 -110.05600000 -33.39710000
33.18990000 -131.26930000 -4.62610000
-32.65640000 -119.65260000 -0.55700000
-31.87010000 -117.99930000 -0.65230000
29.50560000 -126.57390000 -22.41120000
27.86420000 -123.23990000 -24.76000000
-42.16790000 -93.65520000 -25.70580000
-39.62080000 -97.38580000 -33.30960000
40.91830000 -100.56270000 37.99260000
24.61380000 -112.53790000 -33.14600000
-42.46590000 -92.96330000 -37.66820000
-41.76380000 -94.87520000 -40.74820000
60.51950000 -50.71100000 -14.15160000
60.39230000 -50.44900000 -32.01600000
21.56780000 -109.38790000 -33.72640000
35.32260000 -130.81790000 -40.63370000
41.23380000 -128.52570000 -22.91160000
42.76670000 -96.14920000 36.93880000
-32.57430000 -119.07290000 4.62510000
-43.95080000 -90.50130000 -27.98040000
41.24520000 -94.84550000 41.48480000
38.77850000 -129.53300000 -40.76040000
38.79030000 -130.79020000 -40.09620000
41.06930000 -125.90370000 -31.16030000
40.01450000 -129.18380000 -39.79960000
40.47310000 -128.08420000 -37.95070000
32.53850000 -91.53670000 43.05240000
38.34870000 -126.49710000 -40.94720000
40.13800000 -126.64080000 -40.00960000
40.82560000 -125.73020000 -37.08200000
40.25000000 -124.82150000 -38.94800000
-45.32110000 -87.99010000 -22.38430000
35.51800000 -124.57760000 -41.42210000
39.23290000 -124.90900000 -40.72440000
42.10500000 -98.48640000 38.60230000
42.06310000 -97.55500000 40.03510000
33.61200000 -123.56750000 -40.71280000
44.05170000 -95.27830000 40.17730000
62.57210000 -40.37640000 -24.27190000
43.98670000 -95.28860000 41.02050000
23.13600000 -106.28610000 -34.99780000
33.81720000 -121.69850000 -38.35050000
35.14330000 -122.40200000 -39.92890000
43.91730000 -94.26040000 42.21570000
46.04810000 -90.78180000 40.79590000
41.46850000 -126.31810000 -13.04610000
41.05100000 -124.87270000 -26.29580000
-38.31810000 -129.83910000 25.21730000
37.43370000 -122.94040000 -40.69460000
38.80620000 -123.42050000 -40.29030000
40.46240000 -124.48370000 -36.73370000
39.18940000 -122.96410000 -38.54780000
39.66780000 -123.78550000 -34.65320000
37.13860000 -120.90130000 -37.85570000
46.18540000 -91.41630000 43.42120000
45.42120000 -91.02050000 44.19510000
35.87880000 -120.84540000 -38.07050000
37.19700000 -120.60080000 -35.71010000
-44.93520000 -89.58280000 -43.47140000
33.46520000 -119.37540000 -36.46950000
60.39640000 -48.90420000 -46.33340000
-44.58130000 -90.17390000 -44.18660000
32.15820000 -130.42320000 5.08440000
33.95410000 -131.61910000 7.67410000
-45.20620000 -88.03890000 -40.52830000
-46.12290000 -86.78390000 -43.13510000
-46.53610000 -86.27550000 -46.73880000
36.87390000 -120.82900000 -21.62050000
38.06100000 -122.25590000 -30.17740000
35.98980000 -119.69820000 -31.91890000
37.13900000 -132.07320000 9.20480000
35.52200000 -131.92020000 1.61490000
35.05440000 -132.09430000 16.09390000
-37.80050000 -130.93630000 27.16220000
-36.63130000 -131.62820000 28.28720000
-31.27020000 -131.73970000 29.53840000
-47.69790000 -82.27500000 -41.60300000
-46.34240000 -85.85170000 -31.28050000
38.96500000 -132.14580000 14.07490000
40.28090000 -131.67240000 14.33990000
33.07030000 -115.89100000 -34.52960000
40.88660000 -130.87620000 -1.35950000
41.05500000 -130.99000000 15.37110000
41.28000000 -129.43090000 -1.22850000
34.56310000 -117.47440000 -35.40060000
35.57180000 -118.34050000 -35.30660000
41.88230000 -90.04870000 44.02080000
35.23710000 -117.55320000 -33.47200000
34.76430000 -115.35270000 -33.68410000
-36.89540000 -131.49490000 35.74440000
-34.48490000 -131.85750000 33.28100000
-35.55780000 -131.95350000 36.52840000
48.53980000 -87.06130000 45.37670000
-38.10190000 -130.24880000 34.93690000
-44.15930000 -90.35140000 -14.83140000
-34.16590000 -131.49350000 38.48390000
-36.07340000 -131.56100000 37.82950000
-37.55820000 -130.44570000 37.44380000
-35.69350000 -130.59470000 39.06050000
34.43510000 -117.12800000 -29.49310000
35.31560000 -118.45010000 -20.60030000
-37.25450000 -129.35040000 38.59610000
34.46460000 -115.27560000 -31.60650000
-38.14720000 -128.62030000 37.54180000
-38.51350000 -127.99990000 32.45870000
34.27670000 -115.45480000 -24.29610000
33.83100000 -113.88980000 -27.00310000
33.98990000 -112.29450000 -28.92250000
40.27840000 -123.93780000 -26.19780000
-3.84080000 -102.22650000 -36.76660000
30.81620000 -57.55290000 -58.51730000
-38.60020000 -125.48010000 31.86810000
38.48060000 -122.57920000 -16.28280000
-27.88970000 -130.61660000 -39.75550000
-23.52580000 -129.80080000 -40.43100000
-10.06550000 -97.70320000 -39.93390000
-1.09820000 -96.96630000 -40.49020000
-48.69240000 -81.94450000 -17.71610000
-38.57280000 -123.98870000 19.01220000
35.05550000 -54.30510000 -59.34570000
33.44870000 -56.87130000 -58.46690000
-38.44440000 -124.53340000 31.31120000
-37.77160000 -123.14210000 20.58250000
-37.30220000 -123.22160000 28.38730000
41.47680000 -129.70970000 -12.30150000
-36.15190000 -122.05400000 22.99820000
30.60760000 -113.31070000 -33.42640000
-38.66770000 -127.25260000 -38.59840000
-37.16540000 -129.12500000 -39.67130000
-37.85780000 -130.09160000 -37.55620000
-33.23090000 -129.66730000 -40.15540000
-35.12940000 -130.46490000 -38.92580000
28.03490000 -110.98610000 -33.30980000
-36.29630000 -130.86600000 -36.44490000
26.90670000 -108.67630000 -34.11210000
31.05860000 -108.19480000 -34.51080000
31.75050000 -110.66980000 -33.68510000
34.11330000 -113.61530000 -33.60070000
34.56160000 -111.61760000 -33.99130000
-37.65610000 -124.24350000 36.58750000
-36.22750000 -122.69150000 33.27270000
34.89160000 -112.99300000 -33.05700000
34.78820000 -111.12650000 -30.86880000
36.21990000 -109.73430000 -33.03490000
35.31890000 -109.34320000 -34.75030000
36.78030000 -108.99120000 -34.65710000
-37.32540000 -127.72480000 -40.05730000
-37.75250000 -125.88240000 -40.12150000
-33.89380000 -127.05940000 -40.44890000
-13.64100000 -88.82600000 -45.65490000
-1.61590000 -90.66240000 -44.66460000
-37.27040000 -124.11260000 -40.17720000
-32.76630000 -123.91690000 -40.66980000
28.05150000 -105.43590000 -35.59030000
-7.54390000 -85.03950000 -47.81060000
41.28740000 -126.60190000 2.50200000
36.01540000 -103.98530000 -37.40840000
38.51620000 -104.56880000 -37.14470000
-32.38660000 -96.79920000 -40.11240000
27.74600000 -121.82570000 -18.72480000
29.51860000 -125.32670000 -9.08640000
29.29860000 -104.01840000 -36.65570000
34.40820000 -47.47650000 -61.19120000
33.64290000 -102.13270000 -37.93580000
31.29350000 -129.46160000 -5.71360000
-34.22460000 -105.31950000 5.69930000
-37.98250000 -99.98250000 4.27840000
39.00740000 -104.70160000 -36.14360000
-16.03750000 -100.87390000 -37.46540000
35.07670000 -108.74490000 -29.36800000
36.97100000 -106.49120000 -32.80770000
-38.77880000 -129.04780000 -36.26520000
-26.04440000 -97.49920000 -39.68290000
-33.39730000 -119.73350000 10.63490000
38.40200000 -103.64570000 -33.43380000
39.23410000 -102.93600000 -35.81550000
-37.42460000 -100.52990000 7.40930000
27.32810000 -97.63450000 -40.50830000
-38.78410000 -124.45430000 -38.14780000
-35.93450000 -123.05740000 -39.91760000
-37.77250000 -123.00110000 -39.23200000
63.90930000 -31.24400000 -47.78960000
64.22670000 -30.71720000 -27.45860000
35.48560000 -98.89650000 -40.18050000
30.65460000 -96.19240000 -41.51330000
-39.07640000 -123.19950000 -35.29450000
-38.74310000 -122.94370000 -37.45780000
-37.48240000 -122.03500000 -36.14710000
-42.54500000 -92.90990000 3.43020000
-35.38530000 -121.68870000 -37.81240000
65.17070000 -23.79770000 -31.21020000
18.61960000 -42.34640000 -62.50140000
-32.03930000 -122.92050000 -40.22000000
-34.87980000 -120.62910000 -34.94070000
34.93660000 -40.73060000 -62.79300000
-35.42640000 -121.01040000 -29.56480000
-14.87520000 -98.75410000 -39.08270000
-29.55940000 -121.75370000 -38.41000000
-26.86320000 -121.12750000 -37.11860000
-28.84520000 -119.35770000 -35.49820000
-32.94250000 -120.15660000 -35.68820000
39.12460000 -94.96240000 -42.77140000
-12.37030000 -98.20770000 -39.36840000
39.39620000 -101.00420000 -39.34410000
41.29030000 -125.04520000 -9.53410000
40.93420000 -124.37090000 -14.82990000
43.10940000 -96.76450000 -41.50460000
43.86640000 -95.69660000 -41.17780000
41.98910000 -97.23330000 -37.13660000
-14.82760000 -93.11710000 -43.06510000
-24.26850000 -92.95030000 -42.98090000
40.29610000 -123.87400000 -6.26580000
43.97370000 -93.50850000 -43.80020000
-19.54530000 -86.22460000 -47.11900000
63.72560000 -33.54070000 -4.23040000
-36.15540000 -102.50030000 12.50060000
36.87170000 -120.65550000 -1.19520000
-47.73640000 -84.07560000 -4.82640000
25.09260000 -91.03620000 -44.55100000
-42.99160000 -92.33290000 14.80740000
65.05390000 -24.02360000 -1.00320000
65.62300000 -20.39680000 -22.28490000
48.08470000 -86.91060000 -47.35850000
-28.12520000 -130.42230000 21.36550000
8.79640000 -101.26310000 -37.62950000
-32.85940000 -118.71730000 -34.59360000
-46.03490000 -87.15920000 11.07240000
65.23380000 -21.77310000 -48.14040000
65.97070000 -14.60350000 -30.06570000
44.24820000 -87.82880000 -46.90330000
-48.89290000 -81.72890000 11.95870000
45.05370000 -91.34240000 -38.86220000
12.98950000 -93.32000000 -43.08850000
17.82130000 -98.57630000 -39.71080000
-38.22310000 -122.33060000 -29.08880000
-23.08430000 -118.04520000 -1.17020000
-21.82350000 -116.64610000 -10.63700000
-33.96990000 -119.81720000 -26.97320000
-33.14320000 -118.62080000 -28.22740000
-33.34620000 -118.08800000 -33.03360000
21.83480000 -101.98870000 -37.49490000
-32.59060000 -115.82210000 -31.67590000
31.22930000 -128.89680000 13.46550000
41.39770000 -126.76020000 19.36460000
40.23280000 -123.98540000 6.78680000
26.16970000 -119.77470000 -23.82440000
26.04460000 -118.68200000 -21.12730000
46.50060000 -44.36530000 -61.66340000
46.38890000 -40.80640000 -62.55480000
34.22830000 -110.22810000 -25.43580000
34.15650000 -111.72820000 -13.85570000
34.60710000 -109.23180000 -14.13480000
25.40530000 -117.53040000 -16.47160000
24.46970000 -116.63330000 -11.78180000
45.68890000 -38.10280000 -63.00610000
-32.23280000 -113.66760000 -30.73580000
61.60000000 -43.27760000 -57.37930000
-53.43910000 -71.14240000 -9.20400000
-51.03110000 -77.09490000 -9.18610000
63.06890000 -38.40740000 -60.05530000
-32.05150000 -116.36490000 -33.38460000
35.15240000 -107.53060000 -22.00360000
62.44100000 -38.98480000 -47.77800000
-28.95710000 -113.62550000 -32.90140000
-32.12600000 -113.73260000 -32.69220000
-31.38690000 -114.21720000 -33.10560000
-31.97990000 -111.45910000 -32.88020000
-28.74820000 -110.43400000 -32.83090000
60.42310000 -39.92060000 -62.69580000
63.04140000 -40.08030000 -62.20240000
63.47070000 -38.91300000 -61.62010000
37.22500000 -104.51820000 -31.14490000
36.51480000 -104.95300000 -27.15160000
-50.31810000 -78.72630000 1.38490000
-31.90980000 -107.94700000 -34.04190000
-26.30160000 -107.02270000 -33.56700000
-38.40870000 -88.50540000 -45.31670000
-43.76030000 -84.03880000 -47.74730000
-39.83660000 -81.68060000 -48.76730000
63.32570000 -34.31940000 16.44340000
-30.48180000 -87.37030000 -46.15590000
39.16780000 -101.05490000 -30.57580000
-44.28920000 -76.22830000 -51.19840000
-31.23760000 -77.58730000 -50.83000000
-28.36250000 -83.05990000 -48.43850000
-52.76000000 -73.31100000 3.38550000
63.06610000 -35.97110000 -56.83410000
-53.18420000 -72.13610000 -0.26690000
-32.79570000 -108.69510000 -33.91580000
-33.34900000 -108.67020000 -33.34090000
37.56620000 -102.67950000 -18.58710000
-30.07300000 -107.47540000 -33.57820000
-35.14700000 -105.01550000 -35.05040000
-35.16680000 -103.80410000 -36.14740000
-31.36650000 -104.93160000 -34.64140000
34.09510000 -132.16220000 28.33540000
33.67480000 -131.69300000 25.11820000
33.29010000 -131.59100000 19.21840000
-38.57380000 -97.45230000 -40.21730000
-33.89610000 -103.17670000 -36.27250000
-38.01950000 -100.38220000 -37.54980000
-35.98690000 -97.81010000 -39.61870000
-41.47070000 -94.70480000 -41.80890000
32.28960000 -130.75700000 18.26270000
-36.98270000 -73.58480000 -52.45520000
-29.83520000 -101.82290000 -36.51400000
64.73460000 -24.16400000 27.13520000
32.18820000 -130.10860000 22.99270000
35.86700000 -105.64250000 -9.42060000
30.52710000 -126.31890000 22.50270000
38.51560000 -132.39640000 26.28720000
-24.85120000 -71.47250000 -53.49130000
-41.37520000 -92.07120000 -43.56410000
21.93770000 -132.02620000 30.73030000
3.61890000 -131.81650000 31.35690000
65.69660000 -16.83420000 13.57490000
14.56770000 -131.32200000 29.67710000
-49.96550000 -79.08080000 -49.12970000
-48.28910000 -82.74710000 -48.18340000
-47.99470000 -82.95030000 -45.59810000
-50.81280000 -76.18880000 -51.65470000
-49.64460000 -77.05510000 -51.50740000
-47.96050000 -82.26660000 -49.09440000
-50.80150000 -74.53270000 -46.76500000
25.01870000 -129.94390000 28.07080000
-45.24110000 -86.92780000 -46.61940000
-34.53720000 -91.76910000 -43.53440000
30.73400000 -130.92690000 28.20390000
29.61850000 -131.63290000 29.46470000
-19.64780000 -66.54010000 -55.37870000
-52.68660000 -72.21470000 -52.69170000
29.42990000 -127.30460000 26.47480000
26.98250000 -128.51760000 27.51870000
31.20160000 -128.70280000 25.84080000
-52.24100000 -71.09850000 -54.27820000
32.70440000 -131.20120000 26.75810000
-6.07640000 -81.05870000 -49.80190000
65.90120000 -13.38030000 4.28550000
30.87990000 -132.60310000 36.16890000
-52.20690000 -69.70300000 -46.46950000
-11.67550000 -76.10710000 -51.84410000
36.54440000 -132.43870000 34.32010000
-4.74490000 -69.73510000 -54.55080000
41.84230000 -95.87720000 -6.84730000
14.32350000 -116.56310000 4.00370000
-14.46230000 -80.58920000 -49.90380000
43.29500000 -93.39140000 -1.94660000
-16.98770000 -77.08760000 -51.30980000
25.95460000 -126.61560000 26.53850000
8.30640000 -116.59760000 9.47430000
-47.09510000 -85.77510000 -45.85530000
26.59460000 -124.40920000 25.69230000
-18.56180000 -72.64250000 -53.17100000
29.03390000 -124.42390000 24.63740000
45.73610000 -89.73780000 -1.78800000
46.75920000 -88.02540000 5.62230000
26.48250000 -121.55130000 24.26110000
41.25410000 -130.70890000 26.14010000
-7.25580000 -70.63820000 -54.14490000
40.81190000 -131.66450000 25.33780000
40.15070000 -131.96700000 31.56350000
-26.29390000 -131.61290000 30.82980000
-24.45760000 -130.18000000 29.23180000
41.24680000 -124.52940000 23.94650000
-13.75730000 -131.74750000 31.13950000
40.20440000 -123.29830000 23.94250000
39.40510000 -132.02700000 36.83390000
40.86000000 -131.25930000 36.90010000
41.38990000 -128.21620000 32.47980000
-29.77410000 -131.31640000 24.40940000
39.35520000 -131.49580000 38.12660000
40.54290000 -130.03160000 38.03850000
-26.69170000 -128.47860000 22.76940000
41.12200000 -124.71260000 32.99060000
-27.18160000 -129.70530000 25.93780000
-28.66190000 -131.25100000 27.92890000
40.85620000 -123.69130000 26.96330000
-26.85260000 -130.68690000 28.62160000
-25.52740000 -128.51210000 27.46370000
38.56640000 -122.11540000 27.71190000
-25.22060000 -126.19190000 25.57420000
-23.96390000 -125.23840000 26.41360000
39.04970000 -121.90940000 31.59290000
37.62840000 -120.78000000 29.77440000
36.48360000 -118.99160000 28.07390000
-31.16850000 -131.98320000 37.69170000
-31.19750000 -130.22180000 39.23560000
-34.07820000 -128.19430000 39.47430000
-29.94450000 -131.40440000 38.89860000
-20.73570000 -126.26630000 39.32570000
-29.82630000 -120.15770000 34.70640000
-27.65230000 -122.20090000 36.16750000
-23.93030000 -120.65320000 34.76380000
-34.45610000 -120.98610000 32.79170000
-33.05860000 -119.32270000 32.68740000
-32.04960000 -116.88590000 32.80360000
-24.84750000 -118.88310000 33.85940000
-31.33460000 -118.06760000 33.66160000
-28.44780000 -117.08850000 33.28320000
-20.15510000 -122.74370000 36.59900000
-17.38390000 -121.62520000 35.38510000
-22.00820000 -123.30450000 37.80820000
-30.32450000 -123.95250000 38.87140000
-64.00080000 -26.06270000 -56.40490000
-64.40410000 -25.93700000 -61.85230000
-62.85140000 -34.67010000 -58.48180000
1.04630000 4.18810000 -62.80720000
0.39870000 0.18040000 -64.00330000
-4.56010000 6.25140000 -61.86150000
-9.06470000 1.48340000 -63.53860000
-4.96010000 4.42490000 -62.73700000
65.75770000 -14.74270000 -54.34080000
65.68140000 -16.03640000 -59.97080000
65.63030000 -9.12010000 -58.43380000
51.91150000 22.32120000 -41.84700000
51.56150000 22.49000000 -37.17740000
55.81780000 18.00480000 -39.39930000
1.57820000 8.59380000 -60.90080000
14.02460000 1.80340000 -63.59860000
32.49550000 -23.62590000 -65.30760000
20.84710000 -28.36070000 -64.83400000
13.84650000 -16.20210000 -65.53960000
8.58550000 -20.59560000 -65.41760000
-64.66800000 -18.92570000 -64.08810000
-64.31660000 -24.87820000 -64.94530000
-64.40700000 -20.70740000 -65.13260000
55.63120000 18.00360000 -30.73410000
-63.63680000 -20.54350000 -65.64560000
-0.13580000 8.08790000 -61.37790000
63.43130000 -11.63280000 -65.53570000
60.03530000 -18.81620000 -65.28960000
57.17100000 -9.99760000 -65.10840000
61.04270000 -6.34740000 -64.97150000
51.56720000 22.99990000 -44.77490000
-64.54970000 -20.10930000 -55.43050000
64.84620000 -7.65750000 -65.39320000
65.48320000 -14.44170000 -65.40590000
65.92670000 -8.14480000 -40.06910000
-64.34340000 -16.40730000 -62.18920000
-59.66280000 -14.26150000 -64.04050000
-59.50040000 -24.76070000 -64.52720000
-60.98450000 -16.20690000 -64.57800000
-56.13860000 -18.56730000 -64.38910000
46.68030000 27.85590000 -37.93010000
-17.20480000 -32.30590000 -63.96760000
48.17930000 27.27210000 -43.02060000
66.11890000 -16.07150000 -63.61470000
66.11140000 -15.74960000 -64.78510000
65.93650000 -11.22820000 -64.77010000
65.82460000 -8.66450000 -63.82280000
65.49700000 -6.45140000 -64.71730000
65.07140000 -2.40410000 -62.60510000
-64.55340000 -15.61820000 -55.82660000
63.51870000 -4.26360000 -65.14310000
50.55590000 23.16080000 -25.40010000
54.02940000 19.75860000 -25.63180000
50.16220000 23.81850000 -29.29610000
63.47470000 -0.07060000 -64.30200000
57.51330000 15.41770000 -17.44100000
64.56800000 -0.64980000 -63.83750000
52.40380000 21.30320000 -19.87570000
-29.22870000 2.90980000 -63.01970000
-28.67200000 -0.45780000 -63.86900000
-42.61880000 2.81040000 -62.95560000
65.30710000 -3.91520000 -49.74140000
64.64670000 -1.45960000 -58.67370000
54.90840000 -3.17990000 -64.59290000
57.93210000 -1.93290000 -64.17610000
40.75370000 -31.50110000 -64.34470000
33.24020000 -31.61550000 -64.47540000
-34.72640000 -25.22570000 -64.80480000
-29.46780000 -32.25870000 -63.88200000
16.04940000 -35.13750000 -63.78330000
58.65640000 14.12880000 -25.16820000
60.21960000 0.40060000 -63.94590000
-19.80630000 -23.78830000 -64.99280000
54.81750000 18.91260000 -10.87860000
-36.60040000 5.59290000 -62.03780000
56.98580000 4.04380000 -62.57120000
50.79260000 23.02250000 -31.20170000
48.17150000 25.85110000 -33.10990000
58.20110000 6.49710000 -61.79490000
37.03950000 -16.15630000 -65.59850000
62.46510000 6.06990000 -62.44160000
63.76340000 3.71780000 -61.88920000
65.87320000 -8.72300000 -7.67340000
65.51210000 -3.41860000 -33.53820000
65.58540000 -5.36140000 10.28510000
-12.07980000 -20.37810000 -65.27570000
-0.49960000 -26.77160000 -64.83470000
45.37790000 30.21830000 -40.81890000
-64.77690000 -22.37470000 -34.05350000
-34.71720000 9.55620000 -60.41590000
47.27860000 -35.62880000 -63.62440000
65.12920000 -0.54640000 -41.09330000
64.38270000 1.51200000 -46.14880000
47.97710000 25.76550000 -27.85020000
45.48210000 28.78120000 -32.63120000
64.13420000 2.71620000 -37.62680000
-16.15220000 5.19780000 -62.30750000
64.98670000 -0.55020000 -24.16030000
44.96900000 29.01400000 -23.77610000
43.36990000 31.22930000 -35.31260000
42.85820000 31.44580000 -25.72120000
-14.04640000 9.13870000 -60.75180000
47.83950000 -28.12000000 -64.75670000
52.43360000 -32.84290000 -63.93190000
17.49650000 15.80840000 -57.27570000
42.29600000 16.56780000 -57.06650000
24.64950000 12.91320000 -59.16580000
28.29710000 18.79620000 -55.34750000
-61.53490000 -39.81260000 -63.34880000
63.37560000 4.09090000 -58.83280000
63.93510000 2.43280000 -53.02010000
-65.20440000 -15.94180000 -31.40420000
43.65640000 20.63330000 -54.13180000
-62.28370000 -38.28390000 -63.49440000
-62.79410000 -37.42230000 -62.92240000
-18.84290000 12.52680000 -58.90370000
54.13780000 15.45660000 -57.66380000
52.06320000 10.49320000 -60.06530000
50.22480000 19.38140000 -55.10410000
57.15420000 -30.64510000 -64.16960000
-30.55160000 -19.87430000 -65.24480000
62.45900000 -35.65910000 -63.45580000
17.65360000 -8.51810000 -65.28830000
64.09980000 -34.21140000 -63.19780000
-64.15020000 -14.51350000 -65.79000000
-62.61040000 -20.98770000 -65.51820000
-63.25590000 -15.69810000 -65.96400000
-62.66580000 -34.90720000 -63.85060000
-61.77180000 -31.15050000 -64.54070000
-64.56300000 -12.77650000 -65.20340000
62.98390000 6.25660000 -44.35240000
61.97440000 7.84820000 -53.15490000
-59.99520000 -31.09210000 -64.07560000
64.12770000 -31.12160000 -64.07590000
51.06630000 2.20680000 -63.40540000
49.11830000 23.05060000 -52.55580000
-44.65110000 -34.00530000 -63.65560000
59.64500000 -26.19210000 -64.79210000
62.98410000 -28.49620000 -64.60590000
-49.57060000 -29.73700000 -64.26290000
9.08880000 14.20700000 -58.18570000
3.04940000 17.64310000 -55.77690000
61.03240000 7.02640000 -62.26990000
-62.17440000 -9.31440000 -65.04530000
52.38220000 6.14250000 -62.03130000
-53.36330000 -12.40620000 -64.51100000
-63.73570000 -11.75690000 -65.88770000
-63.04750000 -9.33220000 -65.58860000
53.54560000 -20.17220000 -65.25160000
13.84380000 10.80020000 -60.13080000
62.89140000 6.40520000 -61.80900000
-64.48180000 -12.02660000 -60.04790000
-64.70070000 -9.60680000 -63.86640000
18.23900000 17.88950000 -56.12320000
10.76700000 18.65800000 -55.18330000
19.24480000 -2.96540000 -64.68730000
44.39870000 -8.32100000 -65.30840000
-63.72170000 -31.80380000 -63.25300000
61.75090000 9.65580000 -59.62750000
-4.20580000 13.06650000 -58.84250000
-8.73700000 11.25140000 -59.78850000
-63.63830000 -30.47320000 -64.42890000
57.57250000 10.15440000 -60.52980000
60.88040000 11.22370000 -60.05920000
59.05640000 12.58360000 -59.83440000
-64.49290000 -7.24590000 -64.97910000
61.06020000 10.04550000 -55.50930000
17.49930000 20.10450000 -54.25840000
-63.48040000 -5.33650000 -65.06020000
-63.08440000 -30.52450000 -64.81210000
30.81810000 -0.48970000 -64.24930000
2.57540000 21.38320000 -52.66790000
14.46920000 25.34570000 -49.38270000
-59.91330000 -1.81980000 -63.87340000
-57.75960000 -3.94120000 -63.89670000
-2.07270000 -22.26230000 -65.16250000
-64.30730000 -5.64990000 -60.19540000
0.04980000 14.79900000 -57.65240000
3.21150000 9.31100000 -60.81490000
-7.14610000 -16.92870000 -65.43550000
-64.57000000 -4.45170000 -62.60740000
6.03390000 12.52750000 -59.24710000
6.70420000 10.23330000 -60.25010000
-64.15200000 -3.32680000 -64.37530000
-64.71530000 -4.18930000 -63.73270000
18.97600000 18.75640000 -55.14340000
54.65480000 18.64670000 -56.15020000
58.63510000 15.01060000 -58.30060000
-63.55810000 -0.95170000 -64.04760000
-62.36630000 -0.08270000 -64.08010000
-58.83550000 12.25590000 -59.38910000
-60.54050000 8.85990000 -61.01560000
-59.97840000 11.00870000 -59.17450000
-59.01320000 8.65800000 -61.03950000
59.84070000 13.70060000 -57.60270000
-58.11810000 13.29600000 -55.00310000
-61.19690000 8.05100000 -59.12400000
-58.47820000 13.85730000 -58.28300000
-64.39300000 -8.88740000 -56.23630000
-55.69110000 8.51170000 -60.61910000
-53.90010000 11.65530000 -59.12280000
-53.93570000 -24.26130000 -64.66060000
-65.05700000 -9.22210000 -36.38900000
35.15770000 2.04560000 -63.81810000
-56.89460000 13.94490000 -58.63520000
35.37920000 4.38690000 -62.94410000
-54.11110000 14.90960000 -57.43120000
60.97330000 10.24720000 -45.87120000
25.04890000 23.19160000 -51.83540000
45.20930000 -19.35670000 -65.49440000
-63.57860000 -2.13790000 -56.06400000
-34.07540000 12.38170000 -58.90260000
24.26840000 27.77370000 -47.31740000
-64.45680000 -3.77380000 -40.19580000
-51.06130000 14.28570000 -57.28450000
14.49130000 6.43270000 -62.05860000
-51.18650000 17.18410000 -55.55220000
-46.11490000 17.29290000 -55.06070000
5.92800000 24.55360000 -49.85780000
-0.42770000 24.41600000 -49.68950000
-38.26940000 14.35360000 -57.54830000
2.92100000 24.97500000 -49.03670000
5.95550000 30.50040000 -43.97410000
47.49010000 -13.82050000 -65.50680000
-9.06650000 -12.10930000 -65.44590000
-24.88040000 -15.06970000 -65.42440000
-41.74860000 18.18690000 -54.39830000
63.53890000 4.59970000 -28.95160000
61.83080000 8.90060000 -32.92200000
0.42360000 26.63110000 -47.68950000
-63.81590000 0.32830000 -62.49210000
-63.49100000 0.89120000 -63.29590000
59.66670000 12.86960000 -53.66510000
0.05030000 29.14150000 -44.97260000
-63.04680000 1.60310000 -59.53570000
58.22460000 14.68790000 -50.62260000
59.04330000 13.62580000 -42.48140000
-62.17680000 3.26500000 -62.99050000
25.49650000 8.65980000 -61.26010000
-58.06730000 4.12730000 -62.41870000
-62.76150000 4.25560000 -61.79940000
-30.81940000 17.77830000 -55.07330000
-61.75870000 5.91070000 -62.06150000
57.86270000 16.35410000 -54.21220000
56.82520000 18.62520000 -55.58590000
-41.38940000 -12.79300000 -65.15030000
-30.60240000 -7.29370000 -64.94100000
-34.46640000 20.58900000 -52.40160000
56.61850000 16.85940000 -44.43590000
-19.35890000 16.00320000 -56.64440000
-52.26580000 -6.99320000 -64.39670000
-46.58370000 -2.84100000 -64.11990000
55.26690000 18.90830000 -49.43140000
34.88380000 24.08650000 -51.03980000
-24.86290000 23.12940000 -50.17080000
-19.13010000 21.09560000 -52.42720000
39.91030000 24.07660000 -51.01760000
-6.14210000 14.47350000 -57.89200000
2.04300000 15.61150000 -57.39500000
32.93470000 29.03550000 -46.15020000
-15.90720000 -3.99300000 -64.62430000
38.61940000 11.78890000 -59.71440000
-2.82580000 17.04690000 -56.15330000
-53.64740000 1.37930000 -63.07150000
46.10570000 26.65440000 -49.43480000
-5.73760000 20.68330000 -52.94720000
40.05890000 28.87110000 -46.65700000
-51.46340000 5.85020000 -61.80760000
64.24340000 2.59800000 -15.25370000
42.83110000 31.45810000 -44.80740000
44.58090000 -2.57560000 -64.69690000
47.43720000 28.63610000 -48.23490000
43.86550000 32.68980000 -43.79730000
48.04450000 28.99150000 -47.51630000
62.64980000 7.10050000 -16.45180000
60.51590000 11.01120000 -22.71460000
-40.52950000 -18.43570000 -65.19320000
-18.92530000 25.95100000 -47.58190000
31.99480000 32.22010000 -42.93000000
30.92880000 30.81670000 -44.57800000
22.83870000 32.72560000 -42.34020000
64.96500000 -0.58080000 -2.69980000
64.71120000 -32.52840000 -62.79860000
24.35050000 35.00800000 -40.29970000
65.36900000 -26.96960000 -64.13480000
65.06680000 -27.70240000 -61.57530000
-5.26180000 27.04570000 -46.86730000
64.87250000 -25.73700000 -59.64570000
42.17020000 7.74710000 -61.68600000
-10.58390000 27.95440000 -45.99020000
38.99270000 34.38240000 -41.60660000
65.79970000 -24.32090000 -63.69710000
42.37000000 34.76930000 -40.62790000
47.13130000 29.94710000 -45.24990000
64.52820000 -21.38170000 -65.16820000
41.12140000 34.91640000 -36.59730000
29.77460000 -35.67880000 -63.81670000
65.57000000 -20.24490000 -64.94840000
65.78310000 -22.12810000 -62.85050000
-62.29410000 3.37630000 -55.70740000
63.87620000 4.25960000 -6.91370000
-63.50100000 0.82590000 -41.00110000
-60.72190000 7.47140000 -56.05800000
63.03790000 5.87230000 -4.01490000
61.36320000 9.75800000 -7.88240000
-61.77130000 7.01810000 -61.20750000
60.47840000 11.43920000 -6.79940000
32.15750000 36.94040000 -38.73780000
32.77140000 39.60140000 -37.04480000
39.43410000 37.29430000 -39.49100000
38.23060000 40.29050000 -36.75940000
54.70570000 20.91840000 -54.64410000
52.42460000 23.36990000 -48.88500000
52.29340000 24.43770000 -51.32240000
50.74450000 25.19370000 -51.43300000
-63.08730000 -32.35080000 -51.65770000
54.90250000 18.75230000 -43.45890000
-36.35410000 -128.40860000 39.24640000
-55.51210000 17.31100000 46.73110000
-58.90750000 12.16460000 45.12790000
-57.27900000 14.99290000 51.62340000
12.88570000 -33.78890000 63.61370000
-6.25660000 -29.91950000 64.28920000
-5.00330000 -39.13460000 62.84660000
-37.16000000 -126.48020000 38.67900000
-38.19480000 -126.35890000 37.38740000
-64.81250000 -27.08720000 11.51710000
-63.71640000 -31.32830000 -4.82780000
-63.10510000 -35.12660000 -0.79030000
-37.51480000 -125.31950000 38.43900000
-35.02210000 -124.60270000 39.32230000
-36.50490000 -124.29080000 38.29410000
-62.46740000 -17.32610000 65.01280000
-64.52140000 -20.90070000 65.24090000
-61.51390000 -21.14010000 65.03500000
-35.26910000 -122.63630000 35.94780000
-52.12260000 -74.67020000 20.53910000
-49.84250000 -79.69080000 24.03140000
43.44610000 -40.31260000 61.95140000
55.26490000 -52.55900000 58.55890000
56.59410000 -35.91350000 62.55920000
60.24780000 -50.72180000 59.08050000
60.55520000 -51.48050000 58.46400000
60.91710000 -49.86080000 58.23800000
61.37850000 -47.73240000 59.61110000
60.15410000 -47.69340000 59.93930000
59.34030000 -53.37010000 56.25680000
61.76990000 -45.23550000 58.99450000
61.68910000 -41.44230000 59.04120000
-59.67200000 -25.05380000 64.59890000
-50.80650000 -15.16740000 65.05430000
61.39750000 -43.94230000 60.87430000
62.05150000 -45.14550000 59.78330000
-50.54060000 -20.48450000 64.95330000
-52.16890000 22.25610000 48.35070000
-52.76510000 20.53170000 44.46970000
-48.51710000 25.28400000 43.63470000
60.01750000 -39.15820000 61.92080000
62.20420000 -43.10840000 60.91240000
-65.33750000 -19.33020000 -11.52540000
-65.67490000 -11.61310000 0.26180000
62.80650000 -40.94310000 60.53610000
27.84790000 20.26330000 52.98790000
20.04740000 21.16360000 52.18110000
17.88540000 16.94890000 55.75630000
-65.83410000 -17.49090000 15.40950000
-64.77140000 -23.40900000 -15.85440000
-64.91140000 -24.23160000 -3.01750000
63.18330000 -38.65480000 61.88850000
-57.11880000 -11.75920000 64.52560000
-43.22600000 -92.34770000 39.36240000
-43.65730000 -91.34820000 32.87650000
-32.60240000 10.16330000 59.74180000
-47.80730000 7.75900000 60.37630000
-39.15690000 4.29870000 62.18120000
62.52230000 -38.64770000 62.44650000
-52.64930000 -25.98300000 64.68450000
-34.76060000 -19.53330000 65.26250000
-46.17720000 12.92370000 57.82060000
-40.68910000 -16.25530000 65.33770000
-40.78220000 16.18870000 56.08990000
15.59970000 23.99320000 49.39230000
3.48040000 21.00430000 52.34770000
-24.85780000 7.09210000 61.35190000
16.65570000 28.78440000 44.71620000
11.09020000 27.89180000 45.80420000
-41.54870000 -12.01820000 65.16910000
-54.49410000 -69.32840000 4.98880000
-54.63580000 -68.34660000 9.14740000
59.47210000 -45.03430000 51.53810000
59.87480000 -45.51810000 45.51910000
61.81530000 -36.92460000 44.89270000
-48.27080000 -82.54870000 44.69210000
-44.16740000 -90.76400000 43.62060000
6.40010000 -21.41760000 65.14940000
-11.66360000 -22.56180000 65.11690000
-49.76360000 -79.39300000 38.64660000
-46.68660000 -85.73460000 46.75830000
6.35640000 17.94280000 54.92630000
-49.53060000 -79.42630000 49.88450000
-46.95310000 -83.43180000 48.65690000
15.00220000 -24.16080000 64.98250000
-65.57470000 -23.84850000 28.31860000
1.39580000 25.33980000 48.22750000
-2.59000000 21.90130000 51.61680000
6.40410000 25.39790000 48.34670000
-56.09050000 -64.23940000 1.56020000
-49.39940000 -77.65940000 51.42400000
-25.04800000 -37.08190000 63.23060000
-24.39690000 -29.75810000 64.30960000
-37.32730000 -27.46400000 64.61240000
-35.48050000 -125.78320000 39.47910000
-30.91050000 -125.15860000 39.61680000
-8.58360000 -18.17120000 65.38990000
8.50220000 28.89020000 44.71640000
1.63750000 27.31930000 46.59790000
20.89670000 -15.45310000 65.52130000
-34.30100000 -122.92520000 37.01500000
-23.67140000 19.71800000 53.74720000
-37.86310000 18.83790000 54.26520000
-32.55840000 -120.32630000 34.82330000
-17.33570000 14.10950000 57.67210000
-16.93370000 16.75300000 56.04710000
52.78410000 -31.20780000 63.64820000
36.78500000 -35.07810000 63.19640000
25.53860000 23.33090000 49.76060000
-18.68050000 18.58890000 54.53090000
-30.57130000 -114.85720000 33.03300000
-58.77110000 -55.71220000 4.99400000
-31.40660000 -114.24160000 32.53240000
-32.62130000 -111.23060000 32.88830000
-31.74560000 -112.39200000 32.81170000
-54.48890000 -68.97110000 19.29390000
-33.20530000 -110.15480000 32.23530000
-33.54210000 -108.02550000 34.31240000
-32.34360000 24.93810000 49.00320000
-42.29220000 22.08980000 51.67390000
-65.12160000 -4.89500000 -5.67930000
-65.82060000 -8.27670000 24.00000000
25.18790000 26.05970000 47.20810000
-28.88320000 22.57320000 51.37130000
-44.20560000 27.00950000 47.94870000
-48.24880000 22.30280000 51.97960000
-29.31980000 -111.54090000 33.16030000
25.71090000 28.35530000 44.92500000
62.30200000 -33.06980000 52.83480000
-53.05250000 -70.61270000 53.86370000
-52.14520000 -73.86190000 52.09240000
-51.26290000 -75.29850000 51.96520000
-50.07510000 -74.37630000 52.73200000
-53.74070000 -69.62100000 53.31520000
-51.62040000 -74.98800000 49.49850000
-27.43140000 -108.16600000 33.98430000
-31.74190000 -109.17440000 34.19280000
-52.27060000 -64.88870000 56.04430000
-39.47580000 26.39840000 47.96770000
-53.60410000 -67.33330000 55.30980000
-54.67090000 -66.60040000 52.43660000
-55.52200000 -64.46310000 50.56320000
-29.50190000 -105.18590000 35.46930000
60.02800000 -42.25670000 55.94260000
-57.45890000 -60.45360000 19.73050000
-56.65430000 -62.91660000 12.70110000
16.72930000 -42.72000000 61.72880000
-56.62530000 -63.30350000 20.96100000
-33.46460000 28.12030000 46.23300000
-34.98100000 -105.23960000 29.09740000
-54.64660000 -66.41190000 55.02900000
60.90900000 -40.78560000 57.85080000
62.38520000 -33.86260000 57.73180000
-35.27080000 -105.59860000 34.95530000
-55.47320000 -64.97320000 54.89580000
-36.73950000 -102.98440000 33.20420000
-56.78220000 -60.05840000 55.69050000
27.04000000 -8.07420000 65.45860000
33.54410000 -15.76060000 65.54880000
44.86630000 -9.03420000 65.39390000
-55.54250000 -63.01060000 56.52840000
-55.55790000 -59.36130000 57.77690000
-57.41340000 -58.06600000 57.30420000
-25.31820000 26.97460000 47.27480000
-56.48740000 -50.08670000 60.29090000
-37.16090000 -102.54600000 35.90780000
-17.72130000 24.15530000 49.81630000
-26.59290000 23.85900000 50.02980000
-20.83580000 -19.05370000 65.29260000
35.35330000 -3.78920000 65.08200000
-38.29370000 -98.75650000 39.80980000
-36.26320000 -100.22340000 39.08210000
-20.70120000 25.88630000 48.25450000
-58.40040000 -56.97870000 9.28940000
-57.02880000 -62.28480000 9.09220000
23.69780000 -5.45630000 65.38390000
22.90150000 -1.43550000 64.72870000
-58.25710000 -57.04190000 47.51630000
-59.11200000 -55.10190000 43.40810000
-55.84570000 -64.87570000 33.89790000
63.65360000 -30.09790000 34.61240000
28.23320000 -28.10420000 64.51150000
42.64470000 -28.03550000 64.21090000
-34.89920000 -98.00250000 39.84010000
-23.57620000 -16.13260000 65.56070000
43.81030000 1.93300000 63.97970000
46.73030000 -1.17800000 64.57330000
-57.33970000 -56.10140000 54.95310000
-28.41550000 -15.46890000 65.35820000
-56.95930000 -59.35310000 51.59060000
-58.62160000 -56.82580000 12.05040000
-18.44940000 -13.49480000 65.39290000
-26.04930000 -104.05180000 35.65510000
-60.03290000 -50.05620000 50.22300000
23.24970000 -73.69810000 52.07870000
22.32230000 -76.56900000 51.07960000
36.00640000 -73.35360000 51.83150000
-58.81640000 -51.29990000 53.77970000
64.42540000 -22.81160000 50.18800000
34.37200000 -67.64530000 54.02340000
23.85690000 -68.53400000 54.05140000
-61.83270000 -44.03310000 21.95350000
-64.33110000 -32.21080000 26.98620000
-63.19850000 -37.03560000 15.94640000
-58.56730000 -52.26350000 59.57900000
53.92030000 -3.21270000 64.74180000
61.41680000 -37.56000000 62.83450000
63.89970000 -34.58850000 62.31780000
-59.43550000 -51.31570000 59.34380000
-29.89240000 -98.85160000 38.94220000
-62.64820000 -41.59470000 37.26490000
63.55910000 -32.39090000 60.31650000
-58.43630000 -51.23880000 55.21510000
-17.90750000 -97.94230000 39.54080000
60.02680000 -34.94270000 63.10550000
-13.23420000 -102.79870000 36.61330000
62.96780000 -34.21480000 63.82880000
-59.50450000 -50.66400000 58.32970000
-64.04810000 -34.40780000 42.79980000
60.68050000 -27.46380000 64.38880000
63.81790000 -34.24570000 63.62490000
-60.49110000 -46.33600000 58.34280000
-61.23570000 -45.52980000 60.20590000
-60.89260000 -45.81230000 60.82880000
33.12730000 2.80230000 63.64910000
2.92570000 -73.16270000 52.79080000
-1.05140000 -78.99850000 50.36080000
11.96430000 -72.27880000 52.94680000
64.97540000 -26.91220000 63.14110000
-52.22330000 -73.60550000 45.18520000
-65.26660000 -27.77520000 35.28530000
56.53080000 -26.63520000 64.33200000
64.80520000 -28.99900000 64.03310000
63.87620000 -28.19550000 64.80730000
-3.33150000 -64.41990000 56.12280000
-3.53030000 -70.95350000 53.83160000
-61.59350000 -46.10810000 44.57890000
-59.59540000 -53.36070000 27.37140000
-57.94770000 -58.81330000 29.56950000
6.39050000 -66.03340000 55.35380000
44.64080000 7.12590000 62.30380000
35.87830000 4.77010000 63.21880000
-38.00130000 -100.53690000 38.21760000
-40.74830000 -96.73970000 39.62680000
64.45270000 -24.79950000 58.73140000
-41.25340000 -95.43340000 41.39910000
47.86760000 4.90660000 63.22640000
64.79550000 -26.72760000 64.87250000
39.24720000 11.01260000 60.50080000
21.24310000 5.06040000 62.79910000
-65.40850000 -24.65440000 48.72590000
49.69200000 11.25250000 60.26140000
64.95700000 -17.95240000 56.98060000
25.52570000 -19.07370000 65.53680000
65.33070000 -16.50970000 46.77830000
38.26310000 -19.97410000 65.19340000
58.62020000 -4.74670000 64.84550000
49.52370000 -13.70230000 65.36310000
