-8.81044292 -34.30924225 -33.31398010
6.31543207 -71.02110291 -2.74421406
-19.34692574 -74.95829773 8.11559296
13.04981995 75.93754578 6.20623398
16.22389603 -19.87439919 -31.20356941
-16.44013977 -72.27841949 5.97528219
-0.43642500 -26.50929260 -34.81118774
11.79400063 73.86470032 12.79796886
16.39587402 22.45365906 -4.24926996
-5.91849899 -74.94412231 -15.57446384
-22.43279648 -70.12322235 8.44805717
17.40007019 -74.23414612 -12.78455830
15.61507702 -4.68955898 22.73970222
-12.12881279 -73.55555725 6.23925877
-17.32033348 -20.08892632 -27.40211678
10.66383266 -71.98896790 28.84971428
-3.49248505 -75.13488770 -19.21214104
0.43433401 65.12081909 9.78309441
27.65930367 -14.59373569 28.58309174
-0.20106199 73.08559418 10.92908001
6.07236719 72.94134521 -7.60868216
23.90098763 -4.33092117 11.73455524
6.42743206 69.21268463 9.17531490
17.59857941 -71.18309021 19.29540253
-6.37822580 -70.51262665 6.43386221
0.47459400 36.55528641 -10.94261932
-1.22670197 68.67536926 -5.88066387
-17.90513611 -3.66181493 6.55046988
-7.55836201 -70.74678802 16.91368866
19.61491013 -4.39776516 18.89674187
8.85838509 -24.89935112 -34.33880615
-19.71497536 -22.53305817 34.19899750
-0.01869700 78.08517456 11.59430504
19.46103096 2.31784797 11.64374447
9.81491089 78.52590942 11.65417671
12.93422508 72.76581573 -1.60165000
8.38565063 -66.44998169 31.98839188
-21.65292358 -42.60616684 -24.82620811
10.26474953 66.82978058 -4.06802797
7.09122419 4.29990196 -13.81258202
-22.52095413 -72.85844421 1.30046594
11.55757236 76.40305328 13.23700047
1.92380095 -70.95594025 -21.34417343
-14.08607388 -73.40481567 4.56414318
36.89042282 -36.75281143 -16.25993538
16.72745323 50.29122925 -1.61340404
-13.19559860 -70.93537140 13.21922970
8.82349491 -73.02986908 24.71623230
-7.61398506 -47.68148041 39.17352295
22.49963951 -70.00753021 21.28719902
0.51125902 40.06192017 16.05714035
-20.44096375 -70.76448822 13.94570923
-20.96092224 -73.53263855 -4.63337898
0.82638502 -71.76042938 -15.44527912
-31.36321259 -35.23433304 -13.77706146
-28.08792686 -20.15757370 24.01045418
-4.08041906 -26.43416977 42.06610489
14.77311325 -70.63465118 19.05315781
34.16183472 -29.34245110 -20.48761177
13.33003139 -58.50080490 -27.40667534
7.56937218 -74.05239868 -12.04039192
-17.79789352 -75.23040771 -4.23377895
10.32504368 76.45303345 -9.80626011
11.38181400 -71.66178131 -15.31818008
1.02588403 -69.40834808 30.51133537
0.35284099 -71.87128448 -15.93304253
12.87679672 69.35925293 -0.05237200
-13.13141727 -49.20581818 36.43185806
-5.54474783 -70.16060638 28.60119629
15.94350719 69.68199921 7.51124096
0.18866800 66.56398773 10.55471230
-17.33960342 -57.76708603 29.78734016
2.28138590 -72.56830597 -13.96041107
20.39202881 -70.95163727 5.03212404
10.79586411 18.25999451 -10.18875599
17.98340797 -17.63571358 -29.42104530
-4.20148993 -64.54043579 32.65665054
-17.30292130 -67.67726898 22.67506218
-29.40565491 -20.08316231 21.75219345
17.28580666 48.36643219 0.91560799
13.68598747 78.01857758 -5.31414318
-2.65880108 38.92468262 -9.67196465
0.45856100 -71.75652313 -16.26916695
16.32336044 55.16950226 -2.57635593
31.51157570 -15.45828438 -17.23737526
-15.98630619 -75.39690399 -10.53973007
0.66620898 73.63761139 -7.49305105
-7.95748711 -9.45439434 30.46894836
-22.72028160 -73.42817688 5.57418203
17.44675255 25.26893616 6.75410318
-6.60559893 -70.30274200 28.13773918
20.22948074 -49.46976852 36.11497879
-9.91116047 14.27628803 10.66954136
14.24458599 -59.71448898 -26.45723343
9.17733479 -70.63105774 3.99256706
14.44605541 52.38815308 10.43422127
3.45387292 13.89238358 -12.51578999
-4.25449610 41.38167572 13.94723797
-10.99105072 -11.28639412 31.95217323
4.43452883 4.07977676 20.82744789
-8.55028057 -69.18273926 27.97386932
-32.25421143 -45.07323074 15.92525101
-25.78227425 -63.69852829 11.61110687
0.69908899 67.74488068 -6.48695898
-13.07693100 -73.81104279 18.72663879
-17.82463455 -72.70280457 2.59634900
24.97036171 -74.18171692 11.62175846
9.12951756 -72.89986420 -10.91267014
-0.74830800 78.50195312 13.11607265
-0.50501299 71.66381836 -6.83599281
-16.32524109 -71.26142120 6.88218880
-25.05256081 -57.43142700 21.19580650
23.81576157 -70.85719299 3.09958911
-22.73238754 -9.14703274 15.30747890
14.01785564 19.77939224 -7.60548687
-8.45966721 4.01529503 16.16654968
-34.93977737 -39.73695755 -0.04365700
8.70052147 67.49626160 -5.24965000
15.63928890 -47.90975571 -30.93494606
-2.84495807 72.46532440 -5.33289623
26.24873924 -74.04362488 7.23779297
11.71058846 77.85056305 -5.27057219
-4.34471798 15.56924438 -10.15788078
12.12207222 -39.46826935 41.49575424
-1.05327594 64.77354431 7.67545080
-8.72843075 24.91176224 -4.83287621
31.25877190 -8.71151447 3.39819503
22.67378426 -18.52445221 35.14923859
-5.16379118 76.24729156 6.59717703
-26.75692749 -10.26345921 3.89596295
20.21338463 2.82230997 -2.83447289
15.25010681 -12.82414722 -26.88019180
6.03451395 -2.28158498 24.05016518
14.93824959 73.07726288 9.31133080
-10.59725857 16.86215591 8.41729832
15.51037407 -47.43844223 38.82402802
-30.79719925 -55.32460403 5.14290190
-6.87493801 -75.00292206 -14.38235474
9.93739510 -36.74285507 -34.63750076
3.89482594 -72.60888672 -13.61622429
1.49728799 -74.49271393 -20.58489037
3.41516089 -75.20896912 -12.32284069
7.76027107 -70.56026459 5.01401997
-6.93350792 -54.45429230 36.99285507
-1.91572499 -4.79912090 25.66404533
15.79183865 -57.43049622 -27.06241989
7.17114401 -61.47206879 -27.26785660
23.71364021 -36.00034332 37.22184753
-17.25075150 -71.66867065 8.45913792
7.49034500 71.22370911 -7.02009296
-33.29108810 -21.42756462 13.08560181
-17.37741852 -75.37610626 -6.07748890
-4.09060192 64.78895569 4.99782705
10.86588001 -74.73585510 25.59426498
-19.03851318 -51.35576248 -24.06630707
-16.32630730 -72.07621765 5.38905001
-12.06210136 -49.43093491 -29.11101151
-0.27466401 65.37562561 9.03044319
23.47382164 -65.03421021 25.01143074
0.46956801 72.84880066 11.18893433
24.56059074 -72.95690155 -1.07282901
-0.27348199 -73.44823456 -14.91528416
-7.97349691 41.65221024 -4.83957481
-10.59912968 -60.24970627 32.69159698
-31.07781792 -53.70071793 -1.43974602
-6.42617416 77.37494659 2.26520801
-17.63795090 -71.54888153 4.87730312
-8.47832870 7.77916002 -8.11879635
14.10560513 1.11103594 18.74369049
-0.76499599 75.64466095 -10.86330700
11.65534496 -70.89727020 -11.13976765
2.18013501 47.99019623 -11.14821815
-9.66128826 60.73297119 2.88182712
-33.26385880 -45.90320206 11.42872620
-7.54391479 40.85110092 -5.49929285
-10.23596001 35.06025314 0.90333003
-0.00847900 -6.07970285 27.74446869
-25.55834389 -31.00610352 30.28124428
-11.82852173 -51.70179749 -28.38493538
-12.90977383 -22.16679001 38.34904861
5.41745901 70.07369232 11.18958187
34.13238144 -60.96596146 10.64573669
25.58019638 -6.30237913 -5.73204613
-8.59434128 -51.98810959 37.39405441
-24.46035004 -19.35907936 28.39189339
29.24887657 -65.05458069 -9.58564091
38.16211700 -53.45417404 -0.33397400
-21.80663300 -9.21137619 17.39645576
-4.33307600 3.71746993 -12.55739975
-3.38881207 31.60420609 -9.53647995
-35.00094604 -39.75004959 7.12932920
9.17476940 -70.61550903 5.73294306
3.62398911 34.39912415 -11.40282917
-13.98885822 -73.39971161 4.80409384
-22.89747620 -36.43444824 32.63557053
-1.88154101 -72.16256714 -16.01901817
10.52762032 74.14928436 -5.20438099
-1.55913603 76.74401855 14.29284668
34.46247101 -56.94920349 16.30367661
-28.66597557 -34.70964432 -18.38850403
-26.45197296 -15.43384743 -14.86291504
2.09806895 -72.90142059 -14.38566589
11.15550804 78.05393219 -7.41330481
11.86037922 4.72709608 -11.84321594
-29.80388832 -17.57544327 -11.15541553
11.80092525 44.25342178 13.46320724
-4.42713881 -22.79253006 -33.54626846
-7.66830683 -17.15691185 38.26329422
-4.66424704 -71.33597565 23.48562050
8.55401325 50.30278397 15.02805328
-22.99546242 -69.07234192 -2.19096804
-6.38662386 77.97708893 -6.16975784
-3.95375395 68.37863159 12.99411583
-9.04862976 64.86672974 -2.16546893
-5.32535315 -71.88364410 -14.17963314
33.67066956 -27.53407860 -20.83896065
-7.86331081 -70.85868073 15.79423046
17.45899200 -0.90298897 17.32255173
-16.86734581 -52.56417847 32.83569717
32.97362900 -64.07218170 -0.06142800
40.85863495 -20.91759872 -0.25832400
38.85979462 -51.88268280 0.67600501
8.98994541 -73.31426239 -12.25326443
24.03241158 -51.21599579 33.08737183
-10.40968418 30.85535049 4.68735218
0.02276700 68.22517395 -10.89076424
-21.79282379 -16.07445145 -21.37560272
9.74811935 -62.77891159 -26.08387375
-1.65103400 25.30548859 16.45372772
-9.91082573 46.67367554 3.56936002
2.04013610 -71.71767426 -7.20614386
-7.36338615 74.03338623 -5.83012009
-2.39722800 -75.44929504 -18.81251335
33.12230301 -49.67299652 24.69406891
-7.52054310 -70.85717773 16.00387955
24.96915627 -16.78555107 -24.77707863
10.50972557 77.85114288 9.92048931
28.31060791 -74.03147888 9.57287312
40.44535065 -22.90873528 -5.81477404
-12.08441544 12.14593983 1.49109697
30.04896355 -47.76359940 -21.60881805
10.92992878 -71.04086304 -3.83518410
-3.37377501 -72.39723969 -15.71433640
22.49115753 -6.95871019 20.66050529
0.19033100 -71.81480408 -16.10260582
3.41268110 -71.59581757 -8.93424892
6.00421715 45.34358978 -11.01454163
-15.10893631 -72.47409821 7.53687716
-18.67166519 -73.14865875 18.31681633
27.26495361 -10.64763546 23.41905212
-9.54051971 56.42889786 4.57593012
-13.51611900 -22.33504105 -30.32065010
-25.81153870 -54.68875122 -14.59812069
5.28235388 62.45183563 15.42055035
-1.46019697 78.00576019 13.75958824
19.55564499 -68.88139343 25.14362907
-11.99305344 -72.03349304 19.06820869
-2.20035195 -10.40351200 -25.97307587
10.74219418 62.82927704 -9.22207165
-19.08713150 -5.69927120 -3.07017803
13.21066570 77.87275696 -6.48751402
11.47797394 71.30207825 12.92863464
10.41420937 -69.81990814 -20.97465324
-9.24408817 -70.77960968 16.73708534
-11.54121971 -2.84785199 -11.00788212
-12.87555408 -73.09675598 6.24826717
-0.42207101 68.17407990 -6.29811096
8.35855484 58.57873535 -10.34261131
-26.91501045 -34.44547653 28.65602112
-17.03715897 -17.52899170 -26.30614090
8.83403301 -70.98664093 -5.93439198
-15.47156715 -67.25479889 24.84769058
-25.37488747 -9.64726067 9.28029346
-9.59577179 60.61230469 0.35121700
-20.98052406 -74.63465118 12.84456825
12.05968094 -19.18243217 -32.13712311
-1.90113699 63.78122330 14.21539021
17.76887131 -74.61324310 -13.07647610
-13.24111652 5.07811689 -0.57459199
19.80645752 -34.56443024 39.45727539
-2.48023510 70.40770721 -5.06790781
27.72659683 -29.91925240 -26.94666290
-32.05538559 -18.72764587 13.92700005
-30.50371170 -47.62532425 -10.76856899
29.29781342 -72.53188324 4.13759089
5.12620783 71.68997955 15.32896709
21.28015518 1.32259405 -1.31349003
-7.45470285 77.61945343 -5.21182299
23.32307434 -23.78083420 -29.04487610
-4.13638496 73.04338074 -3.92028189
-6.60435486 38.99593353 -6.63770294
-20.78902245 -64.79295349 -13.29879475
-18.55274391 -65.73829651 22.88520241
-10.07568645 -73.34578705 7.96852779
11.50788116 72.73278809 -8.95868492
2.47578907 65.79637909 10.68704605
-9.67358875 63.17683792 2.28119493
-11.16598988 -71.31224823 7.18766689
20.89428139 -0.11547900 -4.59154797
10.87254047 78.19605255 12.94726467
2.37141490 -33.74316788 -35.32378387
7.35565805 21.43377113 -11.41400146
-8.18282032 56.54372406 -4.04375410
-18.37245750 -70.54203033 18.38939095
24.51685905 -5.06656694 12.35170746
-18.12788391 -75.08830261 -8.59253979
-15.29879284 -4.10764313 15.09121227
13.65682888 75.12606812 4.38796091
-9.18988800 70.52330017 -1.87696099
5.17694378 31.19540787 -11.34153366
19.08278656 -6.92427683 -15.63682270
-8.87523270 26.73827934 10.12539101
7.04108191 30.20663261 16.51530838
15.24096584 73.73229980 8.91352654
8.64992809 -71.36898041 -8.94697762
-16.71871567 -71.24121857 4.65692711
-15.05975723 -74.45048523 -7.73065615
23.99304008 -74.21344757 18.11164284
9.07013988 -70.88518524 -12.32199478
15.41489697 -74.62912750 -14.48909569
0.55127102 78.10853577 -8.79456711
25.21777153 -74.48868561 15.73805046
0.40386200 -43.79233551 -33.95134354
34.03838730 -29.20666695 -20.62137222
3.99209499 76.98520660 -11.50522327
1.89447701 -75.03283691 27.57106781
-26.53233910 -64.03009796 1.32940805
27.20490646 -8.89728260 -10.70926189
-5.44760799 78.38816071 -5.44681501
7.33587885 66.60102081 14.95285606
-34.91141891 -27.66029739 -3.29938412
6.10329199 -71.66166687 -11.04129124
-9.28409672 10.27649689 12.81251812
19.76862907 -10.37634468 -21.27492142
9.91146278 61.46800995 14.02741432
-9.92792702 0.69208902 -9.83722401
7.54488182 -73.13441467 29.32129860
-13.80139923 -64.77616119 27.96460533
-30.28834152 -52.30316544 -7.08405876
-33.00925827 -29.78954887 18.07978058
25.55103111 -72.44100189 -8.92174625
26.06998444 -73.18566895 -7.36979008
-5.57110691 78.14741516 -3.53613400
9.41195488 -73.96763611 -11.63099575
-17.91066551 -59.42226028 28.24125671
-15.96396446 -74.72010803 16.30430603
22.77525711 -8.74610901 -15.85730362
30.69482040 -16.65077972 27.20140457
2.10450411 35.78793716 -11.23560047
9.89046478 -71.41345978 -4.26721382
27.53588676 -69.89608765 -5.28786182
19.83547783 -59.10923767 -24.14908409
-7.75813293 -72.55864716 -13.08659744
18.99983597 -73.78515625 19.27124977
-32.44895172 -19.95596695 -6.99964905
-8.25258827 42.03498459 -4.41130304
41.94988251 -25.05563164 -0.41925699
37.33598328 -15.60955715 -5.66925383
-3.13854599 -72.35140228 29.42145920
23.95330811 -74.75842285 -8.13322830
5.87618494 74.55593109 -7.83069611
26.56821823 -8.49963093 -10.59724808
-11.92691803 -71.34128571 7.33757877
4.44155502 -72.67945099 -13.19897938
-9.18292046 60.80320358 5.88570118
-28.33724213 -54.39150238 17.74840355
-7.69093704 -75.50462341 -15.69169426
17.34093666 -66.52227783 -20.72090530
-13.58118153 -71.64495087 16.94599152
-4.51181698 65.19103241 4.96328592
11.60497665 70.70160675 12.83049202
-7.03681898 -74.02867126 -18.66026497
-13.98338223 1.25479400 -2.68134499
13.08504009 73.92076111 -7.68214083
-16.63176918 -35.46589279 -29.62247276
7.60604620 -66.41690826 -24.28007889
21.50031281 -24.26085854 37.95131683
16.22871971 53.41349030 -2.85760093
-9.69085026 58.99724579 2.70485711
-20.68043518 -62.02630997 -15.90740204
5.99993181 75.58862305 -11.34883499
-17.93957138 -71.96447754 5.73551798
-21.04740334 -75.41392517 0.38441199
22.07623100 -72.86618042 20.81687927
-15.73248482 -73.68499756 -6.04809523
34.68453598 -51.14952087 -13.65136337
-3.67912698 74.76537323 13.23636246
-13.73602200 3.41904998 -0.71046400
-1.22470403 -71.35956573 -12.79766846
12.19975471 64.23711395 12.40499401
26.82467079 -73.67955780 -5.67391396
8.31220913 -74.66110229 -20.05907249
22.46343994 -44.57717896 36.42884445
-17.67179108 -73.50694275 9.96583652
15.77580547 -55.68864822 35.49152756
-31.79963684 -32.07082367 21.11552620
-17.26054001 -75.46555328 -7.97926092
-2.14829803 64.51107788 3.44310188
24.77962875 -5.91796923 14.52154732
-19.60189819 -74.92008972 15.29045773
-12.76230335 7.25437784 0.22179601
34.50623703 -20.91222000 -17.44965744
16.72906303 -71.36712646 -12.06831932
-4.99932098 -72.21910858 -19.81807709
-1.73626101 -72.18779755 -15.88436317
-0.48454601 76.40867615 -7.50157785
32.06115341 -13.57689095 22.09912682
38.09110641 -14.94016647 6.55192709
-5.61642408 68.38996124 3.09237504
-23.58396339 -22.59957504 -23.24589539
13.30040359 -54.10453415 37.09109879
15.39241695 -75.01280212 -15.64273739
35.84414673 -18.94388199 21.78235435
1.35083306 67.48751068 11.30017567
-3.72966790 26.66324615 -9.57560158
16.57152939 -71.59866333 -12.40299034
-1.68313098 -70.54859161 8.61058044
21.66737556 -53.01344299 -26.17351913
-8.29791832 -7.13339806 26.43638229
16.34047699 7.50174189 -7.19505501
31.60140800 -45.00816727 28.73537254
-19.96169662 -10.47939205 -15.67757034
-8.78609276 75.04946899 -3.20516896
12.42361259 72.09751892 6.01325321
-9.69769955 55.43779755 1.00377202
25.35157585 -74.49566650 13.14234543
-17.44590759 -74.72531128 -2.61983395
35.91947174 -52.49171448 -10.11014748
-21.93378258 -72.66307831 -1.68064904
9.00609207 29.96044159 -10.38987637
-0.06317500 62.07394409 -10.74531841
-14.79755116 -37.96185684 38.20000458
-30.91504669 -54.70811081 0.34859899
1.93537903 78.41162872 12.62628365
-7.93951797 -70.85678101 19.24938774
34.72464752 -30.03115082 27.61925888
12.25047970 -71.71496582 -10.64171314
23.60995293 -57.72481918 30.03157616
13.27486610 62.51487732 -7.16333103
2.24275804 -69.59401703 30.41715813
-18.46270943 -63.06906128 25.13466072
18.64358902 -21.61679077 38.56738663
13.95365238 75.01013184 1.62170506
11.50810909 61.86486053 -8.71294212
7.24112511 -70.61694336 15.99976635
4.61886787 61.43773270 -11.21718788
-20.18230247 -74.95112610 -4.91712093
29.67914200 -68.55442047 10.01686478
8.93206978 -70.92605591 -11.65587902
7.03493309 -23.43525124 -34.34024048
8.57308960 78.64766693 12.78907108
-9.02756882 -40.62116241 -32.61118698
37.99925995 -35.72426605 22.10755157
14.38411236 72.76367950 10.06101322
13.99241447 -2.86030507 -14.40512276
5.08585119 67.44509125 -11.23788929
-5.10906792 76.97020721 -3.13365197
31.00796127 -67.73597717 3.76474595
16.90155411 77.73493195 2.15576911
-11.81359482 -73.49880981 6.58315897
1.45506001 -58.89656448 -28.74500465
5.22376394 -11.44842911 -27.63008118
30.83568192 -13.11240673 -14.97861576
6.32251406 77.41555023 -11.11171246
15.50231457 31.62078285 10.17375565
-14.12922287 3.53893304 4.68998718
-2.41548705 -50.34849930 39.61016083
7.42054081 -16.40983391 -31.55010986
7.66202879 -71.50507355 -16.26156235
7.41260195 72.08711243 -10.92949390
25.50792313 -72.75944519 16.25662613
-24.46438980 -32.64488983 -23.63027573
8.35185432 18.74587631 -11.24186993
14.54612923 76.83915710 -6.01220989
32.22847748 -24.87296104 29.76382065
16.42175484 60.34303665 6.46515894
-35.26103210 -30.66750717 -2.43209910
34.04638672 -10.99278164 9.45114899
13.62657166 -6.89277792 -19.07661438
23.05556679 -71.04491425 11.40346527
-8.12659454 -71.30950928 21.28458786
15.53522778 -4.79703093 22.93795013
-1.22013795 7.53005314 -12.75649071
-12.70061111 -72.06692505 0.41223699
-0.58385301 56.28435898 14.96755695
-19.33898735 -57.87126160 -20.31207275
10.52247810 68.11228180 -4.76090002
27.68869209 -60.12574768 -16.85243607
-6.69842386 34.40586853 -6.72344208
-9.99546719 -75.21741486 23.36266136
-12.98961163 -50.35158920 36.09771347
8.80692768 2.78409910 -13.81963253
17.09635353 -71.01428223 19.53103828
-18.68902016 -15.89934444 31.56327248
31.90303802 -66.28524017 3.99770594
14.40072441 -71.57015991 -13.80405140
7.55958414 -74.12570953 -12.51814079
3.89296293 -74.82546234 -12.03289700
-12.20396709 3.21996808 -4.93877077
-6.51226091 -75.06539154 -18.45824432
-10.51601124 31.64006424 3.27990007
7.02474880 67.43486023 -5.39286613
-11.96156883 10.40817070 7.31921196
15.46031666 -69.59645081 27.11669350
-20.31210899 -72.47835541 15.73748684
-11.29048443 -4.82626820 20.89839935
4.70998001 -71.40633392 -11.04891968
-9.55272961 76.11361694 -0.56703800
-9.73058605 47.20291901 0.07579900
-13.80314255 -75.23533630 20.28843498
-4.61029196 75.31597137 -8.78868008
6.27483082 -66.89305115 32.08011246
-6.07927179 78.19470215 5.27236700
-10.82322598 -53.26904678 36.01255798
28.86861801 -58.14868164 -16.98748589
27.57851982 -27.62603760 34.49453354
-11.13668346 -12.73073101 33.56250763
-9.11957455 -72.88275909 7.58530188
15.59979439 1.40431499 -10.53922462
-10.74390507 27.01706123 1.82167804
-4.61211395 -71.50276947 -13.77919292
13.26405811 77.45081329 -2.38064504
-21.38789749 -27.96903801 -26.25327682
-31.48682594 -23.48617935 19.74132919
17.56400490 4.82499599 -6.65810919
3.38978100 -66.51153564 32.45631409
-12.99117374 6.13587999 -0.19042499
-15.65484142 -74.37812042 16.08397865
-4.00432205 18.48382187 -10.03974247
-17.37194633 -73.24700928 9.11658573
-8.28385353 -71.75904846 7.57782602
-8.50464344 77.17887115 -3.55793190
6.85646105 16.15856743 17.86693954
-6.06159687 77.13061523 11.05717373
-7.64151001 19.51164818 -6.80831289
-4.35368299 1.53353000 -13.42691135
1.68691599 -74.50954437 -17.34045219
11.85547066 73.45879364 12.72092247
5.15110683 -72.91085052 -12.87266064
-17.06883812 -72.75158691 7.70957184
-21.51934052 -67.48645020 16.81026268
-3.56884408 70.89159393 -2.71338201
30.80934334 -42.39891815 30.41848946
33.37897873 -62.81333923 -1.91529906
-1.68988800 -72.11958313 -15.59146023
-0.60396802 -73.46965790 -16.69360733
-20.43866158 -71.05251312 -5.67287779
-25.57117081 -25.11888504 29.30537033
-11.69135666 -36.65959549 39.86235428
-2.95990205 71.33712769 -4.77905798
26.71445656 -74.34116364 10.01558590
-26.93488121 -14.58296013 20.39776421
-16.82477760 -73.46415710 -2.04507303
-20.10050964 -49.79345703 -23.81325340
-7.17737484 -75.51797485 -17.52292633
-7.65884399 -59.73738480 -26.41818047
-6.07795811 -71.01522827 21.90123558
23.71917152 -10.01898479 -17.58731079
-3.44281507 64.64582825 5.86464787
-8.43406677 -19.27569199 -31.40654182
11.67349529 -72.35829163 -9.58012199
16.72332954 -5.09193420 22.55456734
11.10521698 78.03781128 12.90816498
21.57850266 -49.67576981 35.27757645
36.64768600 -37.52973175 24.17723083
17.44956398 40.79697800 3.73703790
14.82521820 -49.43298340 -30.70471191
7.57174492 74.29393005 14.84209824
-18.10466194 -72.89717865 7.03398800
-14.68980503 -0.06403000 9.83511543
-1.83070600 -73.02968597 -16.27841377
2.46436810 78.27755737 12.47836018
12.72579956 -13.06975746 -27.94124222
13.93195057 -26.22736549 41.28942871
15.14753819 -32.98005676 41.28631592
-19.67532730 -71.18975067 -7.27331209
3.84739399 -72.71076965 -13.47812080
10.12020397 25.90425682 -10.10857582
26.48705864 -43.02786255 34.07878494
-21.22862816 -12.55566311 -18.00302887
-5.02342081 -74.97357178 -18.98760605
1.54194701 -71.64237213 -7.66029882
36.80946732 -14.76369953 13.20615005
11.26722145 78.01699066 -6.42017984
-15.48426247 -72.36879730 14.70643044
-10.96762753 17.75259399 -1.11113298
-2.90360308 64.41527557 5.06120586
-8.47479630 48.20869064 -3.68873906
-17.14559937 -72.50720215 2.24649501
-16.39154053 -73.67383575 6.37598419
2.57622194 -31.22397041 43.11326981
-12.27845669 10.32313156 0.87464797
-0.04046000 -17.37214851 -32.20796204
-16.65383720 -3.10459995 10.14949322
5.82222700 -66.44187927 32.35454559
25.50488853 -21.02659416 34.40251923
18.10600471 19.04497337 6.00347090
5.08559513 -72.49285889 -12.80951595
28.09286690 -61.69353867 22.67245865
0.81125599 1.17466605 21.92239571
19.43086433 -55.24982452 33.85531235
18.77813721 -3.94966507 -11.72279930
-1.23585606 -71.34961700 -13.16405201
14.83276367 48.16672134 -5.50220394
11.49694157 -72.14671326 -20.02307129
11.24527073 14.44007301 -10.31269836
22.31801224 -0.63809299 -1.12530196
0.54269099 72.51509857 -11.13666534
30.97584152 -19.30026436 -21.08915329
-11.19228745 8.63062954 10.50427532
14.17100620 33.07131577 -6.72681284
-31.52735710 -30.52148056 -13.72191620
-3.34921002 -68.51861572 30.46300697
34.48239517 -33.37125778 -20.12836266
-33.87081146 -30.49984741 15.84368706
6.84904909 44.66685867 15.81511211
6.73200893 10.72547722 18.69746971
2.33543110 -71.86604309 -13.55368805
-18.66612053 -49.71638489 -25.03862000
3.00742507 -21.69631386 -34.03524399
-4.29895306 67.65950775 -8.77292347
-1.82135797 -70.60585785 -21.04172707
-0.57868898 74.39034271 -7.07449198
-33.76553726 -46.64316177 5.68082809
-8.92287922 -70.88770294 14.97846413
14.95469189 -60.86983109 33.19926453
13.70884991 -70.95327759 21.69435501
-3.81584406 -75.38451385 -17.06177330
-0.21319300 -71.81409454 -14.40454769
15.95610428 -74.39848328 22.45077705
42.10144424 -37.50939178 -0.70009297
42.64165878 -30.63434410 5.41495180
-1.25173199 -10.71478271 34.28670883
25.68253517 -69.17302704 -10.35441971
-7.75548506 -72.90440369 -13.42610455
-28.32211304 -52.76880264 19.28759956
-5.92618513 77.63475037 4.78788519
-6.66421795 -70.55082703 6.42686510
-1.48403704 -22.96238327 -34.03956223
33.42634201 -63.51777267 7.01831484
-31.90300179 -20.05817032 -8.76513004
-10.64497375 13.65357494 -3.22649908
-2.38557005 -70.75949097 20.64627075
-14.80373478 -72.37603760 6.97377491
-16.03888702 -48.26427841 35.03922272
-19.35396194 -75.29235840 12.76371193
-5.97483015 73.35126495 3.14828801
6.30158806 72.12042236 11.05394363
1.23699999 -41.03991318 42.26437378
5.34764814 75.40980530 11.99076653
-3.87633896 9.92029476 17.46692657
2.41649294 -71.37509155 -11.92344856
25.98298645 -22.03515244 -26.80353165
-19.24637985 -60.25225449 26.42112160
-13.54970264 -72.36767578 -8.63005066
12.26401997 -71.58303833 -9.99580479
28.50283432 -39.54999924 33.27401733
13.28074169 70.11974335 3.22072005
-3.84500098 75.95838928 8.54957008
1.12278104 -71.67479706 -13.78877163
-3.14339805 77.63075256 -6.12139606
3.90815711 25.16371346 -11.72571754
-15.68331909 -39.34157181 37.51397705
-4.75674009 -72.59941101 -15.01795578
12.99335098 77.43560028 -2.88487601
1.00702500 -70.51524353 -2.47920895
-15.96809959 -25.49487114 37.55972672
-17.10229111 -75.26514435 16.41287422
13.44232273 -60.42658234 -26.35784149
9.09942436 66.39646912 -4.73975515
8.08804131 69.26036072 -6.11915302
7.11889076 78.38739777 14.24881172
5.86472797 -70.64093018 14.74135494
16.92924309 -73.55596161 20.85615349
10.39420891 -73.43066406 -10.69676971
5.37121010 -70.98612213 -14.53043461
12.71644115 -71.08713531 -9.81400776
14.51318169 -4.49244404 -15.55462646
-20.68607521 -24.55735970 34.03165436
-26.84395790 -16.09888458 22.50863266
-10.38419247 24.51449966 6.95975494
18.53605461 15.86872768 0.61236602
9.45675659 -75.11493683 -17.81179619
-16.65474701 -73.97512054 9.08409786
-21.34356308 -16.04892540 29.35443878
16.32723045 73.90299988 6.66251612
13.43703461 77.74949646 5.97517395
-7.79804277 -71.56735992 -7.60929585
20.93321800 -8.39494801 -16.85999489
23.51403999 -1.80422294 3.25102997
20.08393097 -46.79916000 -29.37564659
28.35402870 -73.67823792 -0.43417799
22.92189789 -1.19414198 0.36274701
15.85535908 -13.41760445 35.23181534
-10.86616802 -74.83110809 -16.25330925
-11.14588833 -64.71902466 -21.89693832
-7.09922218 67.98143768 -5.95697880
-14.45785046 -14.95655441 33.80931854
6.77955198 -73.41776276 -12.36701965
9.09028625 -46.23503494 40.78247452
19.21459007 -70.94525146 5.71939611
1.39489496 -73.01284027 -13.42666626
-35.31086731 -27.36790657 7.94266605
7.35023785 -57.13747406 -29.37848282
16.81815529 -10.44934654 -23.15147209
1.54376698 75.02618408 -7.87454510
20.77541924 -2.37283111 -7.40335512
12.20433426 -71.28990173 -9.56029510
-12.46216679 8.88731861 0.52127099
-2.24265504 58.69563675 -9.81327248
20.44725037 -45.72688675 37.23320007
-2.42068791 -67.96500397 -23.05867577
-20.81144333 -7.18432093 -4.17989206
10.99834347 -49.78003311 39.35092163
10.10108566 67.37798309 13.82253361
1.16009104 -75.01370239 -12.50699043
-3.90521407 -53.32381058 38.19039917
11.16228676 78.00407410 9.47103119
-3.32961202 -71.54225159 -15.29959583
-9.81542587 -74.16951752 22.08081055
36.07089615 -49.90716171 -11.84416962
12.14620304 -72.11546326 -9.95837212
-9.00597286 43.74718094 -2.70703793
0.01449000 69.29789734 10.56200504
3.13608599 -56.04952240 -30.10832977
0.20783700 -48.95085907 40.42169189
10.85126114 -74.80709076 -16.76043129
10.75121498 42.13436508 -9.26775837
-19.26951599 -21.46114540 34.15612793
-4.74197102 -74.82189178 -19.17639160
11.65174484 -72.25901031 -9.01384640
22.85522079 -7.16444016 20.70477295
-4.33163023 65.67806244 2.65244102
20.60256195 -32.62941360 -31.41925812
-13.84584904 -71.01667786 14.60578918
-23.65772247 -67.10549927 12.28347397
-22.76118469 -20.48627853 -23.22112083
21.18406296 -67.90575409 -16.97224426
-3.60765100 -75.57847595 -17.87088013
23.47124481 -69.83412933 20.23381805
-32.82241440 -48.41268158 10.13877392
-35.71678925 -30.29391861 4.05409002
-30.44627571 -14.12605953 9.25415039
-11.51467419 -0.28136399 15.71410179
28.62146759 -51.90354919 28.96815681
-0.33403400 -50.49634171 39.86138916
-2.98915601 46.80967712 -9.41277695
40.18176270 -21.00347328 12.44622803
2.12745810 -72.01698303 -14.53098774
14.16739941 -73.29445648 -18.70412636
-5.20475292 -63.31511307 -25.23749542
6.42530584 74.08547974 11.64310932
-17.53136444 -71.47079468 4.07450819
3.28558302 -48.33540726 -32.90930557
-7.61768723 -6.13219881 -17.78950500
-5.23741007 27.98945999 -8.48190117
-6.45135880 -70.97368622 -3.35617304
21.61544800 -72.92758179 -13.66008091
15.59552765 19.24942207 11.38475227
21.26677132 -72.93003082 16.03015900
7.05959892 76.62786102 11.56210518
-4.48594999 67.94395447 6.50884199
-1.61025798 73.36593628 14.22437954
-28.80605507 -57.08907700 13.14895058
1.35251296 66.94837189 -5.70470619
18.44412994 -74.28578186 -15.51254940
41.01675034 -41.62015152 11.29712677
28.86954498 -73.36023712 8.37405300
-26.68048477 -10.72255421 -2.38496590
-6.84955120 6.46762800 16.57948685
22.98528671 -74.72190857 -10.06226254
31.46929169 -37.12216568 30.91506577
24.23798752 -72.45659637 -0.74507701
-19.17057800 -44.90345001 -26.26333618
-8.57586575 77.98770905 -2.23716307
-3.14359593 -71.80517578 -15.60737514
-7.40445280 -71.80858612 6.50853205
21.91115189 -74.11694336 -8.12921333
26.60689163 -9.99960709 22.81744766
-7.34809494 -71.99697113 6.09580278
19.53283691 -70.92095184 16.62404060
1.37890601 -70.41373444 0.41137201
7.48005199 -71.91623688 -10.73738194
-3.31551003 64.75129700 3.89388108
34.28555679 -58.95866394 13.88199997
-5.43947506 73.46305847 5.44785595
23.62318039 -14.74529266 -24.19469070
31.98640633 -35.93905640 30.57050896
18.46581078 -71.27862549 -10.39220619
4.04967499 71.65834808 11.76774120
0.92705297 -71.55036163 -15.50506115
-12.02299976 -50.41040039 36.50168991
25.40916252 -45.96627045 34.07906723
-7.65526104 -24.74424171 -33.13368607
-11.60263157 -70.97574615 17.30266380
20.12005997 -24.08706665 -30.83091927
-12.02337933 -73.40851593 6.59898901
5.40699387 -72.69468689 -12.79716969
0.57270998 32.74527740 -11.04707623
-17.14023399 -5.33685923 -6.76131296
-0.92603803 68.40332794 -5.99348402
-1.25171304 78.55482483 12.15006542
12.32489300 13.24927330 -9.79328918
16.21721077 -74.28202057 -13.63867188
14.25106239 -74.83867645 24.49334908
-11.41136169 10.47481441 -2.61136794
2.59798408 -71.97334290 -8.44163036
25.64523125 -4.63557386 4.26993513
-21.77109528 -19.81700706 -23.83038139
30.18356705 -39.63190460 -24.12715530
-33.20015717 -31.06350136 17.79979515
12.46935844 -71.61574554 -10.21083069
-9.12535000 -73.21561432 8.27047253
16.18540764 -58.16706467 34.11412048
-8.81169987 22.56376839 -4.96906996
-11.56774712 14.76557446 5.89731884
15.52081680 77.06557465 -4.35945606
-25.28845596 -62.73391342 -7.28292418
27.71403503 -10.97752953 23.53502655
-2.07990789 33.16823959 -10.10608959
28.48652840 -71.07866669 10.35995197
24.74807167 -65.77749634 -15.38038445
-28.16024971 -47.51488113 23.19223404
-30.41355896 -13.55579662 4.53986883
-7.63353205 -70.76105499 10.52126312
-35.54985428 -28.10329628 4.83324480
-10.31209469 -28.54602432 -32.67991257
16.82994652 16.85812759 -4.17096996
-21.11087227 -72.47343445 -4.36142015
-7.18121481 -73.77577209 23.32164955
-18.11503220 -74.67011261 11.51005554
-6.74033117 26.52822685 -7.18202877
4.12649918 -4.89833498 -18.96868134
28.35195351 -70.01355743 -2.63600397
-0.89634198 -72.43580627 29.84621239
-10.61316681 -70.33367157 -17.82756424
15.03960800 46.59020996 -5.20955706
2.51155901 68.63187408 11.60997391
-0.58835000 17.67692184 -11.58815098
-3.19889808 76.39289856 -5.74429417
19.96587944 -9.10490322 -18.97004509
-9.44746208 53.71606064 5.44141483
17.07112122 58.44316483 2.80186391
-13.34700584 -39.13967896 38.77859879
-17.12536621 -73.90910339 12.49006939
31.10792542 -17.48660851 27.45374107
25.62296867 -73.25776672 4.96548700
0.65924102 -73.03389740 -13.32905865
-34.62815857 -28.20932388 12.28319263
11.25664139 72.21479797 -9.08687019
-15.74653053 -47.33985138 -27.84579659
25.46651649 -6.69461918 15.53071404
-10.74930286 -75.06717682 -12.76716137
-6.59854221 -31.48089027 -34.02201843
-9.01313496 72.49932098 -2.54415107
8.76349640 -71.33934021 -4.05235577
22.32665634 -67.12014008 24.43523026
7.77562189 -72.96080017 -12.55755711
16.95425415 10.65428162 -5.39429998
16.65015030 -71.98159027 20.51514626
4.92633390 0.62481201 -15.42230701
36.57247543 -57.32955933 0.33554500
-16.32084274 -71.77515411 12.42815781
14.35151005 74.40548706 -6.36025715
-21.38557434 -41.79919434 -25.25814819
-3.84169602 65.06370544 6.46783686
27.34008026 -36.80379868 -27.00880814
-17.79122353 -72.56552887 8.02413559
7.79952097 72.24994659 14.74565697
8.70743847 3.56599808 20.24207306
28.08674240 -73.68447113 11.01236439
-9.53138161 -34.91355896 -33.04711533
-21.94441032 -38.98562622 33.05233383
-12.63351536 8.00611401 0.46840701
-13.32226753 -72.33423615 8.81041145
-15.09765625 -74.94951630 -12.62892437
28.21513176 -14.27323818 -19.73609734
11.87233639 -1.51882899 21.78816795
6.24364090 -70.84827423 -5.83217716
19.87956810 -26.57352257 -31.40716743
22.38591576 -14.78295040 -25.10320282
16.75242424 -0.97653502 -11.04242611
-7.49625778 -70.82699585 16.34465599
10.06401539 -26.75563049 -34.46834946
28.97119522 -65.65530396 -9.35447502
-13.42501354 -2.42902303 15.35004997
-4.40899420 -44.42239380 40.92447281
-7.54527998 61.58418655 -5.19242620
4.14750910 -73.09710693 -13.59671783
14.80281734 14.09540081 13.41887379
-7.22029686 40.05697632 -5.91895390
5.49999285 -71.91577911 -13.21033287
13.67022610 -71.07603455 -10.62177658
-1.98234999 75.07702637 14.11130047
39.71968079 -24.02312660 16.67175484
35.56092072 -55.32483292 15.37729740
-9.52447510 68.41654205 -0.23271400
5.49994898 -72.89665985 -12.79444504
1.59137702 65.67045593 10.66207600
11.74276066 67.72915649 -2.52165103
1.98573601 65.62996674 -11.20380878
10.79811192 76.07006073 -5.40827417
-21.87234688 -74.28446198 0.15279700
-19.01547813 -69.62960052 -10.46137333
3.53780603 -72.52168274 -13.84052086
11.92982101 71.65217590 6.29429293
29.95553398 -55.68838120 -17.43843269
-4.88168097 75.21587372 -2.49008012
1.80368996 -71.31098938 -10.74360085
13.38532734 44.56604767 -7.18458319
0.26029599 -3.74760008 25.11881828
40.83487701 -38.01712799 14.29752922
29.88160133 -17.62177086 28.90015602
-15.95055389 -72.58822632 9.93779278
-9.61839485 -73.39837646 8.39890766
-9.18711758 -74.77668762 -17.28915977
-0.45572999 68.95494843 -6.45048523
8.48407173 35.26432419 15.78651428
-14.76210022 -18.49819756 35.87203217
18.03350067 15.53248787 -1.78374803
8.12416458 -48.99736023 40.14651108
-4.17106199 45.71092606 -8.67850208
12.28287697 68.26934814 -2.19443202
-9.26611519 -49.89195251 37.91110992
18.79144859 8.30184269 -2.50031209
-19.56318092 -74.13694763 16.41875648
-9.63924599 20.91090012 -3.74047899
9.68990612 -59.73569870 -27.77532387
-10.38210583 28.25384521 -0.15005900
-11.22840881 12.08834743 8.65355015
6.45748901 -70.48251343 -1.78099597
-13.91408062 -73.04318237 5.36968708
13.16727161 -70.78652191 -19.34022903
2.97880912 -71.06896973 -8.33854580
-30.64492416 -21.12520409 -12.77652168
-10.77273846 8.93426514 -4.64670420
16.97331238 48.66561890 5.36402988
-12.14470577 -72.63869476 -10.29733753
-12.21280861 -38.54140472 -31.64362144
12.66656971 44.00444031 -7.86057806
-19.52584267 -75.57087708 -2.58440089
7.00217581 39.50251007 -10.86073780
0.38501599 65.28675079 10.09553814
31.94431877 -29.16511345 30.80543327
-8.64239979 -70.27449036 27.18654442
-8.82805634 -51.30823135 -29.80178452
9.42063808 -73.09796143 -10.88425159
-6.86837006 78.30101776 2.05721998
20.59482956 -74.59197235 -10.59387302
0.08944900 -70.47175598 6.71990824
-1.96975398 -7.06703806 -21.07763863
-13.09508038 5.59724522 -0.43022999
-9.63177013 -50.18204880 37.69155502
-9.89545918 40.38437271 5.35444403
7.52770376 -71.19980621 29.62070084
-30.17453766 -41.68395996 -14.37292576
-3.57498407 30.61289978 -9.45803738
-3.15238500 -70.38011932 5.52577496
12.52475929 71.37951660 5.56605482
25.55774689 -74.01470947 -7.84715986
-18.36804199 -74.16233826 7.23346186
7.34137487 64.61990356 -10.77139664
20.05580902 -44.74664307 37.69829941
14.78804302 63.19026184 9.56634998
17.85330963 12.31664753 8.97931099
-7.91365480 78.43923950 6.07407284
-11.78005600 14.35735703 1.44776499
-25.21142197 -10.47102261 -6.37243414
40.04517746 -46.26187515 -3.03780103
14.05598545 62.33456039 10.57113457
9.95448017 -14.76012516 -30.08462715
-3.08580208 64.49752045 4.56315088
-0.47522101 -71.99295807 -14.68937969
19.06762123 -44.23965073 38.28532791
18.87302780 -74.84985352 -14.07256031
23.69911766 -2.27373195 4.65202188
-12.24078846 -75.14469910 23.43074989
11.60174274 77.82837677 -5.33892107
27.19064903 -74.16316223 12.52122688
11.43458652 -72.13510132 -10.41189766
11.87694454 -64.22097015 32.38474274
-17.28895569 -15.47582817 32.31383896
-5.39790392 -60.61926651 -26.67294121
14.62602139 18.28212929 -7.19038200
31.01280594 -59.61066818 -12.61383247
29.05397797 -73.71737671 4.31066084
-2.32470012 -70.93842316 -2.39987493
-8.87581253 -26.89572525 40.87093735
17.77679062 -2.95055103 19.00887108
35.45866394 -15.38163471 18.36018753
-4.90042019 4.67270899 18.51865005
15.12111855 60.67399216 9.15735626
-30.12109375 -33.12071228 24.17597961
-14.49479008 -9.34762859 -18.66248131
-11.59887409 -0.65419602 -8.97241116
-12.51951981 8.58804512 0.44925699
13.19170380 68.76151276 0.71220797
7.22040510 -70.90496063 22.29099655
-10.80858135 14.42056847 8.82057858
-5.56115389 53.34746170 12.21178913
-12.93527603 -71.69447327 12.22149181
9.03368282 -70.53514862 9.30073738
-5.85261106 -30.35824585 42.02810669
-11.87403965 14.37328053 2.63438296
40.24576950 -41.95417786 14.16518593
38.30050278 -35.67320633 -13.85132408
-18.36532784 -74.90084076 17.37592697
-24.71347427 -35.06150818 31.08013535
15.70583534 76.12243652 -4.50608015
20.80982208 -47.36861801 36.53673553
1.61400402 27.68836784 -11.40917969
25.39407349 -51.91208649 31.75975800
-0.38510299 35.42999268 -10.68112946
24.15241432 -3.21021795 6.88455677
17.68543434 -58.63172913 -25.58591461
-10.21548080 -16.12840462 36.74046326
8.99099445 76.79202271 -10.45438480
3.89341807 -71.07553101 23.83120537
23.78358841 -2.40790200 5.08979797
-8.23492718 -62.50234604 32.47094727
27.60797501 -11.47428226 24.62963676
4.49446487 66.87757111 10.32480335
14.85349369 -71.30975342 -13.28504753
19.13876534 -72.84063721 23.74671555
-1.02427697 -70.04626465 29.81079865
15.77475357 73.90036011 7.95286322
-7.91846895 24.36432076 -6.02503395
24.51630783 -47.01589203 34.38434219
-3.00199890 -71.51080322 -15.42581367
31.62361717 -35.31533813 31.03680420
19.26076508 -14.11386108 -26.27777863
-11.78120041 13.07126427 6.03500509
-6.50703001 -70.75089264 4.85217714
-15.16813946 -12.37540913 30.84700775
0.06869400 26.55871964 -11.16880322
29.84162903 -10.00305080 17.92144012
-19.80755615 -24.12210846 -26.89254951
-13.00705147 -73.52285767 5.59833193
11.63868427 -46.83752060 -32.41157532
-1.10258603 3.26086998 20.57890701
-0.73951501 64.47045135 7.10290003
27.30889702 -15.64645767 -21.97850800
20.62441254 -73.49153137 -9.27075195
-23.68706703 -16.90428925 27.55735588
-31.90641022 -36.25603485 20.43980789
-24.26568031 -35.29642487 31.48148918
20.91315651 -71.19731903 15.44485474
-7.94547892 -44.39831924 -32.16652298
-16.11420631 -75.12000275 17.05335426
-20.81401443 -75.23502350 -2.17032790
32.80697250 -53.04597855 -15.35255814
12.88162518 70.31063843 11.75946331
8.05153847 15.34044743 -11.66384315
13.64943695 -37.80010605 -33.66952133
-7.61947489 77.60920715 8.69766426
4.24731922 -75.11451721 -12.14431572
8.19520664 -71.21344757 -15.73990917
19.17147827 -55.73176575 33.80442047
-12.21950340 -71.74862671 -8.87444973
36.22327805 -57.17460632 9.99469852
2.13847804 32.63953781 16.76561356
14.50110817 -62.19343185 32.64601898
-31.73353767 -39.59857178 -11.93393421
-35.17343140 -27.39072037 -1.23830497
1.06715095 66.75141907 11.16230488
33.58635330 -53.59098816 21.30056190
-33.48513794 -36.76898575 16.33662796
-0.37282801 -58.04980850 -28.98562050
34.45538330 -60.63607025 -2.54038095
29.50127983 -13.23956203 25.16300774
-29.88011551 -15.56980038 -7.86774492
16.32620430 77.94947815 5.24112701
18.13933945 5.16526222 11.86142254
7.90695620 -74.25611115 -12.34507656
-34.73999786 -32.76575851 -5.12891817
-15.56738091 -73.68080139 6.97143984
10.43417168 74.86506653 -5.48220682
-11.93824100 4.68424797 11.26101112
16.94614029 33.25547028 7.05691099
2.24931192 62.24847412 -11.13857746
-20.64645767 -71.09757996 14.07437897
16.92366028 67.98028564 4.36256886
-1.50594497 74.22824860 -6.56321001
24.64415359 -71.37401581 5.02162504
-5.83880520 37.24055099 -7.43438292
-0.61441398 42.44591522 -10.49489021
-9.08451271 15.35058117 -5.57498789
4.83499002 -72.64662170 -13.31470394
0.34264001 77.58845520 11.50674057
-9.41208172 -73.44535828 8.18054390
29.36645508 -71.93360138 3.41667008
11.64790726 -71.05921173 -10.70757484
-2.51722503 -69.04406738 -22.21251869
3.17097402 -71.51978302 -12.22185898
14.18890667 -70.99324799 -9.49462986
-8.02219009 57.80977631 8.81445980
-16.35695457 -71.86820984 9.87699986
26.17892075 -17.34058189 32.04693222
6.18898392 -71.72212219 24.92099380
16.71330643 29.31136703 -2.91026306
11.36986256 -71.04147339 -6.67385197
-20.07680511 -75.33480835 10.63054276
23.79268646 -58.55154419 -21.73488998
9.93740273 24.81967354 15.83601570
22.48862839 -55.05057907 32.17623901
10.21885109 77.60679626 -6.32706308
25.74405098 -74.45085144 -3.07748199
17.03224373 76.00068665 4.51104116
4.76245499 -72.12897491 -12.56723213
-0.19966599 21.48891640 17.22456360
11.39144802 66.85970306 -1.36809099
-7.52329302 -74.50196838 27.26078606
24.48669815 -6.97463989 17.99595451
0.36324799 67.62022400 -6.36074591
-26.88914680 -10.70337391 8.98995972
-20.95277596 -6.34808302 4.19828176
10.93400192 -71.22018433 -5.10892677
14.09342194 45.58815384 -6.44053602
12.46290207 68.20545959 -8.04781532
-6.84549809 78.24069214 9.07720947
15.18745995 -74.58621216 -17.29789162
-11.90365314 -19.25628662 -30.02262115
-6.05876112 76.81572723 -0.64615601
-3.61480999 -71.32659149 -20.27345467
35.53139496 -12.50024796 -2.65936995
-28.14681244 -13.21708202 -7.38738203
-17.08547401 -55.81187439 31.03570175
-6.26737213 59.86133957 11.15845394
-28.81396866 -44.29547501 23.65396881
31.83073616 -20.64372826 -20.85416222
0.23966201 67.93354034 -10.94662476
-4.56113577 -74.71445465 -15.94274712
37.84314346 -18.82492828 17.18931770
9.57504082 -34.74444962 42.52181625
-2.89937901 1.39909196 -14.05943775
16.21740723 35.42540741 8.60911179
-14.94203281 -73.27291870 6.09187222
6.06900120 -70.95003510 22.90609741
7.34726286 -3.36324096 24.74748039
6.80497599 -71.20437622 -2.98292899
3.34645391 -73.31997681 -13.04008102
34.69876862 -34.99706650 -19.74183655
-12.15917301 -65.67803192 -20.63331223
-0.23170900 64.26187897 4.53630781
31.71152115 -53.22432327 24.46291351
-17.44055367 -75.12669373 15.03144741
-24.82404327 -27.09740448 -22.93158340
3.88237405 -58.12480164 -29.18086052
-2.10990810 -71.65852356 -15.33438015
-7.31571484 33.82749939 -6.06528616
21.95962334 -1.57585299 10.92658138
13.04719639 -71.48627472 -10.72885609
-22.65491295 -65.17379761 -9.88129234
26.99612045 -31.36058807 35.25953293
7.29378319 -70.97707367 -14.89384079
-28.74501610 -31.26687050 -18.38638306
9.06278038 73.62779236 -6.42170811
-21.32648849 -10.56027794 21.80625916
-14.34095764 -8.90440845 25.52864838
-22.70822144 -30.18203926 33.07305527
-0.28777799 77.42943573 -7.79166698
10.18411922 -52.02139664 38.73115540
-9.66147423 43.47655106 -0.83802998
8.40618134 -70.57415009 5.16551399
12.67510414 -65.21928406 -23.76051521
4.43888903 66.72884369 -11.27684212
4.94284582 -65.65576172 32.84267807
-2.06626391 -71.29181671 -8.60863304
-23.79409599 -33.87755966 32.07599258
-11.92551804 -71.42988586 11.99875259
2.80804205 -56.17742157 37.74544525
3.34056211 72.10276794 11.75708294
13.59279919 -74.80561066 26.85625076
5.71260977 -30.17496109 -35.23944855
6.44954014 -70.52278900 8.83988857
-27.58553696 -35.79574585 -19.72612762
0.78589398 -75.37595367 -18.42598534
17.12346268 -35.05606079 -32.81260300
41.71412277 -41.50096512 2.17070007
1.83577394 -63.75050735 33.95605469
13.22463131 68.35926819 1.11014605
10.38406563 75.40503693 13.87466908
5.18030691 68.20179749 10.60398579
30.36741066 -62.74013138 18.04547119
-3.43859911 -74.55213928 28.63246727
8.05866623 -71.26630402 -3.97613502
-7.15320492 -55.66005325 -28.60580063
16.61034584 76.03501892 6.33964920
-1.36275601 78.14839935 13.65279198
-9.95161247 -50.20994568 37.56355286
-5.17389822 27.74610519 14.24721146
-1.21363497 38.49302673 15.70841980
11.13649845 -3.48719907 23.69728088
-24.24061012 -60.32271194 19.92551231
12.76277828 -61.14502335 -26.18037987
12.60215378 -9.39486313 -23.34867477
-33.66166687 -25.57505798 -7.51685476
-4.03873110 5.53814411 18.66092110
-17.05757332 -72.89025116 10.18934155
-19.78325272 -8.23642540 -9.97617340
-25.38222122 -18.61951447 -19.33364296
0.89984798 44.22127151 15.88947105
33.72233582 -41.97643661 -19.44675827
-10.17616081 -73.72077942 -12.11988068
-11.47166538 -71.22574615 12.11155701
3.12215900 -74.20413971 -13.68894863
12.18691635 -70.86552429 -8.46303177
-2.64964199 -72.15215302 -20.50729752
9.30351925 -9.59413147 32.78387451
23.69819450 -46.11701202 -27.46111298
24.27577782 -70.92991638 4.67638588
16.98047829 76.42857361 -0.50559801
36.59155655 -23.00222206 -15.25014973
-7.95687008 -58.30831528 34.87479019
-11.43674946 6.36670399 11.17812729
15.89542770 -71.12506866 -12.23575306
30.28096962 -20.64706802 -22.50454521
10.26076031 -18.78020287 -32.34367752
-9.64689064 46.82052994 -0.35603601
-7.25897217 -70.76605988 12.57527924
17.09577751 54.99260330 3.36170912
39.57193375 -22.44016266 -8.24996376
-2.65719700 -20.88335609 41.02686691
17.12795258 51.89266586 0.47591099
7.01050997 -71.08685303 -15.37962914
22.40140533 -74.11980438 15.80008411
17.98572922 -70.86895752 5.01132393
-17.83874130 -73.61932373 1.51716495
21.47178841 -74.48747253 17.96347427
-6.48916101 -52.37895966 37.94115448
18.03849411 -46.60452271 38.10861969
2.36646104 -72.47263336 -14.18344688
15.58435440 -11.00988197 -24.54127693
-29.09228516 -33.35315323 25.80681801
17.09253311 -72.69731903 25.44754028
2.45450807 66.65545654 -6.41443110
23.12472916 -44.39300156 36.06124878
-7.70852518 -12.69892216 34.92689133
7.29783010 -56.97302628 -29.45536613
-8.90288925 -41.87361526 40.18235016
-16.54023552 -71.69390869 11.37726116
9.31019020 -71.50826263 24.09002686
15.90640736 -28.66182137 40.90235519
16.96564674 -64.76699829 29.97191238
8.01681423 67.58905792 -5.38693810
-22.41672707 -37.54608536 32.89390945
1.42611003 67.84160614 15.17280579
-0.16230500 -24.19547653 -34.43194580
23.48484612 -74.57827759 18.29173851
-30.48972321 -22.62328911 -13.95999622
-8.55965996 77.78987885 -2.76853108
-15.77154160 -72.59662628 9.95053959
11.31888580 -70.81460571 -11.47662926
0.46773800 -72.55112457 -16.72141266
5.82948780 -70.64054108 13.70309162
0.74953598 65.09772491 10.30237198
2.96577191 -72.65629578 -13.65526485
4.52264023 -71.39694977 24.78773880
38.20714951 -30.30040741 22.01323318
-9.73806000 71.95391083 1.88733304
16.07725716 59.23876953 7.39790678
6.77099991 6.41894722 -13.32424164
-20.69979668 -74.04843140 -4.55873299
-18.23782539 -69.90929413 18.91533279
-21.16740227 -6.79290915 8.46273804
21.07917404 -13.09587002 32.23596573
-15.38596535 -0.76050299 -1.54809499
17.59988022 -62.06188202 -23.61102295
12.88954067 69.00589752 3.60198689
-1.38473403 -71.90505219 -15.09591961
-20.42685890 -75.49007416 -1.61398804
-0.19948800 -75.47140503 -18.58698082
-11.69991112 -72.27399445 3.49345899
-6.04389286 72.80868530 2.76661396
2.82198691 -73.33077240 -17.09023476
-18.28013802 -73.55186462 18.59684181
3.67028594 68.27619171 11.62835884
12.02752781 1.16405904 20.03437233
26.36943245 -56.15911102 -20.93055153
-14.18711662 -74.71363831 22.77382851
-1.11268497 -71.95905304 -14.99030495
-23.17887115 -41.04433441 -23.78184700
-21.47045898 -70.60754395 -3.27372098
-4.98951101 62.33744049 12.34677124
-31.16935158 -18.06180954 -8.32147121
-12.32393169 -74.75667572 -15.22147465
9.69810486 78.62200928 12.27231693
-7.30163288 -70.74433899 10.34643745
-4.74023104 -74.49216461 28.32185173
32.14014053 -31.35187340 30.75325775
29.14924622 -59.34888458 -15.68382454
-19.84250832 -48.58654785 -24.49018097
14.82041645 -49.18753052 -30.78528786
21.44841576 -53.06856918 33.83698273
2.09240794 -70.49007416 2.97265911
-5.76302385 77.63520813 11.08570862
3.39346099 -43.79883957 41.84558105
9.49127769 70.21446991 6.32091379
-23.89395905 -14.44272518 -17.26776505
31.71257019 -66.41256714 6.52028799
-24.93530846 -13.23328018 -14.12576199
-5.46858501 2.68123603 -12.31917667
-19.27955627 -75.07497406 9.55133438
-2.74523211 41.81033325 -9.56623363
1.96058798 -69.83100891 30.23714256
