-8.81062794 206.20036316 118.36853027
-27.31978226 -123.55770111 -23.59115028
-27.87151337 -123.98505402 -19.06791878
-33.77576828 -222.18457031 -26.45183945
-10.08006668 215.24577332 -81.88504791
-0.15516600 226.12210083 95.39601898
27.74135208 109.01852417 114.82446289
24.24221420 107.71903229 114.94014740
29.09668732 110.98140717 115.11424255
2.78341198 222.63647461 103.96549988
64.40379333 -37.00627518 15.05031013
-4.13589191 223.24230957 97.25789642
-47.13465500 37.71968460 -9.98331547
-22.10063553 130.13619995 135.91543579
-24.64238930 124.35800934 135.67941284
-0.45889401 78.68651581 -75.16841125
59.78477859 -225.42851257 -9.70593739
-56.85977554 154.33891296 -30.16639709
62.03827667 -225.04466248 -3.54058695
60.80145645 -225.14759827 -6.16973686
62.83749771 -224.52020264 -5.91766882
-3.73994899 208.86331177 124.47659302
-57.45671463 77.66213226 -11.41011143
-57.09390259 78.77627563 -12.15767097
-57.70373535 73.98136902 -17.02887344
20.25331306 -21.07920837 -89.21881866
18.83910370 -28.17989540 -89.73750305
44.05041885 9.18319035 37.29170227
39.85686874 85.97526550 128.60945129
29.98131180 -28.25619125 -128.43324280
30.83436775 -32.98894501 -127.19940948
-47.46948242 -5.10871315 69.87284088
-48.91742706 -5.88181782 65.85949707
48.47780609 70.70093536 64.10774994
50.05789566 69.37394714 63.16970825
49.05880356 74.03841400 62.23082733
44.59189224 123.02942657 71.91621399
44.98640442 122.18446350 70.68731689
49.91902161 73.16655731 61.56034470
7.46830320 107.37659454 134.73802185
8.50285053 105.52853394 129.50621033
-14.05023003 135.67785645 -87.42355347
27.58611679 122.79888916 -143.89842224
23.45596886 126.94544220 -147.49809265
28.61071777 -15.46462345 -123.19987488
30.20187950 -18.39801216 -123.09217072
26.29048729 -12.44832230 -124.28083038
-4.11019802 -39.82946777 87.61903381
-1.28537297 -38.63417435 88.22423553
-18.99018669 -56.39130020 99.44927979
-25.21337128 -52.59104919 94.79512024
-28.98546410 -52.08480835 90.42823029
-26.83304024 -53.04655075 92.76886749
-18.24173164 183.13725281 -124.99366760
4.41228390 113.85999298 -113.94666290
29.95404625 -188.01675415 65.48848724
30.62770462 -0.20283400 -77.64232635
28.71317482 -3.52013397 -80.52252197
29.05628586 -9.76179504 -80.05001068
-10.86106300 212.26318359 -113.78664398
-33.74678802 72.74155426 -129.03205872
-34.49510956 71.56887054 -128.31938171
27.58611679 122.79887390 -143.89842224
23.45598412 126.94548035 -147.49806213
-11.11520958 213.64431763 -111.07524109
-26.66276741 -123.05714417 -27.84244347
-27.05735779 -115.66524506 -34.70010376
-51.71625519 -223.38020325 6.72255278
-50.62808609 -224.61737061 11.06580925
-41.53941727 -213.74833679 36.02308273
-41.07376099 -217.50334167 37.20051956
-40.18444061 -222.73738098 38.55397034
-1.50398505 111.29569244 68.44834900
23.83380318 64.29365540 -62.98685837
8.34213829 152.49211121 -109.91071320
8.84220600 143.66798401 -102.04807281
39.88896561 80.23095703 122.62325287
8.89937878 146.70152283 -108.16757965
8.48495007 147.84590149 -106.03477478
8.84909153 160.01176453 -121.98960876
8.60569859 157.04840088 -120.71996307
8.01516438 155.28845215 -123.06886292
8.72341442 158.60963440 -118.49365234
53.44087219 100.44442749 -7.76473904
8.84908390 160.01170349 -121.98960876
33.02519608 -38.03137207 -117.09188080
34.05621719 -39.81619263 -117.34969330
31.57036591 -131.63087463 16.59626198
35.38861465 -45.04488373 -115.90747833
17.00532532 205.92102051 123.24693298
1.36972797 -105.82724762 -109.08027649
-3.10948300 -106.19198608 -107.90618134
-6.55739307 -16.63680267 -121.80689240
-8.98250866 -18.08799362 -120.70838165
19.19781494 143.86968994 81.49340057
18.24359512 147.07113647 81.87855530
20.92108917 -48.85599518 135.13560486
23.47086716 -55.73482895 132.24266052
13.43561172 113.05340576 -143.95324707
-5.42532492 193.42337036 123.48566437
-6.56887579 192.32907104 121.00875854
-7.60345078 191.11518860 118.15957642
-43.71036911 -27.82439995 36.62135696
-4.87639618 147.78901672 113.29318237
44.04520035 102.02584076 80.42945099
43.40559387 99.20597839 -92.73963165
-28.92065048 -28.35050964 -101.46746063
41.50997925 -218.28791809 31.31580925
8.60891247 -59.31005478 -119.72508240
37.17985153 118.91674042 -22.70221710
-10.06804180 215.17962646 -81.84465790
17.21979713 -4.96434116 -92.22346497
-50.63085938 -115.50743103 -27.40994072
-50.47259521 -119.39041138 -26.60480499
-23.88867950 -135.47569275 15.21219254
-23.50940323 -140.99424744 10.83007908
-49.62062073 -121.31806183 -30.87380028
-22.62998581 -141.20231628 15.18554783
-21.63633537 -141.34944153 19.09549904
27.23548317 132.23942566 -126.77008820
24.73809814 122.70997620 -57.09009171
26.13055229 117.49106598 -54.43689728
26.24626923 59.40069962 54.03939438
29.87139702 60.37664413 46.74414062
28.09698868 59.14580154 50.91632462
31.38659668 60.64659882 43.18301010
24.32686996 91.70346832 119.83107758
49.50756073 182.06069946 -11.05882931
-17.54473305 -97.90739441 95.88744354
-19.51020241 -93.21343231 96.45823669
-18.84303856 -95.76782227 96.25667572
34.29187012 99.60320282 -91.42079926
-47.93586731 7.60518980 86.79980469
-50.56008148 2.28981209 85.38621521
-46.83045197 9.58712387 88.15310669
-47.25711823 67.60920715 65.15200043
-26.67971992 45.03084946 123.58155060
7.19691420 -188.58949280 -53.12752151
6.36925697 -188.12591553 -54.22423935
23.56184959 -6.55543184 -107.81714630
30.39625740 10.77557945 -99.18523407
-5.49170780 176.91670227 -79.67369080
0.96184301 27.35235405 158.69351196
-37.21066666 113.07857513 -44.58026886
-38.46667480 126.46302032 -44.00538635
-36.94397736 122.41658783 -46.67265320
15.15863800 70.55609894 142.09442139
46.53924561 -54.81285477 -20.51279068
-27.09741020 -176.17016602 52.20017242
36.60057831 108.52908325 -84.82780457
-64.15478516 180.47996521 -20.97043800
20.69987297 147.01608276 -82.59942627
19.45146942 135.13883972 -83.00868988
21.06438255 158.97532654 -84.11919403
19.45148849 135.13917542 -83.00868988
21.06437874 158.97531128 -84.11919403
-20.67534637 -166.79444885 -15.71274853
19.73335838 126.89002228 -82.84215546
19.73336411 126.89002228 -82.84215546
64.89334106 36.47737122 2.21945000
64.92978668 36.77104950 0.06364200
-11.65639973 214.39489746 -109.05570221
-11.06211090 215.79666138 -106.86157227
-12.02763176 214.27282715 -107.52970123
58.07391357 -191.05532837 -27.48632812
61.02981949 -202.28048706 -19.58752060
59.64368439 -194.77854919 -22.82133675
17.58059502 129.42211914 -84.00418854
17.58060265 129.42211914 -84.00418091
61.61635590 -208.39042664 -19.98707008
-45.42763901 -159.10159302 23.98307800
-44.70847321 -168.74551392 24.93029594
-33.53940964 -87.77635193 -83.23698425
-29.38741875 -82.04364777 -88.42799377
-42.54684830 87.30159760 13.50716114
-3.61201096 31.33951950 -142.48548889
-43.94832230 59.11783600 4.91248322
-3.35752797 29.40325546 -133.54475403
29.58603859 172.04725647 59.17572403
30.63404655 170.40588379 57.51011276
-2.92901492 30.74512100 -132.90869141
0.38249299 101.43745422 -142.97183228
-1.01766503 97.18074799 -145.86054993
-24.79192734 -95.87487030 94.35455322
12.97507954 -78.99980164 -121.06519318
14.22332478 -79.73020935 -118.78678131
8.73296261 -71.66751099 -125.60474396
34.07759857 -207.80139160 -71.60391998
-28.16007805 49.86525345 132.38465881
-1.81253302 180.13734436 104.88493347
2.03360796 180.43798828 104.87271881
29.02098846 -215.14881897 -77.65165710
-41.39613724 80.25500488 64.39502716
-41.57609177 85.58027649 61.48932648
-29.43796539 183.07110596 76.74986267
-23.99909210 -118.35619354 67.47201538
-25.62774467 -116.53296661 66.60456848
55.38386917 28.24546242 65.41089630
52.96065140 30.43929100 70.77593231
5.07547712 64.79304504 139.32954407
55.38386536 28.24541855 65.41094208
52.96060944 30.43925285 70.77602386
-61.92295074 10.52781582 -7.13493395
6.07965183 -27.59678078 124.82222748
66.16616821 -2.19897795 8.86528015
-59.92919159 69.60281372 15.37564468
-60.75968170 66.11837769 13.44758415
-59.72204971 68.82228088 18.48093414
7.24722290 -36.24356461 121.62785339
-37.95372391 19.80655289 -91.26600647
-21.03263092 -195.28268433 58.01367950
-17.58654404 -191.36340332 60.35173416
-20.79387856 -190.84886169 57.84147644
-38.26779175 122.28440857 65.51383972
44.38730240 20.68182945 90.96492767
28.62636566 83.79706573 89.95501709
-14.92915821 -176.54977417 -36.88210678
-16.24561691 -170.04789734 -34.75121307
-15.24661732 -169.91896057 -37.36606979
-17.13418770 -164.04598999 -33.97736359
47.82382202 183.89573669 54.53100586
44.79882050 184.24267578 57.71055984
46.29101562 2.29429889 29.81420708
-29.05362320 99.01662445 74.83981323
-35.36022568 100.64373779 66.69746399
48.02502060 6.88529205 -22.65961838
48.63314056 1.46746194 -19.89609337
60.26440430 -183.83781433 4.08415604
13.88771725 200.30392456 -112.35484314
10.71295929 207.96420288 -110.37683868
-39.49753571 -77.68508911 14.60388374
-14.81405926 142.02214050 -115.99250031
-7.25672293 218.94003296 92.60643768
-5.18364000 220.78054810 93.29977417
-2.21610689 200.10414124 86.66457367
-1.95628905 199.57627869 88.25040436
-9.82205486 58.05343628 72.81894684
38.31360245 127.64929962 -64.28209686
-6.49496508 139.54417419 87.34626770
35.00405884 119.39172363 -34.37605667
11.28975105 219.43237305 121.95149994
12.44417286 216.77217102 125.48658752
-28.95001602 17.96269226 -106.67308807
-44.25023270 10.39403629 79.77713776
-46.92627716 -27.21048546 19.98176003
-46.40629196 -35.46000671 17.22041130
-35.52637863 13.93080235 -104.20259094
-33.11331558 15.49368000 -108.69202423
15.90958214 131.39865112 85.92103577
9.15493011 142.97512817 -145.03060913
5.55995703 48.15578842 113.14189148
48.13480759 126.28279114 35.82246399
47.88830566 131.21192932 35.99287033
-54.27741623 43.15528870 55.17838669
62.06258011 56.34746552 23.52272415
61.74405289 60.72372437 17.14965630
-51.31779480 106.59275818 27.05654526
-51.48439026 101.27262115 30.85018921
-59.92919922 69.60286713 15.37531757
-60.75976181 66.11784363 13.44807911
-59.72701263 68.82423401 18.46263504
57.38004303 80.89335632 36.03076553
57.95243454 75.89152527 36.33080673
57.28581619 69.06900787 -35.50450516
-6.46611595 74.73878479 95.24279785
-9.64806366 -40.49428177 -92.71707916
-7.59789181 194.60951233 83.44182587
55.45855713 -115.27676392 -34.71215820
54.31077576 -120.07579803 -38.19760132
30.38558578 127.91502380 -49.75845337
31.32233620 129.44177246 -48.33127213
-35.52468109 95.18526459 -117.58491516
-57.49423981 156.28451538 30.96784401
56.18798828 174.94424438 2.10450006
-57.93014908 168.76551819 47.25667572
32.42043304 81.31669617 -78.38405609
8.21737480 122.83205414 93.88803101
-47.71335602 -41.20178223 59.38250351
13.76997852 179.83972168 -122.90100098
0.38249600 101.43746185 -142.97183228
-1.01766396 97.18074799 -145.86054993
13.76997280 179.83969116 -122.90100861
10.71295547 207.96420288 -110.37683105
13.52423286 -115.68787384 -66.24319458
13.29334164 -123.55354309 -63.25549316
13.52422905 -115.68788910 -66.24318695
-19.38630867 -104.03249359 -98.14068604
61.61975098 -85.27777863 13.62578964
-29.25063515 50.42634201 100.99011230
-34.57672119 51.50888443 102.43788147
-27.74721146 49.63887405 102.78736115
-50.35471725 156.29423523 56.37433243
-48.03454208 146.71540833 55.63702011
-38.59569168 91.20049286 -37.61808014
-40.89894485 93.40113831 -30.47552490
-41.70370102 93.48180389 -27.47642708
-32.30651855 80.18150330 -80.31601715
-33.37556839 81.71669769 -77.94813538
-32.30659485 80.18145752 -80.31596375
-33.37556839 81.71669006 -77.94813538
34.31975555 144.16592407 38.82573700
43.65386963 -9.21728039 -78.00895691
46.47923660 4.10519791 -73.92701721
-29.87240410 99.34555817 98.91979980
-40.45708847 117.24557495 57.89356232
-41.02069473 112.87164307 56.43548965
-39.98769379 113.24662781 58.73229980
-41.21902466 120.15103149 57.38022995
-16.35000420 -189.19132996 -76.76660919
21.62236214 156.13471985 149.17854309
21.51552391 158.21537781 150.69645691
-13.42765999 78.55857086 90.81172943
-11.34743023 76.78285980 91.98590851
-10.76323795 74.68925476 92.05353546
-23.56058311 48.92417526 -144.24801636
27.48434639 147.53042603 54.82949066
-24.06132126 -68.75854492 93.63845062
-51.58162308 -43.60252762 -50.76104736
-50.21787262 -44.63677597 -53.74126053
-48.38278198 -46.86770248 -53.93387985
-50.20579529 -45.35225296 -52.22210312
-51.71012878 117.82577515 21.04675102
-8.99567032 181.71969604 -153.09733582
-13.42763996 78.55850983 90.81175232
-11.34743214 76.78286743 91.98590851
-45.53536606 39.83114243 86.27409363
13.13730145 -61.27161407 109.64849091
23.99289131 -128.02322388 -49.79533768
21.59663200 103.12104034 -128.86071777
-48.13428116 7.37862587 88.32506561
33.59776306 -37.29045486 -122.87261200
34.40361404 -43.64975739 -120.67041016
33.62425232 -34.60160828 -122.55821991
-50.91917038 110.71664429 28.12528038
-51.28158188 117.29426575 25.24542427
-50.85059738 112.86623383 28.14196968
37.70984268 -57.95647049 -56.54518890
-43.87595367 136.75973511 34.10036469
30.28222466 -39.36731720 104.46520996
1.41566598 48.02728271 -86.36798859
-0.00861700 58.19476700 -81.88088989
10.07081413 186.48101807 94.78524780
55.22340393 174.73965454 -35.29321289
58.55849457 -143.55117798 -18.21328545
-34.13414764 -167.11997986 -60.89686966
45.65015030 -0.43452299 33.54794693
0.64112502 143.03889465 70.29875946
45.03591919 10.66278839 32.34670639
-17.69740677 128.19039917 84.43254852
-16.64999199 90.15727234 -129.27145386
-17.94188881 -13.65386677 -116.67919159
-16.32014084 -11.16125298 -118.42250061
-16.32240105 -5.70291805 -119.11830902
-14.51682281 -6.10809422 -120.42160034
-43.80107498 -52.12466049 -27.31263542
-6.60622787 218.93139648 -90.80458069
-24.71401978 116.20462036 -114.26054382
-22.72153854 115.54064941 -113.39511108
-44.89680099 66.47267151 -69.07606506
-46.28427505 61.89770126 -68.59956360
-45.00864410 66.56529236 -68.38649750
-50.91166306 -115.26737976 -34.89540482
-45.00863266 66.56527710 -68.38655853
-42.24687576 42.29103470 -83.85661316
59.43220520 -198.22669983 26.06169128
7.45312691 142.85321045 -135.70524597
14.47560310 -111.70871735 -95.54544830
16.23822021 -111.89980316 -94.62398529
19.91183853 -112.31459808 -92.10218048
48.87273407 -79.88446808 -68.45578766
48.73100662 -77.34226227 -64.72941589
-19.38629341 -104.03250885 -98.14067078
-57.99677277 73.35932922 16.28314400
-24.18849564 135.88372803 -77.78529358
-25.10859680 115.87902832 119.47578430
-27.30906868 114.98959351 117.80825043
-26.85232925 115.72895050 119.20895386
-26.63193130 121.90904236 127.34787750
-23.59709358 120.66873169 124.17476654
-25.98438263 121.66706085 126.47714233
15.67736435 133.74455261 146.71246338
14.31186295 133.00665283 147.14833069
-65.03546143 177.47264099 23.74367905
-65.03233337 175.73596191 22.12437439
-20.51622009 131.64363098 -150.97958374
-42.05481339 -94.59687805 -64.51345062
42.76379395 112.42630005 56.98462677
40.39675140 126.92942047 59.49674225
-4.78129101 203.48463440 -128.94779968
-2.73513293 203.28221130 -129.70680237
37.85732269 107.25632477 -1.24086797
-61.89790344 175.36755371 -34.70238876
-61.04303741 172.78738403 -36.15675735
-59.65996170 167.41851807 -35.14659500
-59.62232590 170.84715271 -39.06768799
-63.80698395 171.70236206 -9.64288902
-63.52991104 171.99070740 -17.12808609
-36.90277481 54.52136993 -49.99538803
37.07645416 28.16184425 -57.29152679
40.39675522 126.92945862 59.49673080
-20.62155724 -141.66705322 22.33163834
-31.32853699 -218.74494934 -14.81564426
-29.71932983 -218.56030273 -9.14743996
-15.55688953 104.57553101 -84.35659790
-14.07334232 100.14078522 -85.44707489
-17.43391228 98.93767548 -83.99777985
1.16785002 -150.25956726 -81.20315552
1.85957801 124.00317383 -157.35342407
5.37037802 123.82989502 -156.13066101
60.83412170 -41.81412125 44.01588440
17.86484909 62.90160751 -70.81339264
21.60534286 64.44674683 -65.92744446
-9.06092262 -169.98689270 -79.12103271
15.66103935 62.41093063 -73.06858826
12.97847843 65.09723663 -74.00105286
-9.41574383 5.68774700 -123.53713989
-10.92435265 7.32960987 -123.24983215
-9.35676003 0.90507197 -123.40135193
-0.80195600 198.72543335 -80.69094849
-58.87281418 51.88864136 42.90536118
-46.38041687 29.21931076 20.58153152
-44.55698013 39.46833038 23.28472900
-2.59178591 96.20890045 -154.50086975
-11.46607590 14.63407803 -123.82492828
-59.73666763 50.50853348 40.21484756
62.28197098 61.05715561 -17.48317719
43.19530106 118.25032806 65.88980103
43.98753357 121.19856262 66.71989441
9.13780499 211.47508240 -108.36945343
-13.21005630 188.42520142 -89.48220062
-19.50598526 -139.99145508 26.69350433
-14.18552208 -98.06126404 -109.02851868
6.91295290 213.08171082 -98.43491364
8.64148331 211.43432617 -95.89963531
-44.49576950 -131.92500305 33.36723328
-43.67980957 -119.31358337 39.18920135
-48.23447037 -118.77428436 26.06608582
-45.90183258 -125.27843475 31.38977623
3.36644506 113.70483398 125.66687775
2.32072306 114.34107208 125.49961090
4.27778912 113.63798523 123.93186188
-42.36408997 -115.43921661 43.08713150
-47.62118912 -193.55993652 16.78626442
-47.08856583 -194.74050903 19.26992416
-34.03478622 162.74235535 -60.10233688
-31.87256622 161.67474365 -62.08864212
20.34328842 144.09849548 112.96812439
22.01989365 142.14776611 114.14202881
41.07825089 123.46643829 76.12320709
39.56739807 127.00460815 75.73945618
39.36067581 124.89017487 76.77548218
1.03659201 200.34696960 -81.82180023
3.73425293 200.21214294 -82.99871063
9.74421406 185.08442688 -89.89145660
9.04922771 184.15979004 -89.94107819
8.79599285 183.48364258 -90.04811096
39.56739807 127.00462341 75.73944855
-31.62130737 106.51335907 127.79219818
29.03511047 -60.87934113 64.97103119
31.13467789 -60.66679382 61.75088501
33.11061859 -60.34722900 58.39528275
9.57450390 186.38203430 -88.88189697
-37.78652954 182.25804138 81.14125061
-31.76882935 119.84490967 -125.54308319
23.46077538 -54.09163284 107.16996765
21.22632408 -50.10250092 110.20626068
-14.53402901 141.69503784 133.32621765
-54.27739716 43.15537643 55.17842484
6.47213984 -222.09120178 -85.95411682
4.87801123 -221.38740540 -85.83726501
20.87030983 150.04772949 142.08663940
0.32198599 -218.29658508 51.42206192
8.64141369 211.43444824 -95.89955902
6.91296291 213.08169556 -98.43496704
-1.77250898 -156.24052429 -56.14065933
-2.94133997 -158.20886230 -55.19835281
-4.79760504 -150.61743164 -55.63930130
-19.67007637 70.62635803 90.52576447
-22.17042732 67.99191284 90.15479279
-17.69756508 72.46428680 90.96596527
4.15180111 107.22983551 67.32187653
31.26797295 -226.37951660 -61.85099792
32.80734253 -226.22297668 -67.66683960
-14.96779823 -128.57279968 -82.36199188
-17.83034325 -122.64785767 -82.79316711
-14.84388065 -125.90673828 -83.22502136
38.11727524 83.42952728 90.46179199
-5.07147884 218.05406189 115.72715759
52.04523468 166.03282166 -41.22441101
53.61523056 171.65350342 -41.66868591
50.96058655 162.94206238 -42.19080353
-31.47360992 134.78488159 80.92525482
-29.91011047 132.37188721 82.85114288
-28.70414352 136.62789917 79.36178589
-31.23289108 133.57478333 82.09940338
-29.08857155 138.04222107 77.83957672
-28.04622269 138.11784363 78.28365326
-28.28448677 134.83366394 80.71729279
-56.24787521 171.46740723 54.00260544
58.12035751 80.10779572 -16.55169487
57.37746048 83.81748962 -17.72804070
57.07366180 86.37270355 -21.20743179
-42.62500000 181.44361877 62.21857071
-42.35657120 178.99349976 60.45743561
-46.60285187 -38.58636856 -19.13726425
25.64148903 34.35758972 143.99938965
23.58897591 35.46977997 143.07865906
-43.47940445 6.06874895 -81.02468109
-2.02175999 170.81234741 117.76557922
-57.68486786 -37.55778885 -26.53538704
-58.90635300 -20.39569473 -26.43638420
-57.68486786 -37.55780792 -26.53538322
-58.90634155 -20.39602852 -26.43635178
8.56784153 65.49238586 69.34030914
31.91883850 38.37829590 -63.64966965
43.32703400 -89.41003418 -77.27842712
41.59634018 -91.22872925 -76.66015625
-62.72377014 31.18392563 7.49127102
-36.70607376 -7.43116522 93.55901337
7.34462500 96.46028900 141.70713806
60.05104446 74.95986938 11.15473843
33.11865234 -225.74229431 -73.98794556
25.86429214 -225.02891541 -79.87189484
-29.69579887 -4.36303186 100.94487000
-30.87272072 -5.44281483 99.59097290
-53.87526703 54.11702347 57.06681824
-53.48156357 56.63779068 57.14890671
4.58132982 -157.83747864 -57.21978378
4.79583693 -163.29164124 -56.47180557
-53.87526703 54.11705399 57.06680298
-53.48160553 56.63773727 57.14883804
32.81823730 109.82040405 80.16879272
-39.53280258 128.63830566 76.97890472
-39.04322433 129.98313904 78.33441925
-19.43174171 -30.87017441 -133.46540833
-55.58546829 13.39365005 51.93643951
22.71706772 127.23738098 81.94699860
-37.72595215 79.67501068 -39.81592941
2.06320596 134.45401001 118.02323914
-0.38151100 135.79658508 116.99671173
22.71702194 127.23739624 81.94702911
-14.30818081 -191.22030640 -16.86381340
-10.21052265 -190.41255188 -33.77352142
-2.02355099 56.08516312 108.80208588
-12.21507454 196.67868042 97.12655640
-11.51228046 197.54431152 95.64695740
31.10836792 89.31931305 35.74644852
18.27084351 -160.18278503 -77.76094818
57.37748337 83.81740570 -17.72803879
57.07362366 86.37287903 -21.20735550
-9.93256760 58.23595810 138.76309204
-10.69746113 57.60274506 139.48202515
6.30853081 198.00114441 -86.27976227
-49.20939255 159.17578125 -56.69398880
-23.90350342 70.61387634 -118.66649628
-22.62122726 95.55964661 -144.88838196
-21.88925362 92.15068054 -142.99952698
-23.28719330 95.08068085 -142.97734070
-23.28718758 97.34031677 -144.48040771
-23.79915237 97.11532593 -141.85243225
-0.22831900 56.69234085 74.71625519
-12.63953972 168.38873291 -89.24240112
-11.90295506 165.50596619 -88.03533173
-25.21923256 99.51263428 -140.35076904
-24.66116714 98.00317383 -140.22866821
-23.92402458 95.41653442 -141.29675293
5.32378483 195.50907898 90.12303162
-24.77739716 99.08200836 -142.05262756
-23.77313805 101.09922791 -145.05949402
62.97776031 54.72765732 -5.74628401
64.74299622 48.77163696 -9.41521454
36.24904251 172.29585266 49.49782562
63.65998840 47.65602112 -1.05230403
9.48693562 36.73823929 -114.70401764
39.86371613 107.98176575 118.17145538
48.13476562 126.28284454 35.82264709
47.88825226 131.21166992 35.99318695
27.35785103 90.54577637 -82.78032684
21.87319756 162.99577332 -84.61417389
53.38858795 99.53922272 4.17761421
-12.69921494 26.90014458 -91.31436920
21.87320328 162.99577332 -84.61417389
-50.91646957 114.49314117 -34.61829758
-15.17872429 -9.10901070 113.01589966
-7.95913219 42.50907516 113.01633453
50.74620056 -62.44217682 69.43888092
51.43339539 -74.38753510 63.52973557
50.13111496 -33.20917511 79.20952606
22.48083115 112.10486603 -144.67779541
-22.10101318 -27.04457283 122.63847351
39.63502884 24.01975441 -90.84302521
38.08202362 27.53158951 -96.89538574
41.53594208 23.56918335 -88.71593475
-17.45436096 137.35296631 -123.05570984
-16.13834572 138.68681335 -123.79531097
48.32613754 173.83995056 51.59574890
46.14043045 164.97482300 52.31490326
30.02650642 95.36863708 108.32183075
29.76697350 94.07006836 108.31925201
-49.24491882 57.49598694 -84.63722229
-50.84361267 59.61465454 -82.20863342
9.93851852 -190.19676208 38.97581482
10.10011768 -188.15454102 39.21471024
16.54019737 77.21288300 158.96655273
12.53916645 -171.97698975 39.40340424
25.11774254 -223.67918396 71.86788177
27.86138916 63.88347244 -56.53554916
25.85466576 63.46662521 -60.27822113
-41.52623749 70.80745697 -83.96286774
9.99832726 -33.49608231 131.34701538
8.52870846 -33.46215057 131.28916931
-41.52622604 70.80745697 -83.96286011
5.47282219 36.85140610 -148.44918823
-50.56650925 -193.50299072 -13.52614880
36.79619980 -16.63088799 101.09591675
38.60177612 -31.39958572 96.13842773
16.60915947 186.04922485 113.57869720
15.76818562 196.72943115 108.44960022
17.55028725 180.02595520 117.96427917
48.21908569 -45.45238113 -74.98139954
47.26119232 -40.45113754 -77.37534332
-16.20742607 -121.56089783 72.71321869
-15.06966877 -119.19324493 74.78096008
43.83176804 92.41400909 -80.18829346
-10.99704647 212.28410339 -113.64772034
43.40612411 98.36448669 119.83771515
40.29504776 158.21476746 22.68846130
39.28744888 157.30310059 25.95516586
-46.62627411 -43.10998154 -60.45996857
-5.51111698 59.58131027 146.99116516
10.07069683 186.48048401 94.78656769
-11.18159103 -16.92244339 122.56173706
31.98603058 114.86295319 -129.74281311
-7.80871487 201.92253113 79.00277710
-4.08285379 201.84898376 79.47435760
-35.90933228 -79.26640320 -85.29306793
13.90911102 84.15711212 -67.95375824
9.77316284 87.87288666 -70.20746613
9.31839085 114.91470337 150.48030090
9.74326134 117.03926849 150.60716248
43.23289490 126.94806671 67.48106384
9.18369579 76.23138428 -72.73652649
43.23288727 126.94805145 67.48104858
58.61256409 77.96535492 10.63150692
58.81328583 76.93562317 13.50400352
59.36013031 73.25864410 19.39352798
-18.66522217 -153.33399963 -76.29499054
-21.50825119 -154.92741394 -74.88960266
32.24541092 -114.11279297 -38.37340164
-47.02866364 52.61478043 -86.72278595
-47.45225143 53.21840668 -84.81768799
-61.32989883 33.64574051 -21.90821648
-61.27568054 38.07381439 -23.52519989
-61.27568054 38.07382202 -23.52518272
-61.58856201 37.55720520 -20.59313583
-61.76929092 36.97476196 -17.23178101
-61.58856201 37.55720520 -20.59314156
-26.62082672 -110.78679657 -79.75038147
-23.73834229 -110.84807587 -82.63343048
-55.58536148 13.39332199 51.93670654
1.67195797 216.93168640 -100.82588959
28.84654427 158.96275330 -61.69303131
27.67432213 153.43002319 -61.41081238
22.71165657 -222.26232910 -82.58337402
18.54342270 -220.52558899 -84.36882019
22.11846542 144.18016052 -63.86080170
-41.44674683 -59.27405167 -81.68386078
-29.52774048 20.79202080 -135.57983398
35.25961685 -53.88528061 -96.72994232
36.16242981 -54.50540161 -97.77141571
25.05042076 144.82803345 -61.00518417
28.06899834 144.22088623 -57.23385620
1.67195904 216.93168640 -100.82588959
61.59548187 -52.55200195 35.87277985
-17.03835297 20.58993530 -124.55700684
-13.05293465 20.27585411 -125.84654999
-43.27821732 68.71023560 4.23405313
8.02544117 174.04403687 75.10409546
3.72811389 172.95951843 75.81958008
10.25538063 173.82630920 74.32967377
40.40488815 -46.36449814 -86.42875671
-13.69495392 170.00233459 -116.17835236
-15.20578289 172.12638855 -116.71438599
46.10380173 -59.54036331 -81.24730682
57.50729752 182.10256958 6.43868923
-13.49041557 156.04252625 -152.15455627
-50.21057510 162.27949524 24.29795265
-49.79664612 163.11157227 30.65722466
13.74244118 216.67491150 114.76286316
14.80836105 214.45449829 117.36428070
25.85327148 63.46646118 -60.28069305
-11.58425426 212.74853516 -103.05129242
-15.97266102 -125.73002625 42.45809555
-4.52924681 103.46621704 68.25743103
4.44514799 13.11594963 124.01380920
3.47513008 9.44255257 124.17893219
6.36831903 20.08778000 122.91166687
-24.55949783 -32.44990158 -123.67581940
62.54863358 -66.30116272 -1.52106404
55.44170380 -215.32327271 45.46672821
58.09971237 -217.72914124 39.85296631
-8.84695339 -2.54647207 144.88945007
-0.67260802 218.79019165 88.74970245
-0.93844301 220.08979797 90.40161896
-42.04693604 13.75546932 -53.55571365
-2.78735709 149.73605347 126.10154724
11.66166782 -31.25088882 -130.83018494
38.76075745 129.99037170 121.81204987
56.72829056 180.35263062 -31.20274353
7.68129683 181.60113525 -138.64166260
7.57237387 175.39720154 -142.17590332
7.68131924 181.60127258 -138.64157104
7.57237577 175.39738464 -142.17582703
6.61548615 132.58375549 119.40279388
-13.09091091 164.67517090 -144.95414734
38.52361298 101.24105072 111.70190430
38.78367996 100.32489777 110.43122864
14.59091187 116.45227051 -85.83411407
14.59090519 116.45230865 -85.83411407
-21.22751427 71.32897949 -68.80972290
-21.27242661 76.13884735 -67.70153046
-36.15459824 20.14194679 92.51757050
43.65968323 82.24347687 124.77531433
-14.44941521 135.41154480 -86.37412262
-39.77770996 18.47686958 86.82420349
-41.52281952 14.60060787 84.40489960
45.18069839 -118.72193909 59.23916626
49.12916565 3.95353389 4.37437201
49.32485580 -1.06622100 5.29134798
-51.71022415 117.82630157 21.04598808
-12.16537094 108.32238007 -159.96980286
-14.19052315 107.17761230 -159.41450500
-13.73848724 105.06211090 -159.75688171
46.18140411 -98.67018127 64.97862244
62.79876328 -14.81773090 -25.48800850
61.88089371 -24.70219803 -27.70619392
5.27114487 127.11077118 121.33780670
49.09336853 26.30119133 97.94323730
-3.05196404 222.36155701 104.10117340
51.32586288 -123.28400421 -60.98843384
64.57859039 49.88919830 14.56864929
65.06092834 46.81828308 13.37106323
64.64038849 48.72718811 16.90177155
16.61856651 185.98852539 113.62171936
15.54462624 198.88702393 107.25557709
-59.60138321 54.60656738 -17.63313866
-7.21769810 120.62533569 -160.42936707
47.64772415 -220.98452759 -11.97366905
48.11539078 -220.51098633 -4.47060013
47.99171829 -219.59684753 2.56279802
9.03529072 15.33456707 144.64306641
-59.60138321 54.60652924 -17.63328171
13.69945812 86.51474762 135.08609009
8.95343590 19.21590614 142.79988098
-49.62900543 -96.28696442 -36.00724792
43.48455811 -76.53199005 -21.08979416
-18.10368156 -126.03257751 38.79627228
58.49523544 -225.35671997 -29.13348961
3.98286009 6.78608608 90.77049255
5.45748281 1.90268397 91.03921509
33.50197983 -48.11289597 -95.47801971
48.49450684 158.88664246 40.26969147
34.11412430 183.07859802 61.83055496
35.53622055 177.73895264 53.76536179
-51.85513306 -216.77867126 -26.40528297
-8.86237431 12.37872219 -129.65026855
-33.36241913 34.82871628 58.96271896
8.54547119 83.31476593 -94.39678192
11.47224712 83.51667786 -93.49549103
37.16493225 150.45306396 29.76474190
36.48848343 137.90878296 26.70679665
-29.26727867 98.09966278 130.26533508
-15.39714146 -18.59199142 -92.75518799
33.36452866 22.18478394 107.94719696
35.38704681 21.38032150 105.65850067
-49.18236923 96.42117310 41.20362473
-25.88033104 131.08612061 -139.27928162
-61.24501419 45.66271591 -16.56391525
-61.84903717 45.78689194 -9.82635021
-61.24501419 45.66271591 -16.56389999
62.09128952 51.21796799 32.14682388
9.80269814 174.15487671 -78.45270538
8.20883942 163.94015503 -75.81166840
51.33735275 50.75117874 68.42076874
7.39201784 168.67414856 -115.64292145
51.33732605 50.75155258 68.42065430
-4.21015215 215.53189087 119.63389587
-50.65678024 -82.82250214 -35.97435760
-52.36163330 -87.33555603 -29.29912758
36.60227585 -52.56898499 -108.55607605
37.81414413 -53.46416092 -110.15572357
-0.93852699 220.08990479 90.40167999
-0.65613598 218.77093506 88.74694061
-53.74789810 76.51402283 42.93039322
23.42790794 114.50231171 83.92427063
31.37327385 126.40046692 114.84039307
27.53043365 127.27765656 112.49421692
-52.65157318 110.70921326 -22.81046104
-58.83463669 181.04174805 -37.66366196
-59.19142151 180.64714050 -35.93880844
42.13677979 -64.25335693 -82.19916534
59.91714478 71.48205566 19.70799065
60.74500275 70.48381042 19.40363693
58.33961487 -34.67170334 74.91479492
59.63028717 -36.71556473 74.19020081
58.33963013 -34.67161942 74.91478729
59.63027573 -36.71549988 74.19020081
-28.50426102 141.68711853 77.03057861
-22.66463852 142.05172729 80.11013031
2.77910089 -150.11421204 46.10518265
4.05982780 -149.21401978 46.41430283
-28.50411224 141.68716431 77.03065491
-22.66465378 142.05180359 80.11012268
31.57658958 33.61664200 -111.63807678
30.57095337 33.08600998 -110.50184631
33.30871964 33.74628448 -110.57254791
4.51376295 -218.04510498 51.21859360
-19.67006874 70.62636566 90.52576447
-22.17018318 67.99201202 90.15491486
5.32393312 195.50889587 90.12313080
-13.51266766 24.62793732 -119.80815125
48.89923096 -224.18891907 -6.45016813
-42.06508636 -24.39929962 81.06816864
7.59921408 212.25619507 -81.50290680
7.92744303 215.93775940 -83.49612427
7.21617985 215.46003723 -82.65031433
-13.91896534 74.37966156 -160.28018188
-6.07959700 200.04855347 87.40227509
-6.28697681 199.43460083 90.91066742
9.09184361 191.83847046 -90.84880066
9.13780785 211.47506714 -108.36943817
7.59921217 212.25621033 -81.50289917
7.92744684 215.93775940 -83.49613190
7.21618080 215.46003723 -82.65032196
30.14608002 95.08843994 -134.67333984
31.20660782 95.27381897 -132.54045105
30.14881134 97.11881256 -134.88641357
31.26976013 97.61846161 -133.52268982
-19.79502106 99.68737030 -156.32345581
-20.21548653 93.48785400 -156.86875916
-22.51197052 111.12420654 -150.91871643
-41.93442154 -172.24528503 31.97543716
-41.48357773 -193.47323608 34.15991974
-29.23920822 -31.70678902 69.91914368
-30.61049080 -28.41750717 68.56790924
-9.79256821 196.65072632 85.58576202
32.03005219 166.69052124 74.31118774
-52.04534149 66.90037537 -51.68454361
-51.56654739 69.68277740 -51.77359009
-48.71871567 -14.26515865 89.48128510
-52.04536819 66.90035248 -51.68447495
-51.56654358 69.68277740 -51.77361298
39.60466766 -219.18109131 -38.72377396
-10.46606541 194.95285034 -137.57388306
-10.41690540 198.22578430 -133.33184814
-12.47414970 194.84410095 -131.97357178
20.83255386 34.80839920 -129.58000183
-9.84959793 -188.16679382 30.12462997
-10.34037209 -191.22869873 28.42289734
-13.98849201 -191.53953552 20.44021606
-11.02548790 -190.12980652 27.82644272
-39.62844849 78.00091553 -116.55014038
33.00637054 60.36217499 39.16738129
33.00637054 60.36215973 39.16739273
51.20321274 15.27576160 -65.43250275
24.53166389 109.99211884 -82.50637817
24.53166008 109.99215698 -82.50637054
55.89315033 20.67211914 -56.51791382
-32.46799850 112.48704529 -69.87306213
-35.16897202 118.81255341 -66.66828156
43.39374542 23.34613991 31.53007889
-36.67580795 53.52194214 96.96448517
-36.29521179 56.80451584 93.37911224
-35.89457321 59.05440903 90.32736206
-0.63612700 -52.57009888 -130.35734558
-21.90476036 99.39183044 82.81327057
-20.29794502 100.03824615 84.34437561
-20.58894539 98.16544342 83.81763458
38.01815414 -68.97603607 -90.40232849
39.14869308 -68.41434479 -91.06942749
40.52658081 -68.41437531 -93.33875275
13.59464169 140.76449585 94.94243622
37.48123932 -70.06040192 -88.83822632
37.77564240 -69.38384247 -89.18705750
38.05887604 89.13238525 -84.85043335
35.19121933 89.54051971 -85.04660034
42.58314514 84.17968750 91.02739716
60.22785187 -103.01075745 -4.17912292
-12.27071953 -92.51692963 -108.57393646
-12.57454014 -95.39876556 -109.84402466
-10.88974953 -89.31239319 -107.65765381
-9.94021225 -83.87638092 -108.82191467
36.96506119 177.67199707 -61.75561905
10.24382019 126.95703125 -69.55464172
-25.67361450 124.71932220 -145.84498596
-24.02713966 127.07867432 -146.69038391
22.10677719 -113.43825531 -90.97760010
19.28110123 -9.05507088 -118.24805450
-15.00499153 25.59408379 82.75776672
-12.60006809 -224.28370667 48.76828384
-46.57789993 60.62979889 -69.36407471
-46.61983109 59.52175903 -68.76363373
-3.28692102 -188.29454041 37.06658173
51.15943146 70.16633606 -53.55117416
52.52356720 70.07633972 -50.06414413
-46.57789993 60.62977219 -69.36406708
-46.36807251 62.18029785 -69.41585541
36.56102753 -219.37913513 -44.97200394
-46.36806107 62.18032074 -69.41584778
54.23890305 68.22619629 -47.88747406
34.11411285 183.07859802 61.83057022
10.90312386 -74.40293884 -84.25487518
10.90312099 -74.40293884 -84.25487518
14.57965088 181.07763672 111.19656372
13.57203197 180.96873474 109.78245544
-62.74824905 181.26785278 -23.51250076
18.70307922 -86.59525299 -74.82251740
20.48684883 -88.68074799 -72.33830261
20.48683548 -88.68088531 -72.33825684
-50.70936203 123.58894348 31.20310974
-19.05674171 -207.12930298 -70.86663818
46.95987320 -44.85058594 -80.25102997
45.91039658 -36.48788834 -77.62424469
-35.65176773 11.24431896 -119.78538513
-50.70938873 123.58901215 31.20301437
1.15830898 112.60859680 -156.44531250
58.45809555 81.45387268 5.18327093
-42.85853195 136.43716431 -35.11445236
32.38186646 182.77224731 63.38475800
29.93781471 180.83000183 64.02916718
52.46152878 109.20839691 22.89022636
24.52263260 26.89851189 72.51604462
-4.94784307 117.25923920 -90.62500000
-59.91352081 60.71531677 -13.32582474
-59.91352081 60.71531677 -13.32582283
22.06726646 88.37814331 53.17715836
21.92123604 99.50252533 53.43281937
22.40404892 93.65061951 52.63706207
43.07428360 40.42481232 88.67296600
44.36864090 37.35023117 87.50702667
40.94395447 42.58271027 91.43717957
42.19310760 43.95536804 88.43928528
2.76043510 226.58590698 99.91607666
-42.16500854 -70.45265198 -4.83181190
4.64190578 210.91229248 -118.58283997
6.89738798 180.18676758 100.83397675
-57.36415482 49.17775345 -39.77203751
-56.23003006 48.86658859 -42.16224289
-57.61761475 49.72912598 -38.76644135
-56.23003006 48.86659622 -42.16223907
-56.80174637 50.23052979 -42.04023361
-56.80174637 50.23053360 -42.04023361
48.54777145 122.48686218 -36.36905670
-48.36656189 -150.87513733 -28.12015152
-20.52038193 122.42450714 139.80688477
-18.14584923 125.27188873 141.16500854
61.75781250 60.57163239 17.48117828
61.89033508 60.81780624 18.88865662
22.29746437 84.95608521 -129.66194153
20.56260300 -9.76357746 -116.88703156
19.81545067 -9.89317989 -113.21073151
19.64377403 -9.91037369 -114.52015686
11.12493229 -48.53627014 133.72863770
51.76797867 102.00820923 -33.41617584
22.46916008 -11.05747890 -116.60607147
-51.58279800 169.07958984 62.43447113
-4.32275295 -69.29665375 104.89738464
-2.21964788 -75.24282837 103.51483154
51.76792908 102.00821686 -33.41638565
61.38640594 -17.17542458 -31.14684296
60.96377945 -27.10327911 -30.78911018
61.38640594 -17.17543221 -31.14683914
-37.64621735 64.35466003 77.26268768
-31.91361427 66.64822388 82.61718750
-8.23821926 -72.78168488 101.68624115
-5.11065006 11.42733574 138.44125366
-33.65807724 -225.49284363 44.71818542
14.57968998 181.07763672 111.19661713
18.37976456 113.40962219 -145.75956726
12.72007084 109.95429993 -125.80791473
12.04139519 182.16752625 105.37891388
18.37984848 113.40950775 -145.75947571
14.42883682 37.61298370 142.51341248
26.17397881 -144.83514404 -38.99078751
3.49196696 220.09712219 -90.43309021
15.35362244 189.33634949 -116.03022003
57.82620239 18.50502014 -47.60430527
3.49195004 220.09712219 -90.43308258
-1.78433394 184.87591553 -155.20413208
12.04139519 182.16752625 105.37890625
57.82615280 18.50505447 -47.60446548
21.56853294 83.65717316 146.59385681
10.19922924 114.09587860 -147.79457092
32.42443466 104.44153595 -123.64498138
32.92076111 102.86497498 -124.32660675
32.46755219 105.61981201 -125.48863983
-16.54422569 90.95428467 -127.97798157
30.01130486 -34.11978531 -127.98487091
10.92343712 -132.10795593 75.54241943
7.32627916 -132.65408325 75.38999176
-2.61908793 180.59097290 -151.38798523
47.35977173 134.21493530 38.42559433
3.03723907 -172.34294128 41.48243713
4.64546299 -178.50595093 40.91888809
21.58405685 90.67296600 -118.49234772
24.04202843 141.51591492 78.65822601
-30.45634460 0.20366700 72.16940308
-25.52380371 -123.02706909 -32.76788712
-24.13034821 -123.09262848 -37.46255875
-12.79033184 -105.05702972 96.17694092
-13.53423595 -116.74113464 -87.85718536
-4.08139801 201.84873962 79.47528076
12.12781811 -61.86742020 80.17061615
20.94392014 -187.45570374 29.70591164
16.39558792 211.48686218 113.94648743
27.96615028 -98.63549042 49.12218475
61.45664597 52.76507187 -32.97083664
60.36786270 52.53063202 -37.69548416
61.88353729 60.87900925 18.77635002
41.46199417 119.14424896 121.74269867
24.78083611 -92.51897430 97.78869629
0.76367599 114.76795197 126.97675323
-12.78914928 210.53155518 90.32227325
-13.27801228 208.61291504 91.04248047
-12.43685818 209.89729309 93.86529541
21.92585754 88.97990417 -117.60245514
21.40772629 88.90147400 -118.81300354
21.40772820 88.90147400 -118.81300354
51.18402100 -108.39325714 -58.40047455
51.72775650 -111.13167572 -59.21837997
-41.43330765 62.02350616 73.11853790
35.97539520 128.36460876 24.56231499
37.00775146 127.40417480 19.21520805
37.17201996 124.49945068 16.67304039
-47.14289856 53.16484833 -76.01014709
51.65002060 -106.98160553 -57.76315308
51.97357941 154.02787781 -0.42792100
-61.97406769 50.88702774 10.81203747
-62.08501816 47.93231201 11.32074547
-62.26926804 45.98629761 13.39601612
2.12282300 175.10717773 -99.76494598
3.47054005 174.49180603 -99.72956085
2.47463489 173.91482544 -98.74989319
5.20848608 173.89315796 -99.57079315
-23.88533401 61.31007385 138.07101440
-21.55089188 -38.94764709 105.92298889
24.04198074 141.51603699 78.65824127
65.99811554 27.75422478 17.67301559
-40.24788284 113.68757629 -36.94416428
-48.09190750 111.66989899 40.01311111
-48.59461594 117.91327667 38.54105377
-14.46228218 18.86691856 112.70024872
-19.94421768 14.37263966 108.95941925
-26.47938728 -76.23725128 103.83244324
12.72895908 95.93431091 -67.56453705
12.74304867 102.21281433 -67.36999512
34.87836456 120.87918091 -35.35099792
35.76643753 121.10899353 -31.95661545
-0.34937799 199.15795898 87.95172119
-27.85283279 -125.34637451 -74.50616455
-27.33571053 -132.95401001 -73.40590668
-29.21208763 -132.11680603 -71.25228882
-3.71300411 201.11935425 125.75677490
-9.97970581 111.43541718 -71.79335022
-45.12364578 148.40150452 -32.90083313
-44.45979309 143.77090454 -32.91574097
26.78672218 -208.39582825 70.61998749
22.35824013 -211.62791443 72.25405884
25.76452827 -212.91432190 71.69235992
33.52977753 166.48765564 53.70460510
57.75262451 -181.53800964 22.29344177
58.65998459 -181.11836243 16.40861893
-47.48560715 -226.28892517 -33.31160355
4.74878597 168.82388306 -94.23932648
23.50329018 49.66183853 155.12185669
7.16939497 134.67660522 109.34405518
5.47808599 38.02191544 -132.06419373
5.61468887 39.04187393 -132.47761536
6.20641994 34.42979050 -132.61418152
43.50849915 176.94151306 27.57094574
30.87909126 42.34026718 -96.40951538
22.56719017 105.87179565 115.06785583
-13.44471645 -111.16661835 -100.16135406
-11.86421776 -111.46485138 -97.28003693
20.54352951 -2.98303509 -110.72610474
17.87151146 -0.89028901 -113.05274200
-13.99902725 84.23194122 65.71304321
-11.35846138 -112.64690399 -99.71038818
26.56792831 -24.08211327 -104.64768219
-5.94880199 223.35813904 91.14828491
8.91905785 211.78672791 -99.89167023
39.01617813 -10.62732029 55.65430450
43.08541489 159.54350281 57.23551178
-1.54744101 120.32810211 91.32305145
8.91906357 211.78672791 -99.89175415
-50.35147095 92.73231506 40.41903687
19.82067490 107.28321838 -123.63968658
10.52968979 143.67370605 -71.08673096
-2.22454810 121.72788239 91.41002655
-28.09114838 -40.26716232 -101.40711212
-30.91642189 -42.62332916 -97.01376343
-32.35820389 81.56448364 -111.28379822
-14.24517822 58.81268311 101.96208954
0.43483201 -159.17938232 -56.45953751
-20.62753487 -33.31991959 -110.62886810
-21.19417381 -31.13179779 -110.24008179
-24.16121864 -37.11338425 -106.47642517
-10.09784603 197.03379822 -84.03180695
43.03213882 24.04244804 96.26898956
42.31415939 23.07522583 96.41251373
43.98645782 25.46149445 93.77927399
-16.87476540 203.30795288 -104.73494720
-13.89516258 63.53789520 -159.49900818
-46.50202942 -222.62480164 25.98750114
9.81680965 166.56130981 -123.79141998
9.81681442 166.56135559 -123.79143524
-50.46586990 109.74723053 31.39081192
11.75401592 148.88847351 148.54377747
18.41587830 -95.20190430 -113.82992554
-6.46022987 198.59548950 91.47204590
-4.59978390 199.70555115 94.69329834
-6.55390787 198.81446838 92.38847351
17.45218849 -53.78796387 133.61103821
50.41299820 124.49726105 21.41133308
-46.30759811 -27.52297211 93.52691650
23.08222008 -107.87233734 -100.91833496
10.53104401 132.18667603 -155.17555237
15.91462517 128.70223999 -152.91195679
48.63934326 -4.43713999 15.64331532
-50.00050735 -19.81698036 86.70043182
-50.81174469 -16.28243065 85.14606476
-49.07308197 -20.64852333 85.68614960
-3.53316998 187.10191345 -156.83966064
-30.24052048 123.29777527 90.17192078
40.50209427 111.20042419 119.87444305
-27.90496063 -223.43646240 55.65212250
-28.31023026 -221.31990051 55.51181793
-32.80104065 -41.98014832 61.10422897
-54.35100555 131.89419556 4.20667982
-54.40618896 133.58058167 3.84787798
-53.96917725 129.78152466 2.65410805
-55.57154465 138.82815552 6.41260815
-54.82276154 135.90748596 4.87581491
-53.96918106 129.78160095 2.65412402
-55.57154465 138.82815552 6.41261482
-54.82275772 135.90747070 4.87581205
-23.76399040 -222.61132812 36.88694000
-0.34938899 199.15795898 87.95167542
-5.07145786 218.05410767 115.72710419
-28.12686920 -84.38563538 92.60214233
0.33236700 -126.18289948 77.49996185
4.52952480 -123.82939911 79.19161224
4.28878880 197.45329285 -85.98706818
8.02544212 174.04403687 75.10409546
3.72807193 172.95951843 75.81958771
10.25531292 173.82632446 74.32970428
-14.18551922 -98.06129456 -109.02849579
9.74421501 185.08441162 -89.89146423
9.03630066 184.14843750 -89.94294739
8.79600716 183.48362732 -90.04811096
9.62282467 104.96247101 91.11060333
12.27050781 105.33251953 90.26982117
14.22708702 100.65323639 90.43757629
9.57449818 186.38206482 -88.88189697
8.80807209 189.12657166 -87.21697235
-5.60344791 15.76385021 -132.19816589
-20.97017479 101.67142487 84.34147644
-20.76914024 102.24900055 85.17916107
-26.02829933 72.59000397 -92.06035614
41.55692673 124.77565765 61.69415283
-11.54228973 184.54551697 98.27381897
10.96636295 131.60478210 -90.28642273
11.06336212 128.78474426 -92.37049866
31.34730339 -72.10980225 113.59039307
-49.11919785 -1.64946103 -66.57892609
-48.59461212 117.91329193 38.54105759
-48.09136963 111.66644287 40.01483917
-24.07610321 109.10697174 -115.82791901
-22.60000610 107.96984863 -116.12995148
-13.54424191 161.04666138 -124.33925629
-19.36792183 -27.22096634 -112.84732819
15.91464138 128.70213318 -152.91195679
-28.77907562 72.26422119 -59.59442139
-0.78180099 117.96331787 122.91543579
-3.61102390 118.09955597 123.03619385
1.85958898 124.00315094 -157.35342407
5.37125301 123.83015442 -156.13037109
-62.26926804 45.98629761 13.39601421
-62.37401581 42.76512909 18.56623077
-14.36832619 -16.34263039 135.05828857
10.53104591 132.18667603 -155.17555237
-27.79608536 63.15644836 -115.45246887
-27.99000168 63.67846298 -117.68249512
19.05014229 42.94416809 -79.52581024
-23.27726173 71.35019684 -123.00988007
-23.41367531 71.93386078 -125.45169830
-55.82705307 35.27326965 52.91890335
50.84675980 -218.97613525 -55.53630829
-14.51677132 166.55566406 -124.59986877
-13.25934696 156.78363037 72.75559998
-11.33095741 159.85705566 73.48901367
-57.33579254 8.96097374 -39.84098816
-9.08207512 160.75279236 73.76077271
-9.27523422 163.56591797 74.35929108
-62.31404114 38.83212280 1.11413503
-62.18949509 37.30749130 -1.25488400
-62.54050446 39.85942078 -0.01763700
-62.44187927 38.90933990 -2.38718295
-57.33576202 8.96081161 -39.84104156
-62.47658157 36.72634506 0.60563898
47.33734894 -50.38937378 9.50593281
-37.59994507 113.02843475 79.22474670
10.13930225 175.54022217 -109.40184784
-4.73893309 33.89921188 -146.98683167
-5.10261822 32.81135941 -147.04052734
6.80407476 11.68979454 124.59297943
-9.90318966 212.72711182 111.21705627
-10.18144798 211.69798279 110.92852020
-10.28004360 211.10969543 112.54380035
25.64151955 34.35758209 143.99943542
23.58892632 35.46981049 143.07872009
-9.36194324 213.70182800 109.48574829
-8.00371647 216.67793274 109.76070404
41.55692673 124.77565765 61.69414139
-30.48107719 54.13268661 94.85668945
-0.17454000 78.17755127 147.35211182
-1.28579998 75.25239563 145.66142273
-2.72257996 73.89435577 146.23211670
16.43487740 -34.00402832 118.21070099
55.75797272 88.43240356 35.62265015
-31.72670746 65.86206818 -125.30780792
-33.92263412 61.64174271 -120.05249023
-9.72541809 199.96113586 -85.93169403
-21.39953613 -216.38981628 61.04108810
31.91080856 -36.40383530 66.86360168
28.81374168 34.25916290 151.70349121
29.99588013 34.01372147 151.74124146
31.29806519 31.21991539 146.45611572
-32.95034027 17.88832283 65.44796753
14.91355324 -72.52472687 -113.23746490
13.16244698 -69.72821045 -115.25914764
-10.12146091 -159.62979126 -48.59446716
-12.01069736 -159.51840210 -46.02781296
15.70845509 72.94503784 -98.31179810
18.36875343 69.86617279 -98.27331543
46.68606949 -35.10572815 -31.41027641
29.46121788 105.70285034 -83.00601196
49.76108932 59.83290100 -61.53940582
50.62246704 63.41775131 -58.80574417
51.34517670 68.37678528 -54.27655411
49.76111603 59.83269882 -61.53942108
50.62240601 63.41764832 -58.80589294
51.34517288 68.37679291 -54.27656937
-18.88830948 -70.75424194 102.64842224
21.36343002 181.28170776 136.60964966
-20.76914024 102.24900818 85.17916107
-20.97017670 101.67142487 84.34147644
-3.67989397 -1.48352098 -130.04591370
32.39942932 -5.73466921 68.87772369
19.72090340 172.45495605 130.05918884
20.49955177 178.22915649 132.76403809
31.96403503 -69.93211365 114.58544922
-64.37599945 173.55169678 -0.88198698
-63.31091690 169.26597595 -1.33908796
-10.90945816 -8.89735126 133.44323730
-9.48139668 -4.97306585 134.35377502
-2.13195395 217.14468384 -99.49100494
