-1.05470000 9.94692000 0.93378000
-0.81076200 9.91357000 1.00338000
-0.99818900 9.93042000 0.88627100
-1.15277000 9.93688000 0.69821700
-0.93415600 9.90011000 0.82400700
-1.07179000 9.90718000 0.65596100
-1.15603000 9.90535000 0.44373500
-0.99020100 9.86217000 0.61241100
-1.06290000 9.86451000 0.42340400
-1.08552000 9.86214000 0.21802700
-0.96786700 9.79227000 0.40167200
-0.98701600 9.79330000 0.21927100
-0.96497800 9.79430000 0.03709470
-0.90439100 9.65475000 0.21824600
-0.88644700 9.65811000 0.05466760
-0.83226900 9.65985000 -0.09945510
-0.82016400 9.44014000 0.06720010
-0.77498300 9.44394000 -0.07492180
-0.69601200 9.44696000 -0.20358700
-0.69601200 9.44696000 -0.20358700
-0.77498300 9.44394000 -0.07492180
-0.71452500 9.15638000 -0.05483810
-0.64718100 9.15553000 -0.17704700
-0.55730300 9.15284000 -0.28629200
-0.59641800 9.44759000 -0.31790600
-0.61903400 8.81628000 -0.16317000
-0.52908400 8.81462000 -0.26397100
-0.41559300 8.81355000 -0.33248400
-0.53183700 8.46169000 -0.26905200
-0.41813900 8.46082000 -0.34050000
-0.29553500 8.46059000 -0.38605900
-0.42476000 8.09877000 -0.35361200
-0.29797200 8.09844000 -0.39981400
-0.16895700 8.09904000 -0.42646000
-0.29880400 7.73454000 -0.41436300
-0.16515700 7.73546000 -0.44173300
-0.03261280 7.73754000 -0.45671000
-0.16080200 7.37085000 -0.46142000
-0.02276890 7.37325000 -0.47674500
0.10848800 7.37621000 -0.47044000
-0.01305340 7.00829000 -0.50090400
0.12318800 7.01152000 -0.49366600
0.24194200 7.01355000 -0.45482700
0.13755200 6.64640000 -0.52062600
0.26012100 6.64845000 -0.47989700
0.36871900 6.64944000 -0.41628500
0.27930500 6.28330000 -0.50827900
0.39191800 6.28420000 -0.44168000
0.49221300 6.28439000 -0.35060400
0.41784800 5.91924000 -0.47000500
0.52234600 5.91923000 -0.37427600
0.61231200 5.91886000 -0.25256000
0.55606400 5.55466000 -0.40045700
0.65038000 5.55421000 -0.27175500
0.72556600 5.55400000 -0.11990900
0.69317200 5.19044000 -0.29316000
0.77204200 5.19022000 -0.13197500
0.82075600 5.19038000 0.05267680
0.82485500 4.82777000 -0.14445900
0.87521800 4.82795000 0.05133330
0.88576100 4.82833000 0.25998600
0.93771500 4.46728000 0.05132030
0.94745300 4.46765000 0.26988100
0.91574400 4.46880000 0.48600900
1.01872000 4.10936000 0.28143100
0.98460400 4.11058000 0.50868700
0.91147000 4.11384000 0.72531900
1.06555000 3.75587000 0.53556500
0.98725100 3.75949000 0.76612600
0.87104500 3.76569000 0.97752100
1.07587000 3.40996000 0.81430300
0.95043000 3.41686000 1.04171000
0.78655900 3.42433000 1.23911000
1.04096000 3.07361000 1.11707000
0.86162800 3.08208000 1.33185000
0.64141100 3.08556000 1.50139000
0.64141100 3.08556000 1.50139000
0.86162800 3.08208000 1.33185000
0.94593500 2.74574000 1.43700000
0.70429800 2.74946000 1.62195000
0.42514100 2.74369000 1.74415000
0.38662200 3.08102000 1.61328000
0.77390100 2.41861000 1.75402000
0.46877100 2.41175000 1.88713000
0.14127900 2.40328000 1.95830000
0.51623100 2.08409000 2.03935000
0.15890400 2.07465000 2.11655000
-0.20675400 2.06817000 2.12910000
0.17767400 1.74883000 2.28109000
-0.21941200 1.74101000 2.29406000
-0.61088500 1.73527000 2.23239000
-0.23188900 1.41526000 2.46186000
-0.65452500 1.40832000 2.39438000
-1.05521000 1.40193000 2.24625000
-0.69845800 1.08152000 2.55713000
-1.12816000 1.07403000 2.39721000
-1.51645000 1.06511000 2.15746000
-1.20139000 0.74574600 2.54819000
-1.61478000 0.73584000 2.29110000
-1.96865000 0.72321100 1.95769000
-1.71290000 0.40549700 2.42329000
-2.08779000 0.39210500 2.06779000
-2.38333000 0.37669900 1.64268000
-2.24770000 0.70870800 1.55865000
-2.20486000 0.05996070 2.17604000
-2.51616000 0.04371520 1.72567000
-2.51616000 0.04371520 1.72567000
-2.73436000 0.02866700 1.22389000
-2.38333000 0.37669900 1.64268000
-2.64502000 -0.29088500 1.80694000
-2.87406000 -0.30698900 1.27823000
-2.99314000 -0.32118300 0.71358100
-3.00870000 -0.64500200 1.33049000
-3.13250000 -0.65943500 0.73775800
-3.13875000 -0.67187700 0.13187100
-3.26371000 -1.00082000 0.76073300
-3.26956000 -1.01363000 0.12770700
-3.15578000 -1.02348000 -0.49619900
-3.38969000 -1.35903000 0.12296800
-3.27045000 -1.36925000 -0.52530000
-3.03182000 -1.37704000 -1.13943000
-3.03182000 -1.37704000 -1.13943000
-3.27045000 -1.36925000 -0.52530000
-3.37215000 -1.71872000 -0.55303000
-3.12399000 -1.72612000 -1.18726000
-2.75980000 -1.73078000 -1.76345000
-2.68091000 -1.38198000 -1.69758000
-3.20129000 -2.07897000 -1.23061000
-2.82517000 -2.08328000 -1.82185000
-2.34110000 -2.08515000 -2.32812000
-2.87541000 -2.43935000 -1.87122000
-2.37821000 -2.44109000 -2.38719000
-1.77612000 -2.44122000 -2.77410000
-2.40107000 -2.79989000 -2.43272000
-1.78663000 -2.79947000 -2.82303000
-1.09881000 -2.79607000 -3.07103000
-1.78431000 -3.15954000 -2.85408000
-1.08820000 -3.15541000 -3.10167000
-0.35890000 -3.14876000 -3.24868000
-1.06809000 -3.51495000 -3.11058000
-0.33679800 -3.50934000 -3.25623000
0.40743400 -3.50414000 -3.33452000
-0.31070100 -3.86835000 -3.23780000
0.42886700 -3.86736000 -3.31308000
1.16844000 -3.86329000 -3.25229000
0.44731000 -4.22700000 -3.26363000
1.17656000 -4.22794000 -3.19651000
1.86599000 -4.21357000 -2.92478000
1.17571000 -4.58679000 -3.11335000
1.84841000 -4.57492000 -2.84168000
2.44310000 -4.54430000 -2.41559000
1.81632000 -4.92871000 -2.73611000
2.38967000 -4.89872000 -2.32030000
2.85784000 -4.84632000 -1.78788000
2.31545000 -5.24371000 -2.20848000
2.76581000 -5.19000000 -1.69741000
3.11544000 -5.11672000 -1.11765000
2.64751000 -5.52166000 -1.59683000
2.98851000 -5.44553000 -1.04479000
3.22159000 -5.35180000 -0.45962400
2.98851000 -5.44553000 -1.04479000
2.82944000 -5.75940000 -0.96829900
3.06554000 -5.66298000 -0.41295300
3.22159000 -5.35180000 -0.45962400
3.16908000 -5.60005000 0.14666100
3.32842000 -5.27845000 0.13101700
2.86949000 -5.95951000 -0.36959100
2.96375000 -5.91724000 0.14971800
2.89088000 -5.98137000 0.64925900
2.70457000 -6.21223000 0.12869500
2.62864000 -6.26756000 0.58319400
2.47651000 -6.32481000 1.02770000
2.32933000 -6.51307000 0.51321300
2.19244000 -6.55474000 0.90029100
1.99990000 -6.58548000 1.24050000
1.89284000 -6.77106000 0.75234100
1.72075000 -6.79473000 0.99423500
1.49903000 -6.81351000 1.20155000
1.47306000 -7.03286000 0.80350000
1.28405000 -7.04900000 0.96254600
1.05948000 -7.06180000 1.14124000
1.14595000 -7.33576000 0.88801400
0.95718900 -7.34684000 1.05421000
0.73706100 -7.35160000 1.20425000
0.88828100 -7.61547000 1.06748000
0.69918400 -7.61862000 1.20294000
0.48653100 -7.61280000 1.29169000
0.69918400 -7.61862000 1.20294000
0.48653100 -7.61280000 1.29169000
0.26628400 -7.76621000 1.29074000
0.25527200 -7.60464000 1.35168000
0.27978400 -7.84085000 1.15964000
0.08416550 -7.83710000 1.18585000
0.32887000 -7.87166000 1.00470000
0.14432400 -7.87228000 1.02118000
-0.05064200 -7.87164000 1.01777000
0.22061000 -7.88282000 0.84158600
0.04233930 -7.88287000 0.83552500
-0.12291900 -7.88235000 0.81052200
0.12531900 -7.88618000 0.64300200
-0.02069190 -7.88632000 0.61445500
0.17543900 -7.88692000 0.46818400
0.02083480 -7.88707000 0.45044400
0.03384610 -7.88713000 0.30195400
-0.13393700 -7.88710000 0.30576100
0.20186200 -7.88696000 0.30820400
0.19776600 -7.88688000 0.15309400
0.02487700 -7.88710000 0.15761300
0.35905200 -7.88622000 0.48161100
0.39833900 -7.88619000 0.31525500
0.39965500 -7.88617000 0.15068200
0.36763400 -7.88605000 -0.01227390
0.17370700 -7.88671000 -0.00317104
0.62027800 -7.88222000 0.32416600
0.62271700 -7.88227000 0.14563100
0.58012700 -7.88249000 -0.02850760
0.50508700 -7.88253000 -0.19856000
0.31060200 -7.88562000 -0.18169600
0.85361000 -7.86605000 0.13613700
0.80570800 -7.86732000 -0.05753960
0.71111900 -7.86992000 -0.23233400
0.60636000 -7.87043000 -0.39284900
0.42050500 -7.88051000 -0.36731000
1.01618000 -7.82971000 -0.09215520
0.91478300 -7.83712000 -0.28548500
0.79376800 -7.84180000 -0.45222700
1.09856000 -7.75641000 -0.34661000
0.96939000 -7.76501000 -0.53766100
0.81822000 -7.77505000 -0.68546400
1.10045000 -7.60796000 -0.60423400
0.93324000 -7.62069000 -0.78483100
0.74230200 -7.62836000 -0.92525200
0.53190000 -7.62879000 -1.02595000
0.93324000 -7.62069000 -0.78483100
1.03521000 -7.36112000 -0.86734900
0.81588400 -7.37552000 -1.03024000
0.74230200 -7.62836000 -0.92525200
0.57115600 -7.37966000 -1.14392000
0.53190000 -7.62879000 -1.02595000
0.30932800 -7.37212000 -1.19731000
0.30330500 -7.62030000 -1.07981000
0.90850300 -7.09217000 -1.16190000
0.62466500 -7.09811000 -1.29080000
0.32156900 -7.08889000 -1.35248000
0.01407820 -7.07431000 -1.34917000
0.04147390 -7.36274000 -1.19067000
0.71014700 -6.85361000 -1.51094000
0.35266200 -6.83946000 -1.59001000
-0.01251550 -6.81508000 -1.59910000
-0.37409200 -6.81420000 -1.54284000
-0.29079100 -7.07339000 -1.30330000
0.39680600 -6.62493000 -1.86801000
-0.03480100 -6.59390000 -1.88291000
-0.46661100 -6.59425000 -1.81255000
-0.87428700 -6.62212000 -1.65752000
-0.72547700 -6.83693000 -1.41722000
-0.05673180 -6.37772000 -2.15485000
-0.55972600 -6.37840000 -2.07027000
-1.02647000 -6.40830000 -1.89596000
-1.45118000 -6.42769000 -1.64690000
-1.25316000 -6.64040000 -1.43742000
-0.64616000 -6.13802000 -2.29967000
-1.16865000 -6.16656000 -2.11418000
-1.63872000 -6.18614000 -1.84036000
-2.04746000 -6.18202000 -1.47293000
-1.82683000 -6.42295000 -1.31839000
-1.28973000 -5.88984000 -2.30235000
-1.80360000 -5.90813000 -2.00549000
-2.24344000 -5.90451000 -1.60097000
-2.60300000 -5.88800000 -1.11270000
-2.39099000 -6.16202000 -1.02614000
-1.94364000 -5.60077000 -2.13901000
-2.41062000 -5.59769000 -1.70126000
-2.78326000 -5.58591000 -1.17862000
-3.03952000 -5.58350000 -0.59705700
-2.85318000 -5.88216000 -0.56019200
-2.78326000 -5.58591000 -1.17862000
-2.41062000 -5.59769000 -1.70126000
-2.55060000 -5.27232000 -1.77982000
-2.93333000 -5.26467000 -1.23003000
-3.19594000 -5.26376000 -0.62410600
-3.03952000 -5.58350000 -0.59705700
-3.33535000 -5.27057000 0.02755990
-3.17101000 -5.59567000 0.02819840
-3.05800000 -4.93030000 -1.27147000
-3.32698000 -4.92961000 -0.64344500
-3.47145000 -4.93261000 0.03182740
-3.48489000 -4.93197000 0.73514000
-3.34880000 -5.27361000 0.70488400
-3.43444000 -4.58523000 -0.65549700
-3.58168000 -4.58542000 0.03980920
-3.59434000 -4.58186000 0.76251300
-3.46518000 -4.57119000 1.47603000
-3.36142000 -4.92229000 1.43031000
-3.66585000 -4.23098000 0.04996380
-3.67685000 -4.22495000 0.78609200
-3.54298000 -4.21322000 1.51181000
-3.26850000 -4.19777000 2.18871000
-3.19823000 -4.55508000 2.14169000
-3.73010000 -3.86299000 0.80469800
-3.59293000 -3.85030000 1.53671000
-3.31319000 -3.83484000 2.21955000
-3.31319000 -3.83484000 2.21955000
-2.91041000 -3.81947000 2.82851000
-2.87216000 -4.18240000 2.79173000
-3.26850000 -4.19777000 2.18871000
-3.61333000 -3.48455000 1.54955000
-3.33131000 -3.46876000 2.23318000
-3.33131000 -3.46876000 2.23318000
-2.92587000 -3.45302000 2.84331000
-2.40928000 -3.43958000 3.35463000
-2.39572000 -3.80615000 3.33950000
-3.32399000 -3.10205000 2.23008000
-2.91920000 -3.08572000 2.83678000
-2.40447000 -3.07201000 3.34514000
-1.80186000 -3.06246000 3.74031000
-1.80415000 -3.43015000 3.75180000
-2.89254000 -2.71983000 2.81132000
-2.38288000 -2.70576000 3.31373000
-1.78615000 -2.69594000 3.70465000
-1.12523000 -2.68957000 3.97304000
-1.13519000 -3.05708000 4.01139000
-2.34628000 -2.34245000 3.26336000
-1.75840000 -2.33224000 3.64793000
-1.10659000 -2.32488000 3.91205000
-0.41064900 -2.31807000 4.05068000
-0.41970800 -2.68471000 4.11465000
-1.71969000 -1.97270000 3.57244000
-1.08022000 -1.96440000 3.83036000
-0.39775000 -1.95579000 3.96489000
0.30966100 -1.94530000 3.97028000
0.31206500 -2.30955000 4.05818000
-1.04780000 -1.60881000 3.73009000
-0.38208900 -1.59870000 3.85929000
0.30648200 -1.58686000 3.86234000
0.99670000 -1.57254000 3.74163000
1.02074000 -1.93194000 3.84852000
-0.36458200 -1.24718000 3.73662000
0.30201500 -1.23453000 3.73719000
0.96842600 -1.21978000 3.61790000
1.60563000 -1.20309000 3.36986000
1.65837000 -1.55552000 3.48722000
0.96842600 -1.21978000 3.61790000
0.30201500 -1.23453000 3.73719000
0.29638800 -0.88853000 3.59785000
0.93601100 -0.87355100 3.48064000
1.54544000 -0.85745700 3.24024000
1.60563000 -1.20309000 3.36986000
2.07839000 -0.84716100 2.85316000
2.16396000 -1.19020000 2.96682000
0.89925600 -0.53336500 3.33289000
1.47847000 -0.51839200 3.10134000
1.98459000 -0.51059800 2.73188000
2.39346000 -0.50872000 2.25345000
2.50802000 -0.84194700 2.35032000
1.40675000 -0.18448500 2.95566000
1.88468000 -0.17889100 2.60514000
2.27161000 -0.17993100 2.15272000
2.56310000 -0.18195000 1.63520000
2.69952000 -0.50813700 1.70858000
1.78063000 0.14924200 2.47418000
2.14556000 0.14551900 2.04797000
2.42157000 0.14149900 1.55862000
2.60793000 0.13708300 1.03424000
2.75912000 -0.18544100 1.08209000
2.01735000 0.46870400 1.93971000
2.27686000 0.46316000 1.47930000
2.45305000 0.45822700 0.98478800
2.54182000 0.45236500 0.47145900
2.70214000 0.13106600 0.49183900
2.13087000 0.78429800 1.39905000
2.29602000 0.77887300 0.93448300
2.37925000 0.77328900 0.45128300
2.37532000 0.76812200 -0.03766680
2.53835000 0.44680100 -0.04714810
2.13818000 1.09969000 0.88346800
2.21564000 1.09405000 0.43133800
2.21119000 1.08913000 -0.02705570
2.12073000 1.08437000 -0.47460000
2.27965000 0.76223900 -0.51586300
2.05235000 1.41543000 0.41127000
2.04764000 1.41065000 -0.01469510
1.96255000 1.40661000 -0.43201800
1.79704000 1.40465000 -0.82316000
1.94400000 1.08087000 -0.89506100
1.88593000 1.73335000 -0.00368679
1.80631000 1.72999000 -0.38957000
1.65231000 1.72907000 -0.75112700
1.43545000 1.72853000 -1.07748000
1.56363000 1.40300000 -1.17641000
1.65365000 2.05577000 -0.34748400
1.51134000 2.05503000 -0.67997300
1.31107000 2.05545000 -0.97997400
1.05601000 2.05466000 -1.23193000
1.15866000 1.72605000 -1.35232000
1.37676000 2.38433000 -0.61113400
1.19269000 2.38523000 -0.88579200
0.95899500 2.38576000 -1.11560000
0.68061400 2.38237000 -1.28556000
0.75238300 2.05011000 -1.41780000
1.08225000 2.71963000 -0.79801200
0.86864300 2.72064000 -1.00695000
0.61483600 2.71798000 -1.16160000
0.33370900 2.70798000 -1.25345000
0.37141800 2.37120000 -1.38636000
0.78570100 3.06034000 -0.90880000
0.55616300 3.05823000 -1.04841000
0.30200500 3.04967000 -1.13158000
0.03088150 3.03118000 -1.14677000
0.03565780 2.68635000 -1.27041000
0.55616300 3.05823000 -1.04841000
0.50478600 3.40376000 -0.94810400
0.27613100 3.39646000 -1.02326000
0.30200500 3.04967000 -1.13158000
0.02959350 3.38127000 -1.03706000
0.03088150 3.03118000 -1.14677000
-0.22606000 3.36843000 -1.01088000
-0.24693400 3.01611000 -1.11871000
0.25661400 3.74829000 -0.92879400
0.03119870 3.73600000 -0.94207000
-0.20614200 3.72547000 -0.91778700
-0.44281000 3.72513000 -0.86908700
-0.48010800 3.36727000 -0.95811300
0.03398890 4.09462000 -0.86122900
-0.18848700 4.08630000 -0.83859100
-0.41155100 4.08602000 -0.79324600
-0.62213300 4.09131000 -0.71591100
-0.66733900 3.73162000 -0.78548200
-0.17501100 4.44910000 -0.77134700
-0.38660200 4.44875000 -0.72885500
-0.58519900 4.45310000 -0.65659400
-0.75811100 4.45620000 -0.54575800
-0.80689600 4.09483000 -0.59696000
-0.36673300 4.81267000 -0.67322900
-0.55459500 4.81625000 -0.60525200
-0.71751700 4.81887000 -0.50078500
-0.85102600 4.81984000 -0.36180900
-0.90036200 4.45712000 -0.39792400
-0.52886100 5.18030000 -0.56038000
-0.68340100 5.18242000 -0.46084500
-0.80957900 5.18331000 -0.32896600
-0.90646400 5.18403000 -0.17655500
-0.95439100 4.82063000 -0.19990300
-0.65371500 5.54659000 -0.42559600
-0.77353900 5.54724000 -0.29975800
-0.86534400 5.54780000 -0.15463100
-0.92746200 5.54874000 0.00551573
-0.97267000 5.18525000 -0.00753104
-0.74201800 5.91149000 -0.27420000
-0.82939300 5.91187000 -0.13513800
-0.88815500 5.91257000 0.01771880
-0.91709100 5.91383000 0.18074600
-0.95853200 5.55029000 0.17810400
-0.79805200 6.27618000 -0.11783400
-0.85364200 6.27673000 0.02814790
-0.88068400 6.27775000 0.18270000
-0.87745500 6.27917000 0.34195100
-0.91406700 5.91550000 0.34812800
-0.82353800 6.64111000 0.03710770
-0.84906700 6.64195000 0.18501800
-0.84559900 6.64319000 0.33750300
-0.81136700 6.64466000 0.48745900
-0.84218700 6.28077000 0.49825200
-0.82236600 7.00649000 0.18792900
-0.81849200 7.00766000 0.33458200
-0.78494100 7.00905000 0.47869900
-0.72325600 7.01051000 0.61219400
-0.74769600 6.64616000 0.62687500
-0.79615400 7.37274000 0.33290600
-0.76334000 7.37415000 0.47155200
-0.70325500 7.37563000 0.59987900
-0.61884600 7.37718000 0.71429800
-0.63610300 7.01201000 0.73145600
-0.72325600 7.01051000 0.61219400
-0.70325500 7.37563000 0.59987900
-0.74630900 7.74017000 0.46623700
-0.68745000 7.74177000 0.59031800
-0.68745000 7.74177000 0.59031800
-0.60524300 7.74349000 0.70083800
-0.49960300 7.74509000 0.79134000
-0.51023400 7.37861000 0.80843200
-0.67494000 8.10900000 0.58310900
-0.59431000 8.11112000 0.69032000
-0.49078100 8.11301000 0.77780900
-0.37088300 8.11477000 0.84247800
-0.37679600 7.74652000 0.85888700
-0.58413300 8.47787000 0.68205800
-0.47968900 8.48032000 0.76289200
-0.36084500 8.48244000 0.81887000
-0.23846200 8.48468000 0.85767600
-0.24273000 8.11620000 0.88193500
-0.47608700 8.83062000 0.76164700
-0.35859800 8.83316000 0.81918000
-0.23573400 8.83543000 0.85404000
-0.11042000 8.83704000 0.86471800
-0.11255600 8.48565000 0.87054000
-0.36374000 9.13471000 0.83899200
-0.23798600 9.13389000 0.88442100
-0.10730300 9.13884000 0.89755900
0.02341030 9.14554000 0.89356200
0.01437460 8.83830000 0.85517700
-0.24385700 9.35722000 0.92953400
-0.10561300 9.36651000 0.94357600
0.02865490 9.38784000 0.92244400
0.15687100 9.41221000 0.88102500
0.15078100 9.15397000 0.85945500
0.02865490 9.38784000 0.92244400
-0.10561300 9.36651000 0.94357600
-0.10447700 9.53105000 0.97436200
0.03628480 9.55756000 0.96681500
0.17217000 9.59309000 0.92994700
0.15687100 9.41221000 0.88102500
0.29887600 9.62565000 0.86336700
0.27746100 9.43453000 0.81587900
0.03994920 9.68375000 0.99485600
0.18140900 9.72551000 0.96568400
0.31682100 9.76389000 0.90687300
0.44535900 9.78486000 0.81728500
0.41463600 9.64797000 0.77133300
0.20022200 9.82853000 1.01396000
0.35317800 9.85700000 0.97032400
0.49651600 9.87180000 0.88067000
0.62302800 9.87670000 0.74936800
0.55677900 9.79403000 0.69493200
0.39669800 9.91005000 1.04784000
0.55568000 9.91612000 0.95536700
0.69646700 9.92013000 0.80739000
0.79924700 9.92198000 0.62335000
0.71736400 9.87892000 0.58578300
0.61155100 9.94770000 1.02945000
0.76813000 9.95105000 0.86266600
0.88063500 9.95234000 0.65978700
0.93833800 9.95154000 0.44313100
0.85694600 9.92165000 0.42388800
0.83996100 9.97557000 0.91595400
0.96283500 9.97739000 0.69463900
1.01757000 9.97513000 0.45993400
1.03749000 9.97267000 0.22528800
0.96199700 9.94839000 0.22317200
1.04213000 9.99597000 0.72612800
1.09417000 9.99263000 0.47470400
1.10815000 9.99172000 0.22740200
1.11556000 9.99495000 -0.01835450
1.03476000 9.97517000 -0.00552151
1.16124000 9.95345000 0.48502000
1.14622000 9.95216000 0.22805500
1.21890000 9.96239000 -0.02930360
1.13658000 9.94206000 -0.28414500
1.06984000 9.99380000 -0.25972000
1.12409000 9.88414000 0.22739300
1.16969000 9.85697000 -0.02451600
1.10455000 9.85322000 -0.27116000
0.99470900 9.84621000 -0.49760400
1.02199000 9.93274000 -0.51547500
1.09649000 9.78887000 -0.01588990
1.04339000 9.78378000 -0.24919200
0.94315300 9.77653000 -0.46514500
0.78368000 9.79287000 -0.64190200
0.83652900 9.84688000 -0.69163100
1.04339000 9.78378000 -0.24919200
0.97367900 9.71748000 -0.22472600
0.88164900 9.71458000 -0.42659800
0.94315300 9.77653000 -0.46514500
0.72527200 9.74004000 -0.58521000
0.78368000 9.79287000 -0.64190200
0.56167400 9.73528000 -0.73601700
0.60800500 9.78705000 -0.80098500
0.82974600 9.62909000 -0.39496100
0.68754600 9.64359000 -0.54996300
0.52593200 9.64895000 -0.68379800
0.34613900 9.65058000 -0.78762700
0.37381500 9.73588000 -0.84992000
0.65436800 9.51817000 -0.51962500
0.50057400 9.52105000 -0.64803700
0.32854600 9.52075000 -0.74877800
0.13948000 9.51714000 -0.81468800
0.14920200 9.64751000 -0.85739900
0.48789400 9.32857000 -0.63196000
0.31941000 9.33182000 -0.73017000
0.13359200 9.33254000 -0.79066100
-0.06145700 9.33208000 -0.81382000
-0.06162670 9.51102000 -0.83965400
0.30942600 9.08325000 -0.71205000
0.12793600 9.08388000 -0.77319200
-0.06271700 9.08418000 -0.79749000
-0.06271700 9.08418000 -0.79749000
-0.25521700 9.08162000 -0.78264500
-0.25824300 9.32861000 -0.79729200
-0.06145700 9.33208000 -0.81382000
0.12212600 8.79570000 -0.75658400
-0.06471670 8.79654000 -0.78131800
-0.06471670 8.79654000 -0.78131800
-0.25331200 8.79640000 -0.76910700
-0.43667800 8.79424000 -0.72254700
-0.44241900 9.07707000 -0.73387300
-0.06550950 8.48254000 -0.76278600
-0.25017100 8.48236000 -0.75520100
-0.43059900 8.48123000 -0.71332500
-0.60077900 8.48062000 -0.63899100
-0.60900400 8.79146000 -0.64453700
-0.24572500 8.14637000 -0.75527500
-0.42502900 8.14619000 -0.71440300
-0.59288000 8.14615000 -0.63903500
-0.74302300 8.14707000 -0.53269700
-0.75270000 8.48139000 -0.53167500
-0.41953200 7.79752000 -0.72396800
-0.58658100 7.79706000 -0.64664000
-0.73586000 7.79696000 -0.53937900
-0.86651200 7.79757000 -0.41027100
-0.87166600 8.14877000 -0.40150900
-0.58288600 7.44059000 -0.66012100
-0.73274600 7.43916000 -0.55198800
-0.86319000 7.43818000 -0.42129700
-0.96915100 7.43776000 -0.27049100
-0.97303300 7.79858000 -0.26077200
-0.73837800 7.07896000 -0.57447900
-0.86981100 7.07677000 -0.44043300
-0.97639400 7.07496000 -0.28631300
-1.05437000 7.07360000 -0.11646300
-1.04590000 7.43773000 -0.10345100
-0.88213500 6.71451000 -0.46352000
-0.99182200 6.71202000 -0.30630200
-1.07136000 6.70986000 -0.13233300
-1.11733000 6.70822000 0.05297300
-1.09897000 7.07297000 0.06462570
-1.01274000 6.34877000 -0.32841700
-1.09488000 6.34613000 -0.14982800
-1.14096000 6.34360000 0.04098520
-1.15045000 6.34151000 0.23659300
-1.12611000 6.70682000 0.24340000
-1.12332000 5.98225000 -0.16814000
-1.17203000 5.97943000 0.02865350
-1.18347000 5.97714000 0.23095600
-1.15327000 5.97496000 0.43129300
-1.12178000 6.33958000 0.43014300
-1.21603000 5.61650000 0.01552730
-1.22709000 5.61386000 0.22712900
-1.19703000 5.61171000 0.43658100
-1.12748000 5.60989000 0.63661500
-1.08650000 5.97316000 0.62264500
-1.27772000 5.25154000 0.22431600
-1.24602000 5.24917000 0.44401400
-1.17397000 5.24732000 0.65407400
-1.06525000 5.24574000 0.84755600
-1.02226000 5.60830000 0.82026400
-1.30613000 4.88850000 0.45421600
-1.22974000 4.88629000 0.67590800
-1.11532000 4.88463000 0.88034500
-0.96638800 4.88340000 1.06071000
-0.92363000 5.24454000 1.01817000
-1.29490000 4.52746000 0.70197500
-1.17396000 4.52584000 0.91933800
-1.01523000 4.52441000 1.11087000
-0.82405500 4.52313000 1.26902000
-0.78729800 4.88274000 1.21156000
-1.24314000 4.17080000 0.96656700
-1.07410000 4.16911000 1.17164000
-0.87011800 4.16753000 1.34179000
-0.63982800 4.16748000 1.47345000
-0.60906600 4.52329000 1.39255000
-0.87011800 4.16753000 1.34179000
-1.07410000 4.16911000 1.17164000
-1.14319000 3.81831000 1.24508000
-0.92446300 3.81631000 1.42834000
-0.67645800 3.81556000 1.56859000
-0.63982800 4.16748000 1.47345000
-0.40776300 3.81660000 1.66142000
-0.38940000 4.16849000 1.55920000
-0.98791800 3.47007000 1.52852000
-0.71947600 3.46838000 1.67930000
-0.42922200 3.46938000 1.77978000
-0.12573400 3.47179000 1.82439000
-0.12678700 3.81846000 1.70155000
-0.76796400 3.12668000 1.80404000
-0.45282400 3.12670000 1.91206000
-0.12435000 3.12924000 1.96048000
0.20729500 3.13227000 1.94491000
0.18079200 3.47466000 1.81121000
-0.47841000 2.78721000 2.05233000
-0.12286400 2.78977000 2.10462000
0.23607600 2.79458000 2.09105000
0.58584400 2.79883000 2.00901000
0.53058800 3.13545000 1.86842000
-0.12253700 2.45644000 2.26156000
0.26644300 2.46114000 2.24679000
0.64450900 2.46623000 2.15792000
1.00043000 2.47303000 1.99858000
0.91492800 2.80451000 1.86224000
0.29904500 2.13743000 2.42140000
0.70949800 2.14248000 2.32359000
1.09467000 2.15012000 2.15006000
1.44557000 2.16214000 1.91280000
1.32272000 2.48191000 1.77770000
0.77671100 1.82071000 2.49338000
1.19076000 1.82763000 2.30294000
1.56741000 1.84007000 2.04519000
1.89302000 1.85261000 1.72417000
1.74610000 2.17235000 1.61295000
1.28709000 1.50549000 2.45825000
1.68932000 1.51789000 2.17965000
2.03944000 1.53217000 1.83658000
2.31877000 1.54338000 1.43303000
2.15307000 1.86285000 1.34855000
1.81051000 1.19537000 2.31444000
2.18221000 1.20919000 1.94546000
2.48045000 1.22142000 1.51490000
2.69308000 1.23123000 1.03578000
2.51597000 1.55145000 0.98336700
2.32301000 0.88467600 2.05208000
2.64008000 0.89809700 1.59455000
2.86706000 0.90909800 1.08659000
2.99770000 0.91852900 0.54667400
2.81704000 1.24082000 0.52656900
2.80077000 0.57547000 1.67568000
3.04048000 0.58656700 1.13794000
3.17940000 0.59679400 0.56727800
3.21182000 0.61059400 -0.01888470
3.02788000 0.93177500 -0.00691995
3.04048000 0.58656700 1.13794000
3.22256000 0.26871300 1.19390000
3.36633000 0.27796300 0.58925000
3.17940000 0.59679400 0.56727800
3.40019000 0.29211800 -0.03164110
3.21182000 0.61059400 -0.01888470
3.31829000 0.30434300 -0.64814100
3.13478000 0.62185400 -0.60131000
3.53934000 -0.04869030 0.60881100
3.57268000 -0.03501670 -0.04440470
3.48791000 -0.02115150 -0.69341600
3.28471000 -0.00958572 -1.31539000
3.12562000 0.31375200 -1.24066000
3.73635000 -0.36640700 -0.05755550
3.64845000 -0.35116900 -0.73667000
3.43473000 -0.33776200 -1.38744000
3.10726000 -0.32458700 -1.98675000
2.97198000 0.00173649 -1.88913000
3.79475000 -0.68802600 -0.77795800
3.57312000 -0.67214900 -1.45494000
3.23223000 -0.65710800 -2.07834000
2.78609000 -0.64413800 -2.63093000
2.67754000 -0.31232900 -2.51733000
3.69804000 -1.01305000 -1.51787000
3.34576000 -0.99622000 -2.16351000
2.88453000 -0.98241100 -2.73626000
2.32265000 -0.97431200 -3.21149000
2.24708000 -0.63381400 -3.09522000
3.44004000 -1.34433000 -2.23775000
2.96239000 -1.33122000 -2.82323000
2.38693000 -1.32118000 -3.31405000
1.73093000 -1.31394000 -3.69174000
1.68717000 -0.96671700 -3.58279000
3.02926000 -1.68393000 -2.90240000
2.43982000 -1.67334000 -3.40411000
1.76707000 -1.66475000 -3.78792000
1.03558000 -1.65665000 -4.04391000
1.01728000 -1.30725000 -3.94127000
2.48287000 -2.02928000 -3.48429000
1.79447000 -2.01926000 -3.87075000
1.04839000 -2.00965000 -4.13395000
0.26606600 -2.00453000 -4.25420000
0.26885300 -1.65158000 -4.16237000
1.81476000 -2.37653000 -3.94448000
1.05559000 -2.36674000 -4.20991000
0.26145700 -2.36147000 -4.33408000
0.26145700 -2.36147000 -4.33408000
-0.54182000 -2.36370000 -4.31048000
-0.52576800 -2.00509000 -4.23535000
0.26606600 -2.00453000 -4.25420000
1.05627000 -2.72852000 -4.26728000
0.25449400 -2.72393000 -4.39055000
0.25449400 -2.72393000 -4.39055000
-0.55602500 -2.72715000 -4.36285000
-1.34989000 -2.73787000 -4.18242000
-1.32842000 -2.37350000 -4.13337000
-0.55602500 -2.72715000 -4.36285000
0.25449400 -2.72393000 -4.39055000
0.24530000 -3.09001000 -4.42315000
-0.56883100 -3.09366000 -4.39076000
-1.36624000 -3.10506000 -4.20937000
-1.34989000 -2.73787000 -4.18242000
-2.12136000 -3.11685000 -3.88269000
-2.10327000 -2.74858000 -3.85951000
-0.58009300 -3.46153000 -4.39861000
-1.37584000 -3.47368000 -4.21204000
-2.12843000 -3.48608000 -3.88370000
-2.80819000 -3.49111000 -3.42183000
-2.80290000 -3.12227000 -3.41999000
-1.37869000 -3.84199000 -4.19562000
-2.12600000 -3.85480000 -3.86754000
-2.80082000 -3.85998000 -3.40841000
-3.38057000 -3.86235000 -2.83671000
-3.39082000 -3.49343000 -2.84660000
-2.11024000 -4.22179000 -3.83248000
-2.77793000 -4.22787000 -3.37970000
-3.35234000 -4.23073000 -2.81499000
-3.81469000 -4.23788000 -2.15623000
-3.84634000 -3.87020000 -2.17086000
-2.73343000 -4.59248000 -3.33336000
-3.30015000 -4.59618000 -2.77920000
-3.75434000 -4.60216000 -2.13006000
-4.07793000 -4.61420000 -1.40914000
-4.14432000 -4.25153000 -1.42377000
-3.21616000 -4.95248000 -2.72086000
-3.66252000 -4.95858000 -2.08850000
-3.98101000 -4.97001000 -1.38558000
-4.16065000 -4.98539000 -0.63834200
-4.26120000 -4.63076000 -0.64291500
-3.53705000 -5.30178000 -2.02802000
-3.84642000 -5.31272000 -1.34917000
-4.02258000 -5.32729000 -0.62708900
-4.06584000 -5.34664000 0.11523400
-4.20543000 -5.00452000 0.12979500
-3.84642000 -5.31272000 -1.34917000
-3.67551000 -5.63678000 -1.29807000
-3.84503000 -5.65025000 -0.60728000
-4.02258000 -5.32729000 -0.62708900
-3.88216000 -5.66660000 0.10282700
-4.06584000 -5.34664000 0.11523400
-3.79518000 -5.68577000 0.81221000
-3.97163000 -5.36376000 0.85745100
-3.61970000 -5.94093000 -0.57846100
-3.65747000 -5.95796000 0.09172040
-3.57185000 -5.97510000 0.75994200
-3.36335000 -5.98665000 1.40245000
-3.57504000 -5.69838000 1.49615000
-3.38949000 -6.20725000 0.08193710
-3.30781000 -6.22455000 0.70269300
-3.11534000 -6.23752000 1.29650000
-2.81841000 -6.24859000 1.84415000
-3.04097000 -5.99733000 1.99586000
-3.02668000 -6.44890000 0.64361000
-2.84728000 -6.46043000 1.18395000
-2.57476000 -6.46716000 1.68188000
-2.21550000 -6.47510000 2.12430000
-2.42439000 -6.25923000 2.32833000
-2.56283000 -6.64094000 1.06496000
-2.31869000 -6.64895000 1.51344000
-1.99743000 -6.65632000 1.91091000
-1.60627000 -6.66286000 2.23779000
-1.78023000 -6.48474000 2.49089000
-2.06646000 -6.79683000 1.35025000
-1.77788000 -6.80421000 1.70069000
-1.43232000 -6.81139000 1.99283000
-1.03420000 -6.81853000 2.21623000
-1.15868000 -6.67175000 2.48567000
-1.57583000 -6.91236000 1.51201000
-1.27007000 -6.91926000 1.77566000
-0.92076200 -6.92683000 1.97836000
-0.53557300 -6.93017000 2.11074000
-0.59940100 -6.82581000 2.36367000
-1.13667000 -6.98359000 1.59858000
-0.82492900 -6.99121000 1.78482000
-0.48167300 -6.99797000 1.90678000
-0.11840500 -7.00017000 1.96364000
-0.13092200 -6.93360000 2.17265000
-0.75394000 -7.05719000 1.64288000
-0.44008700 -7.06498000 1.75684000
-0.10824600 -7.06974000 1.80569000
0.22740200 -7.06849000 1.78962000
0.25005200 -6.99798000 1.95362000
-0.10824600 -7.06974000 1.80569000
-0.44008700 -7.06498000 1.75684000
-0.41611500 -7.17110000 1.66870000
-0.10208400 -7.17589000 1.70964000
0.21474600 -7.17825000 1.69114000
0.22740200 -7.06849000 1.78962000
0.52337300 -7.17723000 1.61448000
0.55486300 -7.06469000 1.70951000
-0.09841360 -7.32137000 1.67520000
0.21213400 -7.32813000 1.65831000
0.51494500 -7.33366000 1.58670000
0.79893400 -7.34013000 1.45986000
0.81481300 -7.17899000 1.48791000
0.21676800 -7.52318000 1.67812000
0.52226000 -7.53480000 1.60523000
0.80745100 -7.54671000 1.47401000
1.06401000 -7.55423000 1.28857000
1.05560000 -7.34803000 1.27925000
0.54300100 -7.77972000 1.66240000
0.83832200 -7.79312000 1.52541000
1.10746000 -7.79865000 1.33660000
1.33552000 -7.80032000 1.09583000
1.27996000 -7.55919000 1.05217000
0.90214200 -8.07353000 1.63134000
1.18502000 -8.07733000 1.42439000
1.43045000 -8.07468000 1.17204000
1.63150000 -8.06687000 0.88351600
1.52729000 -7.79298000 0.82571600
1.32440000 -8.34720000 1.58592000
1.59415000 -8.34262000 1.30670000
1.81490000 -8.33704000 0.98583800
1.97305000 -8.33088000 0.63213900
1.77613000 -8.05718000 0.56480900
1.80303000 -8.55227000 1.47948000
2.05233000 -8.54546000 1.12196000
2.23257000 -8.53815000 0.72567100
2.33814000 -8.53015000 0.30306500
2.06647000 -8.32160000 0.25826000
2.28562000 -8.66092000 1.26138000
2.48013000 -8.64820000 0.81727800
2.59577000 -8.63625000 0.34460000
2.63177000 -8.62899000 -0.14005400
2.36445000 -8.52157000 -0.13224000
2.66808000 -8.70955000 0.88643700
2.78597000 -8.69337000 0.37622600
2.82151000 -8.68158000 -0.14378700
2.75957000 -8.67046000 -0.66064500
2.57318000 -8.61993000 -0.62121800
2.94281000 -8.74982000 0.40253200
2.97376000 -8.73514000 -0.14655300
2.90774000 -8.71849000 -0.69184800
2.73772000 -8.70792000 -1.21534000
2.59679000 -8.66295000 -1.15507000
2.97376000 -8.73514000 -0.14655300
3.06912000 -8.84847000 -0.15004900
3.00097000 -8.83020000 -0.71294200
2.90774000 -8.71849000 -0.69184800
2.82876000 -8.81863000 -1.25455000
2.73772000 -8.70792000 -1.21534000
2.55619000 -8.81659000 -1.75183000
2.47268000 -8.70726000 -1.69612000
3.02276000 -8.97161000 -0.71914200
2.84904000 -8.96318000 -1.26344000
2.57521000 -8.96070000 -1.76412000
2.21585000 -8.96551000 -2.20515000
2.19976000 -8.82143000 -2.19076000
2.86560000 -9.10203000 -1.27018000
2.59021000 -9.10022000 -1.77324000
2.22922000 -9.10685000 -2.21681000
1.79484000 -9.12282000 -2.58750000
1.78435000 -8.98156000 -2.57470000
2.60484000 -9.23747000 -1.78190000
2.24110000 -9.24516000 -2.22687000
1.80447000 -9.26014000 -2.59891000
1.30737000 -9.28164000 -2.88488000
1.30065000 -9.14601000 -2.87320000
2.24499000 -9.37495000 -2.22832000
1.81025000 -9.38719000 -2.60371000
1.30964000 -9.40379000 -2.88561000
0.76374500 -9.42454000 -3.07097000
0.76329800 -9.30710000 -3.07218000
1.78961000 -9.49725000 -2.57052000
1.29516000 -9.50769000 -2.84995000
0.75466600 -9.52290000 -3.03081000
0.18835000 -9.53084000 -3.09963000
0.19069200 -9.43824000 -3.14796000
1.26541000 -9.58595000 -2.78341000
0.73697500 -9.59062000 -2.95762000
0.18494700 -9.59367000 -3.02316000
0.18494700 -9.59367000 -3.02316000
-0.36665100 -9.59529000 -2.98773000
-0.37792800 -9.53569000 -3.06805000
0.18835000 -9.53084000 -3.09963000
0.71689100 -9.62347000 -2.87570000
0.18125000 -9.62748000 -2.94269000
0.18125000 -9.62748000 -2.94269000
-0.35591700 -9.63627000 -2.91089000
-0.87958100 -9.64703000 -2.78967000
-0.90411100 -9.59574000 -2.86343000
0.17955000 -9.70249000 -2.91905000
-0.35318400 -9.71257000 -2.88754000
-0.87302200 -9.72562000 -2.76741000
-1.36740000 -9.73076000 -2.55975000
-1.37791000 -9.65232000 -2.58010000
-0.35276500 -9.79426000 -2.87493000
-0.87032800 -9.80755000 -2.75492000
-1.36120000 -9.81305000 -2.54693000
-1.80500000 -9.80545000 -2.25254000
-1.81232000 -9.72373000 -2.26206000
-0.86819700 -9.89315000 -2.74542000
-1.35600000 -9.89936000 -2.53622000
-1.79927000 -9.89106000 -2.24487000
-2.17962000 -9.87428000 -1.87479000
-2.18405000 -9.78944000 -1.87975000
-1.32403000 -9.95405000 -2.47651000
-1.76061000 -9.95133000 -2.19599000
-2.14289000 -9.94642000 -1.84249000
-2.44658000 -9.94110000 -1.41879000
-2.47824000 -9.85968000 -1.43795000
-1.70708000 -9.92636000 -2.12939000
-2.07700000 -9.93058000 -1.78626000
-2.36933000 -9.93029000 -1.37541000
-2.56862000 -9.93025000 -0.91410000
-2.65388000 -9.93717000 -0.94339600
-2.00525000 -9.90543000 -1.72584000
-2.28942000 -9.90351000 -1.33019000
-2.48164000 -9.90618000 -0.88416100
-2.59025000 -9.90805000 -0.41247000
-2.68000000 -9.93092000 -0.42645200
-2.19682000 -9.92026000 -1.27741000
-2.38317000 -9.92169000 -0.85002200
-2.49151000 -9.92468000 -0.39749300
-2.51936000 -9.92430000 0.06982070
-2.62141000 -9.90954000 0.07346560
-2.29441000 -9.94623000 -0.81924500
-2.40102000 -9.94447000 -0.38412400
-2.43033000 -9.95000000 0.06642720
-2.37877000 -9.95036000 0.51813900
-2.46748000 -9.92120000 0.53794600
-2.32154000 -9.93009000 -0.37203300
-2.34910000 -9.93580000 0.06375310
-2.29797000 -9.93784000 0.50037700
-2.16731000 -9.94206000 0.92142500
-2.24466000 -9.94878000 0.95419400
-2.31441000 -9.87235000 0.06304090
-2.25899000 -9.87817000 0.49240400
-2.12546000 -9.88491000 0.90403600
-1.92558000 -9.89583000 1.28745000
-1.96870000 -9.94728000 1.31608000
-2.26140000 -9.80070000 0.49400200
-2.13068000 -9.80683000 0.90692300
-1.92710000 -9.81921000 1.28901000
-1.65227000 -9.83753000 1.62500000
-1.65336000 -9.91577000 1.62540000
-2.13650000 -9.72324000 0.91022200
-1.93172000 -9.73453000 1.29303000
-1.65538000 -9.75103000 1.62919000
-1.32008000 -9.77040000 1.90671000
-1.31772000 -9.85300000 1.90102000
-1.93650000 -9.64717000 1.29736000
-1.65905000 -9.66071000 1.63430000
-1.32261000 -9.68196000 1.91287000
-0.94056500 -9.70521000 2.12024000
-0.93993700 -9.78849000 2.11380000
-1.66104000 -9.56423000 1.63811000
-1.32382000 -9.58587000 1.91755000
-0.94028800 -9.61184000 2.12548000
-0.52524500 -9.62638000 2.25401000
-0.52756900 -9.71925000 2.24856000
-1.32158000 -9.48104000 1.91819000
-0.93724000 -9.50438000 2.12631000
-0.52203500 -9.51820000 2.25704000
-0.09434930 -9.52672000 2.30517000
-0.09788700 -9.63246000 2.30302000
-0.92397400 -9.39235000 2.10379000
-0.51303700 -9.40426000 2.23277000
-0.09076220 -9.41364000 2.28449000
0.32928800 -9.42183000 2.25705000
0.33062500 -9.53224000 2.27681000
-0.49228600 -9.31730000 2.15043000
-0.08577250 -9.32570000 2.20128000
0.31910000 -9.33275000 2.17856000
0.71063000 -9.33737000 2.08573000
0.73539300 -9.42846000 2.16041000
-0.08577250 -9.32570000 2.20128000
-0.08026340 -9.26671000 2.08339000
0.30313800 -9.27336000 2.06323000
0.31910000 -9.33275000 2.17856000
0.67247700 -9.27687000 1.97397000
0.71063000 -9.33737000 2.08573000
1.01981000 -9.27710000 1.81916000
1.07870000 -9.33924000 1.92318000
0.28216100 -9.21362000 1.92112000
0.62588700 -9.21646000 1.83836000
0.94909300 -9.21604000 1.69405000
1.24505000 -9.21382000 1.49619000
1.33564000 -9.27424000 1.60517000
0.56587200 -9.11858000 1.66226000
0.85958100 -9.11951000 1.53468000
1.12936000 -9.12015000 1.35608000
1.36625000 -9.11758000 1.13063000
1.50070000 -9.20748000 1.24577000
0.74797400 -8.95538000 1.33322000
0.98477300 -8.95906000 1.18246000
1.19632000 -8.96177000 0.98931600
1.37459000 -8.96527000 0.75875400
1.56182000 -9.11345000 0.86396800
0.87460000 -8.75948000 1.05208000
1.06106000 -8.76701000 0.88075800
1.21664000 -8.77220000 0.67503400
1.33215000 -8.77085000 0.44173500
1.50421000 -8.96520000 0.49550200
0.99509900 -8.61657000 0.83193700
1.14011000 -8.61700000 0.63907500
1.25073000 -8.61618000 0.41990100
1.32049000 -8.61287000 0.18241900
1.40091000 -8.76494000 0.18941400
1.09062000 -8.51586000 0.61718100
1.19888000 -8.51411000 0.40718600
1.26895000 -8.51096000 0.17855800
1.29531000 -8.50616000 -0.06005040
1.34536000 -8.61113000 -0.06434110
1.13060000 -8.44728000 0.38639300
1.19831000 -8.44007000 0.16927700
1.22233000 -8.43261000 -0.05774910
1.20257000 -8.42631000 -0.28443400
1.27544000 -8.49980000 -0.29902500
1.19831000 -8.44007000 0.16927700
1.10156000 -8.41251000 0.15248000
1.12176000 -8.40530000 -0.05767680
1.22233000 -8.43261000 -0.05774910
1.10280000 -8.39958000 -0.26619600
1.20257000 -8.42631000 -0.28443400
1.04492000 -8.39726000 -0.46095200
1.14010000 -8.42385000 -0.49839400
1.00603000 -8.40342000 -0.05867220
0.98253200 -8.39866000 -0.24359600
0.92710500 -8.39642000 -0.41471000
0.84739100 -8.39470000 -0.56760600
0.95515700 -8.39473000 -0.63800000
0.83629000 -8.40532000 -0.21756200
0.86895400 -8.40941000 -0.06047080
0.71203200 -8.42000000 -0.06977160
0.68539600 -8.41780000 -0.20596900
0.56425200 -8.43104000 -0.09323150
0.54854800 -8.42643000 -0.22123100
0.43077900 -8.43758000 -0.12917400
0.42823400 -8.43060000 -0.25889800
0.43499100 -8.42192000 -0.39115000
0.32941200 -8.42124000 -0.44843000
0.35905700 -8.41039000 -0.60024800
0.46633300 -8.41158000 -0.52994500
0.31589100 -8.43157000 -0.30633000
0.20045400 -8.42976000 -0.34878600
0.21121400 -8.41968000 -0.49844300
0.30884500 -8.44022000 -0.17047100
0.19054100 -8.43909000 -0.20833500
0.06746530 -8.43611000 -0.22984500
0.07428520 -8.42657000 -0.36764100
0.29815000 -8.44617000 -0.03737490
0.17763300 -8.44717000 -0.07297730
0.05482250 -8.44573000 -0.09719280
-0.06361630 -8.44252000 -0.10109500
-0.05162500 -8.43350000 -0.22660200
0.14923900 -8.45135000 0.05933100
0.03123440 -8.45091000 0.03129150
0.26798600 -8.44949000 0.09377320
0.42628200 -8.44225000 0.00257873
0.39382400 -8.44458000 0.13553100
0.56632500 -8.43341000 0.04271730
0.53055000 -8.43523000 0.18233400
0.45786800 -8.43585000 0.30129400
0.67383300 -8.42454000 0.22889600
0.59603000 -8.42575000 0.36264600
0.49950900 -8.42616000 0.46686000
0.73050600 -8.42003000 0.42749000
0.62535500 -8.42070000 0.55352400
0.51044700 -8.42020000 0.64843400
0.40000900 -8.42551000 0.54867400
0.73270900 -8.42031000 0.63314300
0.60356100 -8.41895000 0.74697700
0.46243400 -8.41635000 0.83136200
0.67895300 -8.42489000 0.83008500
0.52167100 -8.42078000 0.93198700
0.35213200 -8.41785000 1.00487000
0.31219100 -8.41433000 0.89492800
0.17918700 -8.41503000 1.04849000
0.16196000 -8.41384000 0.93197100
0.00025516 -8.41339000 1.06463000
0.00803478 -8.41342000 0.94634600
-0.18962200 -8.41363000 1.04467000
-0.15769100 -8.41428000 0.93034000
-0.38261600 -8.41454000 0.99191200
-0.33143300 -8.41571000 0.88800400
-0.56801000 -8.41275000 0.90336800
-0.42547100 -8.43140000 1.08443000
-0.62802000 -8.42802000 0.98762800
-0.81253900 -8.42635000 0.84671300
-0.81253900 -8.42635000 0.84671300
-0.62802000 -8.42802000 0.98762800
-0.67667200 -8.47942000 1.05401000
-0.87260900 -8.47321000 0.90400700
-1.03944000 -8.46889000 0.71639500
-0.97167800 -8.42005000 0.67229700
-0.91153000 -8.56160000 0.93662100
-1.07833000 -8.55852000 0.73972900
-1.19885000 -8.56129000 0.51382900
-1.12097000 -8.70155000 0.76478400
-1.24831000 -8.69982000 0.53492100
-1.32590000 -8.69797000 0.28618500
-1.39087000 -8.90724000 0.59503800
-1.48382000 -8.90892000 0.32213400
-1.52465000 -8.91307000 0.03878350
-1.70638000 -9.07761000 0.37440700
-1.75141000 -9.07731000 0.05004470
-1.73178000 -9.07495000 -0.27665300
-1.92241000 -9.16484000 0.05745000
-1.89543000 -9.15842000 -0.30107900
-1.81006000 -9.15800000 -0.64810200
-2.02253000 -9.21252000 -0.32022100
-1.93124000 -9.21242000 -0.69024200
-1.77297000 -9.21108000 -1.03233000
-2.03958000 -9.25846000 -0.72725400
-1.87050000 -9.25579000 -1.08725000
-1.63941000 -9.25434000 -1.41182000
-1.87050000 -9.25579000 -1.08725000
-1.95371000 -9.30383000 -1.13422000
-1.71384000 -9.30054000 -1.47526000
-1.63941000 -9.25434000 -1.41182000
-1.42482000 -9.30313000 -1.77849000
-1.36270000 -9.25458000 -1.70172000
-1.76883000 -9.37071000 -1.52244000
-1.46777000 -9.37969000 -1.83186000
-1.11423000 -9.39124000 -2.08431000
-1.48020000 -9.47842000 -1.84848000
-1.12101000 -9.48905000 -2.09807000
-0.71869500 -9.49782000 -2.27624000
-1.11955000 -9.58306000 -2.09656000
-0.71693100 -9.59184000 -2.27125000
-0.28757000 -9.60426000 -2.36807000
-0.71456100 -9.68163000 -2.26399000
-0.28649400 -9.69447000 -2.36086000
0.15126400 -9.70602000 -2.38212000
0.15153300 -9.61852000 -2.38754000
-0.28536800 -9.77923000 -2.35390000
0.15118300 -9.78872000 -2.37705000
0.15118300 -9.78872000 -2.37705000
0.58322500 -9.79918000 -2.31476000
0.15126400 -9.70602000 -2.38212000
0.15124400 -9.86603000 -2.37252000
0.58158000 -9.87505000 -2.31067000
0.99382000 -9.87864000 -2.16780000
0.58946700 -9.93854000 -2.34471000
1.00781000 -9.94295000 -2.19997000
1.38832000 -9.94140000 -1.97784000
1.04422000 -9.95558000 -2.28185000
1.43860000 -9.95519000 -2.05005000
1.78000000 -9.94847000 -1.75102000
1.49343000 -9.91480000 -2.12923000
1.84928000 -9.91543000 -1.81976000
2.14682000 -9.91208000 -1.45399000
1.92824000 -9.90703000 -1.89687000
2.23607000 -9.90343000 -1.51469000
2.46509000 -9.90209000 -1.08263000
2.30664000 -9.93526000 -1.56229000
2.54085000 -9.93250000 -1.11642000
2.68574000 -9.92821000 -0.63534200
2.61981000 -9.93694000 -1.15162000
2.76444000 -9.93684000 -0.65398300
2.82151000 -9.94295000 -0.13980500
2.81628000 -9.86979000 -0.66600800
2.87332000 -9.87460000 -0.14164300
2.83332000 -9.87146000 0.38217000
2.88723000 -9.78959000 -0.14257600
2.84620000 -9.78809000 0.38477400
2.71577000 -9.79151000 0.89666100
2.85872000 -9.70678000 0.38708900
2.72450000 -9.71054000 0.90073200
2.50417000 -9.71831000 1.38211000
2.74651000 -9.63532000 0.90913800
2.52640000 -9.64321000 1.39618000
2.22417000 -9.64661000 1.83738000
2.60158000 -9.60419000 1.43959000
2.29344000 -9.60684000 1.89640000
1.90918000 -9.60264000 2.29532000
2.35180000 -9.51781000 1.94623000
1.95547000 -9.50825000 2.35177000
1.49205000 -9.48543000 2.68166000
1.97160000 -9.38682000 2.37143000
1.49738000 -9.35903000 2.69007000
0.97316100 -9.33198000 2.91469000
1.49352000 -9.23282000 2.68090000
0.97088900 -9.20395000 2.90444000
0.41559300 -9.17947000 3.02824000
0.96725500 -9.07381000 2.88971000
0.41450000 -9.05075000 3.01505000
-0.15158700 -9.03807000 3.03519000
0.41407700 -8.92403000 3.00122000
-0.15083900 -8.91291000 3.02426000
-0.70749100 -8.90594000 2.93997000
-0.14788700 -8.79779000 2.98420000
-0.69818100 -8.78788000 2.89886000
-1.22129000 -8.78365000 2.71557000
-0.67431900 -8.72027000 2.79904000
-1.17821000 -8.71759000 2.61786000
-1.64223000 -8.71773000 2.35298000
-1.64223000 -8.71773000 2.35298000
-1.17821000 -8.71759000 2.61786000
-1.12563000 -8.67666000 2.49932000
-1.56749000 -8.67561000 2.24284000
-1.95776000 -8.67940000 1.91536000
-2.05744000 -8.72334000 2.01709000
-1.47783000 -8.62624000 2.11052000
-1.84118000 -8.62904000 1.79589000
-2.14233000 -8.63060000 1.42392000
-1.67396000 -8.52754000 1.62441000
-1.94527000 -8.52918000 1.28389000
-2.15361000 -8.52867000 0.90333300
-1.73174000 -8.30640000 1.13534000
-1.91534000 -8.30718000 0.79620300
-2.03654000 -8.30744000 0.43079800
-1.73477000 -8.01879000 0.71839300
-1.84918000 -8.01876000 0.38804200
-1.89602000 -8.02043000 0.04218130
-1.73447000 -7.73832000 0.36098400
-1.78130000 -7.73699000 0.03810880
-1.75986000 -7.73652000 -0.28673300
-1.71932000 -7.49739000 0.03481930
-1.70247000 -7.49218000 -0.27719100
-1.62105000 -7.48968000 -0.57900900
-1.68518000 -7.29235000 -0.27459200
-1.60717000 -7.28603000 -0.57209300
-1.47327000 -7.28796000 -0.85046500
-1.64606000 -7.12751000 -0.58493800
-1.50410000 -7.12902000 -0.86674600
-1.31397000 -7.13615000 -1.11944000
-1.59716000 -7.01799000 -0.92119500
-1.39280000 -7.02026000 -1.18741000
-1.14677000 -7.01991000 -1.41410000
-1.39280000 -7.02026000 -1.18741000
-1.52708000 -6.94689000 -1.30630000
-1.25627000 -6.94229000 -1.55479000
-1.14677000 -7.01991000 -1.41410000
-0.94576800 -6.94064000 -1.75002000
-0.86545400 -7.02194000 -1.59385000
-1.39843000 -6.86165000 -1.73753000
-1.05314000 -6.85847000 -1.95934000
-0.67997700 -6.85470000 -2.12215000
-1.18868000 -6.73810000 -2.21089000
-0.76691000 -6.72959000 -2.39229000
-0.32178200 -6.72560000 -2.49809000
-0.86143100 -6.56965000 -2.68410000
-0.36160100 -6.56236000 -2.79973000
0.14995900 -6.55555000 -2.82212000
0.13391700 -6.71843000 -2.51802000
-0.40480800 -6.37723000 -3.10754000
0.16532800 -6.36986000 -3.13184000
0.16532800 -6.36986000 -3.13184000
0.72843000 -6.36347000 -3.04851000
0.14995900 -6.55555000 -2.82212000
0.17936400 -6.13509000 -3.41364000
0.79513900 -6.13233000 -3.32369000
1.38108000 -6.13310000 -3.11959000
0.85572900 -5.87407000 -3.57767000
1.48663000 -5.87593000 -3.35952000
2.06686000 -5.88176000 -3.02821000
1.57441000 -5.58204000 -3.56128000
2.19226000 -5.58765000 -3.21154000
2.73283000 -5.59452000 -2.74995000
2.29211000 -5.26522000 -3.35789000
2.86016000 -5.27387000 -2.87585000
3.33758000 -5.29318000 -2.30411000
2.86016000 -5.27387000 -2.87585000
2.96054000 -4.93536000 -2.97438000
3.45329000 -4.95459000 -2.37931000
3.33758000 -5.29318000 -2.30411000
3.82895000 -4.97588000 -1.70161000
3.70064000 -5.31399000 -1.65087000
3.53972000 -4.60426000 -2.43283000
3.92746000 -4.62600000 -1.73801000
4.17697000 -4.64584000 -0.98204300
3.99447000 -4.26709000 -1.76175000
4.24952000 -4.28701000 -0.99303400
4.35944000 -4.30592000 -0.18850100
4.29462000 -3.92349000 -0.99860300
4.40699000 -3.94294000 -0.18619600
4.36373000 -3.96074000 0.63424100
4.42900000 -3.57738000 -0.18312300
4.38619000 -3.59613000 0.63998400
4.20057000 -3.61357000 1.44379000
4.39373000 -3.23000000 0.64355400
4.20734000 -3.24754000 1.44602000
3.86819000 -3.26253000 2.19734000
4.19169000 -2.88070000 1.44148000
3.85645000 -2.89687000 2.18883000
3.38775000 -2.91065000 2.86254000
3.85645000 -2.89687000 2.18883000
3.82653000 -2.53159000 2.17291000
3.36306000 -2.54538000 2.83912000
3.38775000 -2.91065000 2.86254000
2.78234000 -2.56023000 3.40904000
2.80319000 -2.92564000 3.44102000
3.31660000 -2.18294000 2.80205000
2.74700000 -2.19817000 3.36327000
2.08336000 -2.21356000 3.81208000
2.69896000 -1.83968000 3.30525000
2.05132000 -1.85439000 3.74535000
1.33257000 -1.86344000 4.05499000
2.01465000 -1.49573000 3.67338000
1.31334000 -1.50567000 3.97345000
0.57137100 -1.50934000 4.14320000
1.28638000 -1.15185000 3.87582000
0.56457300 -1.15773000 4.03738000
-0.17374700 -1.15652000 4.06585000
0.55127500 -0.81289300 3.91204000
-0.16210800 -0.81153400 3.94212000
-0.86885800 -0.80049900 3.83890000
-0.15292300 -0.47278800 3.80110000
-0.83233300 -0.46339700 3.70160000
-1.48078000 -0.45124700 3.47089000
-0.79538700 -0.13251800 3.55122000
-1.41515000 -0.12284300 3.33124000
-1.98581000 -0.10912100 3.00331000
-1.34683000 0.20127600 3.18289000
-1.89082000 0.21423100 2.87111000
-2.37069000 0.22882900 2.46804000
-1.79046000 0.53181700 2.72891000
