-0.66493600 -9.82328000 -0.30697900
-0.34928300 -9.83233000 -0.12348000
-1.35613000 -9.78753000 0.00588904
-1.43629000 -9.83628000 -0.03957130
-1.40539000 -9.79684000 -0.05760190
1.32962000 9.33247000 -1.72575000
1.61901000 9.66795000 -1.62866000
1.47759000 9.65651000 -1.73174000
2.73149000 -3.78841000 -0.31826700
2.83667000 -3.47886000 -0.36364400
2.75198000 -3.76407000 -0.17353500
1.75581000 -9.81788000 -0.76435800
1.80064000 -9.79809000 -0.64956300
0.57203900 -6.15073000 1.89603000
1.88380000 9.71714000 -1.40492000
1.98492000 9.72706000 -1.29516000
2.07779000 9.76589000 -1.20937000
2.08317000 9.69443000 -1.12987000
2.14801000 9.75595000 -1.08837000
-1.14272000 0.10948900 3.45959000
-1.21571000 -0.33254200 3.41893000
-1.52612000 0.43058200 3.27487000
-1.35599000 0.43685800 3.35805000
-1.43262000 0.21617800 3.33157000
-0.99024000 5.21117000 0.08196590
-0.97704500 4.99685000 0.37403300
-0.96309900 5.20264000 0.22723500
-1.01178000 5.02849000 0.22558700
0.68304900 -9.96298000 1.20769000
0.54505200 -9.97448000 1.30480000
0.94153400 -9.98368000 1.03267000
-2.98091000 -1.37619000 -1.83865000
-3.19467000 -1.33662000 -1.43747000
3.01177000 2.15255000 -1.64244000
3.09398000 1.97443000 -1.63092000
3.26516000 1.74818000 -1.46009000
3.20225000 1.87288000 -1.50572000
3.29769000 1.79507000 -1.35419000
-1.67041000 -9.83657000 1.31873000
-1.73995000 -9.79322000 1.28477000
-1.76692000 -9.84178000 1.21392000
-1.87719000 -9.81016000 1.10104000
-1.91677000 -9.83630000 0.99722200
1.27767000 -9.96672000 -1.37208000
1.28423000 -9.97312000 -1.19272000
-1.83475000 -9.86911000 -1.14559000
-1.97421000 -9.86370000 -0.90005500
-1.35476000 -9.78941000 0.04935580
-1.41781000 -9.83209000 0.10489700
-1.43929000 -9.85300000 0.00764646
2.94970000 0.90221500 2.24160000
2.82543000 0.91753500 2.39635000
2.87281000 0.73037800 2.36216000
2.73832000 0.91621100 2.49669000
2.60439000 0.89925300 2.63017000
2.75367000 0.72958900 2.48628000
2.19838000 9.73639000 -0.96962900
2.36472000 9.76448000 -0.60509700
2.29300000 9.72494000 -0.73738200
2.42181000 -4.63432000 -0.71871500
2.23853000 -5.12211000 -0.66331200
2.30161000 -4.67188000 -1.02465000
0.50988600 -9.80638000 0.89202400
0.69665800 -9.86562000 0.81416200
0.69453200 -9.93357000 0.84112400
-0.30493700 6.83523000 0.72009000
-0.22971400 6.83295000 0.76389700
-0.29928100 6.94365000 0.72229000
-0.43308800 6.88344000 0.62058400
0.78268200 2.47789000 3.10889000
0.20999200 2.04648000 3.38587000
0.27898100 2.26320000 3.29230000
-1.83667000 -7.54953000 -0.44565700
-1.80979000 -7.51762000 -0.58337300
-1.76163000 -7.79883000 -0.58904500
-1.81421000 -6.97167000 -0.88753100
-1.73486000 -6.85294000 -1.08294000
-1.76569000 -7.20373000 -0.90943400
1.28004000 4.18045000 0.83706200
1.20620000 4.32432000 0.75656300
1.27179000 4.32584000 0.64920300
1.41193000 -5.19327000 1.85951000
1.50093000 -4.67920000 2.02051000
1.36653000 -4.67329000 2.12281000
2.14310000 3.11362000 -1.86193000
2.50583000 2.97871000 -1.53912000
2.35324000 3.01622000 -1.71920000
0.04835720 5.91724000 -0.97134400
0.12466700 6.06327000 -0.93487800
0.13910800 5.88561000 -0.97861600
0.04390450 5.84482000 -0.98563600
2.41406000 0.13772600 2.82657000
2.70628000 -0.05873810 2.55306000
-1.38471000 -9.80151000 -0.34061100
-1.37210000 -9.78278000 -0.05684900
-1.29248000 -9.78729000 -0.20902400
-1.32039000 -9.78122000 0.00940957
0.49252900 -9.26514000 -1.71234000
-0.39225600 8.31743000 -0.16665800
-0.36818200 8.31927000 -0.27314300
-0.23223600 5.33250000 -0.89139800
-0.35973700 5.09576000 -0.94096100
-0.07554960 5.80910000 -0.77606600
-0.17246700 5.53667000 -0.83550200
0.13897600 6.25171000 -0.92144600
0.23726000 6.25193000 -0.91461200
-2.98328000 -3.47992000 -0.58423500
-2.91094000 -3.51586000 -0.86430700
-2.92282000 -3.64970000 -0.65431800
-3.06244000 -3.23803000 -0.51052600
-2.96731000 -3.63852000 -0.39654800
0.39417200 -0.78576400 3.61479000
0.20062900 -0.79937500 3.62854000
0.24273200 -0.99991400 3.57861000
-0.04784630 -0.85804700 3.61222000
-0.18282700 -0.82964600 3.61604000
-0.20176500 -0.97442400 3.57550000
-0.04905060 -9.31423000 -1.92459000
-0.06287830 -9.22694000 -1.88941000
0.04823780 -9.21212000 -1.85322000
-0.15260600 -9.30910000 -1.92186000
-0.15506300 -9.25426000 -1.89644000
-0.10550000 -9.25209000 -1.90258000
-0.25621400 8.19534000 0.17825000
-0.21676700 8.20710000 0.27648500
-0.14522800 8.17729000 0.32562300
-0.18634600 8.15150000 0.25558700
-0.32342000 6.86722000 -0.75430400
-0.36554900 6.83827000 -0.72789300
0.19828200 -3.70013000 -2.92550000
0.41301900 -3.81204000 -2.85899000
0.16535000 -4.18147000 -2.77811000
-0.02191260 -3.74390000 -2.92457000
1.53262000 -7.55385000 0.36851700
1.47673000 -7.94524000 0.32859400
2.21252000 -2.30157000 2.41156000
2.28122000 -1.71709000 2.58920000
-0.41848700 6.94048000 -0.67743200
-0.50137900 6.94253000 -0.59211600
-0.44409400 6.84759000 -0.65979600
-0.52569400 6.85887000 -0.56794900
0.23155100 5.41479000 0.92232600
0.16129400 5.51012000 0.92190000
0.11854000 5.41946000 0.93200800
0.27541400 -6.12954000 -2.06098000
0.72140500 -5.51349000 -2.12292000
0.56150200 -5.53705000 -2.17316000
0.53848900 -6.13719000 -1.98746000
-1.15612000 -7.86219000 1.27747000
-1.06798000 -7.17522000 1.52809000
-0.82833500 8.06345000 0.01661260
-0.88892800 8.11807000 -0.14607900
-0.82685500 8.06186000 -0.12787000
-0.79707000 8.08988000 -0.40267600
-0.81060500 8.06103000 -0.24030400
-0.87875600 8.12303000 -0.26378200
1.28401000 1.60507000 -3.29321000
1.09750000 1.76572000 -3.31990000
0.69116900 1.79866000 -3.42773000
-1.37638000 -9.07613000 1.06442000
-1.34686000 -8.96055000 1.04560000
-1.25150000 4.29218000 0.56491000
-1.35476000 4.25136000 0.42964600
-1.35725000 4.28592000 0.27418100
-1.40678000 4.26947000 0.13367100
-0.22475600 7.94462000 -0.00177079
-0.23929800 8.03184000 -0.04529390
-0.23033600 8.02714000 0.03872290
-0.20988600 7.98531000 0.10037300
-0.19044700 7.91773000 0.13408700
-0.20955200 7.91597000 0.07885930
0.56005500 5.45762000 -0.83867500
0.65335700 5.44883000 -0.77403600
0.63570200 5.35648000 -0.80491100
0.45159200 5.26869000 -0.94436900
3.52501000 1.13311000 0.86167900
3.59223000 0.53143500 0.73728000
3.55484000 0.48805700 0.90287900
3.50005000 0.19743400 1.12045000
-1.42584000 8.74420000 1.17306000
-1.23546000 8.81313000 1.54101000
-1.40531000 8.83465000 1.37375000
-1.87530000 9.32132000 -0.66635400
-1.94910000 9.78174000 -0.73073500
-1.89232000 9.40399000 -0.63895200
-1.23157000 4.09447000 -1.14020000
-1.17583000 4.10423000 -1.16692000
-0.77933600 4.64044000 -1.00493000
0.86065000 5.44612000 -0.53917400
0.73126000 5.35583000 -0.72410900
2.40844000 1.32528000 2.67212000
2.50614000 1.18572000 2.61468000
0.56698300 9.29419000 2.16053000
-0.40672200 -6.79628000 1.86420000
-0.55222100 -6.76227000 1.84641000
-0.74375400 -6.65013000 1.82891000
-0.77139300 -6.43076000 1.89756000
-0.91025700 -6.77654000 1.72181000
1.02267000 -9.87770000 0.35200100
1.00313000 -9.79095000 0.19972800
0.93105800 -9.80806000 0.44371900
0.83218100 -9.79813000 0.56755200
-3.00224000 2.83112000 -0.38914800
-3.02538000 2.81949000 -0.21011600
-2.95416000 2.93593000 -0.14318800
-2.93379000 2.94782000 -0.34999200
-1.48157000 -8.64627000 -1.07424000
-1.43598000 -8.66964000 -1.14850000
-1.30208000 -8.15502000 -1.28592000
2.62981000 0.70459800 2.54325000
-3.01366000 -2.08792000 -1.59996000
-2.84700000 -2.33341000 -1.77737000
-2.88616000 -2.46973000 -1.64088000
-3.10198000 -2.11599000 -1.41154000
-3.00884000 -2.37777000 -1.44449000
-3.16177000 -2.21068000 -1.19570000
1.05207000 -9.79672000 0.04249660
1.05658000 -9.82364000 0.16848300
1.02559000 -9.80238000 0.20398000
1.00166000 -9.83755000 0.35545400
-1.31116000 -3.60913000 2.66015000
-1.58178000 -4.49404000 2.14244000
-1.67477000 -4.29597000 2.16644000
-1.68972000 -4.53107000 2.04636000
-2.83034000 -0.36502100 -2.29314000
-2.80557000 -0.16369400 -2.34471000
-2.91332000 0.11030900 -2.21321000
-2.92727000 -0.20722400 -2.18120000
1.93011000 9.49097000 1.15545000
1.92321000 9.62175000 1.24056000
-1.29084000 -0.28547500 -3.47747000
-1.07824000 -0.04214490 -3.55901000
-1.30751000 -0.58367900 -3.42793000
-1.16561000 -0.48915500 -3.48504000
-1.09753000 -0.74246800 -3.47587000
0.46639600 -0.38504800 3.67088000
0.27366600 -0.65490000 3.65334000
0.43034400 -0.71248200 3.62894000
0.63842300 -0.64938100 3.59760000
0.79106100 -7.99584000 1.23488000
0.85828300 -8.08575000 1.15936000
0.74982500 -8.10745000 1.24024000
0.69690700 -8.39338000 1.23460000
1.86352000 -2.36180000 2.68580000
1.81531000 -2.20093000 2.77698000
1.74551000 -2.58435000 2.69061000
1.45617000 -2.80614000 2.79246000
1.51639000 -2.58897000 2.81670000
2.28662000 -4.23855000 1.26617000
2.19343000 -4.26454000 1.40626000
1.37351000 -5.91333000 -1.63360000
1.65660000 -5.38687000 -1.57330000
1.51423000 -5.96664000 -1.45868000
1.69038000 -5.70526000 -1.36884000
0.65141700 5.62654000 0.74513700
0.67327000 5.75286000 0.74360200
0.58296700 5.75087000 0.80505500
0.65311700 5.98114000 0.69972100
0.58870900 5.81060000 0.79466000
-1.04511000 -8.83212000 -1.44741000
-1.12531000 -8.68973000 -1.37074000
-1.18721000 -8.82121000 -1.34537000
-1.66791000 9.14090000 -0.57484800
3.28393000 0.00931248 1.65158000
-0.57257000 6.96281000 -0.49883700
-0.63681700 6.94312000 -0.37622800
-0.61876400 6.81941000 -0.43138100
-0.66220000 6.83393000 -0.33003700
-0.27543500 5.48152000 -0.80869800
-0.32277500 5.56155000 -0.75357600
-0.41224000 5.32664000 -0.79841600
-0.59275000 5.46839000 -0.55683500
-0.98914600 1.79863000 -3.42762000
-1.16087000 1.82806000 -3.36432000
-1.08202000 1.47466000 -3.47359000
-1.20617000 1.20911000 -3.48375000
1.71927000 8.69252000 1.00126000
1.75088000 8.67761000 0.81645800
1.46563000 8.57271000 0.70436500
1.68783000 8.62663000 0.55532000
1.56708000 8.56433000 0.47453000
1.90853000 -5.04469000 -1.44396000
2.08996000 -4.78673000 -1.35034000
1.99552000 -5.04478000 -1.30814000
2.21496000 -4.70904000 -1.17880000
0.85189300 -8.07633000 1.23369000
0.97206600 -8.20998000 1.10067000
0.87778800 -8.33345000 1.17892000
-1.46264000 8.69688000 0.99619200
-1.58659000 8.74567000 0.90183600
0.47739300 1.51972000 -3.60163000
0.10678600 1.61260000 -3.61319000
0.46835000 9.59875000 2.07960000
-0.70461100 4.19188000 -1.41693000
-0.60503100 4.26225000 -1.38565000
-0.44050900 4.34540000 -1.38610000
2.22891000 9.72942000 0.82914100
2.17998000 9.75033000 0.95996900
-1.51670000 1.72429000 -3.18275000
2.35242000 3.55141000 0.82874700
2.11591000 3.71001000 0.90398500
2.22531000 3.60564000 0.97643100
2.41292000 3.53162000 0.68445600
-0.42170000 6.07534000 -0.44954900
-1.73961000 9.52038000 -0.51245300
1.26624000 4.04852000 -1.16089000
1.16199000 4.08646000 -1.22349000
1.27303000 4.11534000 -1.04832000
1.00410000 4.56683000 -0.96386500
0.90821800 4.70589000 -0.95192700
-1.09093000 -9.32535000 1.52346000
-1.23027000 -9.31970000 1.43189000
-1.16235000 -9.37305000 1.53850000
-0.75597600 -9.28934000 1.62700000
-0.87354500 -9.34703000 1.64522000
-0.70826700 -9.34031000 1.69338000
1.06705000 1.56484000 -3.45566000
1.19073000 1.64754000 -3.39052000
1.33587000 1.86404000 -3.26653000
1.35332000 1.61282000 -3.33613000
0.84330200 -9.79912000 -0.20536300
0.48310300 -9.82808000 -0.70420200
0.75254900 -9.78526000 -0.72298900
0.67261800 -9.81570000 -0.57795600
-1.03774000 4.80604000 -0.32914800
1.86277000 -9.58164000 0.19608900
0.81912200 -9.81379000 -0.85230500
0.72877900 -9.83011000 -0.97345000
0.96612600 -9.80077000 -0.58973400
0.95201400 -9.78412000 -0.54785300
0.87137200 -9.78706000 -0.71075100
2.13322000 9.24658000 1.12446000
2.21486000 9.64352000 1.13447000
2.36633000 -4.21051000 1.12958000
-0.68982100 6.92765000 -0.22236400
-0.70626000 6.90685000 -0.13513500
1.59644000 -2.79458000 2.71655000
1.33415000 -2.93040000 2.80965000
0.98103700 -0.82046900 3.50066000
0.82346300 -0.75766700 3.55056000
1.02290000 0.48529200 -3.55901000
1.21931000 0.50989500 -3.49453000
-1.81069000 9.84693000 0.90093800
-1.87781000 9.93067000 0.79539900
-1.78422000 10.00000000 0.92084800
-1.84948000 9.98496000 0.82085200
-1.82196000 9.98523000 0.88579300
-0.57279800 7.49664000 -0.45857500
-0.47655500 7.64079000 -0.59277900
2.48855000 2.93431000 -1.75373000
2.48493000 3.17191000 -1.42748000
2.47191000 3.51866000 0.54152000
2.70663000 3.27932000 0.55604600
-1.62817000 -2.59112000 2.75990000
-1.48422000 -2.59031000 2.84028000
-1.42102000 -3.29710000 2.63014000
-1.59124000 -2.10248000 2.92161000
-3.65025000 1.37252000 0.28934400
-3.63981000 1.47044000 0.16274800
-3.66280000 1.31613000 0.16452900
-3.63169000 1.44308000 0.34732800
-1.41180000 -9.80269000 -0.17219300
2.52821000 9.65124000 0.28084300
2.48445000 9.44584000 0.27953200
0.99608300 5.74772000 0.27186700
-1.72207000 3.68924000 -1.61779000
-1.99783000 3.61019000 -1.42977000
-1.34203000 3.92695000 -1.47029000
-2.58874000 2.77712000 -1.64146000
-2.69864000 2.76205000 -1.47091000
0.69166800 6.06679000 0.34478300
0.65030200 6.08444000 0.39723000
0.63299500 -3.37691000 2.93272000
0.55910900 -3.91860000 2.77090000
0.24642300 -9.10322000 1.54539000
0.34149700 -9.01257000 1.47998000
0.38196800 -9.10301000 1.50055000
0.06821390 9.90011000 -2.26636000
2.14971000 -5.04693000 0.98662700
2.04688000 -5.02225000 1.21235000
1.88667000 -5.74418000 0.96126200
0.31118800 -9.20364000 1.57422000
0.11693700 -9.20345000 1.61653000
0.83942600 4.84080000 -0.91111400
-2.95561000 0.94213100 -2.14028000
-2.87584000 1.61143000 -2.06590000
-2.94015000 1.09381000 -2.13355000
-1.72325000 -8.56386000 0.37753700
-1.76999000 -8.39063000 0.17666800
-1.75400000 -8.53817000 0.24766900
-1.77588000 -8.55758000 0.12536300
0.90191900 7.76460000 0.55263900
0.83379900 -6.34803000 -1.78583000
1.09877000 -5.47134000 -1.94464000
0.68937000 -6.29014000 -1.87833000
-1.70013000 -8.73852000 -0.53150600
-1.68655000 -8.56108000 -0.50789700
-1.71563000 -8.65319000 -0.41251400
-1.57640000 -8.63935000 -0.82209400
-1.64228000 -8.53533000 -0.64246100
-1.64319000 -8.73906000 -0.69725600
-2.67540000 0.36879800 -2.60112000
-2.99548000 0.41665100 -2.21748000
0.89859000 -9.71069000 -1.83409000
0.88061800 5.00513000 0.70045500
0.85439700 5.23828000 0.61725400
0.79622800 5.32279000 0.64808400
0.90307100 5.45043000 0.47311900
0.85258700 5.45289000 0.54575200
0.86710700 5.33983000 0.55920800
2.80563000 3.14249000 0.08719440
2.89693000 3.02507000 -0.08818310
2.79917000 3.14472000 -0.19270100
-1.76753000 3.30864000 -2.01371000
-1.64471000 3.19852000 -2.22958000
-1.73321000 3.02913000 -2.32666000
1.54164000 9.72751000 1.69921000
1.46707000 9.66573000 1.71145000
1.87558000 9.75272000 1.41287000
1.69554000 9.73823000 1.58321000
-0.18961800 3.59809000 2.39529000
-0.35459100 3.67605000 2.28995000
-0.51737500 3.65390000 2.29243000
-0.71366100 -9.38060000 1.72312000
-0.83458200 -9.39021000 1.70781000
-0.63627100 -9.39122000 1.77243000
-0.52308700 -9.43731000 1.86173000
-1.84275000 8.76030000 -0.11278000
-1.70852000 8.65543000 -0.02780860
-1.78768000 8.71775000 0.05009330
0.33328400 -1.48464000 -3.48091000
0.52528800 -1.22890000 -3.51742000
0.62564400 -1.40820000 -3.45016000
0.74793400 -1.26403000 -3.46305000
0.94663600 -1.17532000 -3.43444000
0.89077300 -1.37191000 -3.39213000
-0.23515500 1.24686000 3.65958000
-0.12721000 1.02247000 3.69726000
-0.27206800 0.95590100 3.69798000
-0.17004300 0.95478900 3.69238000
-3.69871000 -0.17634000 -0.07688450
-3.70250000 -0.21438800 0.02316970
1.78048000 -3.96460000 2.14199000
2.05411000 -3.41252000 2.12587000
1.91543000 -3.37359000 2.27034000
2.20697000 -3.79141000 1.77027000
2.22841000 -3.44174000 1.91147000
2.09874000 -3.86729000 1.86285000
-1.73704000 -8.91650000 -0.53264100
-0.86970800 4.76892000 0.74730300
-0.66914800 5.62533000 0.53347100
-1.76068000 -9.11642000 -0.67918000
-1.81931000 -9.15202000 -0.54521500
-1.68664000 -8.87920000 -0.66016300
0.62792400 -9.09095000 -1.62629000
0.70629200 -9.04512000 -1.56716000
0.75390100 -9.13417000 -1.57628000
0.78143900 -9.23555000 -1.61608000
0.82831300 -9.26817000 -1.60572000
0.12983500 -8.39179000 1.51676000
1.69064000 4.06457000 0.43932800
2.06654000 3.82575000 0.54575600
-2.16994000 -9.76657000 0.26792300
-2.19386000 -9.77844000 0.05210460
-2.21670000 -9.73744000 -0.10863700
1.59650000 8.82500000 -1.77828000
1.47928000 8.82272000 -1.86503000
1.54537000 8.94558000 -1.79734000
-0.36906300 9.70747000 -2.18690000
-0.31982800 9.71430000 -2.23354000
1.31643000 3.66217000 1.82838000
1.43173000 3.72906000 1.61924000
1.50860000 3.60564000 1.76897000
-0.67036300 7.81242000 -0.29596000
-0.64407300 7.81234000 -0.36923500
1.72004000 8.54287000 1.22124000
1.42005000 8.55822000 1.50988000
2.28185000 3.71659000 -0.00083557
2.42918000 3.60003000 -0.03112690
2.33431000 3.66952000 -0.20662900
2.38409000 3.58921000 -0.54804300
2.19676000 3.75316000 -0.37238600
-2.86847000 0.55130300 2.31869000
-2.94282000 0.52746800 2.22851000
-2.81590000 0.49789800 2.38859000
-2.79359000 -0.19293200 2.38123000
0.95265200 -6.48803000 -1.67012000
-3.26624000 1.18498000 1.49254000
-3.12958000 1.32098000 1.71462000
0.70028300 -9.24408000 -1.67212000
0.69122000 -9.18784000 -1.63748000
0.50830900 -9.22392000 -1.74869000
2.03608000 8.52973000 0.70553200
2.11678000 8.53230000 0.50437500
2.26493000 8.67774000 0.75217200
0.99327400 -8.93616000 -1.30756000
1.04039000 -8.95127000 -1.27016000
1.01659000 -8.47216000 -1.23222000
1.09305000 -8.29294000 -1.15927000
1.11101000 -8.41411000 -1.12903000
0.78527700 5.69688000 -0.66565200
0.81456900 5.53055000 -0.59910700
0.75504100 5.53713000 -0.67648600
0.73240800 5.44624000 -0.70225200
0.82351800 5.40242000 -0.60585300
0.80411200 5.35242000 -0.64900700
0.95800000 -8.66363000 -1.29127000
0.91717500 -8.70098000 -1.32733000
0.76562000 -8.72397000 -1.44733000
0.97775800 -8.88875000 -1.31442000
0.99738900 -8.81995000 -1.26891000
-0.85858800 -3.18055000 2.89574000
-0.95829400 -2.65783000 3.02741000
-0.57391600 -4.32446000 2.59628000
1.04889000 -8.80392000 0.94120000
0.96608600 -8.70979000 1.01250000
1.04669000 -8.68361000 0.91821300
1.10473000 -8.77245000 0.86008700
1.18416000 -8.79663000 0.74816300
-2.05586000 -9.77424000 -1.03157000
-1.96858000 -9.77441000 -1.19977000
0.43735900 2.60876000 3.10487000
0.61717900 2.70120000 3.02268000
0.61749700 2.41822000 3.17674000
1.60323000 9.05961000 -1.46396000
-2.74161000 -1.97644000 1.92514000
-2.61640000 -1.88456000 2.12080000
-2.84795000 -0.89940600 2.10294000
-2.69834000 -1.26245000 2.21814000
-2.79252000 -1.43529000 2.05591000
1.83573000 3.98148000 -0.33337700
1.69795000 4.08779000 -0.26425700
1.75725000 4.00479000 -0.47401600
0.80011200 5.44385000 0.61214100
0.71796500 5.37440000 0.70980500
-2.66341000 3.31967000 -0.07310130
-2.56691000 3.42070000 0.00133188
-2.65686000 3.32279000 0.10179400
-2.51542000 3.46970000 -0.11974200
0.37527200 -7.59628000 -1.68511000
-0.74382900 9.29157000 -1.81783000
-0.25660100 9.14257000 -1.96845000
-0.39259100 9.23227000 -1.94927000
-2.19033000 -9.50074000 -0.61147200
-2.13073000 -9.52638000 -0.87157300
-2.14936000 -9.57317000 -0.88125500
-0.48725700 -1.46324000 3.43077000
-0.29539300 -1.43030000 3.45749000
-0.30413500 -1.63377000 3.41435000
-0.14307300 -2.07108000 3.30841000
-0.31064300 9.50658000 -2.24041000
-0.35740700 9.61656000 -2.20082000
-0.30523200 9.54558000 -2.24226000
2.02883000 -2.33557000 -2.58055000
1.97533000 -2.70563000 -2.48590000
1.96213000 -1.55231000 -2.87409000
1.98169000 -1.37034000 -2.89902000
0.31749000 7.65762000 0.84658200
0.32323300 7.74928000 0.86518300
0.22937400 7.75623000 0.87425300
0.00350669 7.93042000 0.33581400
0.10335000 7.94920000 0.37461000
0.60351100 -9.75862000 -2.04009000
0.46050400 -9.80660000 -2.07096000
-2.75676000 -2.36658000 1.75304000
-2.61059000 -2.87888000 1.69555000
-0.61894300 7.76066000 0.35289800
-0.65876200 7.74386000 0.23824900
-2.22731000 2.63230000 2.25586000
-2.10620000 2.61044000 2.37522000
-2.34527000 2.25981000 2.40250000
-2.36690000 2.31307000 2.35089000
-2.30225000 -4.64346000 -1.43196000
-2.36638000 -4.31515000 -1.51010000
-2.37697000 -4.03201000 -1.64624000
-2.14090000 -4.55393000 -1.70855000
0.37454500 -9.92160000 -1.27001000
0.39959400 -9.95418000 -1.31680000
0.47234700 -9.95503000 -1.24481000
0.41713000 -9.91292000 -1.24080000
0.33544600 -9.83269000 -1.24350000
0.13293800 6.92495000 0.85242900
0.02776900 6.95675000 0.84359700
0.02492290 6.85502000 0.84235100
-0.04542760 6.91281000 0.82752200
-0.21356800 -9.84731000 1.93588000
-0.26715900 -9.85649000 1.89856000
-0.21331700 -9.86252000 1.91121000
-0.24829900 -6.82499000 1.87247000
3.07023000 -2.65522000 -0.43053000
-0.66734400 8.04153000 0.50081900
-0.60311800 8.08432000 0.66699100
-0.71997600 8.09081000 0.50624600
-0.24406600 -5.88030000 2.15278000
0.00784820 -5.27835000 2.37280000
-0.01522270 -5.65841000 2.22901000
-3.07974000 -1.38161000 -1.65975000
-3.02114000 -1.87146000 -1.54553000
-2.89351000 -2.11117000 -1.68204000
-3.56529000 0.91015500 0.67319600
-3.59756000 0.90081100 0.49683500
-3.62123000 0.42662700 0.49590200
2.42130000 9.17784000 0.33433900
-1.60429000 0.37581700 3.30064000
-1.68915000 0.42261100 3.25644000
-1.91292000 0.61643800 3.12267000
-2.02640000 0.72161900 3.06316000
-2.02064000 0.61840700 3.06071000
1.73352000 -9.33600000 -0.31482800
1.71962000 -9.34142000 -0.38622700
1.70319000 -9.32385000 -0.14120300
1.73726000 -9.34411000 0.04867300
1.74076000 -9.34073000 -0.21565300
-2.10638000 -5.71718000 -1.04787000
-2.06189000 -6.12266000 -0.87815900
-2.28857000 -5.18428000 -1.06878000
-2.15881000 -5.41043000 -1.15213000
-2.23888000 -5.35553000 -1.03039000
-1.24505000 8.78215000 -1.68022000
-1.40201000 8.80163000 -1.53044000
-1.14885000 8.81757000 -1.79864000
-1.03032000 8.78941000 -1.87083000
-1.14196000 8.77293000 -1.77055000
-1.73283000 -4.04571000 2.16653000
-1.54417000 -4.07219000 2.29099000
2.44018000 9.18919000 -0.27960400
2.37642000 9.11625000 -0.58287800
-0.27989800 -9.57660000 -2.10545000
-0.07430410 -9.45473000 -1.97810000
-0.22981700 -9.43292000 -1.95473000
-0.09174900 -9.26310000 -1.83992000
-0.19525700 -9.29004000 -1.85456000
-0.10316300 -9.34046000 -1.88282000
0.43737900 -9.81595000 -1.17891000
0.50025900 -9.80502000 -1.12064000
0.67683600 -9.79614000 -0.98174800
0.78394700 -9.78253000 -0.81777500
0.56500000 -9.78716000 -1.04125000
1.86579000 -4.01108000 1.95808000
2.03211000 -3.64449000 1.95589000
1.99542000 -4.03222000 1.81055000
2.18674000 3.16149000 1.81440000
2.35285000 3.03667000 1.75196000
2.14687000 2.98334000 2.06460000
0.28642200 6.85869000 0.84322200
-1.93633000 -0.69643000 -3.05030000
0.93895500 -0.60539200 3.48295000
1.18908000 -0.53703600 3.41049000
1.16042000 -0.91076200 3.35854000
-1.60558000 3.63066000 1.77954000
-1.14704000 3.73596000 1.93496000
-1.30258000 3.67189000 1.93860000
0.26438300 0.58414500 -3.70315000
0.32341300 0.70383600 -3.69396000
0.31218100 0.24519000 -3.68655000
0.51531000 0.37508700 -3.66908000
0.45113700 0.18077100 -3.66573000
-0.16058300 -5.62878000 2.23920000
-0.28942100 -5.23651000 2.38045000
-0.31863000 -5.61434000 2.23172000
-0.46098300 -5.61001000 2.21408000
-0.57565900 8.03438000 0.62204800
-0.46831900 8.02778000 0.73106100
-0.45015600 8.07077000 0.80413400
-0.35821900 8.01961000 0.81481200
-0.34175900 8.06770000 0.88087500
1.78058000 -9.39577000 -0.30112400
1.68516000 -9.44116000 -0.90465500
1.75597000 -9.42962000 -0.68327100
-0.20682800 -4.93214000 2.48147000
-0.11490800 -3.20066000 2.99613000
0.45456500 -2.99136000 3.01154000
0.52752900 -3.52207000 2.84784000
0.35867100 -3.50097000 2.88302000
1.54385000 8.54152000 1.38257000
-1.68339000 0.37902000 3.24435000
-1.75612000 0.28975500 3.18970000
-1.86304000 0.21728400 3.16509000
-1.77587000 0.20840900 3.20466000
-3.03037000 -0.43012400 2.03667000
-3.23840000 -0.35597600 1.70912000
-3.12989000 -0.45540500 1.88590000
-3.28543000 -0.56599600 1.59973000
-3.29280000 -0.36345500 1.62293000
-3.35777000 -0.54135600 1.45238000
0.26251200 5.51764000 0.90882900
0.23578400 5.59827000 0.91448300
-1.04877000 4.08488000 1.14870000
-1.25692000 4.08205000 0.93062500
-0.34222300 -4.59489000 -2.65043000
-0.45397000 -5.04018000 -2.47826000
-0.29939200 -4.93987000 -2.53036000
-1.85783000 0.32940500 3.15165000
-1.76270000 0.33859300 3.18765000
-1.76571000 0.38190100 3.19372000
-1.85388000 0.38446800 3.15242000
1.77619000 9.08151000 -1.59598000
1.74845000 9.18147000 -1.63464000
1.87571000 9.12533000 -1.49663000
1.46327000 9.26346000 -1.86905000
1.61391000 9.16564000 -1.74851000
1.56262000 9.04858000 -1.78007000
2.10057000 8.69119000 -0.18529700
2.09085000 8.72565000 -0.49337800
2.10491000 8.70356000 -0.32257700
2.13895000 8.73708000 -0.30917200
0.77736200 -7.23030000 -1.63995000
0.59692500 -7.25366000 -1.73177000
0.80011900 -7.09367000 -1.67359000
-0.35019800 5.80743000 0.58004300
-0.41022400 5.55630000 0.64433000
-0.37760800 5.33190000 0.76662500
0.40210500 1.13768000 -3.60514000
0.38962400 0.69219700 -3.62861000
0.17191500 1.24489000 -3.61375000
0.98807600 7.51833000 -0.37968400
0.94322500 7.52176000 -0.46874600
0.96625000 7.59879000 -0.43923100
0.44521000 1.02396000 3.67945000
0.22587400 1.06291000 3.69105000
0.02025450 1.10847000 3.69174000
0.46420200 2.61826000 -3.14363000
0.28181100 2.52417000 -3.21271000
-1.49760000 -8.07631000 -1.07598000
-1.57238000 -8.08208000 -0.96481300
-1.53373000 -8.21562000 -0.99565500
-1.48379000 -8.11594000 -1.09877000
-1.48415000 -8.24552000 -1.08909000
-1.99566000 -4.43776000 -1.91821000
-2.00562000 -4.64148000 -1.82426000
-1.90842000 -4.13813000 -2.11506000
-1.70560000 -4.13646000 -2.27618000
-1.84857000 -4.33889000 -2.09697000
2.55772000 9.77775000 0.30452200
2.57914000 9.78138000 0.03262920
2.54229000 9.80492000 0.30171000
2.51198000 9.78642000 0.52152900
2.53384000 9.79634000 0.39530900
2.47317000 9.80793000 0.61714000
1.77133000 -9.36145000 -0.19621000
1.78760000 -9.39767000 0.02493300
1.78937000 -9.39558000 -0.16236900
1.11363000 -1.62567000 3.23593000
1.21207000 -1.15166000 3.28603000
1.07367000 -1.78309000 3.20858000
-1.15719000 4.35642000 0.54969400
-1.14072000 4.27407000 0.70800100
-1.20952000 4.28681000 0.54676200
-1.02185000 4.34942000 0.80152500
1.93153000 9.84065000 -1.61698000
1.91664000 9.81786000 -1.65399000
1.72386000 9.85296000 -1.80532000
-1.75676000 -9.24886000 0.78955800
-2.01941000 -9.45742000 0.73834900
-1.92731000 -9.41277000 0.82016900
-3.03296000 -0.37533300 2.02691000
-3.13747000 -0.30021800 1.88115000
-3.21290000 -0.04308830 1.80224000
-3.25754000 0.05298910 1.70940000
-3.25453000 -0.03976810 1.70820000
1.98584000 3.34151000 1.68689000
2.10471000 3.36523000 1.50516000
2.18722000 3.42867000 1.27038000
2.34930000 3.30895000 1.21975000
-0.50174100 5.34924000 -0.72461300
-1.88537000 -3.76504000 -2.22411000
-1.89040000 -4.11704000 -2.06450000
-2.08468000 -3.04070000 -2.30766000
-2.24329000 -3.05383000 -2.15662000
-1.63849000 -9.96436000 0.99842800
-1.42806000 -9.96782000 1.06298000
-0.64730800 -6.32576000 1.96914000
-0.75549800 -6.02440000 2.02212000
-0.60951900 -6.54733000 1.90735000
-0.51773700 9.24387000 -2.13239000
-0.52476400 9.14291000 -2.11581000
-1.34976000 -4.24192000 -2.46283000
-1.19831000 -4.20993000 -2.54523000
-1.19282000 -4.45072000 -2.47789000
-1.66307000 -4.55465000 -2.16710000
-1.54941000 -4.33136000 -2.32082000
0.74184700 -9.57285000 1.80148000
0.02623050 9.84974000 2.33289000
0.43280600 9.80311000 2.32600000
0.22761500 9.83120000 2.33740000
0.24784500 9.80361000 2.33852000
-2.20821000 -9.49555000 -0.43106800
-2.26947000 -9.51497000 -0.30400900
-2.29258000 -9.54579000 -0.16468900
-1.51223000 8.86018000 0.64736900
-1.40583000 8.82648000 0.80508200
-1.56279000 8.83582000 0.41872000
-1.76491000 -9.28126000 0.69766500
-1.88336000 -9.42262000 0.73193100
-0.20929800 7.96145000 -0.14556900
-0.22497200 7.96792000 -0.08148980
-0.20381600 7.87987000 -0.13923600
-0.16316900 7.98867000 -0.25260700
-0.20508100 8.00375000 -0.18069400
-0.18170300 7.91058000 -0.20235200
-2.26823000 -1.29883000 2.73224000
-2.31945000 -1.92060000 2.51816000
-2.24270000 -2.11428000 2.51909000
0.58997500 5.97933000 0.74484800
0.58903100 6.25450000 0.74363500
-1.21723000 4.00227000 -1.23552000
-1.50491000 3.86862000 -1.27605000
-1.41686000 3.84173000 -1.44253000
-1.66831000 3.59947000 -1.69251000
-1.83826000 3.55367000 -1.59273000
-3.14215000 -0.88199300 1.76873000
-3.19516000 -0.45726900 1.79184000
2.29757000 -0.33356800 -2.87840000
2.66394000 -0.78239000 -2.47280000
2.63977000 -0.60063100 -2.52710000
-1.35980000 3.22695000 2.34271000
-1.57220000 3.06359000 2.35918000
-1.40662000 9.38302000 1.40164000
-1.53150000 9.36534000 1.22003000
-1.18612000 9.20153000 1.61789000
-1.18768000 9.34284000 1.64036000
-1.25855000 9.28195000 1.55733000
-3.47166000 1.52783000 -0.74132600
1.11184000 4.07357000 -1.20251000
1.08263000 4.00728000 -1.32685000
1.15632000 3.91685000 -1.42679000
1.51370000 -9.82347000 -0.98590600
-1.83598000 -9.25382000 -0.81062300
-1.98411000 -9.29638000 -0.43177300
-1.94724000 -9.21666000 -0.36737800
-1.88378000 -9.14898000 -0.50154500
1.40747000 -1.16133000 -3.26917000
2.06004000 -0.99035100 -2.94553000
-0.35490000 5.15641000 0.86057200
-0.39646800 4.86702000 0.98108100
-0.46278600 4.52940000 1.12784000
-3.21160000 0.59578400 -1.76303000
-3.25006000 0.41150300 -1.69655000
-0.56066900 8.97585000 -2.11933000
-0.78990400 9.17450000 1.90322000
-0.83961600 9.27320000 1.88594000
-1.05845000 9.26013000 1.73632000
1.08294000 3.10936000 -2.70570000
1.25627000 3.17207000 -2.57374000
1.44015000 3.05151000 -2.58139000
0.30676800 -3.31002000 3.00484000
0.00330102 -3.48668000 2.96751000
-0.12440800 -3.30573000 3.02545000
-0.15089300 -3.53515000 2.95348000
-2.80917000 3.10632000 0.36758700
2.35530000 9.61984000 -0.26011800
0.27831700 9.07036000 2.16316000
0.41248700 9.17829000 2.16213000
0.27190200 9.18860000 2.17234000
-0.51340900 -9.60602000 -2.10865000
-0.67135800 -9.60272000 -2.07541000
-0.62505800 -9.64456000 -2.10257000
1.54894000 -9.94538000 0.81086300
1.45084000 -9.95361000 0.98023700
1.51341000 -9.96212000 0.80772900
1.32911000 -9.95761000 1.14194000
1.20039000 -9.96789000 1.26293000
1.41703000 -9.97496000 0.96751100
-3.21890000 1.44040000 1.63181000
-3.27614000 1.34499000 1.56009000
-2.89958000 1.79348000 1.99792000
-3.10464000 1.83257000 1.63413000
-3.01156000 1.72368000 1.85374000
-1.30225000 -3.25866000 -2.75535000
-1.73060000 1.12143000 -3.26454000
-1.71661000 1.44098000 -3.21921000
-1.56099000 1.36586000 -3.30962000
-1.62768000 0.85844100 -3.33557000
0.15470700 8.09905000 -0.49128000
-3.66007000 0.29557500 -0.63821100
-3.66119000 0.40398700 -0.64633400
-3.63383000 0.31834400 -0.80712400
-3.71049000 0.22753800 -0.34684300
-3.67351000 0.12112500 -0.56267600
-3.68188000 -0.05731230 -0.40718800
2.73408000 2.44187000 1.84228000
2.57677000 2.46388000 2.01657000
2.60860000 2.37290000 2.05760000
2.69713000 2.64156000 1.71894000
-0.72792000 9.29514000 1.95369000
-0.62045800 9.08477000 1.98532000
2.26271000 9.67760000 -0.74816100
2.32623000 9.70927000 -0.60890100
2.36423000 9.70753000 -0.45531200
1.90323000 -9.50022000 -0.28830300
1.89768000 -9.48800000 -0.07742100
1.93294000 -9.52291000 -0.01915080
1.88988000 -9.51291000 0.30592800
-1.56287000 -9.41028000 -1.35895000
-1.48434000 -9.26620000 -1.27389000
-0.32933400 -9.32930000 -1.86705000
-0.47884000 -9.32675000 -1.84407000
-0.48097500 -9.39488000 -1.89148000
-1.17812000 -9.82625000 0.67021500
-1.29678000 -9.82046000 0.46664900
-1.20417000 -9.78472000 0.55458300
-1.33091000 -9.78772000 0.30281500
1.29376000 1.23901000 -3.36672000
0.90067500 5.52893000 0.13158500
1.07288000 5.03608000 0.11612300
1.12521000 4.94866000 -0.00946954
1.26475000 4.65004000 -0.06123690
-0.61369900 5.99737000 0.52896900
-0.64220700 6.43434000 0.48493300
-0.66845100 6.27206000 0.39527600
-0.60575500 6.29537000 0.49987300
-1.47251000 -0.58565800 3.33882000
-1.65519000 -0.48949300 3.26131000
-1.50324000 -0.66102600 3.32758000
-1.30169000 -1.16002000 3.33367000
2.40435000 -0.85880100 -2.62668000
2.22787000 -0.82756300 -2.77952000
2.33953000 -1.54660000 -2.49352000
1.02062000 6.76575000 -0.12814400
1.02507000 6.85831000 -0.05996910
1.02538000 6.76798000 -0.01737720
0.96739200 6.81762000 -0.34557400
0.99854800 6.81810000 -0.24662500
0.77079100 -2.70616000 3.10458000
0.71683300 -2.31370000 3.22083000
0.54148900 -2.29262000 3.26490000
0.59759200 -2.72078000 3.14587000
1.65450000 -9.69723000 0.95983400
1.62255000 -9.56273000 1.03165000
0.07795320 7.98439000 -0.43684800
-0.04688130 7.95145000 -0.36406300
-3.34739000 0.22453400 -1.59675000
-3.58537000 0.05074730 -0.90177300
-3.60881000 0.18622900 -0.88297000
-3.55126000 0.21324700 -1.10710000
1.02247000 6.67936000 0.11134700
1.01909000 6.89005000 0.08637390
-1.53555000 9.15850000 -1.37353000
-1.63758000 9.14317000 -1.21674000
-1.33072000 9.37638000 -1.65566000
-1.41546000 9.12654000 -1.52118000
1.00862000 5.35135000 0.28054800
0.96073300 5.62801000 0.35053000
-0.45798500 6.42477000 0.69304800
-0.36449500 6.52756000 0.75997300
-0.56897600 -1.09249000 3.53099000
-0.44782500 -0.79103200 3.59725000
-0.53599100 -0.70262400 3.61125000
-0.55594900 -0.81970800 3.58465000
1.30651000 4.30813000 0.72209600
1.18977000 4.55952000 0.65182500
1.22758000 4.30050000 0.84422900
2.40924000 9.13283000 -0.44181400
2.52358000 9.63102000 -0.36999000
-2.69366000 -0.79640400 -2.37772000
-2.53393000 -1.69014000 -2.33270000
-2.68160000 -1.72540000 -2.14641000
-2.55800000 -2.20193000 -2.14960000
1.55614000 -6.82431000 0.87978200
1.59398000 -6.60640000 0.95033500
1.47002000 -7.31573000 0.71022600
1.54403000 -7.34166000 0.50068700
-0.25821300 -9.65061000 -2.15027000
-0.07105310 -9.59460000 -2.11944000
0.79894500 2.68218000 3.06293000
0.62190900 2.69559000 3.09420000
0.58132500 2.55781000 3.17154000
0.59683700 8.40445000 0.77706500
1.67296000 8.74837000 -1.31064000
-0.95288700 3.85167000 -1.77804000
-0.92797800 3.66744000 -2.09013000
-1.15976000 3.61274000 -2.05274000
1.65158000 -9.34908000 0.12105300
1.62713000 -9.35239000 0.27859500
1.43204000 -9.24948000 0.62242000
-0.10176000 6.43262000 0.87950700
-0.06123810 6.56328000 0.88440300
0.35143900 -2.17190000 3.26535000
0.41612300 -1.68267000 3.38517000
0.51269400 -1.96154000 3.29905000
0.41398600 -1.48778000 3.42708000
2.63629000 -3.28122000 -1.41931000
2.71336000 -2.91340000 -1.50746000
2.81765000 -2.88554000 -1.31717000
0.94519800 3.02944000 2.70235000
0.71016800 3.18741000 2.64493000
-0.05497110 4.01115000 -1.84341000
-0.00158597 3.82370000 -2.14743000
-0.19174200 3.49564000 -2.56994000
-0.21529200 3.64640000 -2.39628000
-0.00685396 3.67839000 -2.35623000
-2.18891000 0.08349410 2.88691000
-2.27071000 0.42162400 2.81034000
-1.89393000 -5.04336000 1.54871000
-2.00212000 -5.03477000 1.41940000
-1.74593000 -5.10334000 1.67977000
-2.59689000 1.81208000 -2.33310000
-2.42163000 1.72585000 -2.54538000
-0.74037500 8.78358000 -1.68388000
-0.85628900 8.79815000 -1.63461000
-0.88556200 8.78026000 -1.58813000
-0.73281500 8.75387000 -1.62833000
-0.91768400 8.75315000 -1.44969000
2.38120000 9.63721000 -0.88709600
2.36962000 9.40414000 -0.78406800
2.40152000 9.80149000 -0.92706500
2.40430000 9.81622000 -0.88548300
-0.48070000 -0.92893100 3.55809000
-0.64695900 -0.92438900 3.53189000
-1.02207000 -0.89423800 3.45698000
-1.25178000 -0.74434600 3.41393000
-1.11365000 -0.89037800 3.43468000
-0.79586600 8.63093000 1.61379000
-0.79704500 8.77397000 1.83354000
-1.11653000 3.65404000 -2.12462000
-1.05505000 3.53108000 -2.31104000
-1.30980000 3.48662000 -2.23470000
-1.49916000 3.50845000 -2.08085000
1.32132000 -9.78615000 1.23951000
-0.09069610 9.90490000 -2.24768000
-0.93703600 -0.75512900 3.51204000
-1.12236000 -0.75134700 3.45769000
-0.63965400 -0.85636400 3.56123000
-3.49198000 1.35085000 1.00887000
-3.51392000 1.05329000 1.06089000
-3.37383000 1.50301000 1.26831000
-3.34169000 1.65072000 1.24082000
-3.42839000 1.59778000 1.04555000
-0.14220400 7.91305000 -0.26856400
-0.11494600 7.94760000 -0.30385900
-0.45872900 -8.54667000 -1.65958000
-0.56026100 -8.84626000 -1.66210000
-0.51017400 -8.73858000 -1.65900000
-1.54011000 3.72251000 1.54159000
-1.52152000 3.89135000 1.16212000
0.41016700 9.07832000 2.15619000
0.58442500 9.03609000 2.13480000
0.56005100 9.16156000 2.14132000
0.47851300 9.01650000 2.15094000
-1.51545000 4.20668000 -0.02540980
-1.43138000 4.26998000 -0.04373510
-1.45131000 4.25413000 -0.15118600
-1.51061000 4.19840000 0.12853700
-1.33009000 -4.25814000 2.41358000
-1.32843000 -4.42052000 2.33438000
-1.11839000 -4.41987000 2.44342000
-1.55850000 -4.16979000 2.31387000
-1.49002000 -4.38653000 2.25252000
-2.20996000 3.24150000 1.55909000
-2.03845000 3.35676000 1.61890000
-1.82858000 3.45372000 1.70776000
-3.05810000 -3.10494000 0.03988300
-2.98350000 -3.43102000 0.14715100
-2.98442000 -3.45337000 -0.05790550
-2.23905000 3.75852000 -0.31321800
-2.07830000 3.86650000 -0.30970500
-2.26498000 3.75186000 -0.15679500
-1.69414000 3.40289000 2.00909000
-1.70084000 3.19981000 2.23142000
-1.49918000 3.57360000 1.94133000
-1.53443000 3.63204000 1.82697000
-1.73459000 3.40838000 1.96174000
3.34683000 -0.95664200 -1.32106000
3.40639000 -0.84856000 -1.16991000
3.40897000 -0.93770100 -1.16868000
3.46682000 -0.89047900 -0.98612700
3.48383000 -0.99693900 -0.85015600
-0.04292830 5.55672000 0.79699500
-0.15091400 5.49973000 0.79044100
0.05651590 5.54523000 0.80664200
-2.17709000 3.80758000 -0.16020200
-2.24565000 3.76714000 0.12764900
-2.07189000 3.88437000 0.17271300
-2.15677000 3.82703000 -0.01483200
-2.26119000 -2.57289000 2.27195000
-2.18625000 -2.26913000 2.43984000
-2.13158000 -2.58032000 2.39099000
-2.29892000 -2.94364000 2.07152000
-2.10201000 -3.23007000 2.16285000
3.53280000 -1.08595000 -0.50340700
3.39058000 -1.25533000 -0.96798700
3.44140000 -1.16844000 -0.86677000
-0.99949400 4.61848000 -0.68203300
-1.22621000 4.28322000 -0.69317700
-0.73593900 5.09311000 -0.63918100
-0.88317500 4.80395000 -0.67435000
1.11148000 -3.26402000 -2.77506000
0.97762900 -3.26393000 -2.82806000
0.30019700 4.11779000 -1.64002000
0.56008500 4.09686000 -1.59631000
0.68370400 4.06342000 -1.59295000
-1.40835000 -7.96417000 0.93199600
-1.55296000 -7.92239000 0.72047100
-1.49078000 -7.98208000 0.80905400
-0.62289100 -9.05446000 -1.69551000
-0.66113300 -9.16116000 -1.72287000
0.12741000 9.22354000 2.17478000
-0.04371920 9.16044000 2.15040000
0.12883000 9.08049000 2.16076000
-2.99465000 -3.35303000 -0.32652700
3.43243000 0.96101700 1.36059000
3.43456000 1.05695000 1.33777000
3.37737000 1.20005000 1.44796000
3.58743000 0.98550200 0.90043200
3.53007000 1.09002000 1.08243000
3.51926000 0.83717100 1.18008000
1.46218000 -9.65304000 1.25255000
1.45943000 -9.57518000 1.26227000
1.41033000 -9.50421000 1.24641000
1.23861000 -9.49808000 1.41915000
1.39944000 -9.53167000 1.30614000
0.37904400 4.10961000 1.51643000
0.50523300 4.03686000 1.57820000
0.31696900 4.03075000 1.63161000
-0.11881500 4.10526000 1.55412000
0.06351430 4.08935000 1.58018000
-1.95133000 -9.92733000 -1.07505000
-1.81353000 -9.94959000 -1.21403000
-1.60685000 -4.76031000 2.02370000
-1.80043000 -4.52700000 1.95471000
-1.93010000 -4.66066000 1.77857000
-1.73148000 -4.69003000 1.95163000
-3.56190000 1.07118000 0.85684700
-3.58433000 0.86417900 0.84376100
-3.48162000 0.69563800 1.23230000
-3.56384000 0.71662500 0.98001300
-3.47635000 0.58344900 1.24158000
0.56649900 8.85454000 -2.23256000
0.58652700 8.97573000 -2.21632000
0.45506600 9.50054000 -2.29102000
-0.69267300 5.53844000 0.28869800
-0.74525700 5.55617000 -0.00341624
-0.74155300 5.55006000 -0.11025100
-2.57358000 2.26212000 -2.19994000
-2.41836000 2.28561000 -2.34043000
-2.52204000 2.18343000 -2.29357000
-2.36973000 2.16023000 -2.45970000
-1.43229000 4.21176000 -0.17900600
-1.46853000 4.18329000 -0.06887130
-1.50670000 4.15352000 -0.18036400
-1.51084000 4.12411000 -0.40075600
0.84035300 7.05521000 -0.59535900
0.91762100 7.18355000 -0.55213400
0.89748400 7.06567000 -0.52354600
0.81050800 6.98221000 -0.60812000
0.89296600 6.96252000 -0.49924600
0.87262100 6.85387000 -0.52211700
-1.41715000 9.96324000 1.50395000
-1.27166000 9.94220000 1.62075000
-1.38986000 9.95014000 1.48751000
-0.98047000 9.92107000 1.88055000
1.41562000 -8.12133000 -0.59983600
1.47547000 -8.07798000 -0.38986300
-3.06437000 1.13049000 1.87500000
0.35334400 -9.95327000 1.07248000
0.18313400 -9.95983000 1.15619000
-0.04858500 -9.96603000 1.21354000
-0.37396100 -9.97170000 1.23266000
-0.19865200 -9.95793000 1.20606000
-1.40439000 8.66545000 -1.21790000
0.63811000 5.42974000 0.75829000
0.56802100 5.39053000 0.80744700
0.62083900 5.31259000 0.79648100
0.55013000 5.63145000 0.81036700
0.43951000 2.72614000 -3.15920000
0.48762800 2.62614000 -3.20903000
0.68613700 2.72034000 -3.11149000
3.55770000 -1.08409000 -0.19885000
3.55293000 -1.00161000 -0.45060000
3.60288000 -0.92641900 -0.07082300
3.62716000 -0.74677600 -0.18130000
3.63122000 -0.75929100 0.06712500
1.73714000 -0.97135600 -3.15131000
1.90862000 -0.97625200 -3.04995000
1.87919000 -0.67731600 -3.10912000
1.86997000 -0.89953900 -3.08630000
0.83944800 -9.19830000 1.30210000
0.81768800 -9.10686000 1.26652000
0.92277300 -9.10285000 1.18200000
1.42290000 -4.25928000 2.20613000
0.72357100 6.19574000 -0.67784100
0.75941700 6.07666000 -0.63282000
0.67529900 6.11467000 -0.71675900
0.63494600 6.23400000 -0.75724700
0.53041000 -9.95197000 0.97298200
0.47806500 -9.97253000 1.06997000
0.43330800 -9.95122000 1.04482000
-2.02934000 -9.38553000 0.44916800
-2.05673000 -9.35581000 0.27739400
-2.06953000 -9.38377000 0.33323000
-2.10770000 -9.38119000 0.10077400
-2.11992000 -9.38261000 0.02664060
2.14825000 3.60136000 -1.12485000
2.17801000 3.65228000 -0.91429900
2.18116000 3.70974000 -0.70408300
2.27539000 3.67635000 -0.52866500
-1.22536000 8.75593000 -1.66492000
-1.38704000 8.77370000 -1.50693000
-1.52280000 8.78953000 -1.35453000
0.41653700 8.76130000 2.13319000
0.21190400 8.76752000 2.14093000
0.00105181 8.75487000 2.10338000
0.19797000 8.58848000 1.88644000
-3.06532000 1.62677000 1.69565000
-3.07421000 1.77215000 1.59487000
-2.96071000 1.76927000 1.79505000
-2.95693000 2.03578000 1.63217000
0.35587500 4.02110000 -1.68010000
0.43476100 3.78780000 -2.03409000
0.33627700 4.15468000 -1.53113000
0.46055300 4.08622000 -1.57277000
0.46717300 2.35918000 3.22987000
0.30427100 2.45474000 3.20077000
1.68812000 -9.70019000 -0.93470900
1.59578000 -9.70929000 -1.10924000
0.03394160 -9.55695000 1.92336000
-0.01313960 -9.59765000 1.93834000
0.99747400 6.75771000 0.18890100
1.01632000 6.77656000 0.09448040
0.96816100 6.76525000 0.27802200
0.99059200 6.87363000 0.21310700
0.96107900 6.88880000 0.29914300
-2.58690000 2.06367000 2.15670000
-2.71988000 2.11037000 1.95047000
0.45717200 4.91900000 -1.04172000
0.54413100 4.91908000 -1.00659000
0.63222500 4.77323000 -1.02988000
2.60331000 -3.84238000 -0.84378500
2.55217000 -3.85236000 -0.98374300
2.43564000 -4.21132000 -0.95849300
2.87058000 -2.71591000 -1.13658000
0.88191200 9.69419000 2.02598000
0.92205400 9.44829000 1.91354000
0.72282000 9.50912000 1.99658000
1.01302000 9.07500000 1.78571000
0.25527200 4.57755000 -1.25564000
0.23058800 4.77269000 -1.15891000
0.11730500 4.72951000 -1.19296000
0.53498100 4.77074000 -1.07833000
0.43048300 4.77200000 -1.11519000
0.53342100 4.56864000 -1.19034000
1.03149000 -9.05258000 1.12939000
1.00634000 -9.19486000 1.23101000
1.01469000 -8.93645000 1.09589000
2.07507000 -4.06910000 1.79378000
0.84344100 9.30993000 1.89594000
0.69511800 9.19719000 1.90862000
0.69362000 9.33094000 1.94495000
0.52396400 9.17541000 1.93829000
-0.68149500 4.78655000 -0.90755700
-0.73841100 4.62797000 -0.97161600
0.76770200 6.83936000 0.59410700
0.82792400 6.82386000 0.52675100
0.83602100 6.91960000 0.52044300
0.92086100 6.80764000 0.37822200
-2.55659000 -4.49429000 0.85643300
-2.62991000 -4.46373000 0.66482200
-2.79718000 -4.06639000 0.55109400
-2.68695000 -4.44436000 0.45430700
-3.26793000 -0.70952200 -1.61202000
-3.34038000 -0.04373450 -1.58866000
2.56210000 9.80298000 0.03716500
2.54166000 9.63555000 -0.23613600
1.54004000 -9.24211000 -0.71101700
1.60396000 -9.31847000 -0.71535900
1.55903000 -9.32596000 -0.80803700
-2.26490000 -5.13342000 1.05165000
-2.39158000 -5.00600000 0.86748300
0.82761100 -9.81473000 0.62290700
0.74717400 -9.82282000 0.72686900
0.63574800 -9.82211000 0.83087100
0.71262600 -9.80842000 0.73376100
0.43946200 8.93894000 1.92178000
0.72315800 8.84820000 1.84463000
1.10638000 9.85433000 -2.19325000
0.97845100 9.87500000 -2.22640000
0.93230400 9.70267000 -2.22332000
-2.68514000 3.23464000 0.79478400
-2.50775000 3.42583000 0.79983100
-2.62735000 3.35638000 0.60416900
3.40303000 -0.41954900 1.27810000
3.41992000 -0.12781000 1.32610000
3.48424000 -0.25135200 1.10009000
3.33991000 -1.29502000 0.95479500
3.42218000 -0.65016700 1.11487000
-0.07746440 8.57742000 1.83067000
-0.15970800 8.76082000 2.08302000
-0.30767400 8.77199000 2.05879000
1.27058000 -7.32295000 0.94157000
1.21209000 -7.75788000 0.87202600
1.32348000 -7.47046000 0.79057000
1.27358000 -7.83108000 0.74355000
-0.86690700 9.71953000 1.78227000
-0.51305800 4.25048000 1.29543000
-0.48996900 4.33578000 1.23823000
-0.70785500 4.29515000 1.14577000
-0.72505300 4.39054000 1.06122000
-0.58579200 4.40593000 1.14095000
-0.01008940 9.20938000 -2.02633000
3.36914000 0.02097930 1.47403000
3.38292000 0.22575300 1.44427000
3.44352000 0.06243440 1.29285000
2.33990000 8.66918000 -0.54931900
2.90992000 2.98391000 -0.37642400
-0.68506200 7.54667000 -0.04592650
-0.66621000 7.52062000 -0.20417000
-0.67805500 7.61069000 0.06796560
-0.68789800 7.71203000 0.05388860
3.50109000 1.68173000 0.78571600
3.47306000 1.61618000 0.96809200
3.42950000 1.93287000 0.75314200
3.44474000 1.83576000 0.85979300
1.64613000 -9.35975000 0.52973100
1.68052000 -9.35250000 0.40640900
1.97050000 9.10320000 -1.38383000
-2.20242000 -5.83600000 0.40400200
1.41089000 -8.72476000 0.04705970
1.41465000 -8.72690000 -0.13264100
1.43925000 -8.86704000 -0.13703700
1.42895000 -8.87106000 -0.30248000
-1.67392000 -0.31378200 3.21333000
-1.80691000 -0.62606900 3.11091000
-2.21442000 -9.48921000 -0.29572400
-2.16936000 -9.42933000 -0.33365300
-0.70775800 5.50353000 0.49868000
-0.64451600 5.47129000 0.58996300
-0.61656400 5.55377000 0.60325200
-0.56806700 5.45261000 0.67369100
-0.61588500 5.36194000 0.66569300
-0.52611100 5.38953000 0.73112300
-0.24865800 9.67629000 -2.10389000
-0.39781100 9.67253000 -2.06558000
-0.24198200 9.49696000 -2.05119000
1.38564000 -8.36181000 -0.39165500
1.39086000 -8.48325000 -0.30434300
1.38821000 -8.65109000 -0.34995800
-1.41915000 -7.51823000 -1.28615000
0.34958300 9.69713000 -2.32945000
0.20226900 9.89684000 -2.33958000
0.80918500 6.16392000 -0.57164600
0.87408300 6.10986000 -0.46914400
-2.04508000 9.93659000 0.06824170
-2.05316000 9.94058000 -0.10706000
-2.05351000 9.90440000 -0.09933990
-2.05061000 9.92242000 -0.30355700
1.19635000 8.55857000 1.63509000
0.63503700 7.28739000 0.76775900
0.64368500 7.41854000 0.73467500
1.53729000 -9.19837000 0.41180000
1.56714000 -9.18119000 0.26643100
-3.07305000 2.26781000 -1.23672000
-3.13381000 2.27210000 -1.06457000
-1.09753000 -9.77786000 -1.98432000
-1.56221000 -9.80354000 1.45050000
-1.66323000 -9.79250000 1.34475000
-1.48866000 -9.80647000 1.51432000
1.43456000 -8.87005000 0.06366150
3.59901000 1.13137000 0.44514300
3.53838000 1.46051000 0.52538000
-0.49533500 1.85392000 3.47514000
-0.68590900 1.63362000 3.49122000
-0.65698400 1.91429000 3.43151000
-0.48607800 1.97076000 3.44233000
-0.47642200 2.06765000 3.41344000
0.04667900 -9.75068000 -1.31698000
0.19204100 -9.70670000 -1.04779000
0.00161258 -9.72593000 -1.19167000
-0.49500800 -9.71138000 -0.92853100
-0.24940900 -7.35548000 -1.88149000
-0.11779800 -7.33588000 -1.88745000
0.04377930 -7.31884000 -1.87889000
-0.00311304 -7.48183000 -1.84010000
1.32426000 -9.82218000 1.30966000
1.41668000 -9.75203000 1.26639000
1.28049000 -9.78005000 1.39269000
1.51230000 -9.77283000 1.13199000
0.90078400 8.56659000 1.76464000
1.13669000 8.73935000 1.94453000
0.89700900 8.75694000 2.05030000
0.14826400 7.76204000 0.40330500
0.15305700 7.83970000 0.40092700
1.97970000 0.72906000 3.07868000
2.03219000 0.38869400 3.04143000
-2.11486000 -9.86364000 -0.19724300
1.30496000 -9.26658000 -1.05829000
1.38240000 -9.34886000 -1.04714000
1.47185000 -9.34767000 -0.89896000
1.52606000 -9.33678000 -0.77031500
-1.82802000 -9.30613000 0.78376700
-1.86808000 -9.30530000 0.68807300
-1.87830000 -9.33749000 0.73741500
-1.93036000 -9.30975000 0.50929600
-1.99403000 -9.33464000 0.39372400
