-0.43080500 -0.71905000 3.91150000
-0.41132800 -1.01990000 3.92102000
-0.83042800 -0.73753900 3.88017000
-0.81768700 -1.03965000 3.89966000
-1.22860000 -0.75620100 3.84997000
-1.22122000 -1.06064000 3.85705000
-1.62372000 -0.77441000 3.80807000
-1.62349000 -1.08193000 3.82345000
-2.01483000 -0.79119500 3.75698000
-1.62346000 -0.46481400 3.79659000
-2.01024000 -0.47858200 3.74688000
-2.39260000 -0.48982700 3.68713000
-2.00656000 -0.16422900 3.74700000
-2.38524000 -0.17271800 3.68402000
-2.75971000 -0.17821200 3.61232000
-2.36997000 0.14198700 3.64237000
-2.74065000 0.13872200 3.57123000
-3.10838000 0.14031900 3.49491000
-2.69951000 0.42656600 3.44002000
-3.05983000 0.42965400 3.36292000
-3.41315000 0.43646600 3.27446000
-2.98926000 0.68870400 3.18484000
-3.32624000 0.70203100 3.10135000
-3.64045000 0.72267300 3.00837000
-3.22439000 0.97185800 2.92820000
-3.51016000 1.00117000 2.83882000
-3.75281000 1.04584000 2.75397000
-3.38337000 1.29374000 2.68724000
-3.60304000 1.34007000 2.60857000
-3.79063000 1.39490000 2.53605000
-3.47070000 1.63870000 2.48128000
-3.64924000 1.69138000 2.41981000
-3.80921000 1.74391000 2.35127000
-3.52121000 1.98447000 2.30766000
-3.67203000 2.03026000 2.24164000
-3.79110000 2.05111000 2.12813000
-3.93928000 1.77209000 2.23697000
-3.54913000 2.31640000 2.13828000
-3.65619000 2.33013000 2.02454000
-3.79110000 2.05111000 2.12813000
-3.65619000 2.33013000 2.02454000
-3.71359000 2.31364000 1.87505000
-3.86146000 2.03833000 1.97554000
-3.75172000 2.28780000 1.70959000
-3.90220000 2.00893000 1.80536000
-3.77987000 2.25871000 1.52722000
-3.93045000 1.97507000 1.61945000
-3.80705000 2.23369000 1.32530000
-3.96211000 1.94755000 1.41242000
-3.83290000 2.21565000 1.09752000
-3.98947000 1.92478000 1.17415000
-3.84292000 2.20185000 0.84784500
-4.01157000 1.91200000 0.91025800
-3.84295000 2.19885000 0.59035200
-4.02008000 1.90784000 0.63605700
-3.83158000 2.20338000 0.33411900
-4.01609000 1.91021000 0.36129900
-3.81631000 2.21350000 0.08081600
-4.00550000 1.91837000 0.08824800
-3.79777000 2.22217000 -0.17341300
-3.98672000 1.92653000 -0.18439700
-3.76792000 2.22438000 -0.43018600
-3.95650000 1.92998000 -0.45744900
-3.73530000 2.22700000 -0.68855400
-3.92413000 1.93441000 -0.73169500
-3.71046000 2.23200000 -0.94909200
-3.89407000 1.94337000 -1.00742000
-3.68368000 2.23846000 -1.20779000
-3.85897000 1.95520000 -1.28246000
-3.64881000 2.24877000 -1.45607000
-3.81168000 1.96913000 -1.54847000
-3.60582000 2.26508000 -1.68384000
-3.75979000 1.99011000 -1.79033000
-3.55795000 2.28504000 -1.88155000
-3.70785000 2.01533000 -1.99633000
-3.51568000 2.31194000 -2.05376000
-3.66006000 2.04467000 -2.17292000
-3.47619000 2.34327000 -2.21109000
-3.61297000 2.07671000 -2.33285000
-3.43015000 2.37160000 -2.35541000
-3.56676000 2.10990000 -2.48065000
-3.36371000 2.38761000 -2.48378000
-3.48796000 2.12064000 -2.60771000
-3.48796000 2.12064000 -2.60771000
-3.36371000 2.38761000 -2.48378000
-3.24690000 2.36250000 -2.55986000
-3.36436000 2.08928000 -2.68111000
-3.11362000 2.31900000 -2.59699000
-3.22566000 2.04080000 -2.71956000
-2.96684000 2.27033000 -2.62200000
-3.07239000 1.98816000 -2.74844000
-2.80002000 2.21783000 -2.63976000
-2.89425000 1.93228000 -2.77218000
-2.59612000 2.16647000 -2.66449000
-2.67188000 1.87539000 -2.79743000
-2.33813000 2.11297000 -2.68755000
-2.39722000 1.82396000 -2.83080000
-2.04132000 2.06455000 -2.70755000
-2.08969000 1.77910000 -2.85815000
-1.72628000 2.02678000 -2.72179000
-1.76651000 1.74311000 -2.87312000
-1.40154000 2.00316000 -2.73492000
-1.43365000 1.72375000 -2.88846000
-1.06987000 1.98945000 -2.74390000
-1.09387000 1.71246000 -2.89622000
-0.73309400 1.98318000 -2.74809000
-0.74896500 1.70809000 -2.89891000
-0.39269000 1.98375000 -2.74923000
-0.40032300 1.70995000 -2.89797000
-0.04992040 1.98915000 -2.74562000
-0.04937620 1.71695000 -2.89366000
0.29415000 1.99675000 -2.73261000
0.30274400 1.72487000 -2.87903000
0.63812200 2.01123000 -2.71851000
0.65480500 1.73765000 -2.86102000
0.98007300 2.02822000 -2.69524000
1.00508000 1.75398000 -2.83768000
1.31825000 2.04835000 -2.66414000
1.35179000 1.77348000 -2.80803000
1.65120000 2.07328000 -2.62682000
1.69320000 1.79657000 -2.77104000
1.97681000 2.10340000 -2.58124000
2.02722000 1.82396000 -2.72554000
2.29086000 2.13947000 -2.52552000
2.35006000 1.85655000 -2.66900000
2.58459000 2.18100000 -2.45964000
2.65440000 1.89407000 -2.59861000
2.84398000 2.23281000 -2.40405000
2.92950000 1.94484000 -2.53559000
3.05542000 2.28424000 -2.35441000
3.15768000 1.99720000 -2.47632000
3.22783000 2.33288000 -2.30991000
3.34083000 2.04897000 -2.42647000
3.46307000 1.76008000 -2.54496000
3.49799000 2.10011000 -2.37812000
3.62877000 1.81426000 -2.49065000
3.64201000 2.15132000 -2.32784000
3.77994000 1.86984000 -2.43669000
3.93125000 1.58371000 -2.54469000
3.91475000 1.91366000 -2.35507000
4.07421000 1.63615000 -2.46490000
4.25255000 1.36279000 -2.58723000
4.17535000 1.64660000 -2.32866000
4.36474000 1.37942000 -2.44581000
4.57390000 1.11100000 -2.57366000
4.57390000 1.11100000 -2.57366000
4.36474000 1.37942000 -2.44581000
4.42469000 1.35150000 -2.27198000
4.64285000 1.08527000 -2.39267000
4.88168000 0.81380800 -2.52547000
4.80337000 0.83328500 -2.71674000
4.69225000 1.04705000 -2.19262000
4.92871000 0.77491200 -2.30893000
5.15676000 0.48179500 -2.40821000
4.97177000 0.74383500 -2.05669000
5.18860000 0.45498100 -2.13144000
5.29973000 0.11090800 -2.17737000
5.21910000 0.44126200 -1.81330000
5.32688000 0.10504200 -1.84627000
5.36522000 -0.24580500 -1.86598000
5.35176000 0.10388400 -1.49391000
5.38931000 -0.24231900 -1.50716000
5.40862000 -0.58851900 -1.51317000
5.41763000 -0.23698300 -1.14086000
5.43458000 -0.57992200 -1.14266000
5.45336000 -0.92104000 -1.14140000
5.45217000 -0.57212300 -0.76876100
5.46746000 -0.91120100 -0.76561800
5.45829000 -1.25038000 -0.76216700
5.47147000 -0.90479700 -0.38930300
5.46575000 -1.24391000 -0.38690400
5.44838000 -1.58279000 -0.38592000
5.45546000 -1.24108000 -0.01201910
5.44451000 -1.57959000 -0.01121180
5.43214000 -1.91673000 -0.01124260
5.43267000 -1.57813000 0.36462800
5.41650000 -1.91455000 0.36457300
5.40439000 -2.25013000 0.36290300
5.38186000 -1.91446000 0.73951500
5.37470000 -2.25147000 0.73695300
5.35081000 -2.58770000 0.72949000
5.34524000 -2.25856000 1.10887000
5.32056000 -2.59766000 1.09831000
5.29382000 -2.93699000 1.08331000
5.27363000 -2.61385000 1.46097000
5.24545000 -2.95644000 1.44223000
5.20235000 -3.29734000 1.41946000
5.18922000 -2.98202000 1.79331000
5.14586000 -3.32660000 1.76723000
5.09137000 -3.66900000 1.73972000
5.07835000 -3.35920000 2.10319000
5.02160000 -3.70424000 2.07208000
4.96320000 -4.04774000 2.04059000
4.95646000 -3.74068000 2.38796000
5.00725000 -3.39277000 2.42316000
4.94162000 -3.42642000 2.72084000
5.05404000 -3.04296000 2.45710000
4.98042000 -3.07428000 2.75799000
4.91432000 -3.10545000 3.03558000
5.01142000 -2.72013000 2.79369000
4.94731000 -2.75014000 3.07542000
4.87602000 -2.77783000 3.33630000
4.96055000 -2.39192000 3.10764000
4.89619000 -2.41778000 3.36928000
4.70638000 -2.42835000 3.54566000
4.67747000 -2.78508000 3.50038000
4.91337000 -2.05647000 3.39794000
4.72984000 -2.06785000 3.57998000
4.70638000 -2.42835000 3.54566000
4.72984000 -2.06785000 3.57998000
4.46671000 -2.06355000 3.61549000
4.74873000 -1.70495000 3.60560000
4.48600000 -1.70530000 3.64049000
4.19989000 -1.70433000 3.65318000
4.49962000 -1.34566000 3.65573000
4.21267000 -1.35106000 3.67660000
3.88728000 -1.35435000 3.70874000
4.21734000 -0.99800300 3.69955000
3.88884000 -1.00801000 3.73695000
3.53125000 -1.01270000 3.78810000
3.87818000 -0.66293400 3.75356000
3.51807000 -0.67465600 3.80524000
3.14481000 -0.68181300 3.86087000
3.49577000 -0.34016500 3.81813000
3.12168000 -0.35531900 3.86981000
2.73843000 -0.36584100 3.91099000
2.76284000 -0.68497100 3.90337000
2.34872000 -0.37163600 3.94259000
2.37498000 -0.68496100 3.93995000
1.95381000 -0.37399400 3.95933000
1.98085000 -0.68244600 3.95647000
1.55516000 -0.37486000 3.96849000
1.93185000 -0.06640140 3.95603000
1.53533000 -0.07010050 3.96621000
1.13699000 -0.07380120 3.96444000
1.15432000 -0.37665100 3.96394000
0.73758600 -0.07787330 3.96734000
0.75262300 -0.38073400 3.96131000
0.33785900 -0.08501590 3.96037000
0.35137200 -0.38852300 3.95500000
-0.05994090 -0.09614270 3.93723000
-0.04792060 -0.40041200 3.93126000
-0.45499100 -0.10996900 3.90966000
-0.44504000 -0.41557800 3.90122000
-0.84696100 -0.12501700 3.87634000
-0.84002400 -0.43240600 3.86902000
-1.23616000 -0.13982700 3.83835000
-1.23306000 -0.44915900 3.83638000
-1.62302000 -0.15313600 3.79717000
-1.23241000 0.16854200 3.80157000
-1.61552000 0.15732000 3.75817000
-1.99526000 0.14873600 3.70685000
-1.59295000 0.44122000 3.62849000
-1.96649000 0.43341900 3.57432000
-2.33500000 0.42772700 3.50978000
-1.92469000 0.68255800 3.38839000
-2.28546000 0.68022200 3.32676000
-2.64068000 0.68178200 3.25884000
-2.23121000 0.93807800 3.15152000
-2.57490000 0.94308100 3.08460000
-2.90824000 0.95311000 3.01030000
-2.50642000 1.21453000 2.91969000
-2.82472000 1.22963000 2.84557000
-3.12179000 1.25684000 2.76898000
-2.74317000 1.51422000 2.68699000
-3.02300000 1.54733000 2.61455000
-3.26567000 1.59058000 2.54642000
-2.93365000 1.84597000 2.47676000
-3.16029000 1.88863000 2.41578000
-3.35248000 1.93598000 2.36243000
-3.06572000 2.18808000 2.29735000
-3.24642000 2.23195000 2.25026000
-3.40728000 2.27755000 2.20398000
-3.15117000 2.52805000 2.14730000
-3.30571000 2.57048000 2.10791000
-3.43905000 2.60201000 2.03927000
-3.21523000 2.86422000 2.02162000
-3.34498000 2.89177000 1.95264000
-3.43085000 2.89447000 1.83229000
-3.53383000 2.60927000 1.92396000
-3.53383000 2.60927000 1.92396000
-3.43085000 2.89447000 1.83229000
-3.47075000 2.87674000 1.68397000
-3.58710000 2.59470000 1.77852000
-3.49077000 2.85129000 1.51906000
-3.61575000 2.56870000 1.61437000
-3.51045000 2.82744000 1.33857000
-3.63844000 2.54161000 1.43378000
-3.53055000 2.80811000 1.14220000
-3.66379000 2.52027000 1.23577000
-3.54379000 2.79313000 0.92833600
-3.68452000 2.50443000 1.01567000
-3.55033000 2.78669000 0.70457400
-3.69043000 2.49368000 0.77910200
-3.53742000 2.78529000 0.48170500
-3.68383000 2.49255000 0.53874300
-3.51759000 2.78717000 0.26786600
-3.67149000 2.50060000 0.30312200
-3.51287000 2.78386000 0.06556260
-3.64614000 2.50278000 0.07405780
-3.51544000 2.79064000 -0.13632000
-3.62907000 2.50330000 -0.15733700
-3.49799000 2.76159000 -0.36150900
-3.60546000 2.50435000 -0.39573300
-3.57317000 2.51984000 -0.63554600
-3.55715000 2.52530000 -0.88328500
-3.39997000 2.79833000 -1.04261000
-3.53617000 2.52437000 -1.12751000
-3.37914000 2.79731000 -1.26020000
-3.50375000 2.52524000 -1.35905000
-3.34462000 2.80238000 -1.46410000
-3.46463000 2.53446000 -1.57400000
-3.30589000 2.81595000 -1.65058000
-3.42161000 2.55063000 -1.76534000
-3.26771000 2.83664000 -1.82065000
-3.38249000 2.57434000 -1.93508000
-3.23545000 2.86404000 -1.97884000
-3.34364000 2.60138000 -2.09063000
-3.19981000 2.89112000 -2.12403000
-3.30400000 2.62909000 -2.23427000
-3.14949000 2.91124000 -2.25394000
-3.25139000 2.65059000 -2.36524000
-3.25139000 2.65059000 -2.36524000
-3.14949000 2.91124000 -2.25394000
-3.04926000 2.90165000 -2.34199000
-3.14234000 2.63333000 -2.44760000
-2.92390000 2.87021000 -2.38144000
-3.01301000 2.59480000 -2.48370000
-2.78629000 2.83169000 -2.40060000
-2.87158000 2.55006000 -2.50331000
-2.63498000 2.79064000 -2.41219000
-2.71385000 2.50325000 -2.51794000
-2.45801000 2.74803000 -2.42462000
-2.52512000 2.45519000 -2.53437000
-2.23317000 2.70133000 -2.43701000
-2.28403000 2.40433000 -2.55238000
-1.95876000 2.65391000 -2.44682000
-1.99800000 2.35750000 -2.57209000
-1.65718000 2.61323000 -2.45194000
-1.68980000 2.31875000 -2.58445000
-1.34369000 2.58616000 -2.46203000
-1.37137000 2.29233000 -2.59524000
-1.02445000 2.56734000 -2.46744000
-1.04650000 2.27550000 -2.60246000
-0.70149500 2.55675000 -2.47067000
-0.71701600 2.26633000 -2.60538000
-0.37577100 2.55251000 -2.46896000
-0.38426900 2.26492000 -2.60659000
-0.04819750 2.55580000 -2.46720000
-0.04937570 2.26822000 -2.60210000
0.28009000 2.56274000 -2.45689000
0.28657800 2.27545000 -2.59054000
0.60803900 2.57616000 -2.44258000
0.62233100 2.29002000 -2.57757000
0.93456600 2.59749000 -2.42784000
0.95629900 2.30900000 -2.55757000
1.25805000 2.62092000 -2.40029000
1.28692000 2.33205000 -2.53039000
1.57743000 2.64960000 -2.36598000
1.61273000 2.35943000 -2.49506000
1.89008000 2.68216000 -2.31918000
1.93087000 2.38931000 -2.44477000
2.19186000 2.72297000 -2.27059000
2.23764000 2.42691000 -2.38868000
2.46737000 2.76893000 -2.22256000
2.52246000 2.47315000 -2.33450000
2.69490000 2.81699000 -2.18562000
2.76579000 2.52386000 -2.28835000
2.87552000 2.85954000 -2.14727000
2.96024000 2.56929000 -2.24010000
3.03065000 2.90142000 -2.11345000
3.12383000 2.61572000 -2.20345000
3.17059000 2.94203000 -2.07727000
3.27021000 2.66244000 -2.16863000
3.37916000 2.38223000 -2.26902000
3.40258000 2.70407000 -2.12151000
3.51602000 2.42764000 -2.21874000
3.50921000 2.72535000 -2.03383000
3.62875000 2.45348000 -2.13177000
3.76517000 2.18493000 -2.24215000
3.70091000 2.44997000 -2.00628000
3.84734000 2.18513000 -2.11284000
4.00425000 1.91648000 -2.21974000
4.00425000 1.91648000 -2.21974000
3.84734000 2.18513000 -2.11284000
3.88750000 2.15799000 -1.95980000
4.04832000 1.88761000 -2.06046000
4.22670000 1.61812000 -2.16285000
4.17535000 1.64660000 -2.32866000
4.08281000 1.85440000 -1.88894000
4.26538000 1.58266000 -1.98389000
4.46567000 1.31149000 -2.08283000
4.30184000 1.54829000 -1.78301000
4.50580000 1.27509000 -1.86914000
4.73512000 1.01078000 -1.96258000
4.54372000 1.24334000 -1.61302000
4.77607000 0.98472800 -1.68790000
5.01080000 0.72495700 -1.75916000
4.80947000 0.96570800 -1.37438000
5.04630000 0.71568600 -1.42897000
5.25228000 0.43735600 -1.47031000
5.07558000 0.71007900 -1.08355000
5.28285000 0.43647500 -1.11635000
5.38362000 0.10639300 -1.13374000
5.30524000 0.43572200 -0.75702800
5.40561000 0.10859500 -0.76853000
5.43502000 -0.23200800 -0.77054800
5.41550000 0.11071100 -0.40019500
5.44468000 -0.22733800 -0.39813100
5.45748000 -0.56621200 -0.39353300
5.44780000 -0.22271100 -0.02483000
5.45706000 -0.56203000 -0.01889420
5.47166000 -0.90165900 -0.01399920
5.45441000 -0.55911600 0.35488500
5.44967000 -0.89993000 0.35957300
5.44363000 -1.23992000 0.36291700
5.41573000 -0.89878800 0.73240600
5.40743000 -1.23871000 0.73692000
5.39497000 -1.57713000 0.73949800
5.37984000 -1.23975000 1.11240000
5.36975000 -1.57952000 1.11515000
5.35662000 -1.91892000 1.11391000
5.32601000 -1.58623000 1.48778000
5.31254000 -1.92852000 1.48367000
5.29656000 -2.27122000 1.47487000
5.25050000 -1.94306000 1.84659000
5.23705000 -2.28910000 1.83379000
5.21849000 -2.63568000 1.81612000
5.16638000 -2.31100000 2.18243000
5.14486000 -2.66084000 2.15852000
5.11933000 -3.01094000 2.13216000
5.08363000 -2.69024000 2.48849000
5.08872000 -2.33625000 2.51484000
5.02199000 -2.36409000 2.82514000
5.10920000 -1.98412000 2.54203000
5.03888000 -2.00870000 2.85588000
4.98024000 -2.03348000 3.13871000
5.05099000 -1.65306000 2.88013000
4.99600000 -1.67409000 3.16441000
4.93183000 -1.69376000 3.42412000
4.99586000 -1.31352000 3.17990000
4.93931000 -1.32944000 3.44003000
4.76162000 -1.34078000 3.62305000
4.74873000 -1.70495000 3.60560000
4.94900000 -0.96417500 3.45186000
4.77117000 -0.97522700 3.63834000
4.76162000 -1.34078000 3.62305000
4.77117000 -0.97522700 3.63834000
4.50702000 -0.98589900 3.67675000
4.77096000 -0.60736500 3.63829000
4.50482000 -0.62550200 3.67585000
4.21019000 -0.64569100 3.70662000
4.49532000 -0.26448000 3.67871000
4.19304000 -0.29571500 3.71125000
3.85601000 -0.32072800 3.76003000
4.16284000 0.05202960 3.71682000
3.82630000 0.01701390 3.76564000
3.46718000 -0.00991136 3.82131000
3.77886000 0.34454500 3.71285000
3.42925000 0.31102100 3.76815000
3.06285000 0.28249400 3.81473000
3.09479000 -0.03248040 3.86972000
2.68626000 0.26012600 3.85241000
2.71313000 -0.04964090 3.90752000
2.30242000 0.24528500 3.88072000
2.32497000 -0.06029080 3.93795000
1.91365000 0.23862000 3.90737000
2.27663000 0.52369600 3.74341000
1.89472000 0.51451600 3.76799000
1.50852000 0.50552400 3.77879000
1.52099000 0.23018600 3.91080000
1.11928000 0.49997500 3.78516000
1.12659000 0.22658700 3.91823000
0.72759300 0.49433700 3.78517000
0.73024700 0.22192400 3.91843000
0.33468100 0.49131100 3.78364000
0.33302900 0.21525200 3.91109000
-0.05702480 0.48073800 3.76350000
-0.06338680 0.20700700 3.89809000
-0.44627100 0.47079000 3.73927000
-0.45622400 0.19368400 3.86828000
-0.83241000 0.46014700 3.70855000
-0.84602500 0.18113500 3.83830000
-1.21457000 0.44899700 3.67022000
-0.80934900 0.69893300 3.51827000
-1.18613000 0.69148800 3.48165000
-1.55811000 0.68598500 3.43908000
-1.15564000 0.93686200 3.29940000
-1.52021000 0.93234400 3.25438000
-1.87959000 0.93585300 3.21015000
-1.48234000 1.19312000 3.08879000
-1.83290000 1.19899000 3.04390000
-2.17448000 1.20502000 2.98587000
-1.78474000 1.46660000 2.87944000
-2.11688000 1.47828000 2.82451000
-2.43740000 1.49061000 2.75565000
-2.06119000 1.75888000 2.66945000
-2.37286000 1.77926000 2.60703000
-2.66761000 1.80874000 2.54228000
-2.31361000 2.07106000 2.46094000
-2.59872000 2.10384000 2.39906000
-2.85295000 2.14539000 2.34644000
-2.53920000 2.40688000 2.27589000
-2.78055000 2.44784000 2.23109000
-2.97957000 2.48687000 2.18666000
-2.71515000 2.75235000 2.12968000
-2.90265000 2.78947000 2.09479000
-3.06594000 2.82622000 2.05820000
-2.83694000 3.09326000 2.01184000
-2.99404000 3.12726000 1.98211000
-3.13723000 3.15993000 1.94543000
-2.93432000 3.42633000 1.90373000
-3.06992000 3.45416000 1.86980000
-3.18537000 3.47166000 1.79793000
-3.25936000 3.18111000 1.87081000
-3.24987000 3.46788000 1.67210000
-3.33573000 3.18032000 1.74698000
-3.33573000 3.18032000 1.74698000
-3.24987000 3.46788000 1.67210000
-3.27549000 3.45186000 1.51967000
-3.36954000 3.16339000 1.59649000
-3.29179000 3.43359000 1.34731000
-3.39049000 3.14248000 1.42895000
-3.30339000 3.41584000 1.15866000
-3.40136000 3.11989000 1.24559000
-3.30828000 3.40003000 0.96078100
-3.41353000 3.10204000 1.04844000
-3.31342000 3.38973000 0.76051100
-3.42042000 3.08878000 0.84070000
-3.31200000 3.38409000 0.56176200
-3.42205000 3.08328000 0.62940500
-3.29905000 3.38098000 0.36795200
-3.40849000 3.08226000 0.42287200
-3.40849000 3.08226000 0.42287200
-3.29905000 3.38098000 0.36795200
-3.28455000 3.38114000 0.18060100
-3.38746000 3.08128000 0.22533500
-3.38746000 3.08128000 0.22533500
-3.36351000 3.42413000 0.02062200
-3.51759000 2.78717000 0.26786600
-3.20212000 3.67678000 0.13117200
-3.30680000 3.70921000 0.01414040
-3.45379000 3.78098000 0.00535424
-3.38265000 4.00664000 0.00824466
-3.50164000 4.06934000 0.00167294
-3.59917000 3.89305000 0.00015238
-3.61245000 4.17254000 -0.00553177
-3.72618000 4.05799000 -0.00583240
-3.81223000 4.27436000 -0.00865285
-3.92895000 4.22412000 -0.01559980
-3.69178000 4.33577000 -0.01152640
-3.72164000 4.55755000 -0.00883163
-3.85017000 4.53158000 -0.00978735
-3.51465000 4.28945000 -0.06460620
-3.60542000 4.38683000 -0.09832490
-3.61978000 4.57734000 -0.09686960
-3.60628000 4.80957000 -0.08843770
-3.71859000 4.80791000 -0.00078085
-3.59190000 4.39789000 -0.24556500
-3.59685000 4.58568000 -0.24453500
-3.57253000 4.81267000 -0.23598900
-3.55509000 5.05567000 -0.22363800
-3.59370000 5.05681000 -0.07904200
-3.57253000 4.81267000 -0.23598900
-3.59685000 4.58568000 -0.24453500
-3.59229000 4.58531000 -0.39860900
-3.56780000 4.81543000 -0.38985700
-3.55125000 5.06090000 -0.37511200
-3.55509000 5.05567000 -0.22363800
-3.52924000 5.30267000 -0.35687500
-3.53424000 5.29468000 -0.20743200
-3.63702000 4.81902000 -0.52165800
-3.60946000 5.07273000 -0.51499900
-3.58164000 5.32387000 -0.49677100
-3.53042000 5.54392000 -0.46859100
-3.49243000 5.51691000 -0.33270700
-3.75561000 5.08915000 -0.53559800
-3.72347000 5.35937000 -0.52195800
-3.65191000 5.60354000 -0.50853000
-3.52427000 5.78086000 -0.50097200
-3.44498000 5.69817000 -0.43312400
-3.85663000 5.39741000 -0.53157400
-3.77631000 5.66903000 -0.51673400
-3.98298000 5.42857000 -0.53537400
-3.89065000 5.10532000 -0.54391700
-4.01603000 5.11989000 -0.54948000
-4.13341000 5.13306000 -0.55747500
-4.10561000 5.45269000 -0.54102700
-4.24287000 5.14305000 -0.56599200
-4.21836000 5.46842000 -0.54829700
-4.34806000 5.15057000 -0.57174600
-4.32363000 5.47926000 -0.55543900
-4.27806000 5.77148000 -0.54720300
-4.42812000 5.48916000 -0.55503500
-4.38389000 5.79186000 -0.55074800
-4.48117000 5.49096000 -0.46615300
-4.45018000 5.80819000 -0.46593300
-4.49916000 5.48914000 -0.36621800
-4.46908000 5.81067000 -0.35817600
-4.43423000 6.09022000 -0.35537000
-4.25024000 6.20668000 -0.33254600
-4.48021000 5.80837000 -0.25088600
-4.44823000 6.09024000 -0.23241000
-4.25698000 6.20463000 -0.21646300
-4.06715000 6.25951000 -0.20169200
-4.06333000 6.25889000 -0.31238900
-4.25698000 6.20463000 -0.21646300
-4.44823000 6.09024000 -0.23241000
-4.06465000 6.23082000 -0.08882640
-4.06715000 6.25951000 -0.20169200
-3.94249000 6.44903000 -0.17996900
-3.93175000 6.44326000 -0.30371600
-3.91383000 6.43461000 -0.41516700
-4.06065000 6.23327000 -0.42910000
-3.83843000 6.40239000 -0.48775100
-3.92052000 6.69828000 -0.16398600
-3.94249000 6.44903000 -0.17996900
-3.93692000 6.45568000 -0.05916790
-4.48021000 5.80837000 -0.25088600
-4.48136000 5.80113000 -0.14167100
-4.51048000 5.48705000 -0.26619300
-4.51164000 5.48416000 -0.16453000
-4.48787000 5.47707000 -0.06319350
-4.44368000 5.77902000 -0.03374120
-4.39136000 5.46232000 -0.02555390
-4.33378000 5.74379000 -0.02407090
-4.28913000 5.44934000 -0.02164310
-4.42053000 5.13882000 -0.03371300
-4.31703000 5.13153000 -0.02826100
-4.20814000 5.12318000 -0.02352280
-4.18268000 5.43712000 -0.01777960
-4.09285000 5.11280000 -0.01546600
-4.06961000 5.41879000 -0.00880165
-3.97140000 5.10003000 -0.00520694
-3.95001000 5.39282000 0.00330277
-3.89832000 5.66454000 0.00765406
-3.80627000 5.89828000 0.02011630
-3.82396000 5.35998000 0.01580840
-3.77576000 5.61693000 0.01958800
-3.68381000 5.82881000 0.03175410
-3.55449000 5.97470000 0.04253540
-3.64938000 5.56016000 0.02226480
-3.56459000 5.73968000 0.03387230
-3.44503000 5.84317000 0.05275990
-3.31132000 5.89947000 0.06158200
-3.40253000 6.07435000 0.05124710
-3.46160000 5.66123000 -0.03438110
-3.35034000 5.71592000 -0.00479462
-3.23611000 5.73885000 0.00686411
-3.30319000 5.70325000 -0.15514400
-3.19139000 5.71736000 -0.14755900
-3.19139000 5.71736000 -0.14755900
-3.30319000 5.70325000 -0.15514400
-3.28995000 5.71397000 -0.30378200
-3.17198000 5.72971000 -0.29231800
-3.07111000 5.71859000 -0.14348000
-3.30400000 5.73724000 -0.45671000
-3.17529000 5.76183000 -0.43969100
-3.36718000 5.88458000 -0.49120500
-3.20977000 5.92347000 -0.47221300
-3.06565000 6.11869000 -0.46596200
-3.05784000 6.34965000 -0.46402600
-2.93492000 6.34808000 -0.57867000
-2.93325000 6.09680000 -0.55550000
-2.93325000 6.09680000 -0.55550000
-2.93492000 6.34808000 -0.57867000
-2.91230000 6.34041000 -0.74872300
-2.89472000 6.07726000 -0.72020500
-2.88687000 5.80411000 -0.69302300
-2.94096000 5.82237000 -0.51241600
-2.87743000 6.06380000 -0.89727700
-2.86517000 5.78375000 -0.88188100
-2.86803000 5.48829000 -0.89020800
-2.88852000 5.51030000 -0.68707000
-2.90804000 5.52942000 -0.50215300
-2.86846000 5.16891000 -0.91542000
-2.89261000 5.18205000 -0.70243100
-2.91529000 5.19532000 -0.50908800
-2.91529000 5.19532000 -0.50908800
-2.93533000 5.21068000 -0.33391500
-2.90973000 4.82638000 -0.73043800
-2.93375000 4.81498000 -0.53965200
-2.93375000 4.81498000 -0.53965200
-2.95204000 4.81003000 -0.36285300
-2.96823000 4.84206000 -0.19428900
-2.95003000 5.22508000 -0.16894000
-2.95204000 4.81003000 -0.36285300
-2.93375000 4.81498000 -0.53965200
-2.97010000 4.44275000 -0.59010900
-2.96823000 4.84206000 -0.19428900
-2.95003000 5.22508000 -0.16894000
-2.95516000 5.22880000 -0.01096490
-2.95129000 5.58628000 -0.12561200
-2.96823000 4.84206000 -0.19428900
-2.97366000 4.86608000 -0.03106910
-2.98277000 4.87618000 0.14229100
-2.96650000 5.22543000 0.15542100
-2.97366000 4.86608000 -0.03106910
-2.96823000 4.84206000 -0.19428900
-3.00679000 4.48637000 -0.20349600
-3.00783000 4.52530000 -0.03181820
-3.01556000 4.54298000 0.14484000
-2.98277000 4.87618000 0.14229100
-3.01556000 4.54298000 0.14484000
-3.02912000 4.56036000 0.34463100
-2.99567000 4.88233000 0.34001800
-2.98277000 4.87618000 0.14229100
-3.07105000 4.24618000 0.17518400
-3.07105000 4.24618000 0.17518400
-3.09137000 4.26388000 0.37030300
-3.09954000 4.28114000 0.58531200
-3.03861000 4.57698000 0.56866600
-3.13477000 3.96709000 0.24016500
-3.15451000 3.97759000 0.42840600
-3.16022000 3.98986000 0.62697500
-3.16102000 4.00136000 0.83237900
-3.10060000 4.29547000 0.80559500
-3.22811000 3.68552000 0.49746300
-3.23154000 3.69367000 0.68918400
-3.22965000 3.70332000 0.88601200
-3.22433000 3.71554000 1.08615000
-3.15848000 4.01354000 1.03731000
-3.15258000 4.02659000 1.23141000
-3.09374000 4.32056000 1.19947000
-3.09867000 4.30852000 1.01367000
-3.21543000 3.73010000 1.28025000
-3.20460000 3.74599000 1.45649000
-3.14411000 4.04010000 1.40510000
-3.12555000 4.05155000 1.55512000
-3.07523000 4.34277000 1.50721000
-3.09079000 4.33296000 1.36363000
-3.18242000 3.75950000 1.60956000
-3.18242000 3.75950000 1.60956000
-3.12467000 3.76345000 1.73476000
-3.07555000 4.05567000 1.67912000
-3.12555000 4.05155000 1.55512000
-2.97706000 4.04640000 1.75786000
-2.94536000 4.34167000 1.71314000
-3.03492000 4.34757000 1.62980000
-3.07523000 4.34277000 1.50721000
-3.01764000 3.75045000 1.80959000
-2.88746000 3.72699000 1.84098000
-2.85149000 4.02755000 1.79094000
-2.70828000 4.00532000 1.81211000
-2.68157000 4.30921000 1.76858000
-2.82325000 4.32718000 1.74872000
-2.74124000 3.70063000 1.86398000
-2.57600000 3.67308000 1.88879000
-2.54565000 3.98146000 1.83344000
-2.78376000 3.39674000 1.93258000
-2.61308000 3.36572000 1.96000000
-2.40928000 3.33292000 1.98900000
-2.38111000 3.64366000 1.91405000
-2.65860000 3.05831000 2.03926000
-2.44428000 3.02223000 2.07138000
-2.18517000 2.98489000 2.10739000
-2.15880000 3.29745000 2.01825000
-2.48751000 2.71300000 2.16591000
-2.21916000 2.67374000 2.20594000
-1.92645000 2.64080000 2.25204000
-1.89611000 2.94847000 2.13939000
-2.26229000 2.36971000 2.32705000
-1.96436000 2.33923000 2.37874000
-1.65538000 2.31624000 2.42838000
-1.62146000 2.61296000 2.29260000
-2.00898000 2.04310000 2.51495000
-1.69439000 2.02567000 2.57154000
-1.37152000 2.01348000 2.62147000
-1.33918000 2.30028000 2.47476000
-1.73798000 1.74224000 2.72206000
-1.40644000 1.73170000 2.77001000
-1.06786000 1.72557000 2.81076000
-1.04161000 2.00463000 2.66121000
-1.44413000 1.46024000 2.92898000
-1.09616000 1.45598000 2.96888000
-0.74307700 1.45402000 3.00033000
-0.72403000 1.72153000 2.84128000
-1.12554000 1.19271000 3.13065000
-0.76381300 1.19550000 3.16684000
-0.39868000 1.20067000 3.19678000
-0.38689600 1.45683000 3.02832000
-0.78600300 0.94345700 3.33813000
-0.41239400 0.94948300 3.36743000
-0.03616910 0.95565200 3.38915000
-0.03094320 1.20508000 3.21690000
-0.42886300 0.70839100 3.54996000
-0.04537420 0.71644000 3.57310000
0.33964700 0.72803200 3.59450000
0.34138900 0.96132500 3.40315000
0.71908600 0.96407000 3.40485000
0.70599000 1.21170000 3.22908000
0.33773300 1.20892000 3.22830000
0.72573500 0.73146500 3.59753000
1.11072000 0.73537500 3.59365000
1.09533000 0.96695200 3.39776000
1.46803000 0.97628000 3.38959000
1.43447000 1.22205000 3.20463000
1.07217000 1.21342000 3.21773000
1.49257000 0.74104800 3.58444000
1.86971000 0.74938600 3.56842000
1.83490000 0.98515900 3.36962000
2.19379000 0.99797500 3.34072000
2.13614000 1.25161000 3.15199000
1.79011000 1.23282000 3.18108000
2.24097000 0.75994300 3.54224000
2.60438000 0.77653900 3.50568000
2.54113000 1.01799000 3.30207000
2.65230000 0.53661600 3.70581000
3.01856000 0.55637200 3.65636000
2.95468000 0.79501800 3.45001000
3.28227000 0.82749200 3.39109000
3.17079000 1.08691000 3.19346000
2.87128000 1.04833000 3.25359000
3.37038000 0.58566500 3.60206000
3.69417000 0.62061400 3.53794000
3.56782000 0.86907800 3.32409000
3.80040000 0.92928300 3.25639000
3.62977000 1.20677000 3.08274000
3.42337000 1.13954000 3.13473000
3.96996000 0.66938400 3.46441000
4.19574000 0.73830200 3.38814000
3.99477000 1.00335000 3.18787000
4.09644000 0.39122700 3.65606000
4.36890000 0.45635500 3.59550000
4.60776000 0.52461500 3.50424000
4.38696000 0.80090600 3.28863000
4.46326000 0.10037600 3.67819000
4.73761000 0.15481400 3.62690000
4.73761000 0.15481400 3.62690000
4.91542000 0.16353200 3.41455000
4.77263000 0.52794800 3.30684000
4.60776000 0.52461500 3.50424000
4.76624000 -0.23445800 3.63783000
4.76624000 -0.23445800 3.63783000
4.94058000 -0.22295600 3.44133000
4.99156000 -0.22741400 3.17388000
4.97662000 0.14077600 3.14570000
4.77096000 -0.60736500 3.63829000
4.94834000 -0.59617200 3.45145000
5.00057000 -0.59103600 3.18805000
5.05760000 -0.58557800 2.89990000
5.04993000 -0.23014200 2.88255000
5.00238000 -0.95268100 3.18952000
5.05788000 -0.94104500 2.90283000
5.13097000 -0.92913400 2.57825000
5.12826000 -0.57845500 2.57181000
5.05354000 -1.29696000 2.89509000
5.12401000 -1.28041000 2.57378000
5.19475000 -1.26558000 2.22128000
5.20022000 -0.91841400 2.22111000
5.12495000 -1.63231000 2.56308000
5.20039000 -1.61357000 2.21689000
5.26479000 -1.59784000 1.85520000
5.26549000 -1.25331000 1.85605000
5.17899000 -1.96163000 2.20111000
5.32798000 -1.24440000 1.48558000
5.33383000 -0.90292100 1.48067000
5.27162000 -0.90952900 1.85290000
5.32821000 -0.56129100 1.47261000
5.26535000 -0.56584700 1.84404000
5.19727000 -0.57162500 2.21303000
5.25514000 -0.22211300 1.83246000
5.19150000 -0.22486200 2.19917000
5.12081000 -0.22816300 2.55467000
5.16632000 0.12042200 2.17895000
5.10253000 0.12166100 2.52981000
5.03520000 0.12613700 2.85507000
5.00776000 0.45773700 2.48759000
4.93457000 0.46925300 2.79820000
4.85743000 0.49212100 3.06718000
4.70454000 0.73991900 2.69113000
4.62264000 0.77133200 2.92538000
4.52695000 0.80337300 3.12431000
4.37257000 1.02375000 2.76480000
4.28939000 1.06379000 2.94594000
4.16677000 1.06805000 3.10085000
4.38696000 0.80090600 3.28863000
4.07522000 1.32353000 2.79061000
3.96534000 1.32957000 2.93753000
4.16677000 1.06805000 3.10085000
3.96534000 1.32957000 2.93753000
3.80771000 1.27590000 3.02316000
3.78329000 1.59479000 2.79215000
3.63794000 1.55080000 2.87718000
3.47158000 1.48752000 2.92856000
3.47889000 1.82766000 2.74489000
3.32185000 1.76799000 2.78723000
3.14712000 1.71030000 2.82714000
3.28228000 1.42387000 2.97286000
2.94105000 1.65493000 2.86646000
3.05455000 1.36803000 3.02244000
2.68754000 1.60394000 2.90889000
2.77943000 1.32155000 3.07522000
2.39246000 1.55936000 2.94874000
2.46828000 1.28136000 3.11756000
2.07324000 1.52394000 2.98287000
2.31909000 1.84593000 2.79285000
2.01096000 1.80492000 2.82290000
1.68757000 1.77161000 2.84537000
1.73958000 1.50105000 3.01508000
1.35412000 1.75207000 2.86875000
1.39514000 1.48404000 3.03614000
1.01379000 1.73925000 2.88388000
1.04384000 1.47386000 3.05133000
0.66903000 1.73388000 2.89588000
0.68844700 1.46956000 3.06174000
0.32127600 1.72947000 2.89653000
0.33047200 1.46516000 3.06005000
-0.02793370 1.72488000 2.88558000
-0.02848040 1.46084000 3.04842000
-0.37682400 1.72079000 2.86498000
-0.02861310 2.00023000 2.73362000
-0.36846100 1.99775000 2.71563000
-0.70647900 1.99783000 2.68914000
-0.36088400 2.28024000 2.56735000
-0.69054600 2.28238000 2.54334000
-1.01730000 2.29003000 2.51486000
-0.67603700 2.57422000 2.40277000
-0.99530000 2.58260000 2.37431000
-1.31068000 2.59476000 2.33638000
-0.97725200 2.88507000 2.24762000
-1.28765000 2.89873000 2.21287000
-1.59465000 2.91964000 2.17580000
-1.27096000 3.21169000 2.10737000
-1.57520000 3.23413000 2.07798000
-1.87404000 3.26265000 2.04600000
-1.56231000 3.55372000 1.99540000
-1.85899000 3.57961000 1.96368000
-2.13930000 3.61088000 1.93674000
-1.85006000 3.90163000 1.90645000
-2.12491000 3.92890000 1.88160000
-2.35694000 3.95614000 1.85634000
-2.11131000 4.24659000 1.83230000
-2.33539000 4.26889000 1.80960000
-2.52051000 4.28976000 1.78894000
-2.31990000 4.58185000 1.77329000
-2.50045000 4.59793000 1.75499000
-2.65854000 4.61280000 1.73696000
-2.48485000 4.90657000 1.73725000
-2.63947000 4.91666000 1.72072000
-2.77834000 4.92561000 1.70163000
-2.79912000 4.62645000 1.71937000
-2.89775000 4.93170000 1.65748000
-2.91978000 4.63675000 1.68032000
-2.97272000 4.93144000 1.56180000
-2.99955000 4.63904000 1.58969000
-2.99764000 4.92573000 1.43864000
-3.02884000 4.63319000 1.46750000
-3.02884000 4.63319000 1.46750000
-2.99764000 4.92573000 1.43864000
-3.00493000 4.91823000 1.30244000
-3.03678000 4.62393000 1.32947000
-3.00975000 4.91041000 1.15407000
-3.04228000 4.61408000 1.17591000
-3.01162000 4.90249000 0.98794300
-3.04573000 4.60376000 1.00223000
-3.00898000 4.89474000 0.78907300
-3.04396000 4.59148000 0.79715600
-3.00184000 4.88784000 0.56284400
-2.99699000 5.20317000 0.77033200
-2.99213000 5.20703000 0.55431100
-2.98165000 5.21608000 0.34302100
-2.97979000 5.52156000 0.54523200
-2.97090000 5.53878000 0.35371200
-2.95902000 5.55596000 0.18080900
-2.96650000 5.22543000 0.15542100
-2.96987000 5.84290000 0.36601600
-2.96206000 5.85893000 0.20183300
-2.95902000 5.55596000 0.18080900
-2.96206000 5.85893000 0.20183300
-2.98572000 6.13794000 0.36864400
-2.97862000 6.14999000 0.20334000
-2.97862000 6.14999000 0.20334000
-3.07361000 6.15026000 0.07381330
-3.00582000 6.43032000 0.19947700
-3.12126000 6.40974000 0.07533700
-3.23850000 6.13067000 0.05962860
-3.03106000 6.70139000 0.21000500
-3.14322000 6.65968000 0.07659010
-3.03106000 6.70139000 0.21000500
-3.03828000 6.71483000 0.38379200
-3.07990000 6.99965000 0.40607600
-3.06264000 6.96970000 0.22476600
-3.00582000 6.43032000 0.19947700
-3.00767000 6.42855000 0.36982900
-3.01656000 6.42492000 0.53697100
-3.04772000 6.72133000 0.55780100
-2.99274000 6.12664000 0.53401500
-2.99810000 6.11823000 0.70045300
-3.02150000 6.42158000 0.70141800
-2.97805000 5.82648000 0.53871300
-2.98424000 5.81517000 0.71720800
-2.98993000 5.80997000 0.89436300
-3.00341000 6.11317000 0.87111800
-2.98593000 5.51093000 0.74373000
-2.99036000 5.50769000 0.92993600
-2.98959000 5.50956000 1.10040000
-2.99126000 5.80979000 1.07007000
-2.99842000 5.20477000 0.96357200
-2.99631000 5.20955000 1.12974000
-2.99042000 5.21515000 1.27996000
-2.98423000 5.51321000 1.25875000
-2.97430000 5.51693000 1.40377000
-2.97963000 5.81390000 1.39563000
-2.98845000 5.81175000 1.24017000
-2.98105000 5.22061000 1.41838000
-2.98105000 5.22061000 1.41838000
-2.95612000 5.22532000 1.54384000
-2.94887000 5.52032000 1.53317000
-2.97430000 5.51693000 1.40377000
-2.87372000 5.52288000 1.63187000
-2.87594000 5.81938000 1.63219000
-2.95405000 5.81607000 1.53185000
-2.97963000 5.81390000 1.39563000
-2.88183000 5.22709000 1.64203000
-2.76114000 5.22449000 1.68292000
-2.75217000 5.52375000 1.67033000
-2.61568000 5.52361000 1.68727000
-2.61671000 5.82769000 1.68720000
-2.75337000 5.82365000 1.67077000
-2.62364000 5.21990000 1.69942000
-2.47228000 5.21454000 1.71563000
-2.46639000 5.52276000 1.70252000
-2.29895000 5.52138000 1.72094000
-2.29966000 5.83462000 1.71641000
-2.46753000 5.83123000 1.70031000
-2.30198000 5.20840000 1.73269000
-2.09277000 5.20158000 1.75186000
-2.09260000 5.51975000 1.74144000
-2.30972000 4.89554000 1.75513000
-2.09558000 4.88354000 1.77376000
-1.83234000 4.87114000 1.79362000
-1.83128000 5.19466000 1.77222000
-2.10103000 4.56469000 1.79424000
-1.83613000 4.54718000 1.81744000
-1.54541000 4.53090000 1.83419000
-1.54311000 4.85992000 1.81132000
-1.84272000 4.22413000 1.85699000
-1.54970000 4.20356000 1.87640000
-1.25023000 4.18724000 1.89634000
-1.24772000 4.51822000 1.85306000
-1.55468000 3.87747000 1.92905000
-1.25396000 3.85826000 1.95201000
-0.95263700 3.84549000 1.97744000
-0.95050900 4.17635000 1.91893000
-1.26012000 3.53195000 2.01963000
-0.95650500 3.51761000 2.04621000
-0.65230400 3.50942000 2.07028000
-0.65129700 3.83815000 1.99940000
-0.96438400 3.19707000 2.13756000
-0.65633300 3.18837000 2.16345000
-0.34768700 3.18606000 2.18823000
-0.34811000 3.50744000 2.09422000
-0.66425500 2.87643000 2.27557000
-0.34964500 2.87282000 2.29763000
-0.03441270 2.87535000 2.31589000
-0.03866210 3.18896000 2.20719000
-0.35434100 2.57093000 2.42551000
-0.03154630 2.57303000 2.44281000
0.29113800 2.57777000 2.44926000
0.28082700 2.88130000 2.32385000
-0.02974330 2.28200000 2.58402000
0.30118700 2.28595000 2.59051000
0.63046100 2.29217000 2.58744000
0.61235900 2.58675000 2.44967000
0.31125400 2.00474000 2.74287000
0.64943700 2.00937000 2.73961000
0.98439600 2.01617000 2.72631000
0.95671100 2.30311000 2.57833000
1.27827000 2.32241000 2.56767000
1.24495000 2.62140000 2.43300000
0.93074900 2.59885000 2.43958000
1.31463000 2.03092000 2.71061000
1.63826000 2.05421000 2.68898000
1.59338000 2.34905000 2.54971000
1.89936000 2.38744000 2.53288000
1.85159000 2.69075000 2.40940000
1.55322000 2.65209000 2.42307000
1.95265000 2.08912000 2.66525000
2.25037000 2.13407000 2.64078000
2.18615000 2.43204000 2.51070000
2.43311000 2.48102000 2.49237000
2.35936000 2.78356000 2.39037000
2.12708000 2.73715000 2.40031000
2.51343000 2.18500000 2.61743000
2.72645000 2.23606000 2.59608000
2.63109000 2.52810000 2.47605000
2.59852000 1.89360000 2.75858000
2.83098000 1.94362000 2.72280000
3.01900000 1.99790000 2.69550000
2.90074000 2.28457000 2.57110000
3.05494000 2.33391000 2.54518000
2.94262000 2.61723000 2.43710000
2.79542000 2.57207000 2.45598000
3.18184000 2.05092000 2.66160000
3.33037000 2.10346000 2.62043000
3.19581000 2.37808000 2.50231000
3.31395000 2.39902000 2.41370000
3.19357000 2.67496000 2.31193000
3.07804000 2.65593000 2.39682000
3.45838000 2.13276000 2.53369000
3.45838000 2.13276000 2.53369000
3.54122000 2.12146000 2.40000000
3.39165000 2.38846000 2.28530000
3.31395000 2.39902000 2.41370000
3.61539000 1.86440000 2.65954000
3.61539000 1.86440000 2.65954000
3.70246000 1.85242000 2.52125000
3.76201000 1.82121000 2.36699000
3.59357000 2.09076000 2.25004000
3.78329000 1.59479000 2.79215000
3.88205000 1.58741000 2.65163000
3.94902000 1.55447000 2.49045000
4.00948000 1.51839000 2.31356000
3.81438000 1.78646000 2.19968000
4.14738000 1.28447000 2.61983000
4.21754000 1.24698000 2.43158000
4.28917000 1.21536000 2.20843000
4.07146000 1.48412000 2.10638000
4.45258000 0.98762300 2.56015000
4.53202000 0.96281400 2.31435000
4.60656000 0.94791200 2.01927000
4.36231000 1.19262000 1.93641000
4.78347000 0.72193300 2.41118000
4.86000000 0.71722700 2.09173000
4.92743000 0.71424700 1.74976000
4.67616000 0.94142800 1.69390000
5.07718000 0.45319600 2.14783000
5.14156000 0.45114200 1.79388000
5.19952000 0.44958400 1.43392000
4.98995000 0.71500000 1.39964000
5.22879000 0.12038800 1.81752000
5.28792000 0.12075600 1.45217000
5.33751000 0.12028400 1.08405000
5.24731000 0.44689800 1.07052000
5.31444000 -0.21978900 1.46303000
5.36356000 -0.21847300 1.09200000
5.40096000 -0.21848900 0.71997600
5.37615000 0.11899800 0.71407700
5.38048000 -0.55853600 1.10002000
5.41216000 -0.55823100 0.72638600
5.44489000 -0.21878800 0.34877600
5.38046000 -0.89930700 1.10647000
5.42455000 0.11572800 -0.02963710
5.42241000 0.12085000 0.34351100
5.32873000 0.44170700 -0.02978560
5.32080000 0.44583700 0.33860900
5.28485000 0.44360600 0.70542100
5.11247000 0.71468000 0.33380100
5.08090000 0.71250700 0.69018200
5.04185000 0.71504900 1.04568000
4.82537000 0.93478800 0.67134300
4.78739000 0.93709200 1.01435000
4.73970000 0.94109000 1.35670000
4.54023000 1.16863000 0.97902400
4.49026000 1.17006000 1.30661000
4.43022000 1.17751000 1.62918000
4.25766000 1.42077000 1.25168000
4.19884000 1.43083000 1.55982000
4.13420000 1.45181000 1.85170000
3.99137000 1.70403000 1.49014000
3.92723000 1.72303000 1.76834000
3.86606000 1.75145000 2.00638000
3.74022000 2.00066000 1.68397000
3.68637000 2.02715000 1.90776000
3.63944000 2.05808000 2.08962000
3.52027000 2.30195000 1.80971000
3.48064000 2.33053000 1.98391000
3.43942000 2.36015000 2.13945000
3.33893000 2.60530000 1.88196000
3.30262000 2.63317000 2.03651000
3.26335000 2.66200000 2.18247000
3.18560000 2.91226000 1.94126000
3.14722000 2.93818000 2.08846000
3.08391000 2.95195000 2.21848000
3.19357000 2.67496000 2.31193000
3.03710000 3.21523000 2.00168000
2.98269000 3.23015000 2.13265000
3.08391000 2.95195000 2.21848000
2.98269000 3.23015000 2.13265000
2.88366000 3.22162000 2.22348000
2.97393000 2.93636000 2.30295000
2.76002000 3.19564000 2.26669000
2.84467000 2.90436000 2.34468000
2.62431000 3.16214000 2.28212000
2.70355000 2.86553000 2.36256000
2.47159000 3.12629000 2.29178000
2.54599000 2.82566000 2.37721000
2.29317000 3.08811000 2.29880000
2.40893000 3.43012000 2.21804000
2.23707000 3.39590000 2.22118000
2.02973000 3.35866000 2.22158000
2.07424000 3.04679000 2.30571000
1.77438000 3.31816000 2.21900000
1.80982000 3.00311000 2.30971000
1.48735000 3.28078000 2.21989000
1.51782000 2.96480000 2.31816000
1.18809000 3.24986000 2.22200000
1.21467000 2.93333000 2.32394000
0.88442200 3.22544000 2.22251000
0.90646300 2.90836000 2.32453000
0.57823000 3.20786000 2.22151000
0.59480300 2.89283000 2.32868000
0.27037200 3.19524000 2.21456000
0.56338900 3.53042000 2.12884000
0.26018700 3.51750000 2.12072000
-0.04403480 3.51105000 2.11475000
0.25064100 3.84708000 2.04754000
-0.04984200 3.83967000 2.03858000
-0.35028600 3.83607000 2.01904000
-0.05543680 4.17325000 1.97807000
-0.35306100 4.16932000 1.95848000
-0.65146600 4.17055000 1.94037000
-0.35571800 4.50504000 1.90525000
-0.65227900 4.50551000 1.89061000
-0.94947500 4.50958000 1.87108000
-0.65404600 4.84334000 1.85679000
-0.94999000 4.84557000 1.84134000
-1.24674000 4.85105000 1.82482000
-0.95196800 5.18267000 1.82274000
-1.24775000 5.18473000 1.80724000
-1.54281000 5.18877000 1.78959000
-1.25101000 5.51864000 1.80245000
-1.54529000 5.51805000 1.78322000
-1.83283000 5.51846000 1.76345000
-1.55019000 5.84739000 1.79079000
-1.83567000 5.84263000 1.76420000
-2.09328000 5.83832000 1.73705000
-1.84076000 6.16713000 1.77787000
-2.09680000 6.15750000 1.74750000
-2.30503000 6.14845000 1.72568000
-2.10576000 6.47739000 1.76785000
-2.31633000 6.46307000 1.74374000
-2.48749000 6.44990000 1.72408000
-2.47487000 6.14016000 1.70828000
-2.63753000 6.43728000 1.70793000
-2.62452000 6.13217000 1.69253000
-2.77340000 6.42534000 1.69008000
-2.76098000 6.12415000 1.67680000
-2.89642000 6.41495000 1.65313000
-2.88459000 6.11679000 1.64055000
-2.98276000 6.40947000 1.55495000
-2.96730000 6.11252000 1.53950000
-3.01531000 6.40954000 1.41182000
-2.99570000 6.11139000 1.39701000
-2.99570000 6.11139000 1.39701000
-3.01531000 6.40954000 1.41182000
-3.02526000 6.41167000 1.24219000
-3.00368000 6.11115000 1.23140000
-3.02694000 6.41463000 1.05536000
-3.00597000 6.11131000 1.05085000
-3.02510000 6.41807000 0.87116200
-3.05699000 6.71674000 1.09173000
-3.05480000 6.72154000 0.90494300
-3.05192000 6.72338000 0.72974300
-3.09139000 7.02191000 0.97256600
-3.08906000 7.02327000 0.78890300
-3.08711000 7.01676000 0.59781600
-3.14074000 7.32380000 0.85861200
-3.13986000 7.31636000 0.64671800
-3.13294000 7.29553000 0.43073800
-3.19405000 7.62601000 0.70283400
-3.19040000 7.61224000 0.46680000
-3.17819000 7.59064000 0.23289100
-3.11476000 7.25941000 0.22298900
-3.26620000 7.93317000 0.51024800
-3.25752000 7.92757000 0.25549100
-3.24834000 7.92608000 -0.00019831
-3.16066000 7.57596000 -0.00518689
-3.09135000 7.18776000 -0.00498739
-3.23959000 7.93760000 -0.25570800
-3.15713000 7.59349000 -0.24732100
-3.09440000 7.27237000 -0.22932600
-3.20701000 7.96605000 -0.50851500
-3.13566000 7.62817000 -0.48732800
-3.06361000 7.27466000 -0.45367800
-3.18664000 7.99445000 -0.76702400
-3.11591000 7.67447000 -0.73195600
-3.05620000 7.36400000 -0.69976600
-3.09740000 7.71138000 -0.97579300
-3.04201000 7.41233000 -0.92201800
-2.99977000 7.13079000 -0.86899800
-3.01083000 7.09215000 -0.67876400
-3.05620000 7.36400000 -0.69976600
-3.01083000 7.09215000 -0.67876400
-2.96425000 6.86253000 -0.81842500
-2.97384000 6.84247000 -0.64794000
-2.97384000 6.84247000 -0.64794000
-3.00515000 6.81693000 -0.49148400
-3.14861000 6.79336000 -0.42930700
-2.94902000 6.59641000 -0.61074900
-3.02978000 6.58678000 -0.46951700
-2.94902000 6.59641000 -0.61074900
-2.93980000 6.60006000 -0.77960900
-2.94886000 6.88139000 -1.00103000
-2.92472000 6.60836000 -0.95632700
-2.89688000 6.33733000 -0.92359500
-2.90544000 6.61732000 -1.13708000
-2.87640000 6.33757000 -1.10173000
-2.85560000 6.05489000 -1.08024000
-2.85509000 6.33621000 -1.28125000
-2.83305000 6.04900000 -1.26623000
-2.81966000 5.75800000 -1.27335000
-2.84331000 5.76752000 -1.07818000
-2.82178000 5.46129000 -1.29880000
-2.84690000 5.47076000 -1.09928000
-2.81859000 5.15664000 -1.32915000
-2.84516000 5.15997000 -1.13087000
-2.82636000 4.84706000 -1.35729000
-2.85408000 4.84023000 -1.16050000
-2.88031000 4.83356000 -0.94329000
-2.88894000 4.52450000 -1.18576000
-2.91738000 4.50460000 -0.97177500
-2.94380000 4.47909000 -0.76797200
-2.96643000 4.19800000 -1.01660000
-2.99489000 4.17159000 -0.82826400
-3.01942000 3.90595000 -1.08600000
-3.04273000 3.88644000 -0.90700700
-3.05970000 3.86586000 -0.74744700
-3.09387000 3.84795000 -0.60689600
-3.10528000 3.60669000 -0.99070900
-3.12455000 3.59942000 -0.81726700
-3.15103000 3.59706000 -0.65151800
-3.25667000 3.62718000 -0.53625400
-3.19558000 3.85763000 -0.52701400
-3.20357000 3.33461000 -0.88627100
-3.22227000 3.34152000 -0.69851100
-3.31588000 3.38565000 -0.54714500
-3.31588000 3.38565000 -0.54714500
-3.47330000 3.47098000 -0.51921000
-3.40263000 3.68291000 -0.51930100
-3.25667000 3.62718000 -0.53625400
-3.54691000 3.75393000 -0.52794000
-3.44670000 3.92716000 -0.53037300
-3.32017000 3.88672000 -0.51896600
-3.19558000 3.85763000 -0.52701400
-3.35314000 4.09921000 -0.52211500
-3.24661000 4.07641000 -0.51523300
-3.29584000 4.23716000 -0.41584100
-3.20641000 4.20725000 -0.39835900
-3.29778000 4.24005000 -0.22588900
-3.20826000 4.21497000 -0.21663100
-3.29778000 4.24005000 -0.22588900
-3.39139000 4.26721000 -0.23001200
-3.41361000 4.24762000 -0.03335940
-3.31422000 4.21458000 -0.02514170
-3.39465000 4.26547000 -0.42034000
-3.39139000 4.26721000 -0.23001200
-3.49845000 4.30066000 -0.41234000
-3.49310000 4.30438000 -0.23727900
-3.46699000 4.13774000 -0.52615200
-3.57250000 4.21702000 -0.53094300
-3.64146000 4.36334000 -0.52911600
-3.59539000 4.39431000 -0.39907000
-3.57549000 3.99003000 -0.53830500
-3.69121000 4.10942000 -0.54183500
-3.76554000 4.30590000 -0.54881800
-3.78904000 4.55375000 -0.55202400
-3.65296000 4.57561000 -0.53091800
-3.80799000 4.01989000 -0.54966900
-3.88642000 4.25417000 -0.55573700
-3.91762000 4.52830000 -0.56073300
-3.91107000 4.81451000 -0.55360800
-3.77821000 4.81874000 -0.54336300
-4.03824000 4.50991000 -0.56442100
-4.03440000 4.81158000 -0.56021700
-4.15509000 4.49977000 -0.56952900
-4.14992000 4.81234000 -0.56700300
-4.26783000 4.49994000 -0.57642900
-4.25878000 4.81545000 -0.57373100
-4.37454000 4.50302000 -0.58133200
-4.36330000 4.81965000 -0.57763100
-4.47800000 4.50548000 -0.57630400
-4.46617000 4.82402000 -0.57332000
-4.45468000 5.15699000 -0.57045800
-4.51643000 4.82510000 -0.48631400
-4.50446000 5.15704000 -0.47801800
-4.53053000 4.82405000 -0.38896600
-4.52119000 5.15516000 -0.37900500
-4.53895000 4.82202000 -0.29039100
-4.53033000 5.15298000 -0.27968800
-4.51048000 5.48705000 -0.26619300
-4.53033000 5.15298000 -0.27968800
-4.53895000 4.82202000 -0.29039100
-4.53719000 4.81896000 -0.18903300
-4.53129000 5.15027000 -0.17836400
-4.52262000 4.81449000 -0.08652800
-4.51475000 5.14611000 -0.07569230
-4.43082000 4.80903000 -0.03969690
-4.52219000 4.49959000 -0.09109650
-4.42804000 4.49543000 -0.04598630
-4.31937000 4.48903000 -0.03813390
-4.32583000 4.80418000 -0.03444030
-4.20506000 4.48711000 -0.03392710
-4.21570000 4.80118000 -0.02997420
-4.08937000 4.49279000 -0.02842270
-4.10031000 4.80023000 -0.02410560
-3.97251000 4.50736000 -0.02100280
-3.97969000 4.80162000 -0.01465770
-3.85308000 4.80526000 -0.00264794
-3.84339000 5.08421000 0.00600504
-3.70720000 5.06755000 0.00840078
-3.68957000 5.32486000 0.01827140
-3.57879000 5.30065000 -0.06800770
-3.54638000 5.51714000 -0.05899480
-3.53424000 5.29468000 -0.20743200
