-0.49553900 -8.31860000 0.61801200
-0.43703000 -8.33772000 0.80208200
-0.39278100 -8.36379000 0.99913400
-0.23338800 -8.32417000 0.78383000
-0.19978300 -8.35531000 1.00240000
-0.18189900 -8.39150000 1.24842000
-0.37518600 -8.39328000 1.22171000
-0.00814682 -8.35036000 1.00417000
0.01967440 -8.40154000 1.25407000
0.18550900 -8.34480000 0.98622000
0.22527900 -8.39342000 1.23625000
0.37678600 -8.34634000 0.94332900
0.42828300 -8.38816000 1.19122000
0.62078600 -8.38595000 1.12264000
0.80056200 -8.38424000 1.03845000
0.14947700 -8.30321000 0.75852800
-0.04136610 -8.31680000 0.77645700
-0.08049280 -8.28220000 0.56907300
-0.27993300 -8.29276000 0.58596500
-0.34107100 -8.27522000 0.40648200
-0.57519700 -8.30477000 0.45387700
-0.65505400 -8.31004000 0.29215800
1.22916000 -8.35586000 -0.24740200
0.90376500 -8.31594000 -0.39297000
1.16871000 -8.35834000 -0.45786700
0.82351100 -8.32094000 -0.57937500
1.08067000 -8.35893000 -0.65856700
0.72447300 -8.33479000 -0.75826100
0.96800400 -8.37023000 -0.84594900
0.58189200 -8.28517000 -0.51172400
0.49434600 -8.30529000 -0.68864200
0.39746700 -8.32724000 -0.87243000
0.28217900 -8.28166000 -0.63623600
0.19746900 -8.31376000 -0.82950700
0.10539000 -8.34705000 -1.04052000
0.01266880 -8.30632000 -0.79043500
-0.07693590 -8.34035000 -1.00552000
-0.17604600 -8.39703000 -1.23422000
0.01203610 -8.38127000 -1.27132000
-0.24904100 -8.33953000 -0.95577100
-0.36032300 -8.39193000 -1.18143000
0.85662900 -8.11874000 0.73354700
0.87212500 -8.11461000 0.64875600
0.75323400 -8.11139000 0.65890800
0.77135300 -8.11834000 0.76659400
0.81613300 -8.12750000 0.85698600
0.91649200 -8.12535000 0.77749700
0.98037300 -8.12165000 0.66845600
-0.67939000 -8.09916000 -0.52592700
-0.60767200 -8.09797000 -0.56548900
-0.66614000 -8.10292000 -0.65230200
-0.74307800 -8.10333000 -0.56545600
-0.68059400 -8.09830000 -0.44266000
-0.57413600 -8.09557000 -0.46112900
-0.78370800 -8.10337000 -0.45548300
0.48748100 -8.12647000 -1.16628000
0.40486200 -8.12382000 -1.17060000
0.44025500 -8.11771000 -1.06869000
0.53810400 -8.12363000 -1.09585000
0.51340000 -8.13319000 -1.21938000
0.39915400 -8.13245000 -1.26174000
0.61002700 -8.13199000 -1.14100000
-0.50774500 -8.12745000 0.95553400
-0.42352600 -8.12545000 0.96305500
-0.43806900 -8.11948000 0.85616000
-0.54530100 -8.12433000 0.88125400
-0.54968400 -8.13400000 1.01452000
-0.43950500 -8.13403000 1.06192000
-0.63583800 -8.13191000 0.93208500
-0.04532900 7.59472000 -0.42619000
-0.03581060 7.31081000 -0.38013200
0.05130220 7.30927000 -0.39751700
0.04891990 7.59290000 -0.44632500
-0.13376400 7.59602000 -0.39229200
-0.11836700 7.31192000 -0.34831000
-0.11125800 7.02155000 -0.33319900
-0.03188670 7.02005000 -0.36815700
-0.19444000 7.31167000 -0.30451800
-0.18564300 7.02249000 -0.28727200
-0.21598600 7.59550000 -0.34573400
-0.26313700 7.31046000 -0.25125100
-0.25339400 7.02246000 -0.23457100
-0.29066900 7.59428000 -0.28788100
-0.32569200 7.30912000 -0.18762400
-0.31636800 7.02195000 -0.17562900
-0.35818700 7.59304000 -0.21975800
-0.37874400 7.30806000 -0.11621300
-0.37236100 7.02108000 -0.10766800
-0.41511900 7.59213000 -0.14160300
-0.42049700 7.30731000 -0.04018770
-0.41376000 7.01975000 -0.03414060
-0.46064200 7.59207000 -0.05565540
-0.45268800 7.30762000 0.04451620
-0.44330500 7.01894000 0.04679070
-0.49385700 7.59205000 0.03569480
-0.46941400 7.30705000 0.13033000
-0.45929000 7.01818000 0.13207800
-0.51233700 7.59121000 0.12694800
-0.47328400 7.30534000 0.21581800
-0.46193700 7.01595000 0.21549900
-0.51925600 7.59034000 0.21928800
-0.46876700 7.30289000 0.30191300
-0.45900100 7.01370000 0.29805100
-0.51252400 7.58865000 0.31236900
-0.46876700 7.30289000 0.30191300
-0.45586500 7.29964000 0.38827300
-0.44998600 7.01106000 0.38259600
-0.45900100 7.01370000 0.29805100
-0.51252400 7.58865000 0.31236900
-0.49190000 7.58584000 0.40516900
-0.43169600 7.29598000 0.47352700
-0.42655700 7.00885000 0.46254400
-0.46013900 7.58274000 0.49461200
-0.40831300 7.29169000 0.56149900
-0.39228600 7.00644000 0.53975800
-0.42580000 7.57910000 0.58285600
-0.35604700 7.28809000 0.63357700
-0.34159900 7.00403000 0.60717300
-0.37751300 7.57531000 0.66483800
-0.28750600 7.28448000 0.69136400
-0.27296600 7.00158000 0.66120100
-0.31032000 7.57266000 0.73420100
-0.20468500 7.28181000 0.73699900
-0.19091500 6.99855000 0.70773900
-0.22215100 7.57110000 0.77790100
-0.11784600 7.27840000 0.77589300
-0.10410400 6.99590000 0.73764200
-0.13250500 7.56820000 0.82047900
-0.03001000 7.27521000 0.80791000
-0.02542580 6.99278000 0.76348400
-0.03723880 7.56490000 0.85801400
0.06288690 7.27247000 0.82885800
0.05951620 6.98942000 0.78583400
0.06285590 7.55541000 0.88031500
0.15467300 7.27002000 0.83564700
0.14657300 6.98652000 0.79510000
0.15363200 7.55448000 0.88986000
0.24169300 7.26785000 0.82909100
0.22687500 6.98341000 0.79549800
0.25636000 7.56002000 0.88816200
0.32811300 7.26627000 0.81027100
0.30970000 6.98023000 0.78571000
0.35340000 7.55838000 0.86809600
0.40927900 7.26559000 0.77891700
0.39398400 6.97781000 0.76111300
0.44110500 7.55648000 0.83539600
0.48461100 7.26508000 0.73643000
0.47275000 6.97589000 0.72127200
0.52343500 7.55571000 0.78893700
0.55643600 7.26456000 0.68539500
0.54476300 6.97503000 0.67114800
0.59882200 7.55551000 0.73189900
0.62247900 7.26429000 0.62171100
0.60816900 6.97568000 0.60922900
0.66844800 7.55528000 0.66125900
0.67869300 7.26495000 0.55079800
0.66100100 6.97702000 0.53750900
0.72560300 7.55536000 0.58083300
0.72165300 7.26574000 0.47417600
0.69991500 6.97781000 0.46055900
0.76864200 7.55637000 0.49574300
0.75262100 7.26751000 0.38686700
0.72569600 6.97903000 0.37726600
0.80038100 7.55840000 0.40090400
0.76874900 7.27028000 0.29779600
0.74050800 6.98051000 0.29112500
0.81835300 7.56155000 0.30521800
0.77116200 7.27260000 0.20592900
0.74409100 6.98151000 0.20246700
0.82270300 7.56337000 0.20730100
0.75996500 7.27450000 0.11334000
0.73564000 6.98351000 0.11479200
0.80883100 7.55827000 0.10208200
0.75996500 7.27450000 0.11334000
0.73686300 7.27667000 0.02895880
0.71395300 6.98666000 0.03214570
0.73564000 6.98351000 0.11479200
0.80883100 7.55827000 0.10208200
0.78724600 7.55916000 0.01867320
0.70404800 7.27871000 -0.04961650
0.68236300 6.98938000 -0.04590800
0.75194300 7.56647000 -0.06674170
0.65770100 7.28116000 -0.12758700
0.63995200 6.99201000 -0.12271200
0.70248500 7.56893000 -0.15192600
0.60046600 7.28379000 -0.19982800
0.58542100 6.99511000 -0.19285000
0.64032500 7.57180000 -0.22885300
0.53379600 7.28765000 -0.26301900
0.51926300 6.99937000 -0.25156700
0.56755400 7.57552000 -0.29751300
0.45661700 7.29301000 -0.31622000
0.44217000 7.00355000 -0.29991600
0.48568300 7.57999000 -0.35575100
0.37554100 7.29818000 -0.35659300
0.36352300 7.00723000 -0.33956300
0.40501400 7.58372000 -0.39810800
0.29740200 7.30122000 -0.38263500
0.28660100 7.01147000 -0.36803300
0.32440000 7.58470000 -0.42773900
0.22271700 7.30389000 -0.39686600
0.21179600 7.01491000 -0.38346800
0.23593800 7.58642000 -0.44684900
0.14036500 7.30724000 -0.40205500
0.13287300 7.01687000 -0.38846100
0.14348300 7.58993000 -0.45306700
0.05025850 7.01828000 -0.38516000
0.05025850 7.01828000 -0.38516000
0.04908200 6.72684000 -0.37840200
0.12714200 6.72492000 -0.38677200
0.13287300 7.01687000 -0.38846100
-0.03188670 7.02005000 -0.36815700
-0.03049580 6.72881000 -0.36065800
-0.03299770 6.43675000 -0.36420600
0.04451660 6.43418000 -0.37837900
-0.11105300 6.73004000 -0.33155800
-0.11368000 6.43884000 -0.33594800
-0.11125800 7.02155000 -0.33319900
-0.18669800 6.73104000 -0.28939600
-0.18858800 6.43995000 -0.29474600
-0.18564300 7.02249000 -0.28727200
-0.25511700 6.73190000 -0.23861600
-0.25851100 6.44037000 -0.24675600
-0.25339400 7.02246000 -0.23457100
-0.31896800 6.73231000 -0.18076700
-0.32692400 6.44035000 -0.19174800
-0.31636800 7.02195000 -0.17562900
-0.37096500 6.73237000 -0.10797400
-0.37526200 6.44073000 -0.11601700
-0.37236100 7.02108000 -0.10766800
-0.40840100 6.73218000 -0.03212910
-0.40934700 6.44161000 -0.03702960
-0.41376000 7.01975000 -0.03414060
-0.43747400 6.73185000 0.04678860
-0.43857000 6.44218000 0.04413240
-0.44330500 7.01894000 0.04679070
-0.45311000 6.73127000 0.13424200
-0.45604700 6.44214000 0.13206900
-0.45929000 7.01818000 0.13207800
-0.45829400 6.72950000 0.21799500
-0.46378500 6.44158000 0.21802500
-0.46193700 7.01595000 0.21549900
-0.45612600 6.72708000 0.29661500
-0.46326200 6.43896000 0.29664100
-0.45900100 7.01370000 0.29805100
-0.45612600 6.72708000 0.29661500
-0.44657200 6.72535000 0.37708600
-0.45251700 6.43591000 0.37161600
-0.46326200 6.43896000 0.29664100
-0.45900100 7.01370000 0.29805100
-0.44998600 7.01106000 0.38259600
-0.42658100 6.72485000 0.45347500
-0.43237100 6.43303000 0.44473300
-0.42655700 7.00885000 0.46254400
-0.38840700 6.72401000 0.52152500
-0.39987600 6.43051000 0.51853700
-0.39228600 7.00644000 0.53975800
-0.34092500 6.72238000 0.58703600
-0.35028300 6.42802000 0.58980600
-0.34159900 7.00403000 0.60717300
-0.27786500 6.71898000 0.64800900
-0.28492500 6.42502000 0.65375700
-0.27296600 7.00158000 0.66120100
-0.19595900 6.71425000 0.69783300
-0.21053200 6.42199000 0.70795400
-0.19091500 6.99855000 0.70773900
-0.11421500 6.71044000 0.73746900
-0.13184700 6.41897000 0.75104000
-0.10410400 6.99590000 0.73764200
-0.03484780 6.70662000 0.76896600
-0.04859370 6.41582000 0.78189100
-0.02542580 6.99278000 0.76348400
0.05147430 6.70377000 0.78632400
0.03834000 6.41288000 0.80014600
0.05951620 6.98942000 0.78583400
0.13937700 6.70281000 0.78781200
0.12597200 6.41059000 0.80545700
0.14657300 6.98652000 0.79510000
0.21988400 6.70173000 0.77768700
0.21302200 6.40830000 0.79596200
0.22687500 6.98341000 0.79549800
0.29892200 6.69862000 0.76105300
0.29795100 6.40656000 0.76992000
0.30970000 6.98023000 0.78571000
0.38265600 6.69394000 0.73868600
0.38026300 6.40502000 0.73292500
0.39398400 6.97781000 0.76111300
0.46083400 6.69051000 0.70384000
0.45526900 6.40361000 0.69131500
0.47275000 6.97589000 0.72127200
0.52700800 6.68961000 0.65087800
0.51999600 6.40295000 0.64086400
0.54476300 6.97503000 0.67114800
0.58726300 6.69013000 0.59010800
0.57638300 6.40234000 0.57991300
0.60816900 6.97568000 0.60922900
0.63698900 6.69122000 0.51961900
0.62631400 6.40216000 0.50983700
0.66100100 6.97702000 0.53750900
0.67419600 6.69199000 0.44397600
0.66710000 6.40270000 0.43457000
0.69991500 6.97781000 0.46055900
0.69969900 6.69272000 0.36624400
0.69715200 6.40314000 0.35797900
0.72569600 6.97903000 0.37726600
0.71366500 6.69371000 0.28379000
0.71327300 6.40379000 0.27613900
0.74050800 6.98051000 0.29112500
0.71430700 6.69479000 0.19819400
0.71622900 6.40517000 0.19242000
0.74409100 6.98151000 0.20246700
0.70605400 6.69629000 0.11587200
0.70714400 6.40707000 0.10978400
0.73564000 6.98351000 0.11479200
0.70605400 6.69629000 0.11587200
0.68717900 6.69842000 0.03505940
0.68427800 6.40915000 0.02781660
0.70714400 6.40707000 0.10978400
0.73564000 6.98351000 0.11479200
0.71395300 6.98666000 0.03214570
0.65694600 6.70062000 -0.04218090
0.65202800 6.41119000 -0.05124950
0.68236300 6.98938000 -0.04590800
0.61781800 6.70292000 -0.11604500
0.61167000 6.41326000 -0.12479700
0.63995200 6.99201000 -0.12271200
0.56722300 6.70572000 -0.18342200
0.56051700 6.41515000 -0.19217300
0.58542100 6.99511000 -0.19285000
0.50378000 6.70856000 -0.24249600
0.50019100 6.41671000 -0.25339000
0.51926300 6.99937000 -0.25156700
0.42970400 6.71157000 -0.29842300
0.42880700 6.41994000 -0.30709700
0.44217000 7.00355000 -0.29991600
0.35385400 6.71493000 -0.33621700
0.35250500 6.42392000 -0.34275600
0.36352300 7.00723000 -0.33956300
0.28001700 6.71872000 -0.36426600
0.27745700 6.42703000 -0.36828100
0.28660100 7.01147000 -0.36803300
0.20515200 6.72230000 -0.38139100
0.20108900 6.42975000 -0.38561900
0.21179600 7.01491000 -0.38346800
0.12144600 6.43202000 -0.38717600
0.11298400 6.13722000 -0.41289600
0.19390100 6.13536000 -0.40676500
0.03426840 6.14021000 -0.40851900
0.02760840 5.84825000 -0.42469300
0.10436100 5.84518000 -0.43221500
-0.04578440 6.14368000 -0.39399200
-0.05159970 5.85087000 -0.40328200
-0.12727100 6.14614000 -0.36328600
-0.13274400 5.85265000 -0.36861100
-0.20438100 6.14744000 -0.31879600
-0.20984100 5.85408000 -0.32404500
-0.27331400 6.14806000 -0.26573300
-0.27773700 5.85546000 -0.27125600
-0.33415100 6.14821000 -0.20248000
-0.33769000 5.85600000 -0.20862700
-0.38620700 6.14863000 -0.13109800
-0.38837800 5.85623000 -0.13873400
-0.42671700 6.14870000 -0.05375760
-0.42906300 5.85572000 -0.06043080
-0.45713400 6.14734000 0.03103490
-0.46059900 5.85436000 0.02431090
-0.47752700 6.14558000 0.12061400
-0.48136100 5.85251000 0.11151600
-0.48700600 6.14425000 0.21050600
-0.49003200 5.85075000 0.19663900
-0.48548300 6.14327000 0.29518300
-0.48551600 5.85085000 0.28027500
-0.48548300 6.14327000 0.29518300
-0.47078000 6.14193000 0.37228100
-0.46889600 5.85077000 0.36072200
-0.48551600 5.85085000 0.28027500
-0.44349500 6.14011000 0.44549600
-0.44060400 5.84949000 0.43738100
-0.40320200 6.13826000 0.51460200
-0.40163400 5.84748000 0.50727900
-0.35009100 6.13652000 0.58114900
-0.34973000 5.84545000 0.57293800
-0.28603000 6.13453000 0.64142700
-0.28701200 5.84323000 0.63312600
-0.21396000 6.13238000 0.69338200
-0.21736300 5.84088000 0.68416800
-0.13621700 6.12987000 0.73529600
-0.14177900 5.83843000 0.72514200
-0.05526010 6.12729000 0.76516500
-0.06314380 5.83615000 0.75389100
0.02952960 6.12461000 0.78258700
0.02156870 5.83382000 0.77067500
0.11644100 6.12152000 0.78809900
0.10787700 5.83092000 0.77683000
0.20341300 6.11836000 0.78177700
0.19325600 5.82801000 0.77028700
0.28855500 6.11584000 0.76206900
0.27796900 5.82506000 0.75103900
0.37240400 6.11409000 0.73060600
0.35977800 5.82246000 0.72040500
0.44938700 6.11293000 0.68972500
0.43574900 5.82106000 0.67957500
0.51803000 6.11175000 0.63849700
0.50450800 5.82003000 0.62810400
0.57883000 6.11025000 0.57817200
0.56600400 5.81923000 0.56757900
0.62960600 6.10932000 0.50950800
0.61733400 5.81842000 0.49936500
0.67016000 6.10928000 0.43399900
0.65808200 5.81802000 0.42506100
0.69965600 6.10964000 0.35379000
0.68745400 5.81845000 0.34567300
0.71690500 6.11031000 0.27010500
0.70504600 5.81975000 0.26176800
0.72151900 6.11168000 0.18437800
0.71053900 5.82098000 0.17630100
0.71424300 6.11384000 0.09876400
0.70382500 5.82326000 0.09233940
0.71424300 6.11384000 0.09876400
0.69427700 6.11659000 0.01425130
0.68382000 5.82603000 0.00897178
0.70382500 5.82326000 0.09233940
0.66301200 6.11942000 -0.06800840
0.65195300 5.82917000 -0.07291320
0.62062100 6.12168000 -0.14471900
0.60904600 5.83168000 -0.14997400
0.56738400 6.12362000 -0.21475000
0.55628000 5.83362000 -0.22015200
0.50523700 6.12548000 -0.27454500
0.49516500 5.83550000 -0.28090400
0.43310400 6.12791000 -0.32334700
0.42479900 5.83746000 -0.33242500
0.35470000 6.13089000 -0.36155300
0.34784500 5.83950000 -0.37482700
0.27456200 6.13347000 -0.38969700
0.26670800 5.84144000 -0.40532100
0.18398900 5.84302000 -0.42477700
0.17053400 5.55057000 -0.43497900
0.25384500 5.54826000 -0.41449500
0.09197120 5.55297000 -0.44230000
0.07635830 5.25927000 -0.45417600
0.16008300 5.25683000 -0.44641300
0.01561400 5.55478000 -0.43462200
-0.00407655 5.26057000 -0.44801800
-0.06510880 5.55594000 -0.41300300
-0.08659710 5.26135000 -0.42798800
-0.14692400 5.55699000 -0.37935600
-0.16820300 5.26284000 -0.39583900
-0.22220400 5.55845000 -0.33624400
-0.24401600 5.26395000 -0.35304100
-0.28949600 5.55961000 -0.28227600
-0.31319700 5.26404000 -0.29836200
-0.35078800 5.55989000 -0.21938800
-0.37540600 5.26423000 -0.23554700
-0.40050900 5.56005000 -0.15023300
-0.42592900 5.26450000 -0.16534200
-0.44096000 5.55961000 -0.07288910
-0.46771600 5.26320000 -0.08704470
-0.47055500 5.55929000 0.01003950
-0.49725000 5.26100000 -0.00450131
-0.48971600 5.55822000 0.09751040
-0.51585000 5.25902000 0.08513760
-0.49719100 5.55601000 0.18155500
-0.52365000 5.25700000 0.17137300
-0.49072000 5.55436000 0.26538500
-0.51647800 5.25402000 0.25726800
-0.49072000 5.55436000 0.26538500
-0.47272100 5.55276000 0.34893800
-0.49771900 5.25137000 0.34275800
-0.51647800 5.25402000 0.25726800
-0.44328800 5.55133000 0.42903800
-0.46584800 5.24969000 0.42576200
-0.40374100 5.54957000 0.50173800
-0.42452000 5.24898000 0.50193700
-0.35211400 5.54790000 0.56964200
-0.37120500 5.24836000 0.57144900
-0.29135100 5.54643000 0.63086000
-0.30765400 5.24767000 0.63517300
-0.22373100 5.54482000 0.68126700
-0.23948800 5.24666000 0.68762600
-0.15012600 5.54338000 0.72210700
-0.16653900 5.24625000 0.72772200
-0.07306160 5.54199000 0.75012700
-0.08690120 5.24583000 0.75604300
0.01077260 5.54016000 0.76657300
-0.00239534 5.24402000 0.77346100
0.09768560 5.53809000 0.77225600
0.08616170 5.24236000 0.77811900
0.18346400 5.53525000 0.76559900
0.17325400 5.24039000 0.77230100
0.26832000 5.53259000 0.74716600
0.25871900 5.23848000 0.75275900
0.34813000 5.53024000 0.71693100
0.34038300 5.23650000 0.72252500
0.42311400 5.52901000 0.67598700
0.41523500 5.23502000 0.68094800
0.49140100 5.52816000 0.62370800
0.48458700 5.23389000 0.62734300
0.55403900 5.52743000 0.56136100
0.54821800 5.23284000 0.56313300
0.60656400 5.52674000 0.49254900
0.60154600 5.23229000 0.49264700
0.64759300 5.52655000 0.41824900
0.64337300 5.23207000 0.41644400
0.67705400 5.52720000 0.33884900
0.67323100 5.23275000 0.33549100
0.69503500 5.52822000 0.25374800
0.69188200 5.23377000 0.24730400
0.70162400 5.52931000 0.16839200
0.69971000 5.23489000 0.15965600
0.69484500 5.53093000 0.08627430
0.69400000 5.23641000 0.07741920
0.69484500 5.53093000 0.08627430
0.67520700 5.53348000 0.00410448
0.67488000 5.23827000 -0.00378445
0.69400000 5.23641000 0.07741920
0.64239300 5.53647000 -0.07732960
0.64141200 5.24043000 -0.08555740
0.59885600 5.53898000 -0.15614400
0.59724300 5.24286000 -0.16491700
0.54660900 5.54107000 -0.22642800
0.54349000 5.24554000 -0.23576900
0.48559800 5.54264000 -0.28704400
0.48060800 5.24719000 -0.29855100
0.41535400 5.54418000 -0.33898900
0.41026100 5.24824000 -0.35121600
0.33718300 5.54609000 -0.38176400
0.33181400 5.25021000 -0.39348600
0.24652400 5.25347000 -0.42594400
0.24376900 4.96051000 -0.44477700
0.33342100 4.95820000 -0.41256800
0.15097800 4.96333000 -0.46653200
0.14637400 4.67369000 -0.49074200
0.24364500 4.67095000 -0.47065400
0.06194960 4.96508000 -0.47565900
0.04925760 4.67658000 -0.50122600
-0.02351340 4.96603000 -0.46991100
-0.04202250 4.67781000 -0.49705500
-0.10779400 4.96727000 -0.45134500
-0.12775400 4.67790000 -0.48019900
-0.19086800 4.96972000 -0.41794700
-0.21155000 4.67788000 -0.44619100
-0.27061400 4.97160000 -0.37393700
-0.29361200 4.67996000 -0.39931900
-0.34197000 4.97229000 -0.31874800
-0.36976800 4.68203000 -0.34070000
-0.40458800 4.97290000 -0.25556400
-0.43509200 4.68294000 -0.27580200
-0.45703500 4.97339000 -0.18136600
-0.48885300 4.68259000 -0.19996600
-0.50244900 4.97299000 -0.09896480
-0.53451600 4.68306000 -0.11393600
-0.53382700 4.97174000 -0.01502400
-0.56773600 4.68349000 -0.02573650
-0.55265300 4.97063000 0.07414120
-0.58699000 4.68298000 0.06482700
-0.55919900 4.96951000 0.16437600
-0.59293000 4.68168000 0.15788100
-0.55245400 4.96696000 0.25468300
-0.58513200 4.68036000 0.25165400
-0.55245400 4.96696000 0.25468300
-0.53261600 4.96412000 0.34315200
-0.56430500 4.67859000 0.34490300
-0.58513200 4.68036000 0.25165400
-0.50038200 4.96173000 0.42807000
-0.53164900 4.67661000 0.43232500
-0.45586700 4.96001000 0.50707900
-0.48444000 4.67406000 0.51547200
-0.39917800 4.95755000 0.58094500
-0.42586600 4.67126000 0.59396500
-0.33338200 4.95565000 0.64761900
-0.35876000 4.66925000 0.66284400
-0.26314700 4.95461000 0.70174800
-0.28481600 4.66780000 0.71974100
-0.18760700 4.95333000 0.74226700
-0.20462200 4.66559000 0.76415300
-0.10307600 4.95152000 0.77205200
-0.11804300 4.66294000 0.79639200
-0.01580420 4.94992000 0.79152400
-0.02849920 4.66136000 0.81652200
0.07173600 4.94909000 0.79577300
0.05969890 4.65933000 0.82131900
0.16334300 4.94810000 0.78811700
0.15651300 4.65717000 0.81098800
0.25124300 4.94605000 0.76852400
0.24731300 4.65594000 0.79270200
0.33498300 4.94590000 0.73735600
0.33126500 4.65516000 0.75908800
0.41163000 4.94509000 0.69360900
0.41244300 4.65452000 0.71170800
0.48448500 4.94362000 0.63722200
0.48828900 4.65363000 0.65362100
0.55047900 4.94278000 0.57146500
0.55474700 4.65369000 0.58633800
0.60513000 4.94252000 0.49856900
0.61033000 4.65472000 0.51014200
0.64875000 4.94208000 0.41998600
0.65596200 4.65612000 0.42655900
0.67903400 4.94190000 0.33588100
0.68872000 4.65661000 0.33852200
0.69938400 4.94225000 0.24347300
0.70938700 4.65724000 0.24454500
0.70786800 4.94390000 0.15500900
0.71722600 4.65840000 0.15317900
0.70058900 4.94552000 0.06926060
0.70855600 4.65858000 0.05800120
0.70058900 4.94552000 0.06926060
0.68105300 4.94549000 -0.01591810
0.69120300 4.65771000 -0.03380350
0.70855600 4.65858000 0.05800120
0.64784600 4.94681000 -0.09967810
0.65944400 4.65829000 -0.11686700
0.60347300 4.94933000 -0.17976500
0.61376200 4.66009000 -0.19824800
0.54750600 4.95180000 -0.25271200
0.55632200 4.66228000 -0.27350700
0.48348000 4.95436000 -0.31830200
0.49160500 4.66533000 -0.33896000
0.41283200 4.95670000 -0.37109400
0.41624900 4.66805000 -0.39296500
0.33277500 4.66979000 -0.43793300
0.33441700 4.37683000 -0.46754700
0.42210600 4.37434000 -0.42152400
0.24199300 4.37817000 -0.50337800
0.24672100 4.08251000 -0.54521100
0.34384800 4.07959000 -0.50763600
0.14549200 4.38040000 -0.52358900
0.14778400 4.08548000 -0.56612300
0.04388120 4.38448000 -0.53195900
0.04115230 4.08809000 -0.57315100
-0.05520510 4.38715000 -0.52733700
-0.06341550 4.09110000 -0.56770200
-0.14843300 4.38896000 -0.51004400
-0.16133200 4.09482000 -0.54720000
-0.23502800 4.38936000 -0.47834800
-0.25484400 4.09743000 -0.51256300
-0.31613700 4.39061000 -0.43058700
-0.34064200 4.09906000 -0.46335500
-0.39628100 4.39211000 -0.36789600
-0.42464400 4.09997000 -0.39753700
-0.46635500 4.39213000 -0.29748900
-0.49952000 4.10041000 -0.32274500
-0.52455300 4.39105000 -0.21846800
-0.56163000 4.10049000 -0.23890300
-0.57133400 4.39068000 -0.13013400
-0.61245000 4.09960000 -0.14573100
-0.60622000 4.39066000 -0.03715530
-0.64951900 4.09888000 -0.04841060
-0.62697900 4.38997000 0.05909010
-0.67188600 4.09848000 0.05528970
-0.63449700 4.38808000 0.15509000
-0.68225100 4.09685000 0.15740100
-0.62591400 4.38697000 0.25022800
-0.67437400 4.09488000 0.25459000
-0.62591400 4.38697000 0.25022800
-0.60339100 4.38619000 0.34719200
-0.65053100 4.09300000 0.35550000
-0.67437400 4.09488000 0.25459000
-0.56790500 4.38471000 0.43909500
-0.61298500 4.09066000 0.45269700
-0.51839600 4.38237000 0.52697800
-0.56138800 4.08784000 0.54418000
-0.45745900 4.38083000 0.60816100
-0.49693300 4.08608000 0.62813200
-0.38611900 4.37928000 0.67997700
-0.41962200 4.08413000 0.70462800
-0.30790100 4.37723000 0.74021000
-0.33689100 4.08298000 0.76876800
-0.22293500 4.37537000 0.78772400
-0.24612300 4.08197000 0.81887800
-0.13260900 4.37346000 0.82174700
-0.15057300 4.07997000 0.85535400
-0.03735970 4.37180000 0.84293000
-0.04791180 4.07731000 0.87713500
0.05768400 4.36850000 0.84982000
0.05654020 4.07511000 0.88535900
0.15485600 4.36586000 0.84160900
0.15724400 4.07369000 0.87896600
0.24983700 4.36542000 0.82071100
0.25762100 4.07236000 0.85595600
0.33943800 4.36351000 0.78669200
0.35517600 4.07091000 0.81923000
0.42336500 4.36154000 0.73817700
0.44657900 4.06896000 0.76895200
0.50112700 4.36046000 0.67885900
0.52765500 4.06792000 0.70932700
0.56791600 4.36089000 0.61020400
0.59760700 4.06665000 0.63749500
0.62320300 4.36147000 0.53079700
0.65696400 4.06486000 0.55399000
0.66941800 4.36221000 0.44174700
0.70553400 4.06418000 0.46162800
0.70319000 4.36347000 0.34895300
0.73962100 4.06473000 0.36632400
0.72323200 4.36521000 0.25083000
0.75807100 4.06513000 0.26339800
0.73042900 4.36633000 0.15166800
0.76338200 4.06655000 0.15619800
0.72302600 4.36685000 0.04954990
0.75466100 4.06812000 0.04819410
0.72302600 4.36685000 0.04954990
0.70566300 4.36831000 -0.04665800
0.73361300 4.07025000 -0.05393920
0.75466100 4.06812000 0.04819410
0.67212900 4.36924000 -0.13434600
0.69559500 4.07230000 -0.15089400
0.62607600 4.37009000 -0.21969600
0.64729800 4.07494000 -0.24300700
0.56787000 4.37198000 -0.29660600
0.58556500 4.07690000 -0.32512800
0.49907600 4.37348000 -0.36489500
0.51146600 4.07813000 -0.40039300
0.43373300 4.07914000 -0.46075400
0.45402400 3.78510000 -0.50582500
0.54171400 3.78209000 -0.44153800
0.36048600 3.78605000 -0.55910700
0.38559700 3.48776000 -0.62130100
0.48675800 3.48529000 -0.56286900
0.26091600 3.78809000 -0.59447500
0.27674900 3.48872000 -0.65827200
0.15025400 3.78878000 -0.61603000
0.15363300 3.48928000 -0.68271900
0.03604830 3.79022000 -0.62584900
0.03312570 3.49281000 -0.69395700
-0.07399640 3.79400000 -0.61977400
-0.08813500 3.49647000 -0.68490700
-0.17952900 3.79634000 -0.59672000
-0.20742500 3.49847000 -0.66148600
-0.27963600 3.79894000 -0.56103400
-0.31469000 3.50078000 -0.62471900
-0.37011300 3.80093000 -0.50779600
-0.41302000 3.50103000 -0.56802800
-0.45860500 3.80186000 -0.43858000
-0.50690700 3.50098000 -0.49537000
-0.53608700 3.80291000 -0.35908600
-0.58874500 3.50118000 -0.41008500
-0.60227200 3.80300000 -0.26689000
-0.65965600 3.50080000 -0.30989000
-0.65834500 3.80269000 -0.16622500
-0.71880600 3.50138000 -0.20064700
-0.69778900 3.80281000 -0.06352540
-0.76120800 3.50190000 -0.08911530
-0.72173500 3.80311000 0.04825700
-0.78592500 3.50142000 0.03049410
-0.73406600 3.80336000 0.15858400
-0.79649000 3.50300000 0.15250700
-0.72594800 3.80120000 0.26295200
-0.78863100 3.50397000 0.27113200
-0.72594800 3.80120000 0.26295200
-0.70270000 3.79852000 0.37061900
-0.76617700 3.50455000 0.38608400
-0.78863100 3.50397000 0.27113200
-0.66382700 3.79648000 0.47444300
-0.72419800 3.50399000 0.49717200
-0.61090100 3.79398000 0.57130200
-0.66720300 3.50295000 0.60313400
-0.54293100 3.79157000 0.65986300
-0.59445300 3.50133000 0.69960200
-0.46321100 3.78962000 0.74021400
-0.51039500 3.50063000 0.78589400
-0.37440200 3.78905000 0.80614800
-0.41510800 3.49916000 0.85690300
-0.27523200 3.78797000 0.86007500
-0.30811000 3.49725000 0.91525400
-0.17016300 3.78604000 0.90002900
-0.19432200 3.49571000 0.95815900
-0.06021560 3.78363000 0.92513000
-0.07587780 3.49499000 0.98441700
0.05005230 3.78221000 0.93361800
0.04383510 3.49433000 0.99369300
0.15998600 3.78079000 0.92554900
0.16370900 3.49203000 0.98548500
0.26988800 3.77897000 0.90115500
0.28212300 3.49005000 0.95865400
0.37590100 3.77749000 0.86183200
0.39734300 3.48859000 0.91591400
0.47468500 3.77700000 0.80897600
0.50459400 3.48776000 0.85739100
0.56297400 3.77633000 0.74278500
0.60389800 3.48717000 0.78303200
0.64278600 3.77427000 0.66491500
0.69317200 3.48717000 0.69738000
0.70764700 3.77284000 0.57894700
0.76456600 3.48768000 0.60555600
0.75792600 3.77329000 0.48347900
0.81961500 3.48768000 0.50219100
0.79372000 3.77283000 0.38017500
0.86124900 3.48583000 0.38774800
0.81503900 3.77120000 0.27136700
0.88656200 3.48396000 0.27240000
0.81952000 3.77166000 0.15907100
0.89190900 3.48304000 0.15466700
0.80892200 3.77294000 0.04406930
0.87970100 3.48316000 0.03383230
0.80892200 3.77294000 0.04406930
0.78441400 3.77472000 -0.06605300
0.84988500 3.48374000 -0.08598740
0.87970100 3.48316000 0.03383230
0.74199300 3.77492000 -0.17076000
0.80350100 3.48275000 -0.20339100
0.68744600 3.77625000 -0.27084100
0.74681700 3.48203000 -0.31067300
0.61952900 3.77864000 -0.36174000
0.67288100 3.48318000 -0.40502900
0.58580900 3.48457000 -0.49113200
0.63866900 3.18853000 -0.56204100
0.73432300 3.19022000 -0.46370100
0.53325400 3.18701000 -0.63933800
0.58965800 2.89338000 -0.73952300
0.70508600 2.89676000 -0.65386400
0.41866700 3.18808000 -0.70121700
0.45956300 2.89136000 -0.80895000
0.29525000 3.18782000 -0.74503000
0.31902700 2.89104000 -0.85933700
0.16459000 3.18885000 -0.77198400
0.17562200 2.89215000 -0.89125600
0.03150370 3.19353000 -0.77982400
0.03012700 2.89425000 -0.89804200
-0.10719700 3.19875000 -0.77049900
-0.12365000 2.89890000 -0.88438000
-0.23864800 3.20458000 -0.74623400
-0.26879000 2.90593000 -0.85412500
-0.35790600 3.20902000 -0.70459900
-0.40361500 2.91086000 -0.80356600
-0.46793800 3.21009000 -0.64458500
-0.52743300 2.91324000 -0.73593700
-0.56887600 3.21032000 -0.56669000
-0.63995700 2.91314000 -0.64868600
-0.65752600 3.20937000 -0.47406100
-0.73918100 2.91250000 -0.54712400
-0.73425500 3.20813000 -0.36561100
-0.82421600 2.90973000 -0.42805500
-0.79697100 3.20676000 -0.24594200
-0.89458000 2.90671000 -0.29641600
-0.84471800 3.20548000 -0.12022800
-0.94815200 2.90479000 -0.15652300
-0.87335800 3.20458000 0.00875038
-0.98020700 2.90507000 -0.01552650
-0.88310100 3.20639000 0.13918300
-0.98937600 2.90676000 0.12802700
-0.87228100 3.20820000 0.26896100
-0.97804700 2.90656000 0.27329200
-0.87228100 3.20820000 0.26896100
-0.84391700 3.21018000 0.39629600
-0.94645100 2.90632000 0.41391400
-0.97804700 2.90656000 0.27329200
-0.79664700 3.21092000 0.52006000
-0.89200900 2.90722000 0.54943400
-0.73361400 3.21184000 0.63722100
-0.81852900 2.90885000 0.68103600
-0.65477200 3.21164000 0.74181600
-0.73108800 2.91023000 0.79801700
-0.56094100 3.21140000 0.83652300
-0.62592200 2.91017000 0.90265000
-0.45622000 3.21007000 0.91680300
-0.51014000 2.91060000 0.99207400
-0.34087900 3.20935000 0.98171400
-0.38236700 2.91152000 1.06303000
-0.21969400 3.20832000 1.02858000
-0.24747100 2.91232000 1.11625000
-0.09335750 3.20717000 1.05580000
-0.10945100 2.91194000 1.14848000
0.03835820 3.20615000 1.06519000
0.03345450 2.91011000 1.15963000
0.16937000 3.20440000 1.05731000
0.17780400 2.90790000 1.15000000
0.29590500 3.20148000 1.02811000
0.31888200 2.90496000 1.11884000
0.42258400 3.19897000 0.98048400
0.46012600 2.90188000 1.06626000
0.53976500 3.19678000 0.91698900
0.58902300 2.90129000 0.99835300
0.64869300 3.19692000 0.83593000
0.70576800 2.90019000 0.91065700
0.74523200 3.19938000 0.74154100
0.80950300 2.90005000 0.80341900
0.82447100 3.20009000 0.63651600
0.90074000 2.90051000 0.68049500
0.88956100 3.19884000 0.51882600
0.97492700 2.90128000 0.54912700
0.93970500 3.19938000 0.39422900
1.02764000 2.90586000 0.41242800
0.96775600 3.20034000 0.27031900
1.05820000 2.91037000 0.27103900
0.97476100 3.19947000 0.14295500
1.06905000 2.91065000 0.12675500
0.96175900 3.19796000 0.01219650
1.05678000 2.90890000 -0.01806230
0.96175900 3.19796000 0.01219650
0.93017500 3.19586000 -0.11775100
1.02550000 2.90660000 -0.16062600
1.05678000 2.90890000 -0.01806230
0.87989100 3.19397000 -0.24557100
0.97163200 2.90349000 -0.29941500
0.81818200 3.19249000 -0.36035800
0.90341200 2.90176000 -0.42718800
0.81017400 2.89741000 -0.54426400
0.90950600 2.60689000 -0.64527200
1.01160000 2.61151000 -0.51092700
0.79072800 2.60622000 -0.76525700
0.89730500 2.33444000 -0.90618000
1.03282000 2.33447000 -0.77069800
0.65783700 2.60284000 -0.86499900
0.74411100 2.33266000 -1.02303000
0.51112100 2.60049000 -0.94563300
0.57705200 2.33216000 -1.11454000
0.35070800 2.60040000 -1.00313000
0.39388900 2.33101000 -1.18078000
0.18489100 2.60348000 -1.04065000
0.20024200 2.33210000 -1.22251000
0.02073830 2.60423000 -1.04999000
0.00825067 2.33525000 -1.23561000
-0.15074700 2.60742000 -1.03625000
-0.18706600 2.34001000 -1.22158000
-0.31497800 2.61213000 -1.00104000
-0.37409200 2.34562000 -1.18223000
-0.46912800 2.61681000 -0.94438500
-0.54789900 2.35023000 -1.11761000
-0.61032100 2.61911000 -0.86617900
-0.71127500 2.34908000 -1.02530000
-0.73875500 2.61719000 -0.76683700
-0.86258600 2.34542000 -0.91007300
-0.85251000 2.61471000 -0.64921600
-0.99589100 2.34209000 -0.77499800
-0.95165200 2.61163000 -0.51326200
-1.11111000 2.33854000 -0.61834500
-1.03256000 2.60795000 -0.36323300
-1.20523000 2.33602000 -0.44564900
-1.09418000 2.60750000 -0.20548000
-1.27481000 2.33799000 -0.26551900
-1.12842000 2.60923000 -0.04530980
-1.31280000 2.33927000 -0.07887040
-1.13792000 2.60936000 0.12230000
-1.32548000 2.33820000 0.11964300
-1.12750000 2.60911000 0.29032200
-1.31374000 2.34010000 0.31456900
-1.12750000 2.60911000 0.29032200
-1.09283000 2.60939000 0.44841500
-1.27438000 2.34204000 0.49895900
-1.31374000 2.34010000 0.31456900
-1.02920000 2.60813000 0.60124400
-1.20500000 2.33941000 0.67585000
-0.94517600 2.60822000 0.75174100
-1.11078000 2.33729000 0.84526000
-0.84412100 2.60996000 0.88466400
-0.99317400 2.33662000 0.99708100
-0.72419700 2.61059000 1.00243000
-0.85313600 2.33617000 1.13160000
-0.59133500 2.61172000 1.10256000
-0.69893900 2.33657000 1.24646000
-0.44507600 2.61330000 1.18263000
-0.52979100 2.33716000 1.33700000
-0.29075200 2.61581000 1.24236000
-0.34952600 2.34022000 1.40413000
-0.13257700 2.61679000 1.27897000
-0.16474100 2.34242000 1.44621000
0.02956900 2.61562000 1.29276000
0.02235600 2.34321000 1.46228000
0.19178500 2.61395000 1.28297000
0.20836300 2.34307000 1.45167000
0.35266600 2.61150000 1.24757000
0.39273000 2.34114000 1.41091000
0.51119500 2.61075000 1.18970000
0.57345500 2.34017000 1.34352000
0.65585900 2.61081000 1.10976000
0.74098500 2.33915000 1.25100000
0.79053100 2.60893000 1.01008000
0.89680700 2.33788000 1.13445000
0.90759200 2.60595000 0.89135500
1.03264000 2.33657000 1.00137000
1.01059000 2.60709000 0.75212800
1.14673000 2.33462000 0.84388400
1.09192000 2.60867000 0.60381700
1.23937000 2.33431000 0.67097700
1.14777000 2.61021000 0.44678400
1.30678000 2.33326000 0.48855300
1.18225000 2.61319000 0.27934300
1.34790000 2.33361000 0.29823400
1.19717000 2.61736000 0.11203700
1.36114000 2.33705000 0.10698700
1.18426000 2.61838000 -0.04983090
1.34446000 2.33872000 -0.08168430
1.18426000 2.61838000 -0.04983090
1.14877000 2.61715000 -0.21092000
1.30253000 2.33887000 -0.27072800
1.34446000 2.33872000 -0.08168430
1.09059000 2.61300000 -0.36497000
1.24036000 2.33788000 -0.44693800
1.14780000 2.33570000 -0.61428700
1.31137000 2.07768000 -0.73484700
1.41897000 2.07891000 -0.54038900
1.17942000 2.07904000 -0.91410300
1.36317000 1.84459000 -1.08808000
1.51760000 1.84168000 -0.88174000
1.02326000 2.07956000 -1.07039000
1.18106000 1.84724000 -1.26912000
0.84858000 2.08140000 -1.20396000
0.97885100 1.85088000 -1.42165000
0.65410300 2.08076000 -1.30632000
0.75211000 1.84798000 -1.54088000
0.44065200 2.08066000 -1.38576000
0.50355700 1.84765000 -1.63310000
0.22030400 2.08349000 -1.43618000
0.24680200 1.85275000 -1.69056000
0.00017091 2.08546000 -1.45104000
-0.00783234 1.85842000 -1.71018000
-0.22315300 2.09181000 -1.43494000
-0.26311800 1.86491000 -1.69063000
-0.43620500 2.09774000 -1.38780000
-0.51141500 1.86994000 -1.63549000
-0.63901300 2.10013000 -1.31071000
-0.75017400 1.87056000 -1.54602000
-0.83196300 2.09931000 -1.20604000
-0.97496800 1.87057000 -1.42384000
-1.00798000 2.09657000 -1.07503000
-1.18076000 1.86955000 -1.27091000
-1.16291000 2.09273000 -0.91953800
-1.36163000 1.86917000 -1.09140000
-1.29728000 2.09121000 -0.73980400
-1.51571000 1.86831000 -0.88382000
-1.40397000 2.09028000 -0.54200800
-1.63994000 1.86734000 -0.65454400
-1.48066000 2.09187000 -0.33338300
-1.72683000 1.86968000 -0.41268100
-1.52549000 2.09132000 -0.11254400
-1.77881000 1.87014000 -0.15689000
-1.54336000 2.09477000 0.11704000
-1.79523000 1.87359000 0.10565000
-1.52675000 2.09781000 0.34044100
-1.77420000 1.87553000 0.36607100
-1.52675000 2.09781000 0.34044100
-1.48050000 2.10057000 0.55714700
-1.71849000 1.87874000 0.61955100
-1.77420000 1.87553000 0.36607100
-1.40307000 2.09956000 0.76256000
-1.62732000 1.87994000 0.86036800
-1.29608000 2.09688000 0.95585500
-1.50390000 1.87911000 1.08645000
-1.16227000 2.09471000 1.13132000
-1.35127000 1.87780000 1.28954000
-1.00256000 2.09209000 1.28548000
-1.16932000 1.87228000 1.46909000
-0.82455200 2.08995000 1.41664000
-0.96506200 1.86753000 1.62202000
-0.62935900 2.08750000 1.52053000
-0.74160500 1.86302000 1.74506000
-0.42064200 2.08790000 1.59780000
-0.50304000 1.86094000 1.83526000
-0.20616700 2.08935000 1.64652000
-0.25566100 1.86065000 1.89041000
0.01011090 2.09094000 1.66408000
-0.00557764 1.86409000 1.90816000
0.22532400 2.09202000 1.65157000
0.24461700 1.86699000 1.89308000
0.43846900 2.09033000 1.60464000
0.49147600 1.86353000 1.84109000
0.64574900 2.08867000 1.52733000
0.73028500 1.86115000 1.75143000
0.84143000 2.08529000 1.42048000
0.96113000 1.85643000 1.62755000
1.02097000 2.08356000 1.28669000
1.17054000 1.85445000 1.47329000
1.17824000 2.08362000 1.12938000
1.35497000 1.85191000 1.28803000
1.31030000 2.08077000 0.95066600
1.51043000 1.84820000 1.08200000
1.41695000 2.07896000 0.75122000
1.63407000 1.84330000 0.85202400
1.49643000 2.07705000 0.53961800
1.72760000 1.83956000 0.60572100
1.54498000 2.07616000 0.32216800
1.78552000 1.83819000 0.35247100
1.55988000 2.07718000 0.10175000
1.80299000 1.83881000 0.09410740
1.54255000 2.07712000 -0.11804300
1.78610000 1.84045000 -0.16281000
1.54255000 2.07712000 -0.11804300
1.49441000 2.07815000 -0.33564300
1.73031000 1.83989000 -0.41298100
1.78610000 1.84045000 -0.16281000
1.64033000 1.84110000 -0.65533700
1.88811000 1.66872000 -0.78182200
1.99342000 1.66561000 -0.49968700
1.74625000 1.67485000 -1.04050000
1.96093000 1.53433000 -1.18810000
2.12575000 1.53036000 -0.90027000
1.56877000 1.67762000 -1.27615000
1.75804000 1.53826000 -1.45436000
1.35886000 1.67798000 -1.48441000
1.52285000 1.54141000 -1.68972000
1.12183000 1.68009000 -1.66131000
1.25339000 1.54461000 -1.88798000
0.86019500 1.67654000 -1.80488000
0.95640200 1.54784000 -2.05082000
0.57739400 1.67697000 -1.91465000
0.64288300 1.55565000 -2.17403000
0.28450200 1.68074000 -1.98235000
0.31732200 1.56226000 -2.25153000
-0.01019010 1.68348000 -2.00501000
-0.01595870 1.56691000 -2.27991000
-0.30747000 1.68690000 -1.98216000
-0.35240900 1.57145000 -2.25772000
-0.59928200 1.69113000 -1.91874000
-0.68270600 1.57539000 -2.18462000
-0.87819800 1.69342000 -1.81692000
-0.99859700 1.58172000 -2.06699000
-1.14033000 1.69361000 -1.67666000
-1.29427000 1.58599000 -1.90888000
-1.38051000 1.69411000 -1.49920000
-1.56483000 1.58722000 -1.70884000
-1.58931000 1.69553000 -1.28819000
-1.80005000 1.58857000 -1.46911000
-1.76656000 1.69691000 -1.04755000
-1.99878000 1.58901000 -1.19848000
-1.90826000 1.69770000 -0.78413300
-2.15579000 1.58634000 -0.90303200
-2.00677000 1.69473000 -0.50531800
-2.26905000 1.58392000 -0.58873600
-2.06692000 1.69326000 -0.20905500
-2.33825000 1.58197000 -0.25765700
-2.08444000 1.69413000 0.09181890
-2.35845000 1.58046000 0.07971090
-2.05953000 1.69429000 0.39370400
-2.33162000 1.57724000 0.42015100
-2.05953000 1.69429000 0.39370400
-1.99292000 1.69541000 0.68851200
-2.25805000 1.57477000 0.75429700
-2.33162000 1.57724000 0.42015100
-1.88367000 1.69713000 0.96981500
-2.13345000 1.57193000 1.07396000
-1.73781000 1.69876000 1.23276000
-1.96402000 1.57075000 1.37264000
-1.55931000 1.69879000 1.46944000
-1.75694000 1.57023000 1.64129000
-1.34903000 1.69639000 1.67914000
-1.51559000 1.56728000 1.87874000
-1.11448000 1.69298000 1.85684000
-1.25017000 1.56442000 2.08036000
-0.85907000 1.69170000 1.99880000
-0.96597400 1.56327000 2.23741000
-0.58861900 1.69150000 2.10048000
-0.66646800 1.55996000 2.34917000
-0.30957900 1.68974000 2.16209000
-0.35905900 1.55563000 2.41988000
-0.02557760 1.68871000 2.17990000
-0.04721230 1.55132000 2.44242000
0.26396100 1.69343000 2.15881000
0.27641500 1.54990000 2.41627000
0.54785200 1.69302000 2.10117000
0.59831800 1.55104000 2.34784000
0.82165800 1.68611000 2.00183000
0.90920800 1.55160000 2.24049000
1.09036000 1.68069000 1.86057000
1.21156000 1.54700000 2.08424000
1.33571000 1.67550000 1.68212000
1.49394000 1.54192000 1.88560000
1.55369000 1.67154000 1.47006000
1.74392000 1.53636000 1.64883000
1.73745000 1.66639000 1.23027000
1.95662000 1.52961000 1.37716000
1.88508000 1.66132000 0.96774800
2.12494000 1.52681000 1.08119000
1.99274000 1.65948000 0.68451900
2.24577000 1.52281000 0.76172800
2.05831000 1.65900000 0.38963200
2.31945000 1.51945000 0.42653900
2.07750000 1.66069000 0.08802890
2.34135000 1.51895000 0.08432710
2.05681000 1.66726000 -0.21115900
2.31350000 1.52336000 -0.25584500
2.05681000 1.66726000 -0.21115900
2.24284000 1.52582000 -0.58607800
2.31350000 1.52336000 -0.25584500
2.46569000 1.41626000 -0.66270800
2.54646000 1.41047000 -0.29754400
2.33451000 1.42268000 -1.00529000
2.49512000 1.29260000 -1.08804000
2.64029000 1.29070000 -0.71933700
2.15326000 1.42232000 -1.32344000
2.30184000 1.29427000 -1.43300000
1.92866000 1.42605000 -1.61606000
2.06187000 1.29717000 -1.74522000
1.66760000 1.42973000 -1.87124000
1.78015000 1.29924000 -2.01845000
1.36932000 1.43263000 -2.08642000
1.45978000 1.30078000 -2.24848000
1.04180000 1.43840000 -2.26169000
1.10765000 1.30469000 -2.43490000
0.69818900 1.44705000 -2.39186000
0.73833100 1.31243000 -2.57369000
0.34131900 1.45480000 -2.47291000
0.35410600 1.31936000 -2.65778000
-0.02608180 1.46192000 -2.50056000
-0.03912790 1.32548000 -2.68368000
-0.39395700 1.46958000 -2.47424000
-0.43213100 1.33119000 -2.65131000
-0.75172000 1.47149000 -2.39364000
-0.81566200 1.33348000 -2.56512000
-1.09657000 1.47537000 -2.26277000
-1.18509000 1.33724000 -2.42612000
-1.41846000 1.48066000 -2.08754000
-1.52807000 1.34194000 -2.23793000
-1.71142000 1.48294000 -1.86681000
-1.83949000 1.34167000 -1.99943000
-1.96642000 1.48304000 -1.60709000
-2.11090000 1.34238000 -1.72394000
-2.18162000 1.48406000 -1.31444000
-2.33731000 1.34126000 -1.41211000
-2.35226000 1.48064000 -0.99566400
-2.51888000 1.33751000 -1.07256000
-2.47385000 1.47705000 -0.65367200
-2.64946000 1.33278000 -0.70947100
-2.54785000 1.47477000 -0.29500700
-2.72798000 1.32901000 -0.32694900
-2.57148000 1.47111000 0.07140210
-2.75520000 1.32711000 0.06498040
-2.54506000 1.46895000 0.44230900
-2.72623000 1.32733000 0.45979500
-2.54506000 1.46895000 0.44230900
-2.46473000 1.46837000 0.80801500
-2.63680000 1.32809000 0.85112800
-2.72623000 1.32733000 0.45979500
-2.32950000 1.46609000 1.15897000
-2.48987000 1.32845000 1.22773000
-2.14313000 1.46369000 1.48678000
-2.28819000 1.32779000 1.57995000
-1.91446000 1.46049000 1.78208000
-2.04220000 1.32603000 1.89850000
-1.64935000 1.45616000 2.04370000
-1.75788000 1.32001000 2.17933000
-1.35846000 1.45156000 2.26577000
-1.44651000 1.31117000 2.41938000
-1.04881000 1.44725000 2.43889000
-1.11489000 1.30084000 2.60748000
-0.72655600 1.44161000 2.56377000
-0.77334900 1.29121000 2.74298000
-0.39776100 1.43878000 2.64164000
-0.42792100 1.28738000 2.82242000
-0.06263360 1.43197000 2.66758000
-0.07522600 1.28726000 2.85107000
0.28683900 1.43179000 2.64497000
0.28994400 1.29307000 2.82705000
0.63624100 1.43573000 2.57118000
0.66030400 1.29985000 2.74848000
0.97735900 1.43986000 2.45005000
1.02604000 1.30752000 2.61917000
1.30882000 1.43812000 2.28029000
1.38057000 1.31155000 2.43848000
1.62154000 1.43523000 2.06411000
1.71695000 1.31080000 2.20820000
1.90138000 1.42898000 1.80598000
2.02104000 1.30510000 1.93345000
2.14060000 1.42243000 1.50976000
2.28189000 1.29793000 1.61737000
2.32825000 1.41618000 1.18217000
2.49057000 1.29043000 1.26451000
2.46565000 1.41053000 0.82898600
2.64112000 1.28687000 0.88476800
2.54928000 1.40913000 0.45696600
2.72776000 1.28610000 0.48333000
2.57579000 1.40887000 0.07889130
2.75685000 1.28765000 0.07424980
2.54646000 1.41047000 -0.29754400
2.72834000 1.28885000 -0.32982200
2.88378000 1.13107000 -0.35727800
2.91250000 1.12987000 0.07192000
2.72834000 1.28885000 -0.32982200
2.79507000 1.13034000 -0.77122700
2.88378000 1.13107000 -0.35727800
2.93631000 0.93834200 -0.81812900
3.02773000 0.93847300 -0.38088000
2.64242000 1.12989000 -1.16292000
2.77623000 0.93776400 -1.22894000
2.43386000 1.13116000 -1.52828000
2.55663000 0.93521800 -1.61519000
2.17763000 1.13081000 -1.85981000
2.28684000 0.93518200 -1.96784000
1.87693000 1.13479000 -2.15193000
1.96686000 0.94202000 -2.27387000
1.53633000 1.13762000 -2.39611000
1.60546000 0.94632100 -2.53130000
1.16264000 1.13957000 -2.59326000
1.21195000 0.94638600 -2.73997000
0.77050000 1.14407000 -2.73884000
0.80075000 0.94859300 -2.89263000
0.36229100 1.15088000 -2.82535000
0.37279800 0.94915500 -2.98109000
-0.05209330 1.15408000 -2.85147000
-0.06101490 0.95147700 -3.00801000
-0.46748300 1.15510000 -2.81707000
-0.49710000 0.95351500 -2.97272000
-0.87610300 1.15709000 -2.72374000
-0.92859500 0.95374000 -2.87279000
-1.26699000 1.16214000 -2.57383000
-1.34033000 0.95747500 -2.71286000
-1.62922000 1.16639000 -2.37277000
-1.72012000 0.96221300 -2.49959000
-1.95801000 1.16508000 -2.12135000
-2.06531000 0.95787000 -2.23589000
-2.24348000 1.16341000 -1.82980000
-2.36506000 0.95417100 -1.93056000
-2.48242000 1.16091000 -1.50165000
-2.61566000 0.95230000 -1.58612000
-2.67450000 1.15943000 -1.14443000
-2.81500000 0.95449100 -1.21134000
-2.81330000 1.15577000 -0.76171600
-2.96073000 0.95342800 -0.80953900
-2.89799000 1.15113000 -0.35847300
-3.05193000 0.95115400 -0.38856800
-2.92698000 1.15034000 0.05694600
-3.08227000 0.95021200 0.04657480
-2.89511000 1.15119000 0.47561500
-3.04878000 0.95064200 0.48935500
-2.89511000 1.15119000 0.47561500
-2.79887000 1.15270000 0.89219600
-2.94737000 0.95324900 0.93041100
-3.04878000 0.95064200 0.48935500
-2.64109000 1.15505000 1.29351000
-2.78110000 0.96121800 1.35356000
-2.42432000 1.15911000 1.66791000
-2.55078000 0.97110800 1.74644000
-2.15951000 1.16035000 2.00586000
-2.26797000 0.97515500 2.10398000
-1.85532000 1.15348000 2.30520000
-1.94392000 0.96668700 2.42225000
-1.52405000 1.14047000 2.56220000
-1.59266000 0.94603900 2.69410000
-1.17154000 1.11915000 2.76454000
-1.22280000 0.91132700 2.91106000
-0.81051300 1.10164000 2.91097000
-0.84443400 0.87923000 3.06577000
-0.45280700 1.09447000 2.99310000
-0.47472700 0.86629600 3.15139000
-0.08895020 1.10077000 3.01947000
-0.10420400 0.87744600 3.17439000
0.28933800 1.11427000 2.99112000
0.28471000 0.90205000 3.14156000
0.67847700 1.12880000 2.90965000
0.68745000 0.92955000 3.05478000
1.06453000 1.14217000 2.77438000
1.09133000 0.95381100 2.91343000
1.44136000 1.15168000 2.58162000
1.49148000 0.96656400 2.71175000
1.80012000 1.15527000 2.33716000
1.87120000 0.97183700 2.45300000
2.12484000 1.14913000 2.04688000
2.21670000 0.96178700 2.14863000
2.40416000 1.13894000 1.71357000
2.51394000 0.94670100 1.80035000
2.62921000 1.13193000 1.33958000
2.75395000 0.93800500 1.40726000
2.78850000 1.12888000 0.93371500
2.92363000 0.93295000 0.97843500
2.88076000 1.12785000 0.50638800
3.02260000 0.93345900 0.52817100
3.05739000 0.93703500 0.07164450
3.19820000 0.71990200 0.07010860
3.16352000 0.71357600 0.54474700
3.02773000 0.93847300 -0.38088000
3.16553000 0.72199900 -0.40317200
3.29777000 0.49354500 -0.42557800
3.33433000 0.49149900 0.06446540
3.16553000 0.72199900 -0.40317200
3.06895000 0.72211600 -0.86162300
3.19458000 0.49430500 -0.90435700
3.29777000 0.49354500 -0.42557800
2.89995000 0.72083100 -1.29380000
3.01614000 0.49307700 -1.35945000
2.67167000 0.72068500 -1.70161000
2.77549000 0.49498900 -1.78482000
2.38834000 0.72402100 -2.07027000
2.48023000 0.49892800 -2.16645000
2.05178000 0.72847100 -2.38777000
2.13420000 0.50358400 -2.49604000
1.67361000 0.73315900 -2.65744000
1.74408000 0.50989600 -2.77327000
1.26472000 0.73488800 -2.87519000
1.32168000 0.50977300 -2.99656000
0.83564600 0.73358300 -3.03234000
0.87787100 0.50407000 -3.16041000
0.39250600 0.73033100 -3.12795000
0.42008900 0.50000800 -3.25979000
-0.05871780 0.73075800 -3.15571000
-0.04805990 0.49650500 -3.29109000
-0.51352200 0.73219400 -3.11779000
-0.51921600 0.49444800 -3.25650000
-0.96316900 0.73228200 -3.01465000
-0.98292500 0.49508400 -3.15156000
-1.39433000 0.73508600 -2.84753000
-1.43171000 0.49750000 -2.97760000
-1.79406000 0.73534800 -2.62165000
-1.85368000 0.49497000 -2.74341000
-2.15920000 0.73029400 -2.34658000
-2.23731000 0.49015300 -2.45454000
-2.47437000 0.72755800 -2.02654000
-2.56816000 0.48978500 -2.11730000
-2.73719000 0.72781100 -1.66612000
-2.84503000 0.49145900 -1.73887000
-2.94406000 0.72903400 -1.27358000
-3.06445000 0.49137300 -1.32990000
-3.09587000 0.72879200 -0.85338800
-3.22280000 0.48914400 -0.89312700
-3.19045000 0.72890300 -0.41491500
-3.32021000 0.48941700 -0.43760000
-3.22226000 0.72706500 0.03822530
-3.35527000 0.48883300 0.03269010
-3.18943000 0.72576700 0.50208300
-3.32345000 0.48853100 0.51512200
-3.18943000 0.72576700 0.50208300
-3.08449000 0.72988500 0.96522300
-3.21413000 0.49473700 0.99908400
-3.32345000 0.48853100 0.51512200
-2.90783000 0.74340900 1.40880000
