-0.17482400 9.53454000 1.01673000
-0.17843400 9.58810000 1.05334000
-0.06933710 9.53602000 1.02571000
-0.06956850 9.58912000 1.06348000
-0.07017020 9.62156000 1.10495000
-0.18283100 9.62115000 1.09440000
0.03888060 9.59083000 1.06246000
0.04225950 9.62411000 1.10629000
0.04225950 9.62411000 1.10629000
0.04531440 9.64748000 1.14415000
-0.07017020 9.62156000 1.10495000
0.15464300 9.63008000 1.09347000
0.16103100 9.65211000 1.13226000
0.16695500 9.67558000 1.16619000
0.27401600 9.65854000 1.10750000
0.28294900 9.68220000 1.14147000
0.38510300 9.65776000 1.07584000
0.26471200 9.63517000 1.06986000
0.37200400 9.63429000 1.03788000
0.47545400 9.63114000 0.99714900
0.45601400 9.59782000 0.95618500
0.47545400 9.63114000 0.99714900
0.37200400 9.63429000 1.03788000
0.35719200 9.59967000 0.99696400
0.54858700 9.59559000 0.90466800
0.57265600 9.62929000 0.94484500
0.43902700 9.54574000 0.92128500
0.52947100 9.54371000 0.87157400
0.61399000 9.54260000 0.81191000
0.52238900 9.47650000 0.85815100
0.60635200 9.47465000 0.80010700
0.68429900 9.47312000 0.73377900
0.61255500 9.40290000 0.80806900
0.69082500 9.40013000 0.74206400
0.76284700 9.39629000 0.66953300
0.75659800 9.47118000 0.66180300
0.82797200 9.39129000 0.59117000
0.79233100 9.33010000 0.69818500
0.85967800 9.32463000 0.61681300
0.91860100 9.31894000 0.52845200
0.88439500 9.38555000 0.50605000
0.91346300 9.27511000 0.65685100
0.97590300 9.26969000 0.56335200
0.97590300 9.26969000 0.56335200
1.02992000 9.26395000 0.46365100
0.96886800 9.31320000 0.43370400
0.91860100 9.31894000 0.52845200
1.07449000 9.25803000 0.35862700
1.01094000 9.30834000 0.33395700
1.11023000 9.25433000 0.24962300
1.04506000 9.30510000 0.23022900
1.13855000 9.25238000 0.13802600
1.07223000 9.30385000 0.12414000
1.15813000 9.25386000 0.02388380
1.22525000 9.21831000 0.15575400
1.24640000 9.21966000 0.03360400
1.25515000 9.22012000 -0.09081400
1.34717000 9.19073000 0.04392580
1.35494000 9.19008000 -0.09049000
1.34971000 9.18740000 -0.22583200
1.25126000 9.21855000 -0.21601900
1.33055000 9.18378000 -0.35844200
1.23344000 9.21563000 -0.33881700
1.29796000 9.18027000 -0.48869200
1.20211000 9.21183000 -0.45930000
1.25635000 9.17573000 -0.61514700
1.40442000 9.14676000 -0.52160200
1.36216000 9.14180000 -0.65925800
1.31176000 9.13801000 -0.79182200
1.20567000 9.17499000 -0.73590800
1.24673000 9.13370000 -0.91531400
1.14314000 9.17221000 -0.85000400
1.16869000 9.13324000 -1.03200000
1.07125000 9.17221000 -0.95789800
0.98821500 9.17374000 -1.05811000
1.07778000 9.13389000 -1.14031000
0.97632000 9.13555000 -1.23909000
0.89541100 9.17592000 -1.14976000
0.86393600 9.14004000 -1.32537000
0.79279400 9.17934000 -1.23062000
0.74604500 9.14245000 -1.40308000
0.68462300 9.18161000 -1.30296000
0.56946200 9.18309000 -1.36688000
0.62107100 9.14264000 -1.47205000
0.48957200 9.14639000 -1.52657000
0.44888600 9.18536000 -1.41886000
0.35159200 9.14921000 -1.56559000
0.32224600 9.18573000 -1.45710000
0.20953900 9.15175000 -1.58999000
0.19158000 9.18591000 -1.48019000
0.06512500 9.15115000 -1.60151000
0.05725630 9.18531000 -1.49158000
-0.07956640 9.15074000 -1.59924000
-0.07678920 9.18499000 -1.48940000
-0.22328600 9.15231000 -1.58077000
-0.20963100 9.18638000 -1.47223000
-0.36705100 9.15439000 -1.54935000
-0.34252000 9.18883000 -1.44363000
-0.50896600 9.15504000 -1.50949000
-0.47300100 9.18952000 -1.40664000
-0.64861200 9.15351000 -1.46154000
-0.60126100 9.18892000 -1.36216000
-0.78173200 9.15041000 -1.39896000
-0.72294800 9.18573000 -1.30426000
-0.90665900 9.14625000 -1.32305000
-0.83806200 9.18212000 -1.23316000
-1.02589000 9.14120000 -1.23691000
-0.94845500 9.17906000 -1.15295000
-1.13791000 9.13884000 -1.13818000
-1.05209000 9.17781000 -1.06329000
-1.23779000 9.13764000 -1.02682000
-1.14536000 9.17633000 -0.96169300
-1.32837000 9.13551000 -0.90851000
-1.22969000 9.17499000 -0.85222600
-1.40762000 9.13463000 -0.78515700
-1.30199000 9.17420000 -0.73725000
-1.40762000 9.13463000 -0.78515700
-1.47223000 9.13375000 -0.65694300
-1.36202000 9.17244000 -0.61829400
-1.30199000 9.17420000 -0.73725000
-1.52268000 9.13287000 -0.52488800
-1.40766000 9.17106000 -0.49457100
-1.55837000 9.13102000 -0.38950000
-1.43928000 9.16944000 -0.36756100
-1.45761000 9.17069000 -0.23842100
-1.57906000 9.13356000 -0.25064100
-1.58314000 9.14065000 -0.11173500
-1.46205000 9.17582000 -0.10872700
-1.56980000 9.14592000 0.02828100
-1.45177000 9.18027000 0.02198610
-1.54106000 9.15078000 0.16783500
-1.42368000 9.18462000 0.15288400
-1.50102000 9.15536000 0.30637000
-1.38484000 9.18818000 0.28248600
-1.44437000 9.15601000 0.45379200
-1.33148000 9.18962000 0.41398600
-1.37420000 9.15467000 0.59487300
-1.26816000 9.18869000 0.54030200
-1.29565000 9.15902000 0.72706700
-1.19734000 9.19137000 0.66124800
-1.20780000 9.15972000 0.84806000
-1.11833000 9.19188000 0.77404800
-1.11333000 9.15985000 0.96021200
-1.02987000 9.19286000 0.87800700
-1.01145000 9.15842000 1.06107000
-0.93419900 9.19230000 0.97159900
-0.83181400 9.19596000 1.05417000
-0.90300200 9.16166000 1.15017000
-0.78594400 9.16189000 1.22437000
-0.72285500 9.19665000 1.12328000
-0.65995200 9.16485000 1.28403000
-0.60584300 9.20073000 1.18054000
-0.55812200 9.23072000 1.08963000
-0.48188800 9.20281000 1.22520000
-0.44384100 9.23400000 1.13416000
-0.41301400 9.26918000 1.05552000
-0.32562500 9.23961000 1.16494000
-0.30266700 9.27284000 1.08468000
-0.28646700 9.32056000 1.02386000
-0.18871000 9.27659000 1.10324000
-0.17899000 9.32436000 1.04200000
-0.17445400 9.38981000 1.00900000
-0.07040170 9.32852000 1.05209000
-0.06938340 9.39342000 1.01793000
-0.06938340 9.46622000 1.01140000
0.03614970 9.39735000 1.01673000
0.03513140 9.46946000 1.00877000
0.03619600 9.53774000 1.02455000
0.13885900 9.47312000 0.99733400
0.14117400 9.54079000 1.01363000
0.14709800 9.59439000 1.05024000
0.24430000 9.54431000 0.99307500
0.25383500 9.59819000 1.02835000
0.26471200 9.63517000 1.06986000
0.15464300 9.63008000 1.09347000
0.34376900 9.54658000 0.96187800
0.24045800 9.47655000 0.97701400
0.33844600 9.47812000 0.94618700
0.43250000 9.47793000 0.90652000
0.34247300 9.40573000 0.95419500
0.43754600 9.40582000 0.91448100
0.52826700 9.40489000 0.86611200
0.45522700 9.34019000 0.94813100
0.54974400 9.33996000 0.89953100
0.63764200 9.33834000 0.84102500
0.58533800 9.29034000 0.95590800
0.67930000 9.28895000 0.89448500
0.76479100 9.28529000 0.82306500
0.71836600 9.33482000 0.77326100
0.84292200 9.28052000 0.74363800
0.82315800 9.24854000 0.88365400
0.90735300 9.24493000 0.79955200
0.98243000 9.24035000 0.70679400
0.98141100 9.21332000 0.86333500
1.06320000 9.20980000 0.76386500
1.13772000 9.20443000 0.65624900
1.04996000 9.23461000 0.60612100
1.13772000 9.20443000 0.65624900
1.20206000 9.19920000 0.54321800
1.10921000 9.22924000 0.50044900
1.04996000 9.23461000 0.60612100
1.25422000 9.19462000 0.42541900
1.15725000 9.22401000 0.38977800
1.29574000 9.19128000 0.30345400
1.19567000 9.22012000 0.27480300
1.32675000 9.19059000 0.17616600
1.40627000 9.15592000 0.33617800
1.43705000 9.15703000 0.19801300
1.45705000 9.15763000 0.05517340
1.56342000 9.10644000 0.22323900
1.58054000 9.10866000 0.06790220
1.46446000 9.15624000 -0.09044370
1.58730000 9.10806000 -0.09030480
1.58119000 9.10514000 -0.24888200
1.45807000 9.15333000 -0.23675500
1.56096000 9.10084000 -0.40621000
1.43761000 9.15009000 -0.38061300
1.52879000 9.09653000 -0.56052900
1.69908000 9.03109000 -0.43421300
1.66793000 9.02451000 -0.60403800
1.62516000 9.01706000 -0.76826200
1.48723000 9.09033000 -0.71100600
1.56707000 9.00859000 -0.92420100
1.43284000 9.08492000 -0.85467900
1.49163000 9.00294000 -1.07061000
1.36295000 9.07978000 -0.98900200
1.39725000 9.00017000 -1.20701000
1.27755000 9.07821000 -1.11499000
1.28834000 8.99933000 -1.33573000
1.17855000 9.07742000 -1.23289000
1.06866000 9.07779000 -1.34101000
1.16665000 8.99966000 -1.45353000
1.03367000 9.00197000 -1.55907000
0.94692800 9.08131000 -1.43696000
0.89244900 9.00646000 -1.64900000
0.81728000 9.08496000 -1.52037000
0.74345300 9.01118000 -1.72311000
0.67994800 9.08783000 -1.59124000
0.58760600 9.01530000 -1.78314000
0.53664500 9.09172000 -1.64858000
0.42509500 9.02100000 -1.82938000
0.38626000 9.09575000 -1.69080000
0.25800100 9.02410000 -1.85988000
0.23161700 9.09922000 -1.71778000
0.08641680 9.02405000 -1.87539000
0.07516920 9.09917000 -1.73093000
-0.08868480 9.02701000 -1.87192000
-0.08289900 9.10079000 -1.72732000
-0.26244400 9.03039000 -1.85099000
-0.24068900 9.10380000 -1.70714000
-0.43287100 9.03442000 -1.81503000
-0.39695200 9.10612000 -1.67353000
-0.60038100 9.03516000 -1.76541000
-0.55164200 9.10658000 -1.62984000
-0.76405000 9.03220000 -1.70408000
-0.70281300 9.10464000 -1.57503000
-0.92174800 9.02780000 -1.62979000
-0.84787500 9.10093000 -1.50672000
-1.06899000 9.02442000 -1.53889000
-0.98395700 9.09700000 -1.42460000
-1.20683000 9.02336000 -1.43206000
-1.11245000 9.09306000 -1.32916000
-1.33546000 9.02063000 -1.31333000
-1.23177000 9.08955000 -1.22053000
-1.45344000 9.01604000 -1.18503000
-1.33990000 9.08570000 -1.10055000
-1.56444000 9.01104000 -1.04982000
-1.44043000 9.08293000 -0.97409800
-1.66719000 9.00530000 -0.90795500
-1.53162000 9.08108000 -0.84259800
-1.66719000 9.00530000 -0.90795500
-1.75240000 8.99841000 -0.76182800
-1.60540000 9.07890000 -0.70545200
-1.53162000 9.08108000 -0.84259800
-1.81360000 8.99470000 -0.60931500
-1.66076000 9.07733000 -0.56395400
-1.85095000 8.99637000 -0.44939500
-1.69797000 9.07635000 -0.41736500
-1.87307000 8.99994000 -0.28507800
-1.71977000 9.07955000 -0.26642500
-1.87497000 9.00697000 -0.11696600
-1.72292000 9.08575000 -0.11502200
-1.85086000 9.02072000 0.05035960
-1.70422000 9.09399000 0.03652000
-1.81221000 9.03280000 0.21513900
-1.67126000 9.10204000 0.18662700
-1.76259000 9.04155000 0.38056700
-1.62826000 9.10926000 0.33678000
-1.56601000 9.11135000 0.50128200
-1.69353000 9.04571000 0.55988100
-1.61174000 9.04687000 0.73211300
-1.48899000 9.11135000 0.65861000
-1.52162000 9.04539000 0.89106000
-1.40303000 9.11292000 0.80311600
-1.42243000 9.04108000 1.03608000
-1.30861000 9.10968000 0.93498600
-1.31477000 9.03701000 1.16933000
-1.20845000 9.10899000 1.05658000
-1.19771000 9.03363000 1.28926000
-1.09981000 9.10737000 1.16683000
-1.06977000 9.03150000 1.39151000
-0.98275400 9.10857000 1.26251000
-0.85579000 9.10996000 1.34138000
-0.93095900 9.03349000 1.47635000
-0.78131500 9.03868000 1.54037000
-0.71859700 9.11297000 1.40257000
-0.62107100 9.04770000 1.58610000
-0.57256300 9.11542000 1.44821000
-0.52549000 9.16578000 1.32888000
-0.41972500 9.12121000 1.48228000
-0.38561200 9.17129000 1.36198000
-0.35325800 9.20947000 1.25732000
-0.24291100 9.17805000 1.38609000
-0.22069400 9.21521000 1.27848000
-0.20315100 9.24414000 1.18442000
-0.08701850 9.21878000 1.28940000
-0.07924240 9.24817000 1.19558000
-0.07359540 9.28057000 1.11361000
0.04429610 9.25233000 1.19447000
0.04170410 9.28497000 1.11370000
0.03869550 9.33246000 1.05204000
0.15635600 9.28710000 1.10217000
0.14705200 9.33560000 1.04094000
0.14089600 9.40119000 1.00553000
0.25323300 9.33847000 1.01997000
0.24328200 9.40434000 0.98483700
0.35659100 9.33986000 0.98914100
0.26943300 9.28895000 1.08014000
0.37945600 9.28983000 1.04830000
0.48466500 9.29029000 1.00687000
0.40764500 9.25534000 1.12490000
0.52081500 9.25423000 1.08181000
0.62898600 9.25326000 1.02705000
0.56335200 9.22049000 1.16845000
0.68013300 9.21975000 1.10810000
0.78987800 9.21767000 1.03506000
0.73090900 9.25118000 0.96039700
0.88976400 9.21628000 0.95313000
0.85486400 9.18003000 1.11879000
0.96488700 9.17842000 1.03279000
1.06570000 9.17476000 0.93753200
1.05459000 9.12102000 1.13092000
1.16424000 9.11824000 1.02585000
1.26154000 9.11875000 0.90721400
1.15591000 9.17235000 0.83033200
1.34976000 9.11473000 0.78251900
1.23738000 9.16786000 0.71484800
1.34976000 9.11473000 0.78251900
1.42854000 9.10718000 0.65263900
1.30676000 9.16291000 0.59334600
1.23738000 9.16786000 0.71484800
1.49112000 9.10241000 0.51752900
1.36277000 9.15837000 0.46735400
1.53486000 9.10283000 0.37450400
1.63238000 9.02576000 0.57358200
1.67784000 9.02933000 0.41648500
1.70431000 9.03539000 0.25068700
1.82878000 8.93958000 0.46240200
1.85604000 8.95032000 0.28077400
1.86974000 8.95541000 0.09613690
1.71908000 9.03983000 0.08123270
1.87326000 8.95615000 -0.08942540
1.72412000 9.04030000 -0.09016600
1.86502000 8.95328000 -0.27633000
1.71778000 9.03645000 -0.26235200
1.84586000 8.94721000 -0.46277200
2.01878000 8.85612000 -0.29012300
1.99772000 8.84886000 -0.49142300
1.96500000 8.83631000 -0.69031600
1.81489000 8.93740000 -0.64759300
1.92042000 8.82145000 -0.88633900
1.77194000 8.92727000 -0.82857400
1.85697000 8.80752000 -1.07417000
1.71098000 8.91671000 -0.99932400
1.76347000 8.80164000 -1.24580000
1.62789000 8.91056000 -1.15753000
1.64613000 8.80299000 -1.40614000
1.52208000 8.90875000 -1.30634000
1.51375000 8.80178000 -1.55680000
1.40132000 8.90745000 -1.44622000
1.36781000 8.80146000 -1.69603000
1.26723000 8.90745000 -1.57466000
1.21053000 8.80081000 -1.82105000
1.12161000 8.90764000 -1.68908000
1.04668000 8.80127000 -1.93005000
0.96923800 8.91148000 -1.78749000
0.87703500 8.80424000 -2.01689000
0.80982800 8.91643000 -1.86719000
0.69869400 8.81044000 -2.08284000
0.64278000 8.92111000 -1.93042000
0.50956700 8.82099000 -2.13084000
0.46744700 8.92912000 -1.97800000
0.31201700 8.82923000 -2.16375000
0.28558700 8.93263000 -2.01036000
0.10770900 8.83340000 -2.17981000
0.09743290 8.93486000 -2.02707000
-0.09854380 8.83928000 -2.17634000
-0.09331350 8.93948000 -2.02369000
-0.30359300 8.84321000 -2.15237000
-0.28322700 8.94282000 -2.00143000
-0.50614200 8.84603000 -2.10997000
-0.47045500 8.94643000 -1.96208000
-0.65273100 8.94680000 -1.90807000
-0.70397000 8.84474000 -2.05234000
-0.89559600 8.83988000 -1.98120000
-0.82987000 8.94356000 -1.84164000
-1.07935000 8.83539000 -1.89464000
-0.99988000 8.93879000 -1.76069000
-1.25061000 8.83293000 -1.78689000
-1.15869000 8.93597000 -1.66094000
-1.41039000 8.83367000 -1.66182000
-1.30722000 8.93624000 -1.54458000
-1.56092000 8.83104000 -1.52398000
-1.44710000 8.93375000 -1.41609000
-1.70130000 8.82391000 -1.37596000
-1.57698000 8.92921000 -1.27876000
-1.83354000 8.81414000 -1.22043000
-1.69793000 8.92120000 -1.13351000
-1.95708000 8.79785000 -1.05649000
-1.81068000 8.90986000 -0.98141100
-1.95708000 8.79785000 -1.05649000
-2.06225000 8.78021000 -0.88383900
-1.90589000 8.89736000 -0.82338900
-1.81068000 8.90986000 -0.98141100
-2.13681000 8.77660000 -0.70304500
-1.97324000 8.89246000 -0.65689700
-2.01568000 8.89584000 -0.48387800
-2.18426000 8.77994000 -0.51637100
-2.20388000 8.79183000 -0.31891400
-2.03767000 8.90236000 -0.30488900
-2.19388000 8.81210000 -0.11071700
-2.03471000 8.91491000 -0.11821600
-2.15723000 8.83404000 0.09914550
-2.00485000 8.93236000 0.07049420
-2.10492000 8.85205000 0.30479600
-1.95889000 8.94865000 0.25726000
-2.03957000 8.86469000 0.50577200
-1.90094000 8.96036000 0.44203500
-1.96236000 8.87232000 0.70267400
-1.82683000 8.96624000 0.62995800
-1.87437000 8.87080000 0.89619800
-1.74222000 8.96504000 0.81320600
-1.77467000 8.86395000 1.08241000
-1.64766000 8.96059000 0.98585500
-1.66178000 8.85492000 1.25594000
-1.54180000 8.95462000 1.14527000
-1.53551000 8.84423000 1.41382000
-1.42470000 8.94768000 1.29121000
-1.39850000 8.83502000 1.55726000
-1.29843000 8.94254000 1.42322000
-1.24862000 8.83029000 1.67904000
-1.15961000 8.93874000 1.53375000
-1.08417000 8.83224000 1.77587000
-1.00816000 8.94013000 1.62396000
-0.90253900 8.84177000 1.84785000
-0.84357000 8.94740000 1.69237000
-0.70966400 8.85672000 1.89673000
-0.66721900 8.96064000 1.73977000
-0.51391800 8.87209000 1.93042000
-0.48582200 8.97165000 1.77143000
-0.45420900 9.05603000 1.61956000
-0.30257400 8.98068000 1.79216000
-0.28470800 9.06344000 1.64275000
-0.26485100 9.12861000 1.50760000
-0.11372600 9.06886000 1.65219000
-0.10673700 9.13389000 1.51759000
-0.09683120 9.18309000 1.39642000
0.05304430 9.13778000 1.51445000
0.04985050 9.18814000 1.39396000
0.04707330 9.22378000 1.28778000
0.19394000 9.18878000 1.38008000
0.18037800 9.22466000 1.27482000
0.16764900 9.25428000 1.18225000
0.31141500 9.22544000 1.24825000
0.28929000 9.25530000 1.15813000
0.43967500 9.22354000 1.21354000
0.33594700 9.18864000 1.35272000
0.47550100 9.18466000 1.31537000
0.61047200 9.18124000 1.26468000
0.51544600 9.13518000 1.43044000
0.66268300 9.13153000 1.37420000
0.80168100 9.12963000 1.30292000
0.73688000 9.18152000 1.19748000
0.93239400 9.12514000 1.22164000
0.87472100 9.05816000 1.42266000
1.02034000 9.05150000 1.33870000
1.15448000 9.04525000 1.24108000
1.11314000 8.96249000 1.46413000
1.25941000 8.95527000 1.35897000
1.38785000 8.95351000 1.23219000
1.27334000 9.04395000 1.12485000
1.50297000 8.95494000 1.09259000
1.37855000 9.04520000 0.99557500
1.60929000 8.95138000 0.94711300
1.47515000 9.04127000 0.86088100
1.60929000 8.95138000 0.94711300
1.70468000 8.94134000 0.79580300
1.56277000 9.03197000 0.72123500
1.47515000 9.04127000 0.86088100
1.78064000 8.93402000 0.63546700
1.84836000 8.83543000 0.87393400
1.92982000 8.82942000 0.70012900
1.98120000 8.83608000 0.50956700
2.07678000 8.71027000 0.75877400
2.13126000 8.72018000 0.55270600
2.16176000 8.73346000 0.33835400
2.01017000 8.84849000 0.31086000
2.17884000 8.74365000 0.12395500
2.02517000 8.85608000 0.11099500
2.18166000 8.74661000 -0.09025850
2.02799000 8.85816000 -0.08910140
2.17250000 8.74587000 -0.30447200
2.33293000 8.62488000 -0.09155460
2.32279000 8.62390000 -0.31821900
2.29789000 8.61455000 -0.54437500
2.14917000 8.73689000 -0.51882500
2.25919000 8.59659000 -0.77071500
2.11386000 8.72115000 -0.73178900
2.20573000 8.57225000 -0.99710200
2.06549000 8.70097000 -0.94304000
2.12969000 8.55156000 -1.21548000
1.99596000 8.68352000 -1.14707000
2.01795000 8.54684000 -1.41451000
1.89330000 8.67894000 -1.33212000
1.88062000 8.55142000 -1.59841000
1.76574000 8.68223000 -1.50375000
1.62294000 8.68287000 -1.66483000
1.72880000 8.55508000 -1.77101000
1.56157000 8.55378000 -1.93005000
1.46589000 8.68227000 -1.81424000
1.38383000 8.54957000 -2.07423000
1.29810000 8.68051000 -1.94940000
1.19873000 8.54119000 -2.20337000
1.12346000 8.67625000 -2.06854000
1.00599000 8.53860000 -2.30923000
0.94299400 8.67621000 -2.16519000
0.79885800 8.55054000 -2.38222000
0.75118300 8.68523000 -2.23462000
0.57890400 8.56864000 -2.43073000
0.54692100 8.69986000 -2.28262000
0.35251800 8.58456000 -2.46281000
0.33455800 8.71254000 -2.31497000
0.12164100 8.59599000 -2.47753000
0.11617900 8.72018000 -2.33043000
-0.11233700 8.60349000 -2.47174000
-0.10507000 8.72680000 -2.32631000
-0.34594500 8.60946000 -2.44443000
-0.32497700 8.73212000 -2.30081000
-0.57585000 8.61224000 -2.39759000
-0.54136600 8.73467000 -2.25605000
-0.80131100 8.60997000 -2.33330000
-0.75359000 8.73235000 -2.19523000
-1.02270000 8.60284000 -2.25271000
-0.96007300 8.72569000 -2.11927000
-1.23677000 8.59456000 -2.15426000
-1.15948000 8.72009000 -2.02679000
-1.43391000 8.59252000 -2.03461000
-1.34374000 8.71884000 -1.91232000
-1.61317000 8.59224000 -1.89469000
-1.51329000 8.71911000 -1.77976000
-1.78045000 8.58771000 -1.73926000
-1.67238000 8.71518000 -1.63289000
-1.93898000 8.57836000 -1.57203000
-1.82276000 8.70666000 -1.47450000
-2.08909000 8.56373000 -1.39387000
-1.96500000 8.69440000 -1.30755000
-2.23068000 8.54161000 -1.20428000
-2.09877000 8.67468000 -1.12990000
-2.23068000 8.54161000 -1.20428000
-2.35755000 8.51633000 -1.00344000
-2.21564000 8.65316000 -0.94118800
-2.09877000 8.67468000 -1.12990000
-2.45045000 8.50407000 -0.79321100
-2.29817000 8.64589000 -0.74683200
-2.49794000 8.51832000 -0.56358400
-2.34681000 8.65186000 -0.54312500
-2.50618000 8.54679000 -0.31322000
-2.36056000 8.67176000 -0.32044100
-2.48669000 8.57586000 -0.06253300
-2.34353000 8.69805000 -0.08984200
-2.44587000 8.60016000 0.17871200
-2.30423000 8.72328000 0.13659100
-2.38843000 8.62159000 0.40991300
-2.24938000 8.74402000 0.35566500
-2.31520000 8.63834000 0.63102300
-2.17935000 8.75860000 0.56798100
-2.23017000 8.64635000 0.84500500
-2.09807000 8.76577000 0.77377000
-2.13385000 8.64640000 1.05311000
-2.00527000 8.76443000 0.97581100
-2.02374000 8.63899000 1.25783000
-1.89978000 8.75614000 1.17355000
-1.89640000 8.62372000 1.45687000
-1.77874000 8.74189000 1.36027000
-1.75305000 8.60428000 1.64400000
-1.64483000 8.72819000 1.53241000
-1.59596000 8.58637000 1.81313000
-1.49838000 8.71513000 1.68705000
-1.42132000 8.57975000 1.95417000
-1.33740000 8.70967000 1.81924000
-1.15753000 8.71347000 1.92413000
-1.22562000 8.58586000 2.06618000
-1.01261000 8.60192000 2.14885000
-0.95933300 8.72597000 2.00124000
-0.79038700 8.62478000 2.20694000
-0.75095100 8.74564000 2.05419000
-0.56599100 8.64200000 2.24466000
-0.54020900 8.76156000 2.08932000
-0.34205700 8.65362000 2.26498000
-0.32951300 8.77160000 2.10765000
-0.31701600 8.88306000 1.95005000
-0.11877100 8.78156000 2.11399000
-0.11886400 8.89149000 1.95648000
-0.11793800 8.98772000 1.80063000
0.07905720 8.89616000 1.95023000
0.06711530 8.99091000 1.79545000
0.05808950 9.07112000 1.64835000
0.22796100 9.07298000 1.63174000
0.25008600 8.99183000 1.77698000
0.20972400 9.13990000 1.49908000
0.39519400 9.07256000 1.60258000
0.36367300 9.13949000 1.47075000
0.56011200 9.06839000 1.55833000
0.43111200 8.99040000 1.74597000
0.60977800 8.98494000 1.69695000
0.78418500 8.97966000 1.63086000
0.72049500 9.06358000 1.49686000
0.95252900 8.97142000 1.55231000
0.84944900 8.88339000 1.77064000
1.03098000 8.87279000 1.68709000
1.20618000 8.85959000 1.59161000
1.10777000 8.76207000 1.82142000
1.29653000 8.74568000 1.71755000
1.46913000 8.73351000 1.59258000
1.36531000 8.85122000 1.47728000
1.61859000 8.73004000 1.44594000
1.50417000 8.84955000 1.34027000
1.62868000 8.84881000 1.19049000
1.75296000 8.72823000 1.28723000
1.87881000 8.72305000 1.12189000
1.74458000 8.84451000 1.03566000
1.87881000 8.72305000 1.12189000
1.99069000 8.71314000 0.94734400
1.74458000 8.84451000 1.03566000
2.00897000 8.59322000 1.20460000
2.13024000 8.58285000 1.01497000
2.22166000 8.58095000 0.81052200
2.26410000 8.44737000 1.07963000
2.36260000 8.44575000 0.86092800
2.42370000 8.46148000 0.62648700
2.27822000 8.59354000 0.59056900
2.45961000 8.48014000 0.38630700
2.31122000 8.60937000 0.36325600
2.47906000 8.49250000 0.14621900
2.32932000 8.62043000 0.13543400
2.48262000 8.49680000 -0.09326720
2.62268000 8.35507000 0.15547600
2.62745000 8.36021000 -0.09488720
2.61491000 8.35794000 -0.34414000
2.47100000 8.49500000 -0.33155000
2.58649000 8.34855000 -0.59205000
2.44522000 8.48680000 -0.56923100
2.54200000 8.33026000 -0.84065400
2.40370000 8.46861000 -0.80718900
2.47980000 8.30305000 -1.09102000
2.34557000 8.44191000 -1.04589000
2.39060000 8.27615000 -1.33675000
2.26419000 8.41788000 -1.27852000
2.26095000 8.27120000 -1.56453000
2.14348000 8.41279000 -1.49255000
2.10330000 8.27629000 -1.77402000
1.99527000 8.41774000 -1.68955000
1.93088000 8.27847000 -1.96889000
1.83290000 8.42186000 -1.87395000
1.74505000 8.27569000 -2.14755000
1.65604000 8.41987000 -2.04262000
1.54657000 8.26815000 -2.31076000
1.46760000 8.41270000 -2.19592000
1.33583000 8.25533000 -2.45961000
1.26996000 8.40173000 -2.33580000
1.11277000 8.24607000 -2.58450000
1.06181000 8.39682000 -2.45128000
0.87823900 8.26171000 -2.66735000
0.84130200 8.41108000 -2.52835000
0.63352200 8.28768000 -2.71928000
0.60857400 8.43228000 -2.57746000
0.38186300 8.31022000 -2.75076000
0.36936600 8.45075000 -2.60889000
0.12511200 8.32702000 -2.76307000
0.12497300 8.46463000 -2.62217000
-0.13358300 8.33795000 -2.75460000
-0.12173300 8.47384000 -2.61472000
-0.39139800 8.34605000 -2.72451000
-0.36834700 8.48069000 -2.58593000
-0.61084200 8.48440000 -2.53747000
-0.64504800 8.34952000 -2.67420000
-0.89268000 8.34605000 -2.60301000
-0.84796800 8.48190000 -2.46980000
-1.13536000 8.33739000 -2.51280000
-1.08097000 8.47380000 -2.38389000
-1.37383000 8.32679000 -2.40490000
-1.30801000 8.46357000 -2.28026000
-1.59827000 8.31790000 -2.27391000
-1.51894000 8.45820000 -2.15537000
-1.80124000 8.31508000 -2.11848000
-1.70982000 8.45741000 -2.00818000
-1.88654000 8.45334000 -1.84428000
-1.98786000 8.31129000 -1.94685000
-2.16283000 8.30101000 -1.76185000
-2.05290000 8.44306000 -1.66793000
-2.32779000 8.28393000 -1.56527000
-2.21027000 8.42719000 -1.48052000
-2.48206000 8.25537000 -1.35517000
-2.35820000 8.40168000 -1.28093000
-2.48206000 8.25537000 -1.35517000
-2.62000000 8.22376000 -1.12809000
-2.49215000 8.37280000 -1.07000000
-2.35820000 8.40168000 -1.28093000
-2.71715000 8.22042000 -0.86870400
-2.58843000 8.36266000 -0.83912700
-2.76358000 8.25134000 -0.57899700
-2.63490000 8.38553000 -0.57487800
-2.77580000 8.28537000 -0.28892000
-2.64388000 8.41853000 -0.30030600
-2.75988000 8.31230000 -0.00925729
-2.62486000 8.44630000 -0.03388170
-2.71581000 8.33322000 0.26026900
-2.58255000 8.46926000 0.22185100
-2.65258000 8.35285000 0.52220400
-2.52224000 8.49032000 0.46841900
-2.57385000 8.36942000 0.77293700
-2.44536000 8.50772000 0.70281300
-2.48716000 8.37567000 0.99349200
-2.35866000 8.51606000 0.92068400
-2.38528000 8.37558000 1.20516000
-2.25924000 8.51596000 1.13018000
-2.26401000 8.37030000 1.41433000
-2.14440000 8.50995000 1.33772000
-2.12367000 8.35803000 1.62308000
-2.01110000 8.49569000 1.54361000
-1.96264000 8.33586000 1.83165000
-1.85854000 8.47241000 1.74366000
-1.78022000 8.31138000 2.03373000
-1.69010000 8.45084000 1.92959000
-1.57527000 8.30064000 2.20055000
-1.50098000 8.44255000 2.08169000
-1.35078000 8.30837000 2.32728000
-1.28986000 8.45051000 2.20111000
-1.11175000 8.32716000 2.42351000
-1.06278000 8.46829000 2.29007000
-0.86509300 8.35142000 2.49044000
-0.82764800 8.49227000 2.35186000
-0.61787800 8.37280000 2.53627000
-0.59154100 8.51249000 2.39412000
-0.37024500 8.38724000 2.56242000
-0.35538700 8.52559000 2.41740000
-0.12275200 8.39747000 2.56987000
-0.12002100 8.53466000 2.42360000
-0.11909500 8.66288000 2.27104000
0.11469800 8.53966000 2.41333000
0.10354300 8.66764000 2.26169000
0.09160090 8.78660000 2.10640000
0.30072300 8.78757000 2.08414000
0.32548600 8.66871000 2.23684000
0.27480300 8.89616000 1.92964000
0.50757700 8.78442000 2.04419000
0.46906700 8.89348000 1.89427000
0.71216300 8.78142000 1.98647000
0.66138700 8.88977000 1.84123000
0.91263000 8.77415000 1.91094000
0.76141200 8.66427000 2.13163000
0.97391300 8.65783000 2.05169000
1.18146000 8.64408000 1.95528000
1.03395000 8.53318000 2.18949000
1.25274000 8.51893000 2.08696000
1.46543000 8.49722000 1.96597000
1.38304000 8.62451000 1.84248000
1.66330000 8.47801000 1.82410000
1.56828000 8.60849000 1.70899000
1.83516000 8.46996000 1.65770000
1.72847000 8.60201000 1.55259000
1.99046000 8.46630000 1.47612000
1.87344000 8.59923000 1.38276000
2.13441000 8.45880000 1.28389000
2.00897000 8.59322000 1.20460000
2.10122000 8.32693000 1.56522000
2.25332000 8.31860000 1.36036000
2.25332000 8.31860000 1.36036000
2.39014000 8.30550000 1.14314000
2.13441000 8.45880000 1.28389000
2.36514000 8.17178000 1.43331000
2.50882000 8.15743000 1.20275000
2.62250000 8.15636000 0.95456500
2.49646000 8.30430000 0.91031500
2.69443000 8.17668000 0.69212100
2.56256000 8.32253000 0.66078500
2.73650000 8.19640000 0.42662200
2.60125000 8.34197000 0.40722800
2.76015000 8.20950000 0.16376100
2.86337000 8.04259000 0.44541400
2.88925000 8.05514000 0.17237100
2.89614000 8.06060000 -0.09798840
2.76645000 8.21556000 -0.09664610
2.88300000 8.05759000 -0.36658900
2.75330000 8.21270000 -0.35598900
2.85050000 8.04717000 -0.63421700
2.72271000 8.20256000 -0.61403600
2.79862000 8.02903000 -0.90179900
2.67471000 8.18428000 -0.87254600
2.72488000 8.00232000 -1.17248000
2.60718000 8.15697000 -1.13337000
2.61963000 7.97515000 -1.44284000
2.50984000 8.12910000 -1.39123000
2.47415000 7.97015000 -1.69566000
2.37158000 8.12410000 -1.63234000
2.30247000 7.97446000 -1.92737000
2.20578000 8.12882000 -1.85368000
2.11376000 7.97293000 -2.14079000
2.02429000 8.12873000 -2.05817000
1.91001000 7.96775000 -2.33770000
1.82961000 8.12466000 -2.24633000
1.69084000 7.95909000 -2.51766000
1.62100000 8.11670000 -2.41796000
1.45747000 7.94391000 -2.68114000
1.39841000 8.10263000 -2.57445000
1.20854000 7.93025000 -2.82153000
1.16174000 8.09027000 -2.70766000
0.94516900 7.94275000 -2.92012000
0.91281500 8.10476000 -2.79871000
0.67231000 7.97409000 -2.97858000
0.65453700 8.13405000 -2.85337000
0.39551800 8.00292000 -3.01126000
0.39019500 8.16011000 -2.88466000
0.11766000 8.02542000 -3.02403000
0.12242800 8.18011000 -2.89684000
-0.16093800 8.04130000 -3.01561000
-0.14668200 8.19381000 -2.88850000
-0.43782300 8.05060000 -2.98409000
-0.41454100 8.20265000 -2.85763000
-0.71031200 8.05361000 -2.93095000
-0.67795700 8.20561000 -2.80561000
-0.97692200 8.05055000 -2.85550000
-0.93535600 8.20210000 -2.73169000
-1.23733000 8.04181000 -2.75788000
-1.18739000 8.19330000 -2.63777000
-1.49274000 8.02991000 -2.63911000
-1.43465000 8.18178000 -2.52483000
-1.73861000 8.01737000 -2.49382000
-1.67020000 8.17020000 -2.38727000
-1.88543000 8.16497000 -2.22360000
-1.96463000 8.00890000 -2.32256000
-2.17107000 8.00205000 -2.13473000
-2.08233000 8.16025000 -2.04392000
-2.36218000 7.99084000 -1.93311000
-2.26591000 8.15012000 -1.85095000
-2.53960000 7.97039000 -1.71584000
-2.43758000 8.13105000 -1.64423000
-2.70391000 7.94062000 -1.47742000
-2.59755000 8.10064000 -1.42104000
-2.70391000 7.94062000 -1.47742000
-2.84921000 7.91794000 -1.20423000
-2.73960000 8.07171000 -1.17183000
-2.59755000 8.10064000 -1.42104000
-2.95067000 7.92984000 -0.89379100
-2.83791000 8.07703000 -0.88333000
-3.00339000 7.96136000 -0.57973800
-2.88614000 8.11036000 -0.57885800
-3.02149000 7.99108000 -0.27480300
-2.90128000 8.14289000 -0.28045000
-3.01103000 8.01575000 0.02092150
-2.88813000 8.16905000 0.00874814
-2.97168000 8.03421000 0.30752700
-2.84574000 8.18927000 0.28850300
-2.91035000 8.04903000 0.58395000
-2.78279000 8.20682000 0.55946400
-2.83194000 8.05847000 0.84843000
-2.70507000 8.21992000 0.81843700
-2.74025000 8.06120000 1.09055000
-2.61606000 8.22334000 1.04917000
-2.62949000 8.06277000 1.32189000
-2.51030000 8.22422000 1.26954000
-2.49762000 8.06268000 1.54606000
-2.38306000 8.22121000 1.48417000
-2.34506000 8.05796000 1.76407000
-2.23573000 8.21232000 1.69631000
-2.17019000 8.04500000 1.97870000
-2.06660000 8.19400000 1.90885000
-1.96838000 8.02477000 2.19416000
-1.87108000 8.16882000 2.12080000
-1.73329000 8.00455000 2.39565000
-1.64849000 8.15192000 2.30641000
-1.48158000 8.00431000 2.55061000
-1.41234000 8.15757000 2.44328000
-1.21849000 8.02385000 2.66267000
-1.16253000 8.17692000 2.54626000
-0.94725200 8.04907000 2.74377000
-0.90397400 8.20200000 2.62018000
-0.67592100 8.07069000 2.79825000
-0.64527900 8.22436000 2.67054000
-0.40519100 8.08670000 2.83000000
-0.38672300 8.24061000 2.70012000
-0.13418400 8.09906000 2.84009000
-0.12765800 8.25245000 2.70947000
0.13631400 8.10721000 2.82963000
0.13126800 8.25977000 2.69887000
0.12414000 8.40395000 2.55973000
0.38940800 8.26305000 2.66832000
0.37029200 8.40571000 2.53053000
0.34900000 8.54138000 2.38657000
0.58080200 8.53943000 2.33922000
0.61412800 8.40242000 2.47836000
0.54497700 8.66644000 2.19333000
0.80931800 8.53860000 2.27373000
0.85528100 8.40409000 2.41027000
1.09130000 8.39840000 2.32103000
0.89814200 8.26264000 2.54238000
1.14457000 8.25597000 2.44758000
1.38512000 8.24093000 2.33261000
1.32120000 8.38409000 2.21282000
1.61901000 8.21890000 2.19749000
1.54421000 8.36211000 2.08474000
1.84002000 8.19650000 2.03906000
1.75384000 8.34091000 1.93454000
2.03378000 8.18576000 1.85363000
1.93713000 8.33156000 1.75833000
2.20597000 8.18085000 1.64988000
2.30692000 8.02991000 1.73056000
2.12510000 8.03463000 1.94440000
2.47239000 8.02088000 1.50454000
2.36514000 8.17178000 1.43331000
2.40254000 7.87462000 1.80860000
2.57621000 7.86619000 1.57392000
2.57621000 7.86619000 1.57392000
2.72650000 7.85143000 1.31926000
2.62051000 8.00603000 1.26195000
2.47239000 8.02088000 1.50454000
2.74002000 8.00376000 0.99890800
2.84958000 7.84861000 1.04084000
2.93285000 7.86606000 0.75072000
2.81713000 8.02329000 0.72243900
2.98487000 7.88411000 0.46277200
3.04245000 7.70470000 0.77580700
3.09962000 7.72012000 0.47841700
3.13026000 7.72960000 0.18709000
3.01357000 7.89582000 0.18019300
3.13739000 7.73201000 -0.10118200
3.02088000 7.90003000 -0.09937700
3.12415000 7.72859000 -0.38709300
3.00779000 7.89688000 -0.37695700
3.08883000 7.71910000 -0.67175500
2.97409000 7.88693000 -0.65347200
3.03056000 7.70331000 -0.95637000
2.91841000 7.86939000 -0.92984800
2.94335000 7.68035000 -1.24279000
2.83759000 7.84398000 -1.20914000
2.82245000 7.65758000 -1.53120000
2.72414000 7.81829000 -1.49024000
2.66522000 7.64999000 -1.80813000
2.57228000 7.81232000 -1.75537000
2.48267000 7.65175000 -2.06137000
2.39546000 7.81597000 -1.99772000
2.28053000 7.64939000 -2.29229000
2.20013000 7.81408000 -2.22022000
1.98786000 7.80875000 -2.42601000
2.06067000 7.64360000 -2.50548000
1.82392000 7.63319000 -2.69989000
1.75953000 7.79931000 -2.61356000
1.56842000 7.61620000 -2.87517000
1.51491000 7.78228000 -2.78269000
1.29060000 7.60065000 -3.02866000
1.25297000 7.76682000 -2.92919000
0.99455700 7.60944000 -3.13720000
0.97442200 7.77765000 -3.03310000
0.69360200 7.63944000 -3.20205000
0.68619600 7.80926000 -3.09504000
0.39519400 7.66906000 -3.23899000
0.39736900 7.83912000 -3.12957000
0.09923810 7.69197000 -3.25246000
0.10983800 7.86184000 -3.14192000
-0.17662900 7.87814000 -3.13239000
-0.19403300 7.70799000 -3.24246000
-0.48434100 7.71650000 -3.20830000
-0.46092000 7.88712000 -3.09957000
-0.77131700 7.71877000 -3.15183000
-0.74109200 7.88962000 -3.04472000
-1.05334000 7.71549000 -3.07143000
-1.01552000 7.88638000 -2.96691000
-1.32958000 7.70794000 -2.96627000
-1.28385000 7.87809000 -2.86596000
-1.60003000 7.69813000 -2.83717000
-1.54680000 7.86726000 -2.74196000
-1.86076000 7.68781000 -2.68151000
-1.80101000 7.85583000 -2.59135000
-2.10515000 7.67749000 -2.49877000
-2.03720000 7.84569000 -2.41398000
-2.32923000 7.66647000 -2.29562000
-2.25281000 7.83657000 -2.21818000
-2.53506000 7.65235000 -2.07632000
-2.45151000 7.82403000 -2.00804000
-2.72488000 7.63310000 -1.83748000
-2.63513000 7.80426000 -1.78124000
-2.89586000 7.61338000 -1.56698000
-2.80292000 7.77899000 -1.52727000
-2.89586000 7.61338000 -1.56698000
-3.04384000 7.60454000 -1.25746000
-2.95039000 7.76321000 -1.23275000
-2.80292000 7.77899000 -1.52727000
-3.15266000 7.61620000 -0.92373800
-3.05634000 7.77612000 -0.90749200
-3.21621000 7.63925000 -0.59297600
-3.11411000 7.80403000 -0.58478300
-3.24264000 7.66263000 -0.27332100
-3.13549000 7.83065000 -0.27258100
-3.23820000 7.68156000 0.03656630
-3.12757000 7.85245000 0.02976220
-3.20492000 7.69669000 0.33645600
-3.09179000 7.86957000 0.32261600
-3.14604000 7.70933000 0.62713500
-3.03209000 7.88323000 0.60718500
-3.06486000 7.71655000 0.90804700
-2.95118000 7.89110000 0.88184900
-2.96539000 7.71937000 1.16841000
-2.85685000 7.89313000 1.13078000
-2.84375000 7.72317000 1.41928000
-2.74113000 7.89522000 1.37063000
-2.70100000 7.72516000 1.66154000
-2.60370000 7.89623000 1.60378000
-2.53835000 7.72298000 1.89279000
-2.44615000 7.89355000 1.82799000
-2.35441000 7.71632000 2.11311000
-2.26739000 7.88489000 2.04470000
-2.14528000 7.70627000 2.32589000
-2.06220000 7.86967000 2.25776000
-1.90612000 7.69341000 2.53071000
-1.82415000 7.85161000 2.46373000
-1.63197000 7.68665000 2.71359000
-1.55796000 7.84560000 2.63796000
-1.33652000 7.70188000 2.85439000
-1.27741000 7.86383000 2.76404000
-1.03890000 7.72553000 2.95604000
-0.99261300 7.88911000 2.85509000
-0.74317500 7.74682000 3.02449000
-0.70873800 7.91091000 2.91614000
-0.44837700 7.76372000 3.06518000
-0.42592800 7.92785000 2.95233000
-0.15441200 7.77700000 3.08027000
-0.14307100 7.94104000 2.96455000
0.13807200 7.78575000 3.07060000
0.13848900 7.94988000 2.95479000
0.42902900 7.79056000 3.03597000
0.41912400 7.95469000 2.92132000
0.40583900 8.11151000 2.79751000
0.69730500 7.95631000 2.86559000
0.67346800 8.11290000 2.74372000
0.64611200 8.26338000 2.61592000
0.93614300 8.11184000 2.66684000
0.97048800 7.95571000 2.78635000
1.23617000 7.94979000 2.68360000
1.19257000 8.10531000 2.56728000
1.49533000 7.93632000 2.55881000
1.44330000 8.09096000 2.44698000
1.74847000 7.91540000 2.41125000
1.68751000 8.06948000 2.30557000
1.99110000 7.89244000 2.23716000
1.91936000 8.04680000 2.13950000
2.21013000 7.88054000 2.03258000
2.05637000 7.73507000 2.33094000
2.28692000 7.72317000 2.11673000
2.49081000 7.71604000 1.88353000
2.28692000 7.72317000 2.11673000
2.35112000 7.55723000 2.19055000
2.56334000 7.54756000 1.94866000
2.49081000 7.71604000 1.88353000
2.75321000 7.53761000 1.69367000
2.67503000 7.70864000 1.64016000
2.67503000 7.70864000 1.64016000
2.75321000 7.53761000 1.69367000
2.91290000 7.52678000 1.41465000
2.82690000 7.69359000 1.37156000
2.67503000 7.70864000 1.64016000
2.67503000 7.70864000 1.64016000
2.82690000 7.69359000 1.37156000
3.04472000 7.52580000 1.11162000
2.95303000 7.69040000 1.07875000
2.95303000 7.69040000 1.07875000
3.14114000 7.53724000 0.80047800
3.04245000 7.70470000 0.77580700
3.12059000 7.35260000 1.14170000
3.22084000 7.35973000 0.82500900
3.28675000 7.36783000 0.51211300
3.20307000 7.54918000 0.49484800
3.09962000 7.72012000 0.47841700
3.32202000 7.37209000 0.20342900
3.23593000 7.55608000 0.19458800
3.13026000 7.72960000 0.18709000
3.33225000 7.37213000 -0.10159900
3.24394000 7.55705000 -0.10215400
3.13739000 7.73201000 -0.10118200
3.31864000 7.36746000 -0.40384900
3.22964000 7.55265000 -0.39635100
3.12415000 7.72859000 -0.38709300
3.27949000 7.35797000 -0.70480400
3.19140000 7.54261000 -0.68902000
3.08883000 7.71910000 -0.67175500
3.21182000 7.34376000 -1.00455000
3.12720000 7.52696000 -0.98099500
3.03056000 7.70331000 -0.95637000
3.11485000 7.32714000 -1.30417000
3.03519000 7.50724000 -1.27417000
2.94335000 7.68035000 -1.24279000
2.98575000 7.31279000 -1.60350000
2.90947000 7.48868000 -1.56865000
2.82245000 7.65758000 -1.53120000
2.82056000 7.30530000 -1.89200000
2.74733000 7.48072000 -1.85280000
2.66522000 7.64999000 -1.80813000
2.62944000 7.30182000 -2.15949000
2.55959000 7.47947000 -2.11446000
2.48267000 7.65175000 -2.06137000
2.41851000 7.29835000 -2.40625000
2.35246000 7.47646000 -2.35353000
2.28053000 7.64939000 -2.29229000
2.18736000 7.29183000 -2.63171000
2.12631000 7.47008000 -2.57265000
2.06067000 7.64360000 -2.50548000
1.88215000 7.45943000 -2.77237000
1.93667000 7.28155000 -2.83629000
1.82392000 7.63319000 -2.69989000
1.66409000 7.26850000 -3.02033000
1.61697000 7.44402000 -2.95270000
1.56842000 7.61620000 -2.87517000
1.36230000 7.25623000 -3.17988000
1.32486000 7.42957000 -3.11045000
1.29060000 7.60065000 -3.02866000
1.03746000 7.25938000 -3.30411000
1.01298000 7.43596000 -3.22815000
0.99455700 7.60944000 -3.13720000
0.71401500 7.28386000 -3.38271000
0.70040600 7.46466000 -3.29897000
0.69360200 7.63944000 -3.20205000
0.39885000 7.30951000 -3.42603000
0.39292600 7.49303000 -3.33873000
0.39519400 7.66906000 -3.23899000
0.08854600 7.32895000 -3.44079000
0.08979570 7.51465000 -3.35331000
0.09923810 7.69197000 -3.25246000
-0.21824100 7.34168000 -3.42881000
-0.20958500 7.52867000 -3.34165000
-0.19403300 7.70799000 -3.24246000
-0.52137000 7.34987000 -3.39252000
-0.50549400 7.53645000 -3.30555000
-0.48434100 7.71650000 -3.20830000
-0.79867200 7.53900000 -3.24704000
-0.82181600 7.35353000 -3.33244000
-0.77131700 7.71877000 -3.15183000
-1.11842000 7.35195000 -3.24584000
-1.08806000 7.53631000 -3.16363000
-1.05334000 7.71549000 -3.07143000
-1.40970000 7.34607000 -3.13271000
-1.37198000 7.52969000 -3.05444000
-1.32958000 7.70794000 -2.96627000
-1.69274000 7.33774000 -2.99390000
-1.64932000 7.52108000 -2.92081000
-1.60003000 7.69813000 -2.83717000
-1.96491000 7.32927000 -2.82843000
-1.91635000 7.51206000 -2.76085000
-1.86076000 7.68781000 -2.68151000
-2.22221000 7.32071000 -2.63749000
-2.16820000 7.50317000 -2.57501000
-2.10515000 7.67749000 -2.49877000
-2.45961000 7.30895000 -2.42013000
-2.39981000 7.49160000 -2.36575000
-2.32923000 7.66647000 -2.29562000
-2.67781000 7.29460000 -2.17889000
-2.61222000 7.47660000 -2.13547000
-2.53506000 7.65235000 -2.07632000
-2.87804000 7.27988000 -1.91186000
-2.80801000 7.45892000 -1.88187000
-2.72488000 7.63310000 -1.83748000
-3.05574000 7.26924000 -1.61484000
-2.98288000 7.44452000 -1.59503000
-2.89586000 7.61338000 -1.56698000
-3.05574000 7.26924000 -1.61484000
-3.20381000 7.26725000 -1.29195000
-3.13095000 7.44045000 -1.27663000
-2.98288000 7.44452000 -1.59503000
-3.04384000 7.60454000 -1.25746000
-2.89586000 7.61338000 -1.56698000
-3.31466000 7.27567000 -0.95387100
-3.24065000 7.45036000 -0.93970700
-3.15266000 7.61620000 -0.92373800
-3.38525000 7.28951000 -0.61283200
-3.30855000 7.46832000 -0.60264900
-3.21621000 7.63925000 -0.59297600
-3.41881000 7.30400000 -0.27790400
-3.33887000 7.48720000 -0.27512700
-3.24264000 7.66263000 -0.27332100
-3.41950000 7.31594000 0.04910990
-3.33753000 7.50271000 0.04309270
-3.23820000 7.68156000 0.03656630
-3.38974000 7.32501000 0.36825500
-3.30698000 7.51525000 0.35131400
-3.20492000 7.69669000 0.33645600
-3.24903000 7.52650000 0.64791800
-3.33082000 7.33524000 0.67805000
-3.14604000 7.70933000 0.62713500
-3.24324000 7.34834000 0.97659800
-3.16664000 7.53608000 0.93369000
-3.06486000 7.71655000 0.90804700
-3.13114000 7.35769000 1.25362000
-3.05926000 7.54177000 1.20710000
-2.96539000 7.71937000 1.16841000
-2.99931000 7.36302000 1.52097000
-2.93067000 7.54622000 1.46895000
-2.84375000 7.72317000 1.41928000
-2.84652000 7.36389000 1.77726000
-2.78228000 7.54770000 1.71987000
-2.70100000 7.72516000 1.66154000
-2.67281000 7.36116000 2.02179000
-2.61324000 7.54483000 1.95815000
-2.53835000 7.72298000 1.89279000
-2.47470000 7.35691000 2.25290000
-2.42231000 7.53955000 2.18435000
-2.35441000 7.71632000 2.11311000
-2.24809000 7.34982000 2.46744000
-2.20504000 7.53178000 2.39782000
-2.14528000 7.70627000 2.32589000
-1.99768000 7.34482000 2.67017000
-1.96102000 7.52326000 2.59996000
-1.90612000 7.69341000 2.53071000
-1.72019000 7.34714000 2.85323000
-1.68543000 7.52053000 2.78265000
-1.63197000 7.68665000 2.71359000
-1.42011000 7.36065000 3.00353000
-1.38595000 7.53404000 2.93100000
-1.33652000 7.70188000 2.85439000
-1.11185000 7.37972000 3.11762000
-1.08042000 7.55487000 3.03991000
-1.03890000 7.72553000 2.95604000
-0.80117200 7.39791000 3.19812000
-0.77502000 7.57473000 3.11586000
-0.74317500 7.74682000 3.02449000
-0.48897000 7.41314000 3.24736000
-0.47017800 7.59153000 3.16201000
-0.44837700 7.76372000 3.06518000
-0.17713800 7.42675000 3.27078000
-0.16644600 7.60542000 3.18229000
-0.15441200 7.77700000 3.08027000
0.13450800 7.43703000 3.26481000
0.13622100 7.61546000 3.17520000
0.13807200 7.78575000 3.07060000
0.44448900 7.44300000 3.23172000
0.43740700 7.62102000 3.14118000
0.42902900 7.79056000 3.03597000
0.75062700 7.44573000 3.17377000
0.73530600 7.62370000 3.08379000
0.71725500 7.79255000 2.97881000
1.02682000 7.62268000 3.00093000
1.00002000 7.79200000 2.89762000
1.00002000 7.79200000 2.89762000
0.71725500 7.79255000 2.97881000
1.30949000 7.61666000 2.89281000
1.27473000 7.78691000 2.79306000
1.27473000 7.78691000 2.79306000
1.58388000 7.60509000 2.75988000
1.54157000 7.77473000 2.66471000
1.54157000 7.77473000 2.66471000
1.85146000 7.58848000 2.60162000
1.80332000 7.75654000 2.51289000
1.80332000 7.75654000 2.51289000
2.11089000 7.56959000 2.41222000
2.05637000 7.73507000 2.33094000
1.89534000 7.41138000 2.67411000
2.16130000 7.39634000 2.47906000
2.40736000 7.38389000 2.25276000
2.21198000 7.21953000 2.53867000
2.46410000 7.20833000 2.31011000
2.68846000 7.19611000 2.05655000
2.62588000 7.37236000 2.00485000
2.88855000 7.18467000 1.78397000
2.82083000 7.36112000 1.74023000
2.88855000 7.18467000 1.78397000
3.05680000 7.17708000 1.48654000
2.98668000 7.35329000 1.45219000
2.82083000 7.36112000 1.74023000
3.19353000 7.17639000 1.17146000
3.26356000 6.99698000 1.19988000
3.12457000 6.99906000 1.51838000
3.36910000 6.99791000 0.87486000
3.29740000 7.18014000 0.85028200
3.44093000 6.99967000 0.54891100
3.36669000 7.18477000 0.53048900
3.47944000 6.99893000 0.22439700
3.40363000 7.18639000 0.21356600
3.49143000 6.99569000 -0.09743290
3.41534000 7.18495000 -0.09993240
3.47815000 6.98999000 -0.41718000
3.40233000 7.17995000 -0.41107000
3.43487000 6.98124000 -0.73489000
3.36053000 7.17051000 -0.72012400
3.36164000 6.96981000 -1.05075000
3.28995000 7.15778000 -1.02825000
3.25732000 6.95755000 -1.36374000
3.18904000 7.14380000 -1.33472000
3.12035000 6.94783000 -1.67057000
3.05634000 7.13274000 -1.63817000
2.95317000 6.94195000 -1.96569000
2.89013000 7.12589000 -1.93014000
2.75631000 6.93667000 -2.24036000
2.69540000 7.12094000 -2.20124000
2.53779000 6.93149000 -2.49549000
2.48021000 7.11649000 -2.45276000
2.29706000 6.92403000 -2.72928000
2.24369000 7.10918000 -2.68262000
2.03521000 6.91459000 -2.94243000
1.98759000 7.09946000 -2.89221000
1.75102000 6.90566000 -3.13382000
1.70950000 7.08914000 -3.08069000
1.43932000 6.89811000 -3.29490000
1.40220000 7.07946000 -3.24144000
1.10523000 6.89793000 -3.42422000
1.07070000 7.07993000 -3.36840000
0.76520700 6.91112000 -3.51504000
0.73734300 7.09830000 -3.45315000
0.43162100 6.92964000 -3.56799000
0.41296800 7.12071000 -3.50162000
0.10414400 6.94584000 -3.58808000
0.09428550 7.13876000 -3.51925000
-0.21893500 6.95768000 -3.57993000
-0.22046200 7.15065000 -3.50782000
-0.53757100 6.96467000 -3.54050000
-0.53113700 7.15797000 -3.46880000
-0.85231800 6.96944000 -3.47782000
-0.83857100 7.16232000 -3.40696000
-1.16151000 6.96986000 -3.38655000
-1.14156000 7.16190000 -3.31786000
-1.43881000 7.15662000 -3.20094000
-1.46413000 6.96523000 -3.26481000
-1.76004000 6.95810000 -3.11582000
-1.72806000 7.14848000 -3.05671000
-2.04480000 6.95070000 -2.93845000
-2.00605000 7.14028000 -2.88503000
-2.31381000 6.94301000 -2.73423000
-2.26813000 7.13172000 -2.68670000
-2.56381000 6.93422000 -2.50465000
-2.51234000 7.12168000 -2.46355000
-2.79283000 6.92440000 -2.24906000
-2.73761000 7.11024000 -2.21545000
-2.99802000 6.91427000 -1.96537000
-2.94123000 7.09830000 -1.93875000
-3.17738000 6.90765000 -1.65733000
-3.12031000 7.09016000 -1.63562000
-3.17738000 6.90765000 -1.65733000
-3.32559000 6.90709000 -1.32981000
-3.26921000 7.08942000 -1.31037000
-3.12031000 7.09016000 -1.63562000
-3.43672000 6.91172000 -0.98784500
-3.37974000 7.09543000 -0.97016400
-3.51097000 6.91945000 -0.63838300
-3.45195000 7.10575000 -0.62523700
-3.54957000 6.92792000 -0.28868900
-3.48884000 7.11696000 -0.28294900
-3.55184000 6.93524000 0.05841350
-3.49009000 7.12584000 0.05397000
-3.46047000 7.13334000 0.38570500
-3.52212000 6.94241000 0.40213700
-3.45783000 6.95194000 0.74234200
-3.39914000 7.14339000 0.71091300
-3.35859000 6.96463000 1.06732000
-3.30606000 7.15741000 1.02126000
-3.24149000 6.97476000 1.35110000
-3.18946000 7.16806000 1.30343000
-3.10448000 6.97884000 1.61836000
-3.05398000 7.17287000 1.57142000
-2.94391000 6.97925000 1.87733000
-2.89730000 7.17301000 1.82905000
-2.76020000 6.97870000 2.12802000
-2.71803000 7.17069000 2.07641000
-2.54788000 6.97773000 2.36598000
-2.51201000 7.16745000 2.31043000
-2.30997000 6.97703000 2.59074000
-2.28063000 7.16412000 2.53182000
-2.04730000 6.97814000 2.80130000
-2.02374000 7.16259000 2.73872000
-1.76347000 6.98499000 2.98973000
-1.74305000 7.16824000 2.92396000
-1.46302000 6.99819000 3.14340000
-1.44330000 7.18185000 3.07536000
-1.15360000 7.01513000 3.26190000
-1.13453000 7.19944000 3.19113000
-0.83769200 7.03193000 3.34716000
-0.82107500 7.21652000 3.27389000
-0.51655700 7.04651000 3.40085000
-0.50401300 7.23110000 3.32600000
-0.19185700 7.05891000 3.42534000
-0.18528500 7.24392000 3.35040000
0.13404600 7.06877000 3.41983000
0.13353600 7.25396000 3.34498000
0.45879100 7.07521000 3.38636000
0.45106100 7.26017000 3.31193000
0.78025000 7.07734000 3.32573000
0.76520700 7.26290000 3.25375000
1.07310000 7.26151000 3.16784000
1.09532000 7.07516000 3.23612000
1.05042000 7.44452000 3.08980000
1.37258000 7.25595000 3.05541000
1.34083000 7.43805000 2.97835000
1.66076000 7.24531000 2.91109000
1.62146000 7.42624000 2.83916000
1.94153000 7.23253000 2.73974000
1.69941000 7.06081000 2.97173000
1.98768000 7.05086000 2.79700000
2.26280000 7.03989000 2.59199000
2.03100000 6.86599000 2.84569000
