4.84677000 -2.88051000 -3.16726000
5.08549000 -3.10874000 -2.78439000
5.08246000 -2.88002000 -2.78678000
5.28942000 -3.10607000 -2.38539000
5.28464000 -2.87798000 -2.38722000
5.46906000 -3.10093000 -1.97492000
5.46392000 -2.87291000 -1.97611000
5.61209000 -3.09409000 -1.54972000
5.60504000 -2.86643000 -1.55043000
5.72088000 -3.08642000 -1.11404000
5.71166000 -2.85946000 -1.11397000
5.71166000 -2.85946000 -1.11397000
5.72088000 -3.08642000 -1.11404000
5.79821000 -3.07755000 -0.67187400
5.79123000 -2.85143000 -0.67201500
5.83567000 -3.06762000 -0.22625900
5.82701000 -2.84270000 -0.22548400
5.84827000 -3.05621000 0.21787700
5.83588000 -2.83235000 0.21907500
5.82370000 -3.04290000 0.65870400
5.81208000 -2.82002000 0.65983100
5.76145000 -3.02748000 1.09319000
5.74891000 -2.80516000 1.09362000
5.67314000 -3.00994000 1.52296000
5.66265000 -2.78784000 1.52282000
5.54744000 -2.99093000 1.94562000
5.53491000 -2.76883000 1.94428000
5.39287000 -2.97016000 2.36194000
5.37956000 -2.74791000 2.35997000
5.20415000 -2.94917000 2.76643000
5.18830000 -2.72693000 2.76305000
4.98324000 -2.92910000 3.15437000
4.96845000 -2.70665000 3.15156000
4.73917000 -2.91058000 3.52710000
4.72269000 -2.68777000 3.52309000
4.46453000 -2.89417000 3.87688000
4.44615000 -2.67130000 3.87124000
4.16602000 -2.88002000 4.20729000
4.14630000 -2.65707000 4.19975000
3.84265000 -2.86918000 4.51389000
3.82406000 -2.64573000 4.50657000
3.49309000 -2.86178000 4.79247000
3.47478000 -2.63841000 4.78381000
3.12283000 -2.85699000 5.04521000
3.10290000 -2.63390000 5.03162000
2.73334000 -2.85467000 5.26774000
2.71517000 -2.63144000 5.25485000
2.33103000 -2.85453000 5.46582000
2.31441000 -2.63109000 5.45273000
1.91393000 -2.85777000 5.62617000
1.89823000 -2.63454000 5.61152000
1.49001000 -2.86361000 5.75905000
1.47494000 -2.64045000 5.74264000
1.05869000 -2.87312000 5.85377000
1.04482000 -2.64982000 5.83764000
0.62272000 -2.88622000 5.91369000
0.60962200 -2.66235000 5.90088000
0.18379500 -2.90248000 5.94475000
0.17055600 -2.67806000 5.92940000
-0.25745400 -2.92192000 5.93947000
-0.27027000 -2.69707000 5.92383000
-0.69891400 -2.94361000 5.90193000
-0.71159000 -2.71820000 5.88595000
-1.13728000 -2.96699000 5.82912000
-1.14995000 -2.74087000 5.81419000
-1.56951000 -2.99121000 5.72455000
-1.58106000 -2.76481000 5.70729000
-1.99154000 -3.01558000 5.58744000
-2.00470000 -2.78826000 5.57603000
-2.40117000 -3.03959000 5.41843000
-2.41250000 -2.81192000 5.40477000
-2.79699000 -3.06177000 5.22048000
-2.80904000 -2.83326000 5.20936000
-3.17670000 -3.08184000 4.99176000
-3.18733000 -2.85277000 4.97923000
-3.54105000 -3.09945000 4.73515000
-3.55302000 -2.86932000 4.72473000
-3.88801000 -3.11473000 4.45087000
-3.89709000 -2.88368000 4.43657000
-4.21320000 -3.12790000 4.13813000
-4.22377000 -2.89601000 4.12532000
-4.51558000 -3.13860000 3.80068000
-4.52270000 -2.90593000 3.78456000
-4.78860000 -3.14719000 3.43774000
-4.79543000 -2.91361000 3.42147000
-5.03303000 -3.15409000 3.05459000
-5.04084000 -2.92002000 3.03959000
-5.25020000 -3.15973000 2.65623000
-5.25485000 -2.92530000 2.64031000
-5.43195000 -3.16395000 2.24223000
-5.43815000 -2.92938000 2.22751000
-5.58519000 -3.16705000 1.81809000
-5.58730000 -2.93213000 1.80295000
-5.70166000 -3.16902000 1.38353000
-5.70356000 -2.93403000 1.36952000
-5.78335000 -3.17008000 0.94129800
-5.78433000 -2.93502000 0.92805900
-5.83180000 -3.16987000 0.49335900
-5.83158000 -2.93481000 0.48054200
-5.84694000 -3.16867000 0.04140600
-5.84637000 -2.93354000 0.02915300
-5.82856000 -3.16698000 -0.41160300
-5.82637000 -2.93199000 -0.42301100
-5.77180000 -3.16501000 -0.86249900
-5.76990000 -2.93023000 -0.87369600
-5.68082000 -3.16268000 -1.30840000
-5.67765000 -2.92790000 -1.31889000
-5.55455000 -3.16064000 -1.74655000
-5.54871000 -2.92614000 -1.75500000
-5.39449000 -3.15909000 -2.17385000
-5.38850000 -2.92502000 -2.18104000
-5.20217000 -3.15818000 -2.58820000
-5.19668000 -2.92438000 -2.59447000
-4.97740000 -3.15789000 -2.98565000
-4.97021000 -2.92459000 -2.98938000
-4.72262000 -3.15832000 -3.36345000
-4.71480000 -2.92572000 -3.36528000
-4.44087000 -3.15965000 -3.71879000
-4.43333000 -2.92776000 -3.71956000
-4.13398000 -3.16219000 -4.05004000
-4.12630000 -2.93093000 -4.04983000
-3.80385000 -3.16585000 -4.35601000
-3.79512000 -2.93516000 -4.35439000
-3.44936000 -3.16980000 -4.63220000
-3.44253000 -2.93966000 -4.63290000
-3.07543000 -3.17416000 -4.88113000
-3.06860000 -2.94480000 -4.88226000
-2.68446000 -3.17832000 -5.10063000
-2.67644000 -2.94980000 -5.09908000
-2.27857000 -3.18099000 -5.28788000
-2.27188000 -2.95325000 -5.28696000
-1.86210000 -3.18141000 -5.44604000
-2.27990000 -3.40880000 -5.27752000
-1.86260000 -3.40866000 -5.43526000
-1.43473000 -3.40584000 -5.55843000
-1.85999000 -3.63597000 -5.41745000
-1.43212000 -3.63273000 -5.54125000
-0.99678900 -3.62696000 -5.63842000
-0.99925400 -3.40014000 -5.65356000
-0.55314600 -3.61745000 -5.69546000
-0.55624400 -3.39126000 -5.71596000
-0.10457300 -3.60541000 -5.71997000
-0.10668600 -3.37936000 -5.73750000
0.34442200 -3.59259000 -5.71096000
0.34350700 -3.36669000 -5.72800000
0.78968500 -3.57985000 -5.66758000
0.79060000 -3.35415000 -5.68680000
1.22748000 -3.56914000 -5.59279000
1.23030000 -3.34324000 -5.61152000
1.65634000 -3.56126000 -5.48780000
1.66000000 -3.33479000 -5.50237000
2.07477000 -3.55584000 -5.34625000
2.08012000 -3.32915000 -5.36161000
2.48250000 -3.55358000 -5.17197000
2.48842000 -3.32613000 -5.18668000
2.88023000 -3.55407000 -4.96817000
2.88558000 -3.32592000 -4.98092000
3.26141000 -3.55626000 -4.72931000
3.26782000 -3.32739000 -4.74389000
3.62809000 -3.55985000 -4.46573000
3.63287000 -3.33035000 -4.47798000
3.96800000 -3.56316000 -4.16877000
3.97525000 -3.33373000 -4.18320000
4.28623000 -3.56640000 -3.85012000
4.29496000 -3.33690000 -3.86491000
4.57784000 -3.56816000 -3.50908000
4.58959000 -3.33894000 -3.52513000
4.83916000 -3.56809000 -3.14649000
4.84916000 -3.33901000 -3.15966000
5.06732000 -3.56591000 -2.76341000
5.07774000 -3.33732000 -2.77488000
5.27562000 -3.56238000 -2.37032000
5.28647000 -3.33430000 -2.37990000
5.44822000 -3.55640000 -1.95964000
5.46407000 -3.32894000 -1.96950000
5.59160000 -3.54886000 -1.53782000
5.60603000 -3.32169000 -1.54515000
5.70018000 -3.53964000 -1.10587000
5.71603000 -3.31324000 -1.11115000
5.71603000 -3.31324000 -1.11115000
5.70018000 -3.53964000 -1.10587000
5.77701000 -3.52929000 -0.66778900
5.79145000 -3.30359000 -0.67025400
5.82201000 -3.51774000 -0.22668100
5.83560000 -3.29282000 -0.22682200
5.83482000 -3.50478000 0.21365200
5.84665000 -3.28057000 0.21597600
5.80870000 -3.48978000 0.65159100
5.82278000 -3.26648000 0.65588700
5.75187000 -3.47330000 1.08545000
5.76335000 -3.25043000 1.09059000
5.66194000 -3.45521000 1.51388000
5.67145000 -3.23261000 1.51965000
5.54286000 -3.43612000 1.93717000
5.55131000 -3.21346000 1.94372000
5.39104000 -3.41563000 2.35236000
5.39505000 -3.19289000 2.35877000
5.20598000 -3.39472000 2.75594000
5.20950000 -3.17198000 2.76369000
4.98901000 -3.37472000 3.14374000
4.98972000 -3.15191000 3.15149000
4.74572000 -3.35655000 3.51408000
4.74543000 -3.13367000 3.52295000
4.47685000 -3.34049000 3.86533000
4.47446000 -3.11740000 3.87455000
4.18299000 -3.32711000 4.19637000
4.17694000 -3.10360000 4.20475000
3.86279000 -3.31704000 4.50396000
3.85618000 -3.09304000 4.51361000
3.51661000 -3.30986000 4.78536000
3.50696000 -3.08579000 4.79276000
3.14642000 -3.30528000 5.03753000
3.13614000 -3.08114000 5.04450000
2.75707000 -3.30275000 5.26161000
2.74777000 -3.07860000 5.27076000
2.35399000 -3.30261000 5.45935000
2.34370000 -3.07853000 5.46681000
1.93752000 -3.30543000 5.62279000
1.92696000 -3.08156000 5.62976000
1.51303000 -3.31120000 5.75243000
1.50247000 -3.08748000 5.76152000
1.08270000 -3.32042000 5.84799000
1.07129000 -3.09684000 5.85651000
0.64877500 -3.33387000 5.90982000
0.63567700 -3.11029000 5.91644000
0.21224500 -3.35127000 5.94186000
0.19759700 -3.12705000 5.94848000
-0.22661000 -3.37183000 5.93996000
-0.24294700 -3.14698000 5.94447000
-0.66588700 -3.39486000 5.90031000
-0.68363300 -3.16937000 5.90637000
-1.10263000 -3.41957000 5.82792000
-1.12122000 -3.19339000 5.83292000
-1.53395000 -3.44514000 5.72553000
-1.55353000 -3.21825000 5.73011000
-1.95506000 -3.47063000 5.58821000
-1.97569000 -3.24317000 5.59328000
-2.36420000 -3.49549000 5.41991000
-2.38574000 -3.26761000 5.42491000
-2.75826000 -3.51901000 5.21985000
-2.78031000 -3.29050000 5.22443000
-3.13804000 -3.54063000 4.99303000
-3.16050000 -3.31127000 4.99662000
-3.50267000 -3.55992000 4.74029000
-3.52422000 -3.32972000 4.74036000
-3.84561000 -3.57640000 4.45439000
-3.87033000 -3.34570000 4.45608000
-4.16954000 -3.59098000 4.14419000
-4.19609000 -3.35979000 4.14539000
-4.47066000 -3.60309000 3.80977000
-4.49861000 -3.37127000 3.80949000
-4.74607000 -3.61316000 3.45168000
-4.77198000 -3.38042000 3.44774000
-4.99071000 -3.62090000 3.07100000
-5.01648000 -3.38782000 3.06536000
-5.20668000 -3.62724000 2.67397000
-5.23238000 -3.39380000 2.66665000
-5.39111000 -3.63210000 2.26223000
-5.41639000 -3.39838000 2.25385000
-5.54463000 -3.63562000 1.83908000
-5.56962000 -3.40169000 1.82978000
-5.66216000 -3.63766000 1.40522000
-5.68589000 -3.40366000 1.39501000
-5.74779000 -3.63886000 0.96439500
-5.77109000 -3.40486000 0.95341000
-5.80116000 -3.63921000 0.51793500
-5.82088000 -3.40479000 0.50589300
-5.81870000 -3.63816000 0.06739080
-5.83694000 -3.40366000 0.05415190
-5.79842000 -3.63583000 -0.38442100
-5.81743000 -3.40162000 -0.39843500
-5.74384000 -3.63351000 -0.83412000
-5.76081000 -3.39943000 -0.84883800
-5.65730000 -3.63104000 -1.27981000
-5.67363000 -3.39711000 -1.29530000
-5.53301000 -3.62851000 -1.71753000
-5.54920000 -3.39486000 -1.73401000
-5.37498000 -3.62640000 -2.14519000
-5.38829000 -3.39302000 -2.16125000
-5.18429000 -3.62471000 -2.56017000
-5.19739000 -3.39169000 -2.57644000
-4.95796000 -3.62309000 -2.95657000
-4.97275000 -3.39091000 -2.97431000
-4.70642000 -3.62224000 -3.33627000
-4.71797000 -3.39056000 -3.35239000
-4.42629000 -3.62245000 -3.69210000
-4.43671000 -3.39134000 -3.70822000
-4.12039000 -3.62351000 -4.02187000
-4.13011000 -3.39310000 -4.03891000
-3.79223000 -3.62569000 -4.32609000
-3.80202000 -3.39626000 -4.34538000
-3.44091000 -3.62830000 -4.60206000
-3.44795000 -3.39943000 -4.62072000
-3.07057000 -3.63203000 -4.85142000
-3.07501000 -3.40331000 -4.86909000
-2.68172000 -3.63499000 -5.07091000
-2.68545000 -3.40683000 -5.08979000
-2.27702000 -3.63647000 -5.25929000
-2.67425000 -3.86251000 -5.04627000
-2.27152000 -3.86399000 -5.23661000
-1.85499000 -3.86315000 -5.39442000
-2.25976000 -4.08997000 -5.20140000
-1.84422000 -4.08891000 -5.35823000
-1.41825000 -4.08560000 -5.48421000
-1.42719000 -3.85962000 -5.51822000
-0.98376100 -4.07842000 -5.57526000
-0.99228200 -3.85364000 -5.61533000
-0.54328700 -4.06891000 -5.63892000
-0.54920200 -3.84378000 -5.67342000
-0.09809450 -4.05595000 -5.66349000
-0.10182700 -3.83117000 -5.69694000
0.34745000 -4.04236000 -5.65765000
0.34590100 -3.81808000 -5.68955000
0.78834700 -4.02884000 -5.61364000
0.78919200 -3.80498000 -5.64483000
1.22122000 -4.01729000 -5.53941000
1.22474000 -3.79421000 -5.57082000
1.64430000 -4.00948000 -5.43224000
1.65190000 -3.78632000 -5.46688000
2.05900000 -4.00603000 -5.29583000
2.06752000 -3.78146000 -5.32344000
2.46490000 -4.00546000 -5.12605000
2.47511000 -3.78019000 -5.15281000
2.85939000 -4.00701000 -4.91867000
2.87115000 -3.78132000 -4.94747000
3.24127000 -4.01152000 -4.68269000
3.25374000 -3.78456000 -4.71058000
3.60126000 -4.01575000 -4.41348000
3.61619000 -3.78829000 -4.44249000
3.93864000 -4.01976000 -4.11828000
3.95490000 -3.79174000 -4.14623000
4.25278000 -4.02328000 -3.80167000
4.27088000 -3.79505000 -3.82766000
4.53953000 -4.02483000 -3.46338000
4.56143000 -3.79681000 -3.48859000
4.79804000 -4.02413000 -3.10459000
4.82339000 -3.79674000 -3.12888000
5.03176000 -4.02208000 -2.73094000
5.05338000 -3.79435000 -2.74960000
5.23055000 -4.01680000 -2.33863000
5.25569000 -3.78991000 -2.35596000
5.40118000 -4.00983000 -1.93358000
5.42759000 -3.78336000 -1.94795000
5.54258000 -4.00103000 -1.51733000
5.57117000 -3.77547000 -1.52881000
5.64885000 -3.99054000 -1.09150000
5.67821000 -3.76555000 -1.09939000
5.67821000 -3.76555000 -1.09939000
5.64885000 -3.99054000 -1.09150000
5.72363000 -3.97842000 -0.65955000
5.75300000 -3.75421000 -0.66419800
5.76814000 -3.96547000 -0.22548400
5.79898000 -3.74203000 -0.22632900
5.77954000 -3.95089000 0.20928600
5.81060000 -3.72822000 0.21132800
5.75588000 -3.93469000 0.64116900
5.78518000 -3.71252000 0.64673300
5.70208000 -3.91765000 1.07031000
5.72912000 -3.69555000 1.07833000
5.62026000 -3.89969000 1.49571000
5.64385000 -3.67759000 1.50578000
5.50413000 -3.88040000 1.91513000
5.52709000 -3.65858000 1.92759000
5.35696000 -3.85998000 2.32737000
5.37674000 -3.63802000 2.34110000
5.17577000 -3.83871000 2.72707000
5.19443000 -3.61696000 2.74362000
4.96416000 -3.81829000 3.11233000
4.97951000 -3.59675000 3.13022000
4.72628000 -3.80005000 3.48035000
4.73903000 -3.57872000 3.49978000
4.46164000 -3.78456000 3.82794000
4.47425000 -3.56316000 3.85110000
4.17060000 -3.77210000 4.15363000
4.18018000 -3.54992000 4.17856000
3.85737000 -3.76315000 4.46030000
3.86244000 -3.54041000 4.48565000
3.51534000 -3.75653000 4.73945000
3.51844000 -3.53358000 4.76600000
3.15142000 -3.75245000 4.99387000
3.15149000 -3.52929000 5.02021000
2.76728000 -3.75005000 5.21964000
2.76369000 -3.52668000 5.24436000
2.36617000 -3.74963000 5.41547000
2.36166000 -3.52661000 5.44216000
1.95224000 -3.75146000 5.57864000
1.94562000 -3.52873000 5.60427000
1.53163000 -3.75667000 5.71187000
1.52240000 -3.53422000 5.73441000
1.10488000 -3.76534000 5.80666000
1.09369000 -3.54323000 5.82989000
0.67560500 -3.77900000 5.87039000
0.66208500 -3.55675000 5.89193000
0.24442600 -3.79709000 5.90095000
0.22801900 -3.57478000 5.92405000
-0.18956900 -3.81906000 5.89996000
-0.20872400 -3.59583000 5.92292000
-0.62469200 -3.84343000 5.86215000
-0.64624000 -3.61964000 5.88581000
-1.05756000 -3.87019000 5.79166000
-1.08136000 -3.64513000 5.81328000
-1.48409000 -3.89674000 5.68736000
-1.51050000 -3.67132000 5.70990000
-1.90175000 -3.92315000 5.55153000
-1.93062000 -3.69752000 5.57427000
-2.30835000 -3.94941000 5.38639000
-2.33906000 -3.72315000 5.40822000
-2.69996000 -3.97413000 5.18957000
-2.73172000 -3.74703000 5.20844000
-3.07579000 -3.99687000 4.96402000
-3.11036000 -3.76928000 4.98268000
-3.43485000 -4.01708000 4.71065000
-3.47260000 -3.78914000 4.72966000
-3.77618000 -4.03504000 4.43157000
-3.81512000 -3.80653000 4.44728000
-4.09743000 -4.05067000 4.12644000
-4.13694000 -3.82153000 4.13856000
-4.39545000 -4.06363000 3.79618000
-4.43791000 -3.83435000 3.80674000
-4.66980000 -4.07497000 3.44380000
-4.71205000 -3.84477000 3.45056000
-4.91233000 -4.08328000 3.06811000
-4.95704000 -3.85308000 3.07269000
-5.13014000 -4.09039000 2.67686000
-5.17387000 -3.85977000 2.67791000
-5.31640000 -4.09631000 2.27068000
-5.35963000 -3.86505000 2.26850000
-5.46871000 -4.09997000 1.85105000
-5.51068000 -3.86850000 1.84598000
-5.59075000 -4.10271000 1.42163000
-5.63314000 -3.87118000 1.41473000
-5.67906000 -4.10405000 0.98418300
-5.71920000 -3.87223000 0.97495800
-5.73236000 -4.10426000 0.54054000
-5.77292000 -3.87265000 0.52962500
-5.75180000 -4.10356000 0.09393900
-5.79011000 -3.87153000 0.08062970
-5.73462000 -4.10088000 -0.35414100
-5.77292000 -3.86927000 -0.36984400
-5.68229000 -4.09856000 -0.79982600
-5.71870000 -3.86681000 -0.81799400
-5.59744000 -4.09567000 -1.24164000
-5.63237000 -3.86420000 -1.26199000
-5.47378000 -4.09215000 -1.67563000
-5.50829000 -3.86125000 -1.69824000
-5.31794000 -4.08933000 -2.10076000
-5.35252000 -3.85885000 -2.12547000
-5.12950000 -4.08673000 -2.51299000
-5.16302000 -3.85660000 -2.53968000
-4.91134000 -4.08483000 -2.91037000
-4.93909000 -3.85463000 -2.93607000
-4.66135000 -4.08229000 -3.28740000
-4.68896000 -3.85315000 -3.31564000
-4.38404000 -4.08067000 -3.64140000
-4.40988000 -3.85244000 -3.67055000
-4.08187000 -4.07983000 -3.96969000
-4.10631000 -3.85294000 -4.00075000
-3.75921000 -4.08152000 -4.27334000
-3.77935000 -3.85448000 -4.30362000
-3.41197000 -4.08314000 -4.54622000
-3.42978000 -3.85667000 -4.57847000
-3.04727000 -4.08652000 -4.79508000
-3.06276000 -3.86026000 -4.82902000
-2.66116000 -4.08856000 -5.01232000
-3.02262000 -4.30968000 -4.74853000
-2.64045000 -4.31200000 -4.96620000
-2.24131000 -4.31355000 -5.15422000
-2.61531000 -4.53361000 -4.91416000
-2.21857000 -4.53558000 -5.09922000
-1.80788000 -4.53467000 -5.25351000
-1.82830000 -4.31278000 -5.31048000
-1.38832000 -4.53143000 -5.37914000
-1.40494000 -4.30954000 -5.43660000
-0.96073400 -4.52453000 -5.47132000
-0.97319800 -4.30228000 -5.52787000
-0.52680900 -4.51396000 -5.53329000
-0.53554100 -4.29235000 -5.59061000
-0.08886950 -4.49974000 -5.56061000
-0.09365800 -4.27890000 -5.61786000
0.34928100 -4.48382000 -5.55441000
0.34878800 -4.26418000 -5.61159000
0.78369900 -4.46911000 -5.51646000
0.78630500 -4.25038000 -5.57005000
1.20946000 -4.45636000 -5.44379000
1.21579000 -4.23799000 -5.49547000
1.62458000 -4.44833000 -5.33879000
1.63542000 -4.23017000 -5.39013000
2.03308000 -4.44636000 -5.20365000
2.04667000 -4.22757000 -5.25422000
2.43145000 -4.44636000 -5.03099000
2.44863000 -4.22693000 -5.08176000
2.82411000 -4.45228000 -4.82895000
2.84354000 -4.23095000 -4.87972000
3.19909000 -4.45847000 -4.59164000
3.22141000 -4.23595000 -4.64086000
3.55457000 -4.46467000 -4.32721000
3.58119000 -4.24137000 -4.37559000
3.88667000 -4.46995000 -4.03645000
3.91526000 -4.24602000 -4.08145000
4.19264000 -4.47397000 -3.72315000
4.22546000 -4.24940000 -3.76576000
4.47157000 -4.47509000 -3.38908000
4.50918000 -4.25088000 -3.42929000
4.72572000 -4.47390000 -3.03896000
4.76607000 -4.25003000 -3.07480000
4.95289000 -4.47080000 -2.67165000
4.99901000 -4.24806000 -2.70552000
5.14732000 -4.46453000 -2.28772000
5.19549000 -4.24214000 -2.31645000
5.31379000 -4.45615000 -1.89112000
5.36189000 -4.23405000 -1.91422000
5.45083000 -4.44566000 -1.48388000
5.50082000 -4.22426000 -1.50156000
5.55596000 -4.43418000 -1.06749000
5.60723000 -4.21341000 -1.08045000
5.60723000 -4.21341000 -1.08045000
5.55596000 -4.43418000 -1.06749000
5.63068000 -4.42101000 -0.64567800
5.68370000 -4.20116000 -0.65342400
5.67194000 -4.40601000 -0.22041400
5.72814000 -4.18743000 -0.22351200
5.68546000 -4.39066000 0.20520200
5.73701000 -4.17173000 0.20696200
5.66476000 -4.37390000 0.62933900
5.71582000 -4.15539000 0.63560600
5.61441000 -4.35679000 1.05017000
5.66645000 -4.13884000 1.06136000
5.53378000 -4.33834000 1.46642000
5.58434000 -4.12032000 1.48261000
5.42245000 -4.31876000 1.87781000
5.46850000 -4.10067000 1.89823000
5.28140000 -4.29806000 2.28307000
5.32499000 -4.08011000 2.30786000
5.11169000 -4.27743000 2.67806000
5.14908000 -4.05927000 2.70594000
4.90733000 -4.25679000 3.05874000
4.94282000 -4.03870000 3.09008000
4.67656000 -4.23792000 3.42204000
4.70846000 -4.02046000 3.45647000
4.41700000 -4.22257000 3.76294000
4.44284000 -4.00448000 3.79864000
4.13335000 -4.21109000 4.08426000
4.15630000 -3.99293000 4.12285000
3.82456000 -4.20285000 4.38432000
3.84568000 -3.98434000 4.42749000
3.49204000 -4.19743000 4.66234000
3.50725000 -3.97800000 4.70536000
3.13726000 -4.19496000 4.91641000
3.14719000 -3.97462000 4.95979000
2.76009000 -4.19271000 5.13950000
2.76608000 -3.97216000 5.18478000
2.36807000 -4.19264000 5.33646000
2.36913000 -3.97202000 5.38139000
1.96168000 -4.19313000 5.50089000
1.95816000 -3.97293000 5.54617000
1.54536000 -4.19609000 5.63018000
1.53930000 -3.97772000 5.67814000
1.12664000 -4.20482000 5.72976000
1.11580000 -3.98603000 5.77349000
0.70440700 -4.21799000 5.79236000
0.68926700 -3.99934000 5.83398000
0.27984700 -4.23609000 5.81975000
0.26160900 -4.01751000 5.86539000
-0.14689500 -4.25947000 5.81989000
-0.16893700 -4.04018000 5.86489000
-0.57497600 -4.28538000 5.78032000
-0.60082000 -4.06518000 5.82489000
-1.00186000 -4.31418000 5.71370000
-1.03158000 -4.09363000 5.75976000
-1.42191000 -4.34271000 5.61258000
-1.45487000 -4.12067000 5.65575000
-1.83168000 -4.36925000 5.47611000
-1.86865000 -4.14750000 5.51871000
-2.23293000 -4.39749000 5.31632000
-2.27272000 -4.17433000 5.35534000
-2.61954000 -4.42312000 5.12535000
-2.66200000 -4.19947000 5.16091000
-2.98832000 -4.44622000 4.90099000
-3.03508000 -4.22264000 4.93655000
-3.34169000 -4.46721000 4.65262000
-3.39176000 -4.24341000 4.68565000
-3.67710000 -4.48594000 4.37791000
-3.73055000 -4.26186000 4.40904000
-3.99314000 -4.50192000 4.07919000
-4.04927000 -4.27764000 4.10638000
-4.28616000 -4.51601000 3.75576000
-4.34418000 -4.29088000 3.77878000
-4.55516000 -4.52763000 3.41035000
-4.61868000 -4.30313000 3.43091000
-4.79966000 -4.53798000 3.04529000
-4.86008000 -4.31172000 3.05903000
-5.01634000 -4.54594000 2.66249000
-5.07669000 -4.31911000 2.67151000
-5.20323000 -4.55248000 2.26427000
-5.26520000 -4.32594000 2.26962000
-5.35365000 -4.55608000 1.85098000
-5.41625000 -4.32939000 1.85267000
-5.47597000 -4.55882000 1.42881000
-5.53850000 -4.33200000 1.42600000
-5.56660000 -4.56072000 0.99798500
-5.62737000 -4.33362000 0.99178800
-5.61800000 -4.56030000 0.56053900
-5.67913000 -4.33341000 0.55075100
-5.63709000 -4.55946000 0.12069800
-5.69842000 -4.33270000 0.10696700
-5.62483000 -4.55791000 -0.31970600
-5.68413000 -4.33052000 -0.33717000
-5.57836000 -4.55565000 -0.75870100
-5.63511000 -4.32827000 -0.77996800
-5.49385000 -4.55199000 -1.19375000
-5.55026000 -4.32496000 -1.21868000
-5.37773000 -4.54868000 -1.62240000
-5.42878000 -4.32123000 -1.65000000
-5.22224000 -4.54446000 -2.03984000
-5.27274000 -4.31756000 -2.07118000
-5.04148000 -4.54150000 -2.44814000
-5.08979000 -4.31531000 -2.48278000
-4.82501000 -4.53784000 -2.83960000
-4.87198000 -4.31242000 -2.87734000
-4.58044000 -4.53396000 -3.21261000
-4.62368000 -4.30897000 -3.25212000
-4.30771000 -4.53023000 -3.56281000
-4.34756000 -4.30616000 -3.60365000
-4.01244000 -4.52770000 -3.88878000
-4.05018000 -4.30475000 -3.93230000
-3.69379000 -4.52727000 -4.18567000
-3.72935000 -4.30545000 -4.23250000
-3.35380000 -4.52819000 -4.45446000
-3.38563000 -4.30658000 -4.50291000
-2.99389000 -4.53093000 -4.69741000
-3.31817000 -4.74783000 -4.40108000
-2.96023000 -4.74980000 -4.64016000
-2.58489000 -4.75339000 -4.85543000
-2.91981000 -4.96493000 -4.57530000
-2.54750000 -4.96937000 -4.78600000
-2.15928000 -4.97296000 -4.96895000
-2.19230000 -4.75614000 -5.03972000
-1.75739000 -4.97380000 -5.12119000
-1.78549000 -4.75599000 -5.19316000
-1.34839000 -4.97085000 -5.24267000
-1.37001000 -4.75262000 -5.31633000
-0.93031300 -4.96324000 -5.33400000
-0.94622800 -4.74515000 -5.40731000
-0.50624600 -4.95141000 -5.39322000
-0.51702000 -4.73403000 -5.46850000
-0.07844740 -4.93585000 -5.42287000
-0.08379930 -4.71881000 -5.49597000
0.35061900 -4.91831000 -5.42196000
0.35026700 -4.70234000 -5.49167000
0.77658700 -4.89958000 -5.38498000
0.78074200 -4.68572000 -5.45576000
1.19368000 -4.88430000 -5.31626000
1.20178000 -4.67248000 -5.38463000
1.60064000 -4.87472000 -5.21133000
1.61296000 -4.66368000 -5.28027000
2.00125000 -4.87275000 -5.07760000
2.01745000 -4.66163000 -5.14457000
2.39518000 -4.87817000 -4.90564000
2.41391000 -4.66368000 -4.97310000
2.77833000 -4.88733000 -4.70001000
2.80249000 -4.67093000 -4.76888000
3.14325000 -4.89599000 -4.46509000
3.17388000 -4.67882000 -4.53382000
3.48753000 -4.90303000 -4.20327000
3.52436000 -4.68579000 -4.27045000
3.80871000 -4.91050000 -3.92075000
3.85054000 -4.69121000 -3.98152000
4.10433000 -4.91465000 -3.61548000
4.15271000 -4.69600000 -3.67301000
4.37390000 -4.91514000 -3.28965000
4.42693000 -4.69691000 -3.34310000
4.61755000 -4.91219000 -2.94636000
4.67614000 -4.69494000 -2.99607000
4.83874000 -4.90902000 -2.58996000
4.89958000 -4.69121000 -2.63334000
5.02634000 -4.90162000 -2.21794000
5.08697000 -4.68318000 -2.25307000
5.18746000 -4.89148000 -1.83288000
5.25485000 -4.67515000 -1.86408000
5.32175000 -4.88015000 -1.43909000
5.39118000 -4.66452000 -1.46304000
5.42569000 -4.86733000 -1.03446000
5.49667000 -4.65255000 -1.05277000
5.49667000 -4.65255000 -1.05277000
5.42569000 -4.86733000 -1.03446000
5.49674000 -4.85275000 -0.62490400
5.56871000 -4.63840000 -0.63624100
5.53955000 -4.83656000 -0.21133000
5.61004000 -4.62290000 -0.21661100
5.55160000 -4.82022000 0.20266700
5.62427000 -4.60706000 0.20351200
5.53540000 -4.80332000 0.61560700
5.60504000 -4.58995000 0.62201500
5.48836000 -4.78719000 1.02538000
5.55399000 -4.57276000 1.03784000
5.41231000 -4.76924000 1.43085000
5.47646000 -4.55481000 1.44923000
5.30555000 -4.74966000 1.83006000
5.36625000 -4.53481000 1.85499000
5.16971000 -4.72860000 2.22188000
5.22837000 -4.51396000 2.25385000
5.00697000 -4.70663000 2.60637000
5.06281000 -4.49291000 2.64432000
4.81212000 -4.68508000 2.97861000
4.85726000 -4.47037000 3.01825000
4.59192000 -4.66621000 3.33732000
4.63593000 -4.45277000 3.38126000
4.34052000 -4.65030000 3.67175000
4.38136000 -4.43742000 3.71935000
4.06736000 -4.64023000 3.98870000
4.10257000 -4.42679000 4.03807000
3.76646000 -4.63333000 4.28228000
3.79787000 -4.41904000 4.33545000
3.44373000 -4.63044000 4.55488000
3.47084000 -4.41488000 4.61157000
3.10022000 -4.63002000 4.80437000
3.12085000 -4.41341000 4.86402000
2.73763000 -4.62924000 5.02570000
2.74981000 -4.41165000 5.08528000
2.35680000 -4.62727000 5.21400000
2.36265000 -4.41031000 5.27710000
1.96386000 -4.62826000 5.38196000
1.96330000 -4.41150000 5.44583000
1.55937000 -4.62981000 5.51526000
1.55198000 -4.41334000 5.57674000
1.14784000 -4.63495000 5.61188000
1.13699000 -4.42094000 5.67399000
0.73518000 -4.64593000 5.67525000
0.71898400 -4.43341000 5.73736000
0.31963400 -4.66600000 5.70779000
0.29935400 -4.45193000 5.76701000
-0.09936200 -4.69163000 5.70765000
-0.12386800 -4.47664000 5.76673000
-0.51948500 -4.72015000 5.66990000
-0.54779400 -4.50368000 5.72877000
-0.93672100 -4.75015000 5.60131000
-0.96939600 -4.53235000 5.65821000
-1.34832000 -4.78029000 5.50413000
-1.38635000 -4.56220000 5.56117000
-1.74880000 -4.80825000 5.37041000
-1.79204000 -4.59002000 5.42716000
-2.13998000 -4.83642000 5.21281000
-2.18843000 -4.61833000 5.26858000
-2.51778000 -4.86275000 5.02627000
-2.57151000 -4.64459000 5.08133000
-2.87953000 -4.88627000 4.80980000
-2.93685000 -4.66790000 4.85902000
-3.22543000 -4.90754000 4.56798000
-3.28697000 -4.68917000 4.61473000
-3.55548000 -4.92754000 4.30151000
-3.61935000 -4.70846000 4.34355000
-3.86357000 -4.94381000 4.00891000
-3.93166000 -4.72473000 4.04750000
-4.15109000 -4.95803000 3.69442000
-4.22433000 -4.73938000 3.72970000
-4.41524000 -4.97078000 3.35901000
-4.49235000 -4.75191000 3.38972000
-4.65340000 -4.98085000 3.00177000
-4.73212000 -4.76149000 3.02684000
-4.86557000 -4.98923000 2.62911000
-4.94655000 -4.76994000 2.64855000
-5.04859000 -4.99563000 2.24082000
-5.13246000 -4.77635000 2.25519000
-5.19957000 -5.00007000 1.83943000
-5.28309000 -4.78029000 1.84696000
-5.31963000 -5.00225000 1.42635000
-5.40498000 -4.78304000 1.42902000
-5.41111000 -5.00521000 1.00601000
-5.49604000 -4.78522000 1.00306000
-5.46688000 -5.00542000 0.57877800
-5.54970000 -4.78522000 0.57032700
-5.48674000 -5.00430000 0.14858500
-5.56984000 -4.78459000 0.13499400
-5.47815000 -5.00345000 -0.28308700
-5.55871000 -4.78332000 -0.30196000
-5.43329000 -5.00148000 -0.71321000
-5.51167000 -4.78057000 -0.73651900
-5.35132000 -4.99634000 -1.13812000
-5.42935000 -4.77663000 -1.16728000
-5.24189000 -4.99401000 -1.55803000
-5.31640000 -4.77374000 -1.59155000
-5.09690000 -4.99021000 -1.96900000
-5.16732000 -4.76987000 -2.00738000
-4.91733000 -4.98599000 -2.36582000
-4.98521000 -4.76585000 -2.40969000
-4.70994000 -4.98113000 -2.75038000
-4.77297000 -4.76142000 -2.79784000
-4.47178000 -4.97521000 -3.11621000
-4.53382000 -4.75783000 -3.17036000
-4.20764000 -4.96923000 -3.46281000
-4.26362000 -4.75219000 -3.51774000
-3.91751000 -4.96380000 -3.78195000
-3.96842000 -4.74762000 -3.83956000
-3.60605000 -4.96127000 -4.07321000
-3.65449000 -4.74705000 -4.13469000
-3.27190000 -4.96148000 -4.33594000
-3.54950000 -5.17041000 -4.00399000
-3.21972000 -5.17063000 -4.26369000
-2.87058000 -5.17450000 -4.49904000
-3.16170000 -5.37484000 -4.18475000
-2.81713000 -5.38034000 -4.41643000
-2.45250000 -5.38738000 -4.61776000
-2.50257000 -5.18077000 -4.70706000
-2.07604000 -5.39294000 -4.79226000
-2.11850000 -5.18429000 -4.88444000
-1.68915000 -5.39646000 -4.93972000
-1.72528000 -5.18788000 -5.03683000
-1.29276000 -5.39146000 -5.05479000
-1.32227000 -5.18408000 -5.15570000
-0.88982200 -5.38329000 -5.14338000
-0.91122900 -5.17563000 -5.24464000
-0.48033200 -5.37062000 -5.20330000
-0.49378200 -5.16401000 -5.30513000
-0.06563100 -5.35344000 -5.23492000
-0.07225050 -5.14774000 -5.33569000
0.35167500 -5.33273000 -5.23337000
0.35104100 -5.12851000 -5.33414000
0.76588300 -5.31104000 -5.20267000
0.77158700 -5.10866000 -5.30090000
1.17340000 -5.29069000 -5.13936000
1.18305000 -5.09084000 -5.23295000
1.57345000 -5.27837000 -5.04099000
1.58705000 -5.08035000 -5.13359000
1.96527000 -5.28097000 -4.90571000
1.98386000 -5.07880000 -4.99690000
2.34835000 -5.29379000 -4.73283000
2.37405000 -5.08781000 -4.82459000
2.71658000 -5.30724000 -4.52523000
2.75024000 -5.09971000 -4.61868000
3.06367000 -5.31752000 -4.29327000
3.10698000 -5.10880000 -4.38362000
3.38958000 -5.32513000 -4.03828000
3.44232000 -5.11640000 -4.12553000
3.69428000 -5.33238000 -3.76505000
3.75604000 -5.12394000 -3.84702000
3.97842000 -5.33675000 -3.47281000
4.04497000 -5.12802000 -3.54795000
4.23560000 -5.33569000 -3.15888000
4.31017000 -5.12802000 -3.22803000
4.46876000 -5.33245000 -2.82911000
4.54889000 -5.12478000 -2.89044000
4.67797000 -5.32766000 -2.48497000
4.76473000 -5.12154000 -2.54151000
4.85902000 -5.31921000 -2.12660000
4.94789000 -5.11316000 -2.17456000
5.01521000 -5.30816000 -1.75824000
5.10781000 -5.10295000 -1.79809000
5.14408000 -5.29506000 -1.37875000
5.24041000 -5.09112000 -1.41128000
5.24548000 -5.28119000 -0.99024100
5.33970000 -5.07648000 -1.01376000
5.33970000 -5.07648000 -1.01376000
5.24548000 -5.28119000 -0.99024100
5.31661000 -5.26506000 -0.59504600
5.41146000 -5.06127000 -0.61082000
5.36146000 -5.24985000 -0.19513300
5.45688000 -5.04612000 -0.20386500
5.37660000 -5.23436000 0.20463900
5.46864000 -5.02929000 0.20337100
5.36139000 -5.21781000 0.60349500
5.45449000 -5.01317000 0.60969200
5.31337000 -5.19978000 0.99897100
5.40576000 -4.99585000 1.01256000
5.24555000 -5.18541000 1.39029000
5.33541000 -4.97979000 1.41128000
5.14957000 -5.16865000 1.77380000
5.23288000 -4.96127000 1.80253000
5.02070000 -5.14697000 2.14829000
5.10021000 -4.93951000 2.18674000
4.86888000 -5.12563000 2.51743000
4.94176000 -4.91733000 2.56362000
4.68607000 -5.10140000 2.87474000
4.75550000 -4.89550000 2.93058000
4.47742000 -5.08000000 3.22620000
4.53960000 -4.87578000 3.28549000
4.23616000 -5.06253000 3.55562000
4.29418000 -4.85958000 3.61935000
3.97025000 -5.05317000 3.86758000
4.02384000 -4.84973000 3.93272000
3.68182000 -5.05098000 4.15778000
3.72963000 -4.84501000 4.22489000
3.36908000 -5.05239000 4.42242000
3.41155000 -4.84374000 4.49404000
3.03741000 -5.05394000 4.65980000
3.07353000 -4.84444000 4.73762000
2.69144000 -5.05366000 4.87205000
2.71827000 -4.84374000 4.95437000
2.33356000 -5.05415000 5.06028000
2.34863000 -4.84297000 5.14436000
1.96069000 -5.05373000 5.22450000
1.96351000 -4.84247000 5.30935000
1.57155000 -5.05176000 5.35618000
1.56592000 -4.84254000 5.44188000
1.17101000 -5.05169000 5.45822000
1.15953000 -4.84592000 5.54181000
0.76581300 -5.06141000 5.52505000
0.74996800 -4.85564000 5.60511000
0.35977400 -5.08070000 5.55533000
0.34005600 -4.87564000 5.63716000
-0.04795570 -5.10774000 5.54927000
-0.07372930 -4.90254000 5.63603000
-0.45631900 -5.13739000 5.51040000
-0.48864100 -4.93219000 5.59892000
-0.86087900 -5.16943000 5.44322000
-0.89996200 -4.96303000 5.53005000
-1.25861000 -5.19873000 5.34351000
-1.30523000 -4.99275000 5.43111000
-1.64711000 -5.22823000 5.21710000
-1.70000000 -5.02113000 5.30034000
-2.02491000 -5.25569000 5.06190000
-2.08428000 -5.04887000 5.14274000
-2.39159000 -5.28266000 4.88176000
-2.45645000 -5.07458000 4.95775000
-2.74362000 -5.30717000 4.67558000
-2.81481000 -5.09936000 4.74839000
-3.07931000 -5.32809000 4.44228000
-3.15494000 -5.12014000 4.50903000
-3.40035000 -5.34837000 4.18672000
-3.48084000 -5.14035000 4.24778000
-3.69914000 -5.36604000 3.90357000
-3.78547000 -5.15732000 3.96033000
-3.97603000 -5.37900000 3.59907000
-4.06757000 -5.17112000 3.65048000
-4.23313000 -5.39372000 3.27704000
-4.32778000 -5.18415000 3.32035000
-4.46256000 -5.40365000 2.93276000
-4.56248000 -5.19464000 2.97009000
-4.67015000 -5.41329000 2.57517000
-4.77184000 -5.20323000 2.60419000
-4.84972000 -5.41970000 2.20061000
-4.95254000 -5.20950000 2.22160000
-4.99803000 -5.42301000 1.81260000
-5.10253000 -5.21344000 1.82689000
-5.11690000 -5.42660000 1.41374000
-5.22351000 -5.21675000 1.42100000
-5.20696000 -5.42984000 1.00601000
-5.31358000 -5.21985000 1.00707000
-5.26513000 -5.43019000 0.59272100
-5.37034000 -5.21999000 0.58645300
-5.28823000 -5.42907000 0.17421700
-5.39111000 -5.21858000 0.16126000
-5.27957000 -5.42738000 -0.24499000
-5.38252000 -5.21703000 -0.26407400
-5.24013000 -5.42688000 -0.66307100
-5.34069000 -5.21591000 -0.68807000
-5.16373000 -5.42294000 -1.07650000
-5.26161000 -5.21182000 -1.10763000
-5.05655000 -5.41956000 -1.48297000
-5.15330000 -5.20872000 -1.52092000
-4.91923000 -5.41646000 -1.87985000
-5.01211000 -5.20492000 -1.92485000
-4.74959000 -5.41245000 -2.26427000
-4.83733000 -5.20070000 -2.31659000
-4.55171000 -5.40702000 -2.63595000
-4.63565000 -5.19619000 -2.69679000
-4.32390000 -5.39879000 -2.99107000
-4.40221000 -5.18887000 -3.05628000
-4.06793000 -5.38794000 -3.32690000
-4.14025000 -5.17999000 -3.39711000
-3.78829000 -5.37921000 -3.63985000
-3.85540000 -5.17337000 -3.71344000
-3.48732000 -5.37421000 -3.92758000
-3.71667000 -5.58089000 -3.56133000
-3.41957000 -5.57307000 -3.84597000
-3.09769000 -5.57378000 -4.10032000
-3.34218000 -5.76384000 -3.75477000
-3.02762000 -5.76602000 -4.00800000
-2.68989000 -5.77863000 -4.22672000
-2.75798000 -5.58251000 -4.32672000
-2.33934000 -5.79025000 -4.41679000
-2.39786000 -5.59068000 -4.52094000
-1.97879000 -5.79743000 -4.58262000
-2.02949000 -5.59807000 -4.69269000
-1.60754000 -5.80004000 -4.72065000
-1.64965000 -5.60047000 -4.83423000
-1.22946000 -5.79560000 -4.83113000
-1.26213000 -5.59568000 -4.94733000
-0.84411900 -5.78630000 -4.91719000
-0.86820300 -5.58751000 -5.03500000
-0.45174100 -5.77222000 -4.97719000
-0.46660000 -5.57406000 -5.09486000
-0.05323720 -5.75166000 -5.00733000
-0.05872990 -5.55519000 -5.12556000
0.34998500 -5.72835000 -5.01021000
0.35160500 -5.53244000 -5.12493000
0.75243300 -5.69948000 -4.98042000
0.75982700 -5.50822000 -5.09577000
1.14988000 -5.67194000 -4.92606000
1.16263000 -5.48470000 -5.03824000
1.54141000 -5.66046000 -4.83268000
1.55853000 -5.47266000 -4.94071000
1.92083000 -5.67103000 -4.69262000
1.94393000 -5.47787000 -4.80374000
2.28314000 -5.69060000 -4.51305000
2.31687000 -5.49350000 -4.62593000
2.62883000 -5.70842000 -4.31221000
2.67489000 -5.50970000 -4.42193000
2.95600000 -5.72103000 -4.08997000
3.01480000 -5.52209000 -4.19532000
3.26275000 -5.72962000 -3.84625000
3.32986000 -5.52962000 -3.94483000
3.55274000 -5.73715000 -3.58591000
3.62731000 -5.53758000 -3.67809000
3.81970000 -5.73856000 -3.30275000
3.90195000 -5.53977000 -3.38986000
4.06412000 -5.73645000 -3.00325000
4.15215000 -5.53786000 -3.08290000
4.28954000 -5.73419000 -2.69003000
4.38221000 -5.53582000 -2.76249000
4.48636000 -5.72659000 -2.36131000
4.58593000 -5.53012000 -2.42553000
4.66044000 -5.71772000 -2.01956000
4.76156000 -5.52012000 -2.07505000
4.81275000 -5.70666000 -1.66866000
4.91803000 -5.51040000 -1.71479000
4.93345000 -5.69110000 -1.30678000
5.04211000 -5.49547000 -1.34389000
5.03197000 -5.67575000 -0.93665100
5.14352000 -5.48139000 -0.96510100
5.14352000 -5.48139000 -0.96510100
5.03197000 -5.67575000 -0.93665100
5.10352000 -5.65962000 -0.55899100
5.21457000 -5.46477000 -0.57765200
5.14753000 -5.64293000 -0.17534500
5.25738000 -5.44836000 -0.18597900
5.16105000 -5.62737000 0.21062400
5.27245000 -5.43329000 0.20752600
5.14823000 -5.61251000 0.59427000
5.25921000 -5.41752000 0.59807300
5.10704000 -5.59765000 0.97256400
5.21401000 -5.40069000 0.98580300
5.03901000 -5.58378000 1.34389000
5.14563000 -5.38618000 1.36727000
4.94676000 -5.56744000 1.70788000
5.05105000 -5.36942000 1.74155000
4.82895000 -5.54829000 2.06259000
4.92859000 -5.34949000 2.10780000
4.68776000 -5.52744000 2.41025000
4.78466000 -5.32900000 2.46539000
4.52192000 -5.50181000 2.74974000
4.60741000 -5.30365000 2.81488000
4.32848000 -5.47533000 3.08776000
4.40812000 -5.28055000 3.16036000
4.10201000 -5.45414000 3.41408000
4.17215000 -5.26062000 3.48739000
3.84230000 -5.44484000 3.71921000
3.90878000 -5.25119000 3.79526000
3.55858000 -5.44526000 3.99891000
3.62323000 -5.25048000 4.07990000
3.26043000 -5.45336000 4.25306000
3.31866000 -5.25569000 4.34122000
2.94551000 -5.45921000 4.47953000
2.99389000 -5.25844000 4.57312000
2.62242000 -5.46470000 4.68325000
2.65947000 -5.26098000 4.78198000
2.28800000 -5.46526000 4.85979000
2.31258000 -5.26147000 4.96479000
1.94090000 -5.46385000 5.01669000
1.95273000 -5.25999000 5.12429000
1.57733000 -5.45773000 5.14922000
1.57683000 -5.25675000 5.25900000
1.19615000 -5.44998000 5.25682000
1.18305000 -5.25365000 5.36343000
0.80095200 -5.45357000 5.33027000
0.78158700 -5.26126000 5.43428000
0.40258900 -5.47308000 5.35710000
0.38026600 -5.27957000 5.45963000
0.00584482 -5.50505000 5.34879000
-0.02147800 -5.30886000 5.45421000
-0.38850500 -5.53773000 5.31104000
-0.42272900 -5.33970000 5.41470000
-0.77736200 -5.57040000 5.24414000
-0.82031700 -5.37231000 5.34780000
-1.15882000 -5.60103000 5.15034000
-1.20974000 -5.40153000 5.25006000
-1.53360000 -5.63173000 5.03183000
-1.59190000 -5.43202000 5.12760000
-1.89724000 -5.65885000 4.88282000
-1.96280000 -5.45956000 4.97570000
-2.25054000 -5.68582000 4.70973000
-2.32342000 -5.48695000 4.79959000
-2.59130000 -5.71201000 4.51396000
-2.66890000 -5.51146000 4.59755000
-2.91213000 -5.72962000 4.28735000
-2.99804000 -5.53075000 4.36749000
-3.21923000 -5.74849000 4.04138000
-3.31303000 -5.55153000 4.11828000
-3.50830000 -5.76722000 3.77181000
-3.60837000 -5.57019000 3.84132000
-3.77498000 -5.78208000 3.48042000
-3.87920000 -5.58329000 3.54316000
-4.02229000 -5.79581000 3.17078000
-4.13166000 -5.59850000 3.22768000
-4.24574000 -5.80807000 2.84333000
-4.35784000 -5.60913000 2.89100000
-4.44291000 -5.81701000 2.49926000
-4.55981000 -5.61751000 2.54003000
-4.61621000 -5.82250000 2.14237000
-4.73888000 -5.62483000 2.17491000
-4.76283000 -5.82827000 1.77190000
-4.88803000 -5.63033000 1.79549000
-4.88029000 -5.83187000 1.39156000
-5.00444000 -5.63293000 1.40480000
-4.96676000 -5.83363000 0.99953500
-5.09281000 -5.63554000 1.00390000
-5.02429000 -5.83391000 0.60138200
-5.15190000 -5.63610000 0.59786100
-5.05204000 -5.83215000 0.20034300
-5.17598000 -5.63420000 0.18731500
-5.04563000 -5.83123000 -0.20590700
-5.16880000 -5.63321000 -0.22604700
-5.00711000 -5.83025000 -0.61110200
-5.12880000 -5.63209000 -0.63715700
-4.93613000 -5.82820000 -1.00954000
-5.05570000 -5.62948000 -1.04411000
-4.83480000 -5.82644000 -1.40029000
-4.95071000 -5.62603000 -1.44283000
-4.70544000 -5.82384000 -1.78084000
-4.81930000 -5.62392000 -1.83225000
-4.54326000 -5.81877000 -2.14716000
-4.65311000 -5.61934000 -2.20765000
-4.35679000 -5.81257000 -2.50313000
-4.45946000 -5.61314000 -2.57208000
-4.14123000 -5.80299000 -2.84284000
-4.23898000 -5.60476000 -2.92023000
-3.90117000 -5.78954000 -3.16768000
-3.98983000 -5.59251000 -3.25106000
-3.63576000 -5.77511000 -3.47387000
-3.80068000 -5.97961000 -3.07867000
-3.54478000 -5.96172000 -3.37915000
-3.25986000 -5.94848000 -3.65731000
-3.44598000 -6.14411000 -3.28000000
-3.17233000 -6.12721000 -3.55365000
-2.86629000 -6.13136000 -3.79181000
-2.94966000 -5.95123000 -3.90406000
-2.53996000 -6.14805000 -3.99413000
-2.61721000 -5.96707000 -4.11511000
-2.20498000 -6.16108000 -4.17011000
-2.27434000 -5.98059000 -4.30045000
-1.86239000 -6.17009000 -4.32623000
-1.92351000 -5.98904000 -4.46080000
-1.51036000 -6.16995000 -4.45340000
-1.56085000 -5.98890000 -4.59227000
-1.15150000 -6.16481000 -4.55805000
-1.19136000 -5.98482000 -4.70030000
-0.78623400 -6.15551000 -4.64171000
-0.81545900 -5.97510000 -4.78424000
-0.41547500 -6.13911000 -4.70023000
-0.43434800 -5.96158000 -4.84642000
-0.03823780 -6.11995000 -4.73628000
-0.04696980 -5.94045000 -4.87775000
0.34625300 -6.09347000 -4.74346000
0.34780200 -5.91531000 -4.88226000
0.73602500 -6.06242000 -4.72494000
0.74461600 -5.88729000 -4.85994000
1.12185000 -6.03010000 -4.67586000
1.13671000 -5.85412000 -4.80578000
1.49564000 -6.01714000 -4.58579000
1.51937000 -5.84313000 -4.71600000
1.85077000 -6.04073000 -4.43439000
1.89140000 -5.86081000 -4.57058000
2.18660000 -6.06664000 -4.26017000
2.23976000 -5.88327000 -4.39242000
2.50680000 -6.08333000 -4.06680000
2.57433000 -5.90137000 -4.19532000
2.81185000 -6.09545000 -3.85350000
2.88826000 -5.91158000 -3.97441000
3.10212000 -6.10411000 -3.62259000
3.18796000 -5.92243000 -3.73949000
3.37577000 -6.10897000 -3.37275000
3.46901000 -5.92820000 -3.48415000
3.62837000 -6.11002000 -3.10614000
3.72928000 -5.92954000 -3.20909000
3.86089000 -6.10791000 -2.82136000
3.96948000 -5.92904000 -2.91833000
4.07257000 -6.10390000 -2.52384000
4.18405000 -5.92250000 -2.60940000
4.26278000 -6.09826000 -2.21315000
4.38151000 -5.91905000 -2.29251000
4.42770000 -6.08883000 -1.89168000
4.55072000 -5.90855000 -1.95907000
4.56755000 -6.07446000 -1.55930000
4.69684000 -5.89623000 -1.61726000
4.68853000 -6.06179000 -1.22009000
4.81966000 -5.88320000 -1.26629000
4.78628000 -6.04636000 -0.87165400
4.91465000 -5.86539000 -0.90538500
4.91465000 -5.86539000 -0.90538500
4.78628000 -6.04636000 -0.87165400
4.84980000 -6.02538000 -0.51293700
4.98373000 -5.84785000 -0.53765400
4.89508000 -6.00869000 -0.14922000
5.02697000 -5.83095000 -0.16379700
4.91183000 -5.99559000 0.21935600
5.04535000 -5.81806000 0.21435600
4.89916000 -5.98278000 0.58560800
5.02951000 -5.80257000 0.58955200
4.85487000 -5.96883000 0.94256500
4.98796000 -5.78800000 0.95784600
4.78895000 -5.95602000 1.29121000
4.92014000 -5.77377000 1.31868000
4.70452000 -5.94412000 1.63268000
4.83127000 -5.75962000 1.67148000
4.59769000 -5.92820000 1.96632000
4.71910000 -5.74201000 2.01632000
4.46615000 -5.90729000 2.29490000
4.58206000 -5.72067000 2.35321000
4.31566000 -5.88278000 2.61735000
4.42474000 -5.69561000 2.68489000
4.14595000 -5.85412000 2.93572000
4.24207000 -5.66540000 3.01184000
3.93892000 -5.82602000 3.24838000
4.02356000 -5.64230000 3.33268000
3.69548000 -5.81461000 3.54802000
3.77357000 -5.63364000 3.63731000
3.42098000 -5.82278000 3.81871000
3.49182000 -5.63730000 3.91216000
3.13247000 -5.83757000 4.05680000
3.19839000 -5.64786000 4.15708000
2.83763000 -5.84898000 4.26862000
2.89410000 -5.65652000 4.37855000
2.53250000 -5.85511000 4.45368000
2.57898000 -5.66173000 4.57143000
2.21970000 -5.85729000 4.62086000
2.25709000 -5.66427000 4.74543000
1.89823000 -5.85673000 4.77233000
1.92316000 -5.66258000 4.89859000
1.56282000 -5.84567000 4.89817000
1.57317000 -5.65342000 5.02774000
1.21227000 -5.83046000 5.01007000
1.20636000 -5.64173000 5.13873000
0.84081000 -5.82349000 5.09570000
0.82052900 -5.64138000 5.21781000
0.45406500 -5.84532000 5.13119000
0.42702400 -5.66152000 5.24738000
0.06710980 -5.88257000 5.11971000
0.03528020 -5.69603000 5.23640000
-0.31160700 -5.91884000 5.08077000
-0.35216800 -5.73194000 5.20175000
-0.68412600 -5.95397000 5.01944000
-0.73278600 -5.76574000 5.13640000
-1.04897000 -5.98123000 4.92451000
-1.10474000 -5.79511000 5.04260000
-1.40381000 -6.00841000 4.80902000
-1.47283000 -5.82637000 4.93007000
-1.74971000 -6.03461000 4.66748000
-1.82704000 -5.85250000 4.78184000
-2.08576000 -6.05953000 4.50030000
-2.17167000 -5.87701000 4.60938000
-2.40807000 -6.08080000 4.30820000
-2.50215000 -5.90081000 4.41502000
-2.71812000 -6.09988000 4.09553000
-2.81819000 -5.91912000 4.19567000
-3.01051000 -6.11960000 3.86209000
-3.11874000 -5.93855000 3.95596000
-3.28613000 -6.13643000 3.60668000
-3.39950000 -5.95524000 3.69231000
-3.53985000 -6.15150000 3.32944000
-3.66111000 -5.97080000 3.40802000
-3.77435000 -6.16608000 3.03712000
-3.90413000 -5.98552000 3.10642000
-3.98701000 -6.18016000 2.72763000
-4.11976000 -5.99756000 2.78784000
-4.17440000 -6.18699000 2.40039000
-4.31256000 -6.00616000 2.45271000
-4.33841000 -6.19284000 2.06026000
-4.48150000 -6.01130000 2.10315000
-4.47861000 -6.19889000 1.71119000
-4.62410000 -6.01686000 1.74309000
-4.59213000 -6.20157000 1.34959000
-4.74029000 -6.02038000 1.37283000
-4.67804000 -6.20389000 0.98009900
-4.82768000 -6.02242000 0.99157700
-4.73522000 -6.20326000 0.60363600
-4.88339000 -6.02172000 0.60384700
-4.76424000 -6.20087000 0.22069400
-4.91289000 -6.02017000 0.21154000
-4.76198000 -6.19720000 -0.16633200
-4.90824000 -6.01820000 -0.18590800
-4.72614000 -6.19720000 -0.55497700
-4.87127000 -6.01749000 -0.58399000
-4.65769000 -6.19777000 -0.93432700
-4.80128000 -6.01630000 -0.97390300
-4.56122000 -6.19727000 -1.30495000
-4.70205000 -6.01517000 -1.35375000
-4.43890000 -6.19572000 -1.66613000
-4.57558000 -6.01292000 -1.72387000
-4.28714000 -6.18995000 -2.01562000
-4.41883000 -6.00749000 -2.08210000
-4.11335000 -6.18495000 -2.35399000
-4.23933000 -6.00256000 -2.42983000
-3.91300000 -6.17615000 -2.67742000
-4.03138000 -5.99313000 -2.76193000
-3.68872000 -6.16199000 -2.98537000
-3.78505000 -6.35107000 -2.58862000
-3.57091000 -6.33860000 -2.88953000
-3.33408000 -6.31783000 -3.17804000
-3.44218000 -6.50339000 -2.78911000
-3.21479000 -6.48226000 -3.07297000
-2.96051000 -6.46719000 -3.32944000
-3.07360000 -6.29910000 -3.44697000
-2.68144000 -6.47212000 -3.54809000
-2.77707000 -6.30466000 -3.67210000
-2.37222000 -6.49001000 -3.72836000
-2.45828000 -6.32255000 -3.86639000
-2.05801000 -6.50134000 -3.88653000
-2.13322000 -6.33466000 -4.03222000
-1.73676000 -6.51022000 -4.03201000
-1.80126000 -6.34466000 -4.18419000
-1.40403000 -6.50705000 -4.14976000
-1.45959000 -6.34452000 -4.30658000
-1.06467000 -6.50437000 -4.25236000
-1.10988000 -6.34015000 -4.40988000
-0.72187100 -6.49494000 -4.33383000
-0.75567200 -6.33015000 -4.49249000
-0.37357600 -6.47733000 -4.39094000
-0.39491300 -6.31185000 -4.54861000
-0.01809780 -6.45635000 -4.42897000
-0.02908330 -6.29171000 -4.58551000
0.34625300 -6.42578000 -4.44277000
0.34569000 -6.26375000 -4.59629000
0.72370200 -6.38804000 -4.43432000
0.72933500 -6.22910000 -4.58051000
1.10193000 -6.35987000 -4.38946000
1.11460000 -6.19671000 -4.53657000
1.43909000 -6.36459000 -4.28750000
1.47085000 -6.18967000 -4.44045000
1.75155000 -6.39248000 -4.14293000
1.80422000 -6.21812000 -4.29285000
2.05717000 -6.41374000 -3.97652000
2.12568000 -6.24354000 -4.12138000
2.35568000 -6.42853000 -3.79322000
2.43405000 -6.25882000 -3.93237000
2.64278000 -6.43952000 -3.59351000
2.73024000 -6.27164000 -3.72646000
2.91453000 -6.44508000 -3.37444000
3.01107000 -6.27776000 -3.50021000
3.17127000 -6.44860000 -3.13853000
3.27690000 -6.28382000 -3.25874000
3.40929000 -6.44776000 -2.88439000
3.52210000 -6.28424000 -2.99783000
3.62738000 -6.44177000 -2.61433000
3.74632000 -6.27889000 -2.72038000
3.82582000 -6.43902000 -2.33370000
3.95272000 -6.27544000 -2.43039000
4.00208000 -6.43163000 -2.04139000
4.13504000 -6.26931000 -2.12900000
4.15806000 -6.42311000 -1.73958000
4.29693000 -6.26051000 -1.81859000
4.29095000 -6.41057000 -1.43135000
4.43284000 -6.24621000 -1.49684000
4.40284000 -6.39642000 -1.11524000
4.54798000 -6.23164000 -1.16904000
4.49544000 -6.38100000 -0.79215000
4.64213000 -6.21523000 -0.83285300
4.64213000 -6.21523000 -0.83285300
4.49544000 -6.38100000 -0.79215000
4.56403000 -6.36241000 -0.46153100
4.70874000 -6.19615000 -0.48723400
4.60586000 -6.34135000 -0.11964400
4.75149000 -6.17713000 -0.13485400
4.62854000 -6.33037000 0.22991900
4.77114000 -6.16566000 0.22442600
4.61037000 -6.32093000 0.57560800
4.75902000 -6.15537000 0.58145400
4.57072000 -6.31537000 0.91024200
4.71466000 -6.14425000 0.92728400
4.51051000 -6.30882000 1.23657000
4.65283000 -6.13509000 1.26382000
4.42967000 -6.29840000 1.55536000
4.56953000 -6.12305000 1.59359000
