2.13297000 9.29070000 0.65846300
-3.24354000 -8.65191000 3.93826000
-3.37572000 -8.67291000 3.80548000
-3.29891000 -8.75664000 3.80713000
-4.45451000 -8.79988000 2.17731000
-4.46590000 -8.87990000 1.99344000
-4.36837000 -8.91855000 2.14825000
-2.34653000 -0.50603200 2.15341000
-2.35173000 -0.63475500 2.26765000
-2.24689000 -0.40976800 2.16490000
-0.80597000 0.05330380 2.62754000
-0.67010600 0.07761590 2.64453000
-0.78010100 0.16219700 2.55014000
-3.30421000 -7.11778000 4.19057000
-3.13396000 -7.13172000 4.31473000
-3.18126000 -7.21823000 4.26961000
-3.86060000 -8.75113000 2.85745000
-3.74904000 -8.83263000 2.92647000
-3.85842000 -8.82623000 2.78568000
4.39070000 -8.84204000 -1.40595000
4.27117000 -8.87596000 -1.61010000
4.31309000 -8.82154000 -1.63404000
3.50380000 -9.61727000 1.02242000
3.58438000 -9.59389000 1.10099000
3.45741000 -9.61733000 1.25396000
0.99739500 -9.21379000 4.26341000
1.09195000 -9.28594000 4.13086000
0.91752000 -9.28230000 4.19013000
1.04501000 -7.74848000 5.10835000
1.21153000 -7.71679000 5.07890000
1.14204000 -7.81283000 5.07049000
2.53534000 -6.17796000 -4.57927000
2.65647000 -6.18468000 -4.50564000
2.65498000 -6.32363000 -4.52410000
0.33744700 -6.46547000 -5.24772000
0.19320800 -6.46751000 -5.25592000
0.20673600 -6.24973000 -5.24125000
-1.76434000 9.29987000 1.66012000
-1.65468000 9.27514000 1.71575000
-1.64248000 9.24987000 1.61445000
-0.62607200 9.71345000 2.02632000
-0.50269100 9.71519000 2.05740000
-0.54385500 9.69470000 2.18740000
3.14487000 -1.78189000 -1.67958000
3.10425000 -1.58159000 -1.54660000
3.19277000 -1.78911000 -1.59321000
4.79060000 -5.12226000 -1.18794000
4.83485000 -5.25646000 -1.19792000
4.80367000 -5.24319000 -1.32791000
-1.57978000 -9.37905000 -3.47108000
-1.78688000 -9.34670000 -3.44968000
-1.60308000 -9.35161000 -3.53100000
-0.62323000 -9.88817000 1.36922000
-0.53914200 -9.88186000 1.21623000
-0.38670500 -9.88343000 1.24455000
-0.25837000 2.33341000 -1.80139000
-0.37010500 2.50663000 -1.79280000
-0.28282900 2.59013000 -1.80612000
4.10412000 -6.83620000 -2.96300000
4.08640000 -6.98194000 -2.96934000
4.16320000 -6.91588000 -2.86795000
2.46213000 -8.24740000 -3.97040000
2.40992000 -8.12033000 -4.06813000
2.33253000 -8.20534000 -4.06787000
-3.55233000 -4.94939000 -3.23872000
-3.65975000 -5.06757000 -3.19289000
-3.58202000 -5.07107000 -3.27283000
-3.63181000 -2.27301000 -1.09824000
-3.76709000 -2.53660000 -1.07215000
-3.71022000 -2.47006000 -1.14465000
1.29394000 1.93913000 -1.14046000
1.27699000 1.77693000 -1.16888000
1.21327000 1.79685000 -1.23729000
1.75912000 -9.50898000 3.56671000
1.95908000 -9.48971000 3.53426000
1.61790000 -9.47984000 3.72475000
-1.38093000 -9.88862000 1.54554000
-1.07766000 -9.88351000 1.36347000
-1.03202000 -9.88838000 1.47394000
0.78388200 -8.21226000 5.22537000
0.79509600 -8.08199000 5.27232000
0.66296700 -8.08665000 5.29200000
-0.40990300 -8.12182000 5.32068000
-0.27342800 -8.23991000 5.28614000
-0.27493700 -8.11821000 5.33005000
-2.48657000 -0.02021690 -1.12287000
-2.38687000 0.13984400 -1.08185000
-2.36666000 0.09248000 -1.18995000
-4.11216000 -2.40958000 0.77018800
-4.14849000 -2.46401000 0.67084700
-4.22197000 -2.67242000 0.79453800
-0.60822900 -1.89831000 3.59299000
-0.47686800 -1.92951000 3.62132000
-0.56207500 -2.03937000 3.66862000
-0.20392400 5.09910000 1.83421000
-0.20450400 5.49118000 1.84911000
-0.14690200 5.39756000 1.84803000
0.40557600 8.48662000 1.92454000
0.25988200 8.40709000 1.95561000
0.35694800 8.31199000 1.93426000
-0.01910610 8.94397000 2.05128000
-0.13654400 8.94489000 2.05547000
-0.13160200 8.88216000 2.03879000
2.25911000 -1.30371000 2.30908000
2.22821000 -1.19606000 2.25507000
2.32132000 -1.28140000 2.21930000
3.70770000 -4.94032000 2.92796000
3.60994000 -4.68881000 2.89071000
3.65952000 -4.68370000 2.80913000
-2.42023000 -7.20958000 -4.36783000
-2.40752000 -7.34745000 -4.33882000
-2.31939000 -7.21549000 -4.41872000
-3.89141000 -5.95356000 -3.29034000
-4.00751000 -5.98298000 -3.16481000
-3.97509000 -6.07658000 -3.21650000
-0.38387200 -9.31475000 -2.12004000
-0.52975700 -9.32234000 -2.15932000
-0.51784900 -9.31065000 -2.06406000
0.53518700 -9.41524000 -3.30130000
0.33885300 -9.43533000 -3.26083000
0.68195500 -9.42588000 -3.19275000
0.32115400 -7.16423000 -4.98652000
0.27735900 -6.99469000 -5.01358000
0.20879900 -7.13295000 -4.99777000
-1.84134000 -7.95776000 -4.37863000
-1.76577000 -8.02841000 -4.37561000
-1.69141000 -7.92240000 -4.45264000
-3.88107000 -4.75154000 3.15958000
-3.81816000 -4.75493000 3.23809000
-3.87123000 -4.88184000 3.25061000
-3.19256000 -2.38182000 2.39253000
-3.20692000 -2.51000000 2.46720000
-3.29214000 -2.52441000 2.36458000
-4.18313000 -9.19796000 -0.01202330
-4.11914000 -9.22796000 -0.01197990
-4.09565000 -9.21199000 -0.28894800
-4.32222000 -8.05864000 -2.27094000
-4.41998000 -8.06048000 -2.09065000
-4.34640000 -8.12309000 -2.16890000
5.09610000 -7.64346000 0.75870300
5.11156000 -7.63952000 0.62010200
5.11582000 -7.53971000 0.69604900
4.81208000 -6.34186000 -2.10995000
4.86316000 -6.48123000 -1.99471000
4.81079000 -6.47055000 -2.12628000
0.20618400 5.80046000 -1.76113000
0.14732100 5.72939000 -1.76421000
0.25779400 5.72611000 -1.74003000
-0.75403200 9.12566000 -2.12135000
-0.87730900 9.15210000 -2.11414000
-0.86936100 9.11725000 -2.06666000
2.04338000 9.46418000 -1.84412000
2.00586000 9.48562000 -1.91570000
2.10253000 9.49358000 -1.79413000
2.49113000 9.56704000 -1.14442000
2.43821000 9.54168000 -1.24476000
2.44823000 9.56697000 -1.24991000
1.89600000 -6.12086000 -4.65036000
1.78875000 -5.97667000 -4.66851000
1.78472000 -6.11626000 -4.69326000
0.66817800 -5.13799000 -4.73103000
0.67220200 -4.89023000 -4.63630000
0.55618300 -5.06572000 -4.71954000
-1.82674000 -9.35263000 3.87012000
-1.65811000 -9.39737000 3.84848000
-1.81416000 -9.38271000 3.81020000
-2.94003000 -9.52565000 2.15638000
-2.80771000 -9.52660000 2.34944000
-2.80093000 -9.52998000 2.25180000
-0.02130580 -7.28003000 -5.18871000
-0.15577400 -7.20470000 -5.20044000
-0.00401328 -7.10533000 -5.21684000
1.36510000 9.91058000 1.60801000
1.25214000 9.91399000 1.67154000
1.35831000 9.90100000 1.71116000
0.66635000 9.86443000 2.26515000
0.49793400 9.84972000 2.38549000
0.69822300 9.84852000 2.32272000
-2.17984000 9.11869000 -0.05070260
-2.14331000 9.14134000 -0.04603950
-2.12412000 9.13024000 -0.13220700
-1.22386000 6.97107000 1.65651000
-1.27195000 6.83175000 1.63364000
-1.18382000 6.83958000 1.69222000
-1.96611000 2.30812000 0.55111700
-1.94620000 2.23328000 0.61072600
-1.95146000 2.46526000 0.59873900
3.28173000 -9.06366000 -2.83192000
3.10547000 -9.11760000 -2.91424000
3.12833000 -9.05688000 -3.00337000
2.09631000 -8.95321000 -3.89460000
2.13889000 -8.84614000 -3.97866000
2.24524000 -8.84936000 -3.91897000
-1.16037000 9.59292000 -2.50872000
-1.27600000 9.61884000 -2.43983000
-1.28339000 9.60471000 -2.44807000
-1.61672000 9.26280000 -1.40384000
-1.63607000 9.29556000 -1.34705000
-1.62673000 9.26198000 -1.34327000
-0.69169200 9.19519000 -2.40256000
-0.79060800 9.22752000 -2.41396000
-0.63043900 9.24574000 -2.48305000
-1.46694000 9.71299000 -2.51990000
-1.33576000 9.72568000 -2.57766000
-1.34086000 9.70392000 -2.58716000
-2.40763000 9.75148000 0.70846900
-2.40790000 9.71430000 0.76472700
-2.41687000 9.75191000 0.77496300
-2.34627000 9.58792000 1.44082000
-2.30236000 9.57352000 1.53261000
-2.32698000 9.60896000 1.53544000
4.53290000 -6.56815000 2.27907000
4.56189000 -6.66493000 2.22368000
4.47965000 -6.67461000 2.43609000
2.65866000 -6.08664000 4.47351000
2.80637000 -6.23253000 4.40290000
2.71688000 -6.23378000 4.46242000
-2.14918000 9.44455000 0.73335600
-2.15763000 9.43832000 0.75907600
-2.12741000 9.38674000 0.68830100
-5.30195000 -7.64068000 -0.53649000
-5.29173000 -7.57527000 -0.67396800
-5.26451000 -7.70500000 -0.66670100
-5.05276000 -8.15636000 1.42239000
-5.12217000 -7.85285000 1.58467000
-5.15894000 -7.84289000 1.45563000
2.41244000 -5.96543000 4.83510000
2.29150000 -5.96772000 4.89800000
2.31750000 -6.10914000 4.91523000
2.42346000 -2.91670000 3.47809000
2.53097000 -3.03910000 3.44697000
2.49850000 -2.85697000 3.38774000
-1.82551000 9.73393000 0.49799000
-1.83710000 9.74423000 0.44708100
-1.80587000 9.76208000 0.47748800
0.84224300 2.42069000 -1.27735000
0.77719500 2.94376000 -1.33433000
0.76067500 2.47593000 -1.33350000
0.61006200 7.15166000 -1.69518000
0.64597700 6.83605000 -1.65159000
0.69482100 7.06385000 -1.64951000
-3.36870000 -9.49507000 1.55199000
-3.30169000 -9.49871000 1.72727000
-3.24033000 -9.50968000 1.69968000
1.21483000 -0.14853100 -2.03230000
1.33159000 -0.36029300 -2.13207000
1.31259000 -0.19051400 -2.00233000
1.31330000 2.70671000 -0.76743800
1.26563000 2.62508000 -0.84143800
1.32000000 2.46790000 -0.75483000
-1.80542000 3.27566000 0.11426700
-1.80743000 2.87733000 0.20541700
-1.81181000 2.81366000 0.12416300
2.78662000 -5.63721000 -4.06637000
2.78830000 -5.70733000 -4.08167000
2.93284000 -5.67209000 -3.97435000
2.97334000 -7.02569000 -4.06106000
3.05699000 -7.10748000 -3.98696000
3.07999000 -6.96369000 -3.99209000
0.28507700 -5.44024000 5.07418000
0.38658300 -5.37908000 5.04372000
0.37915300 -5.50840000 5.08210000
0.10727300 -1.92450000 3.61039000
0.00802338 -1.78297000 3.54563000
0.12928800 -1.74057000 3.51462000
-3.17360000 -6.20455000 -4.22336000
-3.28715000 -6.20235000 -4.13738000
-3.27472000 -6.06257000 -4.13651000
-4.13578000 -5.61136000 -3.22903000
-4.17683000 -5.39921000 -3.08975000
-4.08575000 -5.39477000 -3.19649000
3.39483000 -2.19295000 1.79853000
3.32087000 -2.19009000 1.95077000
3.39968000 -2.29880000 1.88047000
2.11129000 -0.14006800 1.75901000
2.18641000 -0.36191900 1.90439000
2.22179000 -0.29169100 1.78024000
-4.65541000 -4.73480000 1.72911000
-4.68218000 -4.87381000 1.82387000
-4.75457000 -4.92991000 1.68200000
-4.80901000 -4.76760000 -0.85325800
-4.88306000 -4.90101000 -0.77344700
-4.85832000 -4.89818000 -0.87742100
2.51971000 -0.26830000 -0.99687700
2.55603000 -0.38070000 -1.09568000
2.42035000 -0.15475300 -1.03342000
1.47317000 1.77865000 -0.91812200
1.44624000 1.65952000 -0.96773300
1.41119000 1.78979000 -1.00214000
-2.63550000 -4.76520000 4.21874000
-2.50011000 -4.88830000 4.34797000
-2.67696000 -4.90306000 4.25148000
-2.91260000 -7.17468000 4.45711000
-2.82151000 -7.18113000 4.51240000
-2.88258000 -7.30312000 4.45531000
-0.74348100 9.64438000 2.35539000
-0.58774700 9.65320000 2.36016000
-0.57623600 9.63478000 2.41260000
0.93420700 9.34867000 2.18137000
0.83577300 9.37694000 2.25546000
0.98039200 9.37666000 2.20136000
1.76603000 3.92362000 -0.41160800
1.78482000 3.96097000 -0.34559900
1.77843000 3.79742000 -0.33944900
1.04877000 4.72164000 -1.42122000
1.23002000 4.69239000 -1.26884000
1.19311000 4.55150000 -1.28786000
0.70303700 -9.50324000 3.47189000
0.89410600 -9.50715000 3.42033000
0.86074000 -9.51286000 3.31564000
3.30094000 -9.43617000 2.07287000
3.33582000 -9.40622000 2.14921000
3.42919000 -9.40229000 1.97977000
1.66850000 9.34882000 -1.98018000
1.71117000 9.36872000 -1.96502000
1.59596000 9.36332000 -2.06581000
0.57732500 9.59898000 -2.48635000
0.64826800 9.58822000 -2.50723000
0.97616400 9.57637000 -2.36632000
3.43760000 -8.74499000 3.54605000
3.55910000 -8.67088000 3.47742000
3.47531000 -8.66176000 3.57461000
3.52609000 -9.42593000 2.41487000
3.47341000 -9.37586000 2.62384000
3.41231000 -9.41369000 2.61511000
-4.67154000 -8.66995000 0.95839300
-4.56083000 -8.79553000 1.12084000
-4.59750000 -8.78810000 0.94005300
-5.19201000 -7.50060000 0.24600300
-5.20454000 -7.43855000 0.35588400
-5.17849000 -7.56046000 0.34588000
-1.60439000 9.89416000 -1.43590000
-1.57902000 9.86860000 -1.40024000
-1.53616000 9.88552000 -1.43556000
-0.47450000 1.38197000 -1.58611000
-0.37843900 1.28359000 -1.61888000
-0.37597300 1.43193000 -1.59953000
-1.30230000 2.72582000 -1.13322000
-1.35977000 2.43980000 -1.07198000
-1.32517000 2.33317000 -1.10935000
-2.02430000 0.91104900 -0.68220500
-1.99252000 0.90802000 -0.75335800
-2.10440000 0.77845300 -0.66394700
-1.09967000 1.46521000 -1.56996000
-0.99972200 1.48354000 -1.62316000
-1.11764000 1.35979000 -1.57123000
0.04739940 9.26503000 2.30072000
-0.10231400 9.26752000 2.31026000
-0.16399500 9.23018000 2.25817000
-1.04280000 9.82283000 2.33729000
-1.44853000 9.82811000 2.14585000
-1.45745000 9.81735000 2.18143000
-1.36105000 -9.83277000 -1.26593000
-1.54071000 -9.81781000 -1.16293000
-1.37534000 -9.82995000 -1.33513000
-3.66625000 -9.11411000 -2.33570000
-3.79268000 -9.12049000 -2.14285000
-3.84193000 -9.07867000 -2.17291000
-1.22681000 -8.52042000 4.80543000
-1.13360000 -8.64866000 4.75637000
-1.22963000 -8.64056000 4.73791000
0.59067200 -8.57117000 4.85992000
0.69217900 -8.57610000 4.84071000
0.70979700 -8.69551000 4.76538000
4.46837000 -8.77655000 0.34102500
4.39326000 -8.86976000 0.34632900
4.40005000 -8.86769000 0.45640800
3.65121000 -9.13303000 -1.58513000
3.60953000 -9.20060000 -1.47746000
3.72160000 -9.14704000 -1.40503000
0.06341720 -9.44968000 -3.21264000
0.05130280 -9.45598000 -3.13898000
0.21477000 -9.45526000 -3.12821000
-0.93560400 -9.17117000 -3.80363000
-0.89624000 -9.12771000 -3.86861000
-1.06804000 -9.12038000 -3.83138000
-3.62579000 -7.95116000 -3.23122000
-3.54934000 -7.95060000 -3.30446000
-3.57468000 -7.82166000 -3.32943000
-3.81014000 -8.17725000 -2.90723000
-3.79664000 -8.23986000 -2.87582000
-3.66302000 -8.23710000 -3.02866000
0.17263800 9.09545000 -2.14296000
0.18082000 9.12308000 -2.17559000
0.05515480 9.12081000 -2.19172000
0.04217970 9.06097000 -2.12839000
-0.07422680 9.09029000 -2.16719000
-0.07927560 9.05828000 -2.13655000
-0.17351400 9.27221000 -2.57380000
-0.19433000 9.22950000 -2.51113000
-0.32594700 9.22657000 -2.50153000
0.82567800 9.12061000 -2.15531000
0.74227100 9.13314000 -2.21215000
0.90174300 9.15675000 -2.17014000
4.27469000 -5.90033000 3.07510000
4.20193000 -5.89245000 3.19089000
4.22826000 -6.03979000 3.19696000
5.08452000 -6.86077000 1.04320000
5.12675000 -6.86552000 0.76012800
5.11624000 -6.72450000 0.77957000
-3.51851000 -9.10894000 -2.53567000
-3.71341000 -9.07093000 -2.36588000
-3.56137000 -9.06421000 -2.56893000
-3.97753000 -7.94991000 -3.17588000
-4.06727000 -7.95098000 -3.07393000
-4.09167000 -7.82486000 -3.09630000
-2.55806000 0.15928400 0.93529500
-2.66882000 0.04477740 0.86813700
-2.63947000 0.04612620 0.96508800
-2.83841000 -0.14938300 0.76626900
-2.91810000 -0.22871900 0.63583400
-2.88955000 -0.22816100 0.78011200
0.51186300 -8.92935000 -4.39651000
0.64189400 -8.82424000 -4.47229000
0.69216300 -8.90437000 -4.39443000
-1.79882000 1.54828000 0.36492400
-1.79834000 1.44079000 0.40684100
-1.81060000 1.50799000 0.31484300
-3.40746000 -1.38587000 0.40233500
-3.39482000 -1.39038000 0.56941800
-3.50360000 -1.58032000 0.50764700
0.98684300 6.96699000 1.43978000
1.02732000 6.71607000 1.40847000
0.98128500 6.54312000 1.44875000
0.01554410 8.94381000 1.84675000
-0.09947610 8.99352000 1.87144000
0.02029150 8.99493000 1.86682000
0.08296520 -9.57978000 -0.25667100
-0.08379900 -9.58602000 -0.24911600
-0.05319780 -9.58838000 -0.13805500
-4.70942000 -4.94650000 2.38023000
-4.58516000 -4.82290000 2.53158000
-4.66073000 -4.78823000 2.35525000
-5.43427000 -6.35823000 1.11681000
-5.40189000 -6.25023000 1.24894000
-5.42971000 -6.22210000 1.10785000
-5.46312000 -6.18512000 -0.45630800
-5.47613000 -6.11974000 -0.31571500
-5.45170000 -6.05111000 -0.45751500
-4.95840000 -6.17112000 -2.07747000
-5.00082000 -5.93268000 -1.94419000
-4.94111000 -5.93229000 -2.07206000
4.37334000 -4.45367000 0.36539500
4.20926000 -4.03460000 0.43404900
4.28643000 -4.20287000 0.30423500
4.54377000 -4.83464000 -0.44878500
4.61174000 -5.01789000 -0.48600300
4.62516000 -5.04819000 -0.38102800
-1.55107000 -1.37361000 -2.84921000
-1.53908000 -1.51153000 -2.93699000
-1.40529000 -1.45224000 -2.96302000
-2.62554000 -5.13772000 -4.05645000
-2.72154000 -5.13675000 -3.99633000
-2.78616000 -5.23421000 -3.99455000
2.26571000 9.32442000 0.51610800
2.31801000 9.35954000 0.52736400
2.32700000 9.35202000 0.45293800
2.43339000 9.61892000 -0.16495800
2.45878000 9.59832000 -0.18535800
2.46036000 9.60077000 -0.07370650
0.14398000 -9.89896000 -1.52741000
0.14088800 -9.88803000 -1.41667000
0.01632940 -9.89260000 -1.45426000
1.07201000 -9.82802000 -1.18499000
1.38544000 -9.80218000 -0.98234200
1.34734000 -9.80069000 -0.77566300
-2.99680000 -1.63476000 -2.13698000
-3.06643000 -1.66507000 -2.06704000
-3.00103000 -1.50704000 -2.02260000
-4.00446000 -5.07190000 -3.13847000
-4.07541000 -5.01287000 -3.01986000
-3.96198000 -4.91968000 -3.10505000
1.94386000 -7.07593000 4.91101000
2.03636000 -7.22693000 4.86716000
1.93549000 -7.22557000 4.91079000
0.61111300 -5.45091000 5.02951000
0.65155700 -5.82812000 5.12452000
0.50620800 -5.52907000 5.06890000
2.46043000 9.40900000 0.41103100
2.50492000 9.44119000 0.41939100
2.43827000 9.41124000 0.51513500
2.55040000 9.79230000 -0.09004890
2.49855000 9.81062000 -0.17091400
2.50447000 9.81016000 -0.01846840
0.47898200 -0.16462300 2.80331000
0.38321100 -0.18724300 2.83697000
0.45368800 -0.24776700 2.85917000
1.35765000 1.04519000 1.43881000
1.29777000 1.07751000 1.48872000
1.29252000 0.93518600 1.56758000
0.92369700 -5.20653000 -4.93502000
1.06618000 -5.37132000 -4.95893000
0.93004800 -5.36893000 -4.98667000
0.93454400 -5.94735000 -5.12478000
0.79050500 -6.05143000 -5.16623000
0.79403800 -5.91691000 -5.14415000
-0.14266900 9.71728000 1.57076000
-0.24641300 9.71873000 1.56103000
-0.27416700 9.75555000 1.55029000
-0.29007700 -4.82550000 -4.88050000
-0.15703900 -4.83226000 -4.88879000
-0.16859300 -5.11829000 -4.99611000
-1.89067000 -5.08463000 -4.63408000
-1.76739000 -5.11300000 -4.69116000
-1.91024000 -5.20366000 -4.67489000
2.94703000 -8.74908000 -3.21303000
2.98601000 -8.69469000 -3.24042000
2.83024000 -8.67977000 -3.38469000
2.38489000 -9.43534000 -2.29806000
2.23092000 -9.39902000 -2.59217000
2.17303000 -9.41838000 -2.55269000
0.90519800 1.09748000 -1.58733000
1.05635000 1.22462000 -1.45143000
1.00019000 1.09901000 -1.52446000
1.13849000 9.01547000 1.71120000
1.23170000 9.01550000 1.64066000
1.19600000 9.06269000 1.71024000
0.16963800 8.78668000 1.99920000
0.31258000 8.76566000 1.97105000
0.28432300 8.81017000 1.98446000
4.10462000 -9.32216000 1.31042000
4.07792000 -9.36286000 1.17585000
4.15661000 -9.32383000 1.06599000
4.90249000 -8.36262000 0.84410500
4.86287000 -8.48201000 0.70021200
4.91393000 -8.37021000 0.70698600
0.56890100 -8.76534000 -4.26925000
0.45082300 -8.87357000 -4.18911000
0.63970900 -8.87640000 -4.16123000
0.13323500 -7.95900000 -4.78004000
0.23340700 -8.02760000 -4.74998000
0.24840800 -7.89503000 -4.80104000
3.54792000 -8.77635000 2.99733000
3.60589000 -8.78516000 2.90497000
3.50239000 -8.89948000 2.89839000
4.54503000 -8.20438000 1.73125000
4.62253000 -8.10538000 1.58728000
4.61316000 -8.19513000 1.51473000
2.08043000 -5.13124000 -4.53493000
1.92899000 -4.93807000 -4.52281000
2.04688000 -4.91479000 -4.45945000
1.37461000 -0.52720900 -2.52439000
1.36636000 -0.30314100 -2.35840000
1.44301000 -0.52496300 -2.48308000
-0.77597200 8.96869000 -1.97437000
-0.85825400 9.02159000 -1.97806000
-0.91161600 8.98579000 -1.93081000
-1.23323000 8.00914000 -1.54160000
-1.20374000 7.67378000 -1.54057000
-1.15675000 7.69093000 -1.57733000
-2.23689000 9.49401000 0.48113800
-2.20032000 9.53331000 0.48139300
-2.18999000 9.50658000 0.45985100
1.40180000 9.58380000 -1.14531000
1.45156000 9.58014000 -1.09291000
1.50043000 9.58375000 -0.99916900
2.36299000 0.08489860 0.90831400
2.29069000 0.21869900 0.81267600
2.24550000 0.22607000 0.92602300
1.48598000 1.52034000 -0.93444600
1.55273000 1.64636000 -0.80873200
1.55613000 1.51627000 -0.82512700
-4.60006000 -8.78728000 1.83385000
-4.63127000 -8.67463000 1.97186000
-4.67616000 -8.67090000 1.85396000
-4.50247000 -9.13529000 -0.20906200
-4.48393000 -9.12895000 -0.38196400
-4.40449000 -9.16478000 -0.48273000
0.55090300 -1.01349000 3.03600000
0.56699100 -1.10380000 3.08612000
0.47930200 -1.04160000 3.07036000
0.54620100 0.69363200 1.93132000
0.65382100 0.54244400 1.97978000
0.55273900 0.53371200 2.02873000
1.38053000 8.83615000 -1.56555000
1.42692000 8.73323000 -1.47951000
1.36860000 8.73050000 -1.54288000
1.17372000 9.18363000 -2.05390000
1.32056000 9.22562000 -2.03594000
1.28284000 9.18357000 -1.97506000
-0.41633700 -9.57118000 3.79722000
-0.33712600 -9.62403000 3.53420000
-0.22770500 -9.56399000 3.84076000
-2.10222000 -9.62082000 3.17637000
-1.90911000 -9.63235000 3.20944000
-1.98099000 -9.59953000 3.32011000
-1.39332000 -4.24880000 4.74689000
-1.29043000 -4.36795000 4.82664000
-1.27477000 -4.24569000 4.77496000
-1.66243000 -6.81258000 5.27954000
-1.53255000 -6.70252000 5.31665000
-1.66637000 -6.67404000 5.27243000
1.04329000 -2.66839000 4.04735000
1.01867000 -2.40058000 3.93050000
0.92365400 -2.46337000 3.98548000
-0.41707900 -4.22984000 4.88017000
-0.53132400 -4.10293000 4.82479000
-0.54181100 -4.23215000 4.87530000
-1.88288000 9.83626000 -2.03718000
-1.84601000 9.84444000 -2.08161000
-1.86850000 9.81769000 -2.10293000
-1.80929000 9.87889000 -1.45919000
-1.79825000 9.90710000 -1.50072000
-1.83015000 9.89301000 -1.49626000
2.98243000 -7.25283000 4.56851000
3.09870000 -7.10534000 4.49633000
2.98649000 -7.10739000 4.57673000
2.40790000 -8.58182000 4.47771000
2.44467000 -8.45917000 4.52930000
2.33301000 -8.45675000 4.59374000
-1.32248000 3.23248000 1.55536000
-1.24454000 3.20058000 1.61489000
-1.24771000 3.66779000 1.62403000
-1.09617000 1.31177000 1.72999000
-0.97975100 1.29319000 1.80001000
-0.97735800 1.42744000 1.77344000
4.10271000 -5.00508000 -2.77293000
4.07324000 -5.17585000 -2.91618000
4.02589000 -5.00245000 -2.88349000
3.39579000 -2.08217000 -1.46884000
3.55227000 -2.48007000 -1.53924000
3.49170000 -2.43062000 -1.62866000
2.63262000 -0.74083500 1.12760000
2.61497000 -0.67647800 1.06476000
2.69767000 -0.78829400 1.03807000
1.59955000 1.22354000 0.25980700
1.58170000 1.36057000 0.24658500
1.58763000 1.36836000 0.17271900
2.42924000 -1.49467000 -2.08205000
2.30085000 -1.25056000 -2.02264000
2.37170000 -1.49164000 -2.14691000
3.47663000 -4.73185000 -3.04389000
3.40250000 -4.42928000 -2.92426000
3.32969000 -4.42590000 -3.00503000
1.92273000 9.63986000 -0.29590100
1.88519000 9.63024000 -0.23516700
1.87910000 9.62940000 -0.38747200
1.66364000 9.76714000 0.37211500
1.61371000 9.75643000 0.46442600
1.62791000 9.78043000 0.47088700
-1.88839000 9.81148000 0.82621100
-1.85186000 9.80177000 0.80225100
-1.85529000 9.80949000 0.85938700
-4.32555000 -2.91960000 -0.39808700
-4.29141000 -2.87827000 -0.50675700
-4.37745000 -3.08055000 -0.51318000
-3.47829000 -1.11005000 -0.16642000
-3.39698000 -0.95909200 -0.07833520
-3.20557000 -0.65128700 -0.15690000
2.05504000 9.10129000 0.10944300
2.01938000 9.05429000 0.17292700
2.02623000 9.05459000 0.04397670
1.68611000 5.87649000 0.91687600
1.71336000 5.64377000 0.85449200
1.72015000 5.90983000 0.84219300
-5.04194000 -5.06198000 0.37244400
-5.02597000 -5.03791000 0.53333700
-5.06132000 -5.13196000 0.47150700
-5.22550000 -6.78259000 1.05552000
-5.20333000 -6.81615000 1.15712000
-5.18432000 -7.05885000 1.12960000
4.83595000 -6.22120000 -1.26764000
4.81748000 -6.08059000 -1.24695000
4.79163000 -6.07393000 -1.36171000
4.44530000 -5.80447000 -2.20431000
4.36768000 -5.65093000 -2.27600000
4.39354000 -5.79884000 -2.30956000
-1.45643000 6.13986000 -1.50754000
-1.43146000 5.54257000 -1.49852000
-1.51639000 5.82511000 -1.43525000
1.85970000 9.63423000 -1.18258000
1.92310000 9.63223000 -1.29796000
1.98215000 9.63631000 -1.08899000
-0.12230900 5.87732000 2.06340000
-0.02766380 5.87394000 2.06184000
-0.10292100 6.40636000 2.05300000
-3.77507000 -6.63195000 3.77321000
-3.72551000 -6.85717000 3.83094000
-3.80775000 -6.92409000 3.74910000
-4.84659000 -7.25290000 2.16825000
-4.75765000 -7.26167000 2.35905000
-4.79895000 -7.32548000 2.25329000
-0.00530786 -8.11083000 5.33806000
-0.00660458 -8.23155000 5.29403000
0.12640800 -8.22776000 5.29234000
0.26849800 -9.15478000 4.72240000
0.27434500 -9.10497000 4.76988000
0.03733470 -9.10887000 4.78068000
4.90701000 -7.65380000 0.55426200
4.89562000 -7.75298000 0.48469300
4.88515000 -7.75897000 0.60128500
4.73991000 -6.53737000 1.57247000
4.69819000 -6.64484000 1.78690000
4.70201000 -6.54517000 1.73155000
-3.31734000 -1.33393000 0.86653200
-3.36890000 -1.45444000 0.93874300
-3.45204000 -1.57316000 0.84562900
-2.23595000 -0.67108600 2.06000000
-2.35201000 -0.90034300 2.15165000
-2.40324000 -0.89436300 2.09094000
3.40957000 -7.01426000 -3.99083000
3.50667000 -7.08516000 -3.89901000
3.38445000 -7.15604000 -3.98968000
4.66854000 -6.78729000 -2.42323000
4.60826000 -6.74547000 -2.54609000
4.62099000 -6.58851000 -2.52898000
-1.50159000 9.75369000 1.16429000
-1.51811000 9.76364000 1.19745000
-1.60762000 9.76977000 1.07337000
-1.02745000 9.72903000 1.54454000
-0.86781200 9.73140000 1.62831000
-0.91558900 9.73222000 1.64508000
-1.70283000 4.84378000 0.76216700
-1.68860000 5.14120000 0.84224300
-1.66620000 4.69653000 0.83570900
-1.94209000 8.21793000 0.03692660
-1.94620000 8.27232000 -0.08966950
-1.95083000 8.35405000 -0.02162660
-1.14567000 9.50393000 -2.64099000
-1.13601000 9.47354000 -2.61825000
-1.25806000 9.47884000 -2.56562000
-1.75469000 9.31529000 -1.72153000
-1.74330000 9.28018000 -1.68232000
-1.82794000 9.36267000 -1.61216000
-0.73310700 -8.10522000 -4.85036000
-0.71124800 -8.33147000 -4.75289000
-0.85106400 -8.31964000 -4.73408000
-0.71485900 -9.38675000 -3.71734000
-0.97788700 -9.35866000 -3.73042000
-0.82406200 -9.34569000 -3.79527000
-0.30782000 1.15267000 -1.65356000
-0.28158000 1.25272000 -1.63779000
-1.85164000 -0.95070500 -2.38450000
-1.91126000 -0.85780500 -2.26963000
-1.99351000 -1.00315000 -2.31786000
-3.67109000 -8.99471000 2.83868000
-3.55647000 -9.01419000 2.95835000
-3.54445000 -9.06739000 2.90386000
-3.66983000 -9.42617000 1.50731000
-3.53025000 -9.44757000 1.69114000
-3.57192000 -9.45362000 1.50452000
-0.88645000 0.75033700 1.82227000
-0.76002300 0.66152100 1.92136000
-0.90921300 0.62206400 1.89038000
-1.07236000 0.85409300 1.67236000
-1.02744000 0.70936700 1.78196000
-1.14859000 0.80026000 1.65723000
-1.52075000 8.10695000 1.11510000
-1.59379000 8.44933000 1.04008000
-1.54464000 8.45021000 1.10415000
-0.76029600 5.84098000 1.72737000
-0.78810200 6.04955000 1.71727000
-0.70693700 5.93626000 1.74902000
-3.47728000 -4.61818000 3.81612000
-3.34341000 -4.66171000 3.95042000
-3.37237000 -4.57176000 3.88004000
-4.06578000 -5.43468000 3.57580000
-4.13385000 -5.28903000 3.44432000
-4.16674000 -5.57805000 3.49826000
-1.69349000 7.45356000 -0.92363500
-1.73589000 7.78419000 -0.86559500
-1.73022000 7.46676000 -0.84981400
-1.91231000 5.93651000 0.09177210
-1.90610000 5.73489000 0.12119700
-1.90420000 5.61785000 0.06515920
-1.85797000 7.94757000 0.93801300
-1.80440000 7.93419000 1.03769000
-1.86971000 8.10594000 0.94810800
-2.11418000 7.92246000 -0.37415600
-2.13244000 7.95721000 -0.24861900
-2.13042000 8.08623000 -0.29310300
-2.18422000 -6.80588000 5.08094000
-2.05563000 -6.80127000 5.13450000
-2.05726000 -6.66111000 5.12328000
-1.68477000 -8.53217000 4.89561000
-1.70314000 -8.40353000 4.94992000
-1.82852000 -8.40334000 4.90401000
2.97624000 -6.15720000 4.27075000
3.07065000 -6.29061000 4.21664000
2.98538000 -6.29536000 4.28320000
3.32924000 -7.91513000 3.84902000
3.41050000 -7.91812000 3.77096000
3.35323000 -8.00621000 3.78807000
-0.46635800 -0.03131420 -2.55509000
-0.57774400 -0.06354210 -2.56233000
-0.59754600 0.10229300 -2.44204000
-1.94562000 -9.51195000 3.64891000
-1.76922000 -9.51037000 3.73267000
-1.82863000 -9.46264000 3.85348000
-3.92667000 -8.86174000 3.02034000
-4.00148000 -8.85654000 2.92080000
-3.98785000 -8.92819000 2.84303000
-3.01774000 -9.21806000 -2.48058000
-2.95047000 -9.24605000 -2.45809000
-2.90062000 -9.21828000 -2.59791000
-1.50541000 -9.35084000 -3.25504000
-1.62830000 -9.36365000 -3.12745000
-1.35288000 -9.37769000 -3.23329000
-5.00919000 -7.25289000 2.31479000
-5.00178000 -7.34696000 2.30400000
-4.91158000 -7.35958000 2.48931000
-3.72013000 -8.62934000 3.49896000
-3.68743000 -8.48360000 3.64613000
-3.76734000 -8.51460000 3.54047000
1.74662000 9.03380000 0.57467500
1.68957000 9.03892000 0.72938200
1.77309000 9.07463000 0.59180000
0.82357000 8.97699000 1.63549000
0.76393100 9.05595000 1.71999000
0.89202600 9.02076000 1.62831000
-4.52301000 -8.85124000 -0.55816700
-4.48014000 -8.87071000 -0.68791300
-4.52002000 -8.81608000 -0.69467500
-5.00423000 -7.92766000 -0.49600000
-5.04200000 -7.86632000 -0.39372100
-4.99813000 -7.99436000 -0.34469300
3.81084000 -6.80613000 3.85170000
3.91141000 -6.87598000 3.74865000
3.89719000 -6.72515000 3.74853000
3.08400000 -4.76450000 3.89507000
2.98858000 -4.76084000 3.98277000
3.03815000 -4.93433000 4.02170000
3.88120000 -5.75095000 3.23046000
3.82006000 -5.75915000 3.31785000
3.78400000 -5.62695000 3.29878000
3.99952000 -6.57195000 3.27300000
4.01725000 -6.76888000 3.27750000
3.94502000 -6.70899000 3.36663000
4.50631000 -8.73977000 -1.31549000
4.60170000 -8.67647000 -1.14358000
4.53177000 -8.78831000 -1.12894000
5.09104000 -7.59360000 -0.76549700
5.07124000 -7.69513000 -0.77344300
5.05842000 -7.64661000 -0.90701000
-2.14262000 9.71214000 0.86755000
-2.15189000 9.67364000 0.82809500
-2.12999000 9.71480000 0.81036900
-1.84769000 9.61220000 1.89670000
-1.77429000 9.58250000 1.97911000
-1.86146000 9.57883000 1.90673000
-2.45211000 -6.32722000 -4.67291000
-2.63416000 -6.23464000 -4.57223000
-2.38142000 -6.23265000 -4.70425000
-0.31936600 -7.47899000 -5.13387000
-0.45741400 -7.47613000 -5.12037000
-0.44578400 -7.30020000 -5.16341000
3.73243000 -2.43946000 -0.92877600
3.84241000 -2.78815000 -1.07036000
3.61657000 -2.21495000 -1.00399000
3.65954000 -2.05754000 -0.49283800
3.68552000 -2.16032000 -0.59999900
3.59941000 -1.95388000 -0.58354700
-0.17353000 9.69103000 -1.82127000
-0.07316200 9.66922000 -1.83263000
-0.06835110 9.70430000 -1.83354000
1.46418000 9.62389000 -1.00010000
1.39401000 9.66301000 -1.10210000
1.40935000 9.62243000 -1.08944000
1.80733000 9.07010000 0.47596100
1.83998000 9.10614000 0.48234500
1.62196000 6.93702000 -0.53334300
1.62663000 6.64700000 -0.46639800
1.64506000 6.84166000 -0.42498800
-1.64015000 -8.80732000 4.49868000
-1.54875000 -8.96644000 4.41812000
-1.72479000 -8.94147000 4.37081000
-3.52492000 -8.36733000 3.56957000
-3.37022000 -8.56589000 3.58005000
-3.46586000 -8.54383000 3.50159000
-0.36982500 9.36448000 2.43599000
-0.48637100 9.38060000 2.45872000
-0.36888100 9.38455000 2.47610000
-0.74966000 9.63269000 2.38391000
-0.87918200 9.62829000 2.35861000
-0.90735300 9.64223000 2.31453000
-0.93676100 6.75513000 -1.90024000
-0.96597500 7.30936000 -1.91617000
-0.90957900 7.36890000 -1.94491000
2.68619000 -9.52971000 -2.17693000
2.54607000 -9.55629000 -2.18020000
2.54385000 -9.52531000 -2.35409000
3.85095000 -9.40771000 -0.88394400
3.88308000 -9.36601000 -1.01345000
3.93500000 -9.38031000 -0.79120600
-1.89505000 9.28645000 -1.07594000
-1.88908000 9.26482000 -1.02952000
-1.84168000 9.29698000 -1.06442000
-0.37193700 -9.65304000 3.37694000
-0.20631500 -9.71117000 3.04869000
-0.12071800 -9.65081000 3.39720000
2.57243000 -9.75144000 1.52309000
2.26181000 -9.79187000 1.45673000
2.33420000 -9.78688000 1.36542000
-1.52520000 -1.65195000 3.49182000
-1.48581000 -1.46549000 3.40674000
-1.59427000 -1.56347000 3.41954000
-2.44903000 -0.84965900 2.36155000
-2.44895000 -0.72247500 2.24814000
-2.55404000 -0.95255000 2.34480000
-0.32929300 3.71046000 -1.85900000
-0.33272100 4.13192000 -1.88211000
-0.23682000 3.39882000 -1.84769000
-1.58990000 9.28821000 -1.64280000
-1.53829000 9.23429000 -1.63516000
-1.54679000 9.26210000 -1.70191000
-1.70708000 9.72152000 -1.97726000
-1.73496000 9.71447000 -1.93827000
-1.73023000 9.69998000 -1.98663000
-2.71576000 -9.72861000 1.42045000
-2.81839000 -9.70367000 1.60347000
-2.89507000 -9.68518000 1.48355000
-2.61887000 -9.60309000 -1.29079000
-2.88875000 -9.53899000 -1.26219000
-2.77525000 -9.55157000 -1.39104000
-1.36004000 9.49101000 2.44090000
-1.44341000 9.51027000 2.40952000
-1.42653000 9.47377000 2.38814000
-2.18310000 9.68720000 1.80329000
-2.24673000 9.66923000 1.71968000
-2.18334000 9.64589000 1.80741000
-2.74587000 -6.15733000 -4.25939000
-2.84642000 -6.29824000 -4.20126000
-2.74884000 -6.29463000 -4.26441000
-3.81555000 -5.98134000 -3.37706000
-3.89887000 -6.07549000 -3.30155000
-3.82046000 -6.07458000 -3.38484000
-1.03184000 -6.59769000 -4.95534000
-1.13925000 -6.41704000 -4.93214000
-1.14620000 -6.59861000 -4.93182000
-0.62746300 -7.77878000 -4.77171000
-0.52205100 -7.65861000 -4.83510000
-0.76296600 -7.68193000 -4.78457000
-5.16274000 -5.78729000 -0.69014200
-5.18085000 -5.79198000 -0.58181100
-5.20338000 -5.93063000 -0.59768300
0.52573000 0.90686700 2.07085000
0.58669800 0.77142100 2.12551000
0.63436800 0.80664200 2.08605000
0.63037800 5.79643000 1.90761000
0.57538400 6.43488000 1.92242000
0.58070400 5.79045000 1.92831000
0.33373600 2.56592000 1.95733000
0.22403000 2.39489000 1.97497000
0.31188500 2.11932000 1.95598000
-1.96091000 6.95369000 0.74488500
-2.00372000 7.01722000 0.63314300
-2.00491000 6.88905000 0.65420300
-1.51980000 6.09298000 1.47587000
-1.48263000 6.02709000 1.51680000
-1.46280000 6.16490000 1.52499000
-1.30842000 9.70732000 -1.52442000
-1.31916000 9.72456000 -1.54585000
-1.25048000 9.72458000 -1.58826000
-0.41272600 9.67920000 -1.98218000
-0.43558400 9.66625000 -1.93227000
-0.58177900 9.67496000 -1.89508000
-3.39843000 -6.19819000 -4.04890000
-3.50315000 -6.12782000 -3.95898000
-3.38707000 -6.06174000 -4.04872000
-4.47222000 -6.49365000 -2.92396000
-4.55240000 -6.56656000 -2.80712000
-4.55110000 -6.38950000 -2.81134000
-0.55619000 -1.65966000 -3.30601000
-0.63734700 -1.60592000 -3.26632000
0.87760200 -2.48405000 -3.60803000
0.87430000 -2.30573000 -3.52812000
0.78300600 -2.36426000 -3.57736000
-1.34035000 1.21994000 -1.43504000
-1.33449000 1.08649000 -1.47822000
-1.40849000 1.12400000 -1.40188000
-1.84398000 -0.12946600 -2.02920000
-1.72880000 -0.04783380 -2.04807000
-1.75575000 -0.20940200 -2.16315000
1.73554000 -1.03042000 2.84916000
1.78588000 -0.95860800 2.76706000
1.66230000 -0.80346300 2.73749000
0.80277400 -1.06236000 3.24501000
0.58641900 -0.94640600 3.23299000
0.68738900 -1.18476000 3.34752000
0.84290500 -9.53724000 -0.35234800
0.67200200 -9.54555000 -0.23412400
0.80602900 -9.54028000 -0.18685800
-0.13596700 -9.34102000 -2.26178000
-0.16260800 -9.32367000 -2.14990000
0.01706510 -9.34038000 -2.20604000
1.65971000 4.29622000 -0.76248200
1.69159000 4.38449000 -0.69507900
1.69726000 4.27048000 -0.66942300
-2.03858000 9.96908000 0.18646300
-2.02631000 9.95411000 0.15369600
-2.05335000 9.94836000 0.14826900
-2.19706000 9.82748000 0.27530200
-2.18609000 9.78460000 0.31972200
-2.22612000 9.79870000 0.38037300
-0.38895300 -6.44014000 -5.04034000
-0.32220800 -6.34419000 -5.04104000
-0.43931700 -6.34161000 -5.03319000
0.89182500 -5.39225000 -4.77983000
0.89360600 -5.26285000 -4.73698000
0.77881500 -5.32129000 -4.77770000
-2.59397000 -1.72943000 -2.31275000
-2.69976000 -1.75862000 -2.22380000
-2.65955000 -1.92611000 -2.38574000
-3.45182000 -2.66274000 -1.86799000
-3.64438000 -2.98459000 -1.80226000
-3.58639000 -3.02031000 -1.92815000
1.47899000 1.10083000 -0.67067100
1.44445000 1.23324000 -0.67400900
1.39826000 1.23118000 -0.75834700
1.22977000 1.45213000 -0.94196200
1.22479000 1.58580000 -0.92576600
1.13789000 1.58953000 -1.03087000
-1.21017000 0.94392900 1.52873000
-1.12237000 0.93845000 1.59490000
-1.62080000 3.26457000 0.85835700
-1.61110000 2.56607000 0.86393900
-1.65035000 2.71602000 0.78829200
-3.03307000 -9.42863000 0.25311300
-3.05303000 -9.46093000 0.63379100
-2.62507000 -9.43136000 0.28865700
-2.08622000 -2.98300000 3.88072000
-2.00001000 -3.23367000 4.03475000
-1.93205000 -2.85990000 3.89298000
-1.68575000 -4.86101000 4.92532000
-1.80080000 -4.79696000 4.86480000
-1.80527000 -4.93767000 4.91383000
0.39417000 -8.92807000 -4.41048000
0.40005600 -8.84921000 -4.48065000
0.52213500 -8.82305000 -4.48926000
1.03356000 -7.71813000 -4.98191000
0.89860800 -7.71495000 -5.00797000
0.91691500 -7.58015000 -5.04034000
2.62858000 -9.38433000 -2.79583000
2.59502000 -9.43116000 -2.68377000
2.51183000 -9.41410000 -2.81396000
0.47617700 -9.34072000 -3.86167000
0.70701900 -9.33642000 -3.82127000
0.71642000 -9.36632000 -3.75180000
1.37569000 3.12516000 0.94462600
1.34516000 3.01601000 0.99221800
1.35090000 3.22908000 0.99216600
1.54883000 1.66484000 0.35687600
1.56092000 1.56727000 0.29406900
1.54898000 1.42368000 0.42172100
2.78539000 -1.22735000 1.43366000
2.66683000 -0.89708900 1.26517000
2.72486000 -0.94133900 1.19499000
4.14291000 -3.94216000 0.64466300
4.14289000 -4.00705000 0.76877600
4.04549000 -3.77047000 0.79657900
1.82793000 1.11527000 0.36197800
1.80357000 1.20011000 0.37724900
1.77884000 1.22626000 0.47968100
1.60934000 1.34270000 0.93067600
1.59861000 1.47100000 0.92840100
1.55068000 1.34390000 1.04477000
-1.57492000 6.07612000 -1.38900000
-1.60051000 5.75086000 -1.34375000
-1.62320000 6.04496000 -1.33536000
-1.90257000 2.29421000 -0.54103000
-1.89234000 1.84418000 -0.56997400
-1.92781000 1.95082000 -0.47101500
1.88405000 9.82545000 1.65585000
1.78670000 9.82639000 1.77094000
1.89893000 9.80658000 1.71556000
2.44317000 9.76699000 0.73901700
2.42045000 9.74788000 0.88787900
2.49343000 9.75217000 0.67119500
-0.86790600 8.08671000 1.60967000
-0.93984100 8.08617000 1.57041000
-0.94256700 8.17158000 1.57600000
-0.13342700 9.04083000 1.89512000
1.38716000 8.66494000 -1.17340000
1.45705000 8.47324000 -1.01141000
1.43889000 8.67483000 -1.09823000
1.11523000 8.93267000 -1.59480000
1.18189000 8.93688000 -1.53967000
4.89497000 -5.26958000 -0.80254400
4.84006000 -5.10125000 -0.79373500
4.87614000 -5.17628000 -0.66575400
5.08540000 -7.10889000 -1.12414000
5.11572000 -7.05139000 -0.97812400
5.09859000 -7.21845000 -1.00036000
-5.27213000 -7.76402000 -0.53052500
-5.27057000 -7.83428000 -0.39464500
-5.29942000 -7.73554000 -0.39883400
-4.78011000 -8.89787000 -0.00512631
-4.72553000 -8.94691000 -0.12101800
-4.71422000 -8.97208000 0.05698790
2.20821000 -0.02643220 -1.24569000
2.31436000 -0.24787100 -1.36183000
2.22053000 -0.15047300 -1.38547000
1.84307000 -0.35569300 -2.04513000
1.89381000 -0.46642200 -2.09996000
1.82957000 -0.51746400 -2.20164000
-0.60292000 9.94259000 1.69608000
-0.59599700 9.93859000 1.65962000
-0.71488000 9.94128000 1.65044000
1.18973000 9.83754000 1.09825000
1.34421000 9.85213000 0.98229000
1.27457000 9.82811000 1.00788000
1.19346000 -7.54613000 -4.99061000
1.31105000 -7.65494000 -4.93389000
1.16779000 -7.71988000 -4.95229000
2.02303000 -6.25082000 -4.84042000
2.15148000 -6.31147000 -4.78981000
2.01507000 -6.39806000 -4.85427000
3.57110000 -7.28135000 -3.51456000
3.59801000 -7.14471000 -3.52038000
3.51343000 -7.13756000 -3.60416000
3.61745000 -8.51273000 -2.76824000
3.70183000 -8.58652000 -2.57489000
3.73997000 -8.52663000 -2.59019000
-1.28373000 -6.63309000 5.16667000
-1.19845000 -6.77552000 5.19529000
-1.34865000 -6.72984000 5.15613000
-2.73848000 -5.98016000 4.49476000
-2.58040000 -5.92780000 4.57405000
-2.66034000 -6.04810000 4.55008000
3.59685000 -2.32870000 1.40527000
3.64073000 -2.31335000 1.24363000
3.54887000 -2.18705000 1.38863000
2.46772000 0.11408700 0.38997800
2.41004000 0.18696500 0.43562100
2.47093000 0.07840190 0.52854100
0.73912500 9.71818000 1.64613000
0.71043700 9.70492000 1.59986000
0.84097200 9.70807000 1.54834000
1.82244000 9.66374000 0.43562000
1.84061000 9.64586000 0.20912600
1.89108000 9.65121000 0.11948200
1.82794000 9.62779000 0.10208800
1.77887000 9.59756000 0.07838550
1.83838000 9.61880000 -0.02742400
3.43760000 -8.74499000 3.54605000
3.50525000 -8.78176000 3.43866000
4.41702000 -8.64029000 2.13490000
4.39993000 -8.57177000 2.27456000
4.33394000 -8.69047000 2.24973000
1.38588000 6.51409000 -1.34831000
1.37915000 6.68961000 -1.37803000
1.43200000 6.68544000 -1.31869000
1.86201000 6.43500000 -0.32074400
1.86134000 6.73114000 -0.38588500
1.87292000 6.57279000 -0.28276900
1.45225000 -2.18377000 -3.50656000
1.40424000 -1.92563000 -3.39508000
1.50803000 -1.98844000 -3.38111000
0.44652200 -1.94938000 -3.67686000
0.46347600 -2.16651000 -3.77596000
0.34813000 -1.96582000 -3.69629000
-1.47848000 -4.22903000 4.47334000
-1.65414000 -4.25070000 4.42594000
-1.65001000 -3.97947000 4.27597000
-0.79300400 -4.18144000 4.60425000
-0.59600100 -4.21483000 4.64163000
-0.78496400 -4.26550000 4.64147000
-0.82288000 0.96131400 1.98628000
-0.86890000 0.83987400 2.03267000
-0.76470800 0.84074900 2.06722000
2.50983000 -8.55874000 -3.72320000
2.52783000 -8.68645000 -3.59782000
2.59578000 -8.56611000 -3.66108000
1.40684000 -9.15282000 -3.64191000
1.26641000 -9.10605000 -3.75960000
1.24096000 -9.14744000 -3.70807000
1.24725000 9.81203000 -1.92762000
1.49821000 9.81015000 -1.79910000
1.40055000 9.80392000 -1.91905000
1.92595000 9.53434000 -2.03295000
1.92529000 9.56313000 -2.03755000
2.00222000 9.56823000 -1.95495000
4.43275000 -8.14447000 -1.75950000
4.40831000 -8.23835000 -1.70117000
4.44644000 -8.24566000 -1.59421000
4.43185000 -8.76165000 -0.50456300
4.39680000 -8.82278000 -0.39915300
4.48211000 -8.70613000 -0.39402300
1.33796000 8.82661000 -1.30752000
1.31351000 8.71568000 -1.29042000
1.39314000 8.77725000 -1.20907000
2.22399000 9.36021000 -1.05885000
2.15501000 9.34711000 -1.18631000
2.17744000 9.33552000 -1.04549000
0.73365200 3.95824000 -1.61300000
0.72402700 4.15021000 -1.60931000
0.77355800 4.02453000 -1.58216000
-4.46768000 -3.70919000 -0.06714760
-4.47876000 -3.71985000 0.02982010
-4.56053000 -3.91088000 0.00234137
-3.74836000 -2.04049000 0.00534220
-3.75170000 -2.04071000 0.09411010
-3.83864000 -2.23221000 0.06419070
1.15500000 -2.51512000 -3.53830000
1.16386000 -2.74492000 -3.63806000
1.25669000 -2.75029000 -3.60789000
2.32624000 -5.58586000 -4.32854000
2.46069000 -5.71791000 -4.28981000
2.43023000 -5.59208000 -4.27349000
-0.00435319 1.00706000 1.87736000
-0.07323510 0.93519300 1.90416000
-0.10055700 1.01740000 1.87317000
0.40685000 0.46221400 2.12197000
0.38907500 0.62239800 2.02362000
0.47860700 0.52132000 2.06265000
0.91704600 9.50710000 -2.53219000
1.05946000 9.49019000 -2.46872000
1.05652000 9.50407000 -2.46112000
0.15648700 9.42640000 -2.74586000
0.26901800 9.40039000 -2.71485000
0.27649700 9.42899000 -2.73813000
-1.67385000 7.69426000 0.78443200
-1.59665000 7.61824000 0.92479900
-1.66626000 7.52741000 0.77796400
-1.24860000 7.73505000 -1.50830000
-1.27433000 6.93572000 -1.43031000
-1.21486000 6.89638000 -1.47954000
-1.33316000 3.65314000 -1.14458000
-1.39510000 3.27701000 -1.04290000
-1.33893000 3.27301000 -1.10866000
-1.60444000 -7.96812000 4.91618000
-1.50755000 -8.04277000 4.92341000
-1.60842000 -8.09842000 4.87230000
0.31571600 -7.57351000 5.24212000
0.20869700 -7.56859000 5.24952000
0.16996800 -7.42875000 5.27053000
-1.42637000 9.68185000 1.07238000
-1.49015000 9.68541000 1.00793000
-1.47286000 9.69635000 1.01162000
-0.36423300 9.79455000 1.53505000
-0.46862700 9.83316000 1.52279000
-0.36437700 9.83065000 1.54587000
0.63687000 3.56375000 -1.43798000
0.66844200 3.27407000 -1.41374000
0.76234800 3.23338000 -1.35383000
-0.07706170 3.98079000 -1.66382000
0.01664990 3.86330000 -1.65077000
0.05565500 3.89845000 -1.64615000
-3.39505000 -4.59093000 3.57297000
-3.26277000 -4.56541000 3.67295000
-3.35920000 -4.67494000 3.65497000
-2.11505000 -1.88565000 3.07294000
-1.94418000 -1.83858000 3.14858000
-2.09632000 -2.01494000 3.15895000
2.36537000 -8.25730000 4.42079000
2.47957000 -8.34873000 4.30186000
2.29469000 -8.34907000 4.41480000
1.02741000 -8.86196000 4.59053000
1.15402000 -8.93948000 4.50007000
0.96174300 -8.93201000 4.55652000
2.61769000 -9.15942000 3.48261000
2.65858000 -9.20573000 3.37716000
2.50277000 -9.20692000 3.50040000
2.66406000 -9.47536000 2.65853000
2.83520000 -9.48113000 2.47740000
2.66580000 -9.49382000 2.54839000
1.28523000 7.97551000 1.43314000
1.34426000 8.07794000 1.37404000
1.28763000 8.16953000 1.43175000
1.71562000 8.40025000 0.82413600
1.73639000 8.58613000 0.80834500
1.70044000 8.58935000 0.88550200
-2.30435000 -9.37295000 -0.29711200
-2.24369000 -9.39992000 -0.10891500
-2.21237000 -9.37671000 -0.31329900
1.76164000 5.45133000 0.71670100
1.73330000 5.38604000 0.79069000
1.73351000 5.05093000 0.76452100
4.90068000 -5.58640000 0.83662000
4.98641000 -5.83576000 0.64031600
4.91637000 -5.54786000 0.64959700
3.64220000 -3.15990000 1.94383000
3.63440000 -3.33112000 2.14319000
3.69520000 -3.36327000 2.04278000
-4.93454000 -6.25757000 -1.63834000
-4.97806000 -6.40236000 -1.54522000
-4.89335000 -6.39852000 -1.75365000
-4.22834000 -5.14881000 -2.51515000
-4.25367000 -5.02813000 -2.39299000
-4.34185000 -5.21822000 -2.38455000
-0.12273000 9.64310000 2.77414000
-0.20800200 9.61974000 2.78158000
-0.03627370 9.62658000 2.77828000
-1.10285000 9.71683000 2.52619000
-1.18678000 9.70073000 2.50966000
-1.03005000 9.69689000 2.56974000
-2.10812000 -1.59041000 2.88697000
-2.00547000 -1.63231000 2.98415000
-2.15622000 -1.74506000 2.95669000
-0.74602200 -0.02207210 2.42983000
-0.58232100 0.05219300 2.41420000
-0.67421100 -0.12663200 2.52728000
1.15999000 6.89455000 -1.59599000
1.17392000 6.68919000 -1.56218000
1.11173000 6.75213000 -1.61555000
0.45510600 8.62297000 -2.09075000
0.50043400 8.76155000 -2.09594000
0.55383300 8.64988000 -2.05952000
0.11461000 9.63071000 -2.49898000
0.12069600 9.63861000 -2.41803000
-0.24105500 9.66612000 -2.32959000
-1.66120000 9.77171000 -1.84686000
-1.68854000 9.76266000 -1.85058000
-1.67614000 9.75334000 -1.91736000
-4.24866000 -9.05688000 -0.83089800
-4.28823000 -9.06148000 -0.65101100
-4.23072000 -9.10071000 -0.64654600
-3.21973000 -9.06632000 -2.59809000
-3.36130000 -9.07083000 -2.43887000
-3.31906000 -9.11358000 -2.40742000
-2.11744000 8.05140000 -0.37614000
-2.13442000 8.20480000 -0.30097000
-2.12637000 8.25416000 -0.37993400
0.03868480 -8.85869000 -4.49007000
0.03847030 -8.98945000 -4.37063000
-0.08076940 -8.91646000 -4.43762000
1.55186000 4.38224000 -0.45599500
1.55172000 4.53486000 -0.45726000
1.52464000 4.52846000 -0.54652200
1.35954000 6.26705000 -1.00740000
1.32770000 6.13240000 -1.02705000
1.39457000 6.20457000 -0.93960700
4.88577000 -6.56849000 1.86456000
4.83925000 -6.65060000 2.05140000
4.88043000 -6.66347000 1.91877000
4.49227000 -7.66958000 2.77498000
4.56401000 -7.61309000 2.65255000
4.51522000 -7.48312000 2.78700000
0.44543500 -3.68693000 4.63114000
0.44841600 -3.91443000 4.72658000
0.56629200 -3.88645000 4.69942000
1.04452000 -5.52241000 5.18165000
0.86268700 -5.28425000 5.15140000
0.90567700 -5.49256000 5.20251000
-0.02036560 -2.44028000 3.87295000
-0.05405610 -2.28349000 3.80114000
0.10990500 -2.31860000 3.80801000
1.22840000 -3.78741000 4.27097000
1.30013000 -3.78582000 4.24440000
1.20171000 -3.94384000 4.34607000
-1.85830000 1.18433000 0.29419700
-1.88661000 1.05100000 0.34217500
-1.89719000 1.05625000 0.23614600
-4.67556000 -8.55421000 -1.44606000
-4.80165000 -8.39956000 -1.35626000
-4.75912000 -8.39628000 -1.47844000
-4.34724000 -7.81887000 -2.77624000
-4.43881000 -7.74961000 -2.67512000
-4.37416000 -7.65784000 -2.80029000
-3.68041000 -5.64903000 3.73795000
-3.65791000 -5.89620000 3.80930000
-3.73242000 -5.88696000 3.73610000
-2.94618000 -5.70013000 4.31508000
-2.86032000 -5.71270000 4.37112000
-2.87008000 -5.97077000 4.41421000
0.69232000 9.78494000 -1.78077000
0.59615600 9.78480000 -1.81328000
0.68113000 9.76233000 -1.76033000
1.30970000 9.82091000 -1.78916000
1.47388000 9.82394000 -1.64150000
1.52375000 9.81645000 -1.71157000
-0.83326400 -2.45938000 -3.63380000
-0.77048400 -2.74196000 -3.75964000
-0.74070800 -2.46954000 -3.65695000
-2.13537000 -5.21559000 -4.34485000
-2.15192000 -5.32559000 -4.37851000
-2.03784000 -5.26354000 -4.40612000
2.89583000 -9.53074000 2.01659000
2.77203000 -9.53692000 2.05755000
2.71764000 -9.52382000 2.25685000
2.67573000 -9.61984000 0.27330000
2.55697000 -9.61881000 0.07257150
2.45581000 -9.61820000 0.16993400
-1.95273000 9.22542000 1.27247000
-1.91792000 9.25020000 1.38776000
-1.96937000 9.28281000 1.38021000
-2.15701000 8.52792000 0.16978200
-2.13736000 8.37651000 0.25210200
-2.14026000 8.50751000 0.28752700
-1.26422000 9.40346000 2.36236000
-1.39510000 9.38830000 2.27010000
-1.27052000 9.37687000 2.30552000
-1.56770000 9.15768000 1.67100000
-1.48164000 9.16333000 1.75943000
-1.55233000 9.20468000 1.76652000
-2.70129000 -0.41884500 -0.62629700
-2.85589000 -0.62793800 -0.59982000
