-0.69500000 13.55020000 -24.84060000
-19.58190000 13.54600000 -12.34850000
-14.34470000 13.33630000 -27.00410000
-30.82250000 276.41900000 -5.56870000
-32.83060000 278.43900000 -5.91200000
-33.06220000 278.43000000 -3.30830000
-24.75310000 267.01200000 1.33760000
-24.97330000 268.60400000 4.25210000
-23.85400000 265.47500000 3.14270000
61.44720000 100.65200000 65.51270000
61.93020000 97.17500000 65.90230000
64.05400000 100.75600000 62.89150000
47.66890000 93.36160000 77.69940000
50.79000000 93.40850000 75.64760000
50.43270000 96.91250000 75.31040000
40.60640000 69.55880000 76.92430000
37.36060000 69.59020000 78.62600000
38.83740000 76.79850000 78.38770000
28.72460000 76.88370000 82.83820000
25.24280000 76.91260000 84.03500000
26.54490000 84.11630000 83.40520000
31.09960000 277.41900000 9.04480000
29.24420000 275.37700000 7.15130000
29.78410000 275.35400000 4.61640000
22.26860000 1.59380000 55.95520000
19.88140000 1.21010000 56.67000000
24.55500000 1.65770000 54.99010000
33.85390000 0.08700000 46.95290000
32.28430000 0.19900000 48.86480000
23.66670000 0.20030000 53.19630000
42.26350000 55.17890000 -71.89120000
45.16990000 55.11680000 -70.00260000
45.58570000 58.46060000 -71.14190000
28.16520000 44.46440000 -72.92930000
31.11780000 44.40830000 -71.60900000
32.48130000 50.50970000 -74.78090000
55.48130000 -0.24000000 11.66660000
57.12210000 -0.47010000 0.06420000
56.40600000 -0.29150000 11.84950000
46.90520000 -0.09990000 33.41150000
-23.51210000 94.29600000 -84.16800000
-20.48600000 97.77710000 -84.32380000
-21.13050000 102.99800000 -83.13950000
2.17870000 109.76900000 -83.66670000
5.62360000 109.75100000 -83.44180000
4.41510000 116.56000000 -81.52600000
-67.30570000 29.71670000 9.97640000
-66.80430000 29.70080000 12.74850000
-63.63790000 26.62250000 11.62270000
-59.88100000 23.28140000 -9.33190000
-59.03500000 23.34100000 -14.04930000
-61.67730000 24.99180000 -11.84750000
-55.86410000 -0.42680000 -12.90630000
-57.19960000 -0.47740000 -1.61620000
-57.83070000 -0.19910000 -6.28630000
-56.15160000 0.61940000 -17.93640000
-55.39450000 0.69360000 -20.19240000
-54.62700000 -0.12230000 -19.83620000
39.54620000 105.66800000 -77.62390000
40.55700000 96.97780000 -78.91600000
37.22890000 96.94210000 -80.53800000
37.29290000 119.20900000 -74.32760000
38.49870000 112.49600000 -76.14930000
35.29700000 112.47700000 -77.68420000
2.92120000 210.92000000 -29.52270000
4.77730000 204.62600000 -32.50210000
5.71060000 207.76100000 -30.59390000
1.04490000 225.59600000 -23.54930000
1.70960000 232.35900000 -21.36250000
-0.94980000 232.35200000 -21.61770000
70.16880000 40.92850000 -34.71250000
68.61030000 40.92240000 -37.59340000
69.44540000 42.38810000 -38.05060000
84.35110000 57.23530000 -18.14980000
85.13590000 57.37090000 -14.64150000
82.67050000 50.65810000 -14.14730000
-82.41730000 70.64100000 -36.04890000
-80.65250000 61.93810000 -35.55030000
-82.08540000 61.92860000 -32.22260000
-86.53730000 56.48170000 -7.51220000
-83.92200000 49.79030000 -7.33570000
12.82880000 225.67100000 -23.55820000
11.03060000 230.72200000 -22.74030000
14.23060000 232.48000000 -20.09050000
18.39850000 157.46800000 -62.07010000
19.51720000 151.31600000 -65.43410000
17.03320000 149.75300000 -67.03080000
12.70730000 77.36350000 -88.93980000
12.70560000 82.60170000 -89.08410000
16.46650000 79.12140000 -88.39300000
-9.83860000 68.85430000 -88.40170000
-9.71680000 62.05920000 -86.87630000
-13.44700000 65.49070000 -87.27260000
-25.77870000 282.04800000 33.34530000
-22.68250000 280.38000000 31.68220000
-21.40250000 282.08900000 36.07580000
-29.25400000 284.75200000 32.21270000
-34.25890000 284.74300000 27.33090000
-34.66590000 284.36800000 27.68130000
-12.87850000 246.35600000 -20.07780000
-10.37600000 246.38100000 -21.33700000
-10.45000000 242.80900000 -21.56190000
28.36720000 72.00710000 86.41400000
31.83470000 70.29170000 84.90440000
31.81550000 73.79560000 85.46310000
34.21200000 94.92570000 84.33070000
30.85850000 93.14280000 85.85550000
31.32470000 86.12980000 86.21260000
77.87410000 41.96390000 15.95140000
76.23250000 40.50460000 18.90810000
82.80320000 55.26430000 23.90330000
83.64570000 55.19300000 20.52220000
85.28280000 60.45080000 20.89810000
-7.93950000 244.81300000 18.41210000
-8.89690000 239.48300000 18.77980000
-10.42970000 239.48000000 18.11880000
-7.73790000 220.64300000 24.82770000
-5.29930000 227.34300000 22.83300000
-2.44310000 227.34300000 23.10730000
50.29670000 21.36170000 17.24200000
48.59730000 21.35260000 21.65660000
51.51220000 21.69610000 17.57000000
19.38020000 20.91910000 46.92730000
6.07690000 21.05650000 52.22150000
18.07380000 21.05160000 48.99060000
-77.42430000 123.36700000 -23.72120000
-75.13330000 129.93400000 -22.20410000
-63.24580000 155.06000000 -16.80810000
-63.89350000 155.05500000 -14.24040000
-67.24770000 148.93000000 -15.33780000
4.61880000 0.45200000 -58.28520000
-0.42450000 0.47640000 -58.48050000
4.68160000 0.97190000 -58.83500000
-7.99780000 1.63910000 -58.71700000
-10.49960000 1.58270000 -58.29690000
-10.47830000 2.43910000 -58.31990000
-21.58200000 56.98590000 85.27490000
-21.90840000 62.01640000 86.63250000
-25.30850000 60.19920000 85.25000000
-25.78400000 39.81760000 75.02900000
-26.68970000 44.15210000 77.80250000
-29.79920000 44.07000000 76.62560000
57.60640000 -0.35470000 4.82580000
-4.79680000 192.28200000 40.21160000
-18.33720000 154.73400000 61.80310000
-15.76340000 154.73200000 62.44070000
-16.85620000 148.56800000 65.80970000
-82.23600000 54.49520000 -23.75850000
-81.18490000 54.50200000 -27.08060000
-81.87920000 56.12800000 -26.97160000
-83.39640000 71.11630000 32.55620000
-84.67690000 71.15450000 29.14560000
-84.46390000 78.19600000 30.62120000
-88.79650000 81.87300000 13.62490000
-89.45250000 78.37220000 9.27430000
-88.98760000 85.41900000 10.68160000
-45.16410000 166.87600000 36.17610000
-49.72550000 160.87900000 36.46690000
-36.42390000 186.28000000 27.14350000
-31.04030000 160.82600000 52.72090000
-33.19690000 160.82200000 51.46330000
-31.07270000 166.83500000 48.35620000
7.18940000 232.45300000 19.70010000
6.05280000 235.91800000 19.28860000
7.63000000 235.91000000 18.58260000
19.68340000 210.91900000 20.88320000
20.89390000 214.12600000 17.15120000
22.10580000 210.92300000 18.07350000
10.06590000 192.32500000 38.54820000
11.65130000 192.33100000 38.02550000
18.52070000 166.85200000 52.84270000
23.40230000 129.29100000 72.81130000
26.40700000 129.28800000 71.70690000
26.59650000 122.63100000 74.46120000
-53.77710000 175.34600000 10.99360000
-61.96690000 161.77800000 12.74280000
-61.38000000 161.81800000 15.27730000
-54.85980000 175.19300000 -2.37310000
-62.10580000 163.13500000 -5.30040000
-12.68890000 155.22600000 66.36740000
-15.69760000 152.09000000 67.61580000
-16.48120000 144.24600000 71.89430000
-12.22020000 179.36000000 50.86030000
-14.99130000 158.22100000 63.97790000
-12.38600000 158.26700000 64.50060000
-65.50320000 67.26250000 -60.47180000
-67.68380000 65.51140000 -57.47650000
-68.44320000 70.71120000 -58.04780000
-54.17990000 38.50270000 -54.47380000
-56.37940000 38.43940000 -52.17950000
-57.81150000 41.28880000 -53.60540000
49.09950000 44.00170000 65.02940000
50.25760000 47.07090000 66.38720000
47.04300000 45.50050000 67.67390000
47.31100000 35.62630000 58.29770000
16.11800000 244.61200000 -8.07430000
15.66680000 248.15300000 -8.74880000
14.88880000 248.15000000 -10.14040000
8.93190000 265.18200000 -19.87370000
8.62000000 263.61400000 -19.30100000
10.17450000 263.63700000 -18.40310000
-11.05240000 10.15780000 -46.52720000
-9.01040000 10.10490000 -47.01260000
-8.85330000 11.26510000 -45.89870000
1.72990000 3.08290000 -52.30550000
6.51150000 1.25690000 -53.61800000
6.35370000 2.37200000 -52.54080000
-23.21190000 212.44300000 -24.42230000
-11.10760000 232.26500000 -23.17750000
-11.45930000 228.83500000 -24.02670000
-13.62860000 227.12400000 -23.57170000
87.30760000 107.66800000 2.58470000
89.49830000 97.35290000 2.89600000
88.49410000 102.44400000 -0.90930000
85.84020000 107.06200000 -15.56490000
86.84670000 105.50700000 -11.93730000
88.00230000 100.32400000 -11.91770000
29.56600000 188.04200000 -35.47210000
29.76180000 183.41000000 -38.75340000
23.64340000 200.39300000 -31.26250000
54.54960000 164.04200000 -26.43570000
59.47210000 154.96100000 -28.75760000
55.85300000 159.50800000 -30.01040000
-87.02180000 102.95000000 3.00020000
-78.44180000 129.87800000 -0.15130000
-78.36410000 129.88900000 -3.34480000
-75.48690000 136.33500000 -2.59890000
15.16770000 267.06700000 15.02590000
12.75120000 262.16000000 15.16180000
13.42420000 265.48000000 15.91330000
17.13470000 244.59800000 5.27510000
15.92710000 246.36100000 8.24510000
15.92780000 249.90300000 8.21700000
88.41430000 71.40000000 -15.24680000
89.06240000 71.59590000 -11.56080000
87.69490000 64.48350000 -11.36910000
85.82140000 62.40580000 -18.48800000
30.32220000 204.64700000 -8.52700000
27.17670000 210.94100000 -7.70260000
26.73790000 209.35500000 -11.50270000
24.98500000 210.94200000 -13.45610000
27.89420000 204.65300000 -14.91050000
-11.08850000 62.50410000 88.66370000
-10.89830000 57.39430000 87.30330000
-7.32010000 59.22360000 88.17530000
7.07980000 66.53040000 89.85440000
10.70650000 66.58060000 89.48620000
10.48870000 71.85700000 90.40570000
42.27280000 116.34100000 -69.02330000
39.41310000 116.36300000 -70.75450000
41.78510000 107.78400000 -72.20350000
31.06300000 100.92600000 -79.32110000
27.39130000 102.70100000 -80.35380000
28.55370000 97.44780000 -80.99480000
16.07460000 246.45900000 -15.21740000
16.94570000 242.95800000 -14.62990000
14.91020000 244.69500000 -16.68400000
19.75630000 251.72700000 -8.73520000
19.48840000 255.19900000 -9.68170000
20.37370000 251.73100000 -6.95720000
10.36130000 28.65740000 67.20180000
8.37230000 33.07820000 72.41080000
-11.60800000 28.23470000 66.75360000
-10.54020000 21.84060000 59.08470000
-5.70680000 21.89480000 59.74350000
-30.85970000 155.07100000 -56.74940000
-33.18640000 155.06400000 -55.49560000
-34.59710000 148.94400000 -58.73460000
-22.37220000 116.68500000 -79.04660000
-19.08100000 116.67100000 -79.84060000
-19.50640000 123.36000000 -77.35000000
11.21010000 243.14000000 18.82270000
11.01060000 246.66800000 18.52900000
7.59760000 250.21100000 20.08320000
-78.89090000 97.94120000 43.20030000
-81.30170000 92.60990000 40.19390000
-69.55900000 87.24120000 59.29100000
-67.18480000 83.72960000 62.25940000
-66.91800000 90.83240000 61.87340000
38.07180000 283.66000000 -19.40250000
36.87160000 283.07900000 -20.79590000
35.11990000 283.04400000 -23.91390000
28.30460000 280.90700000 -27.35850000
25.70620000 279.67100000 -27.14120000
26.26750000 281.08200000 -30.05130000
54.44940000 47.01950000 -60.67640000
58.09250000 50.18860000 -59.36300000
55.79000000 43.91640000 -57.12650000
43.41040000 61.94260000 -75.56400000
46.81220000 63.66130000 -74.02540000
45.98650000 58.54580000 -72.85070000
-42.09530000 77.50820000 78.47200000
-45.28450000 77.54350000 76.74770000
-43.94230000 84.65800000 77.21920000
-58.01320000 109.39000000 62.12240000
-62.01500000 104.24000000 60.03800000
-59.99520000 111.13000000 59.60720000
36.89080000 61.93380000 -78.96780000
40.99440000 91.70530000 -79.42510000
41.37400000 84.63920000 -79.77390000
37.84520000 88.13290000 -81.30400000
-84.21460000 55.88870000 18.23570000
-84.91590000 55.92260000 14.77990000
-85.88550000 59.23090000 15.66170000
-76.83160000 39.45920000 3.78450000
-76.93600000 39.47310000 0.64350000
-80.86390000 45.11740000 1.84260000
-64.81280000 44.66330000 50.75760000
-66.07030000 47.70620000 51.78240000
-67.50890000 46.11740000 48.46010000
-74.93630000 40.07500000 25.62920000
-77.76070000 43.02740000 22.98140000
-74.93840000 38.64990000 22.19980000
-21.60770000 27.74660000 -62.42100000
-19.87790000 31.00470000 -66.74410000
-18.68450000 26.74940000 -62.08760000
-12.49100000 282.64300000 -43.28260000
-16.13520000 283.22400000 -42.64810000
-12.58570000 283.19400000 -43.66610000
9.42290000 283.38100000 -43.47100000
3.94330000 283.30400000 -44.55140000
7.60830000 283.67500000 -43.92420000
-20.72450000 23.07680000 -55.34220000
-21.41520000 24.79100000 -57.62590000
-25.68720000 24.81480000 -56.02500000
-13.88960000 34.50170000 -70.05020000
-16.60280000 34.52560000 -69.54560000
-15.74950000 29.89350000 -65.10750000
68.79520000 77.30750000 -53.14050000
70.90210000 77.25230000 -50.22300000
70.04150000 84.46320000 -51.06290000
60.75380000 97.08770000 -59.88990000
58.26310000 97.12300000 -62.37470000
59.45580000 91.79750000 -62.33020000
-13.11750000 84.39600000 87.29560000
-16.71030000 84.42320000 86.74770000
-15.21820000 91.54630000 86.27640000
-3.40350000 96.79890000 86.53250000
0.18180000 96.77960000 86.53200000
-0.82410000 91.45650000 87.33710000
-32.78810000 138.61700000 -67.83440000
-34.45270000 128.96300000 -71.93120000
-36.78540000 132.20700000 -69.17370000
-34.25990000 103.95700000 -80.84280000
-33.78890000 109.05700000 -79.73660000
-30.32170000 110.68600000 -80.65720000
-7.53600000 54.47460000 83.77080000
-4.06930000 54.42520000 83.92010000
-4.29680000 52.78370000 83.22350000
-31.12070000 58.12040000 80.06150000
-27.67440000 59.77410000 81.78270000
-27.87860000 56.40510000 80.56080000
12.71060000 192.40800000 -37.58510000
11.15420000 192.40100000 -38.15000000
12.51390000 186.39000000 -41.66450000
9.17620000 161.03100000 -59.22970000
11.60790000 161.02900000 -58.73390000
10.52920000 167.02600000 -55.13160000
59.14880000 129.55000000 -47.06450000
57.17330000 129.56600000 -49.50110000
59.71720000 122.92700000 -50.58250000
62.72860000 142.39400000 -29.51790000
61.46340000 142.40600000 -32.12180000
64.53600000 135.99900000 -33.07410000
13.20790000 275.12500000 22.45790000
12.36730000 272.86100000 21.13260000
10.89190000 274.06100000 22.92830000
18.65810000 271.46500000 14.04430000
19.16870000 270.07100000 11.94570000
18.05700000 270.07600000 13.61450000
26.88350000 22.26890000 -53.02100000
24.58000000 22.26600000 -54.10740000
27.30810000 27.87260000 -59.96850000
44.92740000 36.88180000 -59.92590000
48.14490000 38.19330000 -58.74460000
45.26670000 33.11290000 -55.39340000
-62.89590000 145.03200000 37.11520000
-65.04120000 143.43000000 34.90840000
-68.98290000 133.73600000 37.28880000
-73.33360000 115.39000000 44.19480000
-74.05230000 118.79600000 40.48630000
-75.98330000 111.97800000 41.65010000
25.22230000 217.37400000 -0.33920000
22.59530000 223.96000000 0.69560000
22.49670000 223.96000000 -2.30860000
17.11340000 235.84800000 8.87720000
17.86290000 229.00500000 11.31920000
16.85750000 229.00800000 12.89820000
73.90740000 105.71900000 -46.32490000
75.28850000 98.68680000 -46.72340000
73.53380000 96.93570000 -49.89970000
72.62060000 84.60570000 -53.11030000
72.67200000 79.29620000 -53.01500000
70.32420000 77.60650000 -55.90930000
-34.78150000 11.40380000 -31.25590000
-32.05730000 11.33620000 -34.10640000
-31.73360000 11.71440000 -33.68240000
-39.97370000 12.62530000 -16.89060000
-36.51480000 12.47110000 -25.11870000
-67.73390000 28.08530000 -2.71820000
-67.55790000 28.12570000 -5.50530000
-60.53590000 22.31120000 -4.69220000
-28.55670000 43.06840000 -74.30990000
-25.42300000 43.04850000 -75.39490000
-24.59140000 38.70930000 -72.55170000
-9.39800000 47.43200000 -81.35480000
-5.94110000 44.35410000 -79.95320000
87.58040000 106.07300000 6.30610000
83.13430000 108.26000000 27.64890000
81.94120000 108.28800000 31.09030000
83.81260000 99.73910000 31.83150000
-32.16910000 273.52300000 0.43260000
-44.54190000 283.12500000 -9.55490000
-43.72170000 283.12100000 -13.12990000
-43.63130000 282.54000000 -11.21240000
-0.48170000 278.90500000 30.39930000
2.04130000 278.91700000 30.19860000
-0.53670000 277.68100000 29.12950000
-10.50370000 270.23200000 22.06640000
-11.08570000 272.89700000 23.53310000
-8.05120000 272.91500000 24.52210000
-4.25940000 258.49100000 -20.27850000
-3.49360000 261.87300000 -21.20340000
-5.22060000 261.86200000 -20.98150000
-5.81350000 269.45000000 -24.41150000
-6.09940000 271.96900000 -26.17820000
-46.78860000 30.92120000 50.34650000
-45.87410000 33.23210000 54.10720000
-43.22800000 28.69470000 50.36060000
-48.32930000 38.40220000 57.95930000
-49.50050000 35.78990000 54.09180000
-51.89940000 41.22630000 57.80070000
-41.16310000 282.92700000 16.91510000
-40.78430000 283.51500000 18.77810000
-42.93350000 283.45200000 13.68530000
-42.60830000 284.55200000 4.53850000
-41.76390000 284.25000000 4.42790000
-40.49420000 283.51700000 -2.24420000
27.94360000 278.67500000 -10.53180000
26.06690000 276.65000000 -9.91100000
26.23410000 275.85400000 -6.28000000
38.17910000 284.67800000 6.19450000
37.48520000 284.16400000 1.23950000
34.90690000 282.86500000 -0.36390000
83.13450000 56.75640000 0.65200000
83.02040000 56.72350000 4.18820000
84.65650000 62.00040000 3.40880000
74.48440000 42.04590000 12.18780000
74.93110000 42.04440000 8.94520000
-21.69980000 77.30790000 85.96200000
-25.22260000 77.34030000 85.06500000
-23.80410000 84.47870000 85.21190000
-43.15050000 70.40840000 77.49620000
-27.70580000 18.72390000 50.19300000
-32.24430000 20.17330000 48.76020000
-33.84990000 19.39040000 46.85350000
-5.66830000 15.86830000 56.44240000
-3.34590000 16.77500000 56.65270000
-10.19460000 16.76140000 55.84700000
-65.21770000 109.46900000 54.69980000
-62.91810000 109.44200000 57.27300000
-64.90720000 102.53400000 57.53550000
-53.55610000 136.02000000 52.78110000
-55.68520000 136.03600000 50.58890000
-53.04440000 142.38500000 48.80620000
55.18630000 143.81600000 -46.60450000
45.54420000 140.42800000 -58.28870000
44.55630000 135.59300000 -61.97740000
41.64390000 145.16800000 -58.18530000
-0.60630000 198.48700000 -40.43140000
-2.24740000 204.70000000 -37.05760000
-0.71750000 204.71300000 -37.09390000
8.48620000 192.37600000 -42.94220000
9.08910000 200.15200000 -38.42760000
13.43830000 194.00800000 -40.72240000
-89.72360000 81.97100000 -4.68310000
-89.46670000 78.46200000 -9.09740000
-89.29750000 85.50530000 -7.61230000
-87.57840000 87.29560000 -18.13000000
-86.80220000 85.54500000 -22.09230000
-86.41420000 92.56750000 -20.54370000
24.15600000 154.43800000 -61.95640000
26.18860000 145.07000000 -66.65860000
23.41680000 145.06500000 -67.69960000
24.71500000 117.49000000 -80.04890000
23.56030000 125.78400000 -77.18180000
26.73740000 125.78800000 -76.12090000
47.58270000 15.68780000 -28.87750000
44.94190000 16.31610000 -32.79430000
43.68240000 17.80090000 -34.79830000
21.23200000 19.73210000 -52.62540000
27.81630000 19.72190000 -49.48320000
25.25740000 18.39990000 -49.84550000
71.72510000 33.43890000 11.88830000
71.24450000 33.47680000 14.82540000
66.57200000 28.76300000 13.90930000
55.88010000 32.95100000 46.11960000
57.18900000 30.44790000 40.06520000
59.23810000 32.79870000 41.39680000
83.75610000 78.48710000 35.72220000
82.38680000 85.64790000 39.28640000
82.25820000 78.48010000 39.13810000
80.42650000 64.19950000 38.09240000
78.85400000 64.19630000 41.32380000
77.56540000 58.92830000 40.61320000
-11.68860000 21.69050000 54.67960000
-11.42210000 21.32850000 53.39120000
-20.31550000 21.36210000 51.17980000
-41.48510000 21.17990000 36.62170000
-44.03820000 21.54580000 35.68920000
-40.62970000 21.50080000 39.18100000
45.63510000 142.49000000 -52.66940000
43.43430000 142.50200000 -54.55860000
45.90470000 136.13000000 -56.61390000
35.04950000 121.44500000 -71.17230000
37.43360000 123.09900000 -69.19380000
35.41640000 129.71200000 -67.29160000
-50.94040000 98.86330000 -72.76370000
-47.63680000 100.60900000 -74.57780000
-68.92350000 84.71970000 -58.64570000
-71.42130000 81.20870000 -55.68290000
-71.18090000 88.19820000 -55.63370000
80.42310000 127.40700000 1.89720000
81.13650000 125.73100000 -1.48320000
78.25290000 132.10200000 -1.49120000
61.56890000 162.81700000 0.96600000
66.08440000 155.33100000 1.21510000
62.45070000 161.28400000 -1.63420000
26.20730000 217.70100000 13.17380000
24.97890000 217.70800000 15.36710000
27.69510000 211.39200000 17.05420000
27.81710000 200.68000000 26.76260000
31.54700000 194.55700000 27.90900000
41.97290000 186.38100000 -5.67320000
38.52940000 192.38800000 -1.99980000
38.22180000 192.39400000 -5.31260000
67.41430000 142.32700000 -15.82310000
66.70250000 142.34000000 -18.63900000
-54.44780000 42.04110000 59.67170000
-55.66200000 44.96590000 61.04820000
-58.10370000 44.88450000 58.62490000
-44.98840000 45.25830000 69.58200000
-45.85890000 48.31700000 70.99360000
-48.25520000 46.70380000 68.33930000
-58.56530000 160.15100000 -25.75610000
-62.61690000 152.56800000 -27.68100000
-62.11760000 155.59500000 -24.39250000
-69.40330000 143.19800000 -24.10200000
-65.55740000 150.98300000 -22.71270000
-65.31030000 149.46000000 -25.72500000
-22.31540000 235.82100000 2.67100000
-22.46610000 235.81200000 0.95510000
-21.56180000 241.02800000 0.86720000
83.87420000 101.81800000 -3.45640000
83.94760000 101.79600000 0.06200000
82.30850000 108.85400000 -1.04650000
79.15320000 108.76500000 22.90120000
80.02990000 108.77100000 19.54130000
81.33830000 101.71000000 21.03230000
13.83750000 135.22200000 76.94290000
13.20180000 141.57900000 73.83240000
10.33720000 139.93900000 75.15660000
17.64800000 128.82300000 79.12000000
18.43680000 120.58400000 82.36510000
21.75820000 120.63600000 81.53770000
-81.48080000 100.31300000 -35.77360000
-78.86110000 105.47100000 -38.81700000
-80.18900000 98.57050000 -39.23090000
-87.26490000 82.93940000 -25.48480000
-87.19370000 79.41710000 -25.53760000
-88.12590000 77.65330000 -21.93810000
-23.73710000 195.26000000 -35.36360000
-26.01640000 187.53900000 -39.00430000
-28.13990000 190.59900000 -35.41590000
-36.86630000 160.39100000 -51.64770000
-28.86600000 178.44500000 -43.60010000
-35.16340000 158.88700000 -53.87930000
24.78300000 284.69500000 33.85870000
21.79330000 284.70200000 35.94380000
21.84200000 284.42500000 36.01020000
4.50190000 280.76900000 37.49650000
1.28910000 280.02300000 36.67170000
5.68100000 279.58900000 35.34430000
44.14790000 1.10700000 40.39280000
45.85800000 1.98030000 38.63410000
42.54400000 1.39130000 42.24040000
81.54300000 84.12310000 -28.79490000
82.65400000 84.07680000 -25.36500000
81.61950000 91.30320000 -26.34850000
83.52940000 65.85700000 -18.69920000
82.69540000 65.91850000 -22.20520000
82.42710000 64.12540000 -21.84160000
31.69780000 96.61420000 79.87850000
35.00130000 96.59650000 78.41940000
34.40750000 91.24680000 79.55870000
38.54800000 122.61400000 68.74990000
35.65100000 122.61800000 70.36370000
35.11110000 129.28600000 67.65440000
-34.04500000 94.92170000 84.25800000
-34.16940000 89.57120000 84.83170000
-30.73250000 87.94500000 86.29870000
-36.60830000 71.76520000 83.55380000
-40.40030000 76.90930000 82.30130000
-39.64480000 68.28540000 81.57490000
61.42250000 58.04620000 -57.35770000
59.02890000 58.12200000 -59.92160000
58.39120000 54.76200000 -58.84600000
59.75390000 70.35810000 -62.85410000
62.26470000 70.29750000 -60.28810000
61.78930000 77.46890000 -61.34100000
43.02870000 42.64320000 63.38990000
40.38060000 42.67470000 65.20430000
43.17680000 48.84390000 67.86120000
31.38480000 48.97610000 74.40680000
34.43050000 48.94090000 72.95470000
33.23860000 45.79530000 71.55190000
18.89040000 206.21500000 -24.87870000
14.77810000 209.35200000 -25.86410000
17.05690000 201.56100000 -29.35770000
9.88280000 198.47200000 -34.73330000
12.70350000 198.48200000 -33.65600000
11.28470000 204.64400000 -30.48030000
-14.80130000 276.46600000 29.37460000
-13.92550000 277.36700000 30.92070000
-18.19390000 278.08500000 30.06780000
63.72330000 138.95800000 40.72430000
61.07790000 145.20700000 38.94440000
59.42030000 145.22800000 41.47060000
72.21580000 129.49700000 34.38510000
69.57730000 135.77400000 33.05700000
68.17110000 135.79300000 35.96040000
9.39440000 11.79470000 -45.27630000
17.15740000 11.75520000 -43.00610000
13.14260000 12.10410000 -43.72290000
1.47600000 8.96810000 -48.68480000
-0.58020000 4.84840000 -51.11190000
6.06170000 5.12520000 -50.61710000
-23.68970000 209.85200000 25.80530000
-22.14990000 203.72600000 31.32380000
-18.91030000 214.56000000 26.21130000
-26.17900000 217.64600000 17.11530000
-25.05180000 222.49300000 14.86140000
-26.85170000 220.82900000 13.19710000
-39.45600000 50.87130000 -73.93380000
-35.71790000 47.68880000 -74.10990000
-35.03590000 44.59570000 -72.57470000
-61.45140000 50.52140000 -57.09200000
-59.03400000 50.58520000 -59.59280000
-56.81300000 44.32890000 -57.30890000
-56.15520000 123.89500000 60.85070000
-57.15680000 128.85700000 56.97710000
-58.99690000 122.19200000 59.01620000
-42.53560000 125.80600000 70.26200000
-43.89920000 119.05900000 72.51710000
75.19340000 65.53520000 41.09680000
76.83990000 65.51580000 37.84730000
76.36710000 63.72600000 37.99130000
80.12950000 76.39600000 33.04480000
78.68190000 76.40390000 36.42360000
79.10590000 83.69540000 35.09250000
-71.18510000 39.22000000 28.33450000
-72.35510000 39.26920000 25.38590000
-75.70660000 44.86110000 27.72500000
-58.37700000 29.31320000 33.68090000
-59.84300000 29.38980000 31.25050000
-63.48970000 33.93420000 33.96730000
-55.62020000 21.46240000 -13.63650000
-56.82370000 21.39390000 -4.71590000
-55.54420000 21.09220000 -4.76590000
34.07060000 27.61500000 53.26560000
31.88530000 27.63120000 54.69170000
34.53820000 31.94390000 58.30810000
47.62840000 22.15450000 29.00360000
51.83160000 22.15400000 20.21010000
47.71270000 21.68230000 26.38840000
22.92800000 13.35840000 -25.15700000
23.02690000 13.55310000 -15.74130000
4.30330000 13.53410000 -26.32070000
0.73430000 13.58000000 13.66190000
4.54150000 13.70090000 22.30640000
-3.15210000 13.70010000 27.51160000
57.87980000 24.48650000 11.08250000
58.94900000 24.60550000 3.14080000
56.61940000 22.98190000 5.68690000
61.22780000 28.52460000 -16.70090000
61.83320000 28.45530000 -13.88490000
66.17340000 32.83400000 -14.88900000
-1.71600000 129.35500000 76.98700000
1.47610000 129.34500000 76.92620000
0.75730000 122.70300000 79.58850000
-6.92700000 115.96300000 81.77580000
-3.53700000 115.95100000 81.92650000
-4.68420000 109.07500000 83.88190000
-7.38510000 242.71600000 -18.85380000
-7.53320000 239.22700000 -19.29000000
-5.92430000 239.23300000 -19.70400000
1.58960000 258.54400000 -20.19100000
1.45540000 253.32900000 -19.42730000
9.98040000 274.00400000 -29.63360000
7.50770000 273.99100000 -30.50110000
8.35260000 276.59300000 -33.23760000
17.64960000 270.51000000 -21.16770000
19.85750000 271.58000000 -19.99070000
19.26130000 270.52000000 -19.49480000
-69.76880000 39.64620000 -32.42490000
-68.40280000 39.65140000 -35.16210000
-72.28560000 45.26240000 -36.13160000
-62.84620000 34.55440000 -36.33570000
-64.25270000 34.55440000 -33.85440000
-60.10510000 30.06110000 -32.34170000
-67.02200000 36.01600000 36.42490000
-68.87240000 38.72440000 37.37970000
-69.40010000 37.31490000 34.01290000
-63.16050000 30.08030000 31.03580000
-47.08720000 73.26950000 -75.53260000
-43.61750000 71.51000000 -77.36750000
-44.83050000 78.54750000 -76.99940000
-26.99010000 71.44620000 -84.28010000
-22.90090000 67.93280000 -84.98690000
-24.11350000 74.93980000 -85.31340000
-1.44930000 244.89900000 22.15790000
-4.26860000 244.90000000 21.96330000
-3.36630000 239.61100000 22.75250000
-0.33450000 229.28700000 25.28910000
-2.47720000 229.27800000 25.26470000
-4.90560000 222.63500000 27.44680000
47.35650000 142.23900000 51.23580000
48.92460000 143.82000000 48.50510000
50.90550000 137.43000000 51.09570000
36.90890000 160.84400000 46.37420000
34.94900000 160.84400000 47.93560000
32.80730000 166.87400000 44.82770000
-58.11310000 167.03000000 1.78820000
-57.99530000 167.02100000 4.13060000
-61.75050000 161.03400000 4.17740000
-34.53160000 204.61400000 4.40680000
-31.30050000 210.91300000 3.97820000
-30.87370000 210.90800000 6.41280000
-5.19720000 232.30700000 -24.91340000
-8.57900000 227.16500000 -25.61850000
-9.31550000 230.55900000 -24.32880000
-3.19960000 228.90000000 -26.10560000
-3.29320000 223.85200000 -27.79720000
-5.47110000 225.50800000 -26.91550000
57.52500000 -0.44770000 -4.73860000
51.93700000 0.64950000 -15.59280000
52.34210000 -0.11390000 -18.19590000
31.51430000 17.42260000 46.96700000
27.60630000 17.22030000 49.40530000
31.44440000 16.64710000 46.90210000
6.32870000 54.26890000 83.50420000
9.77470000 54.21450000 83.07830000
9.42990000 52.56420000 82.41840000
29.55750000 37.06930000 66.32390000
26.81810000 37.09980000 67.57410000
29.11800000 42.79730000 71.31670000
72.06260000 59.36510000 -43.63560000
73.38960000 57.55660000 -40.09520000
74.10510000 61.02740000 -40.98640000
72.08770000 49.12330000 -34.62030000
70.63120000 49.22400000 -37.68770000
67.48060000 43.01420000 -35.66730000
-52.42410000 90.87690000 -71.17260000
-55.55480000 94.38020000 -68.23230000
-55.19770000 89.12230000 -69.36590000
-44.14730000 116.73000000 -69.78890000
-47.01220000 116.72900000 -67.96290000
-47.23000000 109.94800000 -70.22500000
-33.07000000 278.41400000 -0.69060000
-36.14320000 280.94700000 -0.65560000
-35.00140000 280.23700000 2.12630000
-39.65530000 283.30800000 4.15520000
-37.07450000 281.84900000 3.81570000
-38.78750000 282.63400000 -0.63960000
13.33140000 284.06900000 -38.44390000
10.25770000 284.20500000 -40.04320000
11.27640000 283.50600000 -37.82380000
20.06100000 278.84200000 -23.91150000
21.16680000 280.17400000 -25.04610000
19.04780000 280.10200000 -26.87160000
32.03100000 179.63100000 40.18290000
25.55710000 193.16800000 34.74030000
30.32700000 179.64600000 41.51860000
16.26650000 173.74600000 53.19000000
19.66430000 155.66900000 64.05040000
18.42370000 173.76200000 52.43310000
-38.68410000 27.76070000 -53.83930000
-36.41540000 27.75750000 -55.36250000
-33.14570000 22.36660000 -49.86540000
37.72150000 191.20200000 -22.77830000
41.83470000 185.08500000 -22.75120000
37.95780000 186.57300000 -27.37510000
35.74720000 203.66400000 -9.33090000
40.36590000 194.33800000 -12.18350000
34.06720000 205.23100000 -12.06000000
-81.80130000 92.58850000 -34.37870000
-83.17040000 92.58430000 -30.99520000
-83.36440000 85.56190000 -32.57590000
-79.99040000 97.83200000 -36.45280000
-78.39480000 97.83600000 -39.69890000
-77.92640000 103.04200000 -38.39750000
35.81220000 13.13230000 -13.77280000
20.57280000 12.08720000 -40.79130000
52.15590000 120.98400000 65.95510000
50.51820000 127.60400000 63.82210000
48.68880000 124.28100000 67.03000000
42.86110000 107.23600000 77.48380000
45.97590000 107.27500000 75.62290000
-13.93670000 11.56880000 45.57750000
-12.24160000 10.38020000 47.30700000
-16.03300000 10.53790000 45.98080000
1.48170000 12.38890000 46.65210000
3.22680000 12.86410000 45.00750000
11.05040000 12.60650000 44.71900000
17.67340000 30.99260000 -67.05440000
23.30580000 30.98490000 -65.30030000
19.43230000 27.87300000 -62.94670000
12.11480000 20.37930000 -56.02630000
7.29570000 20.36810000 -56.81890000
10.22510000 22.89450000 -59.23620000
67.90620000 83.78280000 53.98550000
70.09870000 83.76280000 51.03820000
69.39890000 76.49400000 52.27640000
67.93040000 101.74100000 49.86980000
65.79310000 101.75300000 52.72120000
65.22060000 108.80000000 50.80000000
-44.92470000 282.81900000 -4.12010000
-45.05120000 283.11300000 -5.94680000
-44.48370000 282.54800000 -5.87470000
-42.81230000 284.74900000 8.09760000
-44.30030000 284.69700000 6.56890000
-42.65420000 284.78200000 11.71870000
25.64700000 274.92300000 2.91490000
25.97770000 275.88400000 5.30220000
27.38220000 278.15500000 8.15780000
21.00450000 272.74000000 11.79110000
15.10930000 142.60600000 -68.71950000
12.26510000 142.61100000 -69.35000000
13.49730000 136.26600000 -72.31250000
-3.24880000 123.28900000 -79.39030000
0.02760000 123.27500000 -79.39320000
-0.86910000 129.85500000 -76.76880000
0.44290000 0.40130000 56.78100000
0.51930000 0.17780000 58.04500000
-6.55570000 0.12540000 57.56010000
16.06930000 1.00780000 53.25870000
16.32450000 0.56840000 53.98700000
9.61790000 0.51130000 55.77110000
75.65970000 122.70700000 -18.96670000
73.46460000 126.08000000 -22.13130000
76.09530000 119.34000000 -22.02910000
80.13690000 115.81600000 -5.38400000
79.84210000 115.83600000 -8.73310000
81.93090000 108.89500000 -7.93110000
-86.69350000 61.00920000 18.22070000
-85.21020000 55.90140000 17.75170000
-84.39650000 55.85720000 21.30580000
-85.39800000 69.51960000 29.75360000
-84.10300000 69.44950000 33.28380000
-84.53280000 72.97810000 33.46460000
27.86530000 23.89700000 -51.93010000
31.58130000 25.70020000 -52.31900000
27.21220000 25.80870000 -54.99720000
42.67060000 22.13670000 -35.46880000
36.64770000 21.72940000 -40.33980000
43.06940000 21.65600000 -32.81810000
2.60270000 148.51200000 67.42900000
-0.19760000 148.52100000 67.54390000
0.04000000 154.69400000 64.00760000
25.95500000 135.81900000 68.74400000
23.07590000 135.81800000 69.83320000
22.51730000 142.22300000 66.67480000
-21.31740000 241.21800000 11.14880000
-20.09390000 242.99200000 12.60730000
-21.36620000 246.47100000 10.01420000
-21.79760000 253.50500000 9.07960000
-22.54430000 253.47200000 7.36730000
-22.45010000 249.95100000 7.37830000
-53.97280000 -0.12230000 13.63440000
-52.68480000 0.33550000 15.52740000
-52.34980000 -0.28860000 20.02660000
-44.41740000 10.27160000 18.64200000
22.22220000 40.91130000 76.53330000
23.20750000 45.25530000 79.25540000
19.70220000 43.74490000 79.27990000
36.76270000 34.31150000 64.18400000
40.67640000 36.86670000 64.55060000
38.05510000 36.85220000 66.14610000
-2.57810000 112.15700000 -85.71670000
7.58270000 119.09500000 -83.06630000
7.05310000 127.42300000 -79.88120000
10.48630000 125.77700000 -80.13770000
-86.47440000 59.26230000 12.14060000
-86.42310000 57.62720000 8.19320000
-87.35540000 60.97200000 9.00230000
-89.03700000 74.82660000 12.17740000
-88.43750000 76.55930000 16.17000000
-88.24670000 69.54090000 14.63150000
31.36210000 204.64600000 2.32820000
31.43960000 204.64900000 -0.41130000
34.92020000 198.47600000 -0.40120000
34.76080000 198.47600000 -3.42040000
-37.38870000 0.36610000 46.06540000
-39.44730000 0.88360000 44.79160000
-42.84240000 0.64860000 41.31620000
-80.49870000 50.06270000 -24.34950000
-81.54960000 48.34560000 -17.48810000
-84.26620000 54.98350000 -18.05230000
-73.41230000 40.79010000 -28.89560000
-72.14070000 40.83590000 -31.89550000
-70.28390000 37.98180000 -31.00930000
-0.34880000 246.42100000 -23.21520000
-0.25750000 241.07900000 -23.65590000
-2.18670000 242.84600000 -23.44810000
-89.96750000 70.39330000 -7.32040000
-90.55500000 75.72900000 -7.15710000
-90.14720000 75.79400000 -10.89950000
-89.92170000 80.57850000 15.50090000
-90.40960000 84.28750000 11.77900000
-31.15090000 62.39450000 -82.02550000
-31.67170000 69.20570000 -83.45270000
-28.11390000 69.15340000 -84.66190000
-32.01660000 76.11800000 -84.25200000
-32.09770000 83.09130000 -84.41940000
-28.53100000 81.28610000 -85.66830000
55.59080000 2.11830000 21.65330000
54.61940000 1.17690000 23.92170000
55.53950000 1.21090000 21.63970000
0.92030000 152.37100000 69.21200000
1.10320000 144.55000000 73.55180000
4.05380000 144.59400000 73.39750000
-1.68890000 173.50900000 55.91440000
-42.83980000 283.70400000 -16.70430000
-43.96200000 283.73400000 -13.20550000
-43.39240000 284.01500000 -14.95660000
30.53970000 0.35400000 -49.63770000
26.11780000 0.31610000 -51.95440000
26.41210000 0.77820000 -52.53340000
55.16840000 146.80000000 45.74090000
58.26380000 138.97800000 48.43750000
60.18710000 138.97800000 45.94510000
36.68700000 167.80600000 46.17270000
33.08160000 172.26500000 45.42060000
12.69920000 94.82760000 90.16910000
16.55730000 91.33330000 89.94840000
16.13020000 100.06000000 88.76710000
10.03060000 78.94020000 91.21090000
13.71840000 78.97020000 90.71300000
13.21290000 86.04690000 90.87510000
0.07900000 186.38400000 -43.98520000
-1.73230000 186.39100000 -44.01660000
-1.01340000 167.04700000 -56.44790000
-14.86740000 167.10900000 -54.84890000
-17.12320000 167.11600000 -54.25170000
-17.89120000 161.13000000 -57.92800000
-24.68540000 284.29600000 -35.68580000
-29.01360000 283.74000000 -30.23550000
-16.61530000 273.22200000 -23.21510000
-17.09860000 274.28400000 -23.98600000
-20.90700000 276.08500000 -23.19680000
-55.73020000 14.44560000 -6.41310000
-55.04250000 20.90610000 -20.92730000
-56.61920000 20.88550000 -16.35250000
-57.42860000 22.36050000 -19.24980000
82.16360000 77.47790000 -36.88550000
83.75860000 82.92780000 -33.54460000
83.42140000 74.06560000 -33.31020000
77.77280000 95.16100000 -43.61640000
78.39150000 89.82130000 -43.68130000
76.29090000 91.60300000 -46.88380000
58.34060000 48.70980000 60.40560000
59.38080000 51.96510000 61.42560000
56.91340000 51.94010000 63.77190000
65.30640000 72.64630000 63.12180000
67.63590000 70.97510000 60.19590000
68.00610000 76.26370000 60.77410000
-44.59030000 136.39500000 -60.07100000
-47.05090000 136.39200000 -58.23740000
-48.26150000 129.95500000 -60.96860000
-82.04300000 123.93300000 3.17720000
-80.15470000 128.80500000 -0.26380000
-83.90740000 119.01800000 -0.19370000
-84.50970000 113.98300000 14.23450000
-83.88730000 113.94900000 17.78210000
-81.66420000 120.62200000 17.16320000
13.03370000 223.94600000 -19.33070000
15.41330000 220.64000000 -18.99490000
14.49860000 227.29700000 -16.53320000
18.49780000 228.99300000 -10.16640000
19.26570000 228.99300000 -8.47060000
17.20890000 232.39900000 -10.51650000
-22.16350000 262.22000000 5.59390000
-23.47260000 267.13400000 6.86700000
-21.64870000 263.94700000 8.19300000
-18.58430000 242.89800000 10.09050000
-29.10070000 11.22050000 -36.79570000
-25.91040000 11.05060000 -39.29970000
-25.65290000 11.49390000 -38.81540000
-20.38890000 2.70330000 -48.40280000
-16.05970000 3.37780000 -49.49740000
-15.68690000 5.87980000 -47.95540000
-49.47540000 140.78000000 53.41270000
-50.98920000 142.37100000 50.89200000
-51.17100000 122.90300000 62.28950000
-48.56770000 122.88600000 64.28000000
-50.68730000 116.16700000 65.60030000
7.07450000 29.39820000 -65.50010000
10.88870000 33.96180000 -69.46500000
4.97390000 31.72040000 -68.12490000
29.61050000 33.57120000 -62.84270000
31.99820000 38.71330000 -66.63830000
29.24790000 38.76480000 -68.00610000
-4.39020000 276.63900000 -34.76100000
-3.04020000 277.75300000 -36.32370000
-0.03780000 278.07300000 -36.74570000
-5.87030000 84.34290000 87.94480000
-9.50210000 84.36930000 87.69510000
-8.04900000 91.50060000 87.10430000
0.00130000 77.12030000 88.23910000
-48.68250000 144.97000000 -53.44010000
-56.08710000 119.12000000 -62.11120000
-59.44100000 115.75700000 -60.52260000
-57.39470000 124.07100000 -58.44470000
44.57970000 12.03920000 11.35390000
45.33410000 11.67830000 11.53650000
42.76030000 11.91800000 18.69910000
46.55100000 11.58590000 3.99110000
47.34360000 11.10950000 2.09170000
46.80310000 11.14920000 7.90190000
-14.76140000 18.52740000 55.36940000
-16.92990000 17.73300000 54.39520000
-12.46060000 17.65000000 55.58020000
55.25880000 18.42950000 -11.62930000
56.40770000 18.63070000 -4.67460000
55.83210000 17.52620000 -4.63490000
56.38310000 18.31610000 -0.00660000
-3.18290000 78.31470000 -88.25400000
-6.80720000 78.34310000 -88.11790000
-5.71420000 71.28880000 -87.89060000
-0.12980000 102.88500000 -85.39580000
3.38880000 102.86500000 -85.26360000
46.63290000 86.65100000 -73.39430000
48.14190000 93.72310000 -71.37360000
43.12570000 102.56200000 -72.79730000
39.24220000 106.07500000 -74.15180000
40.53710000 100.84000000 -74.73060000
65.55140000 32.93100000 -17.84980000
66.99860000 35.54640000 -21.51240000
62.62000000 30.71160000 -20.10680000
54.54240000 33.88490000 -42.49300000
49.63470000 28.19740000 -39.48720000
51.21800000 28.11130000 -37.17350000
17.03430000 256.95800000 -7.59550000
16.33840000 256.95600000 -9.09590000
15.11070000 253.45200000 -10.28030000
19.12180000 266.93600000 -10.52260000
19.88060000 266.94800000 -8.78480000
21.87390000 269.94200000 -7.42190000
-51.69030000 18.92890000 25.27310000
-51.85230000 17.37110000 22.74980000
-49.04990000 18.11750000 29.15280000
75.65880000 99.59580000 48.46590000
76.39040000 94.35780000 48.87040000
78.30410000 94.43800000 45.66360000
72.05170000 121.46100000 42.08420000
74.51760000 113.23800000 43.55930000
75.25720000 116.58600000 39.87300000
38.63080000 0.14670000 -40.07370000
44.32270000 -0.20430000 -35.52520000
42.03090000 0.01840000 -36.72530000
37.27490000 1.73560000 -46.02940000
39.21780000 1.79710000 -44.37850000
37.11880000 0.98220000 -45.83600000
-30.21970000 282.64900000 -34.24210000
-30.48160000 283.23400000 -34.54050000
-27.56910000 283.16800000 -36.79630000
-18.90790000 281.77400000 -39.84450000
-19.15290000 280.17600000 -36.38290000
-21.95550000 281.60700000 -38.05770000
37.88960000 285.00900000 -15.55320000
40.17160000 285.10400000 -8.99810000
42.19220000 284.33200000 1.43250000
42.22340000 284.29100000 -2.14130000
42.12410000 284.58200000 -2.13750000
79.35680000 111.42600000 -32.96770000
81.46590000 102.59200000 -33.38510000
78.76750000 107.75000000 -36.54520000
71.99560000 128.16800000 -34.16960000
74.62910000 121.56600000 -35.18910000
71.82120000 124.77400000 -37.80880000
33.42320000 279.93700000 13.02690000
33.57930000 280.97500000 16.63150000
31.76730000 279.74500000 15.71870000
38.92490000 284.78600000 15.30000000
37.17170000 285.02000000 18.46060000
37.53500000 284.57700000 18.64520000
-24.33740000 242.78100000 -1.69740000
-23.93860000 248.05700000 -2.66800000
-23.77530000 246.28100000 -4.51540000
-24.97300000 278.91900000 27.03640000
-26.49630000 280.36700000 28.86500000
-30.51610000 280.79300000 26.17330000
-38.62630000 282.96500000 21.73340000
-36.98470000 283.53500000 24.96500000
-39.00830000 283.53700000 21.97490000
42.07580000 76.77060000 76.62550000
45.23830000 76.74290000 74.72940000
43.77900000 69.52790000 75.08860000
50.12370000 91.14440000 70.35870000
47.13920000 91.16490000 72.45820000
47.53110000 96.52560000 71.23930000
-19.28860000 111.27000000 85.28960000
-18.77100000 118.03500000 83.15790000
-22.11060000 117.93000000 82.36760000
-22.82650000 139.33000000 72.73480000
-25.49510000 140.87200000 70.98890000
-26.66080000 132.75100000 74.66170000
-18.71940000 223.95900000 17.30970000
-18.45790000 218.98600000 20.15950000
-20.54760000 217.34700000 19.20240000
-11.82870000 232.47300000 19.07060000
-11.45620000 235.95400000 18.33330000
-9.90520000 235.95800000 19.07660000
-39.81890000 12.98270000 -1.90290000
-40.54750000 12.90130000 7.03650000
-42.01990000 12.77730000 -2.10810000
-46.54770000 10.87280000 9.82500000
-46.59620000 11.34780000 6.23330000
-45.58950000 11.39730000 11.42350000
68.46190000 132.93200000 -36.32650000
68.89310000 127.96900000 -40.22390000
59.14530000 159.55100000 -22.67650000
63.28130000 151.94200000 -24.17780000
58.97860000 158.02500000 -25.51810000
-56.79860000 21.95750000 -13.78570000
-61.33980000 30.05240000 -29.98150000
23.11490000 273.05300000 15.51630000
21.13120000 270.95900000 15.60580000
23.70670000 272.05700000 13.04740000
28.82690000 278.64700000 17.56480000
26.64120000 279.00800000 21.50040000
25.60350000 277.10300000 18.86650000
64.60440000 42.21620000 39.69630000
66.19440000 42.18160000 36.85850000
61.90950000 36.50100000 35.46690000
71.36340000 42.08750000 24.88620000
51.53850000 2.54360000 -10.80100000
53.36060000 0.79210000 -8.88930000
52.37840000 2.79740000 -4.26750000
44.07580000 4.36170000 -26.69900000
46.28710000 4.14050000 -22.91560000
43.32160000 8.19840000 -23.65970000
-23.57860000 110.55200000 -82.92360000
-23.96900000 103.73100000 -84.50820000
-27.21020000 107.22700000 -82.69810000
-17.38820000 91.48120000 -88.00170000
-17.17980000 96.67510000 -87.38740000
-13.58670000 94.87160000 -88.24350000
-17.41620000 187.61800000 -43.29470000
-21.69660000 184.53000000 -43.40760000
-21.10350000 193.73100000 -37.85540000
-24.94780000 151.26200000 -64.04040000
-22.03530000 152.81700000 -64.16500000
-23.35360000 144.99000000 -68.22080000
-1.78830000 1.18320000 60.12600000
-4.23400000 0.58270000 59.41390000
-18.58570000 1.02930000 57.01560000
-22.88200000 0.25360000 54.47380000
-18.37240000 0.26940000 56.14160000
-0.76980000 60.88300000 -86.13390000
-4.28200000 60.91920000 -86.10970000
-3.89510000 57.57070000 -85.10670000
-2.10980000 71.25720000 -87.97900000
-37.52980000 156.26100000 55.53220000
-34.01030000 167.01900000 50.06410000
-39.25350000 157.76400000 53.24850000
-31.04700000 192.77000000 32.02030000
-34.20850000 191.16700000 30.06320000
-36.08220000 183.51500000 34.71140000
76.66280000 39.80510000 -12.94030000
77.20990000 39.88780000 -9.75960000
72.85790000 34.40020000 -9.13690000
76.64910000 45.52910000 -26.67700000
79.96630000 50.36640000 -24.23260000
76.94630000 44.03950000 -23.21440000
-63.64410000 67.17500000 61.74900000
-61.04440000 67.13120000 64.24190000
-61.09170000 63.65240000 63.29950000
-50.13160000 84.72390000 73.48730000
-47.07560000 84.69040000 75.41700000
-48.39970000 77.57940000 74.89360000
-9.29980000 45.14650000 -78.89070000
-5.96640000 42.25220000 -77.22670000
-6.36350000 48.07740000 -80.83610000
3.25050000 42.09410000 -77.06930000
6.43290000 43.45250000 -77.73150000
-12.59100000 106.44000000 87.85710000
-12.36160000 111.53400000 86.47290000
-15.93310000 109.70500000 86.42940000
-5.64550000 99.82400000 90.03290000
-5.67180000 92.82790000 91.09670000
-2.03380000 96.43390000 90.76850000
59.77530000 25.38860000 23.11360000
61.54620000 27.97300000 26.71890000
54.36770000 21.37960000 23.60970000
-82.71990000 107.23300000 -28.57930000
-26.91810000 274.89700000 10.45130000
-25.86910000 274.92700000 12.48850000
-26.64720000 273.84900000 9.10680000
-22.60510000 262.18000000 3.91010000
-24.06070000 267.10200000 5.05800000
-29.26310000 204.58800000 18.39970000
-27.65000000 204.58800000 20.61380000
-31.33290000 198.40000000 21.54180000
-28.22750000 190.75600000 31.60560000
-30.05010000 192.28300000 28.66370000
-27.39080000 198.38500000 26.13190000
28.65220000 274.51600000 -8.04590000
31.10670000 276.89600000 -8.62280000
27.64580000 272.84400000 -5.33460000
28.37220000 278.75100000 -21.33430000
26.53660000 278.66500000 -23.72500000
29.70220000 279.79000000 -22.27030000
25.35570000 37.06290000 -70.61330000
28.75680000 38.38290000 -70.42690000
28.32740000 37.03760000 -69.45720000
11.60080000 52.04200000 -83.10590000
7.87480000 48.87830000 -82.13500000
8.28740000 55.29820000 -84.78870000
-62.71630000 112.36300000 -58.67320000
-65.53060000 110.64600000 -56.30980000
-63.49370000 119.06900000 -54.70020000
-67.92870000 96.91190000 -58.02440000
-65.38880000 96.94210000 -60.80110000
-65.93070000 91.72680000 -61.21700000
44.21360000 50.26990000 -68.06680000
41.38520000 50.33390000 -69.92800000
39.64070000 44.23780000 -66.91910000
42.40400000 38.47120000 -60.01580000
39.41060000 33.34520000 -56.64910000
41.69260000 33.26930000 -54.82860000
58.82090000 1.51730000 -7.36630000
57.94600000 1.37800000 -12.25680000
57.82820000 2.29480000 -12.23860000
52.91010000 1.36710000 -26.43850000
51.73070000 1.35970000 -28.66290000
51.52750000 3.08550000 -28.54680000
55.04360000 15.25650000 -9.23180000
54.09600000 14.89760000 -13.80120000
54.07310000 16.36910000 -13.77970000
49.45220000 18.71880000 -27.14660000
51.72320000 18.83480000 -22.92980000
51.92890000 16.81540000 -20.47370000
-3.46020000 283.84200000 -44.92460000
0.23990000 283.88000000 -44.86860000
-1.60810000 283.55300000 -44.98970000
12.34650000 284.56800000 -40.71470000
5.46800000 284.50600000 -42.63030000
6.92490000 284.18400000 -40.96890000
-71.99950000 80.06680000 56.54390000
-71.67950000 74.73560000 56.38570000
-69.44960000 76.57490000 59.39660000
-62.72130000 62.77420000 63.55170000
-63.72120000 69.70400000 64.46260000
-66.05670000 67.86940000 61.57300000
-0.05380000 284.73200000 42.63550000
3.48460000 284.54700000 42.54320000
3.42480000 284.98300000 42.10480000
15.37500000 283.80200000 39.20190000
17.09020000 284.40700000 38.65420000
12.11000000 284.08800000 40.62250000
-86.87490000 59.39460000 -9.24770000
-85.84600000 57.74180000 -13.06240000
-86.94270000 61.08920000 -12.51260000
-80.76390000 45.14840000 -4.76310000
-80.88340000 45.13390000 -1.46290000
-76.90880000 39.48620000 -2.49380000
47.34490000 93.54520000 -75.61410000
47.83700000 86.49960000 -76.01590000
44.60850000 86.45330000 -77.93950000
53.36410000 67.14870000 -70.42830000
50.71730000 70.63710000 -73.12670000
50.97470000 74.16010000 -73.52580000
35.04220000 192.73700000 -25.42920000
30.93120000 203.66400000 -20.77990000
23.06050000 232.64300000 -6.43090000
22.47710000 232.63500000 -8.41660000
16.31550000 70.43690000 -87.56700000
12.63840000 72.15970000 -88.44020000
34.20520000 68.77380000 -81.86170000
30.58690000 67.03590000 -82.93570000
