-9.38460000 1.43880000 3.84400000
-5.87270000 1.44890000 3.99460000
-5.78440000 1.44120000 4.04860000
-5.89250000 1.47060000 4.08220000
-5.50290000 1.46580000 4.26990000
-5.68970000 1.45740000 3.82770000
-9.00520000 1.40420000 3.93960000
-6.00490000 1.43990000 3.64290000
-5.92000000 1.44490000 4.40770000
-5.69490000 1.46400000 4.71820000
-5.65940000 1.46550000 4.54540000
-5.58380000 1.50450000 4.54650000
-5.61650000 1.47890000 4.77830000
-5.56300000 1.51740000 4.85700000
-5.85430000 1.45290000 3.89310000
-5.97420000 1.44540000 4.02200000
-5.86700000 1.46170000 3.80790000
-6.02810000 1.45800000 3.89150000
-5.54790000 1.54560000 5.10460000
-5.68680000 1.52070000 5.06490000
-5.62940000 1.54110000 5.19790000
-6.10910000 1.40950000 3.57960000
-6.11290000 1.44290000 3.72020000
-5.82440000 1.49480000 4.95950000
-5.86370000 1.45720000 4.74760000
-5.95100000 1.46260000 4.92850000
-5.86220000 1.48350000 5.00500000
-5.87650000 1.47080000 5.12800000
-5.62600000 1.49380000 4.95570000
-5.70740000 1.47390000 4.88290000
-5.77370000 1.47940000 4.82350000
-9.08960000 1.39930000 3.95380000
-9.08540000 1.46260000 4.06060000
-9.14660000 1.43800000 4.07340000
-5.71530000 1.49020000 4.99710000
-5.78210000 1.51690000 5.10450000
-5.54540000 1.53780000 4.96710000
-9.31630000 1.38960000 3.56120000
-9.40400000 1.41550000 3.49570000
-9.34140000 1.40460000 3.63580000
-9.38670000 1.43360000 3.63310000
-5.35700000 1.49970000 5.68130000
-5.54380000 1.46160000 5.66800000
-5.60490000 1.46680000 5.78510000
-5.47270000 1.51760000 5.78750000
-5.84590000 1.47010000 5.90220000
-5.75110000 1.47610000 5.94730000
-5.74280000 1.44150000 5.77350000
-5.84720000 1.47230000 6.01570000
-5.94250000 1.45370000 6.13130000
-5.80000000 1.47800000 6.07200000
-9.48310000 1.44030000 3.37280000
-9.51390000 1.45670000 3.56030000
-9.60610000 1.44860000 3.16350000
-5.66100000 1.51280000 5.94750000
-5.51070000 1.55400000 5.96730000
-6.35300000 1.40050000 3.15680000
-6.02940000 1.39240000 3.11720000
-9.68770000 1.45840000 3.31700000
-5.76180000 1.50590000 6.09160000
-5.74170000 1.53580000 6.18160000
-6.86000000 1.39040000 3.01890000
-9.39260000 1.42790000 3.93030000
-7.11400000 1.35280000 2.22570000
-6.21660000 1.45050000 5.20380000
-6.33180000 1.44400000 5.28210000
-5.80270000 1.43720000 5.56880000
-6.00580000 1.42120000 5.67020000
-6.16910000 1.42450000 5.64410000
-6.06840000 1.42230000 5.70980000
-6.30840000 1.45990000 5.85390000
-6.26450000 1.45450000 5.71280000
-6.35550000 1.43690000 5.82070000
-6.17690000 1.45500000 5.72770000
-6.05990000 1.46580000 5.76310000
-6.21660000 1.42460000 3.50820000
-6.09650000 1.50100000 5.78050000
-6.20520000 1.50120000 5.77740000
-6.24810000 1.51270000 5.84000000
-6.44040000 1.41710000 3.53870000
-6.18260000 1.41970000 3.62550000
-6.31610000 1.45160000 5.34600000
-6.17190000 1.42860000 5.48420000
-6.28760000 1.46190000 5.42580000
-6.20980000 1.43540000 5.55200000
-6.38920000 1.41690000 3.76650000
-6.27790000 1.47480000 5.48990000
-6.27870000 1.46850000 5.58670000
-6.41170000 1.50050000 5.33040000
-6.48600000 1.48270000 5.22860000
-6.38560000 1.49980000 5.40960000
-6.58440000 1.51040000 5.45190000
-6.50730000 1.46870000 5.70390000
-5.77860000 1.45370000 5.37250000
-5.74010000 1.50330000 5.24650000
-5.70770000 1.46030000 5.42100000
-5.66030000 1.47540000 5.47540000
-5.61320000 1.52190000 5.34860000
-5.52580000 1.47350000 5.58710000
-6.02070000 1.41020000 3.23290000
-5.41580000 1.49750000 5.53530000
-7.65570000 -0.33010000 1.36070000
-7.09250000 -0.27880000 2.90120000
-7.92820000 -0.35190000 2.79930000
-5.81120000 1.40400000 3.18980000
-5.86750000 1.43840000 5.72640000
-5.90180000 1.44870000 5.79920000
-8.00680000 -0.36420000 3.23160000
-8.27040000 -0.40200000 3.74040000
-5.97490000 1.49420000 5.82700000
-5.08330000 1.48010000 5.30810000
-5.26360000 1.47220000 5.41610000
-5.15910000 1.47080000 5.51010000
-4.93220000 1.48790000 5.50930000
-4.76180000 1.49980000 5.13480000
-4.93860000 1.51550000 5.55940000
-5.00860000 1.45260000 3.52300000
-4.23240000 1.52510000 4.95040000
-4.60960000 1.51420000 4.90590000
-4.57890000 1.55120000 5.71520000
-4.94060000 1.54140000 5.61880000
-2.99090000 -0.13650000 3.59300000
-5.13150000 1.49420000 4.72920000
-5.29900000 1.49090000 4.82470000
-5.09770000 1.49800000 4.60590000
-8.08820000 0.68270000 5.95220000
-5.36040000 1.48720000 4.44950000
-5.25070000 1.51180000 4.53650000
-5.32730000 1.49700000 4.68220000
-5.42880000 1.51570000 4.47280000
-5.35660000 1.52250000 4.58000000
-7.93490000 0.64350000 6.02740000
-5.52170000 1.49670000 4.34520000
-8.09210000 0.78720000 6.03290000
-5.43910000 1.53520000 4.58390000
-5.51160000 1.53220000 4.66780000
-5.45860000 1.53620000 4.86460000
-5.37950000 1.51390000 4.79800000
-7.95200000 0.83490000 6.15990000
-5.59800000 1.51110000 4.42360000
-8.48890000 -0.40690000 1.50430000
-9.22730000 -0.47560000 1.51580000
-9.30850000 -0.49210000 0.13300000
-1.89170000 -0.16830000 3.76240000
-5.39090000 1.49850000 5.00320000
-8.36270000 0.81330000 5.86100000
-5.33310000 1.47800000 5.21310000
-5.39960000 1.50040000 5.25070000
-5.48910000 1.53290000 5.25180000
-2.95220000 -0.13970000 4.01400000
-2.36650000 -0.13540000 4.45290000
-2.81820000 -0.15870000 4.40460000
-8.85050000 1.21270000 5.50620000
-2.26890000 -0.15830000 4.27120000
-1.94780000 -0.18250000 4.38640000
-1.99850000 -0.15010000 4.48320000
-8.25600000 1.52590000 5.55250000
-8.33090000 1.52520000 5.18560000
-8.44620000 1.52600000 5.44540000
-1.99300000 -0.12910000 4.61180000
-2.40210000 -0.13720000 4.26950000
-5.35630000 1.48730000 5.63690000
-5.26660000 1.48920000 5.57530000
-5.33600000 1.49650000 5.47150000
-8.87180000 -0.44140000 2.74450000
-5.10810000 1.50050000 5.57450000
-8.56500000 -0.41950000 3.67370000
-8.66640000 1.51450000 5.20110000
-8.89900000 1.47200000 5.01180000
-8.71060000 1.44890000 5.41390000
-5.13260000 1.52890000 5.61690000
-5.19260000 1.54610000 5.69560000
-5.13160000 1.57300000 5.83450000
-2.69790000 -0.14950000 3.92920000
-9.02450000 -0.43740000 2.72840000
-8.70990000 1.51920000 5.02270000
-8.03600000 0.99790000 6.19390000
-8.20850000 0.95540000 6.05170000
-9.27740000 -0.44590000 2.11410000
-9.27710000 -0.46800000 1.78840000
-9.22260000 -0.41190000 2.51920000
-8.39300000 1.01950000 5.95500000
-9.42730000 -0.45720000 1.44420000
-9.40440000 -0.36670000 2.26390000
-9.45930000 -0.39740000 1.91950000
-9.59240000 -0.25040000 2.21350000
-8.42690000 1.18250000 5.99270000
-6.29550000 -0.22330000 2.85900000
-7.92410000 0.96280000 6.23320000
-7.89090000 1.09200000 6.32790000
-8.17480000 1.12430000 6.16190000
-8.19150000 1.19790000 6.17640000
-7.83030000 1.21380000 6.43060000
-7.83080000 1.27440000 6.39400000
-7.97470000 1.26710000 6.30710000
-7.99370000 1.32510000 6.25750000
-8.11380000 1.25640000 6.22260000
-5.02260000 0.75870000 7.63970000
-8.28430000 1.25210000 6.11530000
-8.23040000 1.32160000 6.12390000
-8.40260000 1.33290000 5.99510000
-8.50350000 1.28110000 5.92140000
-8.38370000 1.38190000 5.95710000
-8.23980000 1.37010000 6.07430000
-8.16930000 1.44080000 5.95500000
-8.01490000 1.36350000 6.20370000
-7.94280000 1.41160000 6.14100000
-9.06010000 -0.40970000 2.89040000
-8.71430000 1.10120000 5.67470000
-8.60310000 1.20790000 5.81700000
-5.28850000 0.82510000 7.66360000
-8.65310000 1.29560000 5.75050000
-5.23880000 0.96030000 7.71880000
-5.69790000 -0.17550000 6.88570000
-6.07400000 -0.16060000 6.75310000
-5.76480000 -0.22040000 6.78750000
-8.94410000 1.28960000 5.35760000
-4.58070000 0.84890000 7.64780000
-8.72590000 1.34990000 5.62590000
-6.39850000 -0.23300000 6.47540000
-8.91960000 1.36270000 5.35050000
-8.89790000 1.41640000 5.28970000
-8.79350000 1.39160000 5.48960000
-6.01600000 -0.25350000 6.59660000
-8.39670000 1.45450000 5.74420000
-8.55080000 1.39740000 5.76360000
-8.55080000 1.35600000 5.83580000
-4.97230000 1.01070000 7.73130000
-4.87060000 1.17100000 7.76410000
-4.75460000 1.20400000 7.74770000
-8.31740000 1.51840000 5.62940000
-8.20470000 1.52400000 5.71220000
-4.89860000 -0.29420000 6.73440000
-5.19940000 1.25160000 7.77790000
-5.68340000 0.81210000 7.56280000
-5.63350000 0.86480000 7.60600000
-5.52960000 0.90610000 7.67050000
-5.42340000 1.42990000 7.09800000
-5.28870000 1.43110000 7.10810000
-5.31270000 1.45780000 7.02690000
-5.41310000 1.43400000 7.18130000
-5.35540000 1.44840000 7.20850000
-5.51050000 1.43750000 7.04060000
-5.55470000 1.47810000 6.94080000
-5.62740000 1.47260000 6.97200000
-5.42340000 1.48270000 6.97870000
-5.48040000 1.52770000 6.90970000
-5.54480000 1.43540000 7.16990000
-5.51590000 1.46700000 7.32410000
-5.58790000 1.45220000 7.25520000
-5.25560000 1.47830000 7.20420000
-5.36700000 1.52830000 7.33190000
-5.45650000 1.49290000 7.34820000
-5.61520000 1.44790000 7.11250000
-5.66370000 1.48090000 7.10590000
-5.67600000 1.49680000 7.21020000
-5.46200000 1.06260000 7.73260000
-7.62380000 1.45090000 5.27820000
-7.72990000 1.46010000 5.21720000
-7.68070000 1.49350000 5.30950000
-7.45760000 1.47100000 5.37400000
-7.53160000 1.46530000 5.24410000
-7.47400000 1.46950000 5.46110000
-5.03650000 1.35580000 7.79550000
-5.22370000 1.38440000 7.78470000
-5.73380000 1.03000000 7.64180000
-7.51820000 1.49680000 5.48180000
-7.77880000 1.52900000 5.31370000
-7.88300000 1.52490000 5.48050000
-7.54510000 1.51830000 5.51890000
-5.85550000 1.02800000 7.61130000
-7.53870000 1.50900000 5.70920000
-7.76740000 1.49330000 5.88130000
-7.49470000 1.47710000 5.99990000
-5.64220000 1.04330000 7.69430000
-5.62740000 1.14430000 7.71960000
-8.04030000 1.51490000 5.76780000
-5.85940000 1.16120000 7.66940000
-5.72260000 1.26020000 7.70550000
-5.85550000 1.32610000 7.68770000
-6.02710000 1.11610000 7.62170000
-6.04450000 1.23130000 7.65490000
-6.20200000 1.23830000 7.61110000
-6.08370000 1.34570000 7.65520000
-7.24830000 1.45710000 5.66840000
-7.22960000 1.44610000 5.62210000
-5.98600000 1.41770000 7.63560000
-5.91780000 1.39710000 7.67080000
-5.91190000 1.44760000 7.61290000
-7.11210000 1.49160000 5.49860000
-7.17410000 1.47100000 5.47360000
-6.10570000 1.39690000 7.64100000
-6.08690000 1.45250000 7.60430000
-5.94460000 1.45670000 7.58030000
-5.97910000 1.48560000 7.53620000
-5.54980000 1.25340000 7.75990000
-5.39450000 1.37380000 7.77410000
-5.69690000 1.38810000 7.72240000
-5.51070000 1.38840000 7.75380000
-5.62330000 1.43790000 7.70050000
-5.28300000 1.48810000 7.75730000
-5.40290000 1.50890000 7.73410000
-5.51410000 1.45730000 7.70430000
-5.58120000 1.52520000 7.65250000
-5.45380000 1.58290000 7.60230000
-5.50410000 1.55260000 7.64300000
-5.45360000 1.54050000 7.69330000
-5.77410000 1.56750000 7.51760000
-5.83120000 1.52460000 7.55530000
-5.82170000 1.49980000 7.63610000
-5.84380000 1.51740000 7.48380000
-7.39840000 1.48240000 5.21090000
-5.62200000 1.48510000 7.30960000
-5.58890000 1.54400000 7.42990000
-5.65570000 1.54760000 7.38960000
-5.39290000 1.56220000 7.43910000
-5.50700000 1.54060000 7.43010000
-5.42730000 1.58300000 7.51090000
-5.69490000 1.54280000 7.29060000
-5.61750000 1.58050000 7.50950000
-5.61260000 1.57330000 7.58680000
-5.72110000 1.57990000 7.47630000
-5.69210000 1.56880000 7.59890000
-5.73860000 1.50890000 7.64850000
-5.82240000 1.44770000 7.68810000
-7.28490000 1.48560000 5.86810000
-4.23780000 0.83290000 7.57450000
-4.43340000 0.95600000 7.64020000
-4.19370000 0.96960000 7.55760000
-7.31080000 1.50740000 6.03240000
-7.50770000 1.48420000 6.08900000
-4.31950000 1.08660000 7.62320000
-7.44530000 1.53190000 6.13270000
-7.26390000 1.53100000 6.06930000
-4.07510000 0.98990000 7.52540000
-4.17970000 1.15480000 7.60180000
-4.20950000 1.09460000 7.58240000
-5.03860000 -0.28370000 6.82760000
-4.92470000 -0.26610000 6.89730000
-5.30410000 -0.26180000 6.84120000
-5.27450000 -0.22810000 6.91970000
-4.29310000 1.34470000 7.66350000
-5.75900000 -0.28520000 6.54640000
-4.58540000 1.17010000 7.70900000
-5.79030000 -0.30090000 6.25380000
-4.44940000 1.23690000 7.67400000
-5.30480000 -0.16850000 6.99510000
-5.01810000 -0.17040000 7.03080000
-7.84930000 1.46200000 5.06960000
-7.89040000 1.44740000 4.95720000
-7.93250000 1.50040000 4.99980000
-7.99480000 1.46080000 4.83990000
-8.04520000 1.52650000 4.97030000
-7.90940000 1.52960000 5.13370000
-7.72610000 1.44100000 5.16090000
-5.18850000 -0.05270000 7.12010000
-5.33620000 0.04470000 7.16630000
-4.65390000 1.36890000 7.75700000
-4.83900000 1.39310000 7.79640000
-4.71340000 1.44370000 7.78930000
-4.59960000 -0.25890000 6.90040000
-4.54030000 1.44260000 7.75010000
-4.62590000 1.50700000 7.77070000
-4.73760000 1.51920000 7.76450000
-4.89820000 1.58480000 7.59790000
-4.68050000 1.60580000 7.59540000
-4.75830000 1.57910000 7.52650000
-4.81910000 1.59820000 7.67260000
-4.02420000 1.12690000 7.58470000
-7.79640000 1.51270000 5.20520000
-4.01830000 1.28290000 7.61070000
-4.10230000 1.20100000 7.60890000
-4.15740000 1.39200000 7.63650000
-8.09270000 1.49620000 4.74370000
-3.98860000 1.38340000 7.62960000
-8.09860000 1.52270000 4.82850000
-4.11140000 1.45730000 7.62490000
-3.88750000 1.38740000 7.65360000
-8.01760000 1.50960000 4.88260000
-3.96950000 1.44610000 7.64490000
-4.02070000 1.48310000 7.61340000
-4.09840000 1.51250000 7.58920000
-4.17750000 1.54340000 7.59990000
-4.03660000 1.54140000 7.55090000
-4.06680000 1.58090000 7.48980000
-4.14480000 1.55160000 7.43620000
-4.18770000 1.57320000 7.52820000
-7.58830000 -0.25260000 5.47330000
-7.87480000 -0.30660000 5.09430000
-7.39970000 -0.29550000 5.51020000
-4.58360000 1.44990000 7.19830000
-4.45950000 1.47530000 7.18600000
-7.11050000 -0.31620000 5.55270000
-7.64890000 -0.34630000 5.04330000
-7.11880000 -0.34240000 5.19260000
-4.36370000 1.51140000 7.22860000
-4.54100000 1.47920000 7.27920000
-4.71760000 1.47760000 7.34050000
-4.64190000 1.52100000 7.40420000
-4.59140000 1.55120000 7.41160000
-4.45440000 1.54370000 7.31190000
-4.20550000 1.52720000 7.24060000
-4.30770000 1.51820000 7.30840000
-4.13400000 1.56610000 7.32670000
-4.92270000 -0.02770000 7.16050000
-4.38090000 1.55520000 7.35540000
-4.37950000 1.55230000 7.47750000
-4.24170000 1.52670000 7.39160000
-4.24420000 1.54640000 7.48900000
-4.34500000 1.55220000 7.51460000
-4.45020000 1.58790000 7.49050000
-4.09000000 1.57980000 7.43050000
-7.94080000 1.32890000 1.89510000
-4.49480000 1.60590000 7.45950000
-4.43970000 1.48750000 7.73170000
-4.28520000 1.49520000 7.67180000
-4.35800000 1.55020000 7.69350000
-7.74240000 -0.17960000 5.47780000
-4.25850000 1.58150000 7.60850000
-4.52370000 1.59450000 7.61140000
-4.46360000 1.59510000 7.66100000
-4.73280000 1.51700000 7.42970000
-4.58870000 1.60110000 7.48070000
-4.49850000 1.53160000 7.74510000
-4.60200000 1.55800000 7.74690000
-4.78290000 1.57240000 7.73190000
-4.62920000 1.59560000 7.68450000
-4.44510000 1.56830000 7.71210000
-4.53000000 1.57770000 7.72650000
-7.83960000 1.47180000 6.06280000
-7.75860000 1.41810000 6.19400000
-7.77950000 1.34860000 6.33160000
-7.75330000 1.32990000 6.44530000
-7.74770000 1.38070000 6.32980000
-7.82190000 1.32800000 6.33840000
-4.30240000 1.58790000 7.57920000
-4.38040000 1.58610000 7.59600000
-4.37170000 1.59380000 7.65410000
-7.72500000 1.43660000 6.34720000
-4.64270000 1.44750000 7.12770000
-4.73110000 1.45540000 7.21450000
-4.66150000 1.45940000 7.06990000
-4.77210000 1.45650000 7.10150000
-4.73200000 1.48060000 7.04850000
-4.90720000 1.47990000 7.11550000
-4.82320000 1.47360000 7.25200000
-4.91040000 1.49430000 7.03020000
-5.02710000 1.49810000 7.02070000
-4.97970000 1.51330000 7.15130000
-5.07930000 1.50290000 7.10970000
-7.70520000 1.45240000 6.22100000
-4.68720000 1.53770000 6.99790000
-4.86530000 1.56560000 6.96140000
-7.58630000 1.53070000 6.27570000
-7.54160000 1.51410000 6.16260000
-7.65200000 1.51540000 6.25340000
-5.10890000 1.49300000 7.06290000
-5.01940000 1.54390000 6.95000000
-5.16660000 1.47960000 7.03880000
-5.15340000 1.52800000 6.97140000
-5.02660000 1.57970000 6.90600000
-5.27730000 1.52780000 6.96990000
-7.63880000 1.47020000 6.15630000
-7.80160000 1.48440000 6.02410000
-5.30620000 1.56170000 6.90890000
-4.78180000 1.59890000 6.82370000
-7.69810000 1.48790000 6.40300000
-4.75550000 1.57700000 6.93750000
-8.38800000 -0.40240000 4.17360000
-8.72940000 -0.40860000 3.57550000
-7.70470000 1.48570000 6.26850000
-8.64670000 -0.36750000 3.98790000
-8.44000000 -0.36810000 4.31680000
-5.06740000 1.53820000 7.19660000
-5.20570000 1.53370000 7.24610000
-5.20460000 1.58180000 7.34680000
-8.04650000 1.50320000 5.88610000
-8.84770000 -0.38750000 3.49170000
-4.84020000 1.52340000 7.41050000
-4.90920000 1.52650000 7.30390000
-5.00860000 1.56610000 7.28260000
-8.63550000 -0.30840000 4.19440000
-4.99060000 1.57700000 7.44030000
-4.93990000 1.56240000 7.53100000
-5.04840000 1.57770000 7.58590000
-5.06490000 1.59740000 7.44460000
-8.85120000 -0.31090000 3.77510000
-5.22040000 1.60130000 7.44240000
-5.23550000 1.59330000 7.58420000
-5.20420000 1.45390000 7.12110000
-7.12740000 1.34070000 0.13770000
-4.53970000 1.48460000 7.02810000
-4.50970000 1.46590000 7.06590000
-4.56150000 1.52230000 6.99720000
-9.29680000 1.34440000 4.35810000
-7.28200000 -0.35110000 4.84900000
-8.11560000 -0.39710000 4.33150000
-9.27030000 1.33230000 4.54330000
-9.28730000 1.35840000 4.46490000
-6.33820000 -0.30670000 5.68310000
-9.19410000 1.45780000 4.39520000
-9.22860000 1.44230000 4.27770000
-9.26180000 1.41170000 4.34400000
-9.25290000 1.41400000 4.49750000
-9.01600000 1.49850000 4.48180000
-9.14120000 1.47590000 4.20200000
-9.04310000 1.49600000 4.24520000
-8.10710000 -0.36740000 4.67890000
-5.13290000 1.42400000 7.77720000
-4.93440000 1.45270000 7.79340000
-5.01220000 1.49380000 7.76480000
-5.09610000 1.47670000 7.74670000
-5.02800000 1.55690000 7.69390000
-9.04730000 1.47970000 4.62340000
-4.87430000 1.51440000 7.77260000
-4.90310000 1.57940000 7.71460000
-4.95260000 1.58640000 7.67300000
-5.15680000 1.50710000 7.71330000
-5.10730000 1.56930000 7.63330000
-5.22070000 1.56200000 7.66580000
-9.07080000 1.35750000 5.09350000
-9.19160000 1.32890000 4.84930000
-5.33090000 1.56220000 7.70200000
-9.15810000 1.39010000 4.84870000
-8.98040000 1.43470000 5.08760000
-9.01600000 1.39990000 5.13880000
-6.02590000 1.42660000 6.28050000
-6.19320000 1.46900000 6.28190000
-5.95960000 1.41380000 6.47580000
-6.17180000 1.44300000 6.21060000
-6.06800000 1.43830000 6.42210000
-6.06320000 1.39720000 6.78330000
-6.00880000 1.40980000 6.81820000
-5.90340000 1.40900000 6.65540000
-9.13480000 1.43450000 4.74990000
-6.07900000 1.40220000 6.67260000
-9.21790000 1.39590000 4.64170000
-5.72690000 1.54420000 6.41850000
-5.69280000 1.54540000 6.60270000
-5.87700000 1.46490000 6.15500000
-5.94770000 1.43160000 6.30530000
-5.86640000 1.46950000 6.34080000
-5.81790000 1.50700000 6.26410000
-5.89910000 1.41510000 6.48760000
-5.85670000 1.44050000 6.49140000
-5.84720000 1.43460000 6.63070000
-5.81990000 1.47920000 6.55910000
-5.78740000 1.51680000 6.54830000
-5.80810000 1.46220000 6.74630000
-5.89260000 1.45730000 6.81510000
-5.66080000 1.49480000 6.84440000
-5.76680000 1.48530000 6.83510000
-5.74040000 1.50870000 6.70150000
-5.70680000 1.49110000 6.91800000
-5.59770000 1.53340000 6.80740000
-6.51550000 1.40940000 5.90540000
-6.38250000 1.40750000 5.95430000
-6.33640000 1.43510000 6.04570000
-6.41790000 1.39360000 6.01930000
-6.49000000 1.39090000 5.97460000
-6.34510000 1.43550000 6.09650000
-6.42600000 1.43680000 6.09540000
-6.55830000 1.41110000 6.02360000
-6.57570000 1.47680000 6.07490000
-6.41760000 1.49780000 6.15490000
-9.35930000 1.39030000 4.04420000
-9.32900000 1.34250000 4.20260000
-6.31070000 1.46630000 5.94300000
-9.26240000 1.40820000 4.09780000
-6.25910000 1.49510000 5.97150000
-6.24860000 1.46260000 6.09560000
-9.20650000 1.42270000 4.12650000
-9.26450000 1.37710000 4.22820000
-6.30810000 1.46940000 6.17910000
-6.62610000 -0.31630000 5.78730000
-6.62810000 -0.30040000 6.04710000
-8.23630000 -0.34170000 4.66490000
-6.18800000 1.43740000 3.99700000
-6.18300000 1.44330000 4.19490000
-6.35080000 1.43060000 4.28040000
-6.44320000 1.43650000 4.19330000
-6.19230000 1.46550000 4.13240000
-6.54960000 1.44580000 4.03940000
-6.36700000 1.46200000 4.08140000
-6.27120000 1.44870000 4.03520000
-6.83960000 -0.27790000 6.07410000
-6.51990000 -0.27960000 6.25210000
-6.58750000 1.44990000 4.14080000
-8.13910000 -0.22660000 5.02550000
-8.36230000 -0.22070000 4.78830000
-8.41780000 -0.30560000 4.53510000
-6.99380000 -0.24670000 6.03570000
-8.25280000 -0.08740000 5.14160000
-5.96850000 1.45770000 4.24700000
-5.75390000 1.46420000 4.38180000
-5.71810000 1.49930000 4.28710000
-5.65160000 1.46560000 4.21680000
-5.74960000 1.48380000 4.19510000
-5.98020000 1.48090000 4.13760000
-8.58000000 -0.09970000 4.72240000
-6.65400000 1.41680000 3.91660000
-8.71700000 0.07040000 4.81120000
-6.71830000 1.42050000 4.05530000
-5.29970000 0.14810000 7.25160000
-6.61880000 1.45380000 5.09830000
-6.63670000 1.47880000 5.14020000
-6.59180000 1.51820000 5.21020000
-6.66830000 1.52810000 5.22380000
-6.80430000 1.53590000 5.25370000
-6.78300000 1.50960000 5.13070000
-6.80620000 1.53690000 5.46540000
-10.12650000 1.34210000 0.10390000
-10.09790000 1.31290000 -0.93040000
-10.34990000 1.35040000 -0.81180000
-10.44120000 1.37030000 -1.07270000
-10.48910000 1.40050000 -0.64350000
-10.34640000 1.37110000 -0.23770000
-9.58870000 1.35180000 1.22580000
-9.44570000 1.35060000 1.35430000
-9.44270000 1.30940000 1.12650000
-9.50110000 1.30840000 0.99390000
-9.65120000 1.33490000 1.14360000
-10.10720000 0.26020000 2.03230000
-9.98190000 0.33850000 2.69470000
-10.47920000 1.40100000 -0.22290000
-10.56210000 1.40610000 -0.86540000
-8.38130000 1.30660000 -0.41470000
-10.28710000 1.37970000 0.24120000
-10.16480000 0.51250000 2.24940000
-10.23990000 0.35170000 1.71060000
-10.07290000 0.44540000 2.53680000
-9.54210000 1.39050000 1.45490000
-9.31130000 1.35980000 1.61790000
-10.44920000 1.38180000 0.02940000
-10.33670000 1.38480000 0.47930000
-10.44510000 1.36710000 0.30820000
-9.36780000 1.39740000 1.81930000
-9.72480000 1.30960000 0.29360000
-9.72300000 1.29120000 -1.03810000
-10.19840000 0.76500000 2.33010000
-10.22320000 0.63430000 2.10580000
-10.56680000 1.31780000 0.30320000
-10.42960000 1.34800000 0.59360000
-10.55880000 1.26920000 0.59350000
-10.37210000 1.35120000 0.79500000
-9.53160000 1.40800000 1.71580000
-10.22630000 1.32200000 -1.54560000
-9.69650000 1.38880000 1.34100000
-10.56820000 1.10830000 0.92570000
-10.53830000 0.96250000 1.09430000
-10.47210000 1.02640000 1.32100000
-9.66300000 1.39770000 1.65360000
-10.57180000 1.20870000 0.74250000
-10.48910000 1.18100000 1.08190000
-10.04380000 0.61800000 2.85090000
-10.45010000 1.10220000 1.32150000
-10.38460000 1.18110000 1.32670000
-10.10650000 0.76890000 2.70920000
-10.28940000 1.20590000 1.49350000
-10.43310000 1.25060000 1.02900000
-10.33420000 1.30910000 1.03330000
-10.26980000 1.26750000 1.31880000
-9.46650000 -0.48800000 0.63600000
-10.62570000 0.97250000 0.72860000
-10.24210000 0.45890000 1.84130000
-10.67250000 1.05210000 0.55010000
-10.66930000 1.15360000 0.48400000
-9.62540000 -0.46440000 0.39460000
-9.55870000 -0.42250000 1.19590000
-10.30480000 0.62400000 1.79790000
-10.20950000 1.40010000 0.65530000
-10.16840000 1.40790000 0.78630000
-9.98540000 1.38230000 0.89690000
-10.16870000 1.37340000 0.96900000
-9.99450000 1.39430000 1.03000000
-10.25740000 1.38410000 0.87690000
-9.84100000 1.34560000 0.93940000
-10.24350000 0.81120000 2.07580000
-10.18400000 0.91700000 2.40770000
-10.17480000 1.37710000 0.59290000
-10.36450000 0.79400000 1.69100000
-10.30610000 0.89700000 1.84820000
-10.44480000 0.70420000 1.39130000
-9.60310000 -0.32670000 1.76570000
-9.66750000 -0.33580000 1.28130000
-9.71640000 -0.37220000 0.78240000
-10.00360000 0.78600000 3.08720000
-9.75200000 -0.26640000 1.33330000
-9.83000000 -0.20660000 1.16310000
-9.90300000 -0.14540000 1.25780000
-10.29670000 1.39850000 0.70230000
-9.76180000 -0.18520000 1.84720000
-10.08420000 0.94080000 2.83440000
-10.10960000 1.32550000 1.23450000
-9.98720000 1.36460000 1.18660000
-10.10640000 1.18360000 2.29090000
-10.17270000 1.10160000 2.37370000
-10.07760000 1.20750000 2.62380000
-9.87070000 1.31860000 2.32140000
-9.91020000 1.28420000 2.35340000
-9.91350000 1.34850000 2.43780000
-9.94690000 1.25180000 2.32550000
-10.00710000 1.24420000 2.50380000
-9.95470000 1.26910000 2.47910000
-10.00350000 1.31400000 2.71740000
-9.92670000 1.30540000 2.46090000
-9.97120000 1.34290000 2.59330000
-9.96790000 1.37670000 2.64950000
-10.11160000 1.24860000 1.53410000
-9.53490000 1.36430000 2.67000000
-9.68050000 1.35460000 2.42720000
-9.66870000 1.37090000 2.52300000
-9.84990000 1.37200000 1.13090000
-9.82620000 1.35840000 2.36820000
-9.77180000 1.34600000 2.30920000
-9.79540000 1.39900000 2.48090000
-9.57040000 1.37550000 2.36560000
-9.65510000 1.38220000 2.09660000
-10.75700000 1.13920000 0.06690000
-10.75820000 1.04030000 0.17590000
-10.68720000 1.21870000 0.24290000
-9.85920000 -0.24520000 0.81590000
-9.82530000 -0.34400000 0.34290000
-8.50140000 1.30380000 0.81780000
-9.59170000 1.37670000 2.66350000
-9.67650000 1.40030000 2.59920000
-9.62960000 1.41070000 2.70550000
-10.65790000 1.28100000 0.10800000
-9.74170000 1.43550000 2.77050000
-9.87470000 1.39690000 2.46230000
-9.91070000 1.41130000 2.70010000
-9.83600000 1.42890000 2.64790000
-10.25260000 0.93670000 2.00580000
-10.04960000 -0.09330000 0.57540000
-9.95230000 -0.20470000 0.40170000
-9.24430000 1.28920000 0.81040000
-9.21270000 1.29410000 0.18260000
-10.27740000 1.03600000 1.85540000
-10.23420000 1.04190000 2.01790000
-10.21640000 1.08820000 1.96470000
-10.21720000 1.00680000 2.20220000
-10.06250000 -0.11330000 0.21460000
-10.04600000 -0.08670000 0.45480000
-10.16620000 0.00800000 0.25740000
-10.17940000 1.13370000 1.88420000
-10.02930000 -0.09380000 0.84250000
-10.08490000 1.19040000 1.79530000
-10.20210000 1.16200000 1.73620000
-10.03650000 1.21530000 2.13170000
-10.22320000 0.08220000 0.42340000
-10.35910000 0.99230000 1.69580000
-10.14480000 0.02240000 0.75960000
-9.91330000 -0.16520000 1.04290000
-10.34210000 1.07170000 1.66460000
-10.29100000 1.12720000 1.66820000
-10.03290000 -0.02330000 1.29340000
-10.03930000 1.22580000 1.68700000
-10.65470000 0.33280000 -1.71220000
-10.54100000 0.16120000 -1.41610000
-10.16290000 0.07900000 1.07090000
-10.20960000 0.09430000 0.65370000
-10.68260000 0.46500000 -2.19810000
-10.29240000 0.17200000 0.64590000
-10.33850000 0.25100000 0.84820000
-10.76060000 0.57720000 -1.99340000
-10.63630000 0.29670000 -1.36700000
-10.73090000 0.46460000 -1.56300000
-10.13860000 1.10910000 2.58500000
-9.85250000 -0.39520000 -0.28040000
-9.80430000 -0.44290000 -0.63760000
-9.64480000 -0.48720000 -0.31430000
-10.16590000 1.12980000 2.27860000
-9.60210000 -0.50470000 -0.84490000
-9.95020000 1.23830000 1.99510000
-9.91240000 1.26260000 1.85920000
-9.90960000 1.27880000 1.61420000
-9.89030000 1.30560000 1.80650000
-9.95710000 -0.00950000 1.77990000
-10.83580000 0.81930000 -2.03970000
-10.81200000 0.67820000 -1.80680000
-9.90850000 1.27440000 2.13700000
-9.88250000 1.31710000 2.13220000
-9.79130000 1.36910000 1.84290000
-9.83300000 1.37010000 1.61880000
-9.86460000 1.34500000 1.73970000
-9.78390000 1.38920000 1.56610000
-9.84550000 1.34590000 2.06310000
-10.84860000 0.76510000 -1.57760000
-10.81980000 0.93380000 -2.34250000
-10.86530000 1.00230000 -1.89420000
-9.84880000 1.34220000 1.53600000
-10.87470000 0.89510000 -1.55310000
-10.00320000 -0.30200000 -0.44500000
-10.08290000 -0.18450000 -0.06820000
-9.97310000 -0.22690000 0.19250000
-10.17600000 0.15200000 1.38480000
-10.01170000 0.95850000 3.10870000
-10.80830000 1.04560000 -2.39880000
-10.06290000 1.09310000 2.92160000
-9.90540000 1.18230000 3.37260000
-10.03260000 1.18600000 2.98600000
-10.46450000 0.39820000 0.69440000
-10.29050000 0.30130000 1.35850000
-10.75380000 0.53150000 -1.15300000
-10.53640000 0.53120000 0.73350000
-10.82910000 0.70940000 -1.16880000
-10.06590000 1.20660000 2.76990000
-10.02320000 1.24580000 2.93560000
-10.86150000 0.87060000 -0.99750000
-10.38020000 0.50930000 1.43220000
-9.73640000 1.45700000 3.06010000
-10.01850000 1.27050000 2.72630000
-10.82650000 1.15820000 -1.96810000
-10.88310000 1.05460000 -1.48370000
-9.99020000 1.37200000 2.83770000
-10.56320000 0.64530000 0.84850000
-10.01370000 1.32620000 2.91020000
-9.95670000 1.33300000 3.13950000
-9.95230000 1.38230000 2.99890000
-9.84330000 1.44220000 2.82220000
-9.63580000 1.43960000 2.85840000
-9.84330000 1.42570000 3.10030000
-10.88320000 1.02040000 -0.98890000
-10.88120000 1.09720000 -1.15530000
-9.75040000 1.35010000 1.20370000
-9.94260000 1.27360000 3.24070000
-9.85570000 1.38890000 3.30980000
-10.86740000 1.10920000 -0.82700000
-9.93580000 1.30290000 1.46170000
-9.84970000 1.33420000 1.42260000
-9.83350000 1.36370000 1.27040000
-9.76680000 1.38580000 1.41810000
-8.97770000 1.32350000 2.23610000
-9.07100000 1.34170000 2.25180000
-9.14070000 1.36450000 2.54760000
-9.16080000 1.37940000 2.20710000
-9.27180000 1.39260000 2.24520000
-10.23500000 0.00870000 0.07170000
-9.30130000 1.37730000 2.47550000
-9.45460000 1.40190000 2.27090000
-9.41270000 1.41390000 2.03290000
-10.34330000 0.16970000 0.30290000
-10.34170000 0.04760000 -0.20600000
-10.49490000 0.32850000 0.22030000
-10.54650000 0.29890000 -0.27140000
-9.20160000 1.37820000 1.98580000
-8.88670000 1.29560000 1.44260000
-10.60480000 0.49350000 0.22030000
-10.42070000 0.31210000 0.55300000
-10.40160000 1.35780000 -1.63380000
-9.33740000 1.37070000 2.77330000
-10.50290000 1.39250000 -1.65800000
-9.49590000 1.38390000 2.95590000
-10.51750000 1.39390000 -2.38010000
-10.60620000 1.39670000 -1.73160000
-10.55540000 1.40210000 -1.68960000
-9.55890000 1.40550000 2.83320000
-9.37670000 1.36360000 2.58670000
-10.77010000 1.14270000 -2.48590000
-10.70190000 1.23450000 -2.60720000
-10.69550000 0.62400000 0.05070000
-10.74130000 0.75520000 0.08940000
-10.73720000 1.26110000 -2.29430000
-10.67900000 0.47300000 -0.53380000
-10.78930000 0.71120000 -0.48340000
-10.83740000 0.91180000 -0.45090000
-10.76360000 1.28790000 -1.84200000
-10.68120000 1.35060000 -1.99820000
-10.57770000 1.37990000 -2.35120000
-9.94010000 -0.37150000 -1.52510000
-9.14820000 1.30420000 1.55960000
-9.55340000 1.43860000 3.12540000
-9.95560000 -0.37540000 -1.12280000
-9.10290000 1.32630000 1.87940000
-10.85300000 1.05000000 -0.48680000
-9.26740000 1.31130000 1.43690000
-10.81600000 1.15570000 -0.39120000
-10.78380000 0.90840000 0.00340000
-10.68170000 0.85030000 0.50850000
-10.84130000 1.19270000 -1.49380000
-10.81110000 1.04030000 -0.14920000
-10.05080000 -0.30500000 -1.00360000
-10.19140000 -0.19430000 -1.05120000
-10.70120000 1.35960000 -1.47370000
-10.75130000 1.32410000 -1.31440000
-10.64480000 1.39050000 -1.34750000
-10.82710000 1.22000000 -0.97000000
-10.74020000 1.31360000 -0.69000000
-10.10210000 -0.27210000 -1.45560000
-10.57410000 0.79790000 0.95460000
-10.69920000 1.35770000 -0.87550000
-10.62000000 1.38780000 -0.58210000
-10.26720000 -0.13490000 -1.41300000
-10.40130000 0.00110000 -1.63070000
-10.32750000 -0.05900000 -0.94030000
-10.43820000 0.04670000 -1.10680000
-10.76240000 1.25000000 -0.37170000
-10.18190000 -0.15280000 -0.47840000
-10.41800000 0.07240000 -0.58610000
-10.55850000 1.38290000 -0.20050000
-10.53890000 1.34520000 0.05530000
-10.63770000 1.34460000 -0.21920000
-10.59650000 0.27500000 -0.89830000
0.05100000 -0.06620000 -3.58170000
-0.08220000 -0.00800000 -4.21170000
0.10750000 0.02870000 -3.86750000
0.65780000 0.21450000 -2.20270000
0.36200000 -0.02780000 -2.28490000
0.50830000 0.10690000 -2.43590000
-0.88900000 1.22550000 3.08310000
-1.00110000 1.04890000 3.07140000
-0.92270000 1.06540000 3.16740000
-0.89920000 1.15760000 3.12650000
-1.05150000 1.18190000 3.03410000
-1.16950000 1.05770000 3.03510000
-0.99120000 1.15880000 3.04310000
0.69680000 0.42580000 -3.22660000
0.75100000 0.53920000 -3.46660000
0.94000000 0.57960000 -2.77510000
-0.96440000 1.32620000 3.05980000
-0.77670000 1.27800000 3.14280000
-0.81860000 1.13870000 3.21870000
-0.87830000 1.34590000 3.08510000
-0.75740000 1.37430000 3.12880000
-0.04670000 -0.10020000 -3.67020000
-0.12550000 -0.11830000 -3.66600000
-0.20310000 -0.07000000 -4.23110000
0.32360000 -0.06930000 -1.71530000
0.23490000 -0.11240000 -2.14020000
-0.34300000 -0.11250000 -4.09960000
-0.29100000 -0.09320000 -4.28090000
0.45410000 0.02780000 -1.96080000
0.97180000 0.74030000 -3.24040000
0.40520000 -0.00010000 -1.56210000
-0.76780000 -0.09820000 -4.96760000
-0.53940000 -0.07960000 -4.81100000
0.21530000 -0.12210000 -1.38070000
-0.32680000 1.53520000 2.19700000
-0.52830000 1.53040000 2.35410000
-0.34720000 1.54240000 2.37500000
-0.43910000 1.52750000 2.59030000
-0.37910000 1.54830000 2.65020000
-0.52700000 1.51880000 2.75840000
-0.42250000 1.52110000 2.80770000
0.64330000 0.19790000 -1.97180000
0.76050000 0.63910000 -3.73620000
0.46720000 0.41920000 -4.04220000
0.51930000 0.09830000 -1.76710000
0.91500000 0.82430000 -3.65880000
0.54800000 0.16640000 -1.72690000
0.47380000 0.08740000 -1.61640000
0.43140000 0.11920000 -1.43620000
-0.74410000 1.52090000 1.90710000
-1.34990000 1.53380000 2.41510000
-0.89060000 1.54620000 2.51830000
-0.30650000 -0.03700000 -4.62610000
-0.17190000 0.02270000 -4.55400000
0.77030000 0.46360000 -3.00790000
0.80280000 0.43300000 -2.77390000
0.76210000 0.33880000 -2.46270000
0.93610000 0.46350000 -1.87500000
0.56570000 0.21180000 -2.78260000
0.46400000 0.11280000 -2.64150000
-1.32810000 -0.14720000 0.48170000
1.14620000 0.87260000 -2.90830000
-2.16230000 -0.15880000 -5.79680000
-1.45140000 -0.12070000 -4.93880000
1.08280000 0.97460000 -3.39280000
-0.60760000 1.49710000 3.08790000
-0.70350000 1.47300000 3.12360000
-0.58850000 1.48080000 3.13390000
-0.72730000 1.51830000 3.07040000
-0.71610000 1.52660000 2.84240000
-0.84840000 1.53690000 2.98250000
1.16820000 1.17090000 -3.36130000
1.19840000 1.05390000 -3.09940000
-0.53040000 1.48980000 3.01150000
-0.46170000 1.49940000 2.92500000
0.62200000 0.23900000 -1.74830000
0.93960000 1.00960000 -3.88570000
-0.34720000 1.57220000 2.77830000
0.78580000 0.33070000 -1.76680000
-0.33830000 1.54810000 3.13480000
1.04130000 1.15890000 -3.74710000
0.72730000 0.31150000 -1.69950000
-0.38400000 1.50880000 3.06350000
0.55240000 0.22950000 -1.62860000
-1.41300000 -0.12200000 -5.50060000
0.59340000 0.27330000 -1.56880000
-1.57800000 1.57460000 2.91090000
-0.56750000 -0.15170000 -0.64500000
-0.38680000 -0.17430000 0.74240000
0.69550000 0.36580000 -2.87930000
0.00950000 1.60300000 -4.14430000
0.46560000 1.66440000 -3.93490000
0.08880000 1.65190000 -4.57330000
1.07760000 0.72100000 -2.71690000
0.66000000 1.63280000 -2.76930000
0.73880000 1.07320000 2.29170000
0.56340000 0.97070000 3.00010000
0.74020000 0.94830000 2.17370000
1.21380000 0.86440000 -2.51010000
0.74630000 1.22680000 2.30430000
0.83100000 1.18220000 2.01500000
1.28880000 1.02230000 -2.57320000
0.65300000 1.14610000 2.76550000
0.72460000 1.30480000 2.42580000
0.70660000 0.79930000 2.10270000
0.92380000 0.46160000 -1.37360000
0.62040000 1.32860000 2.87980000
1.04920000 0.58530000 -1.09450000
0.58980000 1.23060000 3.04290000
0.55250000 1.31450000 3.15320000
0.81210000 1.28710000 2.09010000
0.72860000 1.37770000 2.31260000
1.14120000 0.67520000 -1.74970000
-1.34100000 -0.06370000 -5.82590000
-1.16580000 -0.07850000 -5.61450000
-1.16800000 -0.09730000 -5.53820000
-1.15680000 -0.03390000 -5.69640000
-0.86220000 0.04300000 -5.47800000
-0.82940000 -0.01020000 -5.38650000
-1.24460000 0.00370000 -5.82500000
-1.03540000 -0.06440000 -5.51530000
0.67710000 1.35520000 2.60710000
-0.81110000 0.23570000 -5.55500000
1.28040000 0.85630000 -1.58580000
1.20100000 0.74020000 -1.33950000
0.80570000 1.33320000 2.09200000
0.83210000 1.39630000 1.93900000
0.79120000 1.43140000 1.99200000
1.25660000 0.85140000 -2.03910000
0.69740000 1.47030000 2.08560000
1.33840000 0.97330000 -1.80470000
0.66460000 1.43770000 2.35930000
-1.61510000 -0.10220000 -5.98230000
-1.67920000 -0.13130000 -5.86870000
0.57670000 1.52730000 2.03750000
0.63360000 1.48670000 2.21490000
0.62870000 1.55270000 1.80440000
0.46910000 1.53120000 1.89790000
0.56500000 1.52130000 2.34100000
-1.64530000 0.00420000 -6.19050000
1.29440000 0.89530000 -1.12110000
0.50960000 1.53710000 2.12600000
-1.48200000 0.16220000 -6.19540000
0.49680000 1.56080000 2.21840000
0.40680000 1.58690000 2.09980000
0.34710000 1.60820000 2.17560000
0.49310000 1.57620000 2.31600000
-1.27980000 0.27580000 -6.05850000
0.73620000 1.49690000 1.93350000
0.70620000 1.54120000 1.79300000
1.07270000 0.61830000 -2.08270000
0.63180000 1.44320000 2.58370000
1.14330000 0.72490000 -2.29790000
0.57470000 1.52440000 2.48730000
0.57370000 1.50550000 2.66020000
0.53930000 1.41360000 3.08370000
0.55000000 1.47420000 2.87950000
0.50180000 1.52260000 2.86730000
-1.00610000 0.56660000 -5.96140000
0.51250000 1.55820000 2.54440000
0.41050000 1.56390000 2.91710000
0.41370000 1.58860000 2.62020000
0.36190000 1.60540000 2.35420000
0.31130000 1.62280000 2.68560000
0.26470000 1.63180000 2.39090000
-0.85650000 -0.07720000 -5.26780000
0.04220000 1.61090000 2.63060000
0.12390000 1.62670000 2.32830000
-0.74890000 -0.03640000 -5.25510000
0.33150000 1.53120000 1.81380000
0.38900000 1.52630000 1.51700000
0.05480000 1.52960000 1.78150000
0.12690000 1.56080000 1.87290000
0.21630000 1.55290000 1.85560000
0.41820000 1.59000000 -2.58890000
0.03200000 1.54720000 1.92120000
0.18440000 1.60100000 1.94350000
0.04320000 1.61450000 2.04310000
0.15110000 1.62930000 2.08270000
-0.01790000 1.58040000 2.01710000
1.35860000 1.05250000 -2.09530000
-0.83290000 -0.10780000 -4.63000000
-1.52780000 -0.10990000 -3.52940000
0.00500000 1.55910000 -2.68380000
0.24450000 -0.07710000 -0.56650000
0.31980000 -0.03930000 -0.91180000
0.34750000 0.05200000 0.07780000
0.37820000 0.08610000 -0.03620000
0.38830000 0.13740000 -0.13620000
0.38630000 0.11940000 -0.47360000
0.24360000 -0.02370000 0.11970000
-0.15730000 1.53760000 2.04750000
-0.14870000 1.57590000 2.13530000
-0.23290000 1.57350000 2.24670000
0.32500000 0.06370000 0.46870000
-0.12990000 1.61110000 2.22380000
0.52640000 0.21700000 0.04870000
0.43460000 0.14420000 0.08350000
0.42510000 0.16450000 -0.06700000
-0.14410000 1.61460000 2.34960000
-1.27790000 -0.15970000 1.38330000
-0.86910000 -0.17610000 2.68070000
0.49070000 0.21710000 -0.32610000
0.49620000 0.18340000 0.27580000
0.72440000 0.36920000 0.14470000
-0.60150000 -0.04820000 -5.04310000
-0.23140000 1.51140000 1.25660000
-0.77760000 1.56180000 -5.01380000
-1.98280000 1.50130000 -5.58210000
-0.77030000 1.54130000 -4.44660000
0.47500000 1.51540000 1.61310000
-0.45010000 0.07620000 -5.07080000
-0.16930000 0.10310000 -4.72800000
-0.46260000 -0.00740000 -4.95690000
0.40440000 1.54840000 1.98990000
0.31680000 1.56400000 1.92710000
0.60830000 1.54820000 1.57110000
0.50280000 1.52260000 1.71360000
0.99610000 0.64360000 0.01200000
0.68150000 0.42460000 1.09760000
0.74200000 0.42070000 0.53140000
0.29940000 1.60370000 2.00860000
0.71580000 0.33670000 -0.66670000
0.70790000 0.34040000 -0.18230000
-0.40320000 0.23050000 -5.15300000
-1.61330000 1.49390000 -4.20460000
1.02270000 0.60030000 -0.51660000
-0.38780000 0.38220000 -5.21940000
-0.12280000 1.58180000 2.93890000
0.17540000 1.58250000 3.05850000
0.27070000 1.59870000 3.04000000
1.24770000 0.87830000 -0.67910000
1.19110000 0.86030000 -0.32120000
0.95870000 0.73710000 0.66540000
0.08090000 1.56030000 3.23880000
-0.13980000 1.56700000 3.23230000
0.01160000 1.56460000 3.46130000
0.30110000 1.51220000 3.49580000
0.45130000 1.47980000 3.21050000
0.26720000 1.55790000 3.37990000
0.26550000 1.56700000 3.27010000
-1.13620000 -0.16040000 3.00740000
0.19180000 1.52250000 3.72790000
0.11830000 1.55600000 3.72640000
0.04360000 0.10980000 -4.32460000
-0.30580000 1.56920000 3.01220000
1.12340000 0.90520000 0.20950000
1.18900000 1.03040000 0.13510000
-0.26710000 1.56990000 3.40550000
1.31210000 1.06530000 -0.50710000
0.15940000 0.28390000 -4.46480000
0.03900000 0.28490000 -4.68140000
1.25210000 1.16180000 0.02090000
-1.07140000 -0.20190000 3.91410000
0.23530000 0.23660000 -4.20350000
0.26370000 0.16200000 -3.88660000
0.32620000 1.60530000 2.93600000
-0.30800000 1.58880000 2.55640000
1.19040000 1.29310000 0.37840000
1.14600000 1.18930000 0.55720000
-0.30930000 1.57490000 2.43770000
0.37210000 0.05450000 -1.14830000
0.36090000 0.01670000 -0.81650000
0.36130000 -0.00790000 -1.26620000
-0.28000000 1.59410000 2.65060000
0.39540000 0.03910000 -1.38880000
0.36280000 0.04670000 -1.24820000
0.08080000 0.47990000 -4.85350000
0.29150000 0.56220000 -4.63730000
0.34330000 0.47460000 -4.39150000
0.51640000 0.21840000 -1.47860000
0.44390000 0.16930000 -1.35520000
0.52960000 0.59820000 -4.23840000
0.36200000 0.10490000 -1.25190000
0.38130000 0.16280000 -1.18290000
0.45390000 0.21300000 -1.26630000
0.32050000 0.75650000 -4.80680000
0.38020000 0.05650000 -0.86390000
0.38080000 0.11630000 -0.94390000
0.39940000 0.17560000 -0.69130000
0.43300000 0.20680000 -0.95950000
0.46500000 0.21910000 -0.72090000
0.43510000 0.30230000 -3.81680000
0.39270000 0.16520000 -0.97960000
0.53680000 0.26200000 -1.33240000
0.78730000 0.37570000 -1.51090000
0.67890000 0.32130000 -1.40140000
0.70870000 0.71210000 -4.02500000
0.66260000 0.32160000 -1.12700000
0.79040000 0.89560000 -4.11360000
0.84330000 0.40500000 -1.31190000
0.48150000 0.77590000 -4.57980000
0.50490000 0.95660000 -4.70380000
0.66740000 0.98040000 -4.46130000
0.59580000 0.79150000 -4.39100000
-0.42610000 -0.19420000 2.05430000
-0.45740000 -0.19050000 2.81300000
-0.89760000 1.50380000 0.76330000
-1.53650000 1.49380000 1.76410000
-0.23810000 -0.18720000 1.84590000
-0.27180000 -0.18430000 2.41620000
-0.11200000 -0.13970000 2.12950000
-0.25260000 -0.16460000 2.62450000
-0.13500000 -0.11760000 2.46990000
0.58990000 0.27260000 -0.70960000
0.56960000 1.11530000 -4.70720000
0.69020000 1.16210000 -4.53040000
0.54350000 1.29700000 -4.80300000
0.80630000 1.04410000 -4.23390000
0.92980000 1.18580000 -4.05280000
0.41300000 0.18450000 -0.33530000
0.82640000 1.23640000 -4.30110000
0.70730000 1.37720000 -4.54340000
-0.45340000 -0.17700000 3.16790000
-0.31410000 -0.13610000 3.03450000
-0.10120000 -0.04100000 2.76380000
-0.49100000 0.67260000 -5.52240000
0.03420000 -0.03260000 2.22970000
0.17270000 0.12130000 2.39440000
0.27440000 0.13220000 1.95420000
-0.80390000 1.13080000 -6.15280000
-1.02450000 0.97550000 -6.25810000
1.14740000 0.69630000 -0.91390000
-0.04040000 0.12970000 3.25240000
-0.63320000 -0.19120000 3.40600000
-0.97690000 0.95940000 3.14440000
-1.03040000 0.92930000 3.15940000
-0.87720000 0.92380000 3.27730000
-0.16660000 0.23970000 -4.92250000
-0.89080000 0.96200000 3.21870000
-1.07480000 0.99820000 3.05460000
-1.15960000 0.93330000 3.09540000
-1.17500000 0.96880000 3.05350000
-0.55130000 1.59860000 -5.15720000
-0.12010000 0.46220000 -5.02630000
1.37680000 1.09900000 -0.99970000
1.38920000 1.08020000 -1.48770000
-0.22500000 0.73760000 -5.30620000
-2.05440000 1.54250000 2.83760000
-2.81110000 1.47890000 2.62480000
0.09580000 0.83510000 -5.08120000
0.48450000 1.56930000 -1.59900000
0.17980000 1.52240000 -0.81790000
0.70420000 1.56150000 -0.92950000
0.51420000 1.52580000 -0.62130000
0.71840000 1.51330000 -0.13240000
0.81040000 1.53900000 -0.27320000
-0.18000000 1.20120000 -5.59680000
-0.31580000 1.28150000 -5.78120000
-0.78380000 1.27240000 -6.23220000
-0.73770000 1.35290000 -6.20730000
-0.37210000 1.32350000 -5.85180000
-0.58470000 1.46460000 -6.05080000
-0.37040000 1.45480000 -5.85810000
0.36000000 1.00040000 -4.92070000
0.15680000 1.17080000 -5.24480000
1.29860000 1.20110000 -2.86310000
-0.61130000 1.51450000 -1.81170000
-0.34060000 1.50930000 -0.52600000
1.39270000 1.33630000 -2.47420000
1.33020000 1.40990000 -2.85690000
1.41030000 1.16380000 -1.93740000
1.42900000 1.20280000 -1.44010000
0.15190000 1.26130000 -5.29090000
1.43690000 1.28570000 -1.93830000
1.44580000 1.32960000 -1.39560000
0.41180000 1.21380000 -4.96300000
1.37290000 1.20430000 -2.44810000
0.38000000 1.37510000 -5.02840000
1.43480000 1.39220000 -2.08990000
0.05190000 1.38450000 -5.42730000
-2.54390000 1.44020000 -2.37430000
0.18550000 1.45840000 -5.26980000
0.37710000 1.53650000 -4.99940000
0.10500000 1.54300000 -5.34460000
1.37440000 1.47880000 -2.56510000
0.26770000 1.60940000 -5.09700000
0.07250000 1.60720000 -5.34400000
0.16880000 1.64360000 -5.18290000
0.58790000 1.48110000 -4.72220000
1.42810000 1.46530000 -2.06390000
0.33720000 1.64390000 -4.95230000
0.22570000 1.68210000 -5.02210000
0.06570000 1.67650000 -5.24460000
0.03670000 1.71020000 -5.10630000
0.16020000 1.70430000 -5.02570000
0.19180000 1.70830000 -4.77770000
0.31190000 1.71510000 -4.69460000
-0.05580000 1.69360000 -5.05840000
-0.10860000 1.32720000 -5.59530000
-0.22220000 1.42920000 -5.71860000
1.45000000 1.41250000 -1.56790000
1.43070000 1.48530000 -1.47510000
-0.25450000 1.53590000 -5.73730000
-0.46380000 1.57630000 -5.91670000
-0.81050000 1.67210000 -5.92150000
-0.94540000 1.62440000 -5.84290000
-0.53080000 1.63970000 -5.43440000
1.34750000 1.58100000 -2.44410000
-0.53570000 1.69140000 -5.73630000
-0.38110000 1.68740000 -5.47470000
1.31900000 1.56230000 -2.74500000
1.29150000 1.65990000 -2.34600000
1.24920000 1.64660000 -2.77340000
1.21850000 1.69440000 -2.58460000
-1.31280000 1.56880000 -5.83690000
1.41050000 1.53150000 -2.00040000
1.38330000 1.58330000 -1.75200000
1.35910000 1.60590000 -2.07190000
-1.48450000 1.47530000 -0.92670000
1.27990000 1.68240000 -1.93550000
1.20180000 1.71670000 -2.24000000
0.27140000 0.07520000 1.44400000
0.19530000 0.02700000 1.28950000
0.29800000 0.07270000 0.98380000
0.09310000 -0.11660000 -2.89450000
1.06340000 1.72720000 -2.65240000
1.11360000 1.71460000 -1.85050000
1.16990000 1.72230000 -1.85190000
0.49180000 0.20930000 0.79370000
0.45880000 0.24760000 1.53220000
-0.08860000 -0.14710000 -2.61570000
-0.65190000 -0.13290000 -2.57730000
1.35640000 1.17700000 -0.59170000
-0.08440000 1.48490000 -5.57590000
1.36710000 1.27270000 -0.57900000
1.30100000 1.30690000 -0.16460000
-0.16950000 1.57800000 -5.63350000
-0.01690000 1.64340000 -5.40660000
-0.28980000 1.62770000 -5.71260000
-0.25600000 1.66950000 -5.61820000
-0.35030000 1.69330000 -5.62760000
-0.05740000 1.69500000 -5.33020000
-0.14760000 1.70490000 -5.30660000
0.07990000 -0.14650000 -2.35630000
1.29910000 1.42700000 -0.32240000
1.22380000 1.36780000 0.15060000
1.20670000 1.43960000 0.06190000
0.65250000 0.46290000 1.50410000
0.81590000 0.70400000 1.44950000
-0.56560000 1.66820000 -5.90210000
1.09410000 1.49870000 0.29000000
1.16270000 1.49070000 -0.01740000
1.06990000 1.52340000 0.05360000
1.41690000 1.24080000 -1.04180000
0.23650000 0.04500000 1.05310000
1.42420000 1.42000000 -1.10440000
1.37840000 1.52480000 -1.09380000
0.90360000 1.36610000 -4.16460000
1.01900000 1.44520000 -3.89740000
0.94470000 1.51640000 -4.03930000
0.78220000 1.47000000 -4.39490000
0.62260000 1.54650000 -4.62830000
0.81300000 1.56640000 -4.26500000
1.41270000 1.35180000 -0.90350000
0.63400000 1.60010000 -4.54980000
0.74890000 1.62460000 -4.29360000
0.61700000 1.66050000 -4.44930000
1.37200000 1.44870000 -0.75090000
1.34270000 1.38240000 -0.45160000
-3.59390000 1.40480000 -1.25380000
0.34990000 0.27790000 2.26850000
0.46000000 1.66560000 -4.71170000
0.46010000 1.60190000 -4.83180000
0.14210000 -0.01910000 1.37800000
1.32170000 1.52970000 -0.76310000
0.12440000 -0.01310000 1.75890000
0.53170000 1.69280000 -4.49270000
1.29940000 1.60500000 -1.04710000
0.49130000 1.71320000 -4.44440000
0.35740000 1.70600000 -4.72810000
1.14720000 1.64000000 -0.78930000
1.23650000 1.61470000 -0.85960000
1.19300000 1.69500000 -1.34730000
1.09690000 1.65960000 -0.90410000
1.13090000 1.69560000 -1.30410000
0.97780000 1.61820000 -0.75540000
1.39590000 1.54840000 -1.41320000
1.33100000 1.61960000 -1.36390000
-0.73720000 -0.16670000 4.34090000
-0.71810000 -0.19740000 3.88050000
-0.60490000 -0.17700000 3.69450000
1.25300000 1.67590000 -1.35150000
1.02780000 1.67340000 -1.57780000
0.61750000 0.50460000 1.83630000
-0.29040000 0.00440000 3.64760000
0.95480000 1.68090000 -2.41550000
0.82460000 1.61950000 -1.77190000
0.54190000 0.66270000 2.53360000
0.33950000 0.37190000 2.61440000
-0.44450000 -0.10520000 3.61230000
0.88090000 1.59350000 -0.91840000
-0.54860000 -0.05790000 4.28750000
0.99570000 0.93450000 0.96790000
0.91690000 0.89230000 1.36500000
0.93960000 1.02070000 1.46580000
