-5.69320000 -0.82640000 -10.04660000
-5.68730000 -0.65210000 -10.23110000
-5.65160000 -0.72050000 -10.20790000
-6.12540000 -0.61950000 -10.23110000
-6.14860000 -0.71260000 -10.21830000
-6.34290000 -0.25160000 -10.24680000
-5.54140000 0.19560000 -10.26870000
-5.65130000 0.56580000 -10.27590000
-5.49800000 0.78860000 -10.27570000
-5.76710000 0.70810000 -10.26150000
-6.15860000 0.33480000 -10.26230000
-6.08440000 0.71980000 -10.26470000
-6.21580000 0.52710000 -10.24900000
-5.67520000 1.26470000 -10.27590000
-5.73120000 1.05410000 -10.26360000
-6.02870000 1.14950000 -10.27680000
-5.87820000 0.90330000 -10.26510000
-6.27090000 1.54700000 -10.27900000
-6.26960000 1.26470000 -10.27620000
-6.55650000 0.92340000 -10.25980000
-6.50020000 0.77960000 -10.25200000
-6.31270000 0.61890000 -10.23300000
-6.33950000 0.52050000 -10.21970000
-6.27490000 0.33880000 -10.25510000
-6.35520000 0.41700000 -10.23610000
-5.19710000 -0.81460000 -9.56420000
-5.84520000 -0.84360000 -9.13040000
-5.51280000 -0.78150000 -6.85490000
-5.72000000 -0.80630000 -10.13120000
-6.03010000 -0.86210000 -9.81930000
-6.00240000 -0.79570000 -10.16660000
-6.32640000 -0.86900000 -10.10100000
-6.48670000 -0.80420000 -10.19210000
-6.62290000 -0.91500000 -9.98650000
-6.40020000 -0.63320000 -10.23640000
-6.43060000 -0.85270000 -10.15420000
-6.71120000 -0.74940000 -10.21450000
-6.90480000 -0.90260000 -10.13340000
-6.94690000 -0.93960000 -9.28760000
-6.45140000 -0.86560000 -7.65850000
-6.98750000 -0.92690000 -7.76050000
-6.68300000 1.67600000 -10.28000000
-6.56620000 1.33870000 -10.26130000
-6.56280000 1.08970000 -10.25050000
-6.67630000 1.17410000 -10.24430000
-6.85860000 1.03000000 -10.25150000
-6.92410000 1.30640000 -10.25740000
-7.16210000 1.52900000 -10.25420000
-7.24350000 1.34590000 -10.25240000
-7.79200000 1.39350000 -10.22980000
-7.33870000 1.00420000 -10.24160000
-6.48330000 0.53610000 -10.19890000
-6.67900000 0.29220000 -10.24740000
-6.49170000 0.44450000 -10.20760000
-6.66950000 0.46890000 -10.21350000
-6.62670000 0.36920000 -10.23400000
-6.70470000 0.57920000 -10.22680000
-6.97370000 0.46780000 -10.24110000
-6.86520000 -0.10240000 -10.24120000
-6.47970000 0.67530000 -10.23320000
-6.89720000 0.73970000 -10.24890000
-7.34820000 -0.18960000 -10.22820000
-7.63730000 0.74510000 -10.22550000
-7.97640000 0.10900000 -10.20820000
-8.56810000 1.02400000 -10.17040000
-8.34710000 1.42040000 -10.19370000
-8.51710000 0.70420000 -10.17510000
-9.05840000 0.80480000 -10.13450000
-9.06610000 1.21120000 -10.14120000
-8.72880000 1.35390000 -10.16660000
-6.85360000 -0.61800000 -10.22790000
-7.03380000 -0.87250000 -10.17310000
-7.20490000 -0.96180000 -10.04270000
-7.25790000 -0.74500000 -10.20710000
-7.46400000 -0.63130000 -10.21530000
-7.41720000 -0.86580000 -10.18160000
-7.52090000 -0.94940000 -10.14070000
-7.56450000 -0.99840000 -10.05690000
-7.42650000 -0.99220000 -9.90020000
-7.89200000 -1.03720000 -10.08200000
-7.78900000 -0.92660000 -10.17030000
-8.03850000 -1.02910000 -10.12500000
-8.18600000 -0.94830000 -10.16160000
-8.27200000 -0.68570000 -10.17880000
-8.03860000 -0.99190000 -10.14720000
-7.93810000 -1.06190000 -9.88170000
-7.77390000 -1.03030000 -9.77460000
-8.22870000 -1.12000000 -9.91910000
-8.33880000 -1.11820000 -10.07900000
-8.43770000 -1.08920000 -10.12620000
-8.63590000 -1.13210000 -10.12730000
-8.41710000 -1.15760000 -10.03110000
-8.51600000 -1.13780000 -10.10410000
-8.51750000 -1.20740000 -9.81200000
-8.59860000 -1.23670000 -9.98200000
-8.06060000 -0.35420000 -10.20160000
-8.53850000 -0.01310000 -10.17550000
-7.41690000 -0.98990000 -9.31640000
-7.63870000 -1.01160000 -9.64660000
-7.52270000 -1.00150000 -8.81410000
-7.54540000 -0.98220000 -9.09670000
-7.56060000 -0.99640000 -9.51990000
-7.50290000 -0.98510000 -9.33000000
-7.61760000 -0.96190000 -9.22100000
-7.67370000 -0.97610000 -9.47530000
-7.73990000 -0.97360000 -9.53310000
-7.68810000 -0.94360000 -9.33860000
-7.80970000 -0.90480000 -9.39200000
-7.65300000 -0.97820000 -8.98510000
-7.73240000 -0.91240000 -9.21880000
-7.85960000 -0.87440000 -9.21530000
-7.75550000 -0.91470000 -9.08720000
-7.84930000 -0.89850000 -9.05250000
-7.80910000 -1.01130000 -9.64830000
-7.94580000 -1.03970000 -9.68950000
-7.85880000 -0.93980000 -9.50140000
-7.96410000 -0.97730000 -9.55810000
-8.02240000 -0.92680000 -9.45720000
-8.17110000 -1.05310000 -9.53470000
-8.19340000 -1.10380000 -9.66250000
-8.10580000 -0.99780000 -9.50420000
-8.26190000 -1.01070000 -9.39890000
-7.92500000 -0.87740000 -9.36530000
-7.96220000 -0.86080000 -9.23270000
-8.03440000 -0.88700000 -9.36530000
-8.06010000 -0.87250000 -9.24500000
-7.96560000 -0.87470000 -9.10970000
-8.26300000 -0.97200000 -9.29080000
-8.47320000 -1.18640000 -9.63540000
-8.67170000 -0.95620000 -10.14570000
-8.65140000 -1.21020000 -10.08780000
-8.90160000 -1.15750000 -10.12130000
-8.65290000 -1.23820000 -10.05300000
-8.63300000 -1.25940000 -9.79040000
-8.76410000 -1.32370000 -9.99020000
-8.75780000 -1.33440000 -9.85160000
-8.81690000 -1.25360000 -10.10330000
-8.93950000 -1.26250000 -10.09770000
-8.78180000 -1.30870000 -10.04370000
-8.84310000 -1.31340000 -10.06380000
-9.15300000 -0.96680000 -10.11200000
-8.94250000 -0.60320000 -10.14080000
-9.14910000 -0.16290000 -10.13050000
-9.21830000 1.05450000 -10.12960000
-9.22320000 1.18160000 -10.11800000
-9.34800000 0.64280000 -10.10210000
-9.32960000 1.13800000 -10.08780000
-9.38590000 0.90280000 -10.09010000
-9.41500000 1.08410000 -10.05040000
-9.44570000 0.97510000 -10.04410000
-9.44000000 1.11600000 -9.99210000
-9.45920000 0.79730000 -10.05130000
-9.48490000 0.88700000 -9.98750000
-9.49300000 0.99760000 -9.89940000
-9.31460000 0.34190000 -10.11280000
-9.44020000 0.10550000 -10.09750000
-9.45780000 0.43590000 -10.06330000
-9.49850000 0.53550000 -9.99260000
-9.51520000 0.69650000 -9.89100000
-9.53100000 0.60110000 -9.67550000
-9.53090000 0.16030000 -9.95090000
-9.39660000 -0.14020000 -10.10130000
-9.45890000 -0.08740000 -10.07660000
-9.49000000 0.10830000 -10.06270000
-9.50580000 -0.06910000 -10.02820000
-9.37170000 -0.68870000 -10.09450000
-9.46520000 -0.52410000 -10.06980000
-9.50720000 -0.43200000 -10.03150000
-9.53060000 -0.15160000 -9.95370000
-9.51470000 -0.84800000 -10.01810000
-9.39950000 -1.04910000 -10.07560000
-9.45590000 -0.96690000 -10.06070000
-9.53640000 -0.56900000 -9.97590000
-9.56030000 -0.89150000 -9.91700000
-9.55320000 -0.44060000 -9.88890000
-9.56640000 -0.50930000 -9.61580000
-9.54900000 0.06220000 -9.85060000
-9.59300000 -0.17150000 -7.88650000
-9.54480000 0.80950000 -8.45600000
-9.50710000 0.19460000 -10.02600000
-7.67470000 -1.00680000 -8.83890000
-7.79790000 -0.95390000 -8.95270000
-7.82400000 -1.01390000 -8.80570000
-7.95590000 -0.94950000 -8.93250000
-7.75610000 -1.03760000 -8.60300000
-7.92640000 -1.03340000 -8.76550000
-8.05470000 -1.05040000 -8.78640000
-8.01710000 -1.08120000 -8.63240000
-7.54990000 -1.00980000 -7.84970000
-8.00650000 -1.10370000 -7.35620000
-8.33780000 -1.16600000 -8.58940000
-8.02940000 -0.89410000 -9.07410000
-8.12460000 -0.90940000 -9.12370000
-8.13660000 -1.01830000 -8.91000000
-8.34680000 -1.00920000 -9.19380000
-8.30360000 -1.06800000 -8.96970000
-8.46580000 -1.09060000 -9.13190000
-8.49060000 -1.15960000 -9.50870000
-8.46830000 -1.09090000 -9.36950000
-8.61040000 -1.22210000 -9.52050000
-8.59140000 -1.16130000 -9.33250000
-8.69460000 -1.27840000 -9.41570000
-8.62770000 -1.20920000 -9.16690000
-8.51710000 -1.09420000 -9.24960000
-8.52130000 -1.16930000 -9.01870000
-8.22890000 -1.11770000 -8.72660000
-8.42130000 -1.17390000 -8.79710000
-8.53610000 -1.23060000 -8.65600000
-8.72120000 -1.30900000 -9.12400000
-8.75730000 -1.33850000 -9.46500000
-8.80700000 -1.37740000 -8.69680000
-8.87050000 -1.40310000 -8.82580000
-8.58260000 -1.23270000 -8.91400000
-8.68440000 -1.29920000 -8.77700000
-8.60380000 -1.25960000 -8.21870000
-8.40390000 -1.19410000 -8.06690000
-8.68800000 -1.30420000 -7.65900000
-8.81550000 -1.38150000 -8.17020000
-8.57760000 -1.26050000 -7.09420000
-8.82030000 -1.38560000 -7.69310000
-8.79490000 -1.36930000 -7.19580000
-8.93530000 -1.42680000 -8.01890000
-8.88470000 -1.41740000 -7.91860000
-8.93330000 -1.40910000 -9.12000000
-9.19030000 -1.41030000 -8.92180000
-9.06680000 -1.43230000 -7.63090000
-8.90930000 -1.37280000 -9.98060000
-8.98680000 -1.33600000 -10.05260000
-8.88320000 -1.38660000 -9.86480000
-9.02790000 -1.37660000 -9.97940000
-8.91150000 -1.39530000 -9.68340000
-9.02990000 -1.40220000 -9.83480000
-9.17270000 -1.30980000 -10.05420000
-9.20530000 -1.23210000 -10.08190000
-9.13600000 -1.34720000 -10.02610000
-9.18570000 -1.36590000 -9.96610000
-9.29070000 -1.32630000 -9.98540000
-9.37470000 -1.24790000 -10.02910000
-9.42490000 -1.16580000 -10.05110000
-9.20980000 -1.38590000 -9.84800000
-9.34730000 -1.33820000 -9.91870000
-9.34900000 -1.36440000 -9.79510000
-9.46830000 -1.29900000 -9.83910000
-9.37950000 -1.38720000 -9.03210000
-9.42440000 -1.35510000 -9.66480000
-9.49130000 -1.10940000 -10.02910000
-9.50110000 -1.19380000 -9.97310000
-9.44890000 -1.27460000 -9.94270000
-9.52410000 -1.24270000 -9.85450000
-8.82750000 -1.38080000 -9.45960000
-9.50490000 -1.31130000 -9.68550000
-9.45690000 -1.34940000 -9.45320000
-9.51840000 -1.31270000 -9.37510000
-9.54920000 -1.27150000 -9.56950000
-9.57340000 -1.21060000 -9.59220000
-9.55680000 -1.28120000 -9.10060000
-9.58640000 -1.24740000 -8.69070000
-9.50440000 -1.33770000 -9.04900000
-9.60850000 -0.94650000 -8.22240000
-9.54350000 -1.04220000 -9.97420000
-9.56100000 -1.14410000 -9.88540000
-9.57980000 -1.05440000 -9.78990000
-9.54870000 -1.25320000 -9.73810000
-9.58700000 -1.10300000 -9.31720000
-9.49240000 -1.36070000 -8.66710000
-9.60550000 -1.18800000 -8.43590000
-9.54860000 -1.31150000 -8.69800000
-9.49540000 -1.37560000 -8.22810000
-9.54720000 -1.33990000 -8.26940000
-9.32950000 -1.41800000 -7.86110000
-9.46510000 -1.39410000 -7.67160000
-9.58930000 -1.29500000 -8.09730000
-9.59640000 -1.30520000 -7.45310000
-9.61630000 -1.22490000 -7.87550000
-8.94580000 -1.42540000 -7.34940000
-8.89790000 -1.42070000 -7.08910000
-9.15630000 -1.42460000 -7.35050000
-9.40660000 -1.40460000 -7.18980000
-9.54430000 -1.36020000 -7.57010000
-9.57240000 -1.32610000 -7.89680000
-5.03960000 2.10590000 -7.90140000
-4.80950000 2.08770000 -6.20840000
-5.70850000 2.10690000 -8.73470000
-6.18480000 2.08370000 -9.40720000
-6.33060000 2.06390000 -9.16770000
-6.40340000 2.05920000 -9.38950000
-6.33250000 2.07850000 -8.89530000
-6.52630000 2.07200000 -8.38550000
-6.50300000 2.03330000 -9.11280000
-6.59520000 2.05100000 -8.94050000
-5.65240000 2.10050000 -7.18940000
-6.14700000 2.08760000 -6.76670000
-6.68850000 2.05140000 -7.03320000
-5.41380000 2.09060000 -5.84260000
-5.11200000 2.08380000 -4.64570000
-5.62330000 2.08820000 -4.41380000
-5.15960000 2.15240000 -4.12120000
-5.95620000 2.08730000 -4.93380000
-6.57770000 2.05420000 -5.45750000
-6.85550000 2.03860000 -5.31260000
-6.57380000 2.06790000 -4.10010000
-7.07340000 2.01550000 -6.92170000
-6.87610000 1.91050000 -10.25610000
-6.80690000 2.01160000 -9.91190000
-6.76510000 1.99440000 -10.13460000
-6.63890000 2.04560000 -9.55920000
-6.91100000 1.95520000 -10.20140000
-7.01600000 1.75690000 -10.27820000
-6.58080000 2.03830000 -9.42480000
-6.92380000 2.02350000 -9.22980000
-7.17290000 1.98760000 -9.35010000
-6.50390000 2.02740000 -9.24370000
-6.68810000 2.02570000 -9.22980000
-7.42120000 1.80190000 -10.24330000
-7.37430000 1.86920000 -10.19920000
-7.24220000 1.93330000 -10.07410000
-7.47060000 1.87460000 -10.13470000
-7.71690000 1.66140000 -10.24450000
-7.38290000 1.93470000 -9.72430000
-7.74700000 1.84760000 -9.86970000
-7.79610000 1.70400000 -10.23320000
-7.92460000 1.71910000 -10.20330000
-7.93080000 1.75480000 -10.16050000
-7.98080000 1.76950000 -10.06420000
-7.07900000 2.01780000 -8.54000000
-7.50560000 1.94600000 -8.80270000
-7.34020000 1.97740000 -6.81080000
-7.92280000 1.86630000 -6.52850000
-7.84780000 1.85880000 -9.26400000
-8.18670000 1.76610000 -9.13740000
-7.93140000 1.85370000 -8.44940000
-8.21250000 1.65090000 -10.15820000
-8.27750000 1.59200000 -10.17940000
-8.34050000 1.52660000 -10.18870000
-8.45860000 1.59200000 -10.09500000
-8.50240000 1.60230000 -10.01410000
-8.43050000 1.65330000 -9.82470000
-8.19400000 1.73900000 -9.74000000
-8.82130000 1.43510000 -10.10460000
-8.61270000 1.62120000 -9.29070000
-8.80630000 1.39880000 -10.14140000
-8.89030000 1.44790000 -10.02510000
-8.81270000 1.50580000 -9.85090000
-9.15120000 1.27040000 -10.09970000
-9.18060000 1.29900000 -10.04020000
-9.27560000 1.26930000 -9.94030000
-8.99620000 1.44900000 -9.56450000
-9.18660000 1.33330000 -9.78410000
-8.35200000 1.74050000 -8.14760000
-7.49930000 1.96430000 -4.37790000
-8.11440000 1.83230000 -4.39580000
-8.63180000 1.64190000 -8.30910000
-8.60020000 1.67020000 -6.42910000
-8.87930000 1.55880000 -6.01360000
-8.98540000 1.49340000 -8.04960000
-8.38660000 1.75600000 -3.41630000
-8.86870000 1.52930000 -8.98180000
-9.16150000 1.37780000 -9.23940000
-9.35400000 1.25050000 -9.63380000
-9.35380000 1.20090000 -10.01950000
-9.43000000 1.16910000 -9.90690000
-9.43720000 1.19700000 -9.36620000
-9.46700000 1.14220000 -9.73000000
-9.48130000 1.09410000 -9.86050000
-9.49190000 1.12710000 -9.36980000
-9.31700000 1.30080000 -8.38830000
-9.47350000 1.16900000 -8.97270000
-9.51510000 1.04490000 -9.27950000
-9.13790000 1.42700000 -6.91840000
-9.52270000 1.08320000 -8.38870000
-9.52380000 1.10430000 -7.91820000
-9.48750000 1.16060000 -8.38220000
-9.54380000 1.01390000 -7.73550000
-9.50690000 1.10620000 -9.01400000
-9.52570000 1.00740000 -8.87380000
-9.50790000 1.11220000 -8.81750000
-9.43910000 1.21630000 -8.08900000
-6.34850000 -0.82360000 -5.65270000
-7.01670000 -0.91390000 -5.60830000
-7.38760000 -0.98880000 -6.83120000
-6.54320000 -0.84100000 -4.19180000
-6.06680000 -0.80600000 -2.10580000
-7.10290000 -0.94400000 -2.83420000
-7.15580000 -0.93300000 -4.40500000
-7.76930000 -1.05460000 -5.69340000
-8.12590000 -1.14110000 -4.43660000
-8.23950000 -1.16740000 -6.48810000
-7.68210000 -1.03360000 -4.54730000
-7.57080000 -1.02760000 -3.52490000
-5.02880000 1.68110000 -3.98280000
-4.94490000 1.26180000 -4.16800000
-5.05840000 1.39440000 -4.06890000
-5.15030000 1.31800000 -3.99310000
-5.16970000 1.54720000 -3.93630000
-4.97380000 2.14590000 -4.03300000
-4.88010000 2.12760000 -4.01240000
-4.89700000 2.09510000 -3.94220000
-4.91570000 1.87960000 -3.95000000
-4.93340000 2.01430000 -3.88280000
-5.10420000 2.12840000 -3.81650000
-5.08450000 2.09320000 -3.78340000
-5.61930000 2.17020000 -3.45060000
-5.40800000 2.14030000 -4.15540000
-5.70970000 2.10710000 -4.11920000
-5.04590000 1.88000000 -3.85030000
-5.25750000 1.67310000 -3.79250000
-5.25920000 1.78510000 -3.69190000
-5.04780000 2.02970000 -3.78760000
-5.09560000 1.96120000 -3.75180000
-5.31120000 2.15450000 -3.71980000
-5.22850000 2.07240000 -3.61740000
-5.25530000 2.12460000 -3.65750000
-5.22460000 1.88440000 -3.64710000
-5.22000000 2.01150000 -3.60700000
-5.28870000 1.94650000 -3.54200000
-5.40090000 2.10950000 -3.45930000
-5.33730000 2.04070000 -3.47830000
-5.71790000 2.16700000 -3.64910000
-5.51290000 2.16000000 -3.46190000
-5.46700000 2.13950000 -3.43830000
-5.91390000 2.13510000 -3.72730000
-6.20330000 2.10870000 -3.50870000
-6.44570000 2.08690000 -3.41900000
-5.09740000 1.22620000 -4.00400000
-5.05550000 1.15890000 -3.94640000
-5.19930000 1.27520000 -3.93500000
-5.28930000 1.44580000 -3.86370000
-5.30650000 1.38140000 -3.85020000
-5.13690000 1.15910000 -3.79330000
-5.23790000 1.23180000 -3.84570000
-5.24880000 1.18550000 -3.61540000
-5.27260000 1.21080000 -3.74420000
-5.32910000 1.30750000 -3.79920000
-5.41210000 1.28140000 -3.64320000
-5.36620000 1.23170000 -3.61490000
-5.41550000 1.50870000 -3.71600000
-5.39450000 1.71750000 -3.60820000
-5.48560000 1.61760000 -3.56410000
-5.41810000 1.39030000 -3.72290000
-5.52800000 1.38100000 -3.55570000
-5.37020000 1.86740000 -3.50720000
-5.37910000 2.04210000 -3.41780000
-5.39580000 1.98200000 -3.39020000
-5.45990000 1.94200000 -3.34610000
-5.53190000 1.44700000 -3.56670000
-5.52370000 1.52210000 -3.56290000
-5.64340000 1.63810000 -3.33090000
-5.54070000 1.85070000 -3.31760000
-5.64340000 1.91240000 -3.07570000
-5.69920000 1.78220000 -3.11590000
-5.27060000 1.23840000 -3.37160000
-5.42090000 1.24620000 -3.42600000
-5.53340000 1.30300000 -3.41430000
-5.58700000 1.35630000 -3.41540000
-5.44810000 1.27870000 -3.30540000
-5.49890000 1.35000000 -3.13780000
-5.62400000 1.36550000 -3.15970000
-5.63100000 1.51510000 -3.40260000
-5.69040000 1.45420000 -3.28790000
-5.77970000 1.64060000 -3.10140000
-5.70340000 1.41650000 -3.19790000
-5.78760000 1.53760000 -3.11510000
-5.77130000 1.46150000 -2.99100000
-5.80990000 1.50700000 -3.03340000
-5.85130000 1.63700000 -2.97010000
-6.08740000 2.16770000 -3.23460000
-5.46010000 2.07190000 -3.35250000
-5.51290000 1.98950000 -3.26940000
-5.58720000 2.13940000 -3.24700000
-5.59600000 2.09170000 -3.14700000
-5.58710000 2.02790000 -3.12950000
-5.57660000 1.96050000 -3.15500000
-5.79370000 2.16260000 -2.92810000
-5.76080000 2.04910000 -2.79830000
-5.71600000 2.12960000 -2.97280000
-6.17810000 2.18680000 -2.51500000
-5.54650000 1.59650000 -2.74240000
-5.43560000 1.74450000 -2.58900000
-5.77240000 1.98410000 -2.76140000
-5.82860000 1.81530000 -2.85170000
-5.78410000 1.94070000 -2.75720000
-5.88760000 1.87340000 -2.60400000
-5.79500000 2.12650000 -2.75780000
-5.86030000 2.15490000 -2.69750000
-6.06260000 2.18330000 -2.38540000
-5.82950000 2.09530000 -2.67490000
-5.87680000 2.02560000 -2.54250000
-5.92360000 2.11410000 -2.50920000
-5.96940000 2.16740000 -2.51440000
-6.38780000 2.15620000 -2.82170000
-6.55270000 2.11860000 -2.71920000
-6.45500000 2.17890000 -2.30950000
-6.97620000 2.05250000 -2.75710000
-7.23270000 2.02270000 -2.52940000
-5.60770000 1.46120000 -2.90240000
-5.73730000 1.48250000 -2.83660000
-5.86930000 1.59030000 -2.92700000
-5.88830000 1.57260000 -2.80940000
-5.83510000 1.53130000 -2.77080000
-5.54780000 1.76950000 -2.47200000
-5.56550000 1.72310000 -2.56560000
-5.68000000 1.56600000 -2.69110000
-5.68870000 1.67230000 -2.54420000
-5.83860000 1.61060000 -2.54660000
-5.82050000 1.67070000 -2.43920000
-5.61700000 1.79610000 -2.34060000
-5.64090000 1.88330000 -2.09170000
-5.77140000 1.73710000 -2.39010000
-5.82240000 1.80790000 -2.27820000
-5.75500000 1.84590000 -2.22240000
-5.89660000 1.86460000 -2.15500000
-5.78620000 1.91140000 -2.04660000
-5.92330000 1.63420000 -2.76070000
-5.95100000 1.77240000 -2.61120000
-5.94410000 1.70920000 -2.68750000
-5.95370000 1.65550000 -2.57410000
-5.96810000 1.68520000 -2.58220000
-5.94060000 1.66290000 -2.45940000
-5.87340000 1.93160000 -2.53890000
-5.92690000 2.04480000 -2.42710000
-5.97130000 2.09930000 -2.35200000
-5.91800000 1.95390000 -2.37940000
-5.95820000 1.89380000 -2.36370000
-5.92090000 1.98290000 -2.32430000
-5.99330000 1.75170000 -2.49140000
-6.00180000 1.80600000 -2.40350000
-5.91370000 1.70130000 -2.35520000
-5.91980000 1.76670000 -2.26730000
-5.99940000 1.73320000 -2.38950000
-6.01300000 1.79050000 -2.31480000
-5.94730000 1.92000000 -2.27590000
-5.94470000 2.00980000 -2.24460000
-5.94470000 1.95390000 -2.22290000
-5.98700000 1.89100000 -2.19560000
-6.00630000 1.83830000 -2.29070000
-5.97830000 1.73870000 -2.30970000
-5.99420000 1.83320000 -2.21080000
-5.95660000 1.85100000 -2.15450000
-6.01860000 1.88820000 -2.10800000
-6.14140000 2.16970000 -2.05320000
-6.00360000 2.07700000 -2.21220000
-6.10130000 2.12340000 -2.01420000
-5.97430000 1.99210000 -2.16310000
-6.00830000 1.97520000 -2.12240000
-6.04230000 2.06230000 -2.09350000
-6.41780000 2.18990000 -1.51120000
-5.86240000 1.96170000 -1.80520000
-5.90330000 1.98170000 -1.52870000
-5.90280000 1.94480000 -1.87640000
-5.90010000 1.89930000 -2.01910000
-5.97450000 1.91150000 -1.92240000
-6.00120000 1.95480000 -1.83410000
-6.02430000 1.98600000 -1.61430000
-6.00340000 1.88770000 -2.00150000
-6.04620000 1.97620000 -2.06520000
-6.07300000 2.00350000 -1.91640000
-6.05430000 1.95110000 -1.95590000
-6.03760000 1.93310000 -1.88370000
-6.12020000 2.08150000 -1.84790000
-6.13130000 2.03560000 -1.71160000
-6.22450000 2.14150000 -1.68530000
-6.06700000 1.98330000 -1.77370000
-6.17000000 2.10000000 -1.71690000
-6.52730000 2.18690000 -1.54660000
-6.19660000 2.02550000 -1.38250000
-6.30650000 2.08300000 -1.22340000
-6.26690000 2.10300000 -1.44780000
-6.37090000 2.16150000 -1.34800000
-6.75610000 2.08820000 -2.41190000
-6.61080000 2.15160000 -2.28070000
-6.71350000 2.16520000 -1.63270000
-6.77050000 2.12610000 -1.90550000
-6.99820000 2.06470000 -1.58800000
-6.10370000 1.99660000 -1.39080000
-6.08910000 2.01410000 -0.90730000
-6.21520000 2.02850000 -0.79420000
-6.29210000 2.05100000 -0.94400000
-6.90560000 2.12710000 -1.29040000
-7.72230000 1.92580000 -3.79360000
-7.59900000 1.96570000 -2.22070000
-7.95950000 1.88830000 -2.09390000
-8.11370000 1.85290000 -1.02960000
-7.69410000 1.95120000 -0.70340000
-8.62680000 1.67750000 -1.46900000
-8.64540000 1.65820000 -3.60550000
-8.89010000 1.55030000 -3.73960000
-9.10030000 1.44190000 -4.18300000
-9.29900000 1.33150000 -5.90350000
-9.47560000 1.20370000 -5.65730000
-9.51980000 1.16090000 -5.85550000
-9.55580000 1.10880000 -5.46720000
-9.49260000 1.17250000 -7.49700000
-9.53040000 1.10810000 -7.26740000
-9.56180000 0.98310000 -6.90670000
-9.60910000 0.39960000 -5.97420000
-9.41430000 1.25480000 -7.01760000
-9.52700000 1.14640000 -6.99470000
-9.48520000 1.20260000 -6.67580000
-9.55180000 1.09070000 -6.84420000
-9.52550000 1.15710000 -6.68190000
-9.58090000 0.82590000 -6.29600000
-9.54540000 1.12540000 -6.50590000
-9.56400000 1.07390000 -6.04710000
-9.52670000 1.15750000 -6.19490000
-9.57920000 1.02120000 -5.47420000
-8.48030000 -1.24210000 -5.79630000
-8.79330000 -1.38060000 -6.48670000
-8.70770000 -1.32770000 -6.17940000
-8.60870000 -1.28670000 -5.29570000
-8.90110000 -1.44110000 -6.49670000
-9.00910000 -1.45040000 -6.74640000
-9.23730000 -1.45380000 -6.48940000
-9.34990000 -1.42510000 -6.90390000
-9.52620000 -1.38140000 -7.07030000
-9.50620000 -1.41450000 -6.48920000
-9.63070000 -1.26580000 -6.79380000
-9.61680000 -1.28990000 -7.03580000
-9.58230000 -1.34680000 -6.98130000
-9.65800000 -1.03790000 -5.95310000
-9.69490000 -0.72270000 -3.13350000
-8.87590000 -1.44050000 -6.05180000
-8.97230000 -1.46960000 -5.94010000
-8.70700000 -1.33090000 -5.22080000
-8.79080000 -1.38770000 -5.78520000
-8.85320000 -1.42510000 -5.43470000
-8.82110000 -1.39340000 -5.07910000
-8.95280000 -1.46990000 -5.50130000
-9.07340000 -1.47720000 -5.84630000
-8.93580000 -1.45290000 -5.32530000
-9.57020000 -1.37860000 -6.52430000
-9.44320000 -1.44130000 -6.23990000
-9.61460000 -1.32580000 -6.57610000
-9.64670000 -1.26610000 -6.12270000
-9.63710000 -1.18430000 -6.96840000
-9.42890000 -1.45870000 -5.60790000
-9.58320000 -1.38700000 -6.10310000
-9.54470000 -1.42400000 -5.69310000
-9.23930000 -1.47520000 -5.69420000
-9.59420000 -1.40120000 -5.50880000
-9.61880000 -1.36180000 -5.80930000
-9.61900000 -1.34440000 -6.15050000
-9.63510000 -1.32530000 -5.94570000
-9.66050000 -1.30440000 -5.28190000
-9.67690000 -1.23590000 -4.90690000
-9.61280000 0.71440000 -5.02250000
-9.52620000 1.15520000 -5.26590000
-9.68960000 -1.01970000 -4.18920000
-9.63640000 0.23740000 -4.41460000
-9.65360000 -0.07970000 -4.40690000
-9.62380000 -1.23850000 -7.29860000
-9.22430000 1.36350000 -3.85220000
-9.44520000 1.22020000 -5.02180000
-9.56840000 1.09040000 -5.03550000
-9.50990000 1.16440000 -4.81080000
-9.55940000 1.11230000 -4.82430000
-9.59270000 1.01070000 -4.95490000
-9.40390000 1.24190000 -3.89060000
-9.55220000 1.11660000 -4.50140000
-9.50750000 1.16180000 -3.95230000
-9.58450000 1.05760000 -4.65540000
-9.61110000 0.86360000 -4.38310000
-9.59850000 1.02500000 -4.35610000
-9.55660000 1.11840000 -3.29590000
-9.64400000 0.37010000 -3.98800000
-9.57490000 1.09010000 -4.18210000
-9.60780000 1.00340000 -3.93930000
-9.55330000 1.11620000 -3.95510000
-9.58520000 1.07600000 -3.76140000
-9.60400000 1.03590000 -3.37480000
-9.63300000 0.84880000 -3.14220000
-9.67390000 0.46110000 -2.17030000
-9.60230000 1.05930000 -3.04710000
-8.89340000 1.55760000 -2.08910000
-9.22070000 1.37270000 -1.89190000
3.82480000 -1.97440000 3.49940000
3.87820000 -1.59680000 3.07970000
3.82690000 -1.84560000 3.98890000
3.92250000 -0.83770000 4.55290000
3.83860000 -2.01370000 1.72710000
3.73490000 -2.09960000 1.37920000
3.78130000 -2.07730000 1.56780000
3.72000000 -2.10750000 2.11750000
3.87250000 -1.88210000 1.82760000
3.80080000 -2.05890000 1.95500000
3.84540000 -1.98070000 2.20140000
3.78000000 -2.07360000 2.51230000
3.06650000 -2.07650000 1.45960000
3.09940000 -2.09980000 2.24960000
2.88470000 -1.92770000 1.70360000
2.94040000 -1.98810000 1.87220000
3.01190000 -2.05890000 1.89030000
2.99760000 -2.05500000 2.34140000
3.84240000 -1.95400000 2.69680000
3.82150000 -2.02530000 2.48500000
4.01050000 -0.21850000 3.43370000
3.80200000 -2.03910000 3.09900000
3.74990000 -2.09170000 3.18420000
3.67790000 -2.12430000 3.15310000
3.55810000 -2.14010000 3.17400000
3.78210000 -2.05850000 3.61390000
3.01340000 -2.08200000 2.78290000
2.96370000 -2.04350000 2.72860000
2.88310000 -1.96500000 2.66520000
2.74110000 -1.89250000 3.25850000
2.59980000 -1.81840000 2.79490000
2.92430000 -2.00610000 3.00310000
3.02570000 -2.09350000 3.34960000
3.07130000 -2.11290000 3.66880000
2.96490000 -2.05610000 3.28570000
2.81540000 -1.95000000 3.93830000
3.79810000 -2.01190000 3.87670000
3.75480000 -2.07740000 4.01320000
3.69860000 -2.11530000 4.02580000
3.79120000 -1.98660000 4.50790000
3.76620000 -2.04940000 4.49440000
3.66570000 -2.12690000 4.41230000
3.60200000 -2.14230000 4.00190000
3.72700000 -2.09460000 4.53140000
3.51490000 -2.14730000 4.02140000
3.66600000 -2.12940000 4.71660000
3.59900000 -2.14670000 4.86900000
3.30860000 -2.14820000 4.88350000
3.08050000 -2.13610000 5.19250000
2.90910000 -2.00490000 3.54990000
2.96760000 -2.06970000 3.99260000
2.89640000 -2.02490000 4.56890000
3.01030000 -2.10540000 4.39680000
2.28720000 -1.68980000 2.48500000
1.75080000 -1.51270000 3.00500000
2.17130000 -1.70400000 4.58400000
1.00840000 -1.27290000 2.47250000
0.89220000 -1.23490000 2.17020000
1.58530000 -1.52200000 5.07980000
0.95390000 -1.23110000 1.23490000
1.01490000 -1.25740000 1.75980000
0.90850000 -1.20600000 1.56750000
0.77120000 -1.17760000 1.30230000
0.76110000 -1.12750000 1.55630000
0.78300000 -1.12470000 1.72350000
0.50020000 -1.11570000 1.12160000
0.68020000 -1.13490000 1.35940000
0.56570000 -1.08920000 1.42980000
0.68920000 -1.08710000 1.67180000
0.51570000 -1.07610000 1.52180000
-0.08390000 -1.01230000 0.96180000
0.26740000 -1.06710000 1.27150000
0.87630000 -1.19810000 1.83230000
0.74080000 -1.11760000 1.87530000
0.75820000 -1.18200000 2.12770000
0.65530000 -1.12970000 2.09360000
0.65180000 -1.08180000 1.81810000
0.44360000 -1.08180000 1.77620000
0.58210000 -1.14000000 2.30860000
0.44820000 -1.10370000 2.14970000
0.38430000 -1.12180000 2.41910000
0.80800000 -1.22620000 2.74080000
0.08120000 -1.05390000 1.87270000
-0.18670000 -0.99440000 1.67770000
-0.46070000 -0.95190000 1.14210000
-0.43420000 -0.94010000 1.68980000
-0.38320000 -0.97950000 2.11460000
-0.69700000 -0.93570000 1.90590000
1.02040000 -1.35130000 4.54950000
0.34590000 -1.18950000 4.34290000
-0.14870000 -1.05450000 3.11380000
-0.82550000 -0.99450000 4.09530000
-1.18540000 -0.89810000 2.23300000
-0.90990000 -0.90460000 1.24140000
-0.61070000 -0.92830000 1.42870000
-3.45310000 -0.74840000 1.62430000
-2.12780000 -0.82270000 2.62790000
-2.91540000 -0.78470000 2.65760000
-4.16810000 -0.70780000 -0.80950000
-4.90920000 -0.72130000 -1.01310000
-4.40360000 -0.73010000 0.33420000
-5.04010000 -0.76110000 0.89050000
-4.87390000 -0.69490000 -1.94050000
-5.08580000 -0.68900000 -2.03350000
-5.21640000 -0.71530000 -1.88160000
-5.46310000 -0.76330000 -0.63660000
-6.04490000 -0.82960000 0.29600000
-6.66860000 -0.89690000 -0.24160000
-4.30320000 -0.73380000 1.43340000
-4.22600000 -0.73590000 1.67010000
-4.57280000 -0.73490000 1.38320000
-4.81060000 -0.75040000 1.49080000
-3.84280000 -0.74470000 2.11910000
-4.34300000 -0.73060000 1.82260000
-4.02900000 -0.76910000 2.89380000
-4.48000000 -0.74580000 1.96370000
-4.43450000 -0.70970000 1.65190000
-4.58090000 -0.71310000 1.64950000
-4.77330000 -0.74920000 1.75530000
-5.70200000 -0.82950000 2.28830000
-5.12290000 -0.81570000 3.34510000
-7.16740000 -0.99190000 1.56480000
-7.22270000 -0.99130000 -0.00290000
-6.52750000 -0.92090000 2.96170000
-6.84240000 -0.90350000 -2.12900000
-8.03290000 -1.11020000 -4.00700000
-8.01730000 -1.12770000 -3.63110000
-8.52610000 -1.26750000 -3.90680000
-8.71710000 -1.33360000 -4.07440000
-8.44630000 -1.26590000 -3.11460000
-7.85390000 -1.10730000 -2.74990000
-8.33180000 -1.23010000 -2.00760000
-8.95500000 -1.48970000 -3.25890000
-9.01410000 -1.50480000 -3.56460000
-8.93570000 -1.47390000 -4.23320000
-8.88920000 -1.45160000 -3.92380000
-8.72040000 -1.35120000 -3.24910000
-8.80020000 -1.38680000 -3.85210000
-8.64390000 -1.31620000 -2.27370000
-8.76020000 -1.36250000 -2.42590000
-8.87070000 -1.43830000 -3.06120000
-9.02940000 -1.50930000 -2.61120000
-9.08340000 -1.52560000 -1.98690000
-9.29150000 -1.51030000 -2.91770000
-9.11430000 -1.50680000 -3.80320000
-8.86590000 -1.42520000 -2.25690000
-8.94340000 -1.47910000 -2.36800000
-9.23260000 -1.52950000 -1.92980000
-7.25650000 -0.96880000 -1.42900000
-7.32760000 -0.98970000 -1.04400000
-7.75300000 -1.08130000 -1.75770000
-8.38940000 1.76360000 -0.69470000
-8.78030000 1.60100000 -0.03540000
-9.02770000 1.46990000 0.05460000
-9.20220000 1.36540000 0.00250000
-7.50170000 -1.00970000 -1.18440000
-7.76680000 -1.08660000 -0.96050000
-7.79710000 -1.11130000 -0.08880000
-8.20490000 -1.20540000 -0.55130000
-8.72640000 -1.34130000 -1.77600000
-8.56170000 -1.29410000 -1.40410000
-8.81370000 -1.39480000 -1.31300000
-9.00380000 -1.51260000 -1.72420000
-9.48200000 -1.50910000 -2.42030000
-9.39690000 -1.52930000 -1.15390000
-8.95080000 -1.49350000 -0.69100000
-8.53660000 -1.30760000 -0.41860000
-8.74110000 -1.36930000 -0.84940000
-8.81240000 -1.41280000 0.03390000
-8.87420000 -1.44310000 -0.39060000
-9.01800000 -1.53420000 0.08100000
-9.08350000 -1.54490000 -0.13310000
-9.20870000 -1.54460000 -0.52730000
-9.59930000 -1.49270000 -2.00810000
-9.52820000 -1.51700000 -1.22900000
-9.63810000 -1.48170000 -1.58000000
-9.67350000 -1.45250000 -1.82960000
-9.73140000 -1.36880000 -1.11660000
-9.74270000 -1.25900000 -1.21060000
-9.72650000 -1.35010000 -1.95450000
-9.71040000 -1.39900000 -1.97270000
-9.69260000 -1.44040000 -1.47190000
-9.61490000 -1.49370000 -1.02230000
-9.72770000 -1.06030000 -2.11400000
-9.74950000 -1.03660000 -0.78760000
-9.75100000 -0.88880000 -0.08150000
-9.66120000 -1.46930000 -1.04200000
-9.70790000 -1.42090000 -1.08410000
-9.73530000 -0.46290000 -0.28320000
-9.68670000 0.57370000 -0.67130000
-9.69250000 -0.13300000 -2.37630000
-8.80350000 -1.38380000 -4.70620000
-8.88300000 -1.42600000 -5.16580000
-9.00740000 -1.42990000 -5.15400000
-8.93620000 -1.43750000 -5.00850000
-8.92680000 -1.45690000 -4.71950000
-9.09250000 -1.42160000 -4.91280000
-9.05900000 -1.47480000 -4.65890000
-9.06950000 -1.45560000 -4.78510000
-9.31090000 -1.47070000 -5.35780000
-9.08240000 -1.45680000 -5.31120000
-9.16130000 -1.40480000 -5.12970000
-9.10440000 -1.40540000 -5.04910000
-9.30910000 -1.44130000 -5.19410000
-9.29800000 -1.39850000 -4.93740000
-9.37400000 -1.41480000 -4.99200000
-9.64390000 -1.35570000 -5.10410000
-9.49600000 -1.45530000 -5.25650000
-9.60370000 -1.40260000 -5.19640000
-9.51590000 -1.43320000 -5.01540000
-9.56490000 -1.43160000 -5.13690000
-9.60500000 -1.40060000 -4.89950000
-9.20490000 -1.40690000 -4.82460000
-9.01850000 -1.49110000 -4.38120000
-9.28620000 -1.48790000 -4.42430000
-9.22390000 -1.45210000 -4.66610000
-9.36650000 -1.42770000 -4.72090000
-9.48730000 -1.42420000 -4.82510000
-9.44340000 -1.46690000 -4.52490000
-9.53440000 -1.43540000 -4.67370000
-9.53880000 -1.45420000 -4.40760000
-9.60500000 -1.40950000 -4.62220000
-9.61960000 -1.41110000 -4.31740000
-9.64870000 -1.36820000 -4.56040000
-9.67000000 -1.32610000 -4.51250000
-9.37240000 -1.49530000 -3.71370000
-9.46590000 -1.47820000 -4.09350000
-9.56810000 -1.45060000 -4.01770000
-9.69030000 -1.27400000 -4.04690000
-9.67000000 -1.35640000 -4.03900000
-9.64260000 -1.40490000 -3.91660000
-9.49860000 -1.48150000 -3.40190000
-9.55380000 -1.46240000 -3.66540000
-9.60930000 -1.43780000 -3.73150000
-9.71170000 -1.24430000 -3.26920000
-9.59610000 -1.46700000 -2.89940000
-9.66790000 -1.38330000 -3.69180000
-9.64320000 -1.41400000 -3.51900000
-9.69840000 -1.32800000 -3.41260000
-9.68840000 -1.37750000 -3.06800000
-9.65460000 -1.42910000 -2.86590000
-9.71500000 -1.34100000 -2.56120000
-9.63670000 0.94160000 -2.52620000
-9.62380000 0.99810000 -2.98920000
-9.48940000 1.17810000 -2.46550000
-9.56630000 1.11040000 -2.78400000
-9.58730000 1.08330000 -2.44660000
-9.60290000 1.06010000 -2.78940000
-9.62260000 1.00780000 -2.47910000
-9.43820000 1.20930000 -0.91150000
-9.56040000 1.11580000 -1.79580000
-9.61560000 1.05430000 -1.96840000
-9.64030000 0.99430000 -1.94900000
-9.65850000 0.87770000 -1.56460000
-9.62840000 1.02330000 -1.31060000
-9.59600000 1.07350000 -1.24150000
-9.64980000 0.95430000 -1.24980000
-9.58710000 1.08180000 -0.68350000
-9.63290000 1.01850000 -0.87600000
-9.72520000 -1.27830000 -2.38280000
-9.66870000 -1.43600000 -2.44780000
-9.62930000 -1.47110000 -2.35710000
-9.70230000 -1.38980000 -2.39850000
-9.67330000 -1.44320000 -2.18420000
-9.66870000 0.86700000 -0.70120000
-9.65070000 0.98180000 -0.67140000
-7.61850000 -1.08290000 1.49320000
-8.17790000 -1.20480000 1.11060000
-8.01130000 -1.18580000 2.42810000
-8.29620000 -1.24030000 1.44190000
-8.27230000 -1.23080000 0.77020000
-8.73350000 -1.37950000 0.20520000
-8.50120000 -1.30090000 0.66770000
-8.73610000 -1.38660000 0.75130000
-8.58850000 -1.30450000 1.00290000
-8.86460000 -1.44750000 1.00090000
-8.42940000 -1.24750000 1.06880000
-8.55210000 -1.28200000 1.21940000
-8.48840000 -1.27660000 1.34410000
-8.47120000 -1.32310000 3.00230000
-8.69660000 -1.35060000 1.11630000
-9.01700000 -1.54740000 1.17630000
-8.94790000 -1.50710000 0.49260000
-8.97090000 -1.52990000 1.43180000
-8.74090000 -1.39030000 1.57130000
-8.54930000 -1.32140000 1.60230000
-8.57210000 -1.34200000 2.04170000
-8.88800000 -1.47100000 1.54490000
-8.88450000 -1.47740000 2.56330000
-8.99000000 -1.54530000 2.21330000
-9.14990000 -1.58000000 1.73890000
-9.04720000 -1.56590000 1.60390000
-9.38580000 -1.55220000 0.02430000
-9.34420000 -1.53400000 -0.36120000
-9.53180000 -1.52560000 -0.15420000
-9.55460000 -1.50340000 -0.57980000
-9.65620000 -1.47110000 -0.60530000
-9.68730000 -1.44870000 -0.78030000
-9.71720000 -1.41910000 -0.58810000
-9.66370000 -1.47740000 -0.33220000
-9.73760000 -1.40650000 -0.32930000
-9.74460000 -1.34930000 -0.61410000
-9.75870000 -1.29560000 -0.30230000
-9.70270000 -1.46980000 -0.08920000
-9.26370000 -1.58300000 1.95350000
-9.56770000 -1.54210000 0.49250000
-9.75610000 -1.37190000 -0.15980000
-9.76990000 -1.18090000 0.19880000
-9.65040000 -1.51340000 0.18710000
-9.74080000 -1.43100000 0.01370000
-9.71400000 -1.47490000 0.19030000
-9.75370000 -1.40920000 0.23470000
-9.76650000 -1.35330000 0.48900000
-9.76980000 -1.13340000 0.72970000
-9.72930000 0.15650000 0.97710000
-9.76090000 -0.76030000 1.07580000
-9.66650000 -1.51060000 0.54790000
-9.48710000 -1.57590000 2.07760000
-9.67160000 -1.52080000 1.00510000
-9.71380000 -1.48170000 0.64450000
-9.75400000 -1.44320000 0.82260000
-9.71580000 -1.49550000 1.14310000
-9.77580000 -1.37380000 0.84610000
-9.79560000 -1.33480000 2.03360000
-9.78570000 -1.19810000 1.32140000
-9.59120000 -1.55820000 1.70870000
-9.75430000 -1.46060000 1.46020000
-9.78130000 -1.40870000 1.67890000
-9.79000000 -0.88480000 2.72210000
-9.73290000 -1.45290000 0.41690000
-9.06380000 -1.57650000 2.21120000
-9.69930000 -1.52120000 1.68180000
-9.66910000 -1.54620000 2.00870000
-9.74180000 -1.49810000 1.96480000
-9.77550000 -1.45290000 2.17580000
-9.61290000 -1.56630000 2.57910000
-9.70780000 -1.52700000 2.13650000
-9.74150000 -1.50150000 2.24590000
3.68870000 -1.99610000 8.61950000
3.73790000 -1.71060000 8.23330000
3.74650000 -1.36430000 8.99190000
3.65890000 -2.07700000 8.63620000
3.67490000 -2.00100000 8.97200000
3.64900000 -2.07430000 8.97630000
3.61420000 -2.12450000 8.69720000
3.67860000 -1.85300000 9.11990000
3.60290000 -2.12160000 9.02380000
3.64230000 -2.05400000 9.10720000
3.64520000 -1.99260000 9.17060000
3.56190000 -2.10740000 9.16400000
3.53540000 -2.14190000 9.08420000
3.58320000 -2.04990000 9.22360000
3.48810000 -2.09940000 9.22680000
3.49810000 -2.03040000 9.27050000
3.68980000 -1.62070000 9.17430000
3.74920000 -1.18510000 9.11900000
3.75390000 -1.02440000 9.17570000
3.70910000 -1.23540000 9.21440000
3.69710000 -1.13360000 9.25130000
3.72900000 -0.92560000 9.23830000
3.66720000 -1.58660000 9.21920000
3.61910000 -1.79720000 9.24810000
3.61840000 -1.55420000 9.25680000
3.55350000 -1.68750000 9.27350000
3.63880000 -1.92000000 9.22080000
3.58890000 -1.93550000 9.27130000
3.54320000 -1.90230000 9.28620000
4.09000000 0.38640000 2.17320000
4.06430000 0.38940000 2.70050000
4.07050000 0.21460000 2.73850000
4.07730000 0.33460000 2.70880000
3.75420000 0.63960000 3.97490000
3.39050000 0.94220000 2.56440000
3.09500000 1.10030000 2.80810000
4.07220000 0.28820000 3.06990000
4.06140000 0.35030000 3.22000000
4.03340000 0.42570000 2.98910000
3.97230000 0.48450000 3.20130000
4.06110000 0.24710000 3.30800000
4.04700000 0.18330000 3.43240000
3.90230000 0.51430000 4.02810000
4.04220000 0.39520000 3.31320000
4.05620000 0.36500000 3.47660000
4.02340000 0.42430000 3.53120000
4.06100000 0.30460000 3.60900000
4.04470000 0.37940000 3.67010000
4.04890000 0.33770000 3.99730000
3.99390000 0.42810000 4.00560000
3.37770000 0.91180000 3.45440000
3.57180000 0.75810000 4.26190000
2.07260000 1.54140000 1.47130000
1.93060000 1.61440000 1.37170000
1.77980000 1.70480000 1.07080000
1.43160000 1.74170000 1.15680000
1.67750000 1.73080000 1.30100000
1.86870000 1.66210000 1.47750000
1.74620000 1.71170000 1.69780000
1.54710000 1.73490000 1.78240000
1.33850000 1.70460000 1.60410000
1.08720000 1.67240000 1.72050000
2.68740000 1.31000000 2.56430000
2.45640000 1.37300000 3.45020000
2.22910000 1.45780000 3.06880000
1.98890000 1.57460000 2.23190000
1.83110000 1.68260000 1.91140000
2.05140000 1.51890000 3.01300000
1.89130000 1.64710000 2.23550000
1.81110000 1.68020000 2.56480000
1.69350000 1.70010000 2.95470000
1.86070000 1.63510000 3.08570000
1.56820000 1.71060000 3.17530000
2.88830000 1.17710000 3.75350000
1.94210000 1.56620000 3.33230000
2.66590000 1.27440000 3.95960000
1.77840000 1.67160000 3.19350000
1.44250000 1.70390000 3.43620000
1.39670000 1.70050000 2.52550000
1.77490000 1.64350000 3.92130000
1.66430000 1.67920000 3.95360000
1.29950000 1.67860000 3.74000000
1.25290000 1.66670000 3.08350000
1.23550000 1.67490000 2.09140000
1.08420000 1.65050000 3.98990000
0.61530000 1.65420000 4.21610000
-0.32800000 1.68770000 4.25180000
-1.73100000 1.77780000 0.82940000
-2.00880000 1.76290000 2.68560000
-3.34880000 1.85280000 0.65070000
-5.87920000 2.01950000 -0.38230000
-5.66080000 1.99530000 0.79270000
-6.48810000 2.15980000 -0.81380000
-6.47060000 2.11530000 -0.41300000
-6.55440000 2.17720000 -0.79450000
-6.39170000 2.07370000 -0.27990000
-6.26810000 2.04590000 -0.01660000
-6.76830000 2.16570000 -0.00450000
-6.62900000 2.14830000 -0.03210000
-6.90760000 2.16140000 -0.31140000
-6.97380000 2.14430000 -0.62620000
-7.11770000 2.06000000 -0.85740000
-7.05510000 2.10530000 -0.66890000
-7.26550000 2.02780000 -0.52780000
3.99700000 -0.19180000 4.10980000
4.05540000 0.28860000 3.94990000
4.04690000 0.27140000 4.40290000
4.03500000 0.34810000 4.35920000
4.02690000 0.17800000 4.65410000
3.99620000 -0.10380000 4.52560000
3.97460000 -0.08290000 4.77280000
3.97090000 -0.30420000 4.59840000
3.95730000 -0.40350000 4.81790000
3.95000000 -0.22420000 4.86070000
3.95640000 -0.10720000 4.99630000
3.95690000 -0.29600000 5.12000000
3.91170000 -0.73630000 5.49430000
4.02780000 0.33670000 4.82030000
4.00910000 0.38940000 4.56990000
3.98580000 0.41010000 4.83770000
3.92960000 0.45980000 5.01820000
4.02610000 0.27540000 4.96560000
3.99920000 0.07790000 4.97500000
4.00650000 0.16660000 5.24990000
3.97820000 -0.08310000 5.18170000
4.00980000 0.32910000 5.22370000
3.99110000 0.38380000 5.20560000
3.88340000 0.47920000 5.35220000
3.65710000 0.66660000 5.12070000
3.56110000 0.71200000 5.37460000
4.00810000 0.22000000 5.47210000
4.00240000 0.34410000 5.53670000
4.01740000 0.27950000 5.53400000
3.97120000 0.38060000 5.62440000
4.00490000 0.29580000 5.74590000
4.00500000 0.17190000 5.76710000
3.96880000 -0.12660000 5.67310000
3.89960000 0.44140000 5.62230000
3.68020000 0.59340000 5.46430000
3.77290000 0.51940000 5.50980000
4.00150000 0.24630000 5.95490000
3.98580000 0.27580000 6.08880000
3.98060000 0.09060000 6.29730000
3.91880000 0.37180000 5.96570000
3.77550000 0.48050000 5.75160000
3.67390000 0.54040000 5.65600000
3.59510000 0.60820000 5.64000000
3.65990000 0.53130000 5.82790000
3.55060000 0.65520000 5.71890000
3.60160000 0.58020000 5.88240000
3.82520000 0.39910000 6.14220000
3.58130000 0.62820000 5.96750000
3.70360000 0.49270000 6.06630000
3.78790000 0.44950000 6.25810000
3.60010000 0.64120000 6.09140000
3.49490000 0.73730000 6.01740000
3.37170000 0.82550000 5.94870000
3.51730000 0.71310000 6.77440000
3.35380000 0.88020000 4.77530000
3.17540000 0.98330000 4.71080000
2.77570000 1.17700000 4.89850000
2.44220000 1.32920000 4.93390000
2.02130000 1.46260000 4.97530000
3.41520000 0.80350000 5.54230000
3.55560000 0.68550000 5.54700000
3.47270000 0.74510000 5.73670000
3.25250000 0.90200000 5.52970000
2.84320000 1.09730000 5.57920000
2.96600000 1.03960000 5.87370000
3.28770000 0.86110000 6.42550000
2.53540000 1.25670000 5.43550000
2.22380000 1.37660000 5.38770000
2.62100000 1.19720000 5.99300000
3.80660000 -1.64370000 5.83620000
3.75150000 -2.06670000 4.81160000
3.76410000 -1.96490000 5.88580000
3.74300000 -1.90820000 7.06520000
3.71490000 -2.09790000 5.36080000
3.67940000 -2.12420000 5.01470000
3.71820000 -2.10030000 4.91340000
3.74280000 -2.05630000 5.52450000
3.64090000 -2.14070000 5.29450000
3.52740000 -2.15790000 5.30780000
3.67900000 -2.12360000 5.67760000
3.70160000 -2.10400000 5.85770000
3.59250000 -2.15170000 5.95360000
3.47250000 -2.16670000 6.69550000
3.90350000 -0.62620000 6.14170000
3.72220000 -2.07490000 6.01120000
3.65440000 -2.13210000 6.02930000
3.98120000 0.16660000 6.70570000
3.97760000 0.25020000 6.73360000
3.97940000 0.22030000 6.99650000
3.95450000 0.04820000 6.94480000
3.95040000 -0.18170000 6.27150000
3.91130000 -0.46440000 6.42590000
3.98140000 0.18680000 6.33750000
3.93340000 0.31610000 6.22370000
3.94810000 0.28550000 6.34310000
3.97500000 0.24460000 6.45840000
3.94690000 0.32180000 6.57170000
3.84290000 0.43670000 6.41000000
3.88760000 0.41600000 6.55020000
3.88460000 0.43050000 6.76740000
3.75400000 0.54670000 6.43540000
3.73480000 0.56700000 6.74390000
3.93090000 -0.17300000 6.92430000
3.95790000 0.33520000 6.92960000
3.83560000 -0.83350000 8.06760000
3.91550000 -0.22580000 7.48090000
2.93580000 -2.07760000 5.25410000
2.97630000 -2.11550000 5.76920000
2.73000000 -1.94400000 5.45640000
2.82270000 -2.00810000 6.07900000
2.49230000 1.22590000 6.47560000
2.06870000 1.34270000 6.73470000
3.97840000 0.29260000 7.14430000
3.97100000 0.21280000 7.29630000
3.95860000 0.34780000 7.17720000
3.92320000 0.40240000 7.08230000
3.85410000 0.46530000 7.06230000
3.92850000 0.37870000 7.32880000
3.96630000 0.28420000 7.37130000
3.81820000 0.45510000 7.73460000
3.63970000 0.59310000 7.65490000
3.47240000 0.69610000 7.70860000
3.18180000 0.87460000 7.31970000
3.94780000 0.18600000 7.51400000
3.93770000 0.07910000 7.89200000
3.96230000 0.25770000 7.68930000
3.95150000 0.33590000 7.49590000
3.95670000 0.31430000 7.70700000
3.92030000 0.36580000 7.75180000
3.95390000 0.26980000 8.05340000
3.89660000 0.37480000 8.09130000
3.94520000 0.19540000 8.34270000
3.94410000 0.31500000 8.09110000
3.92490000 0.29530000 8.52140000
3.92220000 0.08100000 8.46550000
3.93850000 0.26350000 8.44900000
3.76450000 0.45110000 8.48500000
3.87970000 0.34970000 8.56390000
3.63460000 0.52140000 8.68940000
3.35470000 0.72640000 8.23170000
3.45680000 0.61360000 8.81790000
3.10150000 0.87850000 7.99220000
3.14120000 0.79790000 8.55520000
2.96680000 0.88760000 8.55250000
2.83870000 0.97590000 8.27300000
3.03660000 0.97450000 6.68650000
2.79410000 1.07770000 7.02890000
2.71570000 1.07910000 7.54140000
2.38500000 1.20460000 7.47960000
2.61300000 1.07430000 8.15990000
2.25160000 1.19510000 8.18080000
1.60990000 1.44600000 6.96880000
1.78610000 1.32620000 8.14370000
1.33480000 1.43270000 8.06830000
2.54980000 1.04320000 8.64000000
2.10110000 1.18580000 8.71430000
1.97600000 1.50450000 4.29500000
1.86590000 1.57530000 4.04320000
1.72330000 1.63210000 4.52570000
1.78400000 1.57470000 4.67040000
1.53110000 1.66890000 5.02960000
1.59350000 1.63330000 5.16790000
1.44280000 1.69360000 4.71160000
1.35990000 1.69360000 4.26660000
1.34420000 1.70000000 4.62950000
1.04750000 1.65110000 4.69630000
1.01260000 1.66880000 5.33440000
1.71790000 1.54330000 5.31490000
0.77660000 1.64610000 5.25620000
-0.34370000 -1.10930000 5.31610000
1.74050000 1.49540000 5.73790000
1.54270000 1.57090000 5.70870000
1.41210000 1.63050000 5.82560000
1.36010000 1.66850000 5.69810000
1.43600000 1.53750000 6.25320000
1.10270000 1.68460000 6.22280000
1.05540000 1.70110000 5.92810000
0.89600000 1.68570000 5.94350000
1.31780000 1.59520000 6.22870000
1.14730000 1.65150000 6.39720000
1.19950000 1.58380000 6.55480000
1.08480000 1.53860000 7.16780000
1.13090000 1.55950000 6.82250000
0.96460000 1.66230000 6.71250000
0.85390000 1.60940000 7.04560000
0.80660000 1.70720000 6.63040000
0.69470000 1.69550000 6.94830000
0.78000000 1.65890000 7.00160000
0.69990000 1.70600000 6.51430000
0.64030000 1.64850000 5.95220000
0.21000000 1.65360000 5.85100000
0.48720000 1.66280000 6.44020000
0.25170000 1.68960000 6.86060000
0.33940000 1.72700000 7.16370000
0.05790000 1.66080000 6.54780000
-0.06150000 1.67840000 6.97640000
0.83180000 1.57390000 7.27860000
0.50500000 1.61140000 7.48910000
0.48990000 1.67510000 7.28680000
0.09090000 1.72420000 7.17210000
0.76100000 1.53980000 7.92770000
0.03020000 1.62960000 7.88400000
-0.04170000 1.61330000 8.21000000
0.15480000 1.64600000 7.68030000
0.22110000 1.69870000 7.46710000
-0.11550000 1.71230000 7.68580000
-0.31690000 1.75440000 7.56380000
0.01160000 1.73440000 7.51050000
-0.25900000 1.75180000 7.62260000
-0.53890000 1.70940000 7.36320000
-1.49680000 1.72320000 5.75670000
-1.95450000 1.75640000 6.92200000
-0.78000000 1.70500000 7.17510000
-0.60580000 1.75130000 7.61340000
3.74150000 -2.01190000 6.44960000
3.70980000 -2.07330000 6.56660000
3.64540000 -2.12820000 6.86400000
3.59030000 -2.15210000 6.65980000
3.18610000 -2.16040000 7.20600000
2.87960000 -2.07110000 6.63750000
2.99960000 -2.14590000 7.35340000
2.92250000 -2.10990000 6.73540000
2.79580000 -2.03210000 7.84930000
2.69370000 -1.96750000 7.43150000
2.96790000 -2.13380000 7.24000000
3.70250000 -2.05530000 7.39810000
3.68150000 -2.09680000 7.20120000
3.70340000 -2.01370000 8.00460000
3.50780000 -2.16510000 7.63520000
3.65150000 -2.11260000 7.64550000
3.58800000 -2.14680000 7.69130000
3.42990000 -2.17210000 8.46440000
3.67050000 -2.08710000 8.00380000
3.62360000 -2.12700000 8.21030000
3.55990000 -2.15380000 8.31650000
3.66360000 -2.08550000 8.33500000
2.89760000 -2.09300000 7.31330000
2.91680000 -2.12620000 8.06140000
2.43200000 -1.86560000 7.40400000
1.95170000 -1.68710000 6.85820000
1.97930000 -1.72020000 8.44180000
1.51290000 -1.57960000 7.62150000
0.95970000 -1.43140000 7.07660000
0.86830000 -1.44020000 8.17730000
3.09350000 -2.16400000 8.49750000
3.54800000 -2.15430000 8.87170000
2.95440000 -2.14830000 8.63770000
2.85240000 -2.09330000 8.74410000
3.39420000 -2.16990000 8.98940000
3.41210000 -2.14510000 9.16120000
3.28660000 -2.13530000 9.19640000
3.35620000 -2.07310000 9.26470000
3.17550000 -2.15790000 9.10620000
3.16050000 -2.09470000 9.25050000
3.01610000 -2.15500000 8.97600000
3.07770000 -2.12560000 9.20530000
2.96390000 -2.12650000 9.15580000
2.91620000 -2.12900000 8.99310000
