2.08640000 -7.37380000 3.16960000
2.78680000 -0.96470000 3.12460000
1.28470000 -6.42970000 3.05450000
1.32040000 -6.48200000 3.03650000
2.84010000 -0.95220000 3.13380000
1.24560000 -6.66990000 3.02660000
2.91740000 -5.85620000 3.12530000
2.86020000 -0.82840000 3.14980000
2.88100000 -1.03280000 3.19900000
1.34680000 -6.66520000 3.04310000
2.14590000 -7.10760000 3.01660000
1.70400000 -0.47270000 3.11780000
-0.69480000 -1.14070000 4.05410000
2.08640000 -7.22820000 2.94490000
2.06010000 -7.32060000 2.95810000
1.80080000 -0.49760000 3.11970000
2.12210000 -7.34840000 2.99280000
2.78650000 -1.29790000 3.12850000
2.27810000 -7.12130000 3.00440000
2.19130000 -7.27300000 2.94020000
2.84780000 -1.20460000 3.13820000
0.86560000 -5.40410000 3.03410000
2.87120000 -1.11690000 3.16060000
0.68340000 -5.15210000 3.03040000
2.88960000 -6.04000000 3.10430000
1.75420000 -0.65190000 3.10300000
2.86640000 -6.23220000 3.08120000
2.93250000 -6.12670000 3.15860000
1.02290000 -5.19570000 3.03880000
0.12910000 -3.26170000 3.10520000
0.01970000 -3.21340000 3.09120000
1.84630000 -0.61690000 3.12820000
1.24670000 -5.37240000 3.05010000
0.06040000 -3.44540000 3.08220000
-0.83400000 -1.55160000 4.05260000
2.84550000 -6.39140000 3.06550000
2.91940000 -6.25590000 3.10830000
0.33520000 -3.31130000 3.10140000
1.22550000 -5.65270000 3.05560000
1.76840000 -0.78810000 3.12010000
1.54500000 -5.17900000 3.06140000
-0.70990000 -1.55670000 4.05830000
1.43090000 -5.10700000 3.06480000
2.85450000 -3.09750000 4.07410000
2.83380000 -3.00480000 4.07200000
2.87340000 -2.94280000 4.04890000
2.89180000 -3.03480000 3.97600000
-0.06250000 -3.59420000 3.03300000
0.14430000 -3.61630000 3.05020000
0.26480000 -3.54320000 3.08260000
2.88530000 -3.20600000 4.02730000
2.83680000 -3.24980000 4.06800000
2.88250000 -3.35850000 4.04510000
1.70070000 -7.37280000 3.98070000
0.19800000 -3.71900000 3.02960000
0.34520000 -3.82980000 3.06950000
0.15810000 -3.93330000 2.97470000
1.74570000 -7.33130000 4.01000000
1.95710000 -7.30540000 4.01460000
1.13120000 -5.96350000 3.05490000
1.75690000 -7.38990000 3.93590000
1.83160000 -7.38830000 3.96400000
1.86740000 -7.39920000 3.84820000
1.92150000 -7.34790000 3.99970000
1.96670000 -7.38150000 3.96370000
0.80250000 -4.55530000 3.08020000
-1.35040000 -2.27820000 3.05220000
-1.27940000 -2.22120000 3.03180000
-1.24850000 -2.05980000 3.02880000
1.60050000 -5.68730000 3.07370000
-1.18790000 -1.80630000 3.00430000
2.03380000 -7.39380000 3.91500000
2.16060000 -7.39360000 3.80780000
-1.22390000 -2.22360000 2.99040000
-1.05870000 -2.14770000 2.98680000
-1.13770000 -2.01280000 2.99520000
-1.11460000 -1.82480000 2.99300000
-1.02210000 -1.97830000 2.99180000
-1.04780000 -1.84970000 3.00550000
2.69960000 -6.86270000 4.02650000
-1.32460000 -2.37630000 3.01150000
1.98660000 -1.95750000 4.05120000
-1.24730000 -2.34690000 2.96320000
2.08320000 -7.36820000 3.98470000
2.42080000 -7.30290000 4.00390000
-1.30560000 -2.46070000 2.99830000
-1.25300000 -2.51930000 3.00080000
2.25220000 -7.36010000 3.97850000
-1.17730000 -2.41480000 2.98330000
2.18410000 -7.39320000 3.94390000
2.15140000 -7.40760000 3.86320000
2.34810000 -7.37570000 3.90760000
-1.11980000 -2.19580000 2.97540000
-1.18000000 -2.32360000 2.97190000
-1.05850000 -2.27020000 2.97700000
-1.10280000 -2.36530000 3.00410000
-1.03090000 -2.37520000 3.00080000
-0.68540000 -4.23710000 2.96640000
-0.60840000 -4.54480000 2.96490000
-0.88600000 -2.22680000 2.97600000
-0.54370000 -4.56760000 3.00370000
-0.60860000 -4.61540000 2.98110000
-0.54350000 -4.65750000 3.01360000
2.67920000 -2.00210000 4.05960000
2.73410000 -1.84280000 4.05930000
-0.50020000 -4.60490000 3.04430000
2.74330000 -1.69530000 4.05010000
2.70780000 -1.56280000 4.07170000
-0.49950000 -4.68350000 3.00670000
-0.43150000 -4.54310000 3.02750000
-0.39030000 -4.60840000 3.03640000
-0.45760000 -4.79730000 2.98030000
-0.83150000 -2.39750000 3.00140000
-0.38300000 -4.71340000 3.01550000
-0.58970000 -4.37660000 2.96930000
-0.56760000 -4.25450000 2.96800000
-0.46670000 -4.47850000 2.99730000
-0.39610000 -4.42490000 2.96160000
2.03630000 -2.73710000 4.04560000
-0.27680000 -4.40780000 2.91590000
-0.40310000 -4.28700000 2.93900000
-0.17790000 -4.31120000 2.89390000
-0.24410000 -4.26360000 2.91900000
2.50130000 -7.33750000 3.97260000
-0.36300000 -4.13590000 2.93810000
-0.23970000 -4.11580000 2.92920000
-0.23780000 -4.19920000 2.95000000
-0.19790000 -4.19590000 2.93790000
2.78560000 -1.90280000 4.01340000
-0.32600000 -4.51530000 2.98530000
-0.26800000 -4.55130000 3.00510000
2.78490000 -2.06640000 4.02630000
2.76070000 -2.13420000 4.05900000
2.82190000 -1.95740000 3.90580000
2.74950000 -5.95390000 4.03580000
-0.17160000 -4.53430000 3.01170000
-0.18950000 -4.59620000 3.01070000
-0.19630000 -4.42370000 2.92410000
2.82290000 -1.46290000 3.92040000
2.76480000 -1.57010000 4.02290000
2.79940000 -1.68310000 3.93700000
-0.26380000 -4.75850000 3.02270000
2.85930000 -1.64880000 3.76440000
-0.19070000 -4.74180000 2.99390000
-0.30060000 -4.90790000 3.01690000
-0.18480000 -4.65910000 2.98910000
-0.14050000 -4.70670000 2.95730000
-0.14170000 -4.43360000 2.95260000
-0.05350000 -4.40730000 3.00810000
-0.09430000 -4.62540000 2.98630000
0.06870000 -4.21350000 2.98540000
-0.05910000 -4.31000000 2.92760000
-0.01310000 -4.52190000 3.02810000
-0.00330000 -4.42880000 3.02970000
-0.05180000 -4.23160000 2.88160000
0.16100000 -4.41020000 3.03640000
0.11630000 -4.23060000 3.01960000
1.47710000 -1.84600000 3.10930000
0.26090000 -4.21890000 3.05030000
0.06310000 -4.64980000 3.03150000
-0.08590000 -4.76950000 2.96000000
-0.00200000 -4.75130000 2.99660000
1.40170000 -5.16190000 4.03550000
0.16960000 -4.59710000 3.02570000
2.78170000 -7.24060000 4.01320000
2.84840000 -7.01480000 4.02870000
2.87980000 -6.70740000 4.03000000
2.89570000 -7.05790000 4.01520000
2.92050000 -6.80920000 3.99370000
2.92700000 -7.06270000 3.94970000
2.92020000 -7.18110000 3.92180000
2.42830000 -7.36680000 3.69880000
-1.18840000 -1.33700000 3.04220000
-1.21740000 -1.15950000 3.03960000
0.27010000 -4.66910000 3.04710000
0.37490000 -4.29940000 3.06750000
1.91110000 -5.69060000 4.03440000
-0.46920000 -5.03320000 2.98500000
-1.13050000 -1.01790000 3.03200000
2.65630000 -7.35600000 3.91390000
-0.41870000 -4.93810000 2.98550000
2.71410000 -7.32600000 3.97450000
-0.40490000 -5.03180000 3.02230000
-1.12940000 -1.18180000 2.99710000
-1.11170000 -1.29370000 2.99740000
-0.33620000 -5.06340000 3.03540000
2.74990000 -7.35760000 3.86310000
-1.05800000 -1.04930000 2.98870000
-0.34510000 -5.15980000 3.03820000
-1.05820000 -1.21790000 2.96150000
2.71680000 -7.35020000 3.40580000
2.81770000 -7.35090000 3.73170000
-0.34320000 -5.28630000 3.04030000
2.82620000 -7.29320000 3.96420000
-0.94970000 -0.92290000 2.97600000
-0.95290000 -1.07140000 2.96530000
1.60830000 -1.65380000 3.07170000
2.88250000 -7.20630000 3.99720000
2.79010000 -7.33820000 3.92650000
1.65670000 -1.78430000 3.09770000
-0.11940000 -5.14560000 3.03250000
-0.84210000 -0.81590000 2.95380000
2.90280000 -7.25020000 3.90390000
-0.23420000 -5.34950000 3.02920000
2.86470000 -7.31760000 3.84970000
-0.79120000 -0.90330000 2.96270000
-0.99570000 -1.25860000 2.97970000
1.77450000 -1.90070000 3.12080000
-0.80400000 -1.10760000 2.94100000
-0.87100000 -1.29640000 2.97750000
-0.76050000 -0.99930000 2.94740000
1.74920000 -1.68190000 3.07630000
-1.12260000 -1.42950000 3.00770000
-1.09870000 -1.58010000 2.98930000
1.79820000 -1.77470000 3.09190000
1.88270000 -1.61180000 3.10700000
1.91150000 -1.74610000 3.11140000
-0.98960000 -1.49910000 2.99670000
2.22500000 -7.02540000 3.04650000
0.04050000 -5.33110000 3.03740000
-0.91750000 -1.62650000 2.98600000
2.02580000 -1.58770000 3.12660000
-0.74950000 -1.52000000 2.98320000
-0.15570000 -4.95700000 3.02000000
-0.10510000 -4.87990000 2.98640000
2.25920000 -7.21750000 2.95100000
2.24610000 -7.31080000 2.95830000
-0.73100000 -1.25320000 2.95010000
-0.05030000 -5.11560000 3.03260000
0.00720000 -4.92890000 2.97960000
-0.00580000 -5.01350000 3.00360000
-0.67840000 -1.42830000 2.96430000
0.05060000 -5.20190000 3.01120000
0.09500000 -5.09310000 2.98550000
-0.50750000 -1.26330000 2.94900000
0.08860000 -4.85410000 3.02450000
0.17510000 -4.86280000 3.04600000
0.26940000 -4.92900000 3.03580000
-0.66750000 -0.91080000 2.93210000
-0.61860000 -1.14060000 2.92270000
0.33750000 -4.80360000 3.04540000
0.14330000 -5.03190000 3.00890000
0.22270000 -5.02380000 3.02840000
2.63040000 -6.78320000 3.06270000
0.31770000 -5.04040000 3.00840000
0.41240000 -4.94860000 3.03130000
2.36290000 -5.41620000 4.02670000
0.18090000 -5.21430000 3.01930000
-0.88950000 -1.80730000 2.99190000
-0.91530000 -1.92730000 3.00930000
2.86940000 -6.60190000 3.05680000
-0.67180000 -1.75120000 2.96540000
2.61710000 -7.04620000 3.04980000
-0.83200000 -2.12330000 2.98670000
2.45650000 -7.19400000 2.98290000
2.38290000 -7.25340000 2.95350000
0.23400000 -5.10760000 3.00780000
2.47040000 -7.11900000 3.03210000
0.33790000 -5.14200000 3.03440000
0.37840000 -5.05070000 3.03250000
0.41330000 -5.11750000 3.05530000
0.46150000 -5.18480000 3.03510000
2.60850000 -7.15310000 3.03080000
-0.73860000 -2.30610000 2.97990000
-0.75710000 -2.47530000 2.98560000
0.21780000 -2.00910000 3.11240000
0.21050000 -1.93280000 3.04120000
0.29330000 -1.89210000 3.10300000
2.87280000 -6.82680000 3.05290000
2.92210000 -6.70730000 3.09470000
2.83090000 -7.00010000 3.03570000
2.89890000 -6.98380000 3.06990000
0.41740000 -4.63180000 3.07960000
0.58920000 -4.86080000 3.07170000
2.78940000 -7.14030000 3.02280000
2.88440000 -7.13570000 3.04830000
0.45910000 -5.04550000 3.03690000
2.93070000 -7.07000000 3.12750000
0.61700000 -5.01060000 3.05700000
2.88870000 -6.51660000 4.02720000
-0.09190000 -3.87740000 2.92430000
0.04010000 -3.91750000 2.92240000
-0.03750000 -3.99460000 2.88580000
2.93070000 -6.74480000 3.93540000
2.92060000 -6.21610000 3.98280000
2.91560000 -6.48380000 4.00130000
2.93430000 -6.67450000 3.69950000
0.03140000 -4.08870000 2.88820000
2.87660000 -6.23640000 4.03830000
0.07310000 -4.12770000 2.91720000
-0.06110000 -4.13930000 2.87160000
0.21070000 -4.03310000 3.00300000
0.24820000 -4.10580000 3.02910000
0.45640000 -4.24860000 3.08500000
1.63060000 -2.10290000 4.05430000
1.73140000 -2.82270000 4.04790000
2.93990000 -6.80740000 3.18020000
1.63750000 -5.25350000 3.07820000
2.23580000 -7.35450000 3.02840000
2.53850000 -7.34130000 3.06360000
2.38000000 -7.33060000 2.99520000
2.66010000 -2.15800000 3.12470000
2.68920000 -2.43710000 3.10890000
2.87810000 -7.33200000 3.24480000
2.83930000 -7.34850000 3.43460000
2.89350000 -7.32650000 3.44200000
2.43280000 -7.29260000 2.96750000
2.55320000 -7.30160000 2.97920000
2.65580000 -7.31490000 2.99920000
2.60210000 -7.22990000 2.97710000
2.72950000 -7.23750000 2.97990000
2.79760000 -7.33190000 3.03820000
2.81570000 -7.34240000 3.15830000
0.91150000 -5.04980000 3.06950000
2.93610000 -7.22310000 3.20490000
2.93790000 -7.20090000 3.54810000
2.91030000 -7.28770000 3.09640000
2.91710000 -7.29120000 3.35310000
2.87440000 -7.32980000 3.11970000
2.86360000 -7.21880000 3.00420000
2.79950000 -7.26740000 2.97970000
2.85010000 -7.30570000 3.01570000
2.90330000 -7.23460000 3.04310000
2.92130000 -7.25870000 3.66410000
2.86590000 -7.32470000 3.69430000
2.86080000 -1.98880000 3.72120000
2.88800000 -1.71830000 3.51860000
2.74590000 -1.35820000 4.07400000
2.76760000 -1.45110000 4.05290000
2.82970000 -1.34310000 4.00380000
2.92850000 -6.43330000 3.11240000
2.90620000 -6.45810000 3.07570000
2.81560000 -5.71850000 4.03920000
2.76520000 -2.32550000 4.05690000
2.81160000 -2.27030000 4.03980000
2.83320000 -2.22150000 3.94240000
2.77750000 -2.56540000 4.06240000
2.84190000 -2.42950000 4.07410000
2.87420000 -2.40360000 4.02420000
2.83190000 -2.52710000 4.08450000
2.87040000 -2.53540000 4.04030000
2.87090000 -2.31380000 3.93670000
2.88730000 -2.35300000 3.81420000
2.84630000 -2.64770000 4.07560000
2.81970000 -2.80970000 4.07200000
2.87000000 -2.72980000 4.05260000
2.86430000 -2.83450000 4.07730000
2.88310000 -2.77090000 4.01380000
2.88300000 -2.20620000 3.64120000
2.86480000 -5.79510000 4.04590000
2.86560000 -6.00760000 4.04250000
2.90010000 -5.96000000 4.03400000
2.89550000 -5.74910000 4.03630000
2.76300000 -1.69320000 3.12480000
2.89170000 -1.73280000 3.25140000
2.88600000 -1.28590000 3.20180000
2.88030000 -1.43380000 3.18210000
2.91850000 -5.70720000 3.98620000
2.92570000 -5.97120000 3.92440000
2.91700000 -5.91190000 3.99930000
2.90050000 -6.17170000 4.02880000
2.83900000 -1.85770000 3.13550000
2.89130000 -1.93350000 3.19970000
2.87160000 -1.65430000 3.15730000
2.83270000 -2.13620000 3.13020000
2.83990000 -1.48730000 3.13560000
2.75500000 -2.24700000 3.11800000
2.75030000 -2.41740000 3.10300000
2.88170000 -2.12390000 3.16170000
2.86840000 -2.49080000 3.14410000
2.81850000 -2.47580000 3.12060000
-0.46290000 -0.98050000 2.93880000
-0.70570000 -4.05060000 2.93150000
-0.60330000 -4.07040000 2.97360000
-0.24500000 -0.72360000 2.99930000
-0.49200000 -3.89580000 2.94800000
-0.23050000 -1.02150000 2.93280000
0.15690000 -0.75020000 3.01130000
-0.30810000 -3.88400000 2.94460000
0.06480000 -1.04480000 2.96790000
-0.14070000 -4.12030000 2.89480000
-0.16310000 -4.23780000 2.90150000
0.28480000 -1.30740000 2.93340000
0.04540000 -1.29670000 2.92030000
-0.41160000 -1.11330000 2.93700000
0.08000000 -1.48740000 2.92660000
-0.33840000 -1.44550000 2.93300000
0.42900000 -1.49780000 2.98010000
0.25880000 -1.58340000 2.97770000
-0.25550000 -1.12910000 2.91830000
0.71600000 -0.63860000 3.05490000
-0.67320000 -2.03650000 2.98200000
-0.22150000 -1.73650000 2.93820000
-0.55380000 -2.08120000 2.94270000
-0.42950000 -1.84990000 2.93270000
-0.60900000 -2.44220000 2.92890000
0.11600000 -1.68360000 2.94650000
-0.06850000 -1.99470000 2.90090000
0.01180000 -1.81690000 2.93840000
-0.22590000 -2.06340000 2.87500000
-0.33280000 -2.21040000 2.85520000
-0.13430000 -2.27590000 2.84640000
0.02790000 -2.06930000 2.93420000
0.16990000 -1.83550000 2.97990000
-0.68890000 -2.75130000 2.95400000
-0.59700000 -2.88780000 2.93910000
-0.61350000 -3.03710000 2.93180000
-0.77220000 -3.21030000 2.89870000
-0.64700000 -3.26610000 2.89310000
-0.79450000 -3.53340000 2.84590000
-0.65720000 -3.52750000 2.88290000
-0.42930000 -3.29490000 2.94600000
-0.71770000 -3.71640000 2.81510000
-0.53760000 -3.61810000 2.93440000
-0.30580000 -3.56050000 2.98690000
-0.71010000 -3.88030000 2.83890000
-0.61590000 -3.90740000 2.92610000
-0.58720000 -3.76930000 2.90260000
-0.22120000 -3.71550000 2.97390000
-0.58920000 -2.55870000 2.89810000
-0.35840000 -3.02620000 2.95040000
-0.34960000 -2.91240000 2.92550000
-0.15100000 -3.21770000 3.02420000
-0.25020000 -2.76000000 2.86230000
-0.38840000 -2.78850000 2.86530000
-0.29940000 -2.66700000 2.81630000
-0.11610000 -2.65520000 2.86870000
-0.27320000 -2.41780000 2.81410000
-0.07580000 -2.45450000 2.84260000
-0.04420000 -2.27600000 2.88820000
0.04850000 -2.41540000 2.93440000
-0.18040000 -2.51140000 2.80620000
-0.18080000 -2.62970000 2.81920000
0.00970000 -3.76180000 2.97370000
-0.43060000 -2.68520000 2.84140000
-0.44700000 -2.50210000 2.83070000
-2.71470000 5.26090000 -1.53150000
-0.58180000 1.12300000 -4.00200000
-1.40690000 1.13420000 -4.02210000
-1.64910000 2.22380000 -4.01650000
-2.67240000 7.29770000 -2.08960000
-2.69280000 7.26070000 -1.68340000
-2.67360000 7.29930000 -1.61980000
-2.27170000 1.84170000 -4.02330000
-1.99710000 1.88490000 -4.02560000
-2.05630000 1.50210000 -4.02750000
-1.97480000 1.78060000 -4.01640000
-2.69450000 7.08910000 -1.92000000
-2.68800000 7.25280000 -2.24710000
-2.62450000 7.32190000 -1.75120000
-1.79150000 3.89020000 -4.00930000
-2.40130000 4.51120000 -4.01720000
-2.16220000 4.65230000 -4.01310000
-0.93140000 0.92490000 -2.65800000
-0.87860000 1.20660000 -2.22200000
-1.15190000 0.27780000 -2.34230000
-0.78870000 1.40190000 -2.56630000
-0.73440000 1.44600000 -2.73390000
-0.86590000 1.00130000 -2.76390000
-0.63400000 1.59240000 -4.00350000
-0.21790000 1.07380000 -3.99700000
-0.70270000 1.39960000 -2.78470000
-0.84150000 0.89480000 -2.81000000
-0.36450000 1.39020000 -3.99330000
0.81860000 4.66360000 -2.75220000
0.72740000 4.57710000 -2.69200000
0.60450000 4.34890000 -2.73250000
0.74470000 4.45130000 -2.79000000
0.47000000 3.88700000 -2.80780000
0.94180000 4.52490000 -2.82580000
-2.59560000 5.55230000 -1.14890000
-2.52350000 5.60050000 -1.10860000
-2.58300000 5.52950000 -1.75420000
-0.44200000 0.92700000 -4.00480000
-1.45970000 3.93240000 -4.00620000
-1.57090000 4.73270000 -4.00230000
0.26190000 3.17830000 -2.82660000
1.72400000 5.43080000 -2.85070000
-2.62970000 6.24030000 -1.36310000
-2.67530000 6.26210000 -1.32030000
-2.69270000 6.30350000 -1.67150000
-0.69700000 0.65210000 -4.00890000
-2.65810000 6.25320000 -1.77260000
-2.72480000 4.82540000 -1.75990000
-1.01500000 0.58930000 -2.73250000
-0.96730000 0.59190000 -2.79390000
-2.60510000 6.23950000 -1.72510000
-2.49420000 6.28260000 -1.71650000
-2.54250000 6.26400000 -1.20590000
-2.68730000 5.39400000 -1.36750000
-2.68530000 5.33930000 -1.92030000
-2.57730000 6.23350000 -1.99900000
-0.24190000 0.98750000 -3.98290000
-2.69430000 6.32820000 -2.60760000
-2.68820000 6.29240000 -2.12400000
-0.44530000 1.79330000 -3.99850000
-0.56620000 1.61350000 -3.99140000
-0.72230000 1.07010000 -2.82740000
-0.97210000 0.34430000 -2.83120000
-0.98060000 -0.01850000 -2.85470000
-1.23750000 2.45900000 -4.00720000
-1.94020000 2.77630000 -4.02000000
-2.72870000 4.62030000 -1.17600000
-0.39520000 1.61190000 -2.83600000
-0.29210000 1.58770000 -3.98120000
-0.30820000 1.96010000 -3.98480000
-0.20590000 1.70090000 -3.99450000
-2.42990000 0.70390000 -4.03070000
-2.41430000 1.28670000 -4.03550000
-2.34350000 0.87260000 -4.03200000
-1.21950000 -0.05670000 -2.63460000
-1.12300000 0.23560000 -2.72130000
-0.07040000 1.22200000 -3.99040000
-1.19790000 -0.08650000 -2.75160000
-1.20220000 -0.36500000 -2.82190000
-1.28330000 -0.37600000 -2.72620000
-1.28430000 -0.47130000 -2.77530000
-2.62870000 6.21100000 -2.38830000
-2.63550000 6.22880000 -2.09860000
-2.66990000 6.24790000 -2.32230000
-2.55120000 6.21900000 -2.36190000
-2.19320000 0.36880000 -4.03560000
0.05560000 1.35220000 -3.98310000
-0.05390000 1.53530000 -3.98710000
-0.02380000 1.79470000 -3.97600000
0.13430000 1.69510000 -3.98800000
-1.45220000 -1.03460000 -2.64070000
-2.51260000 6.25350000 -2.12000000
-2.41030000 6.29310000 -1.82720000
0.38950000 1.32930000 -3.98100000
-1.21760000 -0.27820000 -2.79360000
0.06530000 1.92420000 -3.98100000
-1.26120000 3.57380000 -4.00050000
-0.76360000 3.18290000 -3.99840000
-1.10230000 0.19710000 -2.77810000
-1.10460000 0.05820000 -2.80990000
-2.42610000 6.27990000 -2.20500000
-0.07270000 0.90620000 -3.97370000
0.09690000 0.98490000 -3.99540000
-2.69850000 7.27210000 -0.64670000
-0.60190000 0.27460000 -4.01370000
-1.40900000 -1.29460000 -4.03920000
-2.73790000 4.41050000 -1.70630000
-2.72050000 4.77840000 -2.10100000
-2.72090000 4.69380000 -1.95930000
-0.52830000 0.30850000 -3.99410000
-0.54740000 0.61830000 -4.00330000
-0.30200000 0.66770000 -3.99630000
-0.55000000 0.50110000 -3.99050000
-0.40970000 0.40780000 -4.01010000
-0.42880000 0.18060000 -4.00460000
-2.72760000 4.43230000 -1.81750000
-2.67970000 7.29830000 -0.89160000
-2.65910000 7.31060000 -0.79720000
-0.19490000 0.79800000 -4.00020000
-0.35480000 0.56350000 -4.00670000
-2.55880000 7.32010000 -0.86940000
-0.30080000 0.43930000 -3.98800000
-0.20120000 0.49430000 -3.99400000
-2.74700000 4.01710000 -1.70790000
-2.73280000 4.09510000 -1.71530000
-2.74290000 4.05450000 -1.92110000
-2.73530000 4.28580000 -1.93060000
-0.10170000 0.61650000 -3.97910000
-0.36090000 -0.45440000 -4.01660000
-2.69630000 7.26320000 -1.12060000
-2.66880000 7.30360000 -1.21080000
-1.04630000 -1.07670000 -2.88220000
-0.93520000 -2.08310000 -2.90150000
0.00760000 1.82030000 -2.84610000
-2.69080000 5.11010000 -2.46650000
-2.72210000 4.94020000 -2.35360000
-2.70340000 5.22280000 -2.16210000
-2.65730000 5.27150000 -2.36860000
-0.25350000 0.07990000 -4.00410000
-2.64040000 5.13230000 -2.60290000
-2.59850000 5.23190000 -2.57490000
-0.28650000 0.25830000 -3.99010000
-0.18940000 0.24970000 -3.98840000
-0.19880000 0.37730000 -4.00290000
-2.49920000 5.21170000 -2.69230000
-2.48380000 5.31850000 -2.58340000
-2.61610000 4.98170000 -2.77100000
-0.08490000 0.33540000 -3.98990000
-1.32510000 3.23280000 -4.00560000
-2.63050000 5.46620000 -1.83330000
-0.10420000 -0.04650000 -3.98770000
-2.64840000 5.48530000 -1.21230000
-0.00900000 0.02400000 -4.00230000
-2.48880000 5.58090000 -1.74210000
-2.38640000 5.64540000 -1.21980000
-2.31000000 5.64670000 -1.67850000
-0.01920000 0.46170000 -3.99520000
-2.51530000 5.53960000 -1.99720000
-2.56500000 5.48170000 -2.12590000
0.07750000 0.19710000 -4.00370000
-0.09970000 0.79580000 -3.98450000
-2.35150000 5.60410000 -1.96140000
-0.00600000 0.72880000 -3.99680000
0.08260000 0.81980000 -3.98360000
0.18580000 0.88160000 -3.97530000
0.11500000 0.64440000 -3.99590000
0.18910000 0.67370000 -3.97400000
-2.29690000 -0.76380000 -4.04830000
0.27590000 0.77120000 -3.97510000
0.29580000 0.60970000 -3.98830000
-2.53730000 7.32270000 -3.90840000
-2.48420000 7.30900000 -3.95860000
-2.57640000 7.28680000 -3.96660000
-2.43920000 7.24520000 -3.99970000
-2.58060000 7.18130000 -3.99780000
-2.33660000 7.32850000 -3.89030000
-2.39690000 7.28950000 -3.98470000
-2.33660000 7.31780000 -3.94600000
0.45880000 0.83480000 -3.98890000
-2.32760000 7.15970000 -4.00630000
0.52700000 1.13330000 -3.98490000
-2.18870000 7.28250000 -3.98980000
-2.64480000 5.37510000 -2.17780000
0.51450000 0.69190000 -3.97570000
-2.08810000 7.31160000 -3.95950000
0.09470000 0.45490000 -3.99350000
-0.07930000 3.18900000 -2.27250000
0.22000000 3.81280000 -1.75260000
-0.10630000 3.20880000 -0.75760000
-2.39630000 5.54050000 -2.20670000
-1.93540000 7.24700000 -3.99640000
-2.17810000 6.72800000 -4.00910000
0.17480000 0.30300000 -3.97710000
0.23280000 0.25470000 -3.97500000
0.32150000 0.15270000 -3.99740000
-2.26930000 5.59970000 -2.16700000
-2.21490000 5.66450000 -2.07810000
-2.05830000 7.33320000 -3.76950000
-1.99710000 7.32620000 -3.90900000
-2.22860000 5.70510000 -1.76310000
-2.14830000 5.76760000 -2.13650000
0.52870000 0.38690000 -3.99160000
0.44270000 0.25670000 -3.98260000
-2.16790000 5.61620000 -2.39770000
0.61480000 0.61760000 -3.98760000
-1.94550000 7.29340000 -3.98200000
-2.13100000 5.88730000 -2.12740000
-2.17940000 5.81060000 -1.67890000
-2.13120000 5.69450000 -2.39030000
-1.85580000 7.31970000 -3.94160000
-1.73450000 7.28770000 -3.98100000
-0.58410000 1.91750000 -2.67310000
-0.53450000 2.13600000 -2.34350000
-1.65650000 7.32770000 -3.90980000
1.32300000 1.59420000 -3.96800000
-2.60740000 5.38380000 -2.31650000
-0.53570000 1.95000000 -2.74820000
-2.48020000 5.46070000 -2.34500000
-2.57710000 5.35030000 -2.44620000
-2.40530000 5.41940000 -2.48820000
-0.47940000 1.93910000 -2.79070000
-1.59130000 7.33700000 -3.50740000
-0.32450000 2.16510000 -2.80810000
-2.28160000 5.51600000 -2.38950000
-1.44020000 7.33350000 -3.84920000
-2.19740000 5.55900000 -2.42720000
-1.56970000 7.25070000 -3.98910000
-1.56780000 7.30680000 -3.96370000
-2.72180000 4.63780000 -2.43250000
-2.71190000 4.64640000 -2.13760000
-1.49310000 7.32770000 -3.92180000
-1.45060000 7.30750000 -3.96310000
0.18030000 3.69930000 -2.33340000
-2.72830000 4.52240000 -2.15000000
-1.33220000 7.32730000 -3.92540000
-2.69670000 6.30530000 -1.05300000
-2.68200000 6.26490000 -0.78160000
-2.64460000 6.23990000 -0.83010000
-2.74110000 4.02350000 -2.36970000
-2.73120000 4.31850000 -2.28580000
-2.64160000 6.25440000 -0.54220000
-2.73430000 4.31940000 -2.51350000
-2.72380000 4.34710000 -2.42310000
0.37090000 4.02840000 -2.51160000
0.54300000 4.34870000 -2.22520000
-2.56150000 6.25870000 -0.65680000
-2.59900000 6.24420000 -1.00420000
-2.71160000 4.71050000 -2.68780000
-2.44030000 6.29390000 -1.21530000
0.11680000 3.52350000 -2.65290000
-2.68460000 4.81440000 -2.75470000
0.19060000 -0.52410000 -2.87720000
1.02250000 0.82450000 -2.86250000
0.43920000 4.10260000 -2.68420000
-2.65620000 6.25320000 -1.04230000
0.32600000 3.85420000 -2.73610000
0.13620000 3.49080000 -2.73840000
0.27530000 3.66190000 -2.77890000
-2.66840000 4.62070000 -2.92140000
-2.69430000 4.35430000 -2.95040000
0.47360000 4.04260000 -2.77500000
-2.73010000 4.18530000 -2.76120000
-2.33390000 6.25970000 -0.78880000
0.86100000 4.82330000 -2.54730000
-1.33730000 7.27040000 -3.97750000
-1.01490000 7.20960000 -3.98070000
-2.27400000 6.22340000 -1.23640000
-1.01840000 7.33740000 -3.85420000
-2.23370000 6.17190000 -1.24280000
-2.19610000 6.04160000 -1.12170000
-2.19960000 5.89960000 -0.86950000
-1.07890000 7.29170000 -3.96510000
-1.02190000 7.31610000 -3.94320000
0.57840000 6.44880000 -3.95460000
-2.15910000 5.97160000 -1.73500000
1.59750000 4.61010000 -2.86030000
-0.54800000 2.19240000 -1.46320000
-2.28500000 5.69800000 -1.21150000
-2.23410000 5.75090000 -1.27520000
-2.23810000 5.78010000 -0.83370000
0.27080000 7.34760000 -3.27150000
0.50090000 7.34170000 -1.01740000
-0.08090000 1.97280000 -3.99210000
0.38950000 1.74760000 -3.98070000
-0.42230000 7.34120000 -3.79050000
-0.70760000 7.34200000 -3.86950000
-0.32940000 2.12330000 -3.99360000
-2.74990000 3.43050000 -2.18470000
-2.76160000 3.30070000 -1.72020000
-2.74940000 3.69860000 -2.04420000
-0.69320000 1.78530000 -1.89390000
-2.75570000 3.63700000 -1.65020000
-2.75690000 3.29880000 -1.60360000
-2.74170000 3.90090000 -2.04970000
-2.75840000 2.38110000 -2.99210000
-2.80270000 0.55950000 -3.19440000
-0.32770000 2.59520000 -2.58640000
-0.29390000 2.74780000 -2.13160000
-2.73690000 3.76780000 -2.29790000
-2.79730000 0.46660000 -3.94190000
-2.75200000 3.20780000 -3.66880000
-2.76450000 2.15540000 -3.95200000
-0.15110000 2.96420000 -2.65720000
-0.03510000 3.08120000 -2.76100000
-0.00860000 3.22580000 -2.71150000
-0.86090000 7.33280000 -3.92370000
-0.76620000 7.29860000 -3.95810000
-2.75450000 3.22230000 -2.69120000
-0.37010000 2.45080000 -2.68810000
-0.22640000 2.72620000 -2.73380000
-0.22530000 2.62240000 -2.77240000
-0.35770000 2.41870000 -2.73650000
-0.58380000 7.27270000 -3.96630000
-0.55610000 7.32830000 -3.92450000
-0.14300000 7.23930000 -3.96190000
-0.26210000 7.34350000 -3.88620000
-0.09080000 7.31500000 -3.93610000
-2.37020000 6.28510000 -1.40680000
-2.29840000 6.25500000 -1.73010000
-2.76300000 3.24140000 -2.20740000
0.11820000 7.34430000 -3.79880000
-2.17940000 6.10300000 -1.86120000
-2.34180000 6.27240000 -2.10930000
-2.24360000 6.21480000 -1.96250000
-2.19510000 6.15920000 -2.16730000
-2.68370000 7.22110000 -2.66240000
-0.01120000 7.34460000 -3.89790000
-2.64760000 7.31710000 -2.56960000
-2.67210000 7.29440000 -2.66790000
-2.58730000 7.33120000 -2.98250000
-0.43450000 2.26960000 -2.71040000
-0.35860000 2.31340000 -2.77150000
-0.04130000 2.86190000 -2.80090000
-2.67650000 7.22460000 -3.38860000
-2.68570000 6.65230000 -3.45930000
-2.67210000 7.28840000 -3.17950000
-2.64680000 7.31690000 -3.12850000
0.16810000 7.35140000 -3.88340000
0.30740000 7.27110000 -3.94790000
-2.73980000 3.87630000 -2.50110000
-2.76550000 0.79160000 -4.01660000
-2.76780000 1.52650000 -3.98740000
-2.74730000 1.30600000 -4.02350000
-2.72530000 0.71840000 -4.04300000
-2.69180000 1.14240000 -4.04200000
0.31360000 7.32070000 -3.92640000
0.33970000 7.34400000 -3.87450000
-2.74810000 3.45690000 -2.48090000
-2.75140000 3.44950000 -2.58680000
-2.75740000 3.23410000 -2.54530000
-2.73750000 3.34100000 -2.53870000
0.53300000 7.34680000 -3.83880000
0.44000000 7.34530000 -3.90220000
0.51010000 7.32460000 -3.92070000
0.72550000 7.29440000 -3.93110000
0.14170000 3.39320000 -2.78050000
0.24340000 3.45900000 -2.80500000
0.75480000 7.34780000 -3.82030000
-2.69940000 5.82230000 -3.23040000
-2.69080000 6.00540000 -2.92150000
0.62970000 7.34830000 -3.88900000
-2.66800000 6.08380000 -2.79560000
1.30060000 7.20170000 -3.93440000
-2.67840000 5.95200000 -2.90520000
0.72920000 7.33500000 -3.89760000
-2.62300000 5.98870000 -2.81870000
-2.61460000 5.87280000 -2.87010000
0.84630000 7.35820000 -3.87240000
0.96180000 7.34280000 -3.89620000
-2.79150000 -0.83310000 -4.02420000
-2.80810000 -0.96220000 -4.00020000
-2.81610000 -0.85500000 -3.95520000
-2.77700000 -0.70250000 -4.03630000
-2.69410000 -0.88050000 -4.05740000
-2.71630000 3.98470000 -3.02060000
-2.73390000 3.48760000 -2.98390000
-2.74920000 3.50340000 -3.14680000
-2.71470000 4.33810000 -3.06260000
-2.69130000 6.28480000 -2.51580000
-2.67570000 6.21720000 -2.59430000
-2.59540000 6.18680000 -2.50280000
-2.64700000 6.17750000 -2.60380000
-2.54580000 6.16440000 -2.59650000
-2.58850000 6.12770000 -2.66180000
-2.69790000 5.54830000 -3.05590000
-2.65910000 5.64990000 -2.94480000
-2.54840000 5.96100000 -2.80910000
-2.49240000 5.83220000 -2.84780000
-2.49170000 6.20520000 -2.56430000
-2.57030000 5.51860000 -2.91260000
-2.47320000 6.25560000 -2.38490000
-2.67750000 6.17240000 -2.70310000
-2.63500000 6.11000000 -2.72040000
-2.39810000 6.23380000 -2.56860000
-2.64940000 5.30600000 -2.98580000
-2.48290000 5.57910000 -2.88940000
-2.56620000 6.05920000 -2.74220000
-2.48860000 6.11920000 -2.70660000
-2.44230000 5.98700000 -2.80740000
-2.69730000 5.22340000 -3.06050000
-2.42050000 6.17750000 -2.70120000
-2.31190000 6.17880000 -2.70070000
-2.71750000 4.84620000 -3.12640000
-2.35020000 6.25080000 -2.46280000
-2.52380000 5.05070000 -2.81520000
-2.38080000 5.19670000 -2.78250000
-2.26300000 6.21910000 -2.40060000
-2.38820000 5.34210000 -2.91350000
-2.13030000 6.04400000 -2.55800000
-2.32500000 5.57410000 -2.89210000
-2.55460000 5.12770000 -2.96820000
-2.17880000 6.12560000 -2.57620000
-2.23440000 6.16510000 -2.64240000
-2.41800000 5.19040000 -2.90700000
-2.32450000 5.23240000 -2.87510000
-2.37660000 5.17710000 -2.84640000
-2.26530000 5.31940000 -2.88360000
-2.35640000 6.06210000 -2.82430000
-2.36500000 6.13520000 -2.77360000
-2.27510000 6.04910000 -2.83980000
-2.23110000 6.08990000 -2.78560000
-2.16910000 6.07680000 -2.72080000
-2.61390000 7.32960000 -3.40190000
-2.65420000 7.31100000 -3.46380000
1.75010000 2.17510000 -2.86930000
-2.72390000 4.16710000 -3.97610000
-2.73410000 4.06830000 -3.92090000
-2.71780000 4.81870000 -3.93920000
-2.69690000 5.50290000 -3.96010000
-2.70430000 5.37640000 -3.86580000
-2.68780000 5.83040000 -3.96120000
-2.66340000 5.52060000 -4.00740000
-2.64350000 5.80960000 -4.01350000
-2.58000000 5.47720000 -4.02250000
-2.69270000 5.22470000 -3.98310000
-2.64620000 5.24460000 -4.01960000
-2.65520000 7.28920000 -3.80400000
-2.66870000 7.28180000 -3.60460000
-2.62630000 7.31920000 -3.75080000
-2.57030000 7.33200000 -3.71940000
-2.67680000 4.83190000 -4.01040000
-2.70680000 4.86520000 -3.98050000
-2.60600000 7.31040000 -3.91010000
-2.37120000 5.84640000 -2.86190000
-2.11860000 5.99800000 -2.37020000
-2.65590000 7.08120000 -3.95360000
-2.66760000 7.00290000 -3.93000000
-2.67160000 7.02480000 -3.84160000
-2.62810000 7.12580000 -3.98470000
-2.64540000 7.25090000 -3.92230000
-2.63740000 4.54750000 -4.02200000
-2.65280000 6.79440000 -3.98090000
-2.61670000 6.86920000 -4.00270000
-2.58420000 6.93290000 -4.01180000
-2.10080000 5.76290000 -2.51510000
-2.70250000 4.43960000 -4.00080000
-2.09600000 5.89710000 -2.58750000
-2.26480000 5.41880000 -2.57940000
-2.14890000 5.50430000 -2.65900000
-2.21410000 5.38320000 -2.69350000
-2.11760000 5.54960000 -2.73230000
-2.26640000 5.26220000 -2.82770000
-2.17570000 5.42330000 -2.84960000
-2.19000000 5.36730000 -2.79960000
-2.28480000 5.95450000 -2.87370000
-2.19650000 5.82110000 -2.89050000
-2.21760000 5.95210000 -2.87570000
-2.16970000 5.98780000 -2.82360000
-2.10930000 5.93930000 -2.73910000
-2.13520000 5.89030000 -2.83170000
-2.21830000 5.59740000 -2.90440000
-2.18160000 5.68770000 -2.90370000
-2.13190000 5.73410000 -2.86340000
-2.09550000 5.81360000 -2.77640000
-2.09320000 5.71950000 -2.73870000
-2.11750000 5.62390000 -2.82120000
-2.81080000 -0.22170000 -3.81390000
-2.68990000 3.99540000 -4.01880000
-2.21870000 5.43270000 -2.88670000
-2.15680000 5.55300000 -2.88540000
-2.71920000 3.86980000 -3.99610000
-2.64640000 3.72500000 -4.02540000
-2.61280000 4.74290000 -2.97540000
-2.61290000 4.80850000 -2.90380000
-2.63510000 4.75640000 -3.02340000
-2.59160000 4.96340000 -2.99880000
-2.69100000 4.86470000 -3.05990000
-2.70630000 4.63290000 -3.06950000
-2.65630000 4.64340000 -3.01390000
-2.78080000 0.46110000 -4.00440000
-2.73360000 0.17960000 -4.04610000
-2.73600000 3.69220000 -3.97520000
-2.74470000 3.53070000 -3.92730000
-2.55760000 4.89160000 -2.91870000
-2.71040000 3.53460000 -4.00960000
-2.53870000 4.92910000 -2.95880000
-2.46170000 5.07050000 -2.89140000
-2.73380000 3.46280000 -3.98110000
-2.54970000 0.39860000 -4.03910000
-2.70250000 3.70450000 -4.01430000
-2.67900000 3.30080000 -4.02700000
-2.49110000 5.05920000 -2.93790000
-2.32810000 3.39360000 -4.02100000
-2.77630000 0.02030000 -4.02340000
-2.61200000 -0.35960000 -4.04890000
-2.67000000 4.54140000 -2.99280000
-2.39640000 -0.18950000 -4.04050000
-2.67680000 6.67600000 -3.94410000
-2.68310000 6.41220000 -3.91310000
-2.66210000 6.40970000 -3.98670000
-2.64300000 6.54200000 -4.00010000
-2.79560000 -0.20700000 -3.99910000
-2.79480000 -0.49200000 -4.01050000
-2.74910000 -0.29380000 -4.04710000
-2.60470000 6.61780000 -4.01540000
-2.74720000 3.18880000 -3.94940000
-2.74880000 2.84810000 -3.97070000
-2.74180000 2.53030000 -4.00120000
-2.68710000 2.63170000 -4.02970000
-2.73350000 2.81300000 -4.00140000
-2.67890000 6.20850000 -3.96790000
-2.69120000 6.02750000 -3.89270000
-2.72400000 3.27630000 -4.00320000
-2.60340000 6.20350000 -4.01870000
-2.72460000 -0.53570000 -4.05410000
-2.71590000 3.03900000 -4.01510000
-2.65380000 2.99830000 -4.03150000
-2.65980000 6.07680000 -3.99920000
-2.46560000 -1.15580000 -4.04980000
-2.68760000 2.83520000 -4.03110000
-2.54070000 2.80150000 -4.01950000
-2.41300000 2.74230000 -4.02300000
-2.60600000 2.66770000 -4.02980000
-2.19490000 2.67540000 -4.02420000
-2.75500000 2.21650000 -3.98760000
-2.72320000 2.32690000 -4.02180000
-2.69280000 2.44050000 -4.02930000
-2.66960000 2.15950000 -4.03610000
-2.71330000 2.09660000 -4.02780000
-2.54320000 2.25310000 -4.03190000
-2.73360000 1.86580000 -4.02240000
-2.66290000 1.83900000 -4.03580000
-2.53700000 1.83980000 -4.02560000
2.65450000 3.98050000 -3.93380000
2.51870000 -1.02720000 -3.96840000
-2.54350000 2.44660000 -4.02700000
-2.37650000 2.36250000 -4.02500000
-2.44710000 2.33070000 -4.01590000
-2.12800000 2.68200000 -4.01280000
-2.04180000 2.63420000 -4.01910000
-2.70120000 1.57390000 -4.03650000
-2.53510000 1.53840000 -4.02870000
-2.35130000 1.55960000 -4.02070000
-2.29240000 1.50290000 -4.02810000
-2.29140000 1.68870000 -4.03050000
0.23760000 3.86100000 -0.65960000
0.84570000 4.84230000 -1.82150000
0.57210000 4.43050000 -1.21790000
1.16040000 7.33500000 -3.90290000
1.12860000 7.36600000 -3.87070000
1.00960000 7.36060000 -3.84510000
1.15480000 7.35000000 -3.63320000
1.22040000 7.36280000 -3.82840000
1.48560000 7.36340000 -3.70890000
1.33310000 7.35960000 -3.82770000
1.28260000 7.36730000 -3.88150000
1.30350000 7.31300000 -3.90720000
2.42770000 7.37440000 -1.84350000
2.29360000 7.35910000 -0.58950000
2.66660000 7.38110000 -0.73320000
1.49940000 7.35910000 -2.31760000
2.73850000 7.36440000 -0.25360000
2.71720000 7.36440000 0.23090000
1.64560000 7.36290000 -3.24910000
1.43770000 7.36890000 -3.83170000
2.76830000 7.33130000 0.37880000
1.70600000 7.35590000 -3.59060000
2.78690000 7.30300000 0.12060000
1.67660000 7.36550000 -3.79710000
2.77610000 7.34190000 -0.37580000
2.79830000 7.23070000 -0.53420000
2.79520000 7.30820000 -0.67290000
2.73850000 7.06320000 0.20920000
2.79410000 7.13680000 -1.04780000
2.75860000 7.09700000 0.90460000
2.30630000 6.63830000 0.94390000
2.76630000 7.07800000 -1.46890000
2.57700000 7.39700000 -2.86770000
1.41160000 7.36340000 -3.87290000
1.42850000 7.32720000 -3.89800000
1.67070000 7.28910000 -3.90720000
1.50080000 7.36030000 -3.88250000
2.77620000 7.17540000 1.15030000
1.58470000 7.36750000 -3.84660000
1.65450000 7.35240000 -3.88380000
1.82090000 7.36520000 -3.75130000
1.74260000 7.37920000 -3.85910000
2.62910000 4.70020000 -2.89100000
2.37300000 4.91970000 -2.88350000
1.84200000 7.36300000 -3.88300000
2.73180000 4.24840000 -2.88820000
2.60050000 3.31680000 -2.89160000
1.87650000 7.38230000 -3.83150000
1.94190000 7.34650000 0.58170000
1.95820000 7.29530000 -3.89990000
2.82170000 4.28710000 -2.88650000
2.79370000 4.17840000 -2.88410000
2.84490000 3.99910000 -2.89870000
2.86550000 4.00480000 -2.92940000
2.43710000 7.35620000 2.17000000
2.60890000 6.30320000 -3.91380000
1.12960000 5.23520000 -2.15350000
1.12640000 5.25720000 -0.97260000
2.78870000 3.87490000 -2.88800000
1.37490000 5.57340000 -1.66250000
2.79130000 7.35440000 -1.69760000
2.76440000 7.36480000 -1.05740000
2.83570000 3.84030000 -2.89330000
2.86630000 3.66880000 -2.92840000
2.84760000 3.58060000 -2.90550000
2.87360000 3.93130000 -2.97500000
2.73950000 7.38670000 -1.81310000
2.77810000 4.56380000 -2.88320000
2.84170000 4.48160000 -2.90280000
2.85700000 4.30750000 -2.92070000
2.86630000 4.34510000 -2.98570000
2.88560000 3.31380000 -3.11580000
2.11860000 7.36860000 -3.48270000
2.10150000 7.37350000 -2.83370000
2.53740000 6.84640000 -1.95550000
1.99130000 7.35420000 -3.70230000
1.96330000 7.38890000 -3.85840000
2.06240000 7.35600000 -3.87120000
2.06780000 7.36400000 -3.81690000
2.14880000 7.36990000 -3.82430000
2.20870000 7.35380000 -3.73720000
2.42350000 7.37880000 -3.59290000
2.43320000 7.25080000 -3.90020000
2.54170000 6.87990000 2.13180000
2.32940000 7.35540000 0.79040000
1.55230000 5.77220000 -2.32570000
1.76650000 6.04690000 -1.26270000
2.74830000 2.80920000 -3.94380000
1.81670000 6.08000000 -2.51190000
1.71500000 5.93890000 -2.64090000
2.86910000 3.29280000 -2.92220000
2.81600000 3.48570000 -2.89210000
2.81850000 3.12150000 -2.89170000
2.15190000 6.46460000 -1.07840000
2.87990000 3.39240000 -2.95830000
2.88640000 2.86610000 -2.95870000
2.86410000 3.03400000 -2.91110000
2.64630000 7.35410000 2.20520000
2.85020000 2.75670000 -2.89880000
2.87640000 4.09820000 -3.74860000
2.91160000 1.46580000 -3.68710000
2.18860000 6.49270000 -2.48120000
2.05060000 6.31910000 -2.66540000
2.28400000 7.32140000 -3.87930000
2.20700000 7.37490000 -3.84700000
2.30200000 7.36970000 -3.85420000
1.74250000 5.89770000 -2.76530000
1.97330000 6.19990000 -2.73570000
1.50580000 5.66630000 -2.68530000
2.45570000 7.39190000 -3.83280000
2.07620000 6.24470000 -2.79810000
2.04570000 6.13300000 -2.82600000
1.60020000 5.64210000 -2.79970000
2.17770000 6.17860000 -2.85070000
2.48630000 7.37290000 -3.86630000
2.66890000 7.40560000 -3.64860000
2.35370000 6.64100000 -2.66110000
2.32760000 6.57350000 -2.74870000
2.35410000 6.49020000 -2.83140000
2.62900000 7.34750000 -3.88680000
2.58440000 7.40760000 -3.83980000
2.78030000 7.38200000 -2.49380000
2.72140000 7.40110000 -2.82420000
2.38000000 6.58600000 -2.79660000
2.74870000 7.04430000 -2.20010000
2.53040000 6.83320000 -2.44360000
2.70810000 7.40420000 -3.82940000
2.74650000 7.39810000 -3.68880000
2.78010000 7.37690000 -3.78510000
2.80560000 7.35980000 -3.58560000
2.81630000 7.28680000 -3.79350000
2.82440000 7.30310000 -3.35320000
2.73510000 7.32760000 -3.88940000
2.78020000 7.34030000 -3.85550000
2.74640000 6.94440000 -3.90360000
2.69090000 6.96950000 -2.55780000
2.79800000 7.10350000 -2.27920000
2.82740000 7.05730000 -3.81570000
2.84530000 6.07620000 -3.37150000
2.76620000 7.24340000 -3.89470000
2.81050000 7.23390000 -3.85760000
2.80200000 6.94300000 -3.88650000
2.51940000 6.41710000 -2.88080000
2.58780000 6.03570000 -2.88200000
2.75990000 1.90890000 -2.89140000
2.84290000 6.18910000 -3.82620000
2.82640000 6.78210000 -3.85900000
2.82190000 7.26030000 -2.73570000
2.81020000 7.32740000 -2.08890000
2.81600000 2.37600000 -2.89230000
2.83500000 2.52740000 -2.88990000
2.87900000 2.51870000 -2.91500000
2.88270000 2.30280000 -2.91940000
2.89530000 2.38070000 -2.95780000
2.77490000 6.49990000 -3.91050000
2.87460000 2.05070000 -2.91240000
2.82030000 6.40320000 -3.88810000
2.89830000 1.91410000 -2.95470000
2.81440000 7.16610000 -2.28740000
2.84060000 1.77690000 -2.89270000
2.79800000 6.09990000 -3.90970000
2.83580000 6.08170000 -3.87270000
2.74860000 7.08260000 2.44200000
2.70690000 7.34620000 2.02220000
2.71010000 7.35510000 1.13180000
2.74100000 7.32880000 1.49360000
2.75260000 7.31270000 2.05570000
2.76690000 7.27470000 1.61740000
2.78650000 7.05970000 -2.63000000
2.60310000 6.85950000 -2.70750000
2.78200000 6.98490000 -2.76350000
2.81600000 7.08250000 -2.75180000
2.81030000 7.36140000 -2.98170000
2.76330000 7.39690000 -3.10060000
2.82560000 6.93380000 -2.90840000
2.87220000 1.58590000 -2.90260000
2.83900000 1.47700000 -2.89410000
2.89590000 1.65990000 -2.93070000
2.90850000 1.41600000 -2.97400000
2.59530000 6.77300000 -2.81470000
2.72480000 7.04710000 2.03330000
2.91060000 1.45620000 -3.10180000
2.85850000 1.11450000 -2.89560000
2.89300000 1.34220000 -2.92230000
2.67790000 6.44260000 -2.87340000
2.78600000 7.38930000 -3.41070000
2.89340000 1.12950000 -2.91470000
2.91280000 1.05300000 -2.96020000
1.27760000 5.40310000 -2.56940000
2.68520000 6.89980000 -2.76650000
1.11500000 5.16500000 -2.65790000
2.59450000 6.68950000 -2.85100000
2.68500000 6.71910000 -2.85090000
2.72650000 6.86760000 -2.81660000
2.75500000 6.72180000 -2.84310000
2.79230000 6.77020000 -2.85270000
2.78390000 6.44420000 -2.87140000
2.82250000 6.65990000 -2.90640000
2.81170000 6.88890000 -2.86720000
2.83730000 6.31440000 -2.97890000
0.98160000 4.92400000 -2.73870000
0.96360000 4.81950000 -2.78250000
1.03500000 4.82140000 -2.80750000
1.13480000 5.14610000 -2.73540000
1.10370000 5.03380000 -2.77810000
1.25560000 5.12700000 -2.80960000
2.82010000 6.27690000 -2.90110000
2.74960000 6.24060000 -2.87000000
2.75370000 6.82950000 3.19460000
2.73120000 6.96260000 3.07040000
1.24840000 5.31580000 -2.72050000
1.43620000 5.53390000 -2.74730000
1.26860000 5.26680000 -2.77710000
2.76440000 7.22120000 2.61820000
2.70320000 6.98980000 2.96860000
2.65250000 6.87260000 3.06120000
2.61320000 6.91270000 2.93800000
2.74200000 7.05220000 2.90860000
2.69170000 7.00470000 2.64000000
2.56540000 6.89710000 2.80650000
2.76070000 7.12650000 2.74680000
2.53270000 6.81930000 3.00660000
2.70780000 6.75460000 3.14120000
2.73480000 6.57850000 3.17540000
2.84880000 2.49850000 -3.94280000
2.82340000 2.02000000 -3.94990000
2.88820000 2.22440000 -3.91200000
2.87240000 2.00450000 -3.93630000
2.89030000 2.59570000 -3.89260000
2.90280000 2.07300000 -3.86330000
2.82130000 1.47190000 -3.95120000
2.86500000 1.60760000 -3.94290000
2.90530000 1.61060000 -3.88020000
2.89000000 1.80240000 -3.92060000
2.89230000 1.37070000 -3.92710000
2.79320000 1.10270000 -3.95410000
2.86010000 1.21090000 -3.95020000
2.90800000 1.21200000 -3.89830000
2.71180000 5.14580000 -3.92570000
2.78650000 5.41520000 -3.92120000
2.85790000 5.27840000 -3.80160000
2.84800000 5.46140000 -3.86560000
2.76970000 5.68200000 -3.92280000
2.82570000 5.70670000 -3.90020000
2.75250000 5.48610000 -2.88030000
2.75220000 7.34140000 0.81470000
2.76840000 7.30670000 1.25050000
2.78290000 7.26280000 0.79900000
2.83280000 4.09260000 -3.92670000
2.84930000 4.20290000 -3.91070000
2.86580000 3.97060000 -3.89450000
2.79080000 4.02090000 -3.93550000
2.80950000 3.62410000 -3.93660000
2.86340000 3.60190000 -3.91170000
2.87960000 3.62520000 -3.86920000
2.81990000 4.42480000 -3.92670000
2.79980000 4.88860000 -2.88650000
2.78330000 5.07850000 -2.87950000
2.81200000 5.16260000 -2.88560000
2.84790000 4.99570000 -2.91970000
2.86110000 4.89270000 -2.98040000
2.85290000 5.26970000 -2.94730000
2.85380000 5.50540000 -3.03490000
2.87280000 4.25080000 -3.84380000
2.86560000 4.68290000 -3.84730000
2.85870000 4.47650000 -3.89250000
2.81140000 4.69950000 -3.92760000
2.83720000 4.69370000 -2.90160000
2.82690000 3.35410000 -3.93720000
2.88350000 3.25900000 -3.87640000
2.73910000 5.82890000 -2.88020000
2.76790000 5.98120000 -2.87300000
2.82570000 5.80060000 -2.89510000
2.87240000 3.29590000 -3.90880000
2.79640000 5.69590000 -2.87950000
2.84560000 5.66950000 -2.94340000
2.83830000 5.51790000 -2.91060000
2.82000000 5.41150000 -2.88890000
2.83610000 3.06280000 -3.93890000
2.78960000 5.00000000 -3.92910000
2.89050000 2.93550000 -3.85990000
2.82610000 5.24340000 -3.90960000
2.87400000 2.92860000 -3.91740000
2.85260000 5.05660000 -3.87930000
2.84110000 4.84960000 -3.90600000
2.80040000 6.09590000 -2.87550000
2.83470000 5.90560000 -2.91840000
0.99920000 -7.24900000 -3.98210000
0.73560000 -7.25270000 -3.92640000
0.60600000 -7.23610000 -4.01810000
0.77640000 -7.18980000 -4.06640000
0.63420000 -7.20690000 -4.05880000
0.84550000 -7.13150000 -4.07060000
0.93820000 -7.21230000 -4.04430000
0.49780000 -3.97450000 -2.89260000
0.71020000 -3.14830000 -2.88060000
-0.21820000 -3.57730000 -2.90540000
1.35820000 -6.92160000 -4.05510000
-0.23230000 -6.94760000 -4.08260000
0.90620000 -6.19280000 -4.05390000
1.50770000 -6.58650000 -4.04800000
-2.82260000 -1.80740000 -3.99610000
-2.83260000 -1.98370000 -3.95280000
0.61700000 -5.31280000 -4.05020000
-2.05490000 -5.31270000 -4.08850000
-1.20630000 -4.76140000 -4.07220000
1.14850000 -7.18420000 -4.06050000
1.15720000 -7.23270000 -4.02830000
-0.98190000 -1.52700000 -4.03260000
-0.54470000 -1.41920000 -4.02540000
-0.30880000 -2.56760000 -4.03130000
0.31470000 -7.11890000 -2.96190000
0.54430000 -7.09260000 -2.98700000
0.46340000 -6.93920000 -2.97440000
0.43520000 -7.19090000 -2.98670000
0.43440000 -7.23020000 -3.05350000
0.61050000 -7.16920000 -2.99160000
2.67740000 -3.30810000 -2.87890000
1.64750000 -3.09030000 -2.87100000
1.64330000 -4.03450000 -2.87310000
-0.00090000 -4.33780000 -2.91610000
0.64980000 -7.20700000 -3.01420000
-1.30360000 -3.05500000 -4.05230000
-2.80010000 -2.14960000 -4.04350000
-2.78600000 -1.72370000 -4.04690000
-2.73770000 -2.75930000 -4.07050000
0.26340000 -2.44940000 -2.89070000
-0.29600000 -1.61440000 -4.01980000
-2.82690000 -2.43410000 -4.01660000
-2.84340000 -2.58220000 -3.96060000
-2.80710000 -2.64510000 -4.04920000
-0.87220000 -3.51530000 -4.05420000
-2.44320000 -2.41720000 -4.06210000
-2.70940000 -1.77430000 -4.06510000
-0.71530000 -3.22560000 -4.04270000
-2.80470000 -1.23830000 -4.02070000
-2.76390000 -1.06230000 -4.05020000
0.67550000 -7.03840000 -2.97790000
-2.70950000 -1.21670000 -4.06100000
0.80690000 -7.13740000 -2.96420000
0.84600000 -7.26080000 -3.11320000
0.21810000 -7.26410000 -3.16350000
0.79500000 -7.22620000 -3.04750000
1.13060000 -7.27120000 -3.17130000
0.93990000 -7.26320000 -3.56940000
0.85330000 -7.19640000 -2.97980000
-2.75990000 -1.38690000 -4.05640000
-2.56100000 -1.52480000 -4.05590000
0.94920000 -7.21450000 -2.98440000
0.98690000 -7.24020000 -3.05250000
-1.57790000 -4.16540000 -4.07020000
-0.11770000 -2.18970000 -4.02370000
1.04970000 -7.10240000 -2.95240000
1.04910000 -7.17580000 -2.96060000
1.07360000 -7.21440000 -2.98560000
-2.12680000 -1.82420000 -4.05300000
1.17220000 -7.18520000 -2.95900000
1.34580000 -7.16340000 -2.94850000
1.51680000 -6.98990000 -2.94130000
-1.51760000 -4.63020000 -4.07000000
1.12390000 -7.23760000 -3.04400000
0.32170000 -0.80200000 -4.00560000
1.46550000 -2.11560000 -3.99560000
1.24090000 -7.21140000 -2.97140000
1.29710000 -7.23750000 -3.03350000
1.37740000 -7.21870000 -2.97330000
0.16370000 -3.23720000 -4.03110000
1.55060000 -7.23130000 -3.01760000
1.71360000 -7.14900000 -2.95380000
1.53660000 -7.19530000 -2.96490000
0.52510000 -4.84870000 -2.91580000
2.78960000 -1.39000000 -2.88780000
-1.40250000 -0.92260000 -2.75320000
-1.52750000 -1.45930000 -2.73000000
2.80660000 0.74370000 -3.95730000
-1.57890000 -1.82490000 -2.77700000
0.57340000 -5.56400000 -3.00030000
0.58690000 -5.48360000 -2.96440000
0.34930000 -5.50350000 -2.95460000
0.51480000 -5.36550000 -2.93580000
0.85350000 -5.48300000 -2.94820000
1.06410000 -5.42350000 -2.92120000
-1.35910000 -0.90810000 -2.80530000
0.17200000 -5.66690000 -2.96760000
0.46430000 -5.66570000 -3.01780000
0.69350000 -5.68210000 -3.02680000
2.78830000 -0.17390000 -3.96280000
-1.57110000 -1.92170000 -2.81220000
-1.61800000 -2.46400000 -2.85290000
2.86560000 0.45780000 -3.95490000
2.84650000 0.72360000 -3.95370000
2.90680000 0.61620000 -3.90230000
-1.35490000 -1.29270000 -2.85440000
-1.46650000 -1.55680000 -2.83380000
2.91140000 0.28360000 -3.91870000
2.91880000 0.66090000 -3.84540000
-1.30260000 -1.54240000 -2.87680000
