-0.08110000 8.14950000 4.28400000
4.76210000 4.38820000 3.80940000
4.63340000 4.59610000 3.90330000
0.34990000 8.63120000 4.27050000
3.46450000 4.05940000 3.92170000
3.42950000 4.27680000 3.99450000
3.74990000 4.60820000 3.97580000
3.91660000 4.93670000 3.97580000
3.90680000 4.24520000 3.78180000
3.87560000 3.95710000 3.83510000
3.74260000 4.46380000 4.05450000
3.83750000 4.20920000 3.94600000
3.41120000 4.49700000 4.12830000
3.14820000 4.84200000 4.15320000
3.45140000 4.69180000 4.15500000
3.63300000 4.82480000 4.08650000
2.25220000 7.02330000 3.71190000
2.13310000 7.19820000 3.73630000
2.06270000 7.05160000 3.70190000
3.57520000 5.07600000 4.11560000
2.14720000 6.99210000 3.74040000
1.99480000 7.09570000 3.76530000
-0.00620000 7.69710000 3.94620000
0.00390000 7.62790000 3.96450000
0.13500000 7.67190000 4.02030000
-0.04990000 7.67820000 4.07510000
-0.00490000 7.60820000 4.05670000
2.36960000 6.93960000 3.73050000
-0.05480000 7.43160000 4.07780000
-0.39980000 7.51830000 3.99120000
-0.27690000 7.31720000 3.92870000
1.86760000 7.24590000 3.71590000
1.91110000 7.25370000 3.67710000
1.91950000 7.30960000 3.75190000
-0.14030000 7.62940000 4.11160000
1.98300000 7.17150000 3.71460000
3.65820000 4.30190000 4.08550000
-0.06770000 7.34010000 4.03490000
-0.02280000 7.53290000 4.10980000
0.21980000 7.48730000 4.11120000
1.91080000 7.22980000 3.79640000
1.63950000 7.14650000 4.01980000
0.43670000 7.59230000 3.98390000
0.44610000 7.71510000 4.00690000
0.38240000 7.66300000 3.99880000
0.57350000 7.69300000 4.08010000
4.21470000 5.05210000 4.00730000
4.31640000 4.85500000 3.92150000
1.87620000 7.21390000 3.89390000
1.79240000 7.15610000 3.99730000
1.73900000 7.23670000 3.99560000
1.88020000 7.28510000 3.96140000
0.22640000 7.75110000 3.98470000
4.67220000 4.98160000 3.98690000
0.27660000 7.61250000 4.09030000
2.09720000 7.33760000 3.83190000
4.16190000 5.30840000 4.03470000
0.39330000 7.60370000 4.06300000
2.51030000 7.27630000 3.84780000
0.50700000 7.59320000 4.05950000
2.49130000 7.32770000 3.92190000
2.05730000 7.35040000 3.90850000
0.49450000 7.49010000 4.14750000
-0.00840000 7.21160000 3.92250000
0.14120000 7.21730000 4.11020000
0.26880000 7.32230000 4.16280000
0.39570000 7.23690000 4.15010000
2.05400000 7.30100000 4.05910000
0.53600000 7.30560000 4.17520000
2.43590000 7.32880000 4.02840000
2.14810000 7.35340000 4.14560000
3.52440000 8.36640000 3.93470000
3.74560000 8.50200000 3.98220000
3.56520000 8.51070000 3.91390000
3.76990000 8.25620000 3.87530000
3.52090000 8.15010000 3.94490000
-0.88150000 7.56580000 3.95000000
-0.83310000 7.63600000 4.20030000
-0.55580000 7.58340000 4.09550000
3.47480000 7.43530000 3.95860000
-0.57440000 7.56450000 4.00050000
-0.56480000 7.75610000 4.26640000
-0.35690000 7.61850000 4.15230000
2.59390000 7.34390000 4.08580000
2.71260000 7.49010000 4.15620000
2.80900000 7.40160000 4.08370000
2.89590000 7.38830000 3.99430000
3.12170000 7.61640000 4.06120000
4.02120000 3.70960000 3.47270000
4.14110000 3.73740000 3.31080000
4.18850000 3.82270000 3.41840000
-0.24520000 7.84620000 4.25840000
3.91970000 3.47730000 3.37680000
3.96280000 3.54460000 3.32420000
4.03810000 3.44030000 3.30260000
4.21720000 3.60260000 3.24460000
3.95030000 3.59190000 3.53520000
3.02150000 8.29510000 3.92530000
3.16540000 8.03410000 3.96940000
4.23980000 3.99890000 3.57500000
3.99120000 3.90330000 3.69600000
3.41020000 7.88100000 3.99420000
3.02240000 7.96600000 4.06040000
3.15410000 7.75570000 4.09360000
3.67040000 8.07690000 3.89640000
3.79280000 8.24360000 3.79450000
3.73350000 7.88960000 3.92110000
3.83100000 3.97700000 3.98240000
3.77560000 3.78780000 3.93940000
-2.78200000 8.41870000 4.01740000
-2.50940000 8.24230000 4.17590000
-2.53620000 8.34750000 4.06520000
4.09390000 3.29400000 3.39760000
4.00830000 3.34080000 3.59060000
-2.54030000 8.56100000 4.03370000
3.98360000 3.38640000 3.71480000
3.88470000 3.59740000 3.78250000
-2.24760000 8.45020000 4.07210000
-2.30660000 8.58290000 4.06260000
3.97070000 3.27730000 3.80280000
-2.26920000 8.34210000 4.10500000
4.20190000 3.17120000 3.59320000
-2.15860000 8.27830000 4.16690000
-2.22080000 8.38770000 4.16870000
3.72720000 3.32760000 3.84890000
-2.54320000 7.96410000 4.25840000
-2.98770000 8.54780000 3.98020000
3.38160000 3.71580000 3.89430000
3.63900000 3.69320000 3.92960000
3.91760000 7.42960000 3.89870000
3.97300000 7.66340000 3.99640000
3.58570000 7.71290000 4.01440000
4.34780000 3.76560000 3.24330000
4.00250000 7.81940000 3.88660000
4.81940000 3.91440000 3.21110000
4.87350000 3.72110000 3.31790000
-2.16150000 8.58430000 4.14170000
-2.09290000 8.50910000 4.19530000
-1.79980000 8.48220000 4.23820000
-1.90590000 8.38250000 4.20490000
-1.90440000 8.72340000 4.21420000
-1.65420000 8.53740000 4.22630000
-1.40640000 8.56200000 4.19760000
4.81710000 4.21730000 3.71730000
-1.64140000 8.22800000 4.26240000
-2.10190000 8.74370000 4.18740000
-1.97350000 8.03410000 4.24130000
-1.21620000 8.60150000 4.11080000
-1.19940000 8.67640000 4.17390000
-0.91040000 8.60820000 4.12410000
1.36130000 4.53730000 3.78180000
2.06060000 4.91760000 4.12920000
1.39620000 9.32540000 4.23920000
0.92550000 9.44350000 4.22180000
2.18280000 8.86280000 3.65550000
2.04520000 8.90550000 3.70670000
2.08340000 8.82990000 3.63390000
2.20130000 8.88660000 3.80090000
1.87170000 9.11960000 4.18300000
2.27420000 9.04160000 4.19860000
2.40070000 9.37710000 4.17970000
3.29920000 9.14000000 4.13920000
2.85910000 9.91290000 4.15130000
5.44190000 3.57150000 3.06910000
5.32190000 3.44690000 3.08400000
5.51470000 3.49010000 3.09070000
5.31860000 3.28020000 3.14990000
5.50830000 3.54660000 3.16980000
5.06080000 3.51640000 3.13670000
5.02110000 3.46380000 3.11740000
5.30890000 3.53220000 3.13680000
5.45760000 3.55120000 3.26510000
5.17110000 3.37390000 3.11610000
5.42960000 3.30490000 3.20110000
5.47300000 3.41410000 3.29430000
5.09840000 3.50720000 3.23810000
5.33920000 3.47650000 3.26990000
5.18530000 3.40400000 3.31700000
5.41320000 3.51370000 3.38460000
5.35070000 3.36770000 3.36460000
5.41350000 3.43490000 3.42200000
5.48120000 3.49110000 3.40740000
5.28620000 3.10960000 3.30060000
5.28360000 3.29860000 3.41570000
5.37580000 3.28740000 3.39450000
5.33540000 3.13160000 3.41280000
5.37040000 3.22770000 3.32790000
5.35460000 3.10960000 3.57490000
5.43780000 3.34490000 3.41800000
5.23020000 3.33390000 3.47550000
5.50700000 3.30330000 3.78330000
5.45090000 3.72180000 3.78750000
5.40980000 3.52600000 3.70680000
5.78410000 3.43300000 3.84060000
1.83000000 8.59770000 3.75220000
2.06750000 8.66220000 3.67430000
1.87160000 8.66720000 3.67540000
1.68960000 8.64700000 3.80910000
1.70170000 8.68310000 3.79210000
1.65540000 8.68960000 3.78780000
1.75700000 8.68500000 3.75610000
1.62220000 8.71340000 3.81650000
1.64960000 8.69720000 3.80450000
1.66120000 8.69200000 3.79720000
1.80600000 8.69400000 3.84960000
2.03100000 8.50870000 3.76770000
1.72940000 8.67110000 3.82570000
1.53230000 8.55270000 4.10660000
1.49770000 8.43670000 4.20080000
1.62170000 8.52800000 4.10440000
1.67810000 8.52180000 4.19970000
1.70080000 8.43280000 4.15910000
1.62980000 8.33900000 4.20530000
1.49870000 8.21220000 4.23350000
1.86390000 8.21310000 4.27090000
1.87130000 8.38840000 4.28530000
1.82150000 8.56000000 4.23520000
1.92010000 8.30390000 4.33810000
4.75530000 6.45140000 3.77300000
4.90640000 6.05110000 3.79240000
4.94120000 6.41680000 3.74980000
5.06190000 6.07680000 3.83810000
5.06930000 6.29030000 3.86360000
4.99650000 5.73620000 3.86060000
5.15430000 6.00650000 3.91250000
4.99660000 5.16870000 3.92140000
5.16650000 5.30260000 3.89850000
4.84750000 5.46590000 3.88240000
4.60860000 5.31730000 3.98900000
0.64600000 7.95710000 4.22080000
0.78570000 8.48190000 4.26060000
0.40620000 8.35170000 4.25690000
5.14690000 5.63720000 3.91930000
5.32550000 5.63260000 3.92620000
1.28080000 8.30520000 4.20270000
1.40390000 8.57940000 4.17280000
0.97730000 8.24520000 4.19210000
5.53600000 5.86120000 3.89780000
5.62080000 6.37050000 3.88890000
5.35950000 6.39470000 3.93540000
1.31450000 7.92380000 4.24430000
0.93210000 8.48920000 4.21920000
1.26330000 8.71670000 4.16420000
1.38000000 8.91950000 4.19120000
6.03450000 6.27430000 3.87890000
6.05020000 5.43710000 3.87890000
1.60040000 8.80120000 4.15600000
1.81590000 8.98920000 4.12770000
1.56990000 8.60320000 4.15500000
0.65460000 7.62580000 4.10100000
0.69970000 7.57880000 4.03370000
0.80370000 7.62710000 4.04780000
0.80770000 7.49920000 4.02890000
0.63910000 7.49600000 4.08590000
0.92930000 7.54140000 3.97620000
0.92890000 7.63970000 4.07380000
0.89970000 7.71610000 4.16900000
5.84400000 7.19220000 3.87530000
1.00680000 7.43260000 4.03170000
1.04240000 7.58750000 4.15340000
0.96170000 7.89510000 4.24340000
1.27030000 7.59840000 4.24570000
0.87140000 7.38650000 4.03530000
0.70290000 7.34720000 4.05270000
0.78690000 7.25120000 4.01180000
0.72270000 7.23070000 4.10170000
0.89480000 7.29940000 4.00260000
0.88420000 7.22530000 4.04150000
1.05040000 7.22710000 4.04950000
0.72180000 7.14980000 4.03480000
0.87380000 6.95460000 4.00880000
0.62200000 7.16980000 4.08320000
0.64150000 7.20380000 4.15450000
0.96990000 7.13080000 4.07510000
1.23870000 7.20900000 4.06680000
1.17100000 7.37690000 4.15590000
1.62770000 7.33820000 4.17960000
1.30090000 7.04690000 4.05330000
1.09930000 7.05130000 4.09450000
1.48770000 7.23610000 4.09510000
0.62510000 7.33270000 4.16400000
1.67000000 8.07680000 4.20880000
1.71500000 7.89850000 4.23260000
2.01100000 8.18910000 4.21510000
2.08430000 8.26690000 4.29210000
2.10880000 7.56830000 4.22840000
1.77980000 7.25310000 4.11700000
2.30010000 8.74370000 3.65600000
2.47760000 8.80070000 3.77710000
2.35720000 8.48940000 3.65530000
2.47520000 8.67420000 3.68130000
2.44010000 8.75500000 3.74450000
2.12670000 8.47570000 3.69990000
2.26680000 8.33750000 3.71580000
2.63770000 8.60930000 3.68350000
2.59800000 8.75760000 3.70970000
2.71080000 8.77040000 3.89870000
2.61320000 8.39880000 3.71040000
1.99680000 8.79610000 3.67560000
2.05960000 8.85480000 3.91950000
1.90170000 8.92810000 3.86760000
2.31960000 8.79300000 3.97450000
2.13110000 8.62130000 3.87960000
2.13490000 8.73480000 3.93780000
2.17920000 8.41370000 3.80380000
2.38590000 8.67190000 4.01900000
2.45850000 8.53870000 3.93640000
2.50790000 8.80610000 3.95820000
4.70780000 3.70260000 3.04140000
4.69440000 3.89140000 3.02800000
4.50960000 3.68840000 3.13990000
2.46260000 8.75360000 4.05960000
4.84340000 3.75810000 3.06890000
4.76760000 3.93500000 3.09490000
2.62840000 8.81860000 4.12830000
2.74930000 8.77030000 4.06170000
2.34970000 8.65350000 4.21110000
2.35100000 8.81350000 4.17870000
2.18770000 8.60210000 4.25360000
4.27770000 3.39920000 3.27880000
2.30320000 8.33540000 3.81310000
2.42100000 8.33760000 3.79290000
2.48320000 8.33490000 3.70450000
4.62470000 3.07490000 3.46060000
2.58990000 8.38510000 3.84500000
2.58840000 8.49810000 4.00740000
2.67710000 8.41850000 3.96290000
4.63540000 3.47990000 3.20480000
2.28860000 8.24360000 4.13380000
2.25020000 8.35570000 4.17190000
2.17300000 8.23630000 4.18460000
2.43090000 8.29850000 4.18880000
2.48720000 8.20350000 4.13820000
2.35550000 8.39700000 4.22740000
2.02040000 8.43510000 4.34970000
2.12300000 8.35940000 4.33760000
2.25540000 8.42290000 4.26490000
4.82320000 3.66930000 3.06320000
4.82580000 3.57400000 3.13080000
4.92520000 3.29020000 3.23040000
4.92620000 3.59040000 3.19370000
5.16480000 2.98080000 3.39330000
4.83890000 6.85310000 3.71730000
4.72510000 7.10270000 3.80840000
4.65110000 6.99310000 3.77370000
4.50660000 6.97160000 3.81580000
4.85020000 7.04680000 3.84280000
4.93660000 6.78520000 3.73150000
4.97150000 6.87720000 3.84870000
4.97520000 6.85700000 3.93940000
4.29440000 7.03980000 3.77680000
4.15480000 7.26910000 3.79670000
4.26000000 7.44590000 3.92150000
3.09830000 8.73560000 3.95770000
3.36280000 8.84900000 4.06500000
2.99270000 8.81880000 4.00630000
3.32670000 8.67810000 3.96740000
3.63230000 8.93110000 4.07650000
3.07810000 8.91370000 4.10840000
4.44820000 6.50960000 3.81810000
4.57230000 7.26200000 3.90710000
4.76520000 7.29100000 3.93560000
4.85360000 7.26950000 3.98550000
4.53020000 7.57540000 4.02130000
4.91850000 7.04840000 3.98540000
5.15090000 3.42330000 3.46200000
5.04530000 3.52820000 3.35470000
3.19010000 8.54500000 3.90750000
5.00420000 6.61630000 3.82310000
-0.09660000 5.08380000 2.61410000
-0.17980000 5.23440000 2.56860000
-0.70890000 5.11220000 2.57780000
-0.46300000 4.91790000 2.73470000
-0.85870000 4.94080000 2.68170000
-0.20530000 5.00600000 2.68410000
-0.33710000 4.92190000 2.81420000
3.49350000 8.70180000 3.92260000
3.80930000 8.74240000 3.98190000
3.55500000 8.80590000 4.02870000
0.23500000 5.08060000 2.65860000
0.05770000 5.01810000 2.85360000
5.39620000 7.03380000 3.99440000
5.52020000 7.11420000 3.93530000
5.44830000 7.18620000 4.00600000
5.51240000 7.31830000 3.92370000
5.52530000 6.82710000 3.94230000
4.91680000 7.39930000 4.01810000
5.04510000 7.14700000 4.00920000
5.23460000 7.28580000 3.97200000
5.01510000 7.59300000 4.01350000
5.10360000 6.93990000 3.97880000
5.37850000 7.18900000 3.96200000
5.35260000 7.65050000 3.95290000
5.05940000 6.64320000 3.92610000
5.26870000 6.80860000 3.95100000
5.15640000 6.83340000 3.98930000
5.21880000 6.50520000 3.91820000
2.92790000 8.12900000 3.96000000
2.76620000 8.24020000 4.05690000
2.73330000 8.16800000 4.14530000
2.79860000 7.99190000 4.16090000
2.37020000 8.10120000 4.17230000
2.81150000 7.69720000 4.20720000
2.31640000 7.96370000 4.21700000
-2.32110000 6.10910000 3.83000000
4.90010000 4.52460000 3.85500000
5.16820000 4.40450000 3.78190000
5.11160000 4.60320000 3.79240000
4.99190000 4.33420000 3.78380000
5.02930000 4.72100000 3.86110000
5.45000000 4.74810000 3.83570000
5.11010000 4.92610000 3.91100000
-2.27830000 6.27780000 4.03830000
0.53300000 5.14390000 2.56640000
0.59920000 5.28820000 2.56730000
0.37420000 5.27570000 2.52850000
0.02200000 5.37720000 2.56420000
0.24590000 5.44680000 2.66330000
5.53200000 5.16200000 3.90400000
0.49310000 5.37430000 2.64490000
5.34860000 4.44030000 3.82850000
0.52880000 5.00250000 2.71750000
5.85610000 4.58950000 3.85890000
0.30450000 5.02730000 2.89450000
0.82860000 5.12710000 2.59700000
0.80410000 5.18360000 2.67780000
0.78050000 5.00310000 2.63450000
0.85480000 5.04330000 2.67550000
0.36600000 5.02130000 2.96640000
0.56180000 4.94650000 2.90770000
0.47440000 5.03520000 2.97690000
0.52740000 5.17830000 2.90730000
0.60810000 4.97550000 2.92940000
0.70350000 4.93390000 2.74050000
0.76110000 4.98940000 2.78970000
0.72060000 5.07080000 2.81990000
-1.64240000 5.30630000 2.62970000
-1.53230000 5.48280000 2.60670000
-1.62580000 5.49000000 2.67290000
-1.65040000 5.23750000 2.80800000
-1.51520000 5.18090000 2.60140000
-1.65370000 5.15170000 2.67210000
-1.58200000 5.54180000 2.78960000
-1.21350000 5.39920000 2.61280000
-1.06470000 5.91580000 2.63520000
-1.57260000 4.97010000 2.64920000
-1.63760000 4.93080000 2.82350000
-1.21640000 5.06850000 2.62130000
-1.38840000 4.88230000 2.69240000
-1.58640000 4.79520000 2.89890000
-1.48090000 4.79130000 2.82690000
-1.20310000 4.85450000 2.81450000
-1.63700000 5.38900000 3.03960000
-1.76350000 5.03050000 3.11540000
-1.71300000 4.91400000 3.05480000
-0.79740000 5.30220000 2.56150000
-0.76510000 5.54710000 2.61030000
-0.38770000 5.51400000 2.58990000
5.38720000 4.20080000 3.85230000
-0.69970000 4.88010000 2.87290000
5.36440000 4.03570000 3.82830000
5.52550000 3.94260000 3.82280000
-2.31580000 5.84000000 4.17040000
-2.26740000 6.07510000 4.03850000
-2.30610000 6.20640000 4.16920000
5.15970000 4.18970000 3.79670000
5.33420000 3.77150000 3.70770000
5.27330000 3.94800000 3.78580000
-1.85410000 5.11240000 3.29790000
-1.10680000 4.75750000 2.96570000
-1.49730000 4.60840000 3.04900000
-1.04130000 4.56900000 3.14040000
-1.64620000 4.62450000 3.10960000
-1.80850000 4.79960000 3.19320000
-1.78210000 4.49200000 3.23640000
-1.85930000 4.76120000 3.31680000
-1.89800000 4.56910000 3.29030000
-1.68560000 4.20380000 3.30620000
4.07610000 8.28720000 3.76290000
4.11530000 8.23510000 3.73090000
4.20220000 8.21050000 3.84770000
4.30550000 8.17990000 3.78140000
3.86720000 8.32470000 3.79340000
-1.92100000 4.21420000 3.27030000
4.06130000 8.13800000 3.74500000
3.87880000 8.27060000 3.92420000
3.92880000 8.24150000 3.85850000
4.07370000 8.30540000 3.92050000
3.92810000 8.39220000 3.99380000
1.14080000 6.79190000 4.05760000
-1.21420000 4.21110000 3.39440000
4.05550000 8.49260000 4.05590000
4.28620000 8.54910000 4.03690000
4.20540000 8.38790000 3.99570000
4.46680000 8.43080000 3.97870000
4.32450000 8.79100000 4.04290000
4.55810000 8.71390000 4.00020000
4.81090000 9.01270000 3.88770000
4.59660000 9.11540000 3.99500000
4.73040000 8.89020000 3.92590000
4.51380000 8.97970000 4.02860000
5.01230000 9.03610000 3.87030000
5.14700000 9.20140000 3.92880000
4.84560000 9.21070000 3.94210000
4.87700000 8.90020000 3.92030000
5.06030000 8.85480000 3.83070000
5.31750000 8.93310000 3.90020000
5.17590000 8.89360000 3.82740000
-0.35580000 4.83990000 3.00080000
-0.10020000 5.00120000 2.86160000
-0.62280000 4.57960000 3.22440000
-0.17850000 4.80220000 3.15280000
-0.71350000 4.25610000 3.51400000
4.81710000 8.69490000 3.98540000
4.87190000 8.72430000 3.92290000
5.00010000 8.74180000 3.86130000
4.97490000 8.59680000 4.00780000
5.17540000 8.75870000 3.89880000
-0.23740000 4.68410000 3.32680000
-0.49620000 4.24020000 3.56870000
5.06350000 8.49650000 4.05930000
5.11340000 8.53040000 3.99170000
-0.27050000 4.31730000 3.50200000
4.94160000 8.50970000 4.09140000
-0.04400000 4.27510000 3.47790000
0.07620000 4.72910000 3.37700000
-1.85760000 4.70710000 3.39800000
-2.02530000 4.57740000 3.36450000
0.03250000 5.55470000 2.67100000
-0.20180000 5.86020000 2.68790000
0.38590000 5.12950000 2.96880000
0.42780000 5.32730000 2.89700000
0.35230000 5.22930000 2.99030000
0.41690000 5.31490000 2.99650000
0.61590000 5.23190000 3.07030000
0.51620000 5.40010000 2.97410000
0.74340000 5.33770000 3.03420000
0.86420000 5.37700000 3.11400000
0.62590000 5.46840000 3.05880000
0.89940000 5.27860000 3.12650000
0.14430000 5.00800000 3.05250000
0.20670000 4.97900000 3.17910000
0.39980000 5.13630000 3.07200000
3.78020000 9.73340000 4.10400000
0.51700000 5.04660000 3.19620000
-0.44920000 8.85550000 4.07570000
0.47600000 4.92080000 3.34730000
0.42690000 4.68510000 3.45400000
0.78100000 5.13610000 3.15520000
0.90580000 5.18100000 3.21540000
0.80440000 5.37710000 3.35450000
0.75460000 5.46800000 3.25700000
0.90350000 5.31070000 3.31300000
0.85270000 5.40690000 3.21180000
0.79880000 5.04910000 3.36210000
0.91570000 5.18990000 3.34430000
0.96150000 5.34960000 3.22960000
0.98040000 5.25760000 3.24070000
0.95030000 5.35290000 3.42170000
1.04410000 5.23860000 3.44970000
0.93440000 5.51280000 3.42420000
0.75990000 5.55080000 3.34850000
0.85230000 5.45340000 3.43080000
0.84560000 5.52580000 3.70310000
0.82810000 5.39630000 3.78820000
0.72920000 5.51810000 3.75170000
0.79520000 5.49070000 3.84240000
0.95840000 5.39070000 3.79910000
0.82980000 4.88870000 3.52250000
0.92120000 4.41670000 3.58950000
0.82450000 4.65010000 3.59920000
0.66090000 5.68340000 3.88410000
0.63470000 5.81050000 3.76600000
0.59420000 5.63210000 3.78270000
0.64840000 5.55430000 3.83440000
0.75490000 6.05140000 3.89440000
-2.55330000 8.98730000 4.05770000
-2.70890000 9.21000000 4.14760000
-2.81050000 9.11770000 4.08790000
5.55850000 7.59670000 3.89050000
5.48890000 7.87210000 3.94240000
5.43910000 7.85680000 4.01490000
5.05640000 7.74160000 3.98920000
5.28200000 7.77420000 4.01260000
3.99330000 7.94450000 3.80750000
4.31670000 7.90790000 3.77210000
-2.94740000 8.84550000 4.04060000
4.28880000 7.85470000 3.83990000
0.14800000 3.68970000 3.65250000
0.15720000 3.97340000 3.49250000
-0.07070000 3.97550000 3.51390000
4.17780000 7.83520000 3.91410000
0.38300000 4.00450000 3.53320000
0.20770000 4.22310000 3.49110000
0.58790000 3.53850000 3.74570000
4.43240000 7.93370000 3.72320000
4.36940000 8.06820000 3.70720000
4.46310000 7.99670000 3.77130000
4.40150000 8.10630000 3.76560000
4.43450000 7.94380000 3.91360000
4.33930000 8.20600000 3.93430000
4.43120000 8.07220000 3.92090000
4.64030000 7.97350000 3.96460000
4.83180000 8.13520000 3.96690000
0.59300000 3.76110000 3.67030000
0.52610000 4.15070000 3.59640000
4.40470000 7.90070000 3.86100000
0.80020000 3.64690000 3.83340000
0.99690000 4.19720000 3.65630000
0.54080000 4.41960000 3.50610000
0.78830000 4.07620000 3.70890000
1.16560000 4.14270000 3.73120000
1.30600000 4.40830000 3.71240000
1.20910000 3.95930000 3.83580000
4.28780000 7.76520000 3.98550000
1.21860000 4.19050000 3.78550000
-2.19880000 9.29560000 4.21490000
-2.03480000 9.10340000 4.17730000
4.65860000 7.74700000 3.97620000
-2.12580000 8.95610000 4.09840000
-2.24170000 9.03530000 4.08030000
-2.14150000 8.85300000 4.12650000
-1.93760000 8.85170000 4.16010000
4.97250000 7.91070000 3.98770000
5.09740000 7.93310000 3.97810000
0.90830000 3.21570000 3.89600000
0.23170000 3.26270000 3.86680000
5.17010000 7.95920000 4.02020000
5.07430000 8.11600000 4.08270000
5.33450000 7.92410000 4.00010000
5.19330000 8.23310000 4.11160000
4.99430000 8.30280000 4.09230000
-3.04120000 9.21130000 4.15680000
-2.68820000 9.52460000 4.23170000
5.26490000 8.03500000 4.08070000
5.32500000 8.17290000 4.10420000
5.34600000 8.24610000 4.03150000
-0.28540000 2.93510000 3.94570000
0.67080000 2.64360000 3.96860000
1.00330000 3.69620000 3.91530000
1.32630000 3.75930000 3.92800000
5.12040000 7.80070000 4.02460000
1.28290000 3.45730000 4.00530000
1.31830000 2.85750000 3.92820000
1.22110000 3.11920000 3.96910000
1.05070000 3.34880000 3.96270000
-0.91790000 3.88960000 3.72640000
-1.22710000 3.73460000 3.70200000
-1.53540000 3.28570000 3.90660000
-1.07600000 3.67120000 3.79420000
5.53240000 9.19570000 3.91780000
4.99870000 9.48720000 3.98720000
5.47830000 8.91510000 3.94510000
5.49990000 8.72970000 3.94370000
-0.45460000 3.85550000 3.79390000
-0.22260000 4.02610000 3.57220000
-0.64440000 3.92150000 3.80190000
3.86350000 8.89340000 4.03490000
-0.23930000 3.72910000 3.69060000
4.09490000 9.16080000 4.09510000
4.28410000 8.98040000 4.03580000
-0.82970000 3.77420000 3.91180000
-0.67930000 3.81280000 3.91750000
-0.65040000 3.68540000 3.92880000
4.59970000 9.62590000 4.05240000
3.86160000 8.60780000 3.98590000
-1.18860000 3.20210000 3.91120000
-1.03280000 3.49370000 3.84760000
-0.91450000 3.33270000 3.82950000
-0.70710000 3.45240000 3.87380000
-0.94120000 2.99380000 3.90180000
-0.47320000 3.55740000 3.84780000
-0.54850000 3.26210000 3.85260000
-0.27920000 3.49310000 3.78310000
-0.81940000 3.66720000 3.93890000
1.14100000 4.58650000 3.69430000
3.71360000 5.97270000 3.52490000
3.81430000 6.05790000 3.50040000
1.34430000 5.83940000 3.60370000
1.01540000 5.66120000 3.52180000
1.56310000 5.95810000 3.72370000
1.33460000 6.55680000 4.04230000
1.50040000 6.30130000 4.04580000
2.42510000 6.78160000 3.70980000
2.39170000 6.94160000 3.80290000
2.34620000 6.74850000 3.90480000
0.70460000 5.25570000 2.63320000
0.50490000 5.36490000 2.75740000
-0.80380000 7.51350000 2.77680000
-0.51330000 6.41260000 2.58380000
4.80770000 8.40520000 4.02860000
-0.56890000 6.12370000 2.65690000
0.31100000 5.56180000 2.84130000
0.10660000 5.93500000 2.81550000
0.50640000 5.68620000 3.14730000
-0.14300000 6.80560000 2.44340000
-0.18780000 7.10870000 2.38070000
-0.08710000 7.04460000 2.45430000
-0.07620000 6.87300000 2.56070000
-0.34860000 7.36940000 2.51780000
-0.57870000 7.44110000 2.56130000
-0.23850000 7.27480000 2.41330000
-0.14140000 7.20610000 2.50530000
-0.37970000 7.32370000 2.73730000
-0.64610000 7.46340000 2.77500000
0.80090000 5.63440000 3.43200000
0.65280000 5.80640000 3.45580000
0.84570000 5.63610000 3.60190000
0.67300000 5.73750000 3.64620000
-0.08880000 7.08310000 2.60570000
-0.18830000 7.16800000 2.72070000
0.59880000 6.41680000 3.69110000
0.73500000 6.56040000 3.84950000
0.59350000 6.93030000 3.86290000
-0.32290000 6.51470000 2.53880000
-0.17370000 6.62980000 2.62720000
0.68360000 6.13190000 3.82720000
-0.33590000 6.33410000 2.65300000
0.63210000 5.96630000 3.60700000
0.52120000 6.17420000 3.48310000
-0.14970000 6.47440000 2.75590000
-0.17870000 6.16890000 2.75020000
-1.10210000 7.45410000 3.03940000
-0.92040000 7.45650000 3.19160000
-1.11250000 7.43640000 3.37330000
-0.73560000 7.35300000 3.20780000
-0.64430000 7.22260000 3.38290000
-0.60880000 7.21580000 3.51960000
-0.83040000 7.27370000 3.57920000
-0.27600000 7.15490000 3.65250000
0.19100000 7.09330000 3.80900000
0.48060000 7.15100000 4.00170000
0.17330000 6.95800000 3.63240000
0.32890000 7.16850000 4.06220000
-0.29750000 7.05990000 3.35630000
0.12340000 6.27660000 3.03490000
-0.10490000 6.93320000 2.71600000
-0.27540000 7.07530000 2.97850000
0.36770000 6.58650000 3.50730000
-0.08990000 6.69700000 2.91610000
-0.18460000 6.92720000 3.10990000
0.06360000 6.74570000 3.31330000
-5.58800000 1.57520000 3.95680000
-4.43630000 1.84620000 4.03410000
5.66420000 2.94260000 3.83100000
5.47370000 2.84230000 3.75530000
5.62520000 2.68030000 3.78800000
4.10410000 2.55390000 3.83210000
3.45240000 2.79910000 3.91400000
2.96960000 2.57570000 3.88900000
4.06160000 2.19450000 3.81810000
1.86270000 2.79210000 3.91450000
4.15010000 3.12820000 3.78670000
3.67360000 2.99940000 3.92340000
4.19620000 2.96560000 3.87190000
4.31220000 2.76880000 3.86430000
4.47640000 2.92800000 3.82310000
2.39570000 2.22450000 3.90420000
2.42730000 2.74640000 3.88880000
5.32410000 2.70140000 3.53100000
5.34220000 2.82880000 3.50700000
5.38600000 2.90290000 3.60900000
5.36400000 3.17680000 3.66990000
5.36600000 3.27810000 3.66210000
4.55500000 2.40120000 3.75660000
4.93320000 2.87250000 3.51500000
5.03090000 2.69920000 3.57790000
4.84380000 2.74930000 3.66110000
3.05320000 3.17190000 3.97520000
5.43960000 2.75360000 3.60580000
5.49920000 2.67610000 3.64900000
4.78070000 2.80090000 3.72670000
4.86790000 2.53150000 3.68430000
4.69720000 2.60290000 3.76980000
-2.32980000 5.82910000 4.04090000
-2.33300000 5.82940000 3.54550000
-2.39870000 5.77850000 3.81830000
-2.44010000 4.84780000 3.55650000
-1.99660000 4.27740000 3.23970000
-2.23670000 4.60280000 3.44350000
-2.79380000 4.54900000 3.46250000
-2.99060000 4.99830000 3.63100000
-5.14400000 3.93500000 3.98060000
-5.13060000 4.17450000 3.86190000
-5.27460000 3.42450000 3.67200000
-4.67420000 5.03430000 3.80070000
-4.59500000 4.92850000 3.76320000
-4.87120000 4.81500000 3.83870000
-4.98890000 4.69510000 3.80030000
-4.55390000 4.74050000 3.50860000
-4.83460000 4.74840000 3.60890000
-5.09430000 4.55460000 3.81780000
-5.26650000 3.08280000 3.79380000
-3.18490000 4.64690000 3.50840000
-2.71620000 4.38860000 3.31110000
-3.34550000 4.75030000 3.47940000
-2.15190000 4.26350000 3.25810000
-2.40020000 4.25120000 3.23880000
5.32060000 8.52460000 3.94700000
5.09780000 3.79970000 3.60670000
4.95750000 4.05930000 3.64220000
4.60100000 2.96100000 3.66820000
5.21360000 3.54590000 3.56740000
4.19870000 8.71280000 4.06860000
1.95310000 8.76040000 4.20530000
2.67090000 8.57390000 3.80040000
2.75760000 8.69990000 3.89750000
2.84400000 8.31680000 3.97470000
2.66910000 8.48410000 3.90940000
2.80070000 8.49030000 3.92550000
1.65710000 8.69530000 3.80030000
1.84910000 8.81430000 3.85030000
1.87660000 8.79590000 3.75370000
2.53000000 8.37890000 4.13660000
2.42490000 8.61360000 4.10780000
-3.39800000 9.15150000 4.02920000
-2.28580000 8.74950000 4.09620000
-3.53590000 9.39360000 4.05430000
-3.75510000 9.52510000 4.07530000
-0.51140000 7.37070000 3.79210000
-0.58680000 8.73880000 4.07420000
-0.52090000 8.48520000 4.12950000
-4.82250000 6.78310000 3.98280000
-4.08880000 9.47450000 3.95760000
-4.56900000 9.53630000 3.97200000
-5.76810000 -1.53550000 -3.57530000
-5.74390000 -0.23290000 -3.53910000
-5.72760000 -0.86190000 -3.01300000
-7.36110000 -2.38970000 -3.67980000
-7.33540000 -2.19120000 -3.74780000
-7.25430000 -2.59170000 -3.78470000
-7.35940000 -3.63950000 -3.75520000
-5.83310000 -2.05340000 -3.83370000
-5.97000000 -1.59350000 -3.86830000
-5.77890000 -0.58700000 -3.82810000
-7.39060000 -3.95980000 -3.66360000
-7.30260000 -0.28160000 -3.19600000
-5.73070000 0.71450000 -3.77640000
-5.78030000 0.81310000 -3.84080000
-5.70200000 2.08030000 -3.77380000
-5.68930000 1.76730000 -3.35400000
-7.30350000 0.55740000 -3.57410000
-7.32880000 -0.45400000 -3.72410000
-5.70700000 1.11500000 -2.21750000
-5.72400000 -1.65060000 -2.40750000
-5.94210000 -3.71620000 -3.85630000
-5.77970000 -2.33000000 -3.77370000
-7.31110000 1.25830000 -3.67980000
-7.29020000 2.56420000 -3.71990000
-7.27450000 0.37500000 -3.77900000
-6.99190000 -4.50810000 -3.83990000
-7.13270000 -0.19780000 -3.82270000
-6.41210000 3.45410000 -3.86840000
-5.72620000 -0.53370000 -2.06490000
-5.85080000 -4.22090000 -3.82630000
-5.72550000 0.67310000 -3.43000000
-5.66460000 2.20020000 -2.76960000
-5.75700000 -3.38440000 -2.93970000
-5.77590000 -3.33350000 -3.57270000
-5.90070000 2.27410000 -3.87270000
-5.74070000 2.70120000 -3.85090000
-5.75180000 -2.96460000 -2.32420000
-5.75460000 -1.06240000 -3.74570000
-5.67530000 2.70600000 -3.53620000
-5.74790000 -1.19040000 -1.64820000
-7.32020000 -5.24590000 -3.79150000
5.69620000 0.18650000 -1.30470000
5.72310000 -0.31300000 -0.88060000
5.70600000 1.00440000 -0.85090000
5.72460000 1.88640000 -1.26690000
5.60910000 1.37580000 -3.52170000
5.58370000 2.72250000 -3.96770000
5.58440000 1.00010000 -3.52930000
5.76040000 3.48650000 -4.25610000
5.73900000 4.58130000 -4.26490000
6.26030000 2.73100000 -4.28040000
6.31050000 9.08600000 -4.30820000
5.81530000 6.07780000 -4.28270000
5.64450000 4.21380000 -4.22980000
5.65340000 5.50440000 -4.22210000
5.65620000 6.88160000 -4.19570000
5.72220000 6.52130000 -4.25950000
5.76240000 0.74750000 -0.61010000
5.66770000 6.88010000 -4.04450000
5.63170000 5.47340000 -4.11990000
5.73350000 7.57830000 -4.26280000
5.67370000 7.84160000 -4.18740000
5.77130000 2.11090000 -0.74510000
7.10070000 1.24250000 -2.73950000
7.05430000 0.38170000 -3.50950000
7.11720000 2.00350000 -2.48290000
5.77120000 -0.69840000 -0.57300000
5.74450000 0.74500000 -0.49030000
7.10380000 0.99480000 -2.54620000
7.07820000 0.96080000 -2.70450000
7.06460000 0.67450000 -4.13210000
7.11600000 3.81370000 -3.46580000
5.79320000 2.26690000 -0.54320000
7.09130000 0.51440000 -2.37050000
7.12570000 1.19520000 -1.79370000
7.08280000 -0.84910000 -2.13910000
7.09050000 -0.02850000 -2.33470000
7.12750000 0.70480000 -1.44960000
5.68840000 5.14850000 -2.70200000
5.68280000 5.51390000 -3.19520000
5.62440000 4.60560000 -3.93080000
5.69430000 7.16370000 -3.69050000
5.66120000 6.31920000 -3.62840000
7.16280000 5.27370000 -2.66090000
7.17580000 6.13230000 -2.86820000
5.57780000 1.10610000 -3.26530000
5.59170000 1.93980000 -3.48020000
7.17540000 6.97000000 -3.23250000
7.18460000 7.69640000 -3.94970000
7.21010000 8.54680000 -3.03790000
5.69570000 6.78160000 -3.09520000
5.64500000 9.89720000 -4.23220000
5.55250000 10.08470000 -4.25970000
5.85100000 9.88790000 -4.29960000
5.68980000 7.80160000 -3.38290000
5.72030000 8.85860000 -3.50620000
5.61300000 0.89490000 -2.69320000
5.67110000 9.58090000 -4.23920000
5.80510000 9.34790000 -4.29610000
5.62590000 9.84090000 -4.15560000
7.14270000 5.91240000 -3.67050000
5.62660000 2.41520000 -3.22810000
5.63130000 1.43590000 -2.58030000
5.74140000 8.09710000 -2.93210000
7.17520000 6.61020000 -2.78560000
5.59930000 0.55510000 -3.02050000
7.20810000 6.63390000 -2.26310000
5.71270000 10.64480000 -4.29080000
7.16440000 6.09790000 -2.46470000
7.17130000 5.89480000 -2.54390000
5.64810000 0.96760000 -4.22570000
5.83330000 -0.28870000 -4.25540000
5.60780000 -1.73480000 -4.20910000
5.76960000 6.57250000 -2.28920000
7.12460000 3.39110000 -2.91750000
7.16810000 3.41280000 -1.87280000
7.14810000 2.63380000 -2.02690000
4.85730000 2.58870000 -0.35030000
3.63420000 -1.19420000 -0.26690000
2.37570000 3.64100000 -0.23650000
7.11940000 9.71550000 -4.27740000
7.17400000 11.06990000 -4.25060000
7.20060000 10.25050000 -4.21150000
5.75840000 4.65400000 -1.82710000
7.14920000 3.04930000 -1.82410000
6.91210000 4.22350000 -4.28700000
6.98570000 10.77780000 -4.30660000
7.16370000 2.62290000 -1.46460000
5.62120000 3.03870000 -3.23940000
5.53920000 -0.69770000 -4.14210000
5.56600000 0.06420000 -4.18780000
5.53190000 -1.42890000 -4.02770000
5.53270000 -0.51700000 -3.78840000
7.15730000 4.11910000 -2.19000000
7.19770000 4.03040000 -1.24860000
-0.15530000 0.41120000 -0.11390000
5.79510000 8.02220000 -2.30870000
7.15690000 5.66100000 -2.46430000
5.53690000 -2.45960000 -4.16640000
7.11540000 5.79110000 -2.30370000
7.18610000 6.26130000 -2.23950000
7.16020000 5.72020000 -2.22530000
5.74490000 6.99850000 -2.45950000
7.17970000 5.12490000 -2.18810000
7.15400000 4.92990000 -2.52380000
5.64640000 9.42990000 -4.13980000
5.70740000 8.98610000 -4.25140000
5.65630000 9.03310000 -4.19920000
5.68610000 9.64330000 -3.98010000
5.71020000 9.09790000 -4.01460000
5.67110000 8.63680000 -4.18200000
5.71360000 8.36570000 -4.23700000
7.20310000 5.61430000 -1.72780000
5.72410000 4.43020000 -2.31230000
5.82740000 8.08810000 -4.28000000
5.66370000 2.63490000 -2.37800000
7.19760000 7.73910000 -2.90200000
5.67420000 8.95060000 -4.10280000
5.63610000 9.08930000 -4.13230000
5.71310000 8.44020000 -3.92160000
7.21130000 6.24770000 -1.90480000
7.23990000 6.50420000 -1.49190000
7.21670000 3.34200000 -0.67950000
7.19480000 3.40840000 -0.90650000
5.61640000 2.50790000 -2.88250000
7.17510000 1.60550000 -0.59790000
7.22760000 7.52360000 -2.26280000
7.22910000 8.68280000 -2.49960000
7.24770000 7.47890000 -1.56700000
7.23030000 8.16000000 -2.41550000
5.54170000 -2.46730000 -3.74930000
5.57510000 -1.58010000 -3.03260000
5.55530000 -0.43730000 -3.20850000
7.24240000 8.21210000 -2.12940000
7.23580000 8.07290000 -1.96860000
5.82940000 3.18180000 -0.60860000
5.68540000 8.23040000 -4.10340000
5.87250000 4.24680000 -0.57590000
5.82190000 4.33600000 -0.78650000
5.75720000 4.42050000 -0.48030000
5.84430000 4.79230000 -0.52560000
5.66100000 1.56930000 -2.29240000
5.79890000 3.69470000 -0.48920000
5.66010000 4.50840000 -0.46020000
5.71590000 2.17600000 -0.45580000
7.22370000 4.25440000 -0.55090000
6.86220000 -3.88730000 -4.24800000
6.71860000 -2.83390000 -4.27200000
6.94800000 -1.75980000 -4.23300000
7.01000000 -1.73220000 -4.14140000
7.02590000 -0.31600000 -4.19310000
5.63860000 2.82600000 -4.20970000
5.35730000 -0.10090000 -0.37610000
7.08390000 6.50630000 -4.26190000
7.15000000 4.17520000 -2.60710000
5.77960000 3.48060000 -1.22030000
6.94010000 -0.37310000 -4.24830000
7.22860000 2.77220000 0.14010000
5.66170000 0.87420000 -1.79920000
5.56450000 1.34640000 -4.17530000
5.55730000 1.59300000 -4.09970000
7.01850000 -2.20300000 -3.27810000
7.08360000 2.37730000 -4.18250000
7.05080000 3.36680000 -4.23940000
7.13520000 4.90290000 -4.13130000
7.10900000 3.28710000 -3.94160000
7.17640000 8.77070000 -4.21470000
7.23820000 10.29280000 -4.03790000
7.21990000 5.26350000 -1.25440000
5.55810000 0.43590000 -3.64100000
5.73450000 2.39460000 -0.95520000
7.23200000 10.52650000 -3.64630000
7.19570000 8.86500000 -3.74740000
7.20960000 9.47000000 -3.41400000
7.00780000 0.90710000 -4.23950000
5.59400000 3.00370000 -4.13340000
7.14340000 6.53350000 -4.20530000
5.52250000 3.69180000 -0.40700000
5.58780000 0.85220000 -0.42400000
7.21850000 9.11360000 -3.17770000
5.61490000 4.58780000 -4.18530000
5.62680000 -1.82240000 -2.35300000
5.64850000 -1.18200000 -1.90570000
7.21420000 9.41090000 -3.08390000
7.05870000 1.22370000 -4.20040000
7.08700000 0.43470000 -2.77280000
5.51210000 0.83170000 -4.10660000
5.53450000 0.91160000 -3.99240000
7.24380000 6.14850000 -0.91870000
-7.25690000 4.08240000 -3.74970000
-7.19720000 5.88390000 -3.77500000
-7.08160000 4.66340000 -3.83670000
-7.06120000 9.27440000 2.00400000
-7.03480000 8.80330000 3.45640000
-7.00210000 11.01280000 3.30680000
-5.60700000 8.95910000 -3.84360000
-5.69810000 7.87600000 -3.87220000
-5.84560000 7.86460000 -3.89360000
-3.45100000 10.18600000 -3.86320000
-3.59980000 10.23790000 -3.94750000
-3.20890000 10.27010000 -3.95200000
-5.72930000 0.91220000 -0.97290000
-1.96160000 10.19800000 -3.94840000
-3.59840000 10.35810000 -1.66000000
-3.04670000 10.34380000 -1.63010000
-3.37170000 10.39920000 -0.88430000
-2.25520000 10.45650000 -4.02470000
-4.22010000 10.97890000 -3.95960000
-0.50240000 11.24280000 -4.09130000
-2.05540000 10.27030000 -3.98600000
-2.00750000 10.37630000 -0.99810000
-4.18380000 10.43440000 -0.73900000
-4.94710000 10.40410000 -1.46680000
-4.27180000 10.38460000 -1.71680000
-2.42420000 10.17810000 -3.86250000
-1.63380000 10.16400000 -3.85940000
-7.01890000 10.01280000 3.86190000
-2.35370000 10.20030000 -3.71680000
-3.70770000 10.39870000 -0.62070000
-4.27050000 10.45560000 -0.51940000
-6.90100000 11.89020000 2.66020000
-6.81880000 11.93040000 1.75730000
-6.96390000 11.84730000 1.71790000
-4.22630000 10.40060000 -0.43080000
-4.71480000 10.48360000 -0.51550000
-5.66630000 3.29030000 -0.58710000
-5.67570000 2.64210000 -1.60280000
-3.67630000 10.41180000 -0.49710000
-3.69240000 10.39600000 -0.42360000
-3.86340000 10.21400000 -0.34260000
-3.69760000 10.30710000 -0.38280000
-7.02160000 11.63880000 2.27510000
-7.00080000 11.75370000 3.04630000
-6.75490000 11.92540000 3.14240000
-6.29750000 11.92730000 0.51200000
-3.19530000 10.36850000 -0.66510000
-3.41540000 10.35050000 -0.46400000
-2.28000000 10.35710000 -0.63760000
-3.04250000 10.35500000 -0.46260000
-6.94620000 9.56030000 -3.84440000
-6.76700000 11.45290000 -3.83150000
-5.80220000 10.58650000 -3.90220000
-3.02180000 10.26130000 -0.34670000
-2.33160000 10.32750000 -0.41650000
-5.63060000 5.32050000 -3.13740000
-5.60760000 5.77950000 -2.24770000
-5.63750000 4.37410000 -2.27940000
-5.64300000 4.23830000 -1.57050000
-5.67630000 2.94140000 -0.24560000
-5.73320000 0.71180000 -0.20370000
-5.68360000 1.93350000 -0.16800000
-5.98400000 11.92200000 3.33960000
-3.39920000 11.87110000 -0.34280000
-5.61440000 5.95570000 -1.23350000
-4.53150000 9.57070000 -0.29540000
-3.23830000 9.63240000 -0.25070000
-4.27120000 8.34420000 -0.18400000
-5.63250000 4.14240000 -2.90730000
-6.95180000 11.83850000 3.25550000
-2.16160000 10.17120000 -0.31090000
-7.22590000 6.32980000 -3.66800000
-7.20340000 8.90020000 -3.73380000
-7.11820000 7.76910000 -3.81210000
-5.58720000 2.98460000 -0.13080000
-5.65760000 0.98800000 -0.11260000
-5.51190000 0.28780000 -0.05410000
-7.00780000 11.88620000 -3.59980000
-6.84360000 11.95010000 -3.58600000
-6.85510000 11.81250000 -3.72570000
-6.46370000 11.91060000 -3.75330000
-7.03550000 11.32750000 -3.80390000
-5.66010000 2.91800000 -2.31240000
-7.07840000 11.55940000 -3.73530000
-7.14030000 11.66670000 -3.61530000
-7.15150000 11.28930000 -3.74090000
-7.18420000 10.60520000 -3.70210000
-5.46060000 4.94550000 -0.12530000
-5.08930000 3.29220000 -0.06730000
-6.74160000 11.94080000 3.59340000
-6.96270000 11.82530000 3.58540000
-6.96820000 11.72520000 3.72530000
-1.51140000 7.06250000 -0.16710000
-3.08600000 6.05820000 -0.09710000
-3.35460000 7.98520000 -0.15190000
-7.12890000 11.47700000 -3.10320000
-7.13190000 11.77920000 -3.31130000
-6.81650000 11.86870000 3.76050000
-6.14510000 11.95590000 3.79390000
-6.27630000 11.91480000 3.87170000
-7.06360000 11.90670000 -3.40120000
-6.96500000 11.95880000 -3.27460000
-6.84950000 11.94860000 -2.94370000
-6.36070000 11.95600000 -3.64110000
-6.20510000 11.83590000 -3.81670000
-5.81620000 11.92820000 -3.76900000
-5.62960000 11.68340000 -3.88490000
-7.18420000 9.51710000 -3.52220000
-5.13110000 11.91700000 3.70550000
-6.10490000 11.92320000 -3.00570000
-5.16400000 11.94940000 3.87310000
-5.53230000 7.57870000 -0.24180000
-5.59590000 8.80450000 -0.38070000
-5.46080000 7.95260000 -0.23630000
-5.28140000 8.40160000 -0.23490000
-5.01720000 7.11950000 -0.13870000
-7.07910000 11.83030000 -2.65680000
-6.99370000 11.91820000 -2.60950000
-5.62270000 7.92960000 -3.81650000
-5.19110000 -0.44220000 -0.02320000
-1.97260000 11.81800000 3.45910000
-2.58920000 11.85850000 3.90250000
-5.65840000 2.54500000 -2.10640000
-5.63110000 7.37640000 -3.82740000
-5.60510000 7.59610000 -3.74120000
-5.59590000 7.35590000 -3.26940000
-6.91470000 9.68820000 3.92830000
-6.97630000 10.27190000 3.91220000
-7.02790000 9.13110000 3.87790000
-6.87670000 9.11480000 3.97720000
-6.54500000 10.78300000 3.97420000
-5.57590000 8.83690000 -3.75630000
-5.57810000 8.53640000 -3.44010000
-6.55670000 8.90740000 4.03540000
-7.01610000 8.83450000 3.96230000
-6.69610000 11.69290000 3.91020000
-7.13540000 10.38560000 -3.78280000
-6.10230000 11.82510000 3.96210000
-7.01310000 11.26810000 3.74550000
-6.99190000 11.08850000 3.85000000
-6.93150000 11.51220000 3.86770000
-7.01490000 7.54350000 4.01500000
-6.90580000 8.42770000 4.03290000
-7.14560000 9.39950000 -2.63140000
-6.91280000 10.93200000 3.91380000
-6.45070000 7.13180000 4.09260000
-5.73970000 -1.62260000 -0.59080000
-5.99700000 11.67910000 4.01160000
-5.74170000 5.48700000 -3.85760000
-5.67830000 7.01190000 -3.85290000
-5.63840000 6.87980000 -3.77470000
-7.10930000 9.91910000 -0.64340000
-6.88710000 11.93880000 -1.77290000
-5.62270000 6.52700000 -3.57530000
-1.54720000 9.77710000 -0.28230000
-5.72900000 -1.20400000 -0.15440000
-5.75330000 -0.87260000 -0.24440000
-5.63620000 -1.28540000 -0.07810000
-4.71280000 11.86740000 4.02610000
-4.81390000 11.91950000 3.95440000
-4.49210000 11.73110000 4.08540000
-7.15780000 0.58740000 3.56920000
-3.76730000 10.97820000 4.14690000
-4.20570000 1.49280000 -0.03630000
-2.48770000 2.11220000 -0.05760000
-4.29790000 10.48800000 -3.95590000
-5.46510000 10.16890000 -3.89000000
-7.09390000 4.16810000 3.84440000
-5.56030000 9.79180000 -3.86160000
-5.66020000 9.63590000 -3.87520000
-5.45780000 10.02330000 -3.83210000
-5.25320000 10.16710000 -3.84250000
-5.35980000 10.13860000 -3.61050000
-5.51360000 9.79070000 -3.80080000
-7.06060000 4.09680000 4.04350000
-7.07230000 5.19500000 3.95420000
-7.10250000 3.91120000 3.98470000
-5.50080000 9.99910000 -3.61730000
-5.53920000 9.55280000 -3.59880000
-7.25900000 3.43760000 -3.52120000
-6.58410000 5.10890000 4.07170000
-6.93280000 5.72100000 4.05280000
-7.01650000 5.17090000 4.02910000
-7.21420000 1.88380000 -0.45020000
-5.43890000 10.17250000 -3.31270000
-5.54640000 9.95880000 -2.81350000
-5.49560000 10.09010000 -2.95730000
-6.99550000 11.90440000 -1.85330000
-7.04090000 11.82650000 -1.00590000
-7.06390000 11.69990000 -0.41490000
-5.96980000 4.48060000 4.09700000
-6.83520000 4.30370000 4.10600000
-5.65720000 6.20310000 -3.82880000
-5.56960000 9.39230000 -2.95960000
-6.92920000 11.91360000 -0.27390000
-6.78100000 11.93570000 -0.06190000
-5.66940000 5.10100000 -3.79620000
-5.59290000 6.05270000 -2.80970000
-7.24400000 3.03990000 -3.79040000
-5.56230000 7.87960000 -2.72410000
-5.58310000 8.00830000 -1.99870000
-5.65350000 4.48570000 -3.58830000
-6.22810000 3.78420000 4.10930000
-6.36080000 4.80080000 4.10460000
-7.03800000 6.07870000 4.01270000
-7.04570000 7.40230000 3.93190000
-6.71380000 5.90870000 4.07230000
-6.92710000 7.21100000 4.06410000
-5.84450000 5.78600000 4.09810000
-4.94550000 11.84480000 -3.86420000
-5.56310000 6.58840000 -0.26630000
-5.58800000 5.72440000 -0.21500000
-5.60220000 6.85290000 -0.47460000
-4.80440000 5.72180000 -0.08920000
-5.05810000 11.92810000 -3.72880000
-4.71770000 11.89480000 -3.82030000
-7.08970000 2.86360000 4.06480000
-6.96140000 3.08420000 4.10640000
-6.17600000 3.00660000 4.12020000
-6.85500000 3.68410000 4.09070000
-2.65390000 11.68080000 -3.99980000
-7.12920000 2.10810000 4.01850000
-4.95500000 11.92190000 -3.62010000
-5.65050000 4.45590000 -0.29280000
-7.02690000 2.33970000 4.08340000
-6.72440000 2.58670000 4.08200000
-7.06620000 1.69980000 4.11510000
-6.84170000 2.04240000 4.12380000
-5.50360000 6.40510000 -0.16610000
0.44190000 4.17300000 -0.14800000
-6.59980000 2.32540000 4.04440000
-5.60480000 4.27030000 -0.17610000
-5.57930000 9.06880000 -2.32660000
-5.53700000 3.58680000 4.12970000
-7.10400000 8.56570000 0.28770000
-2.40900000 11.80980000 -3.96270000
-6.24740000 2.48670000 4.00780000
-6.05380000 2.76080000 4.06420000
-6.40070000 2.73380000 4.05830000
-2.57510000 11.85710000 -3.88720000
-1.29750000 11.85630000 -3.67430000
-5.59660000 8.06690000 -0.36800000
-3.24950000 11.87250000 -3.08570000
-7.12190000 8.32050000 -0.96520000
-5.57960000 9.27790000 -1.49360000
-5.60540000 9.62700000 -1.51700000
-5.60550000 8.75080000 -0.69660000
-5.60570000 8.17790000 -0.98900000
-5.63040000 9.29590000 -0.86270000
-5.58550000 8.05400000 -0.58000000
-3.05560000 10.04240000 4.19830000
-4.61590000 10.27050000 -3.91320000
-4.85680000 10.20470000 -3.83780000
-7.15280000 8.56240000 -0.85800000
-5.10120000 10.17070000 -3.77360000
-5.02430000 10.23690000 -3.60020000
-4.61710000 10.22550000 -3.68110000
-4.56600000 10.16620000 -3.77550000
-4.48180000 10.18940000 -3.85780000
-4.63870000 10.28620000 -3.22880000
-4.01030000 10.28770000 -3.93190000
-4.04240000 10.18730000 -3.82500000
-4.10300000 10.20750000 -3.68980000
-3.67130000 10.25450000 -3.32150000
-3.13100000 10.24800000 -3.11110000
-4.45060000 10.31630000 -2.66790000
-5.30430000 10.23560000 -3.34580000
-5.32360000 10.24680000 -2.99240000
-5.42370000 10.20880000 -2.67400000
-5.13540000 10.32010000 -2.59070000
-2.13970000 10.21570000 -3.38720000
-3.55560000 10.23360000 -3.10960000
-3.34090000 10.27470000 -2.59640000
-2.23090000 10.21000000 -3.21690000
-1.58590000 10.22260000 -2.86410000
-2.42640000 10.26010000 -2.63480000
-2.31510000 10.25200000 -2.34140000
-2.41580000 10.29930000 -1.96890000
-5.70680000 3.52350000 -3.83090000
-5.67050000 3.63280000 -3.56490000
-5.50380000 10.18610000 -2.23140000
-5.26020000 10.35980000 -2.25820000
-5.42030000 10.30320000 -1.96970000
-5.02310000 10.39920000 -1.99920000
-5.26870000 10.39360000 -1.85970000
-5.57460000 10.04080000 -1.70840000
-7.16470000 0.60480000 3.95460000
-6.35630000 1.99310000 4.13210000
-5.65720000 3.20680000 -3.80200000
-5.68960000 2.90560000 -3.80800000
-5.49990000 10.24080000 -0.59200000
-5.62040000 10.16840000 -0.70720000
-5.53080000 10.31250000 -0.73820000
-5.37360000 10.42920000 -0.82880000
-5.28220000 10.38810000 -0.61640000
-5.11400000 10.47660000 -0.67670000
-5.64150000 9.90930000 -0.59110000
-5.56250000 10.06010000 -0.54120000
-5.42710000 9.95790000 -0.45700000
-5.25240000 10.32110000 -0.52730000
-6.11860000 2.27960000 4.03740000
-4.81370000 10.50220000 -0.66870000
-5.04080000 10.51070000 -0.57050000
-5.79580000 2.59500000 4.01980000
-5.87370000 2.40500000 4.02420000
-4.93690000 10.38750000 -0.48350000
-5.22530000 10.01170000 -0.39430000
-4.76000000 10.25790000 -0.41010000
-5.91750000 2.09390000 4.10200000
-5.75430000 2.20130000 4.00910000
-5.28210000 9.50490000 -0.34690000
-5.49370000 10.25080000 -1.34430000
-5.27160000 10.40440000 -1.40910000
-5.59000000 10.14120000 -1.06710000
-5.64740000 9.84560000 -0.90440000
-5.34120000 10.39710000 -1.21070000
-5.19160000 10.50210000 -0.86030000
-5.66790000 9.53770000 -0.61700000
-5.62150000 9.51850000 -0.51840000
-4.85920000 10.46880000 -0.91450000
-5.53670000 9.39250000 -0.42170000
-1.24120000 10.18440000 4.23690000
0.39660000 10.90810000 4.23290000
-1.60820000 10.76810000 4.22840000
7.25430000 10.44060000 -2.33950000
7.26110000 11.02490000 -2.83990000
7.26710000 11.03620000 -2.35780000
4.27680000 10.21220000 -2.70060000
4.53810000 10.30400000 -1.28820000
3.03840000 10.23840000 -2.39350000
7.24550000 10.55890000 -2.73220000
4.81940000 10.24550000 -2.27980000
7.24870000 9.82930000 -2.77980000
7.22940000 9.99000000 -2.98250000
7.26400000 10.22870000 -2.51090000
7.22650000 9.85450000 -2.65750000
7.29380000 10.58130000 -1.96410000
7.27260000 10.22470000 -2.11820000
7.23600000 9.70290000 -3.09190000
7.24070000 9.51570000 -2.74390000
2.54790000 10.30580000 -1.73350000
3.37250000 10.29690000 -1.59380000
7.22920000 9.36060000 -2.57630000
-0.34430000 9.94000000 4.23410000
7.25740000 9.87470000 -2.43350000
7.26260000 9.37860000 -2.34750000
7.25880000 9.19970000 -2.45080000
7.24410000 10.16240000 -2.25730000
7.25480000 9.78300000 -2.20510000
7.27670000 10.23750000 -1.85430000
7.27530000 9.88330000 -1.72680000
7.30100000 10.28520000 -1.65060000
7.24070000 9.35340000 -2.22490000
7.24440000 9.53810000 -2.12430000
7.27420000 9.43440000 -1.81010000
4.48030000 5.13950000 -0.36890000
5.26610000 5.92000000 -0.44720000
0.33480000 11.72960000 -4.07610000
1.56180000 11.53870000 -4.15650000
0.18890000 11.81020000 -4.00840000
