-15.36810000 -1.37270000 -7.80450000
-15.43490000 -1.41340000 -7.43330000
-15.32150000 -1.42500000 -7.74580000
-15.16570000 -1.45120000 -7.80500000
-15.25040000 -1.39160000 -8.16430000
-15.14300000 -1.44420000 -8.11830000
-15.08930000 -1.42780000 -8.41590000
-15.11620000 -1.38900000 -8.51890000
-14.93540000 -1.45100000 -8.38130000
-14.87490000 -1.43340000 -8.15530000
-14.99150000 -1.42800000 -7.66510000
-14.88530000 -1.16930000 -9.15290000
-14.98870000 -1.25710000 -8.94270000
-15.04330000 -1.35940000 -8.75860000
-14.88370000 -1.35270000 -9.07980000
-14.90990000 -1.42270000 -8.88310000
-14.47990000 -1.21220000 -9.70010000
-14.71790000 -1.32030000 -9.36720000
-14.58130000 -1.41360000 -9.47520000
-14.60600000 -1.44830000 -9.33010000
-14.43220000 -1.32670000 -8.80040000
-14.54900000 -1.30800000 -8.55730000
-14.69380000 -1.45940000 -8.96960000
-14.64170000 -1.45260000 -8.79420000
-14.58190000 -1.43170000 -8.75840000
-14.46150000 -1.39700000 -8.85040000
-14.21930000 -1.38590000 -9.19230000
-14.28310000 -1.43850000 -9.26140000
-14.21280000 -1.45640000 -9.43780000
-14.95170000 -1.38810000 -7.50230000
-15.78190000 -1.25610000 -5.47460000
-15.73230000 -1.29080000 -5.87140000
-15.75320000 -1.37830000 -5.64460000
-15.69490000 -1.42370000 -5.80210000
-15.69240000 -1.38140000 -6.01270000
-15.64530000 -1.42290000 -6.09940000
-15.78070000 -1.36920000 -5.42370000
-15.75060000 -1.43420000 -5.30180000
-15.71990000 -1.44180000 -5.53530000
-15.65760000 -1.45960000 -5.58990000
-15.71230000 -1.46260000 -5.16840000
-15.54990000 -1.46930000 -5.48960000
-13.30000000 -0.62510000 -10.42470000
-13.56970000 -0.93880000 -10.34130000
-13.21310000 -0.95770000 -10.48900000
-13.43740000 -1.09310000 -10.42720000
-12.57570000 -0.78230000 -9.96240000
-12.84840000 -0.84070000 -9.87910000
-13.20180000 -0.86970000 -9.74410000
-13.01340000 -0.92600000 -9.84010000
-12.64260000 -0.93990000 -9.96780000
-12.69760000 -1.03850000 -10.00410000
-13.12400000 -1.03290000 -9.85900000
-13.03220000 -1.11460000 -9.93900000
-13.24460000 -1.16200000 -9.86600000
-12.89480000 -0.94670000 -10.59330000
-13.26600000 -1.27810000 -9.88460000
-13.01840000 -1.29700000 -9.99310000
-14.00100000 -1.16660000 -10.11900000
-14.41920000 -1.35090000 -9.74570000
-14.25210000 -1.30180000 -9.93370000
-14.19850000 -1.41230000 -9.93000000
-13.71320000 -1.25130000 -10.31140000
-13.36590000 -1.28860000 -10.47630000
-13.70550000 -1.35780000 -10.30340000
-13.97290000 -1.34850000 -10.13740000
-14.18740000 -1.45100000 -9.87000000
-13.75980000 -1.44940000 -10.19360000
-13.88930000 -1.40890000 -10.16530000
-13.41020000 -1.08220000 -9.74880000
-13.59700000 -1.06640000 -9.62500000
-13.52770000 -1.16530000 -9.71560000
-13.51010000 -1.28510000 -9.75250000
-13.55480000 -1.35990000 -9.77080000
-13.32710000 -1.38190000 -9.92250000
-13.99550000 -1.40730000 -9.47260000
-13.68960000 -1.43510000 -9.83090000
-13.83280000 -1.44890000 -9.71350000
-13.81690000 -1.47160000 -9.87460000
-14.25410000 -1.47010000 -9.64770000
-13.92340000 -1.47320000 -9.96950000
-13.69820000 -1.34980000 -9.64530000
-13.87400000 -1.36300000 -9.52480000
-13.75620000 -1.41020000 -9.67100000
-13.53370000 -1.40820000 -10.36890000
-13.52280000 -1.47280000 -10.24900000
-13.26510000 -1.43920000 -10.06310000
-13.05150000 -1.45760000 -10.27550000
-12.77270000 -0.76250000 -10.60990000
-12.71720000 -0.91570000 -10.63920000
-13.08360000 -1.15410000 -10.55940000
-12.65360000 -1.09550000 -10.67570000
-12.42820000 -1.11130000 -10.72870000
-12.90250000 -1.23190000 -10.62440000
-12.28350000 -1.16860000 -10.76620000
-12.45560000 -1.28450000 -10.74590000
-12.65560000 -1.30270000 -10.70190000
-13.10660000 -1.31020000 -10.57510000
-13.27910000 -1.38040000 -10.50230000
-13.08560000 -1.39900000 -10.56430000
-12.85010000 -1.43590000 -10.60330000
-13.01990000 -1.46580000 -10.45820000
-13.28940000 -1.44070000 -10.44550000
-12.83720000 -1.36580000 -10.64830000
-12.62170000 -1.40390000 -10.69590000
-12.54960000 -1.15480000 -10.08630000
-12.59350000 -1.29360000 -10.10790000
-12.81040000 -1.40820000 -10.16080000
-12.95540000 -1.37350000 -10.06340000
-12.67610000 -1.37260000 -10.14010000
-12.29590000 -1.40100000 -10.28670000
-12.29170000 -1.35450000 -10.77590000
-12.48240000 -1.37080000 -10.74230000
-12.43170000 -1.41330000 -10.73190000
-12.51940000 -1.45390000 -10.64220000
-12.21770000 -1.43020000 -10.73360000
4.94650000 -0.54420000 -2.62090000
3.99260000 -0.52450000 -1.15290000
3.32850000 -0.51610000 0.72500000
1.53430000 -0.71560000 -8.83770000
1.35530000 -0.74490000 -8.57170000
1.15630000 -0.72880000 -8.62260000
1.86630000 -0.68150000 -9.02230000
1.98920000 -0.72290000 -8.92250000
1.79820000 -0.62610000 -9.07490000
1.40390000 -0.64910000 -8.92850000
1.27870000 -0.69330000 -8.79690000
1.35350000 -0.57710000 -8.98190000
1.45150000 -0.50020000 -9.06060000
1.91760000 -0.56970000 -9.15050000
1.57650000 -0.32350000 -9.19390000
0.86250000 -0.73780000 -7.19150000
1.55270000 -0.74360000 -8.38130000
2.11200000 -0.70500000 -7.61560000
0.43590000 -0.70740000 -7.51930000
0.61870000 -0.74270000 -7.61890000
0.30560000 -0.71570000 -6.73980000
0.81300000 -0.71540000 -8.35830000
0.91040000 -0.75260000 -8.15200000
0.76810000 -0.73420000 -8.18130000
0.52730000 -0.68930000 -7.88260000
0.67080000 -0.67660000 -8.25210000
0.44340000 -0.73820000 -6.58480000
0.22530000 -0.65910000 -6.94520000
0.33720000 -0.64770000 -7.51920000
0.17470000 -0.57260000 -7.20000000
0.27630000 -0.56390000 -7.61940000
0.18470000 -0.48100000 -7.50350000
0.03690000 -0.45530000 -6.95980000
-0.01570000 -0.26200000 -7.06420000
0.50230000 -0.61970000 -8.05140000
0.72460000 -0.61350000 -8.47390000
0.54310000 -0.54560000 -8.27200000
0.38730000 -0.43790000 -8.07690000
0.48720000 -0.31910000 -8.40570000
0.30100000 -0.48260000 -7.81870000
0.29060000 -0.30370000 -7.98600000
0.33850000 -0.11170000 -8.31510000
0.15680000 -0.29220000 -7.60780000
0.03640000 -0.10460000 -7.41850000
0.93990000 -0.73840000 -8.40710000
0.99040000 -0.69720000 -8.61240000
1.09370000 -0.65090000 -8.77630000
1.17220000 -0.57980000 -8.89540000
0.87700000 -0.66320000 -8.56990000
0.82950000 -0.56410000 -8.65590000
0.97250000 -0.58450000 -8.77000000
1.04140000 -0.44490000 -8.90430000
0.79180000 -0.30350000 -8.80760000
1.20850000 -0.40610000 -9.03010000
1.08050000 -0.26190000 -9.04660000
1.21530000 -0.21420000 -9.12420000
1.48010000 -0.13440000 -9.24370000
1.23480000 -0.02940000 -9.17490000
0.67750000 -0.51320000 -8.52790000
0.63990000 -0.25740000 -8.68510000
0.65530000 -0.06640000 -8.81860000
0.49340000 -0.03790000 -8.63890000
1.04540000 0.16690000 -9.14650000
0.91420000 -0.15740000 -8.99200000
0.89240000 0.11490000 -9.05370000
0.77100000 -0.06860000 -8.92760000
0.72120000 0.13510000 -8.93230000
0.25900000 -0.05600000 -8.16350000
0.22070000 -0.17800000 -7.87420000
0.13360000 -0.07390000 -7.67700000
0.19460000 0.02460000 -7.98820000
0.18380000 -0.02540000 -7.84040000
0.09850000 0.13210000 -7.78780000
-0.00380000 0.16350000 -7.57040000
0.37950000 0.10890000 -8.53250000
0.44700000 0.24380000 -8.66430000
0.56000000 0.26060000 -8.81160000
0.83500000 0.31780000 -9.05860000
0.67470000 0.34000000 -8.94010000
0.76710000 0.47720000 -8.97870000
0.54380000 0.50610000 -8.82440000
0.51530000 0.71200000 -8.76480000
0.42770000 0.47480000 -8.70320000
0.21150000 0.20740000 -8.23670000
0.14140000 0.20270000 -7.99460000
0.16050000 0.40520000 -8.21940000
0.27510000 0.44340000 -8.46050000
0.24390000 0.68440000 -8.46680000
-0.03120000 0.44660000 -7.74830000
0.07640000 0.37580000 -7.97880000
0.00660000 0.56050000 -7.97150000
0.08270000 0.63400000 -8.17870000
-0.03520000 0.80040000 -7.93890000
-0.10100000 0.61680000 -7.66720000
-0.13720000 0.89570000 -7.61850000
0.36550000 0.76980000 -8.60770000
0.07760000 0.85730000 -8.21000000
0.17430000 0.90590000 -8.37350000
0.24690000 1.03220000 -8.41890000
-0.00830000 0.97840000 -8.04390000
0.10180000 1.08960000 -8.21750000
0.02560000 1.10340000 -8.08190000
-0.07210000 1.11820000 -7.82100000
-0.00250000 1.22620000 -7.94750000
0.20160000 1.23070000 -8.30220000
0.09200000 1.26090000 -8.11700000
-0.01810000 1.40740000 -7.72920000
0.14220000 1.36520000 -8.09240000
0.03200000 -0.67530000 0.30290000
1.50780000 -0.57130000 1.47630000
0.30970000 -0.66120000 2.36890000
1.15070000 -0.60230000 -0.39090000
-0.14820000 -0.67370000 -0.29370000
-0.11480000 -0.66240000 1.07520000
-0.24070000 -0.64160000 0.64520000
-0.23940000 -0.65050000 -0.41070000
0.07830000 -0.66200000 2.40880000
-0.37590000 -0.58700000 0.24060000
-0.33730000 -0.60370000 -0.65820000
-0.48290000 -0.50940000 0.36830000
-0.44040000 -0.52080000 -0.50940000
-0.57810000 -0.37060000 -0.35890000
-0.49360000 -0.45940000 -1.19110000
-0.61140000 -0.36890000 0.33840000
-0.33300000 -0.58840000 1.18790000
-0.44920000 -0.52820000 0.93910000
-0.50280000 -0.46830000 1.22140000
-0.63160000 -0.33980000 0.87910000
-0.72860000 -0.19670000 0.56310000
-0.74100000 -0.15240000 0.12390000
-0.63450000 -0.26720000 -0.63830000
-0.81000000 0.00400000 0.01810000
-0.72390000 -0.11960000 -0.52950000
-0.83160000 0.12040000 -0.33680000
-0.89450000 0.22950000 0.26950000
-0.80880000 -0.03330000 0.47050000
-0.71350000 -0.17450000 1.20370000
-0.84870000 0.09410000 0.77910000
2.67740000 -0.60980000 -5.35650000
3.19380000 -0.63390000 -6.63290000
2.13880000 -0.58250000 -3.17410000
1.48960000 -0.64740000 -5.03140000
3.26760000 -0.55420000 -2.92940000
-0.07430000 -0.44590000 -6.45010000
0.02240000 -0.56510000 -6.45170000
-0.06310000 -0.53780000 -6.11690000
0.07860000 -0.68320000 -5.75900000
0.25880000 -0.72830000 -6.03510000
0.11750000 -0.70830000 -4.68210000
-0.02730000 -0.66800000 -4.73680000
0.27510000 -0.70760000 -4.01120000
0.05270000 -0.63370000 -6.17410000
-0.12200000 -0.57320000 -5.27400000
-0.16360000 -0.44180000 -5.87910000
-0.20170000 -0.48170000 -5.32310000
-0.11470000 -0.62530000 -4.59910000
-0.28570000 -0.32660000 -5.42880000
-0.30400000 -0.40270000 -4.74230000
1.31060000 -0.61080000 -2.54870000
0.70170000 -0.67710000 -4.02670000
-0.11130000 -0.68800000 -2.16960000
-0.00150000 -0.69780000 -2.07030000
-0.12530000 -0.67980000 -3.07150000
-0.24080000 -0.63380000 -2.85910000
-0.28300000 -0.54880000 -3.74490000
-0.33070000 -0.57140000 -2.77220000
-0.35750000 -0.49540000 -3.46450000
-0.45350000 -0.42280000 -2.80910000
-0.42300000 -0.34100000 -3.81560000
-0.50730000 -0.29930000 -3.16500000
-0.52840000 -0.14840000 -3.64230000
-0.22620000 -0.52360000 -4.70580000
-0.31070000 -0.43590000 -4.34710000
-0.19410000 -0.57820000 -4.39960000
-0.32190000 -0.46940000 -4.10870000
-0.40240000 -0.24210000 -4.50020000
0.04730000 -0.53740000 -6.77910000
2.16780000 -0.54580000 0.06590000
3.32500000 1.40730000 0.71110000
4.95050000 1.35880000 -1.90670000
3.15360000 1.46160000 -3.25370000
1.07240000 1.53200000 -0.04130000
-0.25320000 -0.64910000 -1.81220000
-0.42620000 -0.50220000 -2.26620000
-0.59240000 -0.23940000 -2.25930000
-0.61170000 -0.14170000 -2.68960000
-0.52880000 -0.38560000 -1.97110000
-0.45990000 -0.49820000 -1.81210000
-0.36900000 -0.58300000 -1.70340000
-0.42040000 -0.53970000 -1.28540000
-0.59690000 -0.30260000 -1.48890000
-0.71310000 -0.09890000 -1.03640000
-0.73450000 -0.00320000 -1.47860000
-0.80360000 0.15450000 -0.97620000
0.75470000 1.59490000 -2.74250000
-0.96590000 0.52290000 0.52510000
-0.23080000 -0.24300000 -6.12830000
-0.30790000 -0.22050000 -5.61330000
-0.34550000 -0.01620000 -5.77320000
-0.42920000 0.09020000 -5.22780000
-0.43520000 -0.09650000 -4.67260000
-0.47670000 0.04460000 -4.64540000
-0.53980000 0.34020000 -4.50850000
-0.42960000 0.28470000 -5.49870000
-0.51100000 0.61690000 -5.08510000
-0.59940000 0.60180000 -4.17050000
-0.55080000 0.15980000 -4.16280000
-0.59550000 0.06550000 -3.56980000
-0.66000000 0.05100000 -2.77890000
-0.68270000 0.33210000 -3.17050000
-0.67950000 0.56570000 -3.38720000
-0.66070000 0.85510000 -3.71470000
-0.58180000 0.88000000 -4.46030000
-0.57960000 1.13610000 -4.22200000
-0.64030000 1.26870000 -3.59640000
-0.14400000 -0.28650000 -6.52190000
-0.26220000 -0.00280000 -6.40020000
-0.18930000 0.18770000 -6.99350000
-0.25950000 0.28930000 -6.76300000
-0.12800000 0.28910000 -7.29730000
-0.23900000 0.48570000 -7.06150000
-0.19400000 0.69570000 -7.36280000
-0.13510000 0.51030000 -7.42830000
-0.28690000 0.71370000 -6.97100000
-0.32890000 0.59870000 -6.62550000
-0.32450000 0.93740000 -6.72170000
-0.33170000 0.23890000 -6.30910000
-0.37130000 0.44980000 -6.27170000
-0.43600000 0.54700000 -5.79150000
-0.44720000 0.74300000 -5.75650000
-0.41360000 1.02910000 -6.04440000
-0.48290000 0.89810000 -5.48680000
-0.48820000 1.08090000 -5.26860000
-0.28140000 1.22080000 -6.79730000
-0.34270000 1.33970000 -6.28120000
-0.43010000 1.33740000 -5.48510000
-0.23800000 0.90610000 -7.26740000
-0.18330000 1.05850000 -7.45860000
-0.24670000 1.07290000 -7.16620000
-0.19170000 1.25630000 -7.31060000
-0.24200000 1.51020000 -6.68520000
-0.09300000 1.27700000 -7.66200000
0.04490000 1.49090000 -7.75250000
-0.15450000 1.41380000 -7.28810000
-0.04880000 1.50550000 -7.50760000
0.01540000 1.55570000 -7.54990000
-0.19100000 1.59240000 -6.77600000
-0.12260000 1.52510000 -7.25220000
-0.11580000 1.62060000 -7.02150000
-0.07370000 1.58100000 -7.27370000
0.02130000 1.61820000 -7.36580000
-0.00700000 1.66200000 -7.11440000
-0.35050000 1.53780000 -5.87890000
-0.26430000 1.63500000 -6.28660000
-0.31350000 1.60960000 -6.00860000
-0.26850000 1.67150000 -6.05630000
-0.18300000 1.67430000 -6.48640000
-0.19370000 1.70810000 -6.22580000
0.18450000 1.69130000 -5.85690000
0.45900000 1.66860000 -6.76520000
0.29220000 1.69280000 -7.03710000
0.14440000 1.70640000 -6.97350000
-0.01690000 1.73480000 -6.26980000
-0.07220000 1.71230000 -6.57510000
0.06370000 1.69680000 -7.02560000
-0.04450000 1.73430000 -5.55010000
-0.13140000 1.73300000 -6.14410000
0.06430000 1.68890000 -4.16580000
0.39300000 1.65050000 -4.55730000
1.00870000 1.61560000 -5.75770000
-0.51630000 1.49030000 -4.39770000
-0.57510000 1.51690000 -3.80300000
-0.53290000 1.58200000 -4.11170000
-0.43550000 1.65320000 -4.81380000
-0.41730000 1.61910000 -5.09630000
-0.37600000 1.69560000 -5.11750000
-0.39510000 1.71590000 -4.74360000
-0.47990000 1.64930000 -4.39340000
-0.37690000 1.73450000 -4.57410000
-0.45490000 1.68950000 -4.39330000
-0.36880000 1.75090000 -4.28430000
-0.34470000 1.76040000 -3.99540000
-0.30190000 1.75850000 -4.64900000
-0.22950000 1.75790000 -4.27960000
-0.43830000 1.73860000 -3.88510000
-0.48740000 1.69490000 -4.04660000
-0.43600000 1.72080000 -4.27840000
-0.53880000 1.64200000 -3.86530000
-0.19310000 1.75040000 -5.25060000
-0.35570000 1.65730000 -5.52740000
-0.25670000 1.70600000 -5.90430000
-0.30890000 1.69600000 -5.63530000
-0.22700000 1.73600000 -5.62980000
-0.31520000 1.73430000 -5.11830000
-0.19720000 1.73710000 -3.64520000
-0.80330000 0.26530000 -1.59510000
-0.75640000 0.34500000 -2.43980000
-0.83270000 0.64660000 -2.11890000
-0.87550000 0.63270000 -1.56080000
-0.85660000 0.86610000 -2.18770000
-0.74730000 0.63200000 -2.91580000
-0.77470000 0.90850000 -2.85220000
-0.75310000 1.19310000 -2.89590000
-0.88150000 1.11380000 -2.03780000
-0.92500000 1.02640000 -1.49970000
-0.65390000 1.51470000 -3.27980000
-0.88290000 1.38140000 -1.92430000
-0.79180000 1.45540000 -2.50480000
-0.92040000 1.25030000 -1.51670000
-0.89820000 1.44010000 -1.50390000
-0.72590000 1.61690000 -2.73660000
-0.83280000 1.52410000 -2.16750000
-0.79860000 1.60540000 -2.24900000
-0.70510000 1.67010000 -2.65270000
-0.86740000 1.54110000 -1.69360000
-0.82590000 1.59920000 -1.96430000
-0.82110000 1.63420000 -1.67670000
-0.76690000 1.66840000 -2.05840000
-0.67650000 1.71140000 -2.41270000
-0.66800000 1.72580000 -1.91830000
-0.85530000 0.33930000 -0.83920000
-0.90870000 0.36600000 -0.17420000
-0.92300000 0.56250000 -0.41860000
-0.90470000 0.67860000 -1.04800000
-0.93210000 0.88460000 -1.19340000
-0.94350000 1.09050000 -1.02240000
-0.96750000 0.88320000 -0.52340000
-0.98890000 1.08270000 -0.38300000
-0.98350000 0.71260000 0.00750000
-1.03530000 0.97110000 0.37570000
-1.01980000 0.93270000 0.00640000
-1.00800000 1.29100000 -0.09130000
-0.94300000 1.31960000 -0.77730000
-0.96070000 1.45360000 -0.28240000
-1.03350000 1.16620000 0.06910000
-1.04180000 1.26330000 0.42250000
-1.01130000 1.47450000 0.31680000
-0.96370000 1.57010000 0.07840000
-0.43320000 1.73520000 -2.31860000
-0.52080000 1.72260000 -1.24300000
-0.35930000 1.68170000 -1.04830000
-0.56030000 1.74150000 -2.04600000
-0.62150000 1.72650000 -1.28260000
-0.62560000 1.70590000 -0.71830000
-0.55140000 1.70720000 -0.57400000
-0.68690000 1.71200000 -1.27020000
-0.73870000 1.67690000 -1.00890000
-0.01960000 1.61730000 -0.93830000
-0.90830000 1.46110000 -0.81120000
-0.90840000 1.49990000 -0.55410000
-0.85530000 1.57040000 -0.87570000
-0.85670000 1.59000000 -0.45400000
-0.91750000 1.56700000 -0.23440000
-0.80480000 1.62230000 -0.67540000
-0.78800000 1.64030000 -0.89990000
-0.76500000 1.67190000 -0.40360000
-0.70990000 1.69790000 -0.30200000
-0.83930000 1.63390000 -0.31140000
-0.92600000 1.62480000 0.08840000
-0.84940000 1.67770000 0.08080000
-0.76100000 1.71130000 0.16140000
-0.65280000 1.71080000 0.20470000
-0.46750000 1.66580000 0.17670000
-0.18840000 1.64600000 -1.21990000
-0.85880000 1.58780000 -1.37170000
-0.89090000 1.51710000 -1.17770000
-0.83830000 1.61550000 -1.15600000
-0.74170000 1.69770000 -1.65200000
-0.79970000 1.65770000 -1.38670000
-0.24890000 1.69450000 -2.38360000
-0.62950000 1.62400000 -3.28740000
-0.51600000 1.69670000 -3.70850000
-0.60190000 1.68000000 -3.27280000
-0.52690000 1.73030000 -3.33580000
-0.60410000 1.71740000 -2.95540000
-0.41740000 1.75900000 -3.14550000
-0.52780000 1.74970000 -2.90390000
7.65670000 -0.51670000 -9.10560000
7.99070000 -0.46860000 -8.90370000
7.80790000 -0.57130000 -8.90500000
7.94530000 -0.40140000 -9.04110000
7.52490000 -0.60630000 -9.04030000
7.72350000 -0.43220000 -9.16860000
8.38480000 -0.46670000 -8.22910000
8.15730000 -0.58070000 -8.32890000
8.14190000 -0.54590000 -8.52470000
8.21990000 -0.62650000 -7.98470000
8.40230000 -0.54190000 -7.98060000
7.28720000 -0.67240000 -8.90440000
7.79640000 -0.66660000 -8.35710000
7.28180000 -0.67030000 -8.23880000
7.86960000 -0.65880000 -7.10820000
7.86780000 -0.64990000 -8.55960000
7.91950000 -0.61360000 -8.66720000
8.00230000 -0.55280000 -8.74290000
8.16690000 -0.47420000 -8.67400000
7.58850000 -0.64890000 -8.86570000
8.20210000 -0.65010000 -7.77590000
6.16770000 -0.62180000 -9.39790000
6.56970000 -0.62170000 -9.34120000
6.43480000 -0.66790000 -9.24820000
5.85460000 -0.68290000 -9.27160000
6.83290000 -0.67770000 -9.06690000
6.25460000 -0.62690000 -7.15290000
6.03160000 -0.69290000 -8.89300000
5.57700000 -0.65600000 -8.04910000
7.17640000 -0.64710000 -9.11290000
6.94480000 -0.57540000 -9.32200000
7.36240000 -0.58980000 -9.16250000
7.32170000 -0.52100000 -9.27720000
7.55490000 -0.35450000 -9.34060000
7.88760000 -0.27600000 -9.21150000
6.87430000 -0.47170000 -9.45550000
7.28250000 -0.43540000 -9.38010000
7.36410000 -0.24820000 -9.49190000
7.03240000 -0.29100000 -9.54890000
6.37670000 -0.53500000 -9.48120000
6.51630000 -0.43300000 -9.54990000
6.80810000 -0.16940000 -9.65870000
7.19980000 -0.05830000 -9.64830000
5.86200000 -0.65080000 -9.36990000
5.84710000 -0.57950000 -9.47700000
5.85320000 -0.46790000 -9.57630000
4.81550000 -0.70580000 -9.16360000
5.30760000 -0.62760000 -9.41830000
5.13300000 -0.67460000 -9.32540000
4.23010000 -0.69630000 -8.46570000
3.51010000 -0.72710000 -8.94210000
5.17370000 -0.56000000 -9.49120000
5.38920000 -0.45500000 -9.58790000
5.82150000 -0.32230000 -9.66930000
5.38860000 -0.23880000 -9.71290000
6.26120000 -0.35740000 -9.62990000
6.64040000 -0.07670000 -9.72360000
6.15880000 -0.14820000 -9.73290000
7.09930000 0.06100000 -9.71750000
6.62460000 0.08040000 -9.77630000
5.97460000 0.11980000 -9.82340000
5.77920000 -0.13330000 -9.74920000
5.50200000 0.08600000 -9.81320000
6.15710000 0.26930000 -9.84770000
6.66610000 0.40020000 -9.82950000
6.30150000 0.56040000 -9.88000000
8.11070000 -0.24070000 -9.07450000
8.29850000 -0.07600000 -9.04900000
8.16460000 -0.02980000 -9.21790000
8.32710000 0.12320000 -9.17950000
8.05100000 0.09340000 -9.37740000
8.37220000 0.36960000 -9.25440000
8.18380000 0.24090000 -9.35350000
8.35800000 -0.38820000 -8.52470000
8.62640000 -0.33710000 -8.09090000
8.44790000 -0.26520000 -8.60440000
8.59700000 -0.03400000 -8.69650000
8.72410000 -0.19030000 -8.19450000
8.89030000 0.04700000 -8.22580000
8.76450000 -0.01860000 -8.40870000
8.70520000 0.14860000 -8.71690000
8.87540000 0.23110000 -8.45620000
8.77390000 0.39980000 -8.80390000
8.20570000 -0.34760000 -8.84200000
8.40800000 -0.15520000 -8.82160000
8.47520000 0.05320000 -8.96590000
8.62410000 0.27390000 -8.93100000
8.50300000 0.29430000 -9.09260000
8.87920000 0.46560000 -8.65860000
8.97210000 0.57500000 -8.57000000
9.04600000 0.39310000 -8.19770000
9.08560000 0.63650000 -8.33090000
8.80640000 0.65910000 -8.90390000
8.55770000 0.68490000 -9.20130000
8.64370000 0.59530000 -9.08420000
8.75650000 1.00890000 -9.12170000
8.80160000 0.85760000 -9.00510000
8.92300000 0.75270000 -8.78150000
8.98860000 0.75660000 -8.64900000
9.09730000 0.81310000 -8.48370000
9.03600000 0.95780000 -8.70050000
9.12200000 0.97830000 -8.53090000
9.04710000 1.14220000 -8.71840000
8.87940000 0.95110000 -8.95210000
8.90770000 1.12280000 -8.94600000
8.96310000 1.26090000 -8.86400000
8.99400000 1.29970000 -8.77870000
9.08420000 1.25610000 -8.60330000
9.03290000 1.34490000 -8.61820000
7.87550000 -0.10710000 -9.35230000
7.77280000 0.04180000 -9.49510000
7.51000000 -0.12680000 -9.52010000
8.34050000 0.56270000 -9.33950000
8.15820000 0.47900000 -9.44430000
7.94790000 0.36000000 -9.52630000
7.62290000 0.08980000 -9.57940000
7.60690000 0.24470000 -9.62450000
7.37820000 0.07820000 -9.66080000
7.08470000 0.20490000 -9.74980000
7.23820000 0.42300000 -9.75150000
7.44960000 0.42030000 -9.70630000
7.79370000 0.68860000 -9.64890000
8.05910000 0.63850000 -9.52970000
7.51630000 0.77770000 -9.74320000
7.68690000 0.90950000 -9.72730000
8.29410000 0.81820000 -9.44370000
8.16780000 0.85580000 -9.51310000
8.02770000 0.90710000 -9.59920000
8.12250000 1.07150000 -9.59620000
8.26200000 1.07820000 -9.52710000
7.93640000 1.03250000 -9.66750000
8.03300000 1.14270000 -9.63850000
7.73960000 1.12540000 -9.74200000
7.92930000 1.24480000 -9.67260000
8.27290000 1.24280000 -9.51730000
8.05610000 1.33290000 -9.61980000
7.98310000 1.38370000 -9.62510000
8.50030000 0.85590000 -9.31790000
8.44140000 1.05320000 -9.40400000
8.67090000 1.08540000 -9.22810000
8.77050000 1.24400000 -9.13390000
8.56180000 1.25930000 -9.33840000
8.61740000 1.32540000 -9.27390000
8.72220000 1.36260000 -9.14920000
8.66820000 1.40180000 -9.14460000
8.60240000 1.38350000 -9.24430000
8.45290000 1.43000000 -9.25180000
8.83510000 1.30650000 -9.04790000
8.89050000 1.34720000 -8.92940000
8.90890000 1.38710000 -8.80940000
8.90900000 1.41020000 -8.68200000
8.79410000 1.39340000 -8.99300000
8.74680000 1.41760000 -8.94900000
8.87350000 1.42040000 -8.60150000
8.52150000 1.42980000 -9.01640000
7.95640000 1.42640000 -9.11860000
7.28670000 1.38110000 -7.24510000
8.47310000 1.38770000 -7.97120000
8.36030000 1.33050000 -9.45660000
8.47330000 1.39180000 -9.34240000
8.34970000 1.38400000 -9.43410000
8.28970000 1.42880000 -9.39320000
7.97530000 1.45300000 -9.39040000
8.16890000 1.33430000 -9.56160000
8.19720000 1.39150000 -9.51300000
8.06310000 1.40260000 -9.57250000
8.08190000 1.42770000 -9.51890000
8.04080000 1.44770000 -9.47540000
8.21720000 1.42030000 -9.46390000
6.93600000 0.70750000 -9.84020000
7.17210000 1.00190000 -9.85430000
7.44040000 1.11680000 -9.82100000
7.16500000 1.20710000 -9.87430000
6.39380000 0.96870000 -9.90900000
6.15320000 0.71360000 -9.89370000
6.84590000 1.12880000 -9.90420000
6.97780000 1.28940000 -9.88860000
6.59450000 1.25970000 -9.90630000
6.63660000 1.36370000 -9.88170000
6.84400000 1.40860000 -9.85290000
7.13440000 1.34900000 -9.85750000
7.30160000 1.45570000 -9.40170000
6.03740000 1.47570000 -9.15980000
7.08940000 1.43020000 -8.90730000
5.73710000 1.51430000 -9.44150000
5.79300000 1.45170000 -8.27270000
7.70060000 1.30660000 -9.74240000
7.42280000 1.25870000 -9.82940000
7.46710000 1.35970000 -9.79650000
7.63250000 1.40560000 -9.73060000
7.81540000 1.36310000 -9.69390000
7.79050000 1.42400000 -9.65840000
7.54850000 1.44600000 -9.70580000
7.58480000 1.46790000 -9.61440000
7.27250000 1.41790000 -9.79830000
7.87870000 1.44270000 -9.58700000
7.29010000 1.46750000 -9.72220000
7.00340000 1.45700000 -9.79410000
6.84360000 1.49680000 -9.61250000
6.87200000 1.49190000 -9.72800000
9.21750000 -0.53630000 -4.49490000
9.38520000 -0.45800000 -4.20370000
9.21380000 -0.56740000 -4.20280000
9.27270000 -0.45700000 -4.73200000
9.44780000 -0.47580000 -3.52270000
9.48720000 -0.31290000 -4.48820000
9.55950000 -0.33180000 -3.92960000
9.60580000 -0.17450000 -4.44800000
9.66760000 -0.02080000 -4.60890000
9.76340000 0.07920000 -4.38890000
8.96040000 -0.63950000 -2.37740000
9.17300000 -0.61760000 -0.10480000
8.73930000 -0.63480000 -0.11890000
8.27200000 -0.62850000 -0.95960000
9.14300000 -0.61300000 -3.85560000
9.29820000 -0.60820000 -2.49220000
9.07260000 -0.63360000 -3.34590000
9.35200000 -0.56150000 -3.17840000
9.58090000 -0.45040000 -2.41030000
9.69090000 -0.42330000 -1.32670000
9.57630000 -0.50950000 -1.04530000
9.41180000 -0.57190000 -2.32770000
9.23310000 -0.61830000 -1.39890000
9.43190000 -0.57420000 -1.24710000
9.73580000 -0.31550000 -2.27030000
9.77530000 -0.21760000 -2.75840000
9.76440000 -0.07410000 -3.85170000
9.88980000 -0.03990000 -2.90650000
9.94740000 0.14400000 -3.40180000
9.98220000 -0.08300000 -1.59340000
10.05020000 0.12590000 -2.21490000
10.03240000 0.19820000 -2.83640000
10.14820000 0.33090000 -2.35370000
9.91820000 -0.27520000 0.30400000
9.86790000 -0.30840000 -0.54710000
10.00670000 -0.16690000 -0.43820000
10.09090000 -0.06980000 0.01560000
9.93630000 -0.17860000 -1.34350000
8.63630000 -0.64450000 -3.29070000
9.56540000 -0.52940000 0.11380000
9.42890000 -0.57450000 0.12990000
9.73810000 -0.42570000 -0.19820000
10.07170000 -0.04170000 -0.88220000
10.13310000 0.11620000 -1.22120000
10.18630000 0.33900000 -1.73730000
10.21520000 0.25700000 -1.08650000
10.21560000 0.13770000 -0.22770000
10.29930000 0.35180000 -0.43670000
10.32460000 0.52090000 -0.91560000
10.30960000 0.54530000 -1.37610000
10.40080000 0.77190000 -1.25960000
10.38910000 0.73950000 -0.98000000
10.35700000 0.57690000 -0.64440000
10.40940000 0.55160000 -0.23430000
10.40940000 0.70590000 -0.51480000
10.39480000 0.78930000 -0.75530000
10.43460000 0.88340000 -0.71530000
9.92550000 0.25390000 -3.87190000
9.89380000 0.42970000 -4.29040000
10.01940000 0.46950000 -3.67940000
10.06130000 0.38050000 -3.34730000
10.15090000 0.67070000 -3.18020000
10.04360000 0.70570000 -3.78510000
10.14020000 0.40280000 -2.77640000
10.14640000 0.50210000 -3.01020000
10.23530000 0.56960000 -2.43770000
10.27780000 0.73110000 -2.43800000
10.19300000 0.92780000 -3.15690000
10.24950000 0.94240000 -2.85130000
10.30330000 1.00280000 -2.52280000
10.25410000 1.12920000 -2.99910000
10.32560000 1.14370000 -2.54890000
10.27750000 1.23050000 -2.85260000
10.31570000 1.23190000 -2.59780000
10.32880000 0.66400000 -1.76080000
10.39400000 0.86910000 -1.78050000
10.36570000 0.99950000 -2.19580000
10.41930000 1.02120000 -1.86610000
10.45370000 0.99350000 -1.26110000
10.45440000 1.06490000 -1.46260000
10.40270000 1.14530000 -2.08660000
10.37260000 1.21340000 -2.27550000
10.36180000 1.28120000 -2.14930000
10.32740000 1.27970000 -2.40950000
10.28670000 1.33840000 -2.21650000
10.42820000 1.13440000 -1.85710000
10.44350000 1.14530000 -1.62190000
10.41310000 1.22290000 -1.84510000
10.42200000 1.21600000 -1.37720000
10.40750000 1.20780000 -2.03250000
10.38210000 1.27510000 -1.83070000
10.33720000 1.31690000 -1.86680000
10.24990000 1.35830000 -1.84760000
10.28850000 1.33290000 -1.51790000
10.17790000 1.36460000 -1.65910000
10.45350000 0.97030000 -0.82280000
10.45700000 1.06990000 -0.89380000
10.45340000 0.79250000 -0.34600000
10.46220000 1.14740000 -0.53180000
10.47830000 1.05370000 -0.52240000
10.44920000 1.13510000 -1.17590000
10.40810000 1.20570000 -1.04650000
10.36850000 1.26990000 -1.28810000
10.17470000 1.34290000 -1.26220000
10.24520000 1.32720000 -1.00890000
10.42170000 1.17720000 -0.81140000
10.32750000 1.27350000 -0.86390000
10.42020000 1.22290000 -0.59920000
10.32680000 1.29290000 -0.71560000
10.12420000 1.36090000 -0.94370000
10.05070000 1.34340000 -1.14820000
10.24010000 1.35010000 -0.60530000
10.10170000 1.39110000 -0.64950000
8.58600000 -0.57410000 -7.29750000
8.52190000 -0.54590000 -7.68340000
8.73230000 -0.51540000 -7.09820000
8.51890000 -0.62760000 -6.92410000
8.44820000 -0.62140000 -7.38770000
8.75150000 -0.59210000 -6.06750000
8.70620000 -0.57330000 -6.75300000
8.85500000 -0.51140000 -6.39300000
8.82380000 -0.43030000 -7.17960000
8.99070000 -0.36810000 -6.68960000
8.61400000 -0.63100000 -6.18110000
8.33730000 -0.65350000 -6.83310000
9.00850000 -0.39760000 -6.27190000
8.99880000 -0.44790000 -5.80450000
9.17340000 -0.21050000 -6.06810000
9.13590000 -0.23200000 -6.40220000
7.01820000 -0.61480000 -5.76440000
8.62770000 -0.44340000 -7.80880000
8.59210000 -0.64900000 -5.10260000
7.67940000 -0.62300000 -4.01440000
8.90290000 -0.54070000 -5.61870000
8.77940000 -0.61140000 -5.48800000
9.02580000 -0.55650000 -5.06660000
8.97990000 -0.60790000 -4.80690000
8.72150000 -0.63630000 -5.26150000
9.10680000 -0.43330000 -5.37980000
9.10010000 -0.34440000 -5.77750000
9.29220000 -0.02450000 -5.92110000
9.30390000 -0.04020000 -5.68530000
9.20090000 -0.28170000 -5.52380000
9.31620000 -0.32430000 -5.06940000
9.42370000 -0.09200000 -5.25300000
9.34440000 -0.04730000 -5.53120000
8.94010000 -0.63180000 -4.60570000
9.45540000 -0.21520000 -4.93240000
9.55140000 -0.04050000 -4.97890000
5.53770000 -0.58330000 -5.71280000
4.57700000 -0.59660000 -6.23290000
6.18990000 1.35580000 -4.90410000
7.68620000 1.33380000 -5.46490000
7.70950000 1.30780000 -2.89270000
7.24640000 -0.59230000 -1.69680000
6.75360000 -0.58710000 1.18850000
8.60380000 1.29350000 -1.36400000
9.38320000 1.29310000 -2.39280000
9.50530000 1.29830000 -0.93870000
9.71960000 1.32820000 -0.88990000
9.82690000 1.31660000 -1.14360000
9.59350000 1.34830000 -0.44230000
8.79670000 1.28660000 0.08110000
5.79530000 1.32090000 -0.50970000
6.69810000 1.29520000 1.02270000
8.84150000 -0.30390000 -7.60260000
8.98530000 -0.29740000 -7.06860000
9.04860000 -0.18160000 -7.22160000
8.95410000 -0.16830000 -7.61290000
9.12940000 -0.01380000 -7.32470000
9.21020000 -0.01070000 -6.93520000
8.98220000 -0.02870000 -7.83870000
9.19250000 0.21950000 -7.54150000
9.28510000 0.21420000 -7.16730000
9.29460000 0.34460000 -7.37690000
9.10800000 -0.19950000 -6.82520000
9.28910000 0.00760000 -6.45080000
9.33900000 0.20870000 -6.87860000
9.37650000 0.22220000 -6.62620000
9.36380000 0.34910000 -7.00820000
9.46500000 0.26350000 -5.97700000
9.48140000 0.36750000 -6.26210000
9.47570000 0.55140000 -6.62800000
9.56100000 0.71210000 -6.22340000
9.55260000 0.50170000 -6.04250000
9.37980000 0.53750000 -7.14460000
9.05730000 0.14550000 -7.90520000
9.14250000 0.40890000 -7.98000000
9.22140000 0.58020000 -7.88160000
9.16280000 0.72770000 -8.19350000
9.24260000 0.87640000 -8.07230000
9.27610000 0.49250000 -7.60050000
9.32880000 0.75810000 -7.57040000
9.34630000 0.96270000 -7.67850000
9.25380000 1.03970000 -8.11610000
9.33140000 1.14790000 -7.72840000
9.39640000 1.15440000 -7.43130000
9.17650000 0.91820000 -8.35190000
9.15060000 1.12550000 -8.47220000
9.22790000 1.15420000 -8.21100000
9.17430000 1.24220000 -8.35340000
9.22700000 1.28050000 -8.10120000
9.13830000 1.31470000 -8.37630000
9.14230000 1.35790000 -8.21970000
9.08360000 1.40630000 -8.09930000
9.00840000 1.39360000 -8.50990000
9.31150000 1.25930000 -7.71120000
9.23610000 1.32330000 -7.96350000
9.27440000 1.34460000 -7.63930000
9.17170000 1.37980000 -7.96970000
9.24380000 1.40080000 -7.41850000
9.12130000 1.41110000 -7.69480000
9.47930000 0.94960000 -6.99360000
9.53520000 0.91020000 -6.62460000
9.49260000 1.15590000 -6.96970000
9.38700000 1.27690000 -7.38350000
9.46720000 1.23880000 -7.08680000
9.40870000 1.32220000 -7.19080000
9.51090000 1.26370000 -6.77690000
9.58510000 1.23170000 -6.40880000
9.46450000 1.31240000 -6.91220000
9.40570000 1.35670000 -7.05060000
9.43100000 1.37440000 -6.69790000
9.38100000 1.40630000 -6.59020000
9.51500000 1.32940000 -6.50170000
8.92700000 1.37000000 -6.86480000
8.74100000 1.39530000 -7.96970000
8.83570000 1.32960000 -5.46230000
9.31810000 1.37870000 -7.31540000
9.34160000 1.33660000 -7.41220000
9.00770000 1.41260000 -7.68340000
9.24600000 1.40730000 -6.74850000
9.11640000 1.38490000 -6.54820000
9.53800000 0.13030000 -5.33230000
9.54960000 0.36710000 -5.66630000
9.61730000 0.22710000 -5.24560000
9.61680000 0.46740000 -5.57340000
9.66090000 0.42360000 -5.32660000
9.60130000 0.71370000 -6.02230000
9.64830000 0.64910000 -5.63120000
9.70630000 0.85110000 -5.50160000
9.65720000 0.86340000 -5.78730000
9.71420000 0.16340000 -4.80350000
9.69490000 0.28370000 -5.04220000
9.80250000 0.28050000 -4.59330000
9.80480000 0.53010000 -4.77360000
9.72480000 0.60200000 -5.16710000
9.87720000 0.77770000 -4.63160000
9.81380000 0.86330000 -5.00220000
9.91610000 1.00170000 -4.58020000
9.93110000 0.79980000 -4.34620000
9.76990000 0.85920000 -5.26520000
9.64060000 1.05370000 -6.12910000
9.73590000 1.04680000 -5.58450000
9.70270000 1.20250000 -5.83360000
9.76010000 1.20050000 -5.47500000
9.71630000 1.29710000 -5.60760000
9.66720000 1.28690000 -5.96670000
9.79880000 0.99470000 -5.22140000
9.83070000 1.20140000 -5.03840000
9.84130000 1.12980000 -5.01070000
9.66320000 1.36840000 -5.50820000
9.74210000 1.31610000 -5.23640000
9.81300000 1.26700000 -5.01220000
9.67060000 1.38810000 -5.01300000
9.91460000 1.22930000 -4.62350000
9.94870000 1.14760000 -4.50330000
9.87630000 1.29090000 -4.69710000
9.78020000 1.34490000 -4.86280000
9.64250000 1.41220000 -4.73680000
9.80680000 1.37900000 -4.56730000
9.20370000 1.36680000 -5.77570000
9.10710000 1.33360000 -5.23400000
9.46080000 1.37940000 -4.65940000
9.41400000 1.31160000 -3.66840000
9.55630000 1.35590000 -4.03420000
9.32690000 1.41780000 -6.35160000
9.41080000 1.40210000 -5.56630000
9.50170000 1.41040000 -5.56130000
9.66520000 1.34780000 -5.78690000
9.60110000 1.37760000 -5.94020000
9.54880000 1.40190000 -5.90510000
9.58780000 1.39940000 -5.47880000
9.61540000 1.32660000 -6.11670000
9.56200000 1.36780000 -6.18550000
9.48870000 1.39510000 -6.29910000
9.57670000 1.40850000 -4.70750000
10.02120000 0.91360000 -4.00880000
10.03840000 1.11420000 -4.10970000
10.17900000 1.12740000 -3.44850000
10.17650000 1.21690000 -3.48570000
9.82640000 1.39910000 -3.87800000
10.23750000 1.23050000 -3.12140000
10.19460000 1.30020000 -3.25530000
10.01690000 1.38420000 -3.45060000
10.02270000 1.38060000 -2.81830000
10.24520000 1.28400000 -2.95450000
10.19340000 1.32950000 -3.12190000
10.18320000 1.34690000 -2.97090000
10.28550000 1.28610000 -2.69080000
10.24170000 1.32630000 -2.75920000
10.21010000 1.35660000 -2.65310000
10.11270000 1.37770000 -2.88050000
9.75040000 1.33640000 -3.08860000
9.68530000 1.30650000 -2.60570000
9.90700000 1.33650000 -2.12920000
10.11850000 1.36810000 -3.19070000
10.02960000 1.24610000 -4.14790000
10.09680000 1.25580000 -3.82230000
10.05630000 1.31000000 -3.90170000
9.99350000 1.35020000 -4.01930000
9.99570000 1.31790000 -4.16540000
10.15520000 1.26670000 -3.55860000
10.07960000 1.33120000 -3.73360000
9.98180000 1.37820000 -3.85940000
10.06200000 1.36650000 -3.55170000
9.94620000 1.29170000 -4.41520000
9.86020000 1.34940000 -4.54880000
9.92760000 1.35660000 -4.27660000
9.83910000 1.39420000 -4.28850000
9.89270000 1.39810000 -3.89280000
10.12890000 1.33450000 -3.46160000
9.73620000 1.30210000 -1.75950000
10.26930000 1.33460000 -2.45780000
10.18260000 1.37000000 -2.33600000
10.06720000 1.36130000 -1.76390000
9.98390000 1.36000000 -0.96900000
9.87210000 1.37290000 -0.82780000
9.96280000 1.39780000 -0.72680000
9.82860000 1.39720000 -0.42560000
4.06780000 -0.69310000 -9.24540000
3.98860000 -0.67030000 -9.29790000
4.12120000 -0.62300000 -9.37360000
4.73210000 -0.44320000 -9.55960000
3.83130000 -0.54550000 -9.42670000
2.84840000 -0.70510000 -9.12230000
2.89310000 -0.72620000 -9.01970000
3.02660000 -0.67550000 -9.21590000
3.04240000 -0.63250000 -9.27900000
2.75200000 -0.59170000 -9.28630000
3.10310000 -0.45900000 -9.41880000
2.32640000 -0.66040000 -9.15680000
3.89010000 -0.30480000 -9.58310000
2.91320000 -0.29770000 -9.48830000
3.73340000 -0.17020000 -9.63300000
2.93520000 -0.14580000 -9.55540000
4.28540000 0.05180000 -9.75630000
3.73140000 0.13020000 -9.72490000
3.02640000 0.07860000 -9.63380000
4.93970000 -0.25340000 -9.68310000
4.66590000 -0.12380000 -9.72070000
5.06880000 0.03150000 -9.79640000
5.33980000 0.26000000 -9.85630000
4.69060000 0.30550000 -9.84790000
5.66130000 0.45850000 -9.89380000
5.81700000 0.78270000 -9.92140000
5.37830000 0.83870000 -9.93090000
5.05000000 0.52640000 -9.89710000
5.98550000 1.02270000 -9.92190000
5.30570000 1.14430000 -9.95500000
4.15480000 0.32380000 -9.81350000
4.72190000 0.69480000 -9.90580000
4.17380000 0.51360000 -9.84820000
4.43910000 0.78650000 -9.88710000
3.76960000 0.36830000 -9.78900000
3.54320000 0.29280000 -9.73900000
3.59940000 0.54400000 -9.77990000
3.90760000 0.72630000 -9.83340000
4.32230000 1.01640000 -9.88390000
4.05910000 1.06850000 -9.87680000
4.69320000 1.06760000 -9.92700000
5.43750000 1.30260000 -9.94790000
5.64540000 1.30390000 -9.93790000
5.00200000 1.23830000 -9.92870000
5.19940000 1.34800000 -9.92080000
4.78100000 1.20330000 -9.93350000
4.94950000 1.38220000 -9.88380000
5.10830000 1.46450000 -9.83870000
5.37650000 1.45960000 -9.89090000
5.12360000 1.54180000 -9.72930000
5.35720000 1.54370000 -9.78380000
5.33270000 1.51140000 -9.84070000
4.70250000 1.55470000 -9.27000000
5.06690000 1.56380000 -9.57190000
4.88180000 1.57340000 -9.67110000
4.39980000 1.26830000 -9.92810000
4.45420000 1.36970000 -9.91770000
4.72100000 1.35490000 -9.91110000
4.75000000 1.42380000 -9.88200000
4.39880000 1.50370000 -9.84880000
4.94060000 1.47020000 -9.82060000
4.76880000 1.50530000 -9.81600000
4.68160000 1.58320000 -9.41390000
4.76130000 1.59710000 -9.59110000
4.88580000 1.54530000 -9.73740000
4.55090000 1.53810000 -9.81220000
4.62450000 1.58440000 -9.73650000
4.46710000 1.61960000 -9.63830000
4.48450000 1.62030000 -9.51610000
4.45790000 1.54040000 -8.85610000
2.19650000 -0.68940000 -9.08290000
2.41740000 -0.59320000 -9.24670000
2.27720000 -0.48940000 -9.29010000
2.54590000 -0.40190000 -9.38620000
2.07870000 -0.31970000 -9.32770000
2.40010000 -0.13660000 -9.47470000
1.75240000 -0.22970000 -9.28830000
2.00480000 -0.08960000 -9.39350000
2.43550000 0.15880000 -9.55980000
2.61460000 0.01110000 -9.56330000
2.10900000 0.11870000 -9.46590000
2.98250000 0.34960000 -9.67850000
3.19160000 0.48050000 -9.70480000
2.71810000 0.27980000 -9.63100000
3.50190000 0.70290000 -9.76560000
2.15650000 0.31810000 -9.50980000
2.63390000 0.47140000 -9.64590000
2.45210000 0.61670000 -9.58220000
2.17870000 0.41670000 -9.51190000
2.69690000 0.74320000 -9.63510000
2.93250000 0.65680000 -9.68710000
2.98930000 0.82570000 -9.69430000
2.84300000 0.84170000 -9.66110000
2.79490000 0.97110000 -9.64250000
1.61850000 0.01570000 -9.31420000
1.81240000 0.17230000 -9.39220000
1.49310000 0.19210000 -9.28500000
1.68100000 0.37590000 -9.36220000
1.86310000 0.43950000 -9.40420000
2.12900000 0.52120000 -9.47480000
1.64210000 0.59380000 -9.33500000
1.90170000 0.68220000 -9.36100000
1.30450000 0.26900000 -9.24170000
1.17070000 0.35970000 -9.21420000
1.40440000 0.46530000 -9.28630000
0.97660000 0.29510000 -9.13970000
1.12870000 0.42040000 -9.18500000
1.43040000 0.58300000 -9.26270000
1.16680000 0.59350000 -9.11980000
1.81400000 0.79140000 -9.32170000
1.61590000 0.73190000 -9.28930000
1.48130000 0.79720000 -9.17780000
1.12810000 0.81880000 -9.01590000
1.29240000 0.99180000 -8.98380000
1.65630000 0.97550000 -9.13260000
2.30320000 0.67380000 -9.50980000
2.08360000 0.65520000 -9.41570000
2.13590000 0.79780000 -9.40000000
2.26610000 0.86520000 -9.45000000
2.09410000 0.93650000 -9.33540000
2.46410000 0.85360000 -9.55710000
2.41240000 0.95580000 -9.49580000
2.59480000 1.03300000 -9.54080000
2.26840000 1.08640000 -9.35420000
2.60230000 1.18070000 -9.45140000
2.40570000 1.30630000 -9.28780000
1.78260000 0.89230000 -9.26540000
1.88960000 1.01200000 -9.22340000
2.06150000 1.09860000 -9.26400000
1.88340000 1.18830000 -9.15470000
1.72170000 1.08290000 -9.09930000
1.42930000 1.07520000 -8.98370000
1.72290000 1.26800000 -9.04110000
1.89980000 1.39850000 -9.08420000
2.18840000 1.25610000 -9.26030000
2.40030000 1.44350000 -9.21870000
2.06580000 1.33850000 -9.20430000
2.18520000 1.42980000 -9.19450000
2.02880000 1.41490000 -9.15840000
1.82330000 1.48470000 -8.99770000
2.27920000 1.56410000 -9.11880000
2.34790000 1.65110000 -9.03090000
2.49530000 1.60180000 -9.11800000
2.08930000 1.63940000 -8.96200000
2.08390000 1.53800000 -9.08540000
1.98570000 1.49650000 -9.07440000
1.94410000 1.58130000 -8.96980000
1.59360000 1.71410000 -8.66330000
2.22880000 1.71100000 -8.80220000
1.95060000 1.69040000 -8.82060000
2.25950000 1.68480000 -8.93950000
2.08060000 1.63830000 -8.11190000
2.53110000 1.62730000 -8.33280000
2.16610000 1.69530000 -8.45180000
2.40550000 1.70430000 -8.66000000
2.88890000 1.63480000 -8.63130000
1.94860000 1.71780000 -8.55220000
1.73950000 1.68120000 -8.33680000
3.17880000 0.72390000 -9.71190000
3.36510000 0.88280000 -9.76860000
3.75650000 1.02320000 -9.85570000
3.91860000 1.20500000 -9.88620000
3.55460000 1.09420000 -9.82710000
3.74620000 1.21940000 -9.86290000
3.88700000 1.34390000 -9.86100000
3.43210000 1.21380000 -9.77650000
3.05320000 0.97000000 -9.72590000
3.19070000 1.06250000 -9.75250000
3.03690000 1.11760000 -9.68030000
3.31980000 1.35480000 -9.64690000
2.81030000 1.41720000 -9.40330000
3.77990000 1.40300000 -9.80320000
3.59300000 1.50610000 -9.65070000
3.16200000 1.55300000 -9.45090000
3.67610000 1.60770000 -9.56980000
3.35960000 1.62800000 -9.43840000
3.16220000 1.65520000 -9.29100000
3.72950000 1.64940000 -9.43550000
3.79620000 1.63830000 -9.52650000
3.74990000 1.61130000 -9.17250000
3.37390000 1.60460000 -8.90310000
3.06240000 1.58940000 -8.38760000
3.03440000 1.65530000 -8.93330000
3.72530000 1.64310000 -9.32520000
3.01880000 1.67060000 -9.13200000
4.19160000 1.37350000 -9.90330000
4.13670000 1.48570000 -9.83070000
4.24370000 1.58270000 -9.73430000
4.15870000 1.62050000 -9.64550000
3.87700000 1.53680000 -9.71670000
2.91680000 1.60160000 -9.30080000
2.66010000 1.55860000 -9.23090000
2.73230000 1.64430000 -9.13930000
2.70630000 1.68480000 -8.96030000
2.65540000 1.66880000 -9.04590000
6.41590000 1.14300000 -9.92070000
6.14110000 1.17180000 -9.91180000
6.23230000 1.33010000 -9.87170000
6.63870000 1.47320000 -9.80300000
6.38860000 1.43230000 -9.83190000
6.44760000 1.51160000 -9.70020000
6.26420000 1.47750000 -9.77640000
5.79230000 1.13940000 -9.94100000
5.96130000 1.28450000 -9.90500000
6.08570000 1.41810000 -9.83160000
5.73130000 1.40580000 -9.89800000
5.62480000 1.49140000 -9.85200000
5.96640000 1.48350000 -9.78090000
5.72700000 1.52480000 -9.77290000
5.70310000 1.54170000 -9.65160000
6.05770000 1.51510000 -9.70120000
5.53560000 1.41380000 -9.91770000
5.44620000 1.55550000 -9.73530000
0.91600000 0.57460000 -9.01610000
0.76380000 0.88650000 -8.83540000
0.58280000 0.86870000 -8.74880000
0.96240000 1.02690000 -8.85340000
1.10040000 1.16030000 -8.83180000
1.38560000 1.24980000 -8.93230000
1.14880000 1.34020000 -8.82830000
0.90260000 1.33320000 -8.71410000
0.40880000 1.03470000 -8.55570000
0.55470000 1.10290000 -8.63770000
0.69670000 1.17540000 -8.68610000
0.47210000 1.24550000 -8.54810000
0.30670000 1.28570000 -8.40700000
0.69140000 1.37140000 -8.60980000
0.45660000 1.37540000 -8.47920000
1.01270000 1.46720000 -8.72480000
1.21170000 1.53300000 -8.77260000
0.96730000 1.57430000 -8.63950000
0.74620000 1.53920000 -8.54040000
1.23450000 1.61340000 -8.72230000
0.42380000 1.44090000 -8.40390000
0.64300000 1.59030000 -8.42150000
0.58920000 1.62590000 -8.30050000
0.51600000 1.65010000 -8.10340000
0.75230000 1.69180000 -8.27250000
0.58150000 1.68290000 -7.94880000
0.91870000 1.64160000 -8.54720000
0.81950000 1.68160000 -8.40700000
0.98990000 1.69860000 -8.49040000
0.93910000 1.71250000 -8.35200000
0.99990000 1.70870000 -8.28010000
1.64100000 1.38930000 -8.97510000
1.65920000 1.55730000 -8.90140000
1.33350000 1.42930000 -8.87190000
1.70610000 1.62500000 -8.86350000
1.54390000 1.67620000 -8.75400000
1.25790000 1.67920000 -8.12190000
1.47150000 1.71720000 -8.52810000
1.16310000 1.71740000 -8.51140000
1.15730000 1.67990000 -8.61440000
0.25350000 1.35590000 -8.29690000
0.24080000 1.44290000 -8.16610000
0.39830000 1.49820000 -8.30890000
0.33430000 1.55880000 -8.09610000
4.92890000 1.42080000 -6.01260000
2.15170000 1.56070000 -6.29880000
3.67760000 1.51450000 -7.37700000
1.66760000 1.62750000 -7.61050000
4.85040000 1.34430000 1.57130000
0.63570000 1.68020000 -7.74440000
0.14590000 1.54830000 -7.82540000
0.19570000 1.61510000 -7.70290000
0.28460000 1.65730000 -7.66260000
0.28230000 1.68210000 -7.40770000
8.41640000 -0.41230000 3.98590000
8.43120000 -0.26720000 5.29460000
7.75170000 -0.46950000 3.71120000
7.75680000 -0.31180000 5.16580000
7.11510000 -0.25610000 6.42870000
6.97340000 -0.30590000 5.89810000
7.01990000 -0.19870000 7.12180000
7.40880000 -0.09230000 7.69220000
7.90800000 0.01470000 7.91610000
7.14560000 -0.00260000 8.50310000
8.63570000 -0.17270000 5.95360000
8.57530000 -0.06150000 6.69030000
8.74280000 0.00640000 6.70880000
8.28810000 -0.01830000 7.22910000
8.70170000 0.10900000 7.04800000
8.87780000 0.09290000 6.75420000
8.42140000 0.06260000 7.38580000
8.24090000 -0.09620000 6.87020000
8.14610000 0.05700000 7.81160000
8.23390000 0.12800000 7.97200000
8.48090000 0.14060000 7.53720000
8.32810000 0.20670000 8.04100000
8.63800000 0.21080000 7.37080000
8.48420000 0.25470000 7.81190000
8.38750000 0.29950000 8.19240000
8.47930000 0.37590000 8.11230000
8.55030000 0.32340000 7.78530000
8.55180000 0.44210000 7.94810000
8.70040000 0.30330000 7.38050000
8.61120000 0.43580000 7.73340000
8.70520000 0.42320000 7.47550000
8.65360000 0.52070000 7.63030000
8.61860000 0.61890000 7.84270000
1.78020000 -0.60740000 5.12130000
3.32960000 -0.54550000 4.24660000
2.51570000 -0.59940000 5.96540000
3.41220000 -0.60440000 6.38260000
2.25770000 -0.64000000 6.95950000
3.25050000 -0.61670000 7.89020000
3.69760000 -0.63450000 7.43890000
3.88280000 -0.61420000 7.61350000
3.01630000 -0.63770000 7.59210000
3.75460000 -0.57870000 7.92180000
3.16060000 -0.55170000 8.27850000
3.95790000 -0.44820000 8.37700000
3.83120000 -0.36500000 8.75150000
2.53230000 -0.58750000 8.23030000
2.04220000 -0.60080000 8.11350000
2.14090000 -0.63820000 7.84880000
1.98540000 -0.54800000 8.34970000
2.30480000 -0.51690000 8.48600000
2.78160000 -0.41660000 8.74370000
2.39580000 -0.36810000 8.83800000
1.88710000 -0.46280000 8.57220000
2.11820000 -0.64780000 7.56140000
3.19490000 -0.43130000 8.67880000
2.74470000 -0.52810000 8.44830000
5.43000000 -0.54020000 1.66870000
6.32720000 -0.58450000 4.13940000
6.66190000 -0.45130000 4.74760000
6.07290000 -0.55050000 4.91620000
7.66720000 -0.60270000 2.29510000
7.24750000 -0.50620000 3.62790000
6.15530000 -0.60050000 3.96930000
7.51510000 -0.61920000 1.88570000
6.78980000 -0.59420000 3.23310000
6.98250000 -0.50960000 3.83970000
5.26990000 -0.56920000 3.93570000
3.20070000 -0.52760000 3.08480000
4.21980000 -0.51280000 1.71510000
4.48870000 -0.53630000 3.43230000
4.10540000 -0.57180000 5.17230000
5.58600000 1.29210000 3.39430000
5.19420000 1.30760000 3.70580000
5.82250000 1.27890000 3.79980000
4.05040000 1.34910000 3.95350000
4.59620000 1.32360000 3.89260000
4.41870000 1.34700000 3.47090000
3.15220000 1.40900000 2.72460000
5.83620000 1.30750000 2.81520000
4.83420000 1.31710000 4.07150000
5.07080000 -0.60070000 5.44170000
5.17960000 -0.59650000 5.82670000
5.97040000 -0.36370000 6.35280000
5.41150000 -0.46400000 6.49790000
5.95380000 -0.45000000 5.79600000
4.88140000 -0.56280000 6.67450000
4.82960000 -0.44780000 7.55370000
5.50120000 -0.33660000 7.35790000
4.88490000 -0.29540000 8.43430000
5.53160000 -0.22070000 8.30190000
4.33250000 -0.47950000 7.96680000
