-2.83960000 -0.92990000 -0.43170000
-2.82380000 -0.94790000 -0.29560000
-2.82800000 -0.95260000 -0.15530000
-2.65210000 -0.90010000 -0.63640000
-2.84190000 -0.92480000 -0.54340000
-2.51240000 -0.89500000 -0.92740000
-2.78340000 -0.91130000 -0.77850000
-2.86480000 -0.88320000 -0.65510000
-2.86990000 -0.88620000 -0.46860000
-2.81640000 -0.90490000 -1.06080000
-2.81860000 -0.90810000 -0.93940000
-2.84150000 -0.91100000 -0.83360000
-2.84090000 -0.90970000 -0.71630000
-2.63500000 -0.88060000 -1.54960000
-2.81680000 -0.90770000 -1.17920000
-2.86430000 -0.87500000 -0.97350000
-2.46020000 -0.87310000 -1.40790000
-2.78770000 -0.89690000 -1.44220000
-2.86540000 -0.87610000 -1.12320000
-2.85030000 -0.88840000 -1.33700000
-2.82420000 -0.90900000 -1.57740000
-2.84500000 -0.91440000 -1.65390000
-2.43370000 -0.86880000 -1.90820000
-2.83720000 -0.89920000 -2.07730000
-2.84290000 -0.90370000 -1.77200000
-2.24730000 -0.87300000 -2.24210000
-2.86640000 -0.90100000 -2.23450000
-2.90060000 -0.85840000 -2.15310000
-2.86520000 -0.89390000 -2.01640000
-2.04340000 -0.87290000 -2.66980000
-2.51810000 -0.89520000 -2.59520000
-1.79850000 -0.85390000 -3.15730000
-0.79460000 -0.85170000 -3.46680000
-2.50210000 -0.88250000 -3.28470000
-1.38390000 -0.83270000 -3.86030000
-0.48710000 -0.83420000 -3.97230000
0.21650000 -0.85160000 -4.49680000
-1.33570000 -0.84040000 -4.45790000
0.97380000 -0.85050000 -4.32970000
1.19240000 -0.84830000 -4.87610000
0.57730000 -0.85200000 -4.79680000
1.94170000 -0.85450000 -4.65090000
1.43230000 -0.85060000 -4.86890000
1.81680000 -0.84290000 -3.97090000
3.17770000 -0.84160000 -4.28830000
2.41830000 -0.84070000 -4.73060000
2.19220000 -0.84570000 -4.89270000
3.02930000 -0.81740000 -3.78980000
-2.86230000 -0.83100000 -0.73910000
-2.86680000 -0.87580000 -0.79150000
-2.78650000 -0.69680000 -0.33770000
-2.80770000 -0.69490000 -0.87710000
-2.86810000 -0.85320000 -0.24010000
-2.86400000 -0.82280000 -0.99250000
-2.87470000 -0.83290000 -1.33630000
-2.86060000 -0.78460000 -1.47110000
-2.87180000 -0.86990000 -1.22530000
-2.87950000 -0.84410000 -1.46220000
-2.85130000 -0.89150000 -1.45420000
-2.89150000 -0.86550000 -1.53630000
-2.88950000 -0.82110000 -1.57320000
-2.88890000 -0.80520000 -1.93830000
-2.87850000 -0.90110000 -1.57810000
-2.90100000 -0.86250000 -1.66350000
-2.88430000 -0.87670000 -1.79200000
-2.88130000 -0.90410000 -1.69170000
-2.89500000 -0.85930000 -1.97060000
-2.89400000 -0.79330000 -2.18410000
-2.90310000 -0.87180000 -2.24410000
-2.90350000 -0.81950000 -2.29820000
-2.88780000 -0.89570000 -2.37150000
-2.83880000 -0.92180000 -2.43740000
-2.89920000 -0.87840000 -2.46970000
-2.83320000 -0.92890000 -2.57000000
-2.88020000 -0.91350000 -2.51240000
-2.89820000 -0.87000000 -2.60820000
-2.80910000 -0.90380000 -2.96440000
-2.81210000 -0.92660000 -2.79050000
-2.86620000 -0.91360000 -3.32070000
-2.84290000 -0.90330000 -3.12930000
-2.86190000 -0.91130000 -2.85660000
-2.81120000 -0.91090000 -3.43510000
-2.32880000 -0.86760000 -4.13450000
-1.91700000 -0.84360000 -4.04440000
-2.82730000 -0.90490000 -3.66430000
-2.85510000 -0.90020000 -4.07630000
-2.08070000 -0.86560000 -4.83140000
-2.44920000 -0.87350000 -4.85820000
-2.82560000 -0.88870000 -4.69410000
-2.84810000 -0.89640000 -4.44350000
-1.67830000 -0.86520000 -4.81980000
-1.84560000 -0.86050000 -4.85050000
-1.30990000 -0.85870000 -4.79360000
-1.72830000 -0.85280000 -4.87340000
-0.65460000 -0.85590000 -4.83210000
-1.03520000 -0.85210000 -4.83620000
-1.27580000 -0.84660000 -4.83060000
-0.89810000 -0.83510000 -4.86690000
-0.65960000 -0.83180000 -4.87710000
-0.95750000 -0.79530000 -4.87400000
0.05570000 -0.86150000 -4.85700000
-0.26860000 -0.86080000 -4.85470000
-0.45850000 -0.84580000 -4.87810000
-0.15350000 -0.83910000 -4.89560000
0.03390000 -0.84980000 -4.89500000
0.20170000 -0.85320000 -4.89430000
0.02780000 -0.80680000 -4.92330000
0.45790000 -0.85280000 -4.84160000
0.36910000 -0.83990000 -4.88610000
0.27140000 -0.80430000 -4.91600000
0.14530000 -0.78790000 -4.92610000
0.13470000 -0.82570000 -4.91950000
0.58150000 -0.83060000 -4.88520000
0.59480000 -0.79260000 -4.90870000
0.49340000 -0.72920000 -4.89470000
0.85550000 -0.84420000 -4.87560000
0.70450000 -0.83930000 -4.88140000
0.83250000 -0.79630000 -4.91270000
1.18930000 -0.82170000 -4.91830000
0.93050000 -0.83200000 -4.90480000
1.03870000 -0.77620000 -4.92570000
1.40950000 -0.84070000 -4.90060000
1.68070000 -0.74690000 -4.94250000
1.41540000 -0.70960000 -4.91650000
1.53180000 -0.81660000 -4.92840000
1.71160000 -0.83720000 -4.91350000
1.85710000 -0.79390000 -4.95170000
2.02500000 -0.82990000 -4.93370000
2.36760000 -0.73080000 -4.94500000
1.75030000 -0.59500000 -4.85050000
1.26140000 -0.63580000 -4.84480000
2.31710000 -0.78330000 -4.95290000
-0.22410000 -0.80300000 -4.91060000
0.04820000 -0.72090000 -4.90120000
-0.36580000 -0.75490000 -4.90230000
0.48980000 -0.66640000 -4.84460000
0.02800000 -0.62550000 -4.81960000
-0.88890000 -0.75680000 -4.86780000
0.57510000 -0.58810000 -4.80140000
0.08630000 -0.57110000 -4.80160000
0.79250000 -0.62240000 -4.83620000
1.16840000 -0.56830000 -4.81640000
0.45340000 -0.35540000 -4.77480000
1.60250000 -0.39570000 -4.81240000
1.21740000 -0.33380000 -4.80520000
0.96950000 -0.28040000 -4.79410000
0.75540000 -0.38500000 -4.80090000
2.17050000 -0.58860000 -4.84450000
1.68350000 -0.22110000 -4.82950000
1.45640000 -0.16020000 -4.83270000
2.21480000 -0.40670000 -4.81930000
2.16820000 -0.24430000 -4.81580000
2.82300000 -0.58420000 -4.85310000
2.82660000 -0.44210000 -4.83300000
2.24340000 -0.08980000 -4.85100000
2.76640000 -0.65170000 -4.88870000
2.33250000 -0.82840000 -4.92910000
2.74040000 -0.84350000 -4.90610000
2.99530000 -0.83760000 -4.78930000
3.55200000 -0.83750000 -4.65910000
3.19930000 -0.84400000 -4.92490000
3.13180000 -0.84670000 -4.90240000
2.94170000 -0.83490000 -4.91180000
3.63520000 -0.85840000 -4.90120000
3.97710000 -0.83750000 -4.66580000
3.41140000 -0.85070000 -4.90060000
4.34150000 -0.83040000 -4.42420000
3.94800000 -0.86260000 -4.88060000
4.50800000 -0.88190000 -4.91290000
4.92920000 -0.86210000 -4.72620000
6.05940000 -0.83520000 -3.60470000
6.40880000 -0.83720000 -3.15830000
6.87660000 -0.87990000 -3.36070000
6.46100000 -0.82840000 -3.55940000
6.27820000 -0.82930000 -3.94340000
7.01460000 -0.91050000 -2.86630000
7.08160000 -0.92710000 -2.60040000
7.10120000 -0.91740000 -2.75560000
7.10570000 -0.90310000 -2.91720000
7.11520000 -0.92250000 -2.61020000
7.14020000 -0.89520000 -2.67640000
7.13110000 -0.89190000 -2.80430000
7.12290000 -0.91830000 -2.50640000
7.14560000 -0.89360000 -2.55950000
7.15230000 -0.86400000 -2.62380000
7.15310000 -0.87740000 -2.47420000
7.15500000 -0.82140000 -2.53640000
7.06240000 -0.91200000 -3.02620000
7.12690000 -0.87840000 -2.97070000
7.04750000 -0.91170000 -3.17180000
7.10800000 -0.89590000 -3.03680000
7.12700000 -0.86560000 -3.10490000
7.09170000 -0.90480000 -3.14350000
7.03820000 -0.91360000 -3.27120000
7.12400000 -0.86240000 -3.22940000
7.09690000 -0.90570000 -3.26520000
7.09590000 -0.91770000 -3.36460000
7.14280000 -0.89150000 -3.46540000
7.10130000 -0.92230000 -3.47240000
7.02720000 -0.92400000 -3.51790000
7.12730000 -0.92740000 -3.57490000
7.13040000 -0.93820000 -3.72740000
6.62470000 -0.85920000 -3.97460000
7.16160000 -0.90970000 -3.66520000
7.07380000 -0.94040000 -3.94710000
7.16250000 -0.91000000 -3.87460000
7.13740000 -0.92800000 -4.10700000
7.17010000 -0.85520000 -4.05420000
7.08200000 -0.94050000 -4.37750000
7.16590000 -0.89450000 -4.18370000
7.13590000 -0.74920000 -4.16720000
7.14540000 -0.92420000 -4.30260000
7.08880000 -0.67770000 -4.37210000
7.17640000 -0.84910000 -4.27740000
7.16290000 -0.78240000 -4.42310000
7.17530000 -0.88280000 -4.39050000
7.09000000 -0.64280000 -4.73010000
7.16170000 -0.77670000 -4.69010000
7.13700000 -0.93570000 -4.40600000
7.12510000 -0.75520000 -4.83430000
7.18110000 -0.83700000 -4.48390000
7.15770000 -0.91890000 -4.44850000
7.09690000 -0.50970000 -4.90280000
7.10080000 -0.64420000 -4.84890000
7.17490000 -0.87080000 -4.83100000
7.05630000 -0.58000000 -4.94240000
7.08430000 -0.62400000 -4.90120000
7.10720000 -0.33420000 -4.94800000
7.09380000 -0.42910000 -4.95880000
7.13980000 -0.18290000 -5.01380000
7.05720000 -0.38320000 -4.98110000
6.98870000 -0.63240000 -4.94020000
7.11610000 -0.18180000 -5.02670000
6.92130000 -0.36580000 -4.92500000
7.19060000 -0.09200000 -5.02530000
7.16300000 -0.08360000 -5.07980000
7.11010000 -0.04710000 -5.07170000
6.94790000 -0.18120000 -4.96670000
6.97080000 -0.06000000 -5.02100000
7.31940000 0.09740000 -5.13710000
7.26960000 -0.00170000 -5.10320000
7.25200000 -0.03070000 -5.12690000
7.21860000 0.00950000 -5.15810000
7.40740000 0.21740000 -5.23260000
7.31280000 0.10390000 -5.19900000
7.49140000 0.26400000 -5.27170000
7.38620000 0.22870000 -5.30150000
7.48230000 0.25060000 -5.08110000
7.54960000 0.28980000 -5.08660000
7.57600000 0.30560000 -5.25060000
7.21250000 0.21070000 -5.26890000
7.58720000 0.30400000 -5.33820000
7.44830000 0.26540000 -5.35770000
7.69240000 0.31400000 -5.28920000
7.76270000 0.29930000 -5.41320000
7.82600000 0.26390000 -5.41670000
7.82530000 0.27390000 -5.14210000
7.85790000 0.24700000 -5.28050000
7.87710000 0.22810000 -5.15570000
7.88130000 0.20600000 -5.28750000
7.88660000 0.19180000 -5.07610000
7.89720000 0.22200000 -4.90110000
7.87420000 0.07840000 -5.17250000
7.89250000 0.10020000 -5.23570000
7.89360000 0.12050000 -5.28090000
7.92430000 0.16170000 -4.64830000
7.90820000 0.22490000 -4.56880000
7.91850000 0.10220000 -4.32650000
7.87150000 0.04020000 -5.30560000
7.83640000 0.01500000 -5.42540000
7.84460000 0.22330000 -5.44720000
7.82290000 0.11550000 -5.56850000
7.84820000 0.22410000 -5.56900000
7.82000000 0.27720000 -5.56390000
7.81880000 0.18300000 -5.60140000
7.78450000 0.23030000 -5.59670000
7.74550000 0.28480000 -5.59850000
7.54670000 0.26460000 -5.58810000
7.62710000 0.30070000 -5.57160000
7.69890000 0.30610000 -5.54260000
7.16380000 0.32470000 -5.58750000
7.29740000 0.32310000 -5.54850000
6.83810000 0.31800000 -5.57920000
6.81120000 0.33750000 -5.53080000
7.14450000 0.32440000 -5.44830000
5.87670000 0.28400000 -5.59800000
6.08650000 0.35550000 -5.58490000
6.53480000 0.28600000 -5.58700000
6.26620000 0.34490000 -5.57190000
6.60730000 0.33770000 -5.56670000
6.43790000 0.33140000 -5.57080000
5.93200000 0.35140000 -5.58230000
5.76400000 0.35530000 -5.57020000
5.52890000 0.29050000 -5.59050000
5.97520000 0.36050000 -5.52220000
5.11980000 0.34500000 -5.56160000
5.43270000 0.35780000 -5.55600000
5.59360000 0.35330000 -5.57590000
5.31420000 0.37320000 -5.53490000
4.79200000 0.11230000 -5.62140000
4.95360000 0.36500000 -5.55290000
4.66850000 0.36980000 -5.57780000
4.76860000 0.38220000 -5.58110000
4.18570000 0.34790000 -5.56960000
3.78440000 0.37820000 -5.56840000
4.09270000 0.39040000 -5.54500000
4.22950000 0.40450000 -5.54080000
3.85370000 0.40220000 -5.55320000
7.49120000 0.31110000 -5.42050000
7.11640000 0.28920000 -5.39540000
7.27720000 0.13810000 -5.22810000
7.06590000 0.25870000 -5.32970000
7.16170000 0.10540000 -5.17640000
6.70460000 0.29340000 -5.37910000
6.55420000 0.34440000 -5.53390000
6.33060000 0.34300000 -5.44430000
6.37940000 0.35220000 -5.55930000
5.51400000 0.36580000 -5.44750000
5.97100000 0.32620000 -5.39260000
5.60080000 0.37140000 -5.53540000
5.59720000 0.33820000 -5.39760000
5.60250000 0.30920000 -5.36160000
5.07150000 0.36160000 -5.40600000
5.33990000 0.33850000 -5.38850000
5.40700000 0.30430000 -5.36640000
6.46990000 0.32350000 -5.40530000
6.30170000 0.28930000 -5.36160000
6.53550000 0.25030000 -5.27810000
6.03890000 0.29800000 -5.36720000
6.26620000 0.20790000 -5.20260000
6.69070000 0.12980000 -5.12220000
6.04310000 0.23940000 -5.25260000
5.08090000 0.27540000 -5.25480000
6.10910000 0.14950000 -5.13300000
6.33080000 0.06100000 -5.04450000
5.38170000 0.18040000 -5.12830000
5.33940000 0.30650000 -5.34170000
4.89190000 0.31620000 -5.34310000
4.66310000 0.31430000 -5.33430000
4.76960000 0.37330000 -5.41690000
5.07240000 0.37410000 -5.46180000
4.82760000 0.38280000 -5.53480000
4.67340000 0.40180000 -5.52880000
4.49380000 0.40470000 -5.54550000
4.62460000 0.40120000 -5.45520000
4.52110000 0.25150000 -5.59320000
4.36790000 0.42150000 -5.49840000
4.60130000 0.37080000 -5.38950000
4.37120000 0.35840000 -5.56670000
4.31220000 0.41810000 -5.56230000
4.28850000 0.37850000 -5.40850000
4.35270000 0.32380000 -5.35930000
4.24490000 0.40030000 -5.48510000
4.05410000 0.39330000 -5.44170000
4.05340000 0.37140000 -5.39020000
3.84230000 0.41230000 -5.49110000
4.14590000 0.31820000 -5.34070000
3.86030000 0.32100000 -5.34510000
3.59720000 0.41040000 -5.53820000
3.79630000 0.38500000 -5.40580000
3.49430000 0.39740000 -5.56790000
3.32750000 0.40530000 -5.45650000
3.78930000 0.30490000 -5.27650000
3.85200000 0.36740000 -5.38240000
3.68400000 0.32650000 -5.34180000
3.46400000 0.29120000 -5.21940000
6.67920000 0.01640000 -5.02670000
6.66870000 -0.06420000 -4.97730000
6.57830000 -0.17730000 -4.93260000
6.11710000 -0.35940000 -4.88720000
6.62550000 -0.38300000 -4.90150000
6.00790000 0.03500000 -5.02690000
4.87420000 -0.04730000 -4.92430000
5.81200000 -0.17030000 -4.92420000
4.11060000 0.04010000 -4.93860000
4.64130000 -0.13190000 -4.88360000
4.99290000 -0.31890000 -4.86390000
5.73860000 -0.29330000 -4.89950000
3.85980000 0.21950000 -5.10560000
3.67420000 -0.07670000 -4.87010000
3.06500000 0.24460000 -5.07990000
3.12040000 0.16140000 -4.99430000
3.27150000 0.02600000 -4.90990000
2.88780000 0.30460000 -5.21460000
2.89780000 0.27500000 -5.12960000
3.19070000 0.30350000 -5.26030000
2.95650000 0.30670000 -5.29890000
2.24990000 0.29370000 -5.17870000
3.28140000 0.30680000 -5.33140000
3.15530000 0.31080000 -5.31590000
3.54390000 0.31440000 -5.31840000
3.35980000 0.31970000 -5.34300000
3.40870000 0.35470000 -5.36080000
3.42690000 0.39220000 -5.39500000
3.28040000 0.37710000 -5.38880000
3.21440000 0.33800000 -5.35490000
3.29360000 0.39160000 -5.53410000
3.17160000 0.40570000 -5.50280000
3.09630000 0.38930000 -5.55730000
3.06970000 0.40580000 -5.43640000
3.28830000 0.35560000 -5.55990000
3.00330000 0.40810000 -5.50420000
2.92690000 0.34940000 -5.57180000
2.90330000 0.39620000 -5.50450000
2.78990000 0.39130000 -5.41600000
2.85350000 0.38530000 -5.56520000
2.72400000 0.39470000 -5.51550000
2.43490000 0.37080000 -5.56360000
2.35620000 0.39110000 -5.44300000
2.59470000 0.38300000 -5.56790000
2.69460000 0.37680000 -5.55530000
2.14030000 0.39420000 -5.53360000
2.09720000 0.37400000 -5.57330000
2.10690000 0.38610000 -5.37190000
2.28020000 0.36990000 -5.35860000
1.76190000 0.40190000 -5.46750000
1.70040000 0.37320000 -5.58680000
1.55550000 0.40550000 -5.52810000
1.62620000 0.39960000 -5.39050000
1.58480000 0.38190000 -5.57530000
1.53020000 0.34600000 -5.57900000
1.44680000 0.39070000 -5.35690000
1.28440000 0.39380000 -5.53120000
1.48690000 0.36840000 -5.57980000
0.89710000 0.35560000 -5.58630000
2.55430000 0.37740000 -5.37010000
2.75580000 0.37840000 -5.37930000
2.73400000 0.33900000 -5.34800000
2.88400000 0.32340000 -5.33220000
2.76670000 0.30590000 -5.31400000
2.47250000 0.32690000 -5.33160000
2.43070000 0.30500000 -5.28800000
2.66670000 0.30340000 -5.28230000
2.22860000 0.30840000 -5.24610000
2.30480000 0.31520000 -5.31470000
5.99600000 -0.84440000 -4.11110000
6.86570000 -0.91500000 -4.20830000
6.48170000 -0.86230000 -4.37140000
6.04570000 -0.87000000 -4.62310000
6.52140000 -0.90320000 -4.77200000
7.14440000 -0.93460000 -4.58770000
7.08670000 -0.94380000 -4.62490000
6.67340000 -0.92400000 -4.95940000
7.17600000 -0.89870000 -4.52970000
7.17860000 -0.90060000 -4.64550000
7.18460000 -0.85580000 -4.68320000
7.16180000 -0.92510000 -4.79090000
7.12950000 -0.94580000 -4.81900000
6.99650000 -0.94440000 -4.96690000
7.14710000 -0.93520000 -4.89710000
7.09270000 -0.95200000 -4.93600000
7.15790000 -0.88320000 -4.92650000
7.11720000 -0.94030000 -4.98240000
7.10610000 -0.77490000 -4.90730000
7.12640000 -0.84010000 -4.96050000
7.11060000 -0.87670000 -5.00140000
7.04950000 -0.92210000 -5.01000000
7.07520000 -0.72120000 -4.92220000
7.06320000 -0.82410000 -4.99840000
6.88120000 -0.91870000 -5.00960000
7.03060000 -0.71260000 -4.94320000
6.86210000 -0.86630000 -5.03590000
6.88770000 -0.66450000 -4.93500000
6.89630000 -0.72490000 -4.96140000
6.79920000 -0.79190000 -5.02130000
6.47340000 -0.75050000 -5.00710000
6.43250000 -0.82260000 -5.03170000
6.49020000 -0.62220000 -4.92610000
6.24970000 -0.50440000 -4.89440000
6.25150000 -0.62760000 -4.92560000
6.13050000 -0.63670000 -4.91160000
5.67270000 -0.51300000 -4.90320000
5.82180000 -0.63290000 -4.93440000
6.24350000 -0.76010000 -4.99700000
5.32930000 -0.41940000 -4.88370000
5.42490000 -0.60550000 -4.92310000
5.42520000 -0.70960000 -4.99610000
4.74700000 -0.41230000 -4.86680000
5.05400000 -0.54980000 -4.91230000
4.60050000 -0.59420000 -4.89700000
4.50210000 -0.64250000 -4.91620000
5.03610000 -0.72450000 -5.01200000
4.52750000 -0.23110000 -4.86280000
3.63810000 -0.24450000 -4.83150000
3.40220000 -0.40920000 -4.81740000
4.00300000 -0.59770000 -4.85750000
3.08250000 -0.27360000 -4.82840000
3.51730000 -0.61280000 -4.84770000
4.32870000 -0.73110000 -4.97120000
4.57170000 -0.76790000 -4.99950000
3.64180000 -0.73520000 -4.93480000
3.92250000 -0.80580000 -4.96610000
3.21300000 -0.71550000 -4.93830000
3.22430000 -0.76250000 -4.95510000
3.58990000 -0.81130000 -4.95140000
3.16230000 -0.81900000 -4.95490000
3.32410000 -0.82900000 -4.94010000
2.86030000 -0.77890000 -4.95400000
3.04390000 -0.81870000 -4.94250000
2.84750000 -0.06310000 -4.86830000
2.46570000 0.14070000 -4.95700000
2.12510000 0.08520000 -4.94370000
1.79970000 -0.05880000 -4.87810000
1.74850000 0.09670000 -4.96210000
1.31460000 0.03200000 -4.90160000
2.46070000 0.23640000 -5.05460000
2.09200000 0.21520000 -5.05680000
1.63560000 0.31850000 -5.23680000
1.47640000 0.24130000 -5.08400000
1.90470000 0.31450000 -5.27210000
2.14030000 0.32600000 -5.31910000
1.92760000 0.33170000 -5.31310000
3.01950000 0.33620000 -5.34240000
2.97930000 0.38240000 -5.37450000
3.13030000 0.37410000 -5.37020000
2.06190000 0.36790000 -5.34390000
1.74780000 0.37890000 -5.34660000
1.71500000 0.33450000 -5.30840000
1.59590000 0.36920000 -5.32880000
1.53230000 0.34910000 -5.31230000
1.21040000 0.32170000 -5.22860000
1.30870000 0.34920000 -5.30550000
1.21800000 0.40120000 -5.38890000
1.04890000 0.32930000 -5.27030000
1.11070000 0.37990000 -5.32010000
0.90300000 0.31610000 -5.23520000
0.70120000 0.40210000 -5.48450000
0.93760000 0.38960000 -5.33640000
0.52650000 0.38580000 -5.53760000
0.71980000 0.38990000 -5.35130000
0.48030000 0.34200000 -5.57680000
0.22550000 0.33600000 -5.57550000
-2.73280000 -0.96550000 5.05420000
-2.65360000 -0.85050000 4.99430000
-2.73150000 -0.88090000 4.96810000
-2.73840000 -0.99360000 2.75030000
-2.77470000 -1.00410000 2.94220000
-2.78250000 -1.00470000 3.06170000
-2.76510000 -1.00240000 3.27460000
-2.77940000 -0.99830000 2.60050000
-2.82430000 -0.99860000 2.98970000
-2.75260000 -0.99750000 2.36750000
-2.82660000 -0.98100000 2.68480000
-2.74750000 -0.99210000 2.09340000
-2.79440000 -0.99490000 2.30880000
-2.51570000 -0.96460000 1.75110000
-2.78330000 -0.99120000 2.13940000
-2.78090000 -0.99340000 1.80890000
-2.81760000 -0.96250000 2.16410000
-2.81600000 -0.97540000 1.89210000
-2.82440000 -0.96900000 2.05780000
-2.14270000 -0.94470000 1.35820000
-2.77840000 -0.99560000 1.53700000
-2.68780000 -0.98290000 1.23420000
-2.82020000 -0.99050000 1.50890000
-2.82350000 -0.97790000 1.66850000
-2.73780000 -0.99180000 1.01160000
-2.81570000 -0.98690000 1.26490000
-2.83230000 -0.99020000 1.35740000
-2.76450000 -0.97990000 0.62910000
-2.81220000 -0.99250000 0.87580000
-2.83180000 -0.98730000 1.06230000
-2.82850000 -0.97730000 0.70540000
-2.85760000 -0.97490000 0.86740000
-2.84400000 -0.94990000 0.51310000
-2.85780000 -0.94630000 0.68470000
-2.87370000 -0.92650000 0.82110000
-2.86530000 -0.89020000 0.50170000
-2.81940000 -0.94780000 0.34430000
-2.86020000 -0.91820000 0.38300000
-2.85870000 -0.85690000 0.81980000
-2.86500000 -0.84940000 0.32260000
-2.86760000 -0.91200000 0.24880000
-2.84440000 -0.95230000 0.21790000
-2.87220000 -0.91430000 0.13340000
-2.86950000 -0.90720000 -0.00200000
-2.84590000 -0.79510000 0.23480000
-2.77070000 -0.67250000 0.21090000
-2.84570000 -0.95420000 0.10180000
-2.86510000 -0.91770000 -0.14400000
-2.86190000 -0.92460000 -0.32420000
-2.79110000 -0.98870000 4.86640000
-2.78140000 -1.01650000 4.66300000
-2.80420000 -0.94270000 4.76520000
-2.78540000 -0.93330000 4.89560000
-2.78260000 -1.01440000 4.48920000
-2.80740000 -0.98360000 4.55400000
-2.81540000 -0.92780000 4.41520000
-2.78670000 -0.85850000 4.40190000
-2.79530000 -0.98520000 4.30490000
-2.80480000 -0.91980000 4.29450000
-2.73460000 -0.79290000 4.14090000
-2.71850000 -0.73220000 4.46900000
-2.70870000 -0.59670000 4.43440000
-2.79220000 -0.89010000 4.16650000
-2.76430000 -1.00900000 4.09890000
-2.80390000 -0.97210000 4.10840000
-2.80500000 -0.93140000 4.13970000
-2.80480000 -0.97220000 4.00430000
-2.75360000 -1.00520000 3.90090000
-2.80780000 -0.88680000 3.80180000
-2.74320000 -0.77730000 3.98610000
-2.79120000 -0.99820000 3.80570000
-2.80000000 -0.98190000 3.88990000
-2.82040000 -0.94720000 3.81290000
-2.79170000 -0.99940000 3.68820000
-2.75360000 -1.00640000 3.60550000
-2.83160000 -0.94370000 3.62170000
-2.82050000 -0.98250000 3.60400000
-2.83690000 -0.89950000 3.43750000
-2.80600000 -1.00010000 3.48180000
-2.84120000 -0.96640000 3.43340000
-2.82230000 -0.99090000 3.24750000
-2.85140000 -0.94080000 3.25670000
-2.85130000 -0.92630000 3.07490000
-2.85300000 -0.90210000 2.93000000
-2.76670000 -0.75900000 2.99980000
-2.78940000 -0.82300000 3.42280000
-2.83710000 -0.98170000 3.10650000
-2.85050000 -0.96570000 2.93690000
-2.84820000 -0.93960000 2.78600000
-2.82590000 -0.85330000 2.76640000
-2.81670000 -1.00320000 2.85390000
-2.83520000 -0.98080000 2.80410000
-2.83800000 -0.91150000 2.59240000
-2.77270000 -0.73740000 2.69580000
-2.83540000 -0.91290000 2.44540000
-2.82420000 -0.98120000 2.56510000
-2.82430000 -0.97940000 2.44100000
-2.82910000 -0.91020000 2.28970000
-2.74100000 -0.70540000 2.38710000
-2.82690000 -0.95130000 2.25950000
-2.81760000 -0.88330000 2.10460000
-2.74310000 -0.72140000 1.88130000
-2.82900000 -0.92380000 2.07910000
-2.83410000 -0.92500000 1.91250000
-2.84160000 -0.87540000 1.58210000
-2.76200000 -0.72230000 1.49730000
-2.84290000 -0.93780000 1.68830000
-2.75870000 -0.94100000 5.00050000
-2.77840000 -0.98900000 4.98780000
-2.72650000 -0.69820000 4.17470000
-2.72080000 -0.72440000 4.05190000
-2.74760000 -0.78400000 3.73680000
-2.74760000 -0.69040000 3.10510000
-2.77480000 -0.44660000 -0.50820000
-2.82220000 -0.34730000 -1.34330000
-2.78490000 -0.30940000 -0.25280000
-2.76760000 -0.69110000 0.64220000
-2.76790000 -0.58800000 -0.21390000
-2.73290000 -0.60020000 1.13630000
-2.76100000 -0.71610000 1.06580000
-2.74920000 -0.61170000 0.92030000
-2.74680000 -0.60140000 1.43850000
-2.77520000 -0.73470000 1.24790000
-2.81460000 -0.80340000 1.33610000
-2.86040000 -0.88420000 1.20990000
-2.87140000 -0.92500000 0.99810000
-2.86100000 -0.93910000 1.45010000
-2.85250000 -0.95620000 1.52230000
-2.84890000 -0.95870000 1.28710000
-2.86290000 -0.96260000 0.96060000
-2.86170000 -0.94960000 1.11240000
-2.79750000 -0.61510000 -1.23770000
-2.81020000 -0.48390000 -1.52500000
-2.87150000 -0.77320000 -2.93860000
-2.89600000 -0.87290000 -2.78210000
-2.88510000 -0.81690000 -3.02410000
-2.87190000 -0.92120000 -2.72170000
-2.87940000 -0.86530000 -2.97810000
-2.88510000 -0.91390000 -2.63190000
-2.87210000 -0.88290000 -3.05960000
-2.90020000 -0.82300000 -3.19180000
-2.91600000 -0.80430000 -3.41350000
-2.89380000 -0.87970000 -3.18780000
-2.91760000 -0.83990000 -3.27580000
-2.89170000 -0.90070000 -3.26190000
-2.92550000 -0.86050000 -3.35140000
-2.90720000 -0.89160000 -3.40270000
-2.87530000 -0.91150000 -3.47790000
-2.92430000 -0.86030000 -3.47190000
-2.90590000 -0.81020000 -3.70070000
-2.90250000 -0.88890000 -3.58860000
-2.88360000 -0.89060000 -3.76430000
-2.90730000 -0.84270000 -3.76840000
-2.91060000 -0.79340000 -3.91790000
-2.89250000 -0.89420000 -3.95290000
-2.90750000 -0.86410000 -3.86290000
-2.92670000 -0.85030000 -3.97450000
-2.93220000 -0.82110000 -4.09860000
-2.92980000 -0.86890000 -4.05430000
-2.89040000 -0.89230000 -4.15490000
-2.92350000 -0.85730000 -4.25950000
-2.92030000 -0.79230000 -4.31130000
-2.88460000 -0.89060000 -4.33780000
-2.92480000 -0.85060000 -4.39430000
-2.92170000 -0.81190000 -4.53880000
-2.86470000 -0.65880000 -4.45000000
-2.91520000 -0.87430000 -4.52250000
-2.92300000 -0.83350000 -4.61180000
-2.90940000 -0.78830000 -4.73820000
-2.89500000 -0.88970000 -4.60790000
-2.89590000 -0.85290000 -4.71970000
-2.90070000 -0.67640000 -4.77380000
-2.85840000 -0.54540000 -4.51730000
-2.90730000 -0.84310000 -4.83060000
-2.90380000 -0.76630000 -4.81790000
-2.82910000 -0.88880000 -4.86400000
-2.87660000 -0.88020000 -4.85590000
-2.75370000 -0.88950000 -4.85250000
-2.85430000 -0.86580000 -4.89860000
-2.88260000 -0.81500000 -4.89080000
-2.87890000 -0.70250000 -4.83590000
-2.72800000 -0.87790000 -4.89460000
-2.73020000 -0.85410000 -4.91820000
-2.81750000 -0.80370000 -4.91220000
-2.45800000 -0.85110000 -4.89930000
-2.28120000 -0.83260000 -4.89880000
-2.30920000 -0.79280000 -4.91210000
-2.11360000 -0.85060000 -4.87410000
-2.07500000 -0.80620000 -4.89960000
-1.91650000 -0.85200000 -4.88120000
-1.91810000 -0.78730000 -4.90550000
-2.22640000 -0.73190000 -4.89100000
-1.77510000 -0.73690000 -4.88840000
-1.78920000 -0.82960000 -4.89720000
-1.74500000 -0.78610000 -4.89980000
-1.51700000 -0.74280000 -4.86340000
-1.84890000 -0.61360000 -4.80100000
-1.65530000 -0.82810000 -4.88240000
-1.59570000 -0.79070000 -4.88270000
-1.56610000 -0.85780000 -4.84570000
-1.45420000 -0.83560000 -4.86480000
-1.45370000 -0.79030000 -4.87680000
-1.63050000 -0.59180000 -4.77810000
-1.30900000 -0.63440000 -4.78990000
-1.25840000 -0.79450000 -4.85830000
-1.25350000 -0.74650000 -4.84260000
-0.71560000 -0.42490000 -4.76880000
-1.10770000 -0.83500000 -4.85390000
-0.09480000 -0.41840000 -4.78340000
-0.69840000 -0.32760000 -4.77030000
0.01820000 -0.27570000 -4.78940000
-0.87920000 -0.12730000 -4.80580000
-1.38230000 -0.40660000 -4.75040000
0.65990000 -0.17100000 -4.80750000
0.54820000 -0.03450000 -4.84060000
0.19950000 -0.18410000 -4.80070000
0.86260000 -0.04730000 -4.82780000
0.89390000 0.09270000 -4.89480000
0.68150000 0.16840000 -4.94900000
-0.08070000 -0.05410000 -4.85770000
-0.05570000 0.11380000 -4.95910000
-0.53640000 -0.03260000 -4.86630000
1.02860000 0.21660000 -5.00850000
1.31000000 0.29240000 -5.15460000
0.81650000 0.27820000 -5.06920000
0.63890000 0.30580000 -5.15730000
0.03580000 0.29810000 -5.19320000
0.04580000 0.24030000 -5.09040000
0.40550000 0.31220000 -5.24040000
0.77780000 0.32140000 -5.28330000
0.42290000 0.33090000 -5.28380000
0.75290000 0.36320000 -5.31400000
0.59650000 0.38300000 -5.33150000
-1.60190000 -0.22220000 -4.76920000
-1.99950000 -0.28980000 -4.76460000
-0.70990000 0.09490000 -4.95160000
-1.58980000 0.00760000 -4.86330000
-0.71460000 0.20900000 -5.07160000
-1.54350000 0.10900000 -4.93760000
-1.18610000 0.26570000 -5.16550000
-1.69900000 0.22080000 -5.06670000
-0.34470000 0.31570000 -5.26540000
-0.25450000 0.39660000 -5.39930000
-0.57630000 0.38180000 -5.34980000
-0.52150000 0.36410000 -5.31210000
-0.53130000 0.39870000 -5.43740000
-0.36270000 0.41180000 -5.49060000
-0.08210000 0.39650000 -5.37750000
-0.23280000 0.39330000 -5.48210000
0.07640000 0.36520000 -5.31720000
0.13870000 0.38710000 -5.37250000
0.09460000 0.38870000 -5.45650000
-0.12550000 0.36510000 -5.53550000
-0.26080000 0.36690000 -5.54590000
0.31580000 0.40470000 -5.48090000
0.59730000 0.39950000 -5.38540000
0.46630000 0.39980000 -5.49090000
0.23880000 0.38180000 -5.52570000
-1.33300000 0.30050000 -5.25600000
-1.10300000 0.36980000 -5.34120000
-0.66850000 0.37620000 -5.49500000
-0.77990000 0.37460000 -5.49690000
-1.01720000 0.37950000 -5.43670000
-0.51830000 0.39220000 -5.52630000
-0.58770000 0.36000000 -5.54640000
-0.95810000 0.34910000 -5.54020000
-0.31890000 0.40360000 -5.52680000
-0.61030000 0.31580000 -5.57120000
-0.36090000 0.37530000 -5.56900000
-0.93130000 0.30520000 -5.56320000
-0.32000000 0.32880000 -5.58590000
-0.06520000 0.32220000 -5.57590000
0.02340000 0.36140000 -5.51230000
0.13810000 0.32450000 -5.55730000
-1.23540000 0.30260000 -5.57220000
-1.21760000 0.38050000 -5.48010000
-1.45360000 0.33880000 -5.54120000
-2.32490000 -0.59640000 -4.80110000
-2.76930000 -0.73390000 -4.88240000
-2.13550000 -0.41540000 -4.76690000
-2.76130000 -0.64080000 -4.84500000
-2.67000000 -0.79550000 -4.92340000
-2.65190000 -0.36420000 -4.81320000
-2.18270000 -0.08840000 -4.82270000
-2.79660000 -0.15150000 -4.86440000
-2.87270000 -0.35990000 -4.84970000
-2.64970000 -0.03380000 -4.88820000
-2.00380000 0.06140000 -4.90610000
-2.42820000 0.03660000 -4.91100000
-2.25860000 0.13960000 -4.98820000
-2.74850000 0.11940000 -4.99670000
-1.90620000 0.18640000 -5.02980000
-2.16760000 0.23840000 -5.13850000
-2.67170000 0.17410000 -5.05160000
-1.95450000 0.26690000 -5.19040000
-2.73730000 0.24890000 -5.17800000
-2.27800000 0.27930000 -5.24420000
-1.90320000 0.29290000 -5.25770000
-2.06550000 0.28250000 -5.24610000
-2.07640000 0.33060000 -5.29190000
-1.31040000 0.34710000 -5.29900000
-1.57320000 0.33740000 -5.29760000
-1.67290000 0.35880000 -5.35980000
-1.41460000 0.36850000 -5.39470000
-1.67930000 0.36070000 -5.49570000
-2.02320000 0.35530000 -5.47580000
-2.09900000 0.32760000 -5.54750000
-1.58530000 0.29630000 -5.57610000
-1.94960000 0.28680000 -5.57260000
-2.07570000 0.35010000 -5.34450000
-2.65270000 0.33970000 -5.46010000
-2.72010000 0.32280000 -5.33120000
-2.59660000 0.30970000 -5.28750000
-2.72510000 0.27500000 -5.25200000
-2.95050000 0.17550000 -5.05620000
-3.01160000 0.01910000 -4.95540000
-2.95850000 -0.01090000 -4.93940000
-2.90750000 -0.42380000 -4.84540000
-2.89360000 -0.56310000 -4.84080000
-2.91200000 -0.60820000 -4.81040000
-2.84790000 -0.65140000 -4.84480000
2.66950000 -0.77630000 -4.96560000
2.70750000 -0.82800000 -4.94860000
2.81900000 -0.81610000 -4.94160000
2.57870000 -0.82580000 -4.94310000
3.57970000 -0.84820000 -4.92800000
3.80350000 -0.84670000 -4.93980000
4.02180000 -0.85410000 -4.94340000
4.18770000 -0.84210000 -4.96930000
4.23990000 -0.86960000 -4.93540000
4.37390000 -0.87470000 -4.92370000
4.45290000 -0.86440000 -4.96710000
4.43470000 -0.82930000 -4.99200000
4.71010000 -0.82150000 -5.00930000
4.56480000 -0.86860000 -4.96760000
4.68800000 -0.85460000 -4.98420000
4.74320000 -0.87800000 -4.93270000
5.05730000 -0.88740000 -4.97590000
4.82800000 -0.86970000 -4.98920000
4.97580000 -0.85100000 -5.02260000
5.31980000 -0.89090000 -4.95250000
5.15840000 -0.87960000 -5.00800000
5.31500000 -0.87380000 -5.00940000
5.30270000 -0.84620000 -4.38200000
5.65300000 -0.87260000 -4.95100000
5.47110000 -0.87860000 -4.98500000
5.28170000 -0.84740000 -5.03230000
5.68360000 -0.84150000 -4.38060000
5.12350000 -0.84430000 -4.00520000
5.56770000 -0.82250000 -3.86610000
5.61500000 -0.85010000 -5.01060000
6.08040000 -0.89950000 -4.95890000
5.79500000 -0.88200000 -4.95770000
5.88520000 -0.87980000 -4.99860000
5.79090000 -0.85110000 -5.01660000
6.10330000 -0.88000000 -4.99890000
5.97720000 -0.83520000 -5.02580000
6.27650000 -0.88140000 -4.99420000
6.47460000 -0.88360000 -5.01520000
6.19840000 -0.83420000 -5.01750000
6.66850000 -0.91190000 -5.00310000
5.93530000 -0.78390000 -5.01990000
5.53400000 -0.79860000 -5.02510000
5.09360000 -0.79950000 -5.03820000
7.18720000 -0.99810000 3.91970000
7.16430000 -0.99860000 3.99970000
7.90870000 -0.77420000 -5.21760000
7.91470000 -0.76630000 -5.65500000
7.84580000 -0.68840000 -5.37790000
7.86370000 -0.69110000 -5.67540000
7.85100000 -0.69930000 -5.72420000
7.82770000 -0.63230000 -5.68330000
7.83240000 -0.59610000 -5.60520000
7.96470000 -0.79580000 -5.64040000
7.97420000 -0.80370000 -5.33090000
8.06150000 -0.80780000 -5.69970000
7.99990000 -0.78430000 -5.70820000
7.93020000 -0.74020000 -5.72710000
7.82870000 -0.20830000 -5.58040000
7.81880000 -0.42360000 -5.61370000
7.77670000 -0.39420000 -5.65460000
7.75690000 -0.23740000 -5.63910000
7.79820000 -0.60470000 -5.70290000
7.78350000 -0.01570000 -5.60510000
7.82150000 -0.04030000 -5.56050000
7.75350000 -0.60690000 -5.72440000
7.68110000 -0.48560000 -5.71930000
7.63770000 -0.15340000 -5.66110000
7.78800000 -0.72920000 -5.77210000
7.93550000 -0.77860000 -5.77730000
7.52830000 -0.75670000 -5.80810000
7.59580000 -0.65950000 -5.75320000
7.80930000 -0.80260000 -5.88730000
7.23410000 -0.77910000 -5.86970000
6.64060000 -0.74190000 -5.79890000
6.58230000 -0.69050000 -5.76390000
8.04680000 -0.80180000 -5.81400000
7.80610000 -0.81540000 -6.08160000
7.66620000 -1.26710000 -6.16360000
7.35290000 -1.16610000 -6.16030000
7.30480000 -1.07490000 -6.14700000
6.40250000 -1.07970000 -6.15940000
7.14080000 -0.87620000 -6.14280000
7.66300000 -1.14970000 -6.15310000
6.76800000 -0.86950000 -6.15940000
6.89640000 -0.81030000 -6.11830000
7.34810000 -0.84690000 -6.13680000
7.71740000 -0.88710000 -6.15160000
6.34230000 -0.78590000 -6.09250000
6.83600000 -0.78260000 -6.03910000
6.45510000 -0.85400000 -6.16110000
6.40510000 -0.81100000 -6.14520000
6.09750000 -0.81940000 -6.14200000
6.07490000 -0.90740000 -6.14700000
5.70500000 -1.41540000 -6.14660000
5.79140000 -0.87180000 -6.14500000
5.84260000 -0.82240000 -6.15200000
5.08960000 -1.43200000 -6.14490000
4.60710000 -1.05490000 -6.14400000
4.97170000 -0.84840000 -6.14440000
5.38330000 -0.88260000 -6.14880000
4.06360000 -1.36520000 -6.14020000
3.42690000 -1.76850000 -6.14870000
-3.83070000 -1.03440000 1.19150000
-1.71740000 -1.61480000 -6.14670000
-0.89000000 -1.00720000 -6.13410000
2.95610000 -1.67110000 -6.14760000
3.23070000 -0.95260000 -6.15560000
3.53520000 -0.82430000 -6.14960000
2.65920000 -0.99840000 -6.13690000
5.79840000 -0.78790000 -6.10420000
5.41630000 -0.77400000 -6.02330000
5.57130000 -0.79130000 -6.10460000
6.08390000 -0.76930000 -5.85890000
5.71630000 -0.82030000 -6.15380000
3.98130000 -0.77710000 -5.82410000
5.53090000 -0.86140000 -6.15220000
5.48720000 -0.83170000 -6.14100000
5.38480000 -0.82140000 -6.14150000
5.32530000 -0.79940000 -6.11470000
5.24920000 -0.83840000 -6.14700000
5.01460000 -0.79790000 -6.13090000
4.65710000 -0.78040000 -6.08530000
5.08050000 -0.83240000 -6.14530000
4.81520000 -0.79920000 -6.13210000
4.83640000 -0.81550000 -6.14750000
4.58060000 -0.87500000 -6.13830000
4.50530000 -0.80780000 -6.14610000
4.12140000 -0.77790000 -5.92280000
4.36800000 -0.80150000 -6.13940000
3.57470000 -0.78700000 -6.04340000
4.40850000 -0.82910000 -6.15410000
7.17910000 -0.61260000 -5.74480000
6.35640000 -0.63260000 -5.73810000
5.49980000 -0.70990000 -5.74300000
6.26070000 -0.45370000 -5.72570000
4.67820000 -0.74820000 -5.77320000
4.62860000 -0.70210000 -5.74130000
5.10760000 -0.64640000 -5.72010000
4.59140000 -0.64100000 -5.72640000
3.94130000 -0.72010000 -5.73460000
4.13520000 -0.49400000 -5.70890000
5.10590000 -0.42960000 -5.71320000
3.56180000 -0.76260000 -5.77010000
3.36120000 -0.73250000 -5.73520000
2.59380000 -0.79340000 -6.05330000
2.50360000 -0.77600000 -5.80120000
3.03180000 -0.79100000 -6.08270000
3.18650000 -0.80230000 -6.11010000
2.98860000 -0.80240000 -6.11300000
2.81130000 -0.79820000 -6.10170000
3.30550000 -0.82330000 -6.15060000
3.22290000 -0.82140000 -6.13090000
3.14460000 -0.87830000 -6.15160000
2.98540000 -0.83840000 -6.14390000
3.08450000 -0.82780000 -6.15170000
2.82780000 -0.89080000 -6.13360000
2.77810000 -0.82850000 -6.12380000
2.53300000 -0.83420000 -6.13070000
2.26270000 -0.85460000 -6.14250000
2.37760000 -0.81110000 -6.10720000
2.10460000 -1.57410000 -6.15030000
2.04240000 -0.88790000 -6.14790000
2.17690000 -0.86350000 -6.14510000
1.40850000 -1.89500000 -6.13890000
1.37430000 -1.06420000 -6.14100000
1.85340000 -1.04060000 -6.15010000
7.71810000 -0.84110000 -6.13190000
7.75770000 0.11290000 -5.60740000
7.62420000 0.07240000 -5.62000000
7.12270000 -0.24840000 -5.68600000
3.49350000 -0.41750000 -5.69610000
3.52110000 -0.68290000 -5.71580000
3.47910000 -0.58880000 -5.70210000
3.22650000 -0.06820000 -5.63360000
3.16250000 -0.54470000 -5.69830000
3.15610000 -0.69100000 -5.71550000
2.44540000 0.18250000 -5.59670000
2.88470000 -0.68360000 -5.71460000
2.88310000 -0.43530000 -5.68640000
2.67240000 -0.74370000 -5.74350000
2.34300000 -0.42970000 -5.68460000
2.62480000 -0.64970000 -5.71080000
2.53720000 -0.67550000 -5.70880000
2.02140000 0.10400000 -5.61000000
2.37300000 -0.74810000 -5.74820000
2.43960000 -0.67810000 -5.71780000
1.81980000 -0.80980000 -6.08830000
1.62040000 -0.80090000 -6.02020000
1.14720000 -0.79540000 -5.81710000
2.36880000 -0.68210000 -5.71230000
2.09190000 -0.82050000 -6.11590000
1.96620000 -0.81600000 -6.11410000
1.77000000 -0.82490000 -6.11210000
2.14970000 -0.82780000 -6.13520000
2.01120000 -0.83280000 -6.14370000
1.95050000 -0.86070000 -6.13990000
1.89900000 -0.83560000 -6.13970000
1.84920000 -0.87770000 -6.13840000
1.69220000 -0.85290000 -6.12470000
1.63000000 -0.83000000 -6.11820000
1.60480000 -0.91890000 -6.13540000
1.50900000 -0.83190000 -6.11940000
0.37740000 -0.81970000 -6.04610000
1.40870000 -0.86340000 -6.13360000
1.27580000 -0.82950000 -6.11020000
1.30660000 -0.86090000 -6.13160000
1.17420000 -0.92480000 -6.14350000
1.14400000 -0.86280000 -6.13520000
0.77020000 -0.95480000 -6.15030000
0.83070000 -0.86560000 -6.14580000
0.70810000 -0.84640000 -6.12520000
0.41140000 -1.13670000 -6.15270000
0.01910000 -1.23500000 -6.15340000
0.56530000 -0.97350000 -6.15040000
0.51520000 -0.84000000 -6.12200000
0.46870000 -0.87550000 -6.14230000
0.21450000 -0.85970000 -6.13180000
-0.91900000 -0.83640000 -5.95880000
-1.39700000 -0.84950000 -5.80200000
0.04300000 -0.85290000 -6.14450000
-0.26720000 -0.85590000 -6.13550000
-0.33770000 -0.83160000 -6.05520000
-0.09950000 -1.12950000 -6.14130000
-0.41400000 -0.91610000 -6.14470000
-0.46200000 -0.86650000 -6.13740000
-0.58370000 -0.89100000 -6.14460000
-0.56720000 -0.85990000 -6.12960000
-0.98410000 -0.87510000 -6.13400000
-1.31290000 -0.85670000 -6.07020000
-1.26470000 -0.88010000 -6.12830000
-1.31550000 -0.96010000 -6.14420000
-1.54570000 -1.11040000 -6.14760000
-1.49160000 -0.94780000 -6.13320000
-1.65840000 -0.93060000 -6.14340000
-1.75450000 -0.89090000 -6.11620000
-1.85620000 -1.20130000 -6.14940000
-2.06450000 -0.94100000 -6.13870000
-1.99560000 -1.10430000 -6.13920000
-2.50380000 -1.68810000 -6.14190000
-2.38520000 -1.45770000 -6.14510000
1.80830000 -0.73930000 -5.74570000
1.60740000 -0.76010000 -5.75840000
1.58140000 -0.71960000 -5.72790000
1.86700000 -0.71510000 -5.72420000
1.75200000 -0.66370000 -5.70880000
1.55230000 -0.59680000 -5.69730000
1.01210000 -0.77420000 -5.75600000
1.42450000 -0.69930000 -5.71980000
1.47040000 -0.65110000 -5.70270000
1.09710000 -0.73350000 -5.72060000
1.14620000 -0.63530000 -5.69250000
0.51090000 -0.74840000 -5.71600000
1.28410000 -0.45660000 -5.68360000
1.12010000 -0.40440000 -5.69210000
-1.45530000 -0.83110000 -5.74910000
-0.71420000 -0.77580000 -5.71440000
0.89180000 -0.56330000 -5.68160000
0.54560000 -0.67540000 -5.69360000
-2.14380000 -0.80950000 -5.70870000
-2.98360000 -0.90050000 -5.82730000
-2.62800000 -0.87210000 -5.75140000
-3.01660000 -0.91160000 -6.03780000
-3.33870000 -0.91040000 -5.75110000
-3.31600000 -0.94000000 -6.08020000
-3.55850000 -0.95630000 -6.05630000
-2.91060000 -0.96860000 -6.13170000
-3.35870000 -0.97750000 -6.12050000
-2.98350000 -1.21300000 -6.12950000
-3.09280000 -1.01990000 -6.13530000
-3.39170000 -1.02910000 -6.12950000
-2.65830000 -1.45160000 -6.13310000
-2.88550000 -1.38770000 -6.12900000
-3.04100000 -1.34570000 -6.14220000
1.68340000 -0.33290000 -5.68000000
1.92410000 -0.63480000 -5.70160000
2.22960000 -0.69510000 -5.72070000
2.67170000 0.30960000 -5.57970000
1.36000000 -0.11300000 -5.64590000
1.05570000 -0.01060000 -5.63150000
1.58810000 -0.54360000 -5.69900000
0.91660000 -0.40740000 -5.66040000
0.73230000 -0.48530000 -5.67890000
0.59890000 0.20730000 -5.59630000
0.12980000 0.18940000 -5.59350000
0.23320000 -0.60400000 -5.68420000
0.01910000 -0.69130000 -5.68390000
-0.02820000 -0.49280000 -5.66350000
0.05520000 -0.40960000 -5.66490000
-0.73750000 -0.70700000 -5.68550000
-0.36140000 -0.59500000 -5.67210000
-0.44280000 0.08960000 -5.60710000
-0.73480000 -0.51110000 -5.66300000
-0.45750000 -0.40450000 -5.65270000
-1.03590000 -0.54360000 -5.66640000
-0.90620000 -0.45190000 -5.65020000
-1.19060000 -0.71370000 -5.69240000
-1.07780000 -0.36620000 -5.66440000
-0.88320000 -0.31700000 -5.64510000
-1.30930000 -0.32590000 -5.65390000
-1.54340000 -0.48950000 -5.65830000
-1.20000000 -0.35290000 -5.64290000
-1.10670000 -0.25510000 -5.63810000
-1.93150000 -0.73830000 -5.68910000
-1.75850000 -0.54380000 -5.67010000
-2.05500000 -0.42160000 -5.65070000
-1.59690000 -0.30430000 -5.62960000
-2.47660000 -0.55610000 -5.67760000
-3.11960000 -0.82780000 -5.71520000
-3.04840000 -0.75590000 -5.68870000
-2.86130000 -0.40730000 -5.66040000
-3.18820000 -0.85490000 -5.71950000
-3.26150000 -0.88180000 -5.72420000
-3.27250000 -0.85160000 -5.67050000
-3.25780000 -0.77960000 -5.64680000
-3.19630000 -0.70800000 -5.67150000
-3.34840000 -0.89890000 -5.66700000
-3.33150000 -0.87650000 -5.57890000
-3.28810000 -0.79710000 -5.61020000
-3.25330000 -0.66000000 -5.65020000
-3.65860000 -0.96280000 -5.91430000
-3.63540000 -0.95100000 -5.64700000
-3.60300000 -0.93960000 -5.29700000
-3.40710000 -0.90970000 -5.03180000
-3.34990000 -0.87960000 -5.29570000
-3.66260000 -0.98380000 -5.98610000
-3.56070000 -0.98940000 -6.10420000
-3.63080000 -1.01090000 -6.06070000
-3.66740000 -1.02470000 -5.98680000
-3.57870000 -1.04280000 -6.10850000
-3.63920000 -1.08930000 -6.06850000
-3.66400000 -1.10180000 -6.03060000
-3.32930000 -1.19520000 -6.12430000
-3.48400000 -1.13520000 -6.12910000
-3.58460000 -1.16780000 -6.10840000
-3.44210000 -1.47430000 -6.12050000
-3.49240000 -1.33580000 -6.13500000
-3.54060000 -1.27790000 -6.12810000
-3.19160000 -1.44150000 -6.12280000
-3.18580000 -1.52180000 -6.13800000
-3.67400000 -0.95750000 -4.34380000
-3.66390000 -0.95980000 -5.09260000
-3.67310000 -0.96500000 -5.31780000
-3.60140000 -0.93650000 -4.79750000
-3.52710000 -0.92620000 -4.00480000
-3.43830000 -0.91360000 -4.03830000
-3.40120000 -0.90510000 -4.67340000
-3.72470000 -1.00180000 -3.98180000
-3.68010000 -0.95950000 -3.87440000
-3.71310000 -0.98220000 -3.85730000
-3.44520000 -0.91320000 -3.32290000
-3.68510000 -0.95860000 -3.61280000
-3.72890000 -0.99550000 -3.44190000
-3.70590000 -0.96780000 -3.41170000
-3.75430000 -1.01470000 -2.93510000
-3.74510000 -1.01120000 -3.00580000
-3.75400000 -1.02470000 -2.78550000
-3.74870000 -1.02090000 -2.55860000
-3.74040000 -0.98920000 -2.63270000
-3.69650000 -0.96000000 -2.71890000
-3.73800000 -0.98620000 -2.75480000
-3.75560000 -0.99510000 -2.48810000
-3.64720000 -0.94630000 -3.25920000
-3.70550000 -0.97070000 -3.22620000
-3.74560000 -1.01150000 -3.25230000
-3.68950000 -0.95890000 -3.08720000
-3.72840000 -0.98340000 -3.12090000
-3.71290000 -0.96980000 -2.91920000
-3.69420000 -0.95910000 -2.84140000
-3.74430000 -0.99510000 -2.85580000
-3.70840000 -0.96800000 -2.55530000
-3.57360000 -0.93380000 -2.72990000
-3.73500000 -0.97850000 -2.42340000
-3.69900000 -0.95810000 -2.30000000
-3.76000000 -0.99740000 -2.36880000
-3.47840000 -0.92020000 -2.45190000
-3.75510000 -0.99250000 -2.27160000
-3.72020000 -0.96380000 -2.11280000
-3.76610000 -1.00880000 -2.03950000
-3.52030000 -0.92630000 -1.59920000
-3.44710000 -0.90300000 -2.05310000
-3.75410000 -0.98580000 -2.01710000
-3.73670000 -0.97170000 -1.87730000
-3.69610000 -0.95490000 -1.74380000
-3.76470000 -0.99880000 -1.77940000
-3.78520000 -1.01590000 -1.25070000
-3.77180000 -1.00120000 -1.41550000
-3.76740000 -0.99480000 -1.59610000
-3.79920000 -1.04950000 -0.60980000
-3.80070000 -1.05000000 -0.09450000
-3.79760000 -1.02360000 -0.42710000
-3.80210000 -1.01290000 -0.06750000
-3.79920000 -1.00060000 0.09320000
-3.77120000 -0.98050000 -0.11240000
-3.80120000 -0.99710000 0.80890000
-3.72110000 -0.95670000 0.07870000
-3.71550000 -0.95440000 0.65060000
-3.76400000 -0.96940000 1.07830000
-3.69030000 -0.95430000 -1.28350000
-3.60510000 -1.30120000 -6.08700000
-3.68750000 -1.00130000 -5.84790000
-3.68430000 -0.98490000 -5.58090000
-3.66130000 -0.96290000 -5.74500000
-3.67630000 -0.96860000 -5.81840000
-3.35200000 -0.87230000 -4.87790000
-3.31790000 -0.82640000 -5.39730000
-3.32920000 -0.82170000 -4.61200000
-3.30460000 -0.64790000 -5.45620000
-3.36940000 -0.87840000 -4.15960000
-3.33090000 -0.67210000 -4.32310000
-3.30970000 -0.08270000 -4.52620000
-3.29540000 -0.07530000 -5.20260000
-3.34340000 -0.37240000 -3.79920000
-3.35110000 -0.82790000 -3.78080000
-3.38890000 -0.88270000 -3.56690000
-3.39330000 -0.87290000 -3.10360000
-3.38100000 -0.84170000 -2.90330000
-3.42960000 -0.89600000 -2.55260000
-3.40810000 -0.86890000 -2.13920000
-3.39600000 -0.79390000 -1.68660000
-3.45810000 -0.89120000 -0.97810000
-3.43360000 -0.85970000 -1.12410000
-3.51430000 -0.92170000 -0.85740000
-3.72210000 -0.96360000 -1.07310000
-3.43440000 -0.84270000 -0.65060000
-3.74760000 -0.97470000 -0.90600000
-3.71560000 -0.96070000 -0.63290000
-3.77690000 -1.01040000 -1.15510000
-3.79030000 -1.04690000 -1.12180000
-3.77600000 -1.00050000 -1.04320000
-3.74220000 -0.97140000 -1.27960000
-3.78470000 -1.00630000 -0.84890000
-3.41240000 -0.71080000 -0.60710000
-3.40880000 -0.31870000 -0.62260000
-3.40400000 -0.34460000 -0.89620000
-3.49210000 -0.91180000 -0.56050000
-3.45760000 -0.88420000 -0.39580000
-3.75690000 -0.97850000 -0.59760000
-3.76690000 -0.98340000 -0.38560000
-3.78170000 -1.00200000 -0.67960000
-3.55380000 -0.92880000 0.32180000
-3.79990000 -1.01210000 -0.16060000
-3.50560000 -0.91540000 0.08600000
-3.46880000 -0.88820000 -0.13220000
-3.45570000 -0.87630000 0.08280000
-3.43160000 -0.82170000 0.12990000
-2.61440000 0.16350000 -5.57400000
-3.10340000 -0.14980000 -5.61160000
-2.89140000 0.26510000 -5.56880000
-2.59080000 0.26040000 -5.56550000
-3.22190000 -0.49610000 -5.64850000
-3.23560000 -0.24940000 -5.60340000
-3.25290000 -0.48480000 -5.62980000
-3.18850000 -0.08140000 -5.59300000
-3.28480000 -0.59290000 -5.60550000
-3.28730000 -0.37160000 -5.51840000
-3.27830000 -0.16620000 -5.51590000
-1.19200000 0.07710000 -5.59210000
-1.49540000 -0.08400000 -5.60240000
-0.67020000 -0.39230000 -5.64880000
-0.34800000 -0.46840000 -5.64750000
-0.21400000 -0.39430000 -5.66110000
-1.64060000 -0.03330000 -5.60490000
-1.99480000 0.12650000 -5.58000000
-1.83590000 -0.09490000 -5.60320000
-3.14610000 0.25380000 -5.55720000
-3.19420000 0.12610000 -5.57530000
7.88840000 -0.90040000 6.13540000
7.88330000 -0.94750000 6.15550000
8.12250000 -0.93730000 6.12700000
8.23000000 -1.10190000 6.13160000
8.05800000 -1.13570000 6.12460000
8.22110000 -1.23650000 6.13570000
7.64980000 -0.97050000 6.16160000
7.86800000 -1.01800000 6.15860000
6.79500000 -0.23850000 5.72620000
6.40110000 -0.47450000 5.74260000
7.31870000 0.00130000 5.70790000
8.14840000 -1.24450000 6.12610000
7.72140000 -1.18710000 6.13580000
7.24620000 -1.08900000 6.13830000
7.29420000 -1.31450000 6.09590000
7.37920000 -0.90960000 6.15380000
7.20810000 -0.92560000 6.16510000
7.03500000 -1.33810000 6.09820000
6.97580000 -0.86600000 6.13810000
6.84460000 -0.90060000 6.15390000
6.57680000 -0.87340000 6.15180000
4.07480000 -0.86030000 6.09790000
3.96390000 -0.84540000 6.04180000
2.94920000 -0.80850000 5.85490000
3.02140000 -0.83500000 5.89900000
5.22130000 -0.67550000 5.76500000
4.30340000 -0.64150000 5.76730000
3.37730000 -0.61500000 5.78540000
4.93780000 -0.41110000 5.74080000
5.87770000 -0.43750000 5.74190000
6.08890000 -0.25190000 5.72200000
6.45730000 -0.07210000 5.71080000
6.25320000 0.00120000 5.71760000
6.06230000 -0.08670000 5.72790000
6.05360000 0.08310000 5.70950000
5.75400000 -0.17470000 5.71900000
6.10100000 -0.87160000 6.14390000
5.78500000 -0.85960000 6.12400000
5.92430000 -0.89570000 6.15260000
5.64320000 -0.90770000 6.15650000
6.18060000 -1.31640000 6.10000000
6.15420000 -0.91450000 6.15750000
5.55170000 -0.87150000 6.14900000
5.45990000 -0.90310000 6.16360000
5.27180000 -0.87380000 6.13790000
4.88480000 -0.86980000 6.13640000
5.03170000 -0.90340000 6.15270000
4.79460000 -0.90440000 6.15300000
4.62180000 -0.87100000 6.12680000
