-7.30910000 -1.15640000 3.36760000
-7.35260000 -1.16520000 3.49130000
-7.36240000 -1.16360000 3.64460000
-7.29530000 -1.18020000 3.53770000
-7.26590000 -1.16400000 3.40640000
-7.23450000 -1.23420000 2.91430000
-7.18460000 -1.26220000 2.76790000
-7.25370000 -1.29210000 2.96820000
-7.15820000 -1.17350000 2.81370000
-7.29580000 -1.24630000 3.09070000
-7.18200000 -1.15920000 2.95120000
-7.11050000 -1.15150000 2.80740000
-7.11730000 -1.66660000 7.48360000
-7.05520000 -1.60030000 7.58280000
-6.68680000 -1.48010000 7.26320000
-6.55150000 -1.40300000 7.42960000
-6.67220000 -1.36270000 7.31840000
-6.82680000 -1.30690000 7.14160000
-6.74300000 -1.21740000 7.26140000
-7.31660000 -1.54500000 7.27680000
-7.44240000 -1.35200000 7.05890000
-7.38460000 -1.26130000 7.06370000
-7.08210000 -1.26490000 6.85860000
-6.87160000 -1.14450000 7.17240000
-7.11930000 -1.16870000 6.85310000
-6.54100000 -1.16510000 7.50420000
-6.57210000 -1.10840000 7.55640000
-6.63540000 -1.13870000 7.43580000
-6.79810000 -1.11790000 7.31630000
-7.22660000 -1.16710000 7.13540000
-7.03970000 -1.11490000 7.07480000
-7.44090000 -1.19230000 6.88960000
-7.56590000 -1.26300000 6.80950000
-7.23860000 -1.12810000 6.77970000
-7.40290000 -1.14180000 6.81090000
-7.46550000 -1.12850000 6.60170000
-7.38370000 -1.14960000 6.56120000
-5.18440000 -1.89790000 4.00720000
-5.09380000 -1.89050000 4.26850000
-4.72110000 -1.90970000 3.75200000
-4.49940000 -1.91150000 3.55080000
-5.71910000 -1.90980000 3.61430000
-5.75510000 -1.91520000 3.49040000
-5.46970000 -1.91880000 3.51290000
-5.87090000 -1.92270000 3.21120000
-5.60760000 -1.92510000 2.87170000
-5.46550000 -1.92460000 3.23410000
-4.95290000 -1.91690000 3.19280000
-5.41630000 -1.91100000 3.97060000
-5.46980000 -1.92460000 3.82480000
-5.28850000 -1.88760000 3.98190000
-5.27400000 -1.90300000 3.70540000
-5.41550000 -1.91200000 3.72560000
-5.62300000 -1.93150000 3.73500000
-5.77350000 -1.93240000 3.72560000
-4.50190000 -1.92170000 3.06900000
-4.94970000 -1.92700000 2.65340000
-5.15710000 -1.93140000 2.95620000
-5.20720000 -1.60480000 2.28020000
-4.54600000 -1.55970000 2.61590000
-4.79860000 -1.92440000 2.45460000
-3.05340000 -1.90950000 2.28160000
-4.32890000 -1.91940000 1.91000000
-4.87450000 -1.92900000 2.32060000
-3.71170000 -1.90920000 1.46340000
-3.43540000 -1.46180000 1.26520000
-3.80880000 -1.48670000 1.99930000
-4.05350000 -1.49200000 1.44510000
-4.47120000 -1.52230000 1.57360000
-3.69200000 -1.50460000 2.43950000
-4.13260000 -1.51530000 2.38510000
-5.23240000 -1.93350000 2.13940000
-5.63990000 -1.93300000 2.16050000
-5.37660000 -1.92830000 1.65550000
-5.35050000 -1.93470000 2.64950000
-6.06610000 -1.91920000 2.91170000
-5.50990000 -1.93180000 2.51790000
-5.67680000 -1.92610000 2.40590000
-5.86660000 -1.92270000 2.26580000
-6.13860000 -1.88640000 2.01840000
-6.20040000 -1.64690000 1.90940000
-6.31160000 -1.63090000 1.99320000
-6.52240000 -1.62930000 2.64310000
-6.37900000 -1.80600000 1.91380000
-6.16490000 -1.81980000 1.38090000
-5.51660000 -1.63150000 1.69470000
-5.87750000 -1.64330000 1.69540000
-5.86950000 -1.66370000 3.03960000
-5.92790000 -1.90180000 3.55410000
-4.99890000 -1.56540000 1.27690000
-4.91150000 -1.87790000 4.46710000
-3.05680000 -1.45310000 1.51070000
-2.71900000 -1.46210000 1.12200000
-1.88650000 -1.45810000 0.96690000
-1.50100000 -1.42570000 0.70430000
-6.28850000 -1.68540000 0.87710000
-6.30460000 -1.75400000 1.41530000
-6.56070000 -1.44390000 0.74560000
-6.62770000 -1.39040000 0.93590000
-6.59240000 -1.31590000 0.73330000
-6.68950000 -1.36600000 1.14160000
-6.83540000 -1.28230000 1.67190000
-6.82350000 -1.33880000 1.64680000
-6.87520000 -1.30190000 1.81440000
-6.73940000 -1.31000000 1.30570000
-6.77210000 -1.36070000 1.43510000
-6.81220000 -1.22560000 1.64770000
-6.74140000 -1.19520000 1.46850000
-6.71290000 -1.22060000 1.31390000
-6.50940000 -1.21950000 1.20690000
-6.46150000 -1.26160000 1.02750000
-6.45920000 -1.18850000 1.01510000
-6.62820000 -1.25470000 0.93540000
-6.62040000 -1.15120000 1.12760000
-6.60000000 -1.18950000 0.95600000
-6.57400000 -1.14420000 1.00620000
-6.55290000 -1.24380000 1.34130000
-6.55150000 -1.17180000 1.30460000
-6.64470000 -1.16050000 1.57430000
-6.62270000 -1.23750000 1.56520000
-6.58900000 -1.17750000 1.42230000
-6.62740000 -1.14580000 1.47780000
-6.66070000 -1.13470000 1.44050000
-6.72560000 -1.16280000 1.50550000
-6.66280000 -1.14260000 1.35700000
-6.59700000 -1.13480000 1.35960000
-6.59770000 -1.12500000 1.28030000
-6.53100000 -1.13440000 1.19200000
-6.63350000 -1.14030000 1.24450000
-6.56820000 -1.11690000 1.16160000
-6.50400000 -1.12950000 1.07280000
-6.56100000 -1.12390000 1.06890000
-7.07840000 -1.31490000 2.45230000
-7.04880000 -1.28290000 2.32380000
-6.99680000 -1.31120000 2.22360000
-7.07160000 -1.23400000 2.41860000
-7.11400000 -1.25680000 2.53580000
-7.01790000 -1.22470000 2.26970000
-7.03110000 -1.17510000 2.41670000
-6.92450000 -1.18610000 2.42420000
-6.84750000 -1.16400000 2.14590000
-6.90590000 -1.15800000 2.29750000
-6.88590000 -1.22480000 1.88200000
-6.92310000 -1.29670000 1.96780000
-6.96750000 -1.17900000 2.21060000
-6.97270000 -1.15140000 2.35160000
-6.90020000 -1.14850000 2.16350000
-6.87260000 -1.16140000 1.99140000
-6.84550000 -1.14910000 2.01090000
-6.80500000 -1.19770000 2.09310000
-7.14010000 -1.32220000 2.71680000
-7.15140000 -1.21480000 2.69330000
-7.09920000 -1.20260000 2.56180000
-7.00230000 -1.17730000 2.62270000
-7.06130000 -1.16370000 2.79210000
-6.96470000 -1.24430000 2.66990000
-7.08790000 -1.16560000 2.65020000
-6.99950000 -1.16130000 2.54350000
-6.90590000 -1.24670000 2.47740000
-7.02890000 -1.16120000 2.50320000
-6.97000000 -1.15390000 2.42450000
-7.05850000 -1.20120000 2.86520000
-6.77980000 -1.15470000 1.92420000
-6.71600000 -1.23030000 1.86310000
-6.70000000 -1.18290000 1.77520000
-6.76470000 -1.13820000 1.79120000
-6.70730000 -1.15020000 1.75060000
-6.78510000 -1.15990000 1.70090000
-6.71240000 -1.13140000 1.67060000
-6.69420000 -1.13540000 1.56220000
-6.11090000 -1.62770000 1.20470000
-6.31240000 -1.47490000 0.58020000
-6.35300000 -1.36380000 0.59850000
-6.38290000 -1.23310000 0.72660000
-6.35330000 -1.38590000 0.74450000
-6.37380000 -1.21300000 0.60980000
-6.35240000 -1.24680000 0.50710000
-6.40480000 -1.15290000 0.70510000
-6.40400000 -1.27030000 0.86440000
-6.41390000 -1.17200000 0.83970000
-6.47370000 -1.12960000 0.94780000
-6.51490000 -1.12450000 0.91460000
-6.44580000 -1.12600000 0.82850000
-6.51350000 -1.13310000 0.82570000
-6.44970000 -1.12500000 0.74200000
-6.40770000 -1.55510000 0.42810000
-6.48520000 -1.29810000 0.31660000
-6.46370000 -1.19980000 0.39050000
-6.51870000 -1.16280000 0.71810000
-6.51360000 -1.20130000 0.58140000
-6.45890000 -1.16600000 0.47570000
-6.43940000 -1.13510000 0.62770000
-6.39630000 -1.15550000 0.57580000
-6.45890000 -1.15100000 0.56190000
-6.29220000 -1.23450000 0.34020000
-6.24880000 -1.15580000 0.20740000
-6.19170000 -1.19330000 0.07000000
-6.42230000 -1.23530000 0.16180000
-6.36170000 -1.14660000 0.15520000
-6.29950000 -1.10930000 0.13880000
-6.29540000 -1.12140000 0.02140000
-6.32860000 -1.15760000 0.34720000
-6.39060000 -1.15500000 0.48280000
-6.39630000 -1.14470000 0.41000000
-6.38820000 -1.14140000 0.31770000
-6.29680000 -1.11550000 0.21510000
-6.23490000 -1.12670000 0.12920000
-6.48300000 -1.13760000 0.70140000
-6.19130000 -1.15110000 0.01200000
-6.18040000 -1.13420000 -0.10170000
-6.23970000 -1.11060000 -0.02670000
-6.27250000 -1.12590000 -0.09170000
-6.21220000 -1.10810000 -0.14620000
-6.23060000 -1.11240000 0.04670000
3.41010000 -1.84190000 0.48540000
3.40000000 -1.83590000 0.74870000
2.98310000 -1.84240000 0.59180000
3.34150000 -1.82450000 0.32360000
3.76280000 -1.81450000 0.38680000
4.22300000 -1.77810000 -0.15190000
4.27440000 -1.77000000 0.68950000
3.75830000 -1.79980000 -0.39290000
6.44300000 -1.48550000 0.45190000
6.31080000 -1.55160000 -0.07250000
6.69950000 -1.44670000 -0.29690000
6.80010000 -1.48990000 -1.85940000
6.99420000 -1.39170000 -1.54240000
6.84730000 -1.35890000 -0.05980000
7.10610000 -1.29690000 -1.21520000
7.15110000 -1.23340000 -1.00980000
6.92610000 -1.30340000 -0.01410000
7.32850000 -1.15740000 -1.77680000
7.13480000 -1.17870000 -0.60030000
7.27130000 -1.10020000 -1.25610000
7.37400000 -1.06870000 -1.78500000
7.31370000 -1.00590000 -1.39030000
7.18720000 -1.09340000 -0.73050000
7.35840000 -0.90690000 -1.67430000
7.23770000 -0.91400000 -1.12220000
5.50110000 -1.66210000 0.77380000
5.09170000 -1.70380000 0.66460000
5.04970000 -1.72880000 -0.59250000
6.12330000 -1.61600000 -0.72010000
5.78980000 -1.61990000 0.71560000
5.96500000 -1.65210000 -1.43210000
6.00430000 -1.33320000 -0.25680000
6.13210000 -1.30400000 -1.09970000
5.84900000 -1.29410000 -1.95270000
5.52050000 -1.33940000 -0.82560000
4.19590000 -1.78060000 -2.04260000
4.47010000 -1.32910000 -1.03700000
4.09990000 -1.36050000 0.05720000
4.41190000 -1.39630000 1.02660000
6.45990000 -1.59530000 -2.68040000
6.85190000 -1.51240000 -2.99670000
6.45720000 -1.57300000 -1.50580000
5.60290000 -1.69050000 -2.54140000
6.08240000 -1.63400000 -3.68840000
5.69610000 -1.23870000 -3.67760000
6.33780000 -1.21920000 -2.94200000
6.33360000 -1.25600000 -1.78350000
6.60900000 -1.16740000 -3.12970000
6.22920000 -1.28890000 -0.39010000
6.48370000 -1.20700000 -1.43730000
7.13240000 -1.39450000 -2.62220000
7.33430000 -1.30160000 -2.78500000
7.41160000 -1.23430000 -2.70020000
6.61320000 -1.09690000 -0.63690000
6.84720000 -1.01910000 -2.13290000
6.63830000 -1.13400000 -1.62560000
6.89610000 -0.91280000 -1.43570000
6.81050000 -0.95520000 -0.95270000
7.26290000 -0.83890000 -1.39740000
7.24700000 -0.78710000 -1.53150000
7.07960000 -0.76580000 -1.56020000
7.19210000 -0.75590000 -1.62060000
7.15670000 -0.75470000 -1.86370000
7.05590000 -0.79140000 -1.73360000
7.11920000 -0.75620000 -1.46390000
6.95600000 -0.90000000 -1.92650000
6.76530000 -1.11360000 -3.07580000
2.40490000 -1.83560000 0.66480000
2.96350000 -1.82310000 0.06240000
2.33680000 -1.81970000 -0.03070000
3.19550000 -1.80980000 -1.28090000
1.72750000 -1.35760000 -0.72450000
1.31150000 -1.35470000 -0.01120000
2.46100000 -1.35540000 -0.23530000
2.22110000 -1.34110000 -1.62110000
1.12280000 -1.34480000 -0.78650000
0.40520000 -1.33070000 -0.39940000
0.34590000 -1.33940000 -0.16900000
0.55920000 -1.33630000 -0.11490000
0.23480000 -1.32340000 -0.45880000
-0.07570000 -1.35550000 -0.44880000
-0.09480000 -1.34320000 -0.13640000
0.12440000 -1.33360000 -0.22020000
0.25810000 -1.32800000 -0.67540000
0.34300000 -1.32240000 -1.67760000
0.69360000 -1.33000000 -1.18670000
0.92350000 -1.32990000 -0.80780000
0.99730000 -1.33620000 -1.07810000
0.02020000 -1.34020000 -0.88290000
3.22460000 -1.81760000 -3.40420000
1.87200000 -1.32560000 -2.25020000
3.37290000 -1.30520000 -2.36380000
1.00960000 -1.32990000 -1.84930000
1.36020000 -1.32680000 -2.43200000
0.74520000 -1.32530000 -1.52440000
0.52320000 -1.33200000 -1.54350000
5.07180000 -1.71360000 -4.47960000
2.26990000 -1.24190000 -4.28920000
1.79110000 -1.28830000 -3.23240000
3.20840000 -1.26690000 -3.66080000
3.91530000 -1.77860000 -5.22010000
4.20820000 -1.26790000 -3.64990000
3.17210000 -1.24130000 -4.64930000
3.67480000 -1.24270000 -4.92470000
4.86670000 -1.25870000 -3.86290000
5.01030000 -1.23150000 -4.63980000
3.77390000 -1.19530000 -5.71710000
3.20440000 -1.21180000 -5.47830000
6.88290000 -1.77070000 -6.32260000
7.04540000 -1.77200000 -6.33560000
6.99220000 -1.79540000 -6.06810000
7.03950000 -1.75210000 -6.43690000
7.10760000 -1.73640000 -6.36600000
7.07620000 -1.68240000 -6.47170000
6.94330000 -1.74510000 -6.49460000
6.82360000 -1.71990000 -6.43830000
6.69810000 -1.69390000 -6.23530000
7.01890000 -1.70610000 -6.52630000
6.93670000 -1.66150000 -6.60860000
6.88140000 -1.66680000 -6.58470000
6.96220000 -1.59600000 -6.64920000
6.78250000 -1.60360000 -6.54120000
6.87570000 -1.55850000 -6.69620000
6.89980000 -1.47900000 -6.80240000
6.82920000 -1.49170000 -6.78190000
5.13560000 -1.68490000 -5.84720000
4.02610000 -1.75760000 -6.56870000
5.42380000 -1.63150000 -6.52440000
4.61860000 -1.69600000 -6.96660000
4.91500000 -1.64350000 -7.19850000
6.63160000 -1.41300000 -6.96890000
6.42420000 -1.48910000 -6.72340000
6.04440000 -1.49590000 -7.12000000
6.82160000 -1.40400000 -6.93990000
6.73700000 -1.42860000 -6.88510000
6.57450000 -1.33440000 -7.26030000
6.87310000 -1.28880000 -7.09210000
6.61570000 -1.27990000 -7.32920000
6.72750000 -1.25030000 -7.26990000
6.15980000 -1.54330000 -6.66990000
5.93100000 -1.38080000 -7.63540000
6.67890000 -1.15850000 -7.32630000
6.75900000 -1.19790000 -7.26850000
6.35270000 -1.25410000 -7.58900000
6.52850000 -1.20460000 -7.45870000
6.60840000 -1.05190000 -7.33650000
6.33910000 -1.16940000 -7.62310000
5.16920000 -1.58120000 -7.38670000
5.45660000 -1.29490000 -8.23260000
6.09360000 -1.32520000 -7.67750000
5.77630000 -1.26750000 -8.03590000
5.46800000 -1.48110000 -7.64700000
6.24090000 -1.28860000 -7.63780000
6.10570000 -1.20930000 -7.82160000
6.13840000 -0.97370000 -7.72180000
6.08690000 -1.13340000 -7.83870000
5.86640000 -1.23040000 -8.00750000
5.82690000 -1.16380000 -8.06280000
5.71980000 -1.08560000 -8.11890000
6.72000000 -1.55190000 -3.51780000
6.99710000 -1.50090000 -3.69330000
7.39170000 -1.70390000 -4.04360000
7.42310000 -1.72340000 -4.14120000
7.44300000 -1.66200000 -4.08660000
7.12860000 -1.70080000 -4.02760000
7.17030000 -1.76210000 -4.11790000
7.24380000 -1.73210000 -4.02910000
7.26460000 -1.68230000 -3.96960000
7.01080000 -1.64780000 -4.07090000
7.06470000 -1.73340000 -4.16510000
6.89920000 -1.59400000 -4.14090000
6.99710000 -1.70660000 -4.30850000
7.42960000 -1.77530000 -4.39250000
7.38650000 -1.76490000 -4.20670000
7.29240000 -1.79130000 -4.28000000
7.47950000 -1.70700000 -4.34840000
7.44760000 -1.74790000 -4.28610000
7.19110000 -1.79320000 -4.28080000
7.15710000 -1.80220000 -4.51490000
7.11150000 -1.77700000 -4.29370000
7.04610000 -1.76020000 -4.53420000
7.33150000 -1.80460000 -4.57560000
7.20700000 -1.80620000 -4.95920000
7.30980000 -1.75530000 -4.09910000
7.34520000 -1.71100000 -4.01460000
7.46580000 -1.69820000 -4.23500000
7.48630000 -1.66230000 -4.38960000
7.46810000 -1.63810000 -4.18900000
7.44820000 -1.58360000 -4.04240000
7.48620000 -1.54290000 -4.46770000
7.19150000 -1.46590000 -3.72600000
7.25430000 -1.50030000 -3.80920000
7.31130000 -1.42150000 -3.68510000
7.39580000 -1.62590000 -3.96420000
7.29680000 -1.57530000 -3.88390000
7.39720000 -1.49020000 -3.85010000
7.43930000 -1.48540000 -3.91890000
7.50450000 -1.38940000 -3.98110000
7.47180000 -1.50780000 -4.11690000
7.38210000 -1.44640000 -3.78720000
7.47030000 -1.36960000 -3.77950000
7.53480000 -1.26490000 -3.67150000
7.13220000 -1.61760000 -3.95540000
7.12320000 -1.55100000 -3.89050000
6.81440000 -1.54670000 -4.05190000
6.91350000 -1.53710000 -3.92320000
6.84360000 -1.53180000 -3.84380000
6.95560000 -1.56410000 -3.98400000
7.11400000 -1.50590000 -3.81490000
7.14670000 -1.44460000 -3.49040000
7.51120000 -1.43200000 -4.37790000
7.44810000 -1.78100000 -4.64510000
7.39990000 -1.79850000 -4.80890000
7.45760000 -1.77420000 -4.83890000
7.49360000 -1.72270000 -4.72230000
7.49150000 -1.70050000 -4.86230000
7.47860000 -1.73810000 -4.53020000
7.49420000 -1.66370000 -4.59820000
7.48740000 -1.55800000 -4.88840000
7.49810000 -1.47370000 -4.73070000
7.55140000 -1.35640000 -4.75310000
7.63170000 -1.21160000 -4.11190000
7.67540000 -1.17270000 -4.76440000
7.72650000 -1.06500000 -5.10010000
7.76830000 -1.01670000 -4.79780000
7.75700000 -1.04730000 -4.30030000
7.78080000 -0.99740000 -4.38330000
7.78280000 -0.97190000 -4.67960000
7.78520000 -0.93880000 -4.49250000
7.73790000 -0.81460000 -4.55660000
7.76160000 -0.88950000 -4.80470000
7.55350000 -1.17790000 -3.28430000
7.60570000 -1.06600000 -3.14600000
7.56510000 -1.01300000 -2.75060000
7.64020000 -0.94200000 -3.08910000
7.67530000 -0.98010000 -3.34570000
7.66160000 -0.87830000 -3.26180000
6.78940000 -1.07410000 -3.77050000
6.91620000 -1.01780000 -3.76520000
6.66210000 -1.08750000 -4.11680000
6.88100000 -1.03570000 -2.74890000
6.98460000 -0.97980000 -3.51470000
7.06840000 -0.89370000 -2.91100000
7.28890000 -1.38610000 -3.43060000
7.41540000 -1.35720000 -3.64750000
7.43450000 -1.31230000 -3.48870000
7.69040000 -1.01540000 -3.53980000
7.74120000 -1.01330000 -3.95250000
7.22670000 -0.76950000 -3.26360000
7.17140000 -0.82280000 -3.62930000
7.71340000 -0.94700000 -3.56820000
7.72430000 -0.89870000 -3.68150000
7.73410000 -0.95670000 -3.75630000
7.70780000 -0.82560000 -3.78550000
7.55760000 -0.75780000 -3.16100000
7.56490000 -0.73340000 -3.57260000
7.48310000 -0.73470000 -3.18280000
7.62980000 -0.81200000 -3.24870000
7.62740000 -0.76740000 -3.49100000
7.27700000 -0.74270000 -3.07580000
7.39350000 -0.73260000 -2.99290000
7.36360000 -0.72100000 -3.59690000
7.40660000 -0.71120000 -4.05890000
7.27920000 -0.74280000 -3.57330000
7.54480000 -0.71130000 -4.14460000
7.07540000 -0.89920000 -3.97860000
7.18890000 -0.78500000 -4.05590000
7.29070000 -0.72480000 -4.05440000
7.47680000 -1.01570000 -2.24430000
7.43180000 -0.96020000 -1.97020000
7.46650000 -0.90650000 -2.16180000
7.52040000 -0.93370000 -2.40940000
7.48680000 -0.84800000 -2.36550000
7.07010000 -0.83950000 -2.27630000
7.55900000 -0.95390000 -2.62820000
7.55920000 -0.88140000 -2.66860000
7.48150000 -0.78270000 -2.56980000
7.54200000 -0.82650000 -2.69830000
7.41570000 -0.77370000 -2.33670000
7.44790000 -0.75090000 -2.70950000
7.31270000 -0.74500000 -2.32760000
7.26420000 -0.74660000 -2.57180000
7.36320000 -0.83780000 -1.83880000
7.39760000 -0.80780000 -2.07680000
7.35410000 -0.76720000 -2.12360000
7.29210000 -0.75290000 -2.06550000
7.29320000 -0.77100000 -1.84150000
7.21840000 -0.74920000 -1.96560000
7.10730000 -0.77890000 -2.08590000
7.18830000 -0.75140000 -2.16230000
7.16370000 -0.78210000 -2.49310000
7.54570000 -0.78930000 -2.87370000
7.74550000 -0.90560000 -3.87160000
7.76170000 -0.96790000 -3.99330000
7.74050000 -0.84280000 -4.07920000
7.77680000 -0.91030000 -4.30230000
7.67860000 -0.76310000 -4.02010000
7.70970000 -0.77690000 -4.27800000
7.63730000 -0.72530000 -4.32850000
7.60490000 -0.72460000 -4.05040000
7.66820000 -0.73640000 -4.54220000
7.67610000 -0.78180000 -3.76100000
7.63630000 -0.74550000 -3.84690000
7.06080000 -1.78680000 -4.98330000
6.95420000 -1.71400000 -4.80410000
6.87240000 -1.59180000 -4.36410000
6.80930000 -1.56170000 -4.69040000
6.85230000 -1.61630000 -4.84360000
6.85460000 -1.67200000 -5.18360000
6.77490000 -1.54250000 -4.41810000
6.71530000 -1.54450000 -4.19480000
6.62520000 -1.53750000 -4.84540000
6.07980000 -1.59600000 -5.30740000
6.70810000 -1.53350000 -4.92800000
6.72570000 -1.54770000 -5.17440000
6.59290000 -1.52910000 -5.36010000
6.16520000 -1.15200000 -4.41830000
6.41720000 -1.07820000 -4.78070000
6.59840000 -1.02850000 -4.73840000
6.87120000 -0.99440000 -4.33900000
6.79370000 -0.93140000 -4.85570000
6.90800000 -0.91130000 -4.65980000
6.09340000 -1.18780000 -3.90420000
5.60690000 -1.19750000 -4.83930000
5.98060000 -1.11960000 -5.18100000
6.22570000 -1.05620000 -5.36610000
7.20200000 -1.80000000 -5.54770000
7.28210000 -1.78350000 -5.72030000
7.34750000 -1.78490000 -5.46220000
7.37090000 -1.75700000 -5.58160000
7.32950000 -1.76080000 -5.71860000
7.39890000 -1.70650000 -5.56200000
6.88650000 -1.78820000 -5.95850000
7.03110000 -1.80010000 -5.65790000
6.94670000 -1.76960000 -5.45580000
7.17140000 -1.78420000 -5.99950000
7.31720000 -1.79950000 -5.21290000
7.40760000 -1.79110000 -4.99530000
7.47400000 -1.74480000 -4.94470000
7.44460000 -1.77090000 -5.06590000
7.38840000 -1.78960000 -5.20150000
7.43950000 -1.75450000 -5.21510000
7.39810000 -1.77000000 -5.36330000
7.44690000 -1.68800000 -5.31250000
7.42550000 -1.73620000 -5.37640000
7.46960000 -1.71280000 -5.11130000
7.40230000 -1.56380000 -5.57560000
7.46130000 -1.58480000 -5.19260000
7.44330000 -1.48010000 -5.40800000
7.49810000 -1.42060000 -5.11660000
7.53310000 -1.31810000 -5.36040000
6.81890000 -1.72500000 -5.64520000
6.72270000 -1.57380000 -5.39070000
6.73150000 -1.64480000 -5.61170000
7.31110000 -1.66110000 -5.90630000
7.18240000 -1.75560000 -6.15410000
7.27240000 -1.75250000 -5.93270000
7.29960000 -1.72280000 -5.91140000
7.32790000 -1.54720000 -5.88820000
7.40200000 -1.42780000 -5.74320000
7.51910000 -1.26580000 -5.69530000
7.40490000 -1.34110000 -5.96810000
7.65560000 -1.09750000 -5.58250000
7.54760000 -1.14200000 -6.00850000
7.55710000 -1.07560000 -6.08620000
7.62180000 -1.06640000 -5.83200000
6.76900000 -1.74930000 -5.96930000
6.78960000 -1.76360000 -6.14340000
6.42910000 -1.54370000 -5.97100000
6.32750000 -1.54520000 -6.27680000
6.66170000 -1.70140000 -6.10740000
6.59880000 -1.63200000 -6.00310000
6.57040000 -1.60840000 -6.11530000
6.52130000 -1.55690000 -6.18490000
6.65660000 -1.61630000 -6.32920000
6.64300000 -1.55680000 -6.42430000
6.48380000 -1.53020000 -6.29590000
6.62240000 -1.57430000 -5.73350000
6.51770000 -1.55510000 -5.93190000
6.52030000 -1.54050000 -5.78740000
6.61680000 -1.53490000 -5.53490000
7.18730000 -1.71210000 -6.21780000
7.26670000 -1.51600000 -6.11480000
7.14330000 -1.65030000 -6.34860000
7.11240000 -1.52590000 -6.45660000
7.24660000 -1.44480000 -6.24590000
7.01310000 -1.52840000 -6.63240000
6.72150000 -1.50430000 -6.64230000
6.92410000 -1.41210000 -6.86210000
7.09230000 -1.36410000 -6.67760000
7.01540000 -1.31960000 -6.86830000
7.19450000 -1.39590000 -6.42700000
7.11540000 -1.24030000 -6.82340000
7.35540000 -1.26410000 -6.33290000
7.30320000 -1.20510000 -6.53520000
7.25200000 -1.13770000 -6.67570000
7.15260000 -1.18710000 -6.81020000
7.09330000 -1.09950000 -6.88650000
7.27470000 -1.03540000 -6.61950000
7.43340000 -1.24750000 -6.15490000
7.46660000 -1.15260000 -6.29590000
7.37050000 -1.10890000 -6.47020000
7.48620000 -1.08030000 -6.28800000
7.34800000 -0.97310000 -6.45730000
7.48740000 -1.01200000 -6.24510000
7.55440000 -1.02400000 -6.09240000
7.17300000 -0.93490000 -6.69610000
7.43870000 -0.90100000 -6.23490000
7.30540000 -0.80210000 -6.36500000
7.11500000 -0.80770000 -6.65890000
7.07980000 -0.73210000 -6.61210000
7.69600000 -0.79950000 -5.06940000
7.05190000 -0.78270000 -4.68430000
7.06040000 -0.84150000 -4.46700000
6.99170000 -0.77640000 -4.94720000
6.87790000 -0.85000000 -5.12800000
7.13920000 -0.72740000 -4.67880000
7.09970000 -0.70860000 -5.09820000
7.20440000 -0.70450000 -4.74330000
7.14320000 -0.69100000 -5.36360000
7.01640000 -0.74920000 -5.21930000
7.72410000 -1.01530000 -5.31890000
7.67640000 -1.01590000 -5.62510000
7.71910000 -0.95800000 -5.38820000
7.63960000 -0.96860000 -5.76180000
7.68240000 -0.87190000 -5.43820000
7.56190000 -0.91880000 -5.96650000
7.59380000 -0.86030000 -5.77360000
7.54340000 -0.77810000 -5.75480000
7.75990000 -0.96170000 -5.03820000
7.73310000 -0.87860000 -5.12510000
7.59860000 -0.72240000 -5.24690000
7.67340000 -0.74830000 -4.85550000
7.60120000 -0.70840000 -4.84180000
7.60190000 -0.76180000 -5.47220000
7.41190000 -0.68630000 -5.68700000
7.51770000 -0.69830000 -5.37680000
7.51340000 -0.72060000 -5.64650000
7.20140000 -0.67510000 -5.80740000
7.47270000 -0.69160000 -4.93960000
6.37120000 -1.00330000 -5.47420000
6.61380000 -0.94020000 -5.38290000
6.50010000 -0.90710000 -5.70060000
6.82800000 -0.84360000 -5.39800000
6.78510000 -0.80680000 -5.64310000
6.74670000 -0.75800000 -5.85720000
6.96990000 -0.72770000 -5.51370000
6.52470000 -0.83000000 -5.99280000
7.41560000 -0.77950000 -6.10740000
7.41660000 -0.71490000 -5.93360000
7.28020000 -0.70380000 -6.20980000
7.31050000 -0.68550000 -6.04170000
7.14340000 -0.67060000 -6.18650000
6.90400000 -0.70270000 -5.79490000
6.69180000 -0.70580000 -6.25220000
6.96390000 -0.68480000 -5.85810000
6.70660000 -0.68130000 -6.47200000
7.21160000 -0.72150000 -6.39000000
7.16890000 -0.68050000 -6.30950000
6.97450000 -0.69260000 -6.66460000
6.97110000 -0.67090000 -6.55420000
5.01480000 -1.14960000 -5.69950000
4.05740000 -1.16070000 -6.07830000
5.49070000 -1.11910000 -5.69300000
4.88190000 -1.02870000 -6.81280000
4.41530000 -1.09170000 -6.55570000
5.89140000 -1.04160000 -5.92170000
6.55440000 -1.48760000 -6.56060000
6.09950000 -0.98890000 -5.96860000
5.48180000 -0.97910000 -6.64000000
5.40900000 -1.04800000 -6.33920000
5.85700000 -0.91360000 -6.52730000
6.33310000 -0.85760000 -6.19580000
6.17590000 -0.80630000 -6.60220000
5.91610000 -0.84010000 -6.73390000
6.98380000 -1.20460000 -7.03520000
6.86720000 -1.22290000 -7.16210000
6.95440000 -0.85180000 -6.89150000
6.80240000 -0.75180000 -6.95960000
6.21530000 -0.67280000 -7.16200000
6.38010000 -0.73240000 -6.59490000
6.06740000 -0.77560000 -6.87770000
6.30570000 -0.69010000 -6.84600000
6.06670000 -0.72200000 -6.99660000
6.58420000 -0.84790000 -7.25280000
6.68200000 -0.69880000 -7.00690000
6.26650000 -0.69920000 -7.40250000
6.41040000 -0.67170000 -7.17420000
6.80860000 -0.67580000 -6.80080000
5.17930000 -0.96090000 -6.94140000
5.19850000 -0.85340000 -7.28310000
5.53410000 -0.85470000 -7.08900000
5.44100000 -0.82540000 -7.25220000
5.72390000 -0.81660000 -7.03770000
6.23470000 -0.74780000 -7.50330000
5.97690000 -0.78040000 -7.75490000
5.86520000 -0.68110000 -7.67770000
5.61570000 -0.80500000 -7.25890000
5.82950000 -0.77190000 -7.10570000
5.69900000 -0.74770000 -7.30700000
5.50710000 -0.74820000 -7.41860000
5.77770000 -0.69440000 -7.38030000
5.53080000 -0.70550000 -7.49620000
5.80660000 -0.86370000 -7.94610000
5.96740000 -0.71620000 -7.69280000
5.50420000 -0.67400000 -7.89300000
5.47310000 -0.68470000 -7.67570000
5.96530000 -0.80860000 -6.85260000
6.99310000 -0.93510000 -4.28980000
7.19500000 -0.74640000 -4.33180000
6.95440000 -1.02630000 -7.00050000
6.84670000 -1.14490000 -7.18110000
6.09640000 -1.35390000 2.87510000
6.43190000 -1.28720000 2.10670000
6.27870000 -1.28590000 2.60510000
6.53170000 -1.20750000 2.02780000
6.33510000 -1.22440000 2.59720000
6.52540000 -1.14980000 2.11630000
4.87610000 -1.79050000 5.10250000
4.93870000 -1.77180000 5.12280000
4.99030000 -1.68960000 5.12240000
4.99320000 -1.68120000 5.03960000
4.94400000 -1.66950000 4.97700000
5.12930000 -1.56490000 4.85280000
5.03660000 -1.59750000 4.82810000
4.88210000 -1.63600000 4.87520000
4.84000000 -1.62480000 4.77340000
5.14200000 -1.55540000 4.65470000
5.23070000 -1.50380000 4.84890000
5.48800000 -1.47270000 4.10980000
5.44560000 -1.43320000 4.52980000
5.44770000 -1.53280000 3.68320000
4.94530000 -1.62570000 4.34310000
4.76810000 -1.66740000 3.71790000
5.22980000 -1.62160000 2.93440000
5.71320000 -1.55600000 2.24210000
5.64970000 -1.36480000 4.19830000
5.49310000 -1.37020000 4.60440000
5.73480000 -1.28380000 4.14720000
5.67690000 -1.41180000 3.88260000
5.90600000 -1.32760000 3.57270000
5.82080000 -1.29980000 3.90490000
5.65160000 -1.25150000 4.35910000
5.81310000 -1.18340000 3.99450000
5.65900000 -1.13980000 4.28470000
5.14720000 -1.21780000 3.94490000
4.96170000 -1.20450000 4.18040000
5.16580000 -1.09860000 4.13350000
5.44540000 -1.08440000 3.77080000
5.42550000 -1.21080000 3.53820000
5.08560000 -1.51390000 5.18680000
5.29920000 -1.27820000 5.12550000
5.33220000 -1.36890000 4.95360000
5.44410000 -1.26660000 4.85810000
5.39090000 -1.21540000 5.00260000
5.18490000 -1.22170000 5.31370000
5.28230000 -1.16410000 5.15720000
5.39950000 -1.15950000 4.95050000
5.12840000 -1.55510000 5.02470000
5.51810000 -1.30030000 4.65590000
5.49850000 -1.20260000 4.71640000
4.70930000 -1.18880000 4.39340000
4.99370000 -1.04040000 4.39110000
4.85530000 -1.00750000 4.52680000
5.11470000 -0.97870000 5.15040000
5.14000000 -0.92240000 4.97670000
5.31000000 -1.07360000 4.99220000
5.47220000 -1.06390000 4.62530000
5.38000000 -0.94960000 4.63960000
5.19930000 -0.88270000 4.73010000
4.72860000 -0.87340000 4.78140000
4.66570000 -0.93020000 4.72230000
5.29180000 -0.86650000 4.43300000
4.61970000 -1.02680000 4.64820000
4.98600000 -0.89280000 4.57330000
5.62010000 -0.97450000 4.18630000
5.53710000 -0.89470000 4.17560000
5.14270000 -0.92590000 4.39450000
5.28830000 -0.93960000 4.21910000
5.18520000 -0.87610000 4.44920000
5.62960000 -0.91210000 3.75290000
5.44640000 -0.96220000 3.96480000
5.68080000 -0.89250000 3.77360000
5.44650000 -0.88410000 4.14350000
5.77180000 -0.94210000 3.79990000
5.93980000 -1.42800000 2.91420000
6.15400000 -1.26420000 3.04550000
6.05790000 -1.25620000 3.33080000
6.01590000 -1.22750000 3.49320000
6.14910000 -1.22700000 3.13400000
6.10050000 -1.17530000 3.29350000
6.16570000 -1.16220000 3.12620000
6.11560000 -1.09780000 3.22420000
5.90900000 -1.24150000 3.76980000
5.86960000 -1.21310000 3.88070000
5.96600000 -1.16740000 3.64630000
5.94490000 -1.09400000 3.64070000
5.95860000 -1.02610000 3.52070000
5.72830000 -1.12090000 3.23380000
5.58920000 -1.25840000 3.15690000
5.65440000 -0.98630000 3.58460000
5.80030000 -0.91410000 3.42730000
5.84310000 -0.93190000 3.29430000
5.79700000 -0.89850000 3.51810000
5.79990000 -0.90970000 3.64220000
6.12170000 -1.00590000 3.10190000
5.97550000 -0.94960000 3.34610000
5.90380000 -1.00310000 3.05420000
6.10230000 -0.93030000 2.99310000
5.92740000 -0.89790000 3.22270000
5.97480000 -0.92300000 3.00130000
5.90480000 -0.90900000 3.38290000
5.99720000 -0.90080000 3.13600000
6.27850000 -1.18430000 2.80550000
6.21810000 -1.12500000 2.97440000
6.21920000 -1.05030000 2.90230000
6.39130000 -1.10510000 2.48950000
6.38210000 -1.01070000 2.42060000
6.25270000 -0.96530000 2.68890000
6.19130000 -0.90980000 2.70600000
6.04960000 -0.89990000 2.94540000
4.96440000 -1.68360000 2.07750000
3.94690000 -1.76700000 2.04130000
4.54550000 -1.74820000 1.23190000
5.21430000 -1.46010000 3.05360000
5.45990000 -1.41210000 2.88780000
5.45700000 -1.45850000 2.52400000
6.21820000 -1.46210000 1.59120000
5.66650000 -1.40780000 2.40510000
5.72450000 -1.34210000 2.61810000
4.68760000 -1.47810000 2.67890000
4.61300000 -1.49620000 3.46430000
5.22020000 -1.48550000 2.73760000
4.80550000 -1.46990000 3.51600000
5.74540000 -1.41320000 1.77100000
5.43570000 -1.44820000 1.81420000
5.58330000 -1.43800000 1.85440000
5.26180000 -1.42700000 1.24240000
5.77750000 -1.39400000 2.06390000
5.94610000 -1.34280000 1.71880000
5.89040000 -1.33550000 2.23170000
6.00990000 -1.25890000 2.24840000
5.82040000 -1.25760000 2.70640000
5.96420000 -1.15280000 2.66550000
6.34760000 -1.38870000 1.79440000
6.39500000 -1.34600000 1.94040000
6.17560000 -1.15150000 2.00730000
6.08930000 -1.24270000 1.86220000
6.10760000 -1.18710000 2.24770000
6.09580000 -1.11420000 2.44450000
6.20540000 -1.05980000 2.22140000
6.28740000 -1.04470000 1.89440000
5.89900000 -1.40320000 1.15310000
3.32630000 -1.82210000 1.74560000
3.06510000 -1.85860000 1.75240000
3.93100000 -1.78070000 1.44610000
2.43400000 -1.90510000 2.40080000
2.48390000 -1.88620000 2.18810000
2.60900000 -1.87540000 2.45590000
2.64900000 -1.86540000 2.02750000
2.87610000 -1.86590000 1.67100000
1.96940000 -1.90470000 1.74980000
2.30910000 -1.88540000 1.96790000
2.42340000 -1.88150000 1.66740000
2.15590000 -1.90870000 1.64480000
2.71490000 -1.86790000 1.18200000
3.01010000 -1.86620000 1.12130000
2.70080000 -1.86900000 0.88170000
3.07070000 -1.84720000 0.83690000
3.25100000 -1.84590000 1.17490000
3.19230000 -1.84880000 1.44840000
3.59400000 -1.81470000 1.16010000
2.45510000 -1.88270000 1.33700000
3.89050000 -1.80590000 0.95150000
2.44680000 -1.37920000 0.85210000
4.24170000 -1.47790000 3.98750000
4.79580000 -1.43310000 3.71470000
4.12300000 -1.50500000 3.75310000
4.37490000 -1.20330000 4.56370000
4.48220000 -1.31210000 4.31550000
4.24640000 -1.42070000 4.19670000
4.62890000 -1.39600000 4.02080000
4.82780000 -1.30370000 4.09550000
4.95020000 -1.36390000 3.80960000
5.20530000 -1.35180000 3.49470000
4.32820000 -1.10790000 4.70640000
6.08650000 -0.98770000 2.64930000
6.10600000 -0.91750000 2.70600000
6.11520000 -0.90440000 2.77050000
6.18610000 -0.92440000 2.44940000
6.23620000 -0.95270000 2.27790000
6.32510000 -0.90480000 2.35130000
6.24660000 -0.89990000 2.34290000
6.30150000 -0.88570000 2.28510000
6.29950000 -0.91230000 2.14650000
6.24390000 -0.89620000 2.52450000
6.17410000 -0.89480000 2.60760000
6.16550000 -0.91580000 2.53330000
6.23580000 -0.88770000 2.46290000
6.67460000 -1.38330000 0.57510000
6.74710000 -1.31110000 0.80430000
6.87180000 -1.22270000 0.74750000
6.74910000 -1.23820000 1.17170000
6.99280000 -1.16570000 0.32600000
6.93920000 -1.24140000 0.33080000
6.89220000 -1.15980000 0.84510000
6.93930000 -1.10360000 0.66710000
7.00370000 -1.11920000 0.33870000
6.96850000 -1.02210000 0.45760000
5.77160000 -1.41740000 0.92870000
6.02780000 -1.36010000 1.18880000
6.11870000 -1.33640000 0.58250000
5.99090000 -1.37120000 0.52240000
6.24530000 -1.26880000 0.70960000
5.61910000 -1.38550000 0.40710000
5.86330000 -1.37960000 0.42010000
6.34460000 -1.23640000 -0.10840000
6.57210000 -1.05540000 0.22470000
6.27090000 -1.21300000 1.07140000
6.40250000 -1.11410000 0.95510000
6.70920000 -0.89050000 0.37710000
6.70700000 -0.98700000 -0.39890000
6.60440000 -1.21990000 1.76990000
6.60280000 -1.27600000 1.56210000
6.70590000 -1.15400000 1.54990000
6.78430000 -1.17760000 1.23170000
6.69500000 -1.10210000 1.60240000
6.58800000 -1.04690000 1.89390000
6.40630000 -1.03970000 1.33830000
6.56660000 -0.95430000 1.82980000
6.34790000 -0.92970000 1.89580000
6.36170000 -0.88590000 1.96100000
6.42620000 -0.85820000 1.88890000
6.39090000 -0.87680000 1.84240000
6.43070000 -0.86790000 1.95960000
6.45880000 -0.88600000 1.97630000
6.50520000 -0.85540000 1.74330000
6.45500000 -0.84920000 1.77000000
6.75400000 -1.03370000 1.35340000
6.73940000 -0.92800000 1.24180000
6.59440000 -0.88810000 1.61310000
6.46390000 -0.92200000 1.45810000
6.40330000 -0.89850000 1.72910000
6.56520000 -0.84890000 1.50050000
6.61500000 -0.84180000 1.35490000
6.47180000 -0.86450000 1.58930000
6.54390000 -0.85140000 1.34270000
6.51620000 -0.90860000 1.25490000
6.51070000 -0.84630000 1.61610000
6.82330000 -1.18870000 1.05060000
6.78860000 -1.11990000 1.28450000
6.87060000 -1.07180000 0.95140000
6.86650000 -1.11970000 0.97780000
6.91840000 -0.94610000 0.55590000
6.81190000 -0.86370000 0.80450000
6.69390000 -0.86720000 1.24610000
6.74430000 -0.85690000 1.03360000
6.58790000 -0.87530000 1.04320000
6.61740000 -0.91900000 0.73710000
6.66950000 -0.84190000 0.84450000
6.63210000 -0.83690000 1.03860000
6.69760000 -0.83040000 1.04040000
6.71080000 -0.82860000 0.92970000
6.74510000 -0.82190000 0.78730000
6.92170000 -0.88340000 0.38900000
6.86460000 -0.83920000 0.47170000
6.79750000 -0.83010000 0.69850000
6.67040000 -0.83330000 1.15930000
6.60000000 -0.83240000 1.24390000
6.56740000 -0.85720000 1.18790000
6.63540000 -0.82870000 1.11990000
6.72250000 -0.82910000 0.63730000
6.76950000 -0.81680000 0.58080000
6.82150000 -0.81490000 0.42210000
6.77780000 -0.82770000 0.35950000
7.03680000 -1.20700000 -0.05240000
7.08250000 -1.13350000 -0.11910000
7.18000000 -1.02630000 -0.69210000
6.86570000 -0.83250000 -0.56450000
7.06950000 -1.05200000 -0.03450000
7.11880000 -0.89410000 -0.59210000
6.97790000 -0.85170000 0.01090000
6.89240000 -0.81580000 0.21000000
6.79880000 -0.84780000 -0.07960000
6.83410000 -0.81060000 0.22130000
6.87840000 -0.79600000 0.00870000
6.82320000 -0.81340000 0.03020000
6.93950000 -0.79820000 -0.15180000
6.87440000 -0.79900000 -0.19710000
7.07060000 -0.83230000 -0.54170000
6.95740000 -0.79320000 -0.30410000
7.01370000 -0.80020000 -0.44080000
6.91990000 -0.78850000 -0.46110000
6.97620000 -0.78190000 -0.49010000
6.95150000 -0.78160000 -0.59750000
7.04660000 -0.79200000 -0.66990000
7.00840000 -0.77750000 -0.76370000
6.94150000 -0.79750000 -0.76510000
7.19420000 -0.81910000 -1.16990000
7.12640000 -0.76960000 -1.21170000
7.11550000 -0.79300000 -0.95820000
6.94850000 -0.80790000 -0.93150000
7.00730000 -0.77620000 -0.92080000
7.06170000 -0.77120000 -0.98090000
7.00210000 -0.79320000 -1.26500000
7.04290000 -0.76900000 -1.13920000
6.42870000 -0.92100000 2.14690000
6.36890000 -0.88910000 2.19760000
6.35850000 -0.88050000 2.12960000
6.36490000 -0.87770000 2.04540000
1.90280000 -1.93170000 1.46950000
1.79770000 -1.92940000 1.59360000
1.96630000 -1.94840000 1.23240000
2.08680000 -1.94780000 1.18250000
2.15430000 -1.95740000 1.32730000
2.17290000 -1.89220000 1.04740000
2.25530000 -1.92350000 1.14770000
2.02900000 -1.95000000 1.41030000
2.23040000 -1.92310000 1.46600000
2.30250000 -1.92530000 1.29990000
1.66290000 -1.91500000 1.44230000
1.82680000 -1.92670000 1.35040000
1.74740000 -1.89740000 1.27900000
1.47270000 -1.86250000 1.29350000
1.72630000 -1.85120000 1.14160000
1.89410000 -1.87660000 1.08360000
1.98840000 -1.94090000 1.16080000
2.01430000 -1.89630000 1.05770000
1.95280000 -1.84340000 0.91540000
1.57520000 -1.84210000 1.10270000
1.76460000 -1.92530000 1.75470000
2.37940000 -1.88300000 1.01240000
2.48910000 -1.85480000 0.80010000
2.14780000 -1.84470000 0.91080000
1.34330000 -1.36660000 0.77590000
0.46720000 -1.35250000 0.54120000
0.59030000 -1.34660000 0.28300000
0.83580000 -1.35020000 0.53020000
0.64350000 -1.33410000 0.70950000
0.25160000 -1.33050000 0.02050000
0.13160000 -1.31910000 -0.04320000
-0.06130000 -1.31680000 0.15050000
2.97010000 -1.82680000 -6.42490000
2.44410000 -1.85460000 -5.17730000
2.02250000 -1.85790000 -6.30570000
0.05770000 -1.89680000 -6.38530000
1.16400000 -1.87860000 -5.80950000
-0.29070000 -1.91930000 -3.96700000
0.45060000 -1.86350000 -7.67640000
1.12950000 -1.85960000 -7.36680000
0.44650000 -1.88470000 -7.08920000
1.25810000 -1.83780000 -7.65260000
1.45880000 -1.81760000 -7.92560000
1.58500000 -1.84830000 -7.52480000
1.87870000 -1.78630000 -8.16260000
1.06400000 -1.83100000 -8.01180000
2.66930000 -1.82420000 -7.18730000
1.89440000 -1.84680000 -7.19750000
2.64260000 -1.80250000 -7.52430000
-1.48380000 -1.85100000 -6.82190000
-1.43070000 -1.87490000 -5.83230000
-2.28860000 -1.87100000 -5.71910000
-2.07300000 -1.85680000 -6.41830000
-2.72280000 -1.85480000 -6.18770000
-5.03680000 -2.05200000 -5.73560000
-4.94770000 -2.05380000 -5.96100000
-4.96290000 -2.06540000 -5.68930000
-4.96240000 -2.06370000 -5.52590000
-5.04210000 -2.06910000 -5.55330000
-4.85410000 -2.06040000 -5.73220000
-4.82970000 -2.03430000 -5.59040000
-5.03750000 -2.06240000 -5.65350000
-5.07810000 -2.04690000 -5.58410000
-5.07540000 -1.99920000 -5.69150000
-5.01920000 -2.00700000 -5.38580000
-4.90800000 -2.01930000 -5.44570000
-5.00070000 -1.89860000 -5.26500000
-4.89070000 -1.88560000 -5.29380000
-4.72300000 -1.91560000 -5.51140000
-4.82590000 -1.94920000 -5.41830000
-5.05920000 -2.03080000 -5.43510000
-5.08570000 -2.03890000 -5.50560000
-5.11470000 -1.98340000 -5.54050000
-5.20040000 -1.86980000 -5.46270000
-5.13690000 -1.91110000 -5.70070000
-4.73130000 -2.03410000 -5.86740000
-4.68370000 -1.95550000 -5.71300000
-4.83420000 -2.05810000 -6.02070000
-4.62350000 -2.00920000 -6.05910000
-4.59910000 -1.96000000 -5.97870000
-4.65020000 -2.03880000 -6.14370000
-4.51700000 -1.84920000 -5.89460000
-4.54460000 -1.80390000 -5.60440000
-4.50880000 -1.80480000 -5.76410000
-4.69910000 -2.05380000 -6.25860000
-4.42560000 -1.96370000 -6.47340000
-4.49890000 -1.94370000 -6.23470000
-4.34580000 -1.81080000 -6.25590000
-4.20010000 -1.79080000 -6.49670000
-4.14990000 -1.86270000 -6.75300000
-4.13890000 -1.77740000 -6.03260000
-3.66860000 -1.82180000 -5.81360000
-4.18580000 -1.79250000 -5.66820000
-3.45200000 -1.81780000 -6.26350000
-3.80140000 -1.78850000 -6.42340000
-4.37140000 -1.77470000 -6.02810000
-4.27860000 -1.75770000 -6.13260000
-4.39720000 -1.77100000 -5.68790000
-4.40260000 -1.76410000 -5.80520000
-4.31670000 -1.76190000 -5.92080000
-4.02800000 -1.75840000 -6.48750000
-4.23210000 -1.76680000 -6.32920000
-3.97920000 -1.75760000 -6.71120000
-3.42230000 -1.69000000 -7.61700000
-3.04100000 -1.72430000 -7.65450000
-2.71780000 -1.76700000 -7.55680000
-3.33110000 -1.74530000 -7.37540000
-3.41790000 -1.62510000 -7.96470000
-2.70420000 -1.71790000 -7.88540000
-2.98560000 -1.86290000 -5.74180000
-2.97070000 -1.83330000 -6.52430000
-2.03270000 -1.84060000 -6.86100000
-2.58220000 -1.82580000 -7.01500000
-3.11020000 -1.80450000 -6.94880000
-2.55060000 -1.79550000 -7.39200000
-1.91940000 -1.81350000 -7.45150000
-3.45450000 -1.79200000 -6.88560000
-3.94400000 -1.81110000 -6.95570000
-3.93940000 -1.77260000 -6.86920000
-3.55740000 -1.76270000 -7.06450000
-3.67710000 -1.74580000 -7.13160000
-3.88560000 -1.87070000 -7.18010000
-3.79290000 -1.76910000 -7.06310000
-3.77280000 -1.77720000 -7.21460000
-3.69740000 -1.72870000 -7.33160000
-3.59010000 -1.72790000 -7.28640000
-3.71480000 -1.31880000 -6.76820000
-3.45610000 -1.27040000 -7.20840000
-3.82580000 -1.26580000 -6.89480000
-4.24350000 -1.38320000 -5.97340000
-3.54190000 -1.35230000 -6.40010000
-3.32900000 -1.30830000 -6.99700000
-4.21460000 -1.33770000 -6.27670000
-3.59540000 -1.70210000 -7.43750000
-3.20410000 -1.22960000 -7.50900000
-2.94550000 -1.23600000 -7.48880000
-2.77190000 -1.16460000 -7.84330000
-2.69680000 -1.32610000 -6.10960000
-2.84910000 -1.29830000 -7.07010000
-1.91480000 -1.27280000 -7.19020000
-2.74970000 -1.27040000 -7.33480000
-0.24150000 -1.85750000 -7.92770000
-0.65240000 -1.88730000 -7.41930000
-1.11590000 -1.88000000 -7.19120000
-1.07570000 -1.85350000 -7.84080000
-0.23180000 -1.82630000 -8.24580000
-1.17560000 -1.88130000 -6.09660000
-0.91660000 -1.90370000 -6.19680000
-1.37650000 -1.84320000 -7.39460000
-1.05980000 -1.25950000 -6.83490000
-0.47980000 -1.23540000 -8.06780000
0.72130000 -1.74620000 -8.72870000
0.83810000 -1.81040000 -8.29860000
-0.22070000 -1.78090000 -8.54580000
-0.09190000 -1.68840000 -8.99840000
0.71280000 -1.66860000 -9.07670000
-0.30610000 -1.59750000 -9.32200000
0.23330000 -1.57890000 -9.43870000
0.44180000 -1.19320000 -8.91720000
-0.12930000 -1.23920000 -8.42350000
0.55270000 -1.21280000 -8.52470000
-0.24820000 -1.21490000 -8.60840000
0.18180000 -1.17030000 -8.97280000
0.52990000 -1.21910000 -7.17300000
1.42760000 -1.19020000 -7.98370000
-0.68500000 -1.21110000 -8.38210000
-1.50830000 -1.81030000 -7.73640000
-2.00990000 -1.77020000 -7.83580000
-1.28640000 -1.81190000 -8.09180000
-1.43400000 -1.72920000 -8.52280000
-1.04470000 -1.80210000 -8.32060000
-1.70520000 -1.69770000 -8.41170000
-1.81160000 -1.63660000 -8.60370000
-1.58090000 -1.76570000 -8.10160000
-2.23990000 -1.71930000 -8.04370000
-2.17220000 -1.68500000 -8.23630000
-2.46110000 -1.59920000 -8.47760000
-2.98550000 -1.65040000 -8.05840000
-2.97400000 -1.60000000 -8.26490000
-2.20210000 -1.58820000 -8.60710000
-1.29350000 -1.66660000 -8.85060000
-1.84640000 -1.58000000 -8.86120000
-2.00980000 -1.55160000 -8.81510000
-2.53550000 -1.56170000 -8.61810000
-2.47290000 -1.51800000 -8.77420000
-2.22280000 -1.52320000 -8.82500000
-2.12710000 -1.50150000 -8.97820000
-2.25800000 -1.47510000 -8.93620000
-2.20790000 -1.45790000 -9.01430000
-1.86470000 -1.53900000 -8.98890000
-2.00080000 -1.45720000 -9.10120000
-1.81730000 -1.51790000 -9.10750000
-2.01840000 -1.42310000 -9.14430000
-1.20560000 -1.24280000 -7.83560000
-1.57510000 -1.22920000 -7.90210000
-2.79580000 -1.18450000 -7.71690000
-2.56890000 -1.23540000 -7.55010000
-2.40380000 -1.20000000 -7.80120000
-1.87380000 -1.18430000 -8.02830000
-2.17140000 -1.13850000 -8.09630000
-3.06950000 -1.15710000 -7.76130000
-2.75510000 -1.12610000 -7.93510000
-2.41190000 -1.09580000 -8.08330000
-1.92280000 -1.09160000 -8.32440000
-2.06280000 -1.03220000 -8.35650000
-2.59320000 -1.05780000 -8.07860000
-2.80360000 -1.03360000 -8.02150000
-2.57610000 -0.94620000 -8.17430000
-1.54110000 -1.11510000 -8.38150000
-2.30040000 -0.98930000 -8.27100000
-1.77650000 -0.96010000 -8.58290000
-2.35050000 -0.90560000 -8.33410000
-2.90980000 -0.89710000 -8.14370000
-2.05760000 -0.87010000 -8.58340000
-2.65940000 -0.87400000 -8.37690000
-1.74620000 -1.04400000 -8.50830000
-1.80740000 -0.85770000 -8.97260000
-1.23160000 -0.84210000 -9.12210000
-1.93660000 -0.89450000 -8.57950000
-0.82190000 -1.71730000 -8.78090000
-1.02100000 -1.57650000 -9.23850000
-0.69620000 -1.14030000 -8.73340000
-0.98400000 -1.15870000 -8.50640000
-0.78300000 -1.09030000 -8.85460000
-1.31030000 -1.06280000 -8.65320000
-1.09280000 -1.01370000 -8.83850000
-0.25520000 -1.52590000 -9.54610000
-1.01290000 -1.50220000 -9.43120000
-0.40120000 -1.46540000 -9.65580000
-0.38840000 -1.41370000 -9.72530000
-0.82570000 -1.43030000 -9.59170000
-0.44160000 -1.36330000 -9.74660000
0.11080000 -1.41110000 -9.79570000
-0.05310000 -1.36480000 -9.80680000
0.00870000 -1.28460000 -9.84390000
-0.39360000 -1.18810000 -9.79230000
-0.10070000 -1.09400000 -9.10530000
-0.32910000 -1.04910000 -9.12430000
-0.50390000 -0.99540000 -9.11740000
-1.09660000 -0.91830000 -8.94300000
-0.72970000 -0.89020000 -9.12450000
-0.14150000 -0.95970000 -9.34700000
-0.32070000 -0.86500000 -9.36850000
-0.60250000 -0.84150000 -9.26740000
-0.39690000 -0.82750000 -9.41990000
-1.59640000 -1.58240000 -9.05580000
-1.55070000 -1.54180000 -9.18730000
-1.46280000 -1.48090000 -9.33530000
-1.39350000 -1.42210000 -9.42220000
-0.78250000 -1.35730000 -9.65100000
-1.67980000 -1.49790000 -9.23120000
-1.86230000 -1.46850000 -9.17700000
-1.68510000 -1.45130000 -9.28750000
-2.23060000 -1.34980000 -9.08350000
-1.84490000 -1.30220000 -9.27080000
-1.74190000 -1.38970000 -9.30270000
-1.52230000 -1.29720000 -9.41360000
-1.44740000 -1.20780000 -9.43290000
-1.51200000 -1.36950000 -9.40350000
-1.07730000 -1.27770000 -9.57310000
-1.84110000 -1.15500000 -9.26120000
-1.55000000 -1.01140000 -9.31770000
-1.24950000 -1.07070000 -9.47680000
-2.04870000 -0.89730000 -8.99700000
-1.57240000 -0.89060000 -9.18410000
-1.96990000 -0.95380000 -9.09570000
-1.10720000 -0.85570000 -9.31620000
-1.33180000 -0.94420000 -9.36390000
-0.72450000 -1.15090000 -9.69480000
-0.58820000 -1.27180000 -9.73310000
-0.29860000 -1.07140000 -9.80680000
-0.74240000 -1.01310000 -9.64860000
-0.48000000 -0.98130000 -9.72100000
-1.04540000 -0.85960000 -9.05500000
-0.46570000 -0.82800000 -9.49810000
-0.69050000 -0.91310000 -9.59970000
-0.20700000 -0.90560000 -9.74150000
-0.34700000 -0.85960000 -9.63720000
-0.88320000 -0.87830000 -9.47840000
-1.49660000 -0.91600000 -8.77010000
-1.47030000 -0.86130000 -8.90610000
-1.61660000 -0.88990000 -8.74250000
-2.04930000 -0.87140000 -8.93570000
-1.50740000 -1.93880000 -3.26250000
-2.21830000 -1.89200000 -3.55450000
-2.25540000 -1.90740000 -3.08440000
-1.76560000 -1.92510000 -3.35470000
-1.33840000 -1.91980000 -3.88320000
-1.84530000 -1.89830000 -3.57410000
-1.49900000 -1.88840000 -4.37070000
-0.93680000 -1.92320000 -4.70890000
-1.18480000 -1.91000000 -4.69260000
-1.24610000 -1.88090000 -5.39160000
-0.46590000 -1.31260000 -2.67180000
0.05540000 -1.26600000 -3.90970000
-0.30270000 -1.24140000 -5.02180000
-0.10790000 -1.32720000 -1.79900000
0.50400000 -1.30560000 -2.54100000
0.98060000 -1.26700000 -3.60170000
-1.59350000 -1.34090000 -2.68970000
1.79420000 -1.21250000 -4.94340000
0.91370000 -1.21550000 -4.80390000
1.61920000 -1.20040000 -5.65910000
2.58400000 -1.18730000 -5.99640000
1.05590000 -1.21320000 -5.95820000
0.43420000 -1.23110000 -6.20650000
2.53240000 -1.15810000 -6.89500000
-1.84630000 -1.87580000 -5.10670000
-2.59050000 -1.87690000 -5.06220000
-3.55340000 -1.87860000 -4.60210000
-3.21780000 -1.86790000 -5.21770000
-2.29910000 -1.32160000 -4.48970000
-3.53350000 -1.40290000 -4.75700000
-3.13880000 -1.38100000 -4.09050000
-1.33020000 -1.26730000 -4.87690000
-1.36930000 -1.26830000 -5.78020000
-3.89090000 -1.83140000 -5.24980000
-4.58810000 -1.80760000 -4.97530000
-4.79350000 -1.81510000 -5.25740000
-4.61660000 -1.80390000 -5.41300000
-4.70040000 -1.78520000 -5.18960000
-4.45620000 -1.80590000 -5.16140000
-4.86770000 -1.77740000 -5.10910000
-4.49050000 -1.78470000 -5.47330000
-4.95200000 -1.79950000 -5.16010000
-4.74680000 -1.85840000 -5.37670000
-4.71460000 -1.40490000 -5.43360000
-4.71010000 -1.33770000 -5.69400000
-4.28210000 -1.42520000 -5.38800000
-4.82690000 -1.35380000 -5.45040000
-5.02280000 -1.26570000 -5.20010000
-4.88070000 -1.27530000 -5.54590000
-4.49040000 -1.30710000 -6.07940000
3.31150000 -1.64100000 -8.41200000
4.26090000 -1.65460000 -7.70830000
3.28920000 -1.70200000 -8.06210000
3.42620000 -1.78280000 -7.01630000
3.81630000 -1.72260000 -7.52360000
2.51540000 -1.78250000 -7.88500000
3.45980000 -1.12260000 -6.99310000
3.79460000 -1.06920000 -7.29480000
3.19510000 -1.11680000 -7.05910000
2.57010000 -1.13030000 -7.61310000
4.30870000 -1.58360000 -8.06020000
4.47390000 -1.48380000 -8.36850000
3.81680000 -1.51690000 -8.64960000
4.25940000 -1.38940000 -8.79920000
5.05970000 -1.40020000 -8.24640000
