-9.67720000 1.12190000 2.48230000
-9.60910000 1.14950000 2.30350000
-9.92050000 0.83340000 2.66930000
-10.01610000 0.59400000 2.46570000
-9.99030000 0.75840000 2.38350000
-9.87210000 0.98310000 2.27360000
-10.03800000 0.63530000 2.17660000
-10.10180000 0.27260000 2.18520000
-10.08860000 0.33670000 2.04800000
-9.95450000 0.90620000 2.09120000
-10.04500000 0.73570000 1.87930000
-10.06850000 0.55580000 1.85840000
-9.28700000 1.20880000 2.27690000
-9.42710000 1.18230000 2.34740000
-9.39590000 1.21280000 2.21670000
-9.54050000 1.19680000 2.15670000
-9.68210000 1.12070000 2.18680000
-9.53790000 1.30690000 1.68620000
-9.75970000 1.10410000 1.90410000
-9.48470000 1.29160000 1.95910000
-9.87770000 1.04290000 1.52240000
-9.98180000 0.94200000 1.49260000
-10.03070000 0.83370000 1.67520000
-8.87110000 -1.85290000 2.81000000
-9.02130000 -1.85520000 1.68830000
-9.57580000 -1.82720000 2.60050000
-9.73360000 -1.73390000 3.21980000
-9.81070000 -1.64730000 3.20980000
-9.16750000 -1.83950000 2.16190000
-9.76830000 -1.79340000 2.28830000
-9.99780000 -1.30870000 3.04810000
-9.94300000 -1.55850000 2.89140000
-9.91140000 -1.65370000 2.70810000
-9.86280000 -1.74130000 2.41240000
-9.56350000 -1.81840000 1.98640000
-9.44830000 -1.85450000 1.63810000
-9.47870000 -1.86420000 0.78180000
-9.68630000 -1.85580000 1.13850000
-10.04580000 -0.88280000 2.92850000
-10.07660000 -1.21260000 2.50740000
-10.09130000 -0.84090000 2.49870000
-10.02820000 -1.55020000 2.30390000
-10.04030000 -1.42550000 2.57240000
-10.09130000 -0.96610000 2.35910000
-10.13930000 -1.14920000 2.02060000
-10.14210000 -0.86210000 2.09530000
-9.77220000 -1.79760000 1.82480000
-9.91570000 -1.73670000 1.82820000
-9.98260000 -1.68160000 1.85430000
-9.65310000 -1.84560000 1.61050000
-10.09850000 -1.42960000 1.86790000
-9.80340000 -1.81970000 1.55330000
-9.87220000 -1.82170000 0.92320000
-9.94600000 -1.75660000 1.45720000
-9.97160000 -1.77750000 0.91100000
-10.09100000 -1.49660000 1.28710000
-10.05140000 -1.58270000 1.66200000
-10.02730000 -1.72780000 0.93980000
-10.07570000 -1.62800000 1.07410000
-10.15320000 -1.19630000 1.64020000
-10.16160000 -0.47200000 2.08520000
-10.18420000 -0.18910000 1.79870000
-10.12480000 0.12770000 1.90870000
-10.19380000 -0.49990000 1.66960000
-10.16970000 -0.03030000 1.76670000
-10.20130000 -0.28160000 1.54730000
-10.17440000 -1.11940000 1.15660000
-10.12740000 -1.45980000 0.78480000
-10.12150000 -1.50110000 0.98340000
-10.20700000 -0.89220000 1.39230000
-10.20170000 -0.63890000 1.45120000
-10.23950000 -0.98150000 0.59550000
-10.19410000 -1.19590000 0.62550000
-10.19920000 -0.35790000 1.31090000
-10.24140000 -0.64120000 0.97410000
-10.25920000 -0.82580000 0.50710000
-10.01280000 0.06350000 1.20830000
-10.07610000 -0.04970000 1.34620000
-10.07100000 0.11010000 1.45640000
-10.04950000 0.17920000 1.26620000
-10.00070000 0.06660000 1.11000000
-10.01810000 0.14170000 1.09830000
-10.12370000 0.05740000 1.68160000
-10.09380000 0.30530000 1.76550000
-10.09340000 0.19330000 1.60540000
-10.09910000 0.32960000 1.60420000
-10.12390000 0.49840000 1.52470000
-10.15890000 -0.13210000 1.55640000
-10.14350000 -0.21310000 1.32580000
-10.12590000 0.32730000 1.33160000
-10.15210000 0.42770000 1.34490000
-10.08860000 0.26340000 1.15310000
-10.09960000 0.24960000 0.94360000
-10.13380000 0.62240000 1.39220000
-10.07030000 0.88870000 0.99180000
-10.12200000 0.74800000 1.14480000
-10.16410000 0.40270000 1.00700000
-10.16170000 0.63770000 1.02670000
-10.18150000 0.48140000 0.97840000
-10.05790000 -0.08160000 1.16990000
-10.05890000 -0.07030000 1.03070000
-10.16490000 -0.23030000 0.97110000
-10.04350000 0.04570000 0.90460000
-10.09680000 -0.04000000 0.84680000
-10.26580000 -0.23190000 0.30410000
-10.23000000 -0.39150000 0.88810000
-10.21410000 -0.18030000 0.62690000
-10.26550000 -0.58330000 0.29100000
-10.17440000 -0.30420000 1.18610000
-10.23380000 -0.48910000 1.02420000
-10.03950000 0.11420000 0.92730000
-10.12340000 0.05810000 0.71840000
-10.11740000 0.17600000 0.77710000
-10.17360000 0.27980000 0.71820000
-10.18890000 0.17220000 0.52530000
-10.20720000 0.02590000 0.48180000
-10.20300000 0.34310000 0.61660000
-10.22380000 0.11380000 0.26410000
-9.77430000 -1.84740000 0.18460000
-9.94400000 -1.80040000 0.23670000
-9.36060000 -1.81850000 -0.55850000
-9.53290000 -1.84930000 -0.30360000
-9.45120000 -1.77020000 -0.80600000
-9.56980000 -1.79930000 -0.51460000
-9.73520000 -1.83750000 -0.22240000
-9.56730000 -1.74010000 -0.70270000
-9.76990000 -1.66860000 -0.61440000
-9.90230000 -1.80960000 -0.12000000
-9.95130000 -1.74700000 -0.25960000
-9.99910000 -1.76300000 0.02120000
-9.83060000 -1.71470000 -0.44090000
-10.08140000 -1.65840000 -0.25570000
-10.04380000 -1.61990000 -0.50020000
-10.05830000 -1.71320000 0.43090000
-10.10790000 -1.62880000 0.59430000
-10.16390000 -1.43710000 0.39980000
-10.15290000 -1.32100000 0.60050000
-10.14540000 -1.57430000 -0.00790000
-10.10370000 -1.65460000 -0.07160000
-10.21090000 -1.31690000 0.13240000
-10.22080000 -1.23540000 -0.20260000
-9.84140000 -1.62030000 -0.79200000
-9.66300000 -1.70990000 -0.88560000
-9.57730000 -1.75900000 -1.16100000
-9.58100000 -1.77050000 -1.56030000
-9.82780000 -1.65940000 -1.20100000
-9.79790000 -1.67050000 -1.42470000
-9.83270000 -1.64760000 -0.94410000
-9.95060000 -1.59820000 -0.67810000
-10.12490000 -1.51210000 -0.59650000
-10.06470000 -1.51510000 -0.77210000
-10.15660000 -1.50890000 -0.39220000
-10.15430000 -1.38360000 -0.73990000
-9.98780000 -1.55160000 -0.87120000
-10.03580000 -1.52740000 -1.07940000
-10.09360000 -1.45880000 -0.91450000
-10.15330000 -1.35700000 -0.91900000
-10.20310000 -1.24850000 -1.10780000
-10.21700000 -1.20370000 -0.74760000
-10.23200000 -0.94690000 -1.15730000
-10.26230000 -0.92630000 -0.66520000
-10.00860000 -1.57300000 -1.44990000
-10.11170000 -1.48000000 -1.21390000
-10.17040000 -1.40200000 -1.25800000
-10.21790000 -1.19750000 -1.46060000
-10.18570000 -1.42470000 -1.77360000
-10.20380000 -1.32080000 -1.78630000
-10.25700000 -0.88790000 0.09070000
-10.25380000 -1.06160000 0.12340000
-10.23010000 -0.65230000 -0.05340000
-10.23920000 -0.53860000 0.06100000
-10.26000000 -0.90930000 -0.22580000
-10.24380000 -0.70190000 -0.22690000
-10.26530000 -0.32280000 -0.07190000
-10.24400000 -0.40310000 -0.13410000
-10.24010000 -0.48310000 -0.35780000
-10.27090000 -0.60790000 -0.61800000
-4.22340000 -1.68080000 -4.15330000
-6.73320000 -1.74910000 -3.77020000
-8.98960000 -1.80890000 -2.61500000
-9.51910000 -1.76990000 -1.91630000
-9.22370000 -1.80140000 -2.76610000
-9.61740000 -1.78110000 -2.27630000
-9.71230000 -1.72500000 -1.55380000
-9.80760000 -1.69330000 -1.76060000
-9.94720000 -1.65160000 -1.78250000
-9.88510000 -1.68220000 -2.03770000
-9.98590000 -1.64980000 -2.27510000
-9.83710000 -1.70600000 -2.28060000
-10.08960000 -1.57310000 -1.71230000
-10.16100000 -1.48790000 -1.60580000
-10.12950000 -1.54080000 -1.98480000
2.56200000 1.87570000 -0.75710000
2.43030000 1.93990000 -0.61920000
2.28700000 1.99010000 -0.57410000
2.65520000 1.86170000 -1.12050000
2.41670000 1.95040000 -1.05420000
2.37940000 1.93120000 -1.44410000
2.12550000 1.95300000 -1.59380000
2.47080000 1.86420000 -1.79950000
2.11800000 1.99620000 -1.21870000
0.83770000 2.00160000 -2.84480000
1.71250000 1.99770000 -1.88720000
2.22540000 1.88330000 -2.11510000
2.29450000 1.87700000 -2.32020000
2.08110000 1.92000000 -1.88360000
1.98700000 1.93860000 -2.11770000
2.07820000 1.92740000 -2.40410000
1.83960000 1.98300000 -2.18650000
2.07210000 1.96520000 -2.64080000
1.80690000 2.00320000 -2.61500000
-0.69910000 1.93380000 -1.66950000
-0.26200000 1.95310000 -2.27090000
-0.06720000 1.98060000 -3.12290000
-0.95230000 1.92960000 -2.36110000
-1.31230000 1.91380000 -1.75020000
1.85280000 2.02050000 -3.44970000
1.59210000 2.01750000 -4.11440000
1.76980000 1.97700000 -4.26610000
1.31300000 2.02720000 -4.17300000
1.25040000 1.98580000 -4.55960000
0.92110000 2.02220000 -4.51950000
1.14630000 1.99390000 -4.79550000
1.44670000 1.92350000 -5.18730000
1.29790000 1.95300000 -5.08030000
1.25410000 1.90650000 -5.40110000
1.10900000 1.95900000 -5.33700000
0.95620000 2.02140000 -5.06410000
0.72600000 2.03570000 -5.14060000
0.80290000 2.01460000 -5.41270000
0.06040000 2.00910000 -4.49890000
-0.20220000 2.01810000 -5.78010000
0.95240000 1.89070000 -5.59980000
0.72370000 1.95610000 -5.63220000
0.89400000 1.82410000 -5.79610000
1.03640000 1.71190000 -6.22420000
0.91240000 1.76860000 -6.06050000
0.90360000 1.71520000 -6.36960000
0.34610000 2.03900000 -5.68140000
0.29200000 2.01860000 -5.81160000
0.76850000 1.76710000 -6.27520000
0.49260000 1.85010000 -6.08380000
0.48390000 1.90280000 -5.90280000
0.60090000 1.79840000 -6.25090000
0.23110000 1.94500000 -6.04140000
0.39540000 1.84390000 -6.40960000
0.91050000 1.65810000 -6.72810000
0.98420000 1.68340000 -6.59070000
0.71220000 1.75430000 -6.58690000
-0.40480000 2.01600000 -6.21410000
-0.47460000 1.98140000 -4.14090000
-0.60480000 1.96080000 -3.24040000
-1.24390000 1.95660000 -4.14430000
-0.98280000 1.93760000 -3.16190000
-1.36540000 1.93190000 -3.20080000
-1.58880000 1.91800000 -3.17800000
-1.72480000 1.93220000 -4.02300000
-1.93340000 1.91400000 -3.14140000
-1.93570000 1.94140000 -4.28520000
-2.13030000 1.94240000 -4.78360000
-2.45470000 1.91580000 -4.08510000
-2.56760000 1.96210000 -6.29630000
-1.91340000 1.88370000 -1.00810000
-2.36230000 1.87220000 -1.52190000
-1.62600000 1.90210000 -1.90790000
-2.08900000 1.89280000 -2.43210000
-3.96500000 1.82460000 -1.16590000
-4.52170000 1.80250000 0.30590000
-4.82910000 1.79240000 0.67520000
-4.79110000 1.80380000 -0.54700000
-5.08970000 1.78960000 0.07670000
-4.66080000 1.80540000 -0.96670000
-4.93080000 1.81170000 -0.88020000
-2.57140000 1.87660000 -2.42330000
-5.24290000 1.78750000 -0.65590000
-5.04230000 1.79740000 -1.13470000
-5.98460000 1.82160000 -3.09210000
-2.35180000 1.88240000 -2.85670000
-2.10390000 1.91330000 -3.69930000
-4.23110000 1.86690000 -3.60740000
0.66130000 1.74360000 -6.72220000
0.55340000 1.71180000 -6.86510000
0.45120000 1.41520000 -7.21880000
0.25340000 1.83510000 -6.72050000
0.09100000 1.90800000 -6.39980000
0.40700000 1.66270000 -7.03710000
0.23050000 1.75350000 -6.94410000
0.24090000 1.56180000 -7.22550000
-0.14540000 1.66260000 -7.23410000
-0.10690000 2.00580000 -6.17710000
-0.19130000 1.91270000 -6.67170000
-0.06440000 1.80450000 -6.92660000
-0.24430000 1.76760000 -7.09470000
-0.33130000 1.84360000 -6.96010000
-0.36800000 2.00470000 -6.38810000
-0.76270000 1.96080000 -6.73900000
-0.63560000 1.86840000 -6.95780000
-1.28200000 1.97300000 -6.77190000
-0.48100000 1.75490000 -7.21140000
-0.81790000 1.74360000 -7.27790000
-0.84720000 1.88770000 -6.98770000
-1.16340000 1.79880000 -7.26750000
-1.24830000 1.87770000 -7.06710000
-1.67700000 1.98660000 -6.65900000
-1.61340000 1.90310000 -7.00010000
-1.90670000 1.89680000 -7.08310000
-2.30190000 1.96230000 -6.91730000
-5.64590000 1.87790000 -6.18150000
-4.96140000 1.79000000 1.12100000
-5.30980000 1.79700000 0.83700000
-5.34020000 1.77930000 0.61920000
-5.36140000 1.78120000 1.12680000
-5.66580000 1.79450000 0.61880000
-5.10040000 1.77450000 0.42990000
-4.93820000 1.80090000 0.28380000
-5.34270000 1.77550000 0.37310000
-5.48400000 1.78950000 0.25470000
-5.45910000 1.78340000 -0.10810000
-5.91170000 1.77920000 0.56000000
-5.92730000 1.76770000 0.05380000
-6.24090000 1.77810000 1.09450000
-6.48950000 1.77810000 0.61230000
-6.13850000 1.76070000 0.48220000
-7.17860000 1.74340000 0.01680000
-6.67220000 1.75870000 0.34550000
-7.67790000 1.74920000 0.65450000
-7.70760000 1.75640000 -0.58230000
-7.45300000 1.73940000 1.42210000
-7.39500000 1.75640000 0.45430000
-7.59330000 1.73790000 0.19020000
-8.14560000 1.71910000 1.50760000
-8.67940000 1.71730000 0.91270000
-7.89370000 1.79340000 -3.19480000
-8.70740000 1.72440000 0.03470000
-8.71450000 1.73820000 -0.83240000
-8.94010000 1.67820000 0.12340000
-8.88780000 1.70480000 -0.41030000
-9.02240000 1.68250000 -0.97380000
-9.22760000 1.59070000 -0.31160000
-8.93350000 1.74080000 -1.78550000
-9.25550000 1.59300000 -0.87790000
-9.12130000 1.71610000 -1.91090000
-9.33580000 1.60270000 -1.50230000
-9.30090000 1.66780000 -2.09700000
-9.45750000 1.56510000 -1.91440000
-8.73470000 1.76870000 -2.76780000
-8.99530000 1.75070000 -2.85950000
-9.53600000 1.52600000 -2.29910000
-9.61270000 1.43800000 -2.18640000
-9.40290000 1.63200000 -2.47950000
-9.24410000 1.70020000 -2.61320000
-9.55370000 1.52560000 -2.71930000
-8.16610000 1.80090000 -4.56800000
-8.77180000 1.76650000 -3.63450000
-8.72980000 1.72350000 -4.26480000
-8.37590000 1.78500000 -4.61560000
-8.96130000 1.71240000 -3.80680000
-8.95690000 1.64550000 -4.23610000
-9.13150000 1.71320000 -3.10390000
-9.33140000 1.64920000 -2.94950000
-9.47550000 1.55530000 -3.00700000
-9.16210000 1.67300000 -3.37390000
-9.63020000 1.41230000 -3.19180000
-9.35380000 1.55680000 -3.38510000
-9.47980000 1.44730000 -3.65380000
-9.71620000 1.37640000 -2.89950000
-9.67410000 1.30200000 -3.58340000
-9.83940000 1.20420000 -3.03990000
-9.83840000 1.03170000 -3.64240000
-9.93560000 1.03730000 -3.05060000
-9.74260000 1.14570000 -3.79790000
-9.17650000 1.61460000 -3.85130000
-9.31270000 1.44040000 -4.30260000
-9.11290000 1.56380000 -4.31510000
-9.52190000 1.31050000 -4.11770000
-8.93020000 1.58980000 1.65180000
-8.81700000 1.64620000 1.46530000
-8.77860000 1.69550000 1.19770000
-9.27860000 1.49430000 1.52130000
-9.40950000 1.47430000 1.22050000
-9.07000000 1.62220000 1.20500000
-9.25720000 1.55540000 1.17720000
-9.62500000 1.31080000 1.22450000
-8.93980000 1.67780000 0.88840000
-9.11920000 1.63680000 0.58060000
-8.94230000 1.69800000 0.51220000
-9.38400000 1.50420000 0.58040000
-9.33260000 1.54460000 0.78720000
-9.55780000 1.41110000 0.84680000
-9.69580000 1.31520000 0.61020000
-9.48330000 1.42530000 0.44660000
-9.59800000 1.36850000 0.30730000
-9.82300000 1.25260000 0.38080000
-9.70920000 1.33980000 0.06590000
-9.84990000 1.24720000 -0.03710000
-9.99730000 1.03110000 0.72440000
-9.86240000 1.13680000 0.80580000
-10.16120000 0.72650000 0.71010000
-10.18750000 0.68850000 0.39260000
-10.19510000 0.54550000 0.69250000
-10.14030000 0.84130000 0.50160000
-9.81030000 1.22430000 0.64850000
-10.03020000 1.07750000 0.22590000
-10.09920000 0.98770000 -0.03020000
-9.96080000 1.15580000 0.32600000
-9.96680000 1.16600000 -0.03880000
-10.22960000 0.34970000 0.14230000
-10.22930000 0.53210000 0.03220000
-10.26560000 0.09420000 -0.17490000
-10.16610000 0.86240000 -0.14890000
-10.21230000 0.62890000 -0.21270000
-10.24200000 0.43870000 -0.58090000
-10.19000000 0.77860000 -0.52580000
-9.24950000 1.56620000 0.23230000
-9.52940000 1.44900000 0.03600000
-9.64830000 1.40270000 -0.37680000
-9.47360000 1.50010000 -0.36900000
-9.93760000 1.21490000 -1.24740000
-9.85030000 1.26050000 -0.80850000
-9.56300000 1.42530000 -0.86440000
-9.36420000 1.53610000 -1.11950000
-9.55190000 1.40930000 -1.17840000
-9.71240000 1.33880000 -1.43990000
-9.46570000 1.50490000 -1.40560000
-10.03190000 1.11730000 -0.65900000
-10.08310000 1.00430000 -1.74540000
-10.12380000 0.97540000 -0.69010000
-9.83130000 1.28980000 -1.70370000
-10.15630000 0.89350000 -1.09260000
-10.27190000 -0.51280000 -0.89130000
-10.23650000 -0.59460000 -1.28290000
-10.24380000 -0.19340000 -1.05030000
-10.22510000 -0.63670000 -1.79740000
-10.22000000 -0.42970000 -1.91900000
-10.18890000 -0.97810000 -1.59220000
-10.16770000 -0.89360000 -1.82180000
-10.21710000 -0.78070000 -1.51660000
-10.21040000 -0.33210000 -1.48340000
-10.18120000 -0.10510000 -1.54010000
-10.21820000 0.02020000 -1.12890000
-10.19250000 0.05940000 -1.35820000
-10.20940000 -0.22530000 -1.76980000
-10.18720000 -0.81660000 -2.02040000
-10.26800000 -0.13940000 -0.45520000
-10.25140000 0.01370000 -0.57250000
-10.26330000 -0.34600000 -0.58500000
-10.26050000 0.23970000 -0.73970000
-10.24410000 0.19640000 -0.98650000
-10.15950000 0.86210000 -1.55780000
-10.19040000 0.75220000 -1.27230000
-10.21340000 0.54950000 -1.12750000
-10.21050000 0.33630000 -1.40000000
-10.19800000 0.47730000 -1.64580000
-9.99710000 1.15400000 -1.52470000
-10.12980000 0.80830000 -2.09820000
-10.15810000 0.61270000 -1.99370000
-10.18410000 -0.02410000 -1.72580000
-10.17370000 0.24250000 -1.89070000
-10.18050000 0.00780000 -2.06630000
-10.18700000 -0.06600000 -2.51650000
-10.13600000 0.43380000 -2.46700000
-10.15030000 0.19810000 -2.55070000
-9.61370000 1.40910000 -1.63780000
-9.58290000 1.45190000 -1.63550000
-9.71380000 1.35720000 -1.99520000
-9.54560000 1.48830000 -1.90630000
-9.87150000 1.25330000 -2.32970000
-9.96160000 1.14120000 -2.36580000
-10.04870000 0.97190000 -2.42750000
-9.78450000 1.32490000 -2.33470000
-10.05520000 0.82920000 -2.76690000
-10.08660000 0.57780000 -2.84510000
-10.08620000 0.43970000 -2.86510000
-10.10150000 0.35550000 -2.73730000
-10.03970000 0.65740000 -3.16200000
-9.94750000 0.86390000 -3.38300000
-8.55460000 1.75470000 -4.56260000
-8.91020000 1.56690000 -4.68330000
0.69430000 -1.69210000 -5.70760000
0.28450000 -1.70010000 -6.44510000
-0.21680000 -1.71930000 -6.60920000
-0.44770000 -1.67970000 -5.33020000
0.86210000 -1.62620000 -6.41980000
0.49060000 -1.67280000 -6.47940000
0.80760000 -1.48470000 -6.75550000
0.54230000 -1.59020000 -6.68530000
0.09590000 -1.66330000 -6.75920000
0.69720000 -1.47750000 -6.92080000
0.36130000 -1.55830000 -6.98610000
0.66910000 -1.44370000 -7.16370000
0.51220000 -1.41660000 -7.40220000
0.35210000 -1.49160000 -7.34420000
0.45370000 -1.37700000 -7.49910000
-0.10330000 -1.63510000 -7.19860000
-0.27650000 -1.70460000 -6.94710000
-1.34960000 -1.74250000 -7.05820000
0.03820000 -1.50080000 -7.57160000
-0.22920000 -1.60830000 -7.46420000
-0.58740000 -1.72590000 -7.23720000
-0.53680000 -1.69510000 -7.43930000
-0.89910000 -1.74350000 -7.20310000
-0.76400000 -1.71550000 -7.51210000
-1.20440000 -1.74260000 -7.45470000
-2.45030000 -1.68190000 -5.39410000
-2.45950000 -1.73030000 -6.61210000
-1.95490000 -1.75280000 -7.51330000
0.85060000 0.07190000 -7.26450000
0.84380000 -0.05250000 -7.29600000
0.63500000 -1.14810000 -7.51870000
0.43840000 -1.31900000 -7.56930000
0.40610000 -1.25660000 -7.62200000
0.68200000 -0.95070000 -7.48230000
0.52450000 -0.73250000 -7.52010000
0.67890000 -0.66570000 -7.48560000
0.38150000 -0.84740000 -7.60260000
0.28470000 -0.93100000 -7.67870000
0.42470000 -1.14550000 -7.62810000
0.69900000 -0.39630000 -7.48470000
0.81040000 -0.23300000 -7.39970000
0.59260000 -0.10300000 -7.48330000
0.54880000 -0.33210000 -7.52370000
0.49300000 -0.49080000 -7.52440000
0.38200000 -0.56420000 -7.54400000
0.29950000 -0.40780000 -7.60720000
0.19860000 -0.65620000 -7.65000000
0.15970000 -0.48970000 -7.65440000
0.01860000 -0.59650000 -7.75170000
0.00790000 -0.90340000 -7.79900000
-0.13920000 -0.63790000 -7.82590000
0.67760000 0.03970000 -7.39630000
0.78680000 0.30910000 -7.36480000
0.65120000 0.21040000 -7.42190000
0.69800000 0.46060000 -7.43010000
0.47660000 0.19230000 -7.53580000
0.77580000 1.00430000 -7.24590000
0.36700000 0.83910000 -7.47980000
0.35220000 1.15120000 -7.39360000
0.52660000 0.46720000 -7.50760000
0.32150000 0.11470000 -7.61600000
0.25970000 0.41430000 -7.60730000
0.15580000 0.67300000 -7.61560000
-0.03370000 0.54600000 -7.69890000
-0.37570000 0.56180000 -7.81410000
-0.11490000 0.88170000 -7.65560000
0.38800000 -0.17660000 -7.59710000
0.24190000 -0.26740000 -7.67310000
0.15760000 -0.17700000 -7.70950000
0.19480000 0.17960000 -7.63490000
0.07690000 -0.06860000 -7.71200000
-0.15210000 0.06780000 -7.73100000
0.03440000 -0.38710000 -7.72500000
-0.18090000 -0.23180000 -7.78850000
-0.24010000 -0.40530000 -7.82070000
0.08910000 0.26970000 -7.63390000
-0.05610000 0.43200000 -7.69780000
-0.10040000 0.30860000 -7.68660000
-0.30080000 0.45620000 -7.80450000
-0.34510000 -0.60820000 -7.87950000
-0.46840000 -0.47410000 -7.92240000
-0.48140000 -0.17830000 -7.89190000
-0.70660000 -0.54250000 -7.98020000
-0.58670000 0.09340000 -7.92020000
-0.29480000 0.11070000 -7.77550000
-0.27560000 0.31840000 -7.77150000
-0.41730000 0.16890000 -7.84930000
-0.75390000 0.38050000 -7.93360000
-1.06110000 -0.15800000 -8.02490000
-1.32230000 0.04460000 -8.05790000
-1.18410000 0.31690000 -8.01120000
0.19050000 -1.36660000 -7.66800000
-0.08930000 -1.43940000 -7.71610000
0.10290000 -1.30670000 -7.74010000
-0.00490000 -1.16220000 -7.80310000
-0.39180000 -1.39650000 -7.85090000
-0.38840000 -1.25240000 -7.89170000
-0.30290000 -1.06140000 -7.89230000
-0.34480000 -0.85640000 -7.89940000
-0.45300000 -1.60230000 -7.66480000
-0.49570000 -1.47460000 -7.82060000
-0.92760000 -1.52770000 -7.86970000
-0.88970000 -1.64140000 -7.71140000
-0.77530000 -1.36270000 -7.95110000
-1.19170000 -1.69940000 -7.64820000
-1.54340000 -1.70000000 -7.67480000
-1.11430000 -1.42050000 -7.99020000
-1.54020000 -1.60790000 -7.86750000
-1.50760000 -1.51320000 -7.96840000
-0.62960000 -1.03880000 -7.93820000
-0.78790000 -1.21560000 -7.97740000
-0.51400000 -0.68250000 -7.93220000
-0.59330000 -0.89540000 -7.92420000
-0.96030000 -0.73800000 -8.01090000
-0.98380000 -1.33530000 -8.01160000
-1.33620000 -1.13310000 -8.07980000
-1.40500000 -1.27730000 -8.07530000
-1.49370000 -1.38770000 -8.04030000
-1.16910000 -0.95310000 -8.05180000
-1.22160000 -0.74570000 -8.03760000
-1.22660000 -0.59550000 -8.03560000
-1.12730000 -0.38820000 -8.05140000
-1.73290000 -1.66950000 -7.72530000
-1.97950000 -1.70460000 -7.67670000
-1.77590000 -1.59140000 -7.88580000
-2.10300000 -1.37700000 -8.10300000
-1.77090000 -1.13890000 -8.12370000
-2.38350000 -1.74400000 -7.67960000
-2.04830000 -1.63580000 -7.86350000
-1.93320000 -1.55320000 -7.97690000
-1.92860000 -1.47170000 -8.04890000
-2.51940000 -1.62400000 -7.92230000
-2.49150000 -1.54420000 -8.01960000
-2.44470000 -1.46290000 -8.08370000
-2.45730000 -1.28950000 -8.14570000
-2.45940000 -1.08700000 -8.16190000
-2.61610000 -1.77200000 -7.56380000
-3.44620000 -1.77780000 -7.35650000
-2.61310000 -1.70620000 -7.81040000
-2.94980000 -1.75280000 -7.71060000
-3.15190000 -1.66370000 -7.91130000
-2.88770000 -1.44700000 -8.12010000
-3.22340000 -1.58030000 -8.02510000
-3.78210000 -1.70660000 -7.82460000
-3.11110000 -1.37930000 -8.14580000
-3.55940000 -1.50610000 -8.07740000
-3.49250000 -1.38010000 -8.11230000
-1.49840000 -0.54900000 -8.07710000
-1.67630000 -0.57240000 -8.08090000
-1.87090000 -0.45860000 -8.08220000
-1.72140000 -0.78380000 -8.12350000
-2.01740000 -0.96530000 -8.14930000
-2.11830000 -0.70390000 -8.14880000
-2.62840000 -0.72570000 -8.16410000
-2.42000000 -0.56250000 -8.13400000
-1.65530000 -0.20860000 -8.11510000
-1.75150000 -0.31030000 -8.10490000
-1.84990000 0.01110000 -8.12610000
-2.03890000 -0.35560000 -8.09260000
-2.14190000 -0.26900000 -8.13500000
-2.11610000 -0.15050000 -8.15550000
-2.51360000 -0.30570000 -8.16820000
-2.55480000 -0.01550000 -8.15890000
-2.35060000 -0.42590000 -8.12450000
-2.67870000 -0.90370000 -8.18390000
-2.79260000 -0.56460000 -8.16680000
-2.92490000 -0.40520000 -8.17560000
-3.10460000 -0.14380000 -8.13540000
-3.28800000 -0.35750000 -8.13550000
-3.46810000 -0.59860000 -8.16310000
-2.90540000 -1.12220000 -8.18080000
-3.22560000 -1.23650000 -8.16220000
-3.32890000 -0.96550000 -8.16480000
-3.52980000 -1.14370000 -8.11460000
-3.12910000 -0.82910000 -8.18440000
-5.40150000 -1.75300000 -5.85210000
-4.34430000 -1.75450000 -6.50120000
-6.85720000 -1.78000000 -5.26450000
-3.52990000 -1.75670000 -7.62500000
-4.05860000 -1.79140000 -7.42880000
-3.94410000 -1.76140000 -7.64410000
-3.82840000 -1.62790000 -7.96690000
-3.67340000 -1.57830000 -8.02840000
-4.24680000 -1.68140000 -7.85510000
-4.54640000 -1.74210000 -7.68390000
-4.15360000 -1.54010000 -8.03030000
-4.52090000 -1.44010000 -8.06120000
-4.45670000 -1.60930000 -7.92600000
-4.45780000 -1.77940000 -7.55580000
-5.09210000 -1.77520000 -7.46500000
-5.26520000 -1.79670000 -7.31370000
-5.47960000 -1.80060000 -7.00010000
-4.80060000 -1.62950000 -7.86240000
-4.98870000 -1.71210000 -7.67180000
-4.84760000 -1.50240000 -7.99130000
-5.21890000 -1.62110000 -7.77430000
-5.26650000 -1.50840000 -7.90920000
-3.58060000 -0.33800000 -8.12600000
-3.48740000 -0.06530000 -8.08550000
-3.71760000 -0.19140000 -8.10230000
-3.81030000 -1.14590000 -8.12020000
-3.58690000 -0.86800000 -8.12800000
-3.78670000 -0.89880000 -8.11750000
-4.04510000 -1.01940000 -8.12270000
-4.12300000 -1.36190000 -8.10510000
-3.97790000 -1.17570000 -8.13930000
-4.16640000 -0.77830000 -8.07250000
-4.51090000 -1.15230000 -8.11120000
-4.34600000 -0.88230000 -8.08310000
-3.64230000 -0.75010000 -8.14700000
-3.82120000 -0.64380000 -8.12970000
-3.86440000 -0.34910000 -8.13260000
-3.98290000 -0.62580000 -8.09540000
-4.28140000 -0.57010000 -8.05160000
-4.08640000 -0.41730000 -8.10820000
-4.92830000 -1.26140000 -8.07770000
-4.98630000 -0.97620000 -8.07030000
-5.05640000 -1.35250000 -8.05030000
-5.14520000 -1.41360000 -8.00810000
-5.31910000 -1.39560000 -7.97240000
-5.39020000 -0.94280000 -8.03830000
-5.49590000 -1.23100000 -8.00450000
-4.63830000 -0.70600000 -8.04150000
-4.83600000 -0.58170000 -8.06770000
-5.07620000 -0.79670000 -8.03930000
-4.46080000 -0.41280000 -8.07820000
-5.21030000 -0.62040000 -8.04640000
-5.21260000 -0.43020000 -8.06360000
-5.99710000 -1.80920000 -7.05140000
-6.01580000 -1.79180000 -7.25580000
-5.71050000 -1.71540000 -7.56620000
-5.89080000 -1.75490000 -7.42910000
-5.64300000 -1.66020000 -7.66980000
-5.77190000 -1.50040000 -7.83140000
-6.14120000 -1.59880000 -7.66220000
-6.28920000 -1.64920000 -7.53360000
-6.43130000 -1.80320000 -6.94240000
-6.28540000 -1.74160000 -7.27200000
-6.56020000 -1.73840000 -7.11490000
-6.69650000 -1.79470000 -6.89910000
-7.06610000 -1.82340000 -6.47030000
-7.08450000 -1.82160000 -6.65630000
-6.97440000 -1.74680000 -6.98790000
-6.51650000 -1.65240000 -7.34250000
-6.67970000 -1.57380000 -7.40070000
-6.55300000 -1.50460000 -7.61510000
-6.93250000 -1.65420000 -7.18090000
-6.96610000 -1.58350000 -7.34420000
-5.89660000 -1.34540000 -7.90260000
-6.09610000 -1.43200000 -7.82710000
-6.39550000 -1.47970000 -7.71470000
-6.03600000 -1.20840000 -7.90680000
-6.35040000 -1.34750000 -7.79970000
-5.81340000 -0.94830000 -7.96700000
-6.23270000 -1.03460000 -7.86090000
-5.39770000 -0.69570000 -8.02560000
-5.71980000 -0.61040000 -7.99000000
-6.13550000 -0.68630000 -7.88620000
-5.82570000 -0.42870000 -7.94460000
-6.47480000 -0.63280000 -7.78400000
-6.33690000 -0.44160000 -7.80200000
-6.47030000 -0.97860000 -7.77520000
-6.86110000 -1.47520000 -7.53200000
-6.78740000 -1.42670000 -7.61570000
-6.62980000 -1.27020000 -7.73140000
-6.60980000 -1.37830000 -7.71560000
-6.85720000 -1.21730000 -7.63860000
-7.07210000 -1.36580000 -7.53600000
-7.11470000 -1.57420000 -7.35450000
-7.13670000 -1.50890000 -7.43970000
-7.32230000 -1.45410000 -7.40530000
-6.59360000 -0.86970000 -7.73680000
-6.99060000 -0.99970000 -7.60650000
-7.13130000 -1.16000000 -7.51530000
-7.27580000 -1.08870000 -7.47650000
-6.82580000 -0.66350000 -7.67600000
-6.70660000 -0.45550000 -7.69180000
-6.89980000 -0.49530000 -7.65830000
-6.87870000 -0.86350000 -7.66620000
-7.08590000 -0.77290000 -7.60380000
-7.07830000 -0.45940000 -7.60350000
0.04650000 1.31900000 -7.45000000
0.21490000 1.41680000 -7.34350000
-0.12060000 1.53360000 -7.38830000
-0.04580000 1.09350000 -7.57950000
-0.31850000 1.42320000 -7.52420000
-0.51830000 1.25800000 -7.66880000
-0.55380000 1.10950000 -7.73940000
-0.57620000 0.81590000 -7.82110000
-0.47210000 1.59020000 -7.41580000
-0.67000000 1.39060000 -7.62360000
-0.75840000 1.67790000 -7.36880000
-0.77860000 1.46810000 -7.56440000
-0.98480000 1.47090000 -7.60940000
-1.22000000 1.21440000 -7.83800000
-0.93360000 1.00920000 -7.85540000
-1.04290000 1.32970000 -7.74080000
-1.22680000 1.59740000 -7.57340000
-1.06500000 0.71610000 -7.93300000
-1.52990000 1.04570000 -7.93480000
-1.38190000 1.71720000 -7.45650000
-1.83810000 1.81630000 -7.29900000
-1.90170000 1.75030000 -7.46000000
-1.39090000 1.41360000 -7.76840000
-1.53610000 1.58900000 -7.64560000
-1.83840000 1.46270000 -7.79710000
-1.88380000 1.62160000 -7.65750000
-2.13040000 1.51070000 -7.79530000
-1.63850000 0.45740000 -8.04450000
-1.61910000 0.81170000 -7.98170000
-2.25670000 0.56420000 -8.07020000
-1.97800000 0.82340000 -8.02400000
-2.04800000 0.25510000 -8.11520000
-1.74430000 1.26780000 -7.88750000
-2.41420000 1.00310000 -8.01720000
-2.24500000 1.27800000 -7.93200000
-2.41010000 1.39210000 -7.89280000
-2.28040000 1.87090000 -7.16750000
-2.56260000 1.91030000 -7.11430000
-2.84580000 1.95320000 -6.90780000
-3.01240000 0.81740000 -8.06480000
-2.89390000 1.09560000 -8.01240000
-3.47300000 0.85100000 -8.03420000
-3.42030000 1.14400000 -7.99180000
-2.25070000 1.63140000 -7.65920000
-2.52540000 1.72040000 -7.52920000
-2.64930000 1.84800000 -7.27850000
-2.88070000 1.59750000 -7.69260000
-3.36530000 1.90120000 -7.08620000
-2.85370000 1.82550000 -7.30880000
-3.01390000 1.74750000 -7.43540000
-2.75590000 1.49520000 -7.81890000
-3.23160000 1.38550000 -7.90750000
-3.08360000 1.28250000 -7.95790000
-3.26120000 1.65250000 -7.60170000
-2.62180000 0.34560000 -8.12560000
-3.17120000 0.08100000 -8.12610000
-3.26850000 0.30920000 -8.12710000
-3.52850000 0.15790000 -8.10310000
-3.46180000 0.60270000 -8.09380000
-4.11780000 1.92200000 -6.65030000
-3.87220000 1.91110000 -6.92320000
-4.58310000 1.88670000 -6.78650000
-3.54660000 1.71810000 -7.49290000
-3.47300000 1.84110000 -7.24520000
-4.13500000 1.84460000 -7.11540000
-4.42370000 1.70290000 -7.36120000
-3.58500000 1.44350000 -7.85440000
-3.55240000 1.57100000 -7.71650000
-3.79250000 1.58880000 -7.66470000
-3.85350000 1.27540000 -7.94130000
-3.76240000 0.83020000 -8.03970000
-4.15530000 1.64130000 -7.53890000
-4.26590000 1.49300000 -7.74020000
-4.01570000 1.41030000 -7.85230000
-4.22990000 1.08660000 -7.98480000
-4.23630000 0.72320000 -8.04530000
-4.41830000 1.23310000 -7.92420000
-4.44900000 1.32900000 -7.86980000
-4.68630000 1.76990000 -7.15450000
-5.01470000 1.81700000 -6.81320000
-4.78140000 1.52850000 -7.59750000
-4.56450000 1.41790000 -7.78720000
-4.54650000 1.49020000 -7.71570000
-5.19170000 1.72340000 -7.00950000
-4.97210000 1.65220000 -7.31490000
-4.92300000 1.42160000 -7.70230000
-4.97740000 1.34280000 -7.76550000
-4.89460000 1.25560000 -7.84250000
-5.06920000 1.49220000 -7.57370000
-5.08060000 1.58400000 -7.38200000
-5.24750000 1.20750000 -7.79250000
-3.92280000 0.44640000 -8.09750000
-3.95580000 0.22020000 -8.10310000
-3.75240000 -0.05590000 -8.08780000
-3.92510000 0.01320000 -8.10520000
-4.49540000 -0.29240000 -8.10730000
-4.56670000 -0.07270000 -8.09680000
-4.44920000 0.36790000 -8.06770000
-4.73660000 0.08960000 -8.05690000
-4.76260000 0.35480000 -8.03610000
-5.04330000 0.11420000 -8.05290000
-4.61690000 0.67600000 -8.01780000
-4.86030000 0.56880000 -8.02150000
-5.05750000 0.99090000 -7.92090000
-5.23660000 0.59230000 -7.97300000
-5.25510000 0.27100000 -8.01970000
-5.23470000 -0.14540000 -8.05330000
-4.65050000 1.04220000 -7.96370000
-5.33810000 1.86100000 -6.56210000
-5.97500000 1.86290000 -6.38330000
-7.00570000 1.83740000 -6.01650000
-5.52690000 1.74760000 -6.79010000
-6.23830000 1.73600000 -6.74140000
-6.27530000 1.81300000 -6.55190000
-5.89690000 1.75880000 -6.70570000
-5.18680000 1.51250000 -7.42090000
-5.35720000 1.53530000 -7.23270000
-5.35410000 1.64630000 -7.07670000
-5.35170000 1.45260000 -7.44140000
-5.50700000 1.50880000 -7.21520000
-5.53840000 1.43650000 -7.41710000
-5.21770000 1.44730000 -7.56300000
-5.61280000 1.34010000 -7.59070000
-5.48570000 1.39370000 -7.55430000
-5.63670000 1.18700000 -7.68770000
-5.62640000 1.60760000 -7.04020000
-5.70560000 1.49790000 -7.27320000
-5.86520000 1.66340000 -6.90110000
-5.87450000 1.57790000 -7.13220000
-5.74360000 1.42000000 -7.45730000
-5.92910000 1.33990000 -7.49750000
-6.04030000 1.16660000 -7.59320000
-6.00140000 1.53540000 -7.23040000
-6.13200000 1.46590000 -7.28890000
-6.76550000 1.82100000 -6.35240000
-6.18400000 1.63630000 -6.99750000
-6.51000000 1.61060000 -6.99050000
-6.35580000 1.55140000 -7.13020000
-6.16230000 1.30060000 -7.44760000
-6.44540000 1.32970000 -7.35030000
-6.56670000 1.47840000 -7.16250000
-6.70350000 1.75450000 -6.60310000
-7.18930000 1.64310000 -6.65450000
-6.82630000 1.54000000 -6.98720000
-6.73580000 1.36230000 -7.23250000
-6.96420000 1.36440000 -7.16300000
-5.63980000 0.21170000 -7.96890000
-5.62550000 0.51720000 -7.90360000
-5.58990000 -0.18700000 -8.00190000
-5.99460000 0.20200000 -7.89220000
-5.57590000 0.76360000 -7.87850000
-5.94930000 0.56850000 -7.82410000
-6.29810000 0.22700000 -7.81620000
-6.23920000 0.79620000 -7.71240000
-6.36520000 0.54080000 -7.71720000
-5.99670000 -0.25360000 -7.90920000
-6.31240000 -0.32260000 -7.81730000
-5.97210000 -0.06680000 -7.92420000
-6.38320000 -0.15910000 -7.82530000
-6.76760000 0.26580000 -7.66620000
-6.65750000 0.52520000 -7.64480000
-6.97130000 0.57970000 -7.53710000
-7.04990000 0.08610000 -7.58250000
-6.82170000 0.86350000 -7.51870000
-7.05650000 0.87890000 -7.42180000
-7.29510000 0.63530000 -7.37140000
-6.75780000 -0.27870000 -7.70560000
-6.45030000 -0.02870000 -7.80540000
-6.83480000 -0.05130000 -7.67900000
-7.32850000 -0.42510000 -7.44650000
-7.19690000 -0.09800000 -7.51510000
-7.36520000 0.23760000 -7.41350000
-5.53530000 0.96610000 -7.83310000
-5.88750000 1.01520000 -7.72740000
-6.39870000 0.91320000 -7.63380000
-6.57280000 1.03780000 -7.52350000
-6.56200000 1.12370000 -7.48620000
-6.94440000 1.23230000 -7.27770000
-7.05270000 1.09410000 -7.32640000
-8.49090000 -1.81370000 -4.06200000
-8.39290000 -1.83340000 -5.12360000
-8.39860000 -1.84490000 -5.69370000
-8.08950000 -1.83600000 -6.07710000
-8.54850000 -1.82580000 -5.30450000
-8.68520000 -1.81130000 -5.60310000
-8.54500000 -1.80050000 -5.91940000
-8.74720000 -1.80240000 -3.15640000
-9.26100000 -1.83820000 -3.55680000
-9.46100000 -1.81870000 -3.12910000
-9.63520000 -1.81210000 -3.01060000
-9.14350000 -1.81730000 -3.35710000
-9.78200000 -1.76760000 -2.62190000
-9.74710000 -1.78200000 -3.26140000
-9.90440000 -1.71250000 -2.97240000
-9.28740000 -1.84390000 -3.80370000
-9.02170000 -1.82750000 -4.19370000
-9.53010000 -1.82890000 -3.47320000
-9.45770000 -1.79710000 -4.04530000
-9.89050000 -1.70630000 -3.39940000
-9.76030000 -1.72390000 -3.88360000
-9.66500000 -1.78270000 -3.77350000
-10.00480000 -1.64200000 -2.91380000
-9.94360000 -1.61270000 -3.63530000
-10.04170000 -1.23320000 -3.50480000
-10.01140000 -1.03780000 -3.54780000
-9.94430000 -1.08670000 -3.98050000
-9.78740000 -1.66130000 -4.06500000
-10.07400000 -1.51950000 -3.16230000
-10.08960000 -1.43890000 -3.26380000
-9.98480000 -1.49060000 -3.76460000
-10.06090000 -1.37980000 -3.47440000
-9.89210000 -1.54230000 -4.04470000
-9.94110000 -1.31760000 -4.02930000
-9.91160000 -1.45050000 -4.08530000
-10.01310000 -0.84560000 -3.61560000
-9.99240000 -0.62310000 -3.80560000
-9.97970000 -0.76990000 -3.91910000
-9.95650000 -0.31220000 -3.92640000
-10.00520000 -0.48130000 -3.63770000
-9.82800000 -1.13530000 -4.40380000
-9.92490000 -0.85650000 -4.16380000
-9.91360000 -0.55760000 -4.24000000
-8.73290000 -1.81820000 -4.79590000
-8.94030000 -1.78310000 -4.58020000
-8.87520000 -1.77110000 -4.89470000
-9.12660000 -1.78340000 -4.35170000
-9.12400000 -1.72460000 -4.73230000
-9.26560000 -1.73150000 -4.64550000
-8.93190000 -1.74930000 -5.22120000
-9.17270000 -1.63500000 -5.25210000
-9.13050000 -1.62530000 -5.50550000
-9.12430000 -1.69830000 -5.06100000
-9.27830000 -1.68050000 -4.98710000
-9.41730000 -1.75090000 -4.46530000
-9.46770000 -1.68270000 -4.73790000
-9.34360000 -1.57950000 -5.23660000
-9.39580000 -1.52710000 -5.27960000
-9.52270000 -1.60310000 -4.88320000
-8.81020000 -1.75310000 -5.76330000
-8.96600000 -1.70630000 -5.66140000
-9.57570000 -1.72740000 -4.36170000
-9.64590000 -1.67070000 -4.43390000
-9.78660000 -1.53790000 -4.37540000
-9.63980000 -1.54090000 -4.74590000
-9.83510000 -1.37850000 -4.36660000
-9.73070000 -1.46900000 -4.62090000
-9.70970000 -1.31120000 -4.76140000
-9.56220000 -1.46220000 -5.05350000
-9.59300000 -1.34050000 -5.08280000
-7.31350000 -1.80250000 -6.72200000
-7.39870000 -1.75350000 -6.87270000
-7.73650000 -1.82360000 -6.43820000
-8.05050000 -1.79370000 -6.31570000
-7.83340000 -1.73900000 -6.68960000
-7.31420000 -1.67270000 -7.11000000
-7.64520000 -1.68700000 -6.93750000
-7.60320000 -1.59690000 -7.12730000
-7.41340000 -1.53360000 -7.29510000
-8.06160000 -1.66470000 -6.75890000
-7.83150000 -1.50010000 -7.12660000
-8.18650000 -1.57100000 -6.83310000
-8.06600000 -1.52920000 -6.96570000
-8.10250000 -1.43430000 -7.00020000
-8.32940000 -1.73680000 -6.34820000
-8.84330000 -1.68100000 -5.95280000
-8.58230000 -1.70110000 -6.22780000
-8.83410000 -1.59060000 -6.15540000
-8.29380000 -1.65720000 -6.60550000
-8.51450000 -1.61540000 -6.47270000
-8.55540000 -1.53840000 -6.53950000
-8.33120000 -1.45920000 -6.81950000
-8.59680000 -1.44280000 -6.56900000
-8.22920000 -1.33150000 -6.94760000
-8.42350000 -1.34510000 -6.78770000
-8.81010000 -1.48610000 -6.32300000
-8.75810000 -1.29450000 -6.45590000
-9.02400000 -1.32010000 -6.14890000
-7.63250000 -1.39510000 -7.28490000
-7.50670000 -1.25410000 -7.37490000
-7.33450000 -0.80450000 -7.49150000
-7.60270000 -0.98640000 -7.35460000
-7.86520000 -1.22540000 -7.18130000
-7.96120000 -0.96270000 -7.15560000
-7.50750000 -0.59250000 -7.37520000
-7.67670000 -0.35610000 -7.16530000
-7.72870000 -0.78900000 -7.29400000
-7.96840000 -0.73500000 -7.14330000
-7.79800000 -0.56520000 -7.18580000
-8.03280000 -0.49500000 -7.01070000
-7.59610000 -0.21290000 -7.18110000
-7.96520000 -0.33430000 -6.99810000
-7.85580000 -0.19730000 -7.04030000
-8.70810000 -0.49120000 -6.40210000
-8.84540000 -0.75710000 -6.31760000
-8.92990000 -0.53830000 -6.19280000
-8.67260000 -0.70250000 -6.46320000
-8.09080000 -0.16610000 -6.92600000
-8.16770000 -0.36780000 -6.86630000
-8.38860000 -0.28020000 -6.69050000
-8.28600000 -0.05090000 -6.81010000
-8.63240000 -0.09370000 -6.51780000
-8.31510000 -0.43750000 -6.71410000
-8.64630000 -0.35930000 -6.45620000
-8.54900000 0.08660000 -6.59390000
-8.88540000 -0.03990000 -6.26300000
-8.78520000 0.31740000 -6.29670000
-8.51680000 -0.84150000 -6.62810000
-8.38890000 -0.58540000 -6.65820000
-8.24210000 -0.68210000 -6.85510000
-8.35360000 -0.95120000 -6.83820000
-8.18680000 -1.18110000 -7.00390000
-8.42110000 -1.16700000 -6.81130000
-8.21350000 -1.00650000 -6.98170000
-8.70360000 -1.09730000 -6.50070000
-8.08770000 -0.65880000 -7.03330000
-7.93760000 -0.05270000 -7.02810000
-9.96070000 -0.01220000 -3.91930000
-10.02130000 -0.09070000 -3.66690000
-10.03720000 0.13910000 -3.57960000
-9.93980000 0.51220000 -3.76430000
-9.90390000 0.22550000 -3.93500000
-9.88470000 -0.01260000 -4.13720000
-9.87390000 0.53450000 -3.91310000
-9.80940000 0.57920000 -4.10790000
-9.81460000 0.38950000 -4.05100000
-9.80190000 0.28210000 -4.10340000
-9.84100000 0.11880000 -4.14590000
-9.77820000 0.29550000 -4.20780000
-9.76420000 0.43150000 -4.34360000
-9.83950000 -0.76340000 -4.55110000
-9.79930000 -0.59360000 -4.66180000
-9.73090000 -0.92610000 -4.84070000
-10.05300000 -0.25130000 -3.37050000
-9.89050000 -0.21290000 -4.21650000
-9.82080000 -0.34480000 -4.59190000
-9.76660000 -0.42000000 -4.74310000
-9.66860000 -0.52610000 -4.91680000
-9.64400000 -0.78560000 -4.96830000
-9.71060000 0.02660000 -4.83610000
-9.79160000 -0.03090000 -4.55060000
-9.67400000 -0.26100000 -5.00080000
-9.77890000 0.20640000 -4.43810000
-9.32900000 0.19790000 -5.51070000
-9.53150000 0.14840000 -5.18030000
-9.42240000 0.30710000 -5.35540000
-9.26980000 0.11230000 -5.61250000
-9.25480000 0.36380000 -5.57610000
-9.30460000 0.48400000 -5.42610000
-9.48590000 0.60450000 -5.10660000
-9.38540000 0.71130000 -5.20100000
-9.19620000 0.49140000 -5.54560000
-9.22880000 0.60700000 -5.41740000
-9.10460000 0.54640000 -5.67690000
-9.12020000 0.67990000 -5.51890000
-9.01160000 0.77900000 -5.69790000
-9.25400000 0.76720000 -5.31830000
-9.07540000 0.47000000 -5.82140000
-9.59940000 0.77410000 -4.77080000
-9.68790000 0.72090000 -4.59470000
-9.71200000 0.87010000 -4.38890000
-9.94680000 0.71420000 -3.62570000
-9.82990000 0.78520000 -4.01040000
-9.77020000 0.95960000 -4.07490000
-9.61240000 1.16580000 -4.20780000
-9.77340000 0.72680000 -4.27560000
-9.73120000 0.39970000 -4.59240000
-9.09620000 1.43750000 -4.80140000
-9.43110000 1.20120000 -4.62060000
-9.25640000 1.31160000 -4.75930000
-9.58710000 1.03730000 -4.50960000
-9.48070000 1.00160000 -4.81520000
-9.26330000 1.22420000 -4.92890000
-9.31090000 1.08310000 -5.05140000
-9.60540000 0.43270000 -4.93700000
-9.67690000 0.54050000 -4.69110000
-9.56010000 -0.10290000 -5.20630000
-9.42510000 0.91580000 -5.01440000
-9.46570000 -1.36330000 -5.37540000
-9.36500000 -1.42940000 -5.49310000
-9.24840000 -1.52370000 -5.58770000
-9.46530000 -1.20980000 -5.44770000
-9.30990000 -1.26820000 -5.72870000
-9.28070000 -0.61800000 -5.65680000
-9.50160000 -0.65230000 -5.21740000
-9.38510000 -0.55590000 -5.44310000
-9.38870000 -0.78960000 -5.49240000
-9.42260000 -0.39640000 -5.46450000
-9.26550000 -1.16400000 -5.84930000
-9.38500000 -1.04500000 -5.64470000
-9.22320000 -0.85460000 -5.87170000
-9.52990000 -0.99060000 -5.29840000
-9.57000000 -1.12280000 -5.23750000
-9.10410000 -1.60250000 -5.71310000
-9.05070000 -1.48910000 -5.98530000
-9.16250000 -1.34700000 -5.93750000
-9.12590000 -1.08600000 -6.05630000
-8.95130000 -1.03170000 -6.25120000
-9.06500000 -0.88260000 -6.12470000
-9.71390000 -1.12890000 -4.84520000
-9.59910000 -0.45240000 -5.10680000
-9.56000000 -0.31480000 -5.24020000
-9.05200000 -0.41970000 -6.07430000
-9.14000000 -0.59920000 -5.95120000
-9.20840000 -0.41540000 -5.86690000
-9.06130000 -0.73600000 -6.08690000
-8.89630000 -0.35090000 -6.24610000
-8.92440000 -0.22020000 -6.23810000
-9.10710000 -0.31890000 -6.01740000
-9.26400000 -0.47640000 -5.73420000
-9.33320000 -0.24480000 -5.63860000
-9.13560000 -0.00990000 -5.87000000
-8.89500000 0.30300000 -6.15900000
-9.04500000 0.32280000 -5.93420000
-10.06420000 -1.58840000 -2.30980000
-10.13380000 -1.51310000 -2.41680000
-10.07870000 -1.56800000 -2.83070000
-10.17570000 -1.13180000 -1.88410000
-10.18690000 -1.35940000 -2.22390000
-10.16210000 -1.06300000 -2.16740000
-10.18060000 -1.22480000 -2.22540000
-10.15860000 -1.40600000 -2.70230000
-10.18170000 -1.03170000 -2.39370000
-10.18410000 -1.05800000 -2.61230000
-10.14970000 -1.30220000 -2.96830000
-10.20670000 -0.75610000 -2.36340000
-10.15420000 -1.03480000 -2.99010000
-10.20990000 -0.42530000 -2.46780000
-10.18910000 -0.54350000 -2.79500000
-10.19870000 -0.68890000 -2.62710000
-10.14460000 -0.20200000 -2.92110000
-10.15300000 -0.40240000 -2.91610000
-10.15980000 -0.79150000 -2.89900000
-10.12300000 -0.75440000 -3.16170000
-10.08630000 -0.44440000 -3.19200000
-10.12400000 0.02460000 -3.07510000
-10.11760000 -1.06890000 -3.26610000
-10.07850000 -0.86900000 -3.39980000
-10.10110000 0.20300000 -3.10310000
-10.03360000 0.41110000 -3.42680000
-7.75300000 1.80490000 -5.46210000
-7.25380000 1.78870000 -6.19270000
-7.60250000 1.75000000 -5.96330000
-8.19900000 1.76860000 -5.17190000
-8.00580000 1.71090000 -5.68250000
-8.34350000 1.65680000 -5.49410000
-8.17610000 1.58870000 -5.92070000
-7.74700000 1.62840000 -6.30240000
-8.00170000 1.55340000 -6.25850000
-8.07470000 1.48340000 -6.32210000
-8.39290000 1.48580000 -5.92820000
-8.00370000 1.37190000 -6.55220000
-7.79320000 1.32530000 -6.77560000
-8.03550000 1.24210000 -6.65650000
-7.90010000 1.10010000 -6.83810000
-7.76070000 1.21030000 -6.87970000
-8.22200000 1.09370000 -6.56080000
-8.31020000 1.32740000 -6.29460000
-8.19580000 1.27680000 -6.48110000
-8.42300000 1.06980000 -6.39350000
-8.56280000 1.37890000 -5.90670000
-8.72090000 1.29030000 -5.84680000
-8.46420000 1.56650000 -5.66480000
-8.62980000 1.04780000 -6.17510000
-8.46950000 1.22380000 -6.22950000
-8.26020000 0.93560000 -6.57780000
-8.71940000 1.12630000 -5.99690000
-8.69100000 0.76960000 -6.24320000
-7.28400000 1.71550000 -6.44170000
-7.12920000 1.47020000 -6.97990000
-7.31230000 1.54710000 -6.78130000
-7.27930000 1.38600000 -7.01540000
-7.25220000 1.24670000 -7.14780000
-7.52730000 1.45840000 -6.79060000
-7.50790000 1.26180000 -7.01060000
-7.68590000 1.58430000 -6.49190000
-7.78940000 1.46910000 -6.61140000
-7.38280000 0.06660000 -7.39410000
-7.60510000 0.27920000 -7.27440000
-7.76280000 0.08520000 -7.15990000
-7.75040000 -0.02340000 -7.11800000
-7.60510000 -0.11630000 -7.17280000
-7.42870000 -0.07570000 -7.32670000
-8.09920000 0.05670000 -6.95430000
-7.92660000 0.23800000 -7.06200000
-7.46610000 0.71980000 -7.25900000
-7.33230000 1.06150000 -7.22000000
-7.96230000 0.81810000 -6.85920000
-7.64280000 1.07380000 -7.02660000
-7.75140000 0.72760000 -7.03580000
-7.78800000 0.46220000 -7.10190000
-7.32960000 -0.26510000 -7.41290000
-8.40900000 0.21480000 -6.68130000
-8.09260000 0.52370000 -6.83780000
-8.39980000 0.50640000 -6.58310000
-8.67350000 0.45960000 -6.36560000
-8.39920000 0.73920000 -6.49740000
-8.61120000 1.69650000 -4.85350000
-8.66940000 1.62070000 -5.07000000
-8.87850000 1.53920000 -4.95250000
-8.66290000 1.55560000 -5.38640000
-8.87330000 1.44830000 -5.30790000
-9.05970000 1.27990000 -5.30100000
-9.12610000 1.14050000 -5.30740000
-8.73840000 1.44480000 -5.56820000
-8.93260000 1.28210000 -5.53720000
-8.87670000 1.16280000 -5.73780000
-8.97190000 1.14620000 -5.58110000
-8.95360000 0.98000000 -5.70620000
-9.05480000 0.93020000 -5.51810000
-8.90040000 0.82650000 -5.92150000
-8.83640000 0.72450000 -6.09180000
-9.17660000 0.95680000 -5.31670000
-1.36300000 -1.43470000 3.33940000
-1.24140000 -1.45740000 3.26670000
-3.90030000 -1.56300000 4.11290000
-4.01470000 -1.54510000 4.08680000
-4.08800000 -1.52610000 4.06680000
-4.16780000 -1.52450000 4.06880000
-4.39030000 -1.55070000 4.04270000
-4.33760000 -1.50540000 4.09740000
-4.47900000 -1.54470000 4.10500000
-3.89650000 -1.55910000 4.24700000
-4.00190000 -1.52660000 4.23220000
-4.08000000 -1.50210000 4.18200000
-4.15400000 -1.50010000 4.19130000
6.49950000 -0.31300000 9.50450000
6.01290000 -0.03590000 9.48700000
6.07880000 -0.04140000 9.58830000
6.15820000 -0.04440000 9.62630000
5.71020000 0.12700000 9.51500000
5.64500000 0.20070000 9.52850000
5.80070000 0.44610000 9.60930000
5.48560000 0.72380000 9.58170000
6.86900000 -0.52870000 9.21710000
5.55660000 0.25110000 9.56690000
5.58950000 0.27790000 9.62280000
5.81640000 0.26770000 9.63100000
6.07040000 0.25170000 9.63010000
6.21440000 0.09500000 9.63970000
6.31060000 0.37160000 9.61550000
6.29370000 0.52860000 9.63090000
6.08120000 0.56940000 9.62810000
5.17640000 0.43950000 9.09970000
6.35240000 -0.20780000 9.58620000
2.00590000 2.29550000 8.44560000
2.03730000 2.30930000 8.67960000
1.84150000 2.41080000 8.51730000
1.74080000 2.45540000 7.98500000
-0.78290000 4.39490000 3.30750000
-0.87400000 4.25850000 3.32220000
-0.83240000 4.17790000 3.60360000
-0.80300000 4.23540000 3.75480000
2.09570000 2.31510000 8.74300000
1.73100000 2.56380000 8.52650000
4.04100000 4.31130000 3.88100000
4.34370000 4.13430000 4.43570000
3.92230000 4.29200000 4.12380000
2.62500000 4.16430000 7.16880000
2.89600000 4.11770000 7.36580000
2.66470000 3.87150000 7.33470000
4.08700000 4.20480000 4.40900000
-0.68820000 4.40490000 3.73690000
6.10750000 1.08810000 8.58610000
6.43490000 0.28940000 8.64550000
6.29070000 0.22940000 8.66860000
2.87010000 4.36130000 7.24030000
3.06630000 4.30390000 7.42230000
5.63590000 0.69790000 8.62720000
5.84290000 0.28110000 8.66730000
2.27450000 2.14030000 8.72350000
2.54200000 2.04270000 8.87010000
2.28160000 2.16510000 8.80460000
2.47060000 2.13800000 8.89100000
4.06580000 4.31230000 3.18000000
5.34280000 3.58840000 4.67030000
2.48370000 2.23340000 8.90980000
2.44670000 2.27490000 8.87590000
2.40080000 2.44730000 8.82720000
2.59780000 2.44890000 8.87840000
4.37810000 1.02470000 8.49910000
4.60730000 0.85060000 8.57430000
4.30750000 0.98310000 8.57350000
6.71730000 3.53810000 8.15580000
5.84010000 4.07880000 7.80150000
6.15460000 3.73520000 8.52350000
4.68020000 0.99560000 8.51400000
4.70620000 0.84890000 8.53290000
4.21260000 1.21760000 8.43700000
4.64650000 1.70370000 8.40910000
4.93040000 0.86650000 8.56060000
2.57710000 1.95930000 8.55280000
3.23100000 4.28900000 7.49610000
5.32710000 1.63030000 8.48090000
3.23970000 3.75340000 7.68340000
2.92560000 3.72660000 7.54580000
3.55470000 4.13280000 7.67310000
3.42010000 4.35890000 7.52930000
2.13700000 2.59930000 8.68860000
2.94920000 4.56210000 7.23390000
3.11900000 4.50510000 7.33910000
3.19090000 4.55640000 3.47740000
