2.94480000 -1.87860000 1.88840000
2.74570000 -1.88980000 2.77210000
2.86250000 -1.90070000 1.52180000
2.31540000 -1.90610000 3.91050000
2.56930000 -1.91490000 1.44690000
1.10460000 -1.95560000 -4.69030000
0.57620000 -0.97970000 0.91250000
0.89850000 -1.02410000 0.90450000
0.66180000 -1.00440000 0.34630000
0.72710000 -0.99700000 1.37640000
0.40280000 -0.98500000 1.28940000
0.65550000 -1.01320000 -0.56740000
0.09390000 -0.96540000 -1.45600000
0.21320000 -0.96470000 -0.41590000
-0.12790000 -0.95840000 -0.23090000
-0.32210000 -0.95800000 0.14450000
-0.25300000 -0.95550000 0.79530000
-0.48930000 -0.93910000 -0.12310000
0.81670000 -1.05250000 -0.08080000
1.00660000 -1.07280000 -0.10680000
0.88340000 -1.04590000 -0.31330000
1.02480000 -0.99600000 -0.91480000
0.96660000 -1.02980000 -0.54570000
1.19820000 -1.00330000 -0.30550000
1.19010000 -1.04210000 -0.09010000
1.03290000 -1.08120000 0.11660000
1.18460000 -1.07190000 0.13820000
0.82450000 -1.01290000 -1.21540000
0.67900000 -1.01640000 -1.16570000
1.32910000 -0.96260000 -0.27660000
1.35380000 -0.85060000 -0.67670000
1.15170000 -0.90860000 -1.04680000
0.97650000 -0.96570000 -1.23670000
1.32380000 -0.75640000 -0.99230000
1.30730000 -0.57950000 -1.28040000
1.19150000 -0.84430000 -1.14300000
0.34600000 -0.97590000 0.50770000
0.94750000 -1.06140000 0.32380000
3.14700000 -1.83410000 0.66680000
3.05190000 -1.88560000 -0.08110000
3.14140000 -1.84220000 -0.04300000
3.18050000 -1.81260000 0.40180000
3.21050000 -1.75900000 0.60790000
3.23300000 -1.71960000 -0.00260000
3.24340000 -1.63510000 -0.44960000
3.24660000 -1.62740000 0.40470000
3.20150000 -1.77840000 -0.17020000
3.26880000 -1.40950000 -0.12430000
3.26030000 -1.28050000 0.68470000
3.05860000 -1.87580000 0.87550000
3.06690000 -1.84600000 1.45450000
3.15950000 -1.79050000 1.13820000
3.19530000 -1.72180000 1.08790000
3.09780000 -1.78930000 1.67500000
3.11230000 -1.84750000 -0.61900000
3.21170000 -1.72280000 -0.68590000
3.16520000 -1.80140000 -0.63350000
3.22880000 -1.52470000 -0.91210000
3.24990000 -1.01830000 -1.02860000
3.31090000 -0.49790000 -0.26560000
3.22350000 -0.53260000 -1.66540000
3.31620000 -0.44920000 0.19690000
1.11900000 -1.10970000 1.52220000
0.92630000 -1.05290000 1.48550000
1.02420000 -1.08130000 1.81470000
1.19270000 -1.09170000 1.78210000
1.23990000 -1.10610000 1.40420000
1.32990000 -1.08220000 1.49180000
1.26360000 -1.03310000 1.95320000
1.42500000 -1.02340000 1.38710000
1.07080000 -1.06730000 2.10070000
1.11730000 -1.01110000 2.43360000
1.34750000 -0.95940000 1.91010000
1.18750000 -1.06160000 0.80440000
1.09050000 -1.07400000 1.12820000
1.16660000 -1.06510000 0.45150000
1.35320000 -1.05960000 0.77810000
1.52770000 -0.96450000 1.04080000
1.45540000 -1.02870000 0.94700000
1.50730000 -0.92730000 1.35650000
1.66800000 -0.66870000 1.27190000
1.53730000 -0.95350000 0.55930000
1.46330000 -1.01210000 0.44280000
1.58950000 -0.87880000 0.71920000
1.71210000 -0.61340000 0.96990000
1.68350000 -0.54870000 1.55900000
1.49580000 -0.74480000 1.85610000
1.50390000 -0.56870000 2.22000000
1.84510000 -0.27080000 1.29010000
1.90100000 -0.21730000 0.98990000
1.77620000 -0.28500000 1.69780000
1.97520000 0.11710000 1.37120000
1.37090000 -1.03210000 0.21380000
1.48330000 -0.96210000 0.16890000
1.44550000 -0.89690000 -0.17620000
1.56590000 -0.87990000 0.19310000
1.52540000 -0.80820000 -0.17340000
1.64800000 -0.73940000 0.26860000
1.77800000 -0.48720000 0.52520000
1.66970000 -0.65120000 0.03150000
1.61800000 -0.61550000 -0.23980000
1.84840000 -0.24510000 0.02270000
1.86320000 -0.29130000 0.23540000
1.50800000 -0.67110000 -0.57500000
1.44000000 -0.65230000 -0.82410000
1.53600000 -0.43090000 -0.84150000
1.68180000 -0.37010000 -0.48270000
1.83100000 -0.14280000 -0.20530000
1.79140000 -0.08820000 -0.48880000
1.47150000 -0.27390000 -1.18910000
1.65120000 -0.08190000 -0.92790000
1.93990000 0.06320000 -0.05150000
1.88030000 0.25890000 -0.72130000
1.93160000 0.15760000 -0.30530000
1.99160000 0.49960000 -0.68970000
2.02140000 0.46860000 -0.45460000
1.96530000 -0.10980000 0.60990000
1.98530000 0.03230000 0.30280000
2.01960000 0.01940000 0.83270000
2.05950000 0.18070000 0.72380000
2.06100000 0.28350000 0.50880000
2.03130000 0.08800000 1.02180000
2.09890000 0.44610000 0.62330000
2.04700000 0.33860000 0.36530000
2.00620000 0.24760000 0.02730000
2.04460000 0.41940000 0.04030000
2.04840000 0.42290000 0.29650000
2.07410000 0.50230000 0.16270000
2.05650000 0.48400000 -0.20170000
2.06110000 0.60180000 -0.39230000
2.11020000 0.59030000 -0.10300000
2.09480000 0.67590000 -0.35600000
0.10650000 -1.01370000 2.38350000
-0.32150000 -0.96480000 1.90040000
-0.04900000 -1.00390000 3.46040000
-0.61450000 -0.88570000 2.25180000
-0.63220000 -0.89690000 2.85680000
-0.59920000 -0.95570000 4.82070000
-0.87250000 -0.93690000 4.87080000
-0.81420000 -0.96020000 5.06910000
-0.65800000 -0.96450000 4.98590000
-0.79290000 -0.92560000 5.41390000
-0.80620000 -0.94470000 5.29690000
-0.96120000 -0.93800000 5.41000000
-1.11380000 -0.87570000 4.08330000
-1.38240000 -0.94190000 4.84430000
-1.15920000 -0.93770000 5.43850000
-0.99570000 -0.90250000 4.55900000
-1.38150000 -0.83850000 2.54460000
-1.55810000 -0.89710000 3.15480000
-1.23050000 -0.85780000 3.45010000
-2.16190000 -0.93790000 4.19300000
-1.64240000 -0.95630000 4.63850000
-1.44030000 -0.94100000 4.23410000
-0.95630000 -0.86060000 3.53500000
-0.63940000 -0.93210000 3.84030000
-1.15090000 -0.81850000 2.24050000
-0.47550000 -0.97510000 4.58640000
-0.46110000 -0.98610000 4.24480000
1.87090000 -1.88140000 5.36090000
2.13220000 -1.89040000 4.77260000
0.95680000 -1.01180000 2.55720000
0.74550000 -1.00000000 2.20200000
0.70780000 -0.99510000 2.63130000
0.74100000 -0.96540000 3.10060000
0.98380000 -0.94550000 2.99670000
1.12050000 -0.93820000 2.76800000
0.34820000 -1.02740000 3.34560000
0.18120000 -1.00280000 3.89560000
0.46530000 -1.00020000 3.37810000
0.15960000 -1.02840000 3.48220000
0.36260000 -1.03420000 2.71010000
0.54680000 -1.01870000 2.74470000
0.71290000 -0.93000000 3.38860000
0.60950000 -0.88280000 3.70810000
0.47500000 -0.94170000 3.68070000
1.27030000 -0.86330000 2.50880000
1.13710000 -0.85060000 2.93300000
1.22040000 -0.76470000 2.84650000
1.00930000 -0.87740000 3.15070000
1.41160000 -0.45940000 2.72730000
1.27090000 -0.43890000 3.12580000
0.67200000 -0.81520000 3.77230000
0.91990000 -0.78340000 3.45290000
1.03540000 -0.58570000 3.45810000
0.64890000 -0.70700000 3.95640000
0.70640000 -0.56340000 4.05110000
0.84130000 -0.24920000 4.12050000
1.48530000 -0.08360000 3.03000000
1.24260000 -0.10350000 3.52310000
1.02170000 -0.05020000 3.99140000
-0.52370000 -0.91860000 5.06930000
-0.40110000 -0.91930000 4.80940000
-0.38990000 -0.86960000 4.99710000
-0.28920000 -0.82890000 4.91130000
-0.43810000 -0.84790000 5.14970000
-0.20260000 -0.68980000 5.05970000
-0.70840000 -0.88840000 5.41630000
-0.61500000 -0.82960000 5.40350000
-0.32940000 -0.68150000 5.25860000
-0.55500000 -0.70180000 5.47620000
-0.04200000 -0.79930000 4.70780000
-0.10170000 -0.48370000 5.19660000
-0.38070000 -0.55110000 5.45920000
-0.28330000 -0.48410000 5.43430000
-0.17240000 -0.35080000 5.40760000
-0.48080000 -0.32310000 5.76270000
0.18240000 -0.29080000 5.01800000
-0.01420000 0.09310000 5.58780000
-0.12810000 -1.00800000 4.15930000
0.02310000 -0.96900000 4.22510000
-0.28190000 -0.97350000 4.51540000
-0.16010000 -0.89240000 4.63280000
0.31490000 -0.91620000 4.04400000
0.35210000 -0.84350000 4.16820000
0.47010000 -0.70090000 4.24980000
0.14480000 -0.72110000 4.61670000
0.20730000 -0.63940000 4.63730000
0.11080000 -0.54500000 4.83490000
0.47610000 -0.47480000 4.48100000
0.67440000 -0.36550000 4.29430000
0.34080000 -0.41800000 4.67930000
0.63630000 -0.11860000 4.55240000
0.54670000 0.01320000 4.81700000
0.68600000 0.08360000 4.65950000
0.78720000 0.36040000 4.71090000
0.96630000 0.32820000 4.39380000
0.36140000 0.00840000 5.06010000
0.56860000 0.27920000 4.96220000
0.22260000 0.08270000 5.30830000
0.45950000 0.34560000 5.19320000
0.34500000 0.22490000 5.28890000
0.25070000 0.45630000 5.56880000
-0.48630000 -0.93930000 0.87510000
-0.73730000 -0.87410000 0.65540000
-0.93360000 -0.81170000 0.82920000
-0.55510000 -0.90360000 1.85290000
-0.15840000 -0.98710000 1.58980000
0.10890000 -0.99230000 1.31020000
0.34040000 -1.00880000 1.74540000
0.79510000 -1.01490000 1.85440000
0.59950000 -1.00710000 1.85880000
0.89230000 -1.02630000 2.25340000
1.68570000 -0.11610000 2.31930000
1.68620000 0.14080000 2.72310000
1.85000000 0.14900000 2.02870000
1.65200000 -1.82720000 5.88920000
1.68270000 -1.76710000 5.88500000
1.50370000 -1.63130000 6.18190000
1.41770000 -0.70510000 6.37950000
1.65970000 -1.29770000 5.98090000
1.13230000 -0.55790000 6.78170000
0.34790000 -0.91150000 7.76850000
3.01940000 -1.82900000 2.00560000
2.66220000 -1.86150000 3.46420000
2.45660000 -1.85670000 4.15490000
2.52250000 -1.88700000 3.74550000
2.60960000 -1.82070000 3.80360000
2.48560000 -1.80160000 4.20250000
2.87630000 -1.85090000 2.60940000
2.92590000 -1.79040000 2.61450000
2.81790000 -1.81090000 3.05500000
3.01820000 -1.78520000 2.17540000
3.07060000 -1.72880000 1.98020000
2.98060000 -1.61760000 2.56240000
2.80320000 -1.74370000 3.22660000
2.90470000 -1.53900000 2.90720000
3.10020000 -1.53810000 1.94890000
3.04220000 -0.55130000 2.56780000
3.14490000 -0.76740000 1.97560000
2.69480000 -1.77750000 3.58820000
2.80260000 -1.59300000 3.31890000
2.63170000 -1.65060000 3.87290000
2.78700000 -0.77360000 3.53630000
2.63310000 -0.78150000 4.01140000
2.92740000 -0.94570000 2.96000000
2.89490000 -0.00250000 3.33550000
3.16190000 -1.68520000 1.44970000
3.18390000 -1.55780000 1.38890000
3.22520000 -0.69710000 1.42510000
3.30290000 -0.27350000 0.78150000
3.30660000 -0.21900000 -0.84880000
3.35540000 0.30770000 -0.38970000
3.20260000 -0.19950000 1.84060000
3.28270000 0.15000000 1.34430000
3.13180000 0.09170000 2.36060000
3.13280000 0.35520000 2.39700000
3.21970000 0.23860000 1.84970000
2.87250000 0.64530000 1.44990000
2.51800000 0.66090000 1.90530000
2.82000000 0.65840000 2.04970000
3.01070000 0.62760000 1.52540000
3.24140000 0.40510000 1.61530000
3.29320000 0.40240000 1.19020000
3.24120000 0.47750000 1.46350000
3.18890000 0.43150000 2.00550000
3.07360000 0.47220000 2.58660000
3.13960000 0.49780000 2.18410000
3.12630000 0.54450000 2.03220000
3.18780000 0.48660000 1.89390000
3.20360000 0.52980000 1.49760000
3.12300000 0.59230000 1.34530000
2.98770000 0.62270000 2.08650000
3.34600000 0.40200000 -0.61860000
3.33470000 0.45690000 -0.65840000
3.31920000 0.49280000 -0.46940000
2.97630000 0.64640000 -0.20430000
2.68790000 0.67050000 -0.44960000
2.93840000 0.65630000 0.13690000
2.64180000 0.65620000 0.27330000
2.05840000 0.29190000 1.14580000
2.11270000 0.43320000 0.87540000
2.05070000 0.37470000 1.28820000
2.10400000 0.50220000 0.52160000
2.16260000 0.55510000 0.77570000
2.20020000 0.60350000 0.62760000
2.12520000 0.51480000 1.13390000
2.18670000 0.58920000 0.99540000
2.26830000 0.63870000 0.83160000
2.26970000 0.64340000 1.18600000
2.37360000 0.65960000 1.09860000
2.10510000 0.54980000 0.25510000
2.21720000 0.64330000 0.19900000
2.15800000 0.63230000 -0.04700000
2.15250000 0.59710000 0.34070000
2.14510000 0.69510000 -0.29490000
2.26810000 0.67810000 -0.12130000
2.45790000 0.67380000 -0.30120000
2.24260000 0.71810000 -0.51400000
2.33260000 0.66100000 0.36980000
3.34520000 0.26810000 0.47280000
3.31240000 0.43090000 0.84860000
3.34520000 0.38390000 0.43480000
3.31570000 0.47220000 0.58240000
3.29320000 0.51180000 0.60180000
3.34780000 0.42420000 0.18870000
3.22880000 0.56060000 0.88240000
3.20780000 0.58300000 0.47510000
3.35140000 0.43410000 -0.08710000
3.30640000 0.51050000 0.18410000
3.32920000 0.48280000 -0.21580000
3.27640000 0.53570000 -0.35450000
3.20770000 0.57020000 -0.35170000
3.11750000 0.59810000 -0.30510000
3.08830000 0.63380000 0.54710000
2.96000000 0.65180000 0.80520000
3.26350000 0.50860000 1.07830000
1.99960000 -1.82520000 5.26310000
2.29980000 -1.84050000 4.62010000
2.27800000 -1.78490000 4.73630000
1.88330000 -1.78480000 5.52670000
2.19760000 -1.71270000 4.95680000
1.87500000 -1.67110000 5.58370000
2.17950000 -1.47280000 5.04270000
2.40880000 -1.58810000 4.50580000
2.38720000 -1.00970000 4.62820000
1.76490000 -1.86020000 5.64240000
2.00980000 -1.11110000 5.41140000
1.85330000 -1.09470000 5.69140000
2.24940000 -0.23820000 5.01860000
2.08290000 -0.20680000 5.35640000
2.52060000 -0.13800000 4.41150000
2.71110000 0.23120000 3.97300000
2.87990000 0.40390000 3.44060000
2.76700000 0.42260000 3.79980000
2.26690000 0.22830000 5.01890000
2.49790000 0.36550000 4.51100000
2.54090000 0.46100000 4.36790000
2.80600000 0.51980000 3.57810000
2.62440000 0.56940000 3.99160000
2.85150000 0.58570000 3.17650000
2.62250000 0.61280000 3.75250000
2.57320000 0.52940000 4.22110000
2.33130000 0.53180000 4.77640000
2.35470000 0.59940000 4.54460000
2.40030000 0.64150000 4.09630000
1.66600000 -0.46820000 6.03790000
1.86260000 -0.07600000 5.75130000
2.00730000 0.26940000 5.51210000
1.77840000 0.29890000 5.89180000
1.08980000 0.22950000 6.88060000
1.44200000 0.25090000 6.39350000
1.77400000 0.46540000 5.86940000
1.98350000 0.47710000 5.51580000
1.81820000 0.54350000 5.75120000
1.42900000 0.48900000 6.39530000
1.55900000 0.56520000 6.16660000
1.31570000 0.55190000 6.53610000
1.37920000 0.63370000 6.37050000
1.44760000 0.65270000 6.22320000
1.69640000 0.58950000 5.89190000
1.81720000 0.65180000 5.29360000
1.21960000 0.68250000 5.77210000
1.45150000 0.66890000 6.06080000
1.61270000 0.63170000 5.90920000
1.16740000 0.70660000 6.10960000
1.20800000 0.24740000 3.88890000
1.52570000 0.43510000 3.43390000
1.35720000 0.50820000 3.85740000
1.61720000 0.62500000 3.51780000
1.53210000 0.57990000 3.58180000
1.29890000 0.61150000 4.12510000
1.06940000 0.54120000 4.39510000
1.04270000 0.63460000 4.57530000
1.20080000 0.66540000 4.45060000
1.34840000 0.68290000 4.45920000
1.54890000 0.66540000 3.86240000
0.46210000 0.55190000 5.35390000
0.72620000 0.56820000 4.97430000
0.96750000 0.59080000 4.61130000
0.72430000 0.63320000 5.09230000
0.50070000 0.62070000 5.39060000
0.78460000 0.69680000 5.35260000
1.93510000 0.66400000 4.06440000
0.86190000 0.65250000 4.95410000
0.45450000 0.69740000 5.64840000
0.61630000 0.70350000 5.53530000
2.24620000 0.41730000 5.03940000
2.14010000 0.56850000 5.11310000
2.07520000 0.52380000 5.31680000
1.99720000 0.57000000 5.40410000
2.05720000 0.61730000 5.08650000
1.86680000 0.61480000 5.50720000
1.96010000 0.66570000 3.11120000
2.47760000 0.65600000 3.37350000
1.95810000 0.40000000 1.85410000
1.84270000 0.46630000 2.53250000
2.19240000 0.65590000 1.97650000
2.03220000 0.55030000 1.89160000
1.89820000 0.55880000 2.50780000
2.07300000 0.62100000 2.04530000
1.99540000 0.64840000 2.63790000
2.08740000 0.50530000 1.42080000
1.61230000 0.26520000 3.08800000
1.75920000 0.50430000 2.95970000
1.83890000 0.60610000 2.92600000
1.82240000 0.63920000 3.13870000
3.02880000 0.30480000 2.88040000
3.00770000 0.41280000 2.95370000
3.00950000 0.58260000 2.46310000
2.78960000 0.62990000 2.92100000
2.96050000 0.50300000 3.07310000
2.91740000 0.55230000 3.10420000
3.03110000 0.53360000 2.64330000
2.16960000 0.60160000 1.36810000
-13.12440000 -1.83830000 2.11030000
-13.25800000 -1.77380000 1.72030000
-13.14970000 -1.91080000 1.85280000
-13.05210000 -2.02290000 1.43520000
-13.03100000 -1.97750000 1.96610000
-13.12150000 -1.99510000 1.51660000
-12.72460000 -1.99740000 2.69130000
-12.84950000 -1.94840000 2.64730000
-13.16510000 -1.95090000 1.64170000
-13.33290000 -2.03490000 -0.42650000
-13.34550000 -2.01430000 0.11610000
-13.41540000 -2.00610000 -0.50840000
-13.46820000 -1.95880000 -0.33620000
-13.40560000 -1.96800000 0.26330000
-13.48610000 -1.92180000 -0.15350000
-13.54000000 -1.80120000 -0.25260000
-13.50340000 -1.85550000 0.04160000
-13.18940000 -2.04470000 -0.80430000
-13.21770000 -2.03610000 0.39510000
-13.46430000 -1.77300000 0.66570000
-13.44810000 -1.89480000 0.40990000
-13.54390000 -1.58610000 0.27850000
-12.94770000 -2.03190000 1.41100000
-10.69450000 -2.01150000 1.29420000
-13.23510000 -2.01170000 0.90270000
-13.26550000 -1.96170000 1.19240000
-13.35660000 -1.93290000 0.88490000
-13.31370000 -1.86610000 1.33280000
-13.38970000 -1.85910000 0.97400000
-13.39760000 -1.70850000 1.18470000
-13.47920000 -1.59480000 0.81890000
-13.38330000 -1.33210000 1.45710000
-12.31630000 -2.01690000 3.32530000
-13.32430000 -1.61690000 1.59780000
-13.47910000 -1.40850000 0.90720000
-13.57540000 -1.36260000 0.09260000
-13.58370000 -1.56810000 -0.44380000
-13.53540000 -1.37120000 0.52090000
-13.62350000 -0.92900000 0.17610000
-12.97550000 -1.86950000 2.51300000
-13.17040000 -1.65670000 2.16850000
-13.29720000 -1.26250000 1.88200000
-13.45810000 -0.92960000 1.31580000
-13.56600000 -0.76090000 0.83230000
-13.44750000 -0.28850000 1.63180000
-9.76160000 -1.87180000 7.87760000
-10.15870000 -1.86420000 7.45350000
-10.00790000 -1.92810000 7.51210000
-10.53290000 -1.91850000 6.92610000
-9.90340000 -1.80700000 7.78060000
-10.31220000 -1.75660000 7.34900000
-10.01220000 -1.66950000 7.71470000
-10.35970000 -1.62900000 7.32480000
-8.93100000 -1.91340000 8.57010000
-9.59810000 -1.94080000 7.89820000
-8.94800000 -1.94930000 8.42700000
-9.38960000 -1.87420000 8.24500000
-8.90630000 -1.82360000 8.71860000
-9.30590000 -1.70450000 8.41640000
-9.44710000 -1.81540000 8.24860000
-9.82580000 -1.96900000 7.54260000
-10.36630000 -1.47430000 7.33660000
-9.68360000 -1.71500000 8.05530000
-9.84630000 -1.42560000 7.94160000
-10.27550000 -0.94480000 7.57740000
-8.91770000 -1.96650000 8.26660000
-9.44520000 -1.39360000 8.34380000
-9.79580000 -1.12210000 8.06090000
-8.17120000 -1.94150000 9.08570000
-7.64430000 -1.95620000 9.29460000
-7.95630000 -1.91040000 9.31810000
-7.51700000 -1.94340000 9.48060000
-7.59440000 -1.90250000 9.55810000
-7.80400000 -1.83020000 9.52330000
-8.13630000 -1.86600000 9.27600000
-8.47520000 -1.84900000 9.05400000
-8.35730000 -1.89920000 9.07050000
-8.18630000 -1.77480000 9.30950000
-8.51210000 -1.76490000 9.07360000
-8.29290000 -1.59320000 9.26800000
-7.76200000 -1.75800000 9.58390000
-8.08350000 -1.43850000 9.43770000
-7.75840000 -1.53710000 9.61920000
-8.57920000 -1.98050000 5.43150000
-7.56580000 -1.97150000 7.92040000
-8.99380000 -1.86790000 8.60020000
-8.87510000 -1.73400000 8.79020000
-8.93380000 -1.45110000 8.78600000
-9.12030000 -1.25100000 8.66900000
-8.72410000 -1.61670000 8.94390000
-8.46320000 -1.41240000 9.18850000
-8.75520000 -1.22400000 8.99040000
-8.54840000 -0.80080000 9.19780000
-8.94830000 -0.68780000 8.89040000
-8.24620000 -1.08920000 9.38540000
-8.13360000 -0.70080000 9.48860000
-10.02440000 -0.54000000 1.01860000
-10.04250000 -0.58250000 0.45840000
-10.36880000 -0.52940000 0.32490000
-9.51000000 -0.52690000 0.10970000
-9.57950000 -0.57080000 0.65870000
-9.38050000 -0.51630000 0.50380000
-9.68380000 -0.58160000 1.12010000
-9.87150000 -0.59560000 0.38250000
-9.47740000 -0.58420000 1.19980000
-11.92940000 -1.97600000 4.68670000
-11.94790000 -1.91520000 4.87550000
-12.15100000 -1.90210000 4.51200000
-12.19900000 -1.78680000 4.56590000
-12.53280000 -1.83070000 3.79950000
-12.24860000 -1.85240000 4.40400000
-12.29430000 -1.95240000 4.07280000
-12.62250000 -1.94310000 3.29640000
-12.33060000 -1.99700000 3.73940000
-12.49240000 -1.91190000 3.75310000
-12.50090000 -1.71160000 4.00170000
-11.11960000 -2.00500000 5.37510000
-10.96110000 -2.00590000 4.48940000
-11.84790000 -2.00170000 4.62100000
-11.99270000 -1.68390000 5.01190000
-12.26180000 -1.63140000 4.54080000
-12.52390000 -1.48890000 4.02510000
-12.68800000 -1.57020000 3.62910000
-12.06550000 -1.41090000 4.94430000
-12.39760000 -1.34010000 4.34960000
-12.66050000 -0.92930000 3.92970000
-11.36730000 -1.90420000 5.84150000
-11.63560000 -1.94370000 5.33090000
-11.21990000 -1.97190000 5.88480000
-11.26740000 -1.99700000 5.61050000
-11.40210000 -1.79950000 5.87860000
-11.70270000 -1.86010000 5.37940000
-11.64860000 -1.73090000 5.54750000
-10.44970000 -1.99340000 6.67110000
-11.15840000 -1.84930000 6.21200000
-10.87800000 -1.89330000 6.53690000
-10.62700000 -1.85250000 6.89240000
-10.97730000 -1.94360000 6.30760000
-10.70940000 -1.73460000 6.85320000
-10.61390000 -1.97940000 6.64130000
-11.24190000 -1.67530000 6.16330000
-11.47680000 -1.32930000 5.92050000
-11.02130000 -1.49910000 6.51600000
-10.71890000 -1.56160000 6.89730000
-11.14600000 -1.03300000 6.48100000
-11.51440000 -0.95140000 5.97840000
-11.94720000 -1.82530000 5.01000000
-11.77340000 -1.26200000 5.49320000
-12.05590000 -1.01080000 5.09300000
-12.29470000 -0.83640000 4.71300000
-12.46480000 -0.89540000 4.37540000
-12.67540000 -2.01530000 2.60150000
-11.64930000 -0.40090000 1.34540000
-11.71740000 -0.35500000 -0.09630000
-11.88820000 -0.32220000 0.62100000
-11.54080000 -0.39810000 0.39240000
-11.90370000 -0.26700000 1.56040000
-11.87780000 -0.31710000 1.24750000
-12.03980000 -0.22080000 1.24990000
-12.21260000 -0.11010000 0.64130000
-12.20170000 -0.10000000 1.03950000
-12.02740000 -0.24880000 0.82520000
-12.77960000 -1.88370000 3.07130000
-12.84730000 -1.80260000 3.03170000
-12.99120000 -1.73980000 2.68140000
-12.72380000 -1.75190000 3.42220000
-12.87000000 -1.61010000 3.14020000
-12.98260000 -1.49050000 2.85890000
-12.80460000 -1.21950000 3.46930000
-13.17400000 -1.15510000 2.40800000
-13.05880000 -1.04870000 2.84200000
-13.09490000 -0.50220000 2.95110000
-13.27310000 -0.59480000 2.30640000
-12.84820000 -0.64220000 3.58570000
-13.00790000 -0.82210000 3.10320000
-12.99340000 -0.12430000 3.33340000
-13.15510000 0.04190000 2.89520000
-13.28250000 0.17100000 2.47700000
-13.43570000 0.41390000 1.85170000
-13.60590000 0.44890000 1.01720000
-12.11700000 -0.12020000 1.39010000
-11.93790000 -0.19940000 1.81560000
-12.36250000 0.05750000 1.09300000
-12.31580000 0.07920000 1.39500000
-12.39500000 0.06470000 0.72560000
-12.12480000 -0.01930000 1.86650000
-12.29740000 0.14220000 1.71430000
-12.55400000 0.29090000 0.79030000
-12.54800000 0.33480000 1.07250000
-12.43930000 0.32930000 1.65030000
-12.60530000 0.49680000 1.22300000
-12.48550000 0.45960000 1.70570000
-12.62190000 0.68130000 1.46670000
-12.42800000 0.56460000 2.04920000
-12.46570000 0.73610000 2.05520000
-12.62930000 0.89660000 1.56640000
-11.17510000 -0.48050000 2.25080000
-10.44600000 -0.53360000 3.47560000
-10.43240000 -0.52350000 2.91720000
-10.04770000 -0.55360000 2.64350000
-10.73970000 -0.50740000 1.92330000
-11.08490000 -0.43570000 0.71780000
-10.61570000 -0.48870000 1.26600000
-10.91960000 -0.42790000 0.40190000
-10.52230000 -0.47480000 0.66630000
-11.39640000 -0.44720000 1.27550000
-11.37590000 -0.45290000 2.04890000
-11.32430000 -0.43730000 2.55160000
-11.64830000 -0.36680000 1.94690000
-10.03630000 -0.55720000 1.95900000
-9.68120000 -0.55930000 1.69500000
-11.48100000 -0.26490000 2.95430000
-11.30370000 -0.37070000 3.05280000
-11.60100000 -0.29120000 2.52050000
-11.64190000 -0.00510000 3.24800000
-12.07320000 0.19370000 2.50450000
-11.91060000 0.27200000 3.03800000
-10.61150000 -0.46880000 4.06320000
-10.42660000 -0.51780000 4.01990000
-11.03640000 -0.46260000 3.24180000
-11.08000000 -0.40490000 3.51850000
-10.82290000 -0.40250000 3.97680000
-11.19190000 -0.32100000 3.59070000
-11.14550000 -0.25720000 3.76800000
-10.80440000 -0.33830000 4.16550000
-11.05990000 -0.20640000 3.98130000
-10.90360000 -0.50650000 3.07940000
-11.77790000 -0.12820000 2.55100000
-11.49330000 -0.16070000 3.34130000
-11.35780000 -0.22370000 3.51660000
-11.08410000 -0.08050000 4.10070000
-11.35800000 -0.00950000 3.79510000
-11.09810000 0.04960000 4.19950000
-11.17320000 0.20570000 4.17010000
-11.39720000 0.21610000 3.84880000
-11.44340000 -0.10870000 3.56170000
-11.51160000 0.02110000 3.59160000
-11.64260000 0.13980000 3.43190000
-11.80960000 -0.03290000 2.74520000
-11.83550000 0.33160000 3.25620000
-11.57720000 0.32480000 3.63850000
-11.75580000 0.48470000 3.49930000
-12.01510000 0.51170000 3.05570000
-11.80320000 0.70300000 3.51220000
-11.57790000 0.42810000 3.72130000
-11.47320000 0.59830000 3.95830000
-11.30720000 0.43280000 4.11660000
-12.24330000 0.18640000 2.02250000
-12.35010000 0.40860000 2.12100000
-12.17510000 0.33850000 2.50650000
-12.27160000 0.56050000 2.50900000
-12.16150000 0.54660000 2.77140000
-12.04840000 0.75490000 3.10580000
-12.23970000 0.82880000 2.70950000
-12.36770000 0.76090000 2.36370000
-12.41850000 0.93860000 2.25730000
-12.53560000 1.07630000 1.98370000
-12.62790000 1.16560000 1.83310000
-12.45280000 1.16320000 2.38360000
-7.77930000 -1.97900000 3.03870000
-7.05300000 -0.65440000 3.95580000
-7.25880000 -0.66420000 3.76700000
-7.18210000 -0.69030000 4.27840000
-7.06260000 -0.64400000 3.52740000
-6.32750000 -0.65790000 4.78440000
-6.66580000 -0.57050000 3.77130000
-6.81430000 -0.61520000 4.54440000
-6.87640000 -0.58020000 3.65450000
-6.90670000 -0.60780000 4.11010000
-7.04370000 -0.67120000 4.50750000
-8.53440000 -2.01350000 -2.31420000
-9.67870000 -2.01670000 -1.00070000
-7.67870000 -0.59320000 -0.44950000
-7.74360000 -0.58340000 -0.12600000
-7.45020000 -0.58620000 0.33520000
-7.61160000 -0.56830000 0.57480000
-7.94170000 -0.52400000 0.07770000
-7.29110000 -0.57850000 -0.03270000
-7.13150000 -0.61570000 0.70600000
-8.13110000 -0.58530000 2.39820000
-8.79690000 -0.59290000 2.34900000
-8.10500000 -0.62750000 3.77210000
-8.01410000 -0.53920000 0.37040000
-8.56330000 -0.52160000 0.28490000
-8.30070000 -0.56490000 0.58100000
-8.73810000 -0.55730000 1.04430000
-8.72100000 -0.55510000 0.73570000
-8.77650000 -0.48790000 0.11010000
-9.28230000 -0.57900000 1.83100000
-9.20980000 -0.54740000 1.28670000
-9.02970000 -0.54680000 1.46950000
-9.16280000 -0.49320000 0.18220000
-9.05200000 -0.51940000 0.74530000
-8.77660000 -0.55510000 1.48180000
-8.08320000 -0.57840000 1.52060000
-7.44350000 -0.61430000 1.66810000
-7.67270000 -0.59050000 1.25430000
-7.81270000 -0.58380000 0.89870000
-6.61610000 -0.65670000 1.87560000
-5.86520000 -0.70520000 2.35160000
-6.04160000 -0.69960000 1.52680000
-5.57000000 -0.72330000 1.93470000
-6.20860000 -0.64920000 -0.50030000
-6.20810000 -0.67090000 0.42460000
-5.79720000 -0.66980000 -0.13240000
-6.62530000 -0.61350000 0.18360000
-6.52890000 -0.63100000 -0.28620000
-6.79260000 -0.64070000 1.35210000
-6.47660000 -0.63990000 1.17230000
-6.74380000 -0.60250000 0.59300000
-7.04970000 -0.56100000 -0.16770000
-7.30070000 -0.60340000 1.15980000
-5.31880000 -0.74340000 1.18050000
-7.20330000 -0.63440000 2.79210000
-7.69000000 -0.63460000 3.57840000
-6.53970000 -0.63450000 2.78590000
-6.57340000 -0.66170000 2.55990000
-6.88330000 -0.64750000 2.91780000
-6.81730000 -0.61630000 3.08170000
-6.36490000 -0.59540000 2.77970000
-6.52870000 -0.56980000 2.97300000
-6.37170000 -0.55650000 2.96690000
-6.19750000 -0.58880000 2.75520000
-6.09730000 -0.58460000 2.86140000
-6.31340000 -0.60790000 3.89360000
-6.63010000 -0.54600000 3.15600000
-6.28840000 -0.64780000 2.59320000
-5.83610000 -0.67830000 2.56930000
-6.92000000 -0.61790000 3.23430000
-6.89920000 -0.59320000 3.38970000
-7.06480000 -0.64180000 3.21210000
-6.76920000 -0.55960000 3.23260000
-6.74410000 -0.54790000 3.39700000
-8.49580000 -0.62050000 3.88820000
-9.17260000 -0.58250000 3.50600000
-8.11250000 -0.63040000 4.76350000
-10.78310000 -1.05670000 6.94640000
-10.47490000 -1.25150000 7.27690000
-10.25040000 -0.45820000 4.71090000
-10.56930000 -0.35430000 4.51140000
-9.77750000 -0.53110000 5.01750000
-9.11960000 -0.54590000 5.83710000
-9.84110000 -0.44770000 5.27020000
-10.29760000 -0.35750000 4.92360000
-9.67740000 -0.55760000 4.89250000
-10.56450000 -0.26400000 4.66790000
-10.26190000 -0.27570000 5.06930000
-10.48960000 -0.18960000 4.81590000
-10.61350000 -0.10460000 4.68640000
-10.40140000 -0.09350000 4.96090000
-10.52330000 0.14100000 4.94150000
-10.27340000 -0.20600000 5.08790000
-9.02810000 -0.58710000 5.53080000
-8.77270000 -0.59600000 6.02370000
-9.35920000 -0.56700000 4.71040000
-9.70250000 -0.40300000 5.53530000
-9.86160000 -0.10390000 5.64020000
-9.77440000 -0.30690000 5.59500000
-9.98170000 -0.19920000 5.44730000
-9.21980000 -0.21270000 6.27950000
-9.39190000 0.09210000 6.21740000
-9.97670000 0.22640000 5.64680000
-10.35820000 0.22370000 5.20540000
-10.58210000 0.45380000 5.04200000
-10.19340000 0.52350000 5.52550000
-10.34710000 0.68360000 5.38400000
-7.78080000 -0.67830000 6.58790000
-6.99590000 -0.72090000 6.52840000
-8.39610000 -0.64050000 5.99320000
-7.45950000 -0.67670000 4.46680000
-7.55800000 -0.68130000 5.73820000
-7.14520000 -0.67860000 5.12010000
-8.32180000 -0.62940000 5.42390000
-6.94940000 -0.66550000 5.06990000
-6.97480000 -0.65050000 4.74480000
-7.11290000 -0.68060000 4.68350000
-8.86720000 -0.49010000 6.31510000
-9.19890000 -0.43060000 6.08250000
-9.03520000 -0.37840000 6.33210000
-8.47460000 -0.50840000 6.71980000
-8.69440000 -0.37030000 6.71240000
-8.78830000 -0.28930000 6.69170000
-9.03080000 -0.30470000 6.41370000
-8.87230000 -0.13880000 6.67810000
-8.99780000 0.09060000 6.62750000
-8.23120000 -0.29620000 7.15680000
-8.00160000 -0.24730000 7.39600000
-7.99270000 -0.40740000 7.27410000
-8.05670000 -0.65110000 6.69680000
-8.23260000 -0.60390000 6.75280000
-8.37530000 -0.42000000 6.93340000
-8.66580000 -0.30560000 6.77750000
-8.43450000 -0.25420000 7.00490000
-7.86400000 -0.60180000 7.09900000
-7.87930000 -0.53230000 7.21950000
-7.68120000 -0.64270000 7.13240000
-7.18610000 -0.69460000 7.27920000
-8.07950000 -0.06210000 7.40880000
-8.74270000 -0.10180000 6.79220000
-8.49250000 0.25380000 7.14560000
-8.72550000 0.21750000 6.92570000
-9.01610000 0.32860000 6.71900000
-8.86270000 0.31810000 6.86040000
-8.94300000 0.51790000 6.85850000
-8.77100000 0.54880000 7.00540000
-8.35540000 -0.02320000 7.16340000
-8.11150000 0.16010000 7.46600000
-8.20090000 0.28130000 7.40840000
-9.41020000 0.38570000 6.33270000
-9.19670000 0.50630000 6.62900000
-9.38060000 0.61100000 6.44140000
-9.87920000 0.65850000 5.90340000
-9.07470000 0.51840000 6.73650000
-9.20260000 -0.59560000 2.70160000
-9.56040000 -0.56240000 3.07080000
-10.82490000 -0.17380000 4.34540000
-10.80800000 -0.09870000 4.46560000
-10.88230000 0.16970000 4.51430000
-10.76140000 0.11420000 4.61580000
-11.02300000 0.22570000 4.37680000
-11.13550000 0.49720000 4.36910000
-11.31670000 0.68640000 4.19300000
-10.77080000 0.38630000 4.77340000
-10.84050000 0.62110000 4.75870000
-11.14920000 0.66940000 4.37910000
-9.47880000 -0.87890000 8.40780000
-9.88060000 -0.66970000 8.04330000
-9.55130000 -0.13400000 8.39520000
-9.30170000 -0.45420000 8.60930000
-8.67860000 -0.00630000 9.14330000
-9.03870000 0.01950000 8.85590000
-11.83830000 -0.63620000 5.56280000
-11.99590000 -0.34830000 5.34850000
-12.37470000 -0.22580000 4.70510000
-11.70780000 -0.25680000 5.82420000
-11.36300000 -0.39040000 6.30930000
-12.11080000 0.22460000 5.23450000
-11.80200000 0.37820000 5.76160000
-11.96520000 0.61020000 5.50880000
-12.70880000 -0.13340000 4.02570000
-12.95010000 0.43230000 3.54050000
-13.27780000 0.67830000 2.55530000
-13.13210000 0.71400000 3.03990000
-13.26210000 0.96490000 2.57100000
-13.09040000 0.97950000 3.12780000
-13.43300000 0.88120000 1.89980000
-13.20840000 1.10620000 2.69010000
-13.38590000 1.09320000 2.02410000
-13.29550000 1.18540000 2.26610000
-13.43290000 1.19880000 1.68330000
-13.31740000 1.23350000 2.06350000
-13.30120000 1.27160000 1.99790000
-13.18730000 1.23400000 2.55620000
-12.45870000 0.16040000 4.58720000
-12.66940000 0.48600000 4.19970000
-12.40640000 0.67030000 4.72290000
-12.79820000 0.73570000 3.91390000
-12.94480000 0.81860000 3.55820000
-12.59080000 0.86290000 4.36080000
-12.81750000 1.04760000 3.81600000
-12.57790000 1.07440000 4.33550000
-11.71490000 0.96690000 3.76720000
-11.86640000 0.91030000 3.47780000
-11.58040000 1.02380000 3.99580000
-11.86870000 1.12710000 3.64730000
-11.60210000 1.14000000 4.05190000
-11.42170000 1.24790000 4.61260000
-11.78270000 1.21640000 3.93660000
-12.15230000 1.27610000 3.57950000
-12.17080000 0.88200000 5.15040000
-11.92560000 0.97720000 5.55020000
-12.19290000 1.07310000 5.06440000
-12.21780000 1.17810000 4.91040000
-12.36810000 1.14570000 4.69260000
-12.35660000 1.22370000 4.55890000
-12.07400000 1.22360000 5.01710000
-12.55820000 1.14940000 4.32040000
-12.82330000 1.16210000 3.72130000
-12.65130000 1.21180000 4.01170000
-12.73320000 1.23680000 3.77110000
-12.60670000 1.26830000 3.90610000
-12.50580000 1.20000000 4.35150000
-12.27120000 1.26540000 4.43910000
-11.93910000 1.27450000 4.61510000
-10.50240000 1.21480000 6.34610000
-11.61560000 1.26340000 4.54190000
-13.01540000 1.08950000 3.29630000
-13.12530000 1.17140000 2.88600000
-12.71720000 1.31690000 3.29320000
-12.41110000 1.30380000 3.36510000
-12.78790000 1.32630000 2.57330000
-13.12920000 1.26790000 2.61360000
-12.92860000 1.29320000 3.03930000
-13.04410000 1.33060000 2.24810000
-13.25810000 1.31340000 1.86090000
-13.02640000 1.23680000 3.03810000
-12.32000000 1.09350000 2.64760000
-12.16390000 0.99100000 2.95070000
-12.64070000 1.28220000 2.24260000
-12.36990000 1.27830000 3.12400000
-12.55000000 1.23120000 2.28610000
-12.78440000 1.31770000 2.05140000
-13.00000000 1.17870000 3.24010000
-12.87830000 1.22720000 3.46620000
-12.05500000 0.97200000 3.18690000
-11.93910000 1.03950000 3.44520000
-12.12810000 1.07490000 3.13470000
-12.21380000 1.16660000 3.09200000
-12.26890000 1.22660000 3.12340000
-12.07940000 1.21220000 3.46390000
-10.95620000 -0.49580000 6.83990000
-10.57880000 -0.48070000 7.30640000
-10.22100000 -0.45000000 7.70950000
-10.36130000 -0.02510000 7.59950000
-10.95650000 0.36590000 6.93840000
-10.62930000 0.42890000 7.32680000
-10.24420000 0.42480000 7.74890000
-10.96320000 0.73570000 6.94390000
-10.37770000 0.78390000 7.61110000
-11.36110000 0.19880000 6.38010000
-11.32070000 0.65810000 6.47050000
-11.59780000 0.62880000 6.07940000
-11.64890000 0.88120000 5.99720000
-11.29060000 0.88820000 6.49420000
-11.42940000 1.03750000 6.26330000
-11.71060000 1.06820000 5.85260000
-11.68280000 1.14200000 5.81900000
-11.55190000 1.10970000 6.04820000
-11.46480000 1.17560000 6.05660000
-11.59180000 1.21460000 5.74130000
-11.83260000 1.18200000 5.52290000
-10.56850000 0.88150000 5.19070000
-10.26700000 0.96040000 5.57860000
-9.87550000 0.91570000 5.99550000
-10.99460000 0.99910000 6.85110000
-10.74160000 0.86710000 7.19520000
-10.91070000 1.14580000 6.82760000
-11.31850000 1.13680000 6.32990000
-11.13010000 1.09570000 6.62460000
-10.81630000 1.08960000 7.01990000
-11.03850000 1.18610000 6.56780000
-10.49160000 1.16220000 7.24230000
-11.03310000 1.21590000 6.39800000
-9.94440000 1.17660000 7.68130000
-10.87980000 1.22290000 6.41210000
-9.91360000 -0.01800000 8.05930000
-9.70270000 0.62060000 8.28480000
-9.96050000 0.79550000 8.03280000
-10.56000000 1.02000000 7.36060000
-9.90140000 0.99150000 8.06270000
-10.29580000 1.05320000 7.62140000
-9.89630000 1.06660000 8.02270000
-10.27250000 1.12630000 7.56070000
-9.88820000 1.15290000 7.85310000
-8.58980000 0.85790000 7.24090000
-8.35380000 0.59970000 7.38880000
-9.25460000 0.56040000 8.69600000
-9.38360000 0.93100000 8.55890000
-9.22320000 1.03060000 8.67260000
-9.28870000 1.09040000 8.56540000
-9.55740000 1.06040000 8.36440000
-8.93500000 1.11890000 8.77270000
-9.54900000 1.12090000 8.30530000
-9.86500000 1.11170000 7.99190000
-9.74070000 1.13280000 8.09950000
-9.33160000 1.16660000 8.26300000
-9.82180000 1.18580000 7.65140000
-9.52890000 1.15530000 8.22970000
-9.27410000 1.17140000 7.80680000
-9.23630000 1.18070000 8.14960000
-9.44420000 0.80450000 6.40630000
-10.25780000 1.05590000 5.64640000
-9.80850000 1.11830000 6.20580000
-10.57600000 1.11420000 5.33100000
-10.28140000 1.15970000 5.75680000
-9.64150000 1.15790000 6.51680000
-10.69090000 1.20930000 5.41890000
-9.99590000 1.19260000 6.33740000
-9.55380000 0.94820000 6.34310000
-9.66310000 1.06210000 6.29620000
-10.58880000 1.11270000 7.25330000
-9.15600000 0.70330000 6.69150000
-9.29130000 0.90920000 6.61500000
-8.99230000 0.76430000 6.84770000
-8.95320000 0.94790000 6.94400000
-9.38390000 1.06590000 6.60620000
-8.90890000 1.02570000 7.03150000
-9.24190000 1.10960000 6.81400000
-9.16650000 1.15460000 7.15120000
-8.98940000 1.12130000 7.12540000
-8.72060000 1.07060000 7.25950000
-8.54800000 1.11640000 7.49840000
-11.21290000 0.86230000 4.37890000
-10.83040000 0.91360000 4.86460000
-10.91360000 1.02740000 4.83260000
-11.11110000 1.12160000 4.66870000
-11.11600000 1.19140000 4.80090000
-11.99430000 1.13170000 5.35770000
-4.45710000 -0.84630000 7.69270000
-4.67710000 -0.81590000 7.23520000
-5.02390000 -0.80160000 7.53200000
-3.62110000 -0.87210000 7.28050000
-4.12220000 -0.84490000 7.59310000
-3.91170000 -0.85630000 7.89870000
-4.05080000 -0.81260000 8.19200000
-3.70960000 -0.86230000 7.99360000
-4.76730000 -1.83910000 10.69530000
-4.59840000 -1.88050000 10.66820000
-4.54050000 -1.85590000 10.71590000
-4.93110000 -1.75910000 10.70560000
-5.04430000 -1.83670000 10.65860000
-4.75110000 -1.64510000 10.76340000
-4.62750000 -1.76580000 10.75960000
-4.49920000 -1.81640000 10.75300000
-4.39940000 -1.68900000 10.79770000
-4.32670000 -1.80030000 10.76900000
-4.27810000 -1.85820000 10.72150000
-4.43240000 -1.91630000 10.57770000
-4.00900000 -1.82390000 10.72800000
-3.90510000 -1.88100000 10.65440000
-3.77730000 -1.91770000 10.51510000
-4.12240000 -1.70720000 10.78260000
-4.53000000 -1.54630000 10.80730000
-5.78880000 -1.92640000 10.27670000
-6.58440000 -1.94960000 9.87560000
-5.00290000 -1.94260000 10.30030000
-5.43190000 -1.95070000 9.94780000
-6.31520000 -0.73660000 7.79090000
-6.87290000 -0.68540000 7.64660000
-6.69560000 -0.66150000 7.83780000
-6.25560000 -0.71180000 7.98430000
-6.27070000 -0.65630000 8.12240000
-5.70490000 -0.77470000 8.15210000
-5.91340000 -0.70300000 8.25180000
-7.34200000 -1.86200000 9.75280000
-6.69470000 -1.93100000 9.93910000
-6.89470000 -1.89860000 9.92980000
-7.26650000 -1.79370000 9.84160000
-7.40450000 -1.61300000 9.81430000
-6.78470000 -1.85790000 10.03270000
-7.00140000 -1.60010000 10.01380000
-6.90140000 -1.80360000 10.01750000
-7.70570000 -1.04230000 9.71460000
-7.32300000 -1.18110000 9.90640000
-6.31630000 -1.89650000 10.18350000
-6.63570000 -1.67980000 10.17760000
-6.48470000 -1.79120000 10.20770000
-6.06810000 -1.85640000 10.33480000
-6.03690000 -1.78450000 10.38750000
-6.37740000 -1.66730000 10.28410000
-6.07340000 -1.54720000 10.41730000
-6.76350000 -1.26410000 10.16950000
-6.46100000 -1.22740000 10.30480000
-7.02300000 -0.84950000 10.08920000
-7.31970000 -0.44280000 9.96580000
-6.58690000 -0.53670000 10.29800000
-6.95010000 -0.00890000 10.16940000
-6.92750000 -0.60210000 7.79920000
-6.17340000 -0.58070000 8.30730000
-6.39050000 -0.33280000 8.40480000
-6.66480000 -0.43410000 8.15500000
-6.67900000 -0.25490000 8.27110000
-7.24630000 -0.30290000 7.89020000
-6.78020000 -0.51120000 8.01310000
-6.90200000 -0.13000000 8.19960000
-6.34400000 -0.07180000 8.57100000
-6.73470000 0.07160000 8.38630000
-7.62550000 -0.22710000 9.81820000
-5.45210000 -1.82080000 10.56420000
-5.67990000 -1.84890000 10.47190000
-5.63320000 -1.88350000 10.44020000
-5.30720000 -1.83850000 10.59540000
-5.08560000 -1.88320000 10.58920000
-5.05500000 -1.92920000 10.44570000
-5.20900000 -1.76100000 10.65560000
-3.81330000 -1.93650000 10.30360000
-5.02970000 -1.47140000 10.74120000
-4.91170000 -1.15250000 10.78900000
-4.58710000 -0.98190000 10.84220000
-5.52230000 -0.77470000 7.02200000
-5.64700000 -0.78330000 7.70700000
-5.10770000 -0.82770000 8.03290000
-5.31280000 -0.80910000 8.27430000
-4.86550000 -0.83540000 8.20510000
-4.98780000 -0.75550000 8.49990000
-5.39830000 -0.70840000 8.55090000
-5.03050000 -0.66550000 8.64240000
-5.22420000 -0.62370000 8.68270000
-5.43330000 -0.56390000 8.70460000
-5.28250000 -0.52190000 8.75870000
-5.94080000 -0.77570000 7.84620000
-5.38370000 -0.77980000 8.38850000
-5.72480000 -0.71860000 8.37410000
-5.53590000 -0.71910000 8.48480000
-5.81900000 -0.62110000 8.49110000
-6.01490000 -0.46730000 8.54300000
-5.70510000 -0.52370000 8.64760000
-5.61360000 -0.61640000 8.60350000
-4.93820000 -0.80450000 8.36800000
-5.74930000 -0.38400000 8.72260000
-5.55560000 -0.31990000 8.79690000
-5.28530000 -0.22900000 8.90190000
-4.50310000 -0.79050000 8.40840000
-4.62890000 -0.72470000 8.55090000
-3.92130000 -0.78600000 8.31360000
-3.99730000 -0.74470000 8.44730000
-4.12120000 -0.68660000 8.57540000
-4.37150000 -0.60700000 8.67880000
-4.00810000 -0.62150000 8.62950000
-4.60640000 -0.64830000 8.64010000
-4.62410000 -0.46520000 8.78270000
-4.25130000 -0.48740000 8.75550000
-4.32800000 -0.85120000 7.99160000
-4.43740000 -0.83030000 8.23990000
-4.96540000 -0.56270000 8.74880000
-5.04880000 -0.41630000 8.83780000
-4.81640000 -0.34150000 8.88540000
-5.00150000 -0.16100000 8.96150000
-4.63360000 -0.11320000 8.97990000
-4.54080000 -0.25650000 8.91860000
-4.96750000 -0.00910000 9.00590000
-5.64660000 -1.77480000 10.52050000
-5.54630000 -1.62130000 10.57900000
-5.85130000 -1.23220000 10.53300000
-6.13890000 -0.88380000 10.46120000
-5.38980000 -1.16210000 10.67590000
-5.77420000 -0.81060000 10.59090000
-6.04310000 -0.23420000 10.53660000
-5.47730000 -0.88930000 10.68750000
-5.45430000 -0.48200000 10.71730000
-4.87660000 -0.86650000 10.82160000
-5.13830000 -0.56700000 10.78830000
-4.82050000 -0.61440000 10.82950000
-5.27490000 -0.03510000 10.78530000
-5.84210000 0.05930000 10.63470000
-5.59320000 0.15550000 10.71280000
-5.75950000 0.20490000 10.65880000
-5.63400000 0.49940000 10.70900000
-5.43930000 0.33830000 10.74180000
-5.98640000 -0.36140000 8.63510000
-6.24520000 -0.19090000 8.59090000
-6.00810000 -0.18490000 8.70910000
-6.16250000 0.11850000 8.72860000
-6.45490000 0.26100000 8.63180000
-6.79460000 0.44520000 8.45490000
-5.81290000 -0.20350000 8.77490000
-5.79350000 -0.07450000 8.80730000
-6.14290000 0.43900000 8.84480000
-5.68870000 0.19480000 8.93710000
-6.98610000 0.24670000 8.29240000
-6.61920000 0.49770000 8.60330000
-6.45760000 0.60120000 8.75440000
-5.97280000 0.63090000 8.97900000
-6.46780000 0.80150000 8.80660000
-6.22920000 0.83820000 8.93670000
-5.44640000 -0.13490000 8.91440000
-5.46490000 0.22250000 9.02130000
-5.26850000 0.07280000 9.00620000
-5.67850000 0.61030000 9.08300000
-5.11790000 0.33840000 9.12540000
-4.79210000 0.28010000 9.13790000
-5.22680000 0.56560000 9.18710000
-5.63910000 0.75200000 9.17220000
-5.22240000 0.73500000 9.27420000
-5.73690000 1.00920000 9.70930000
-6.05260000 1.01300000 9.97580000
-5.78560000 0.99480000 10.22000000
-5.93470000 0.81690000 9.08280000
-6.43930000 0.93850000 8.88290000
-6.08480000 0.95430000 9.07660000
-6.54330000 1.00380000 8.87880000
-6.20370000 1.00680000 9.07630000
-5.75940000 0.92520000 9.21110000
-5.85650000 1.01390000 9.29540000
-6.52460000 1.03840000 8.96640000
-5.44010000 0.90380000 9.29860000
-5.76260000 0.98210000 9.26980000
-5.36020000 0.96720000 9.37030000
-5.44750000 0.99730000 9.40880000
-6.06360000 1.03550000 9.30580000
-5.42560000 1.01280000 9.59740000
-2.93030000 -1.87530000 10.45500000
-3.17670000 -1.90960000 10.45130000
-2.74180000 -1.89130000 10.35140000
-2.67020000 -1.83460000 10.39480000
-2.89130000 -1.80470000 10.49760000
-2.50080000 -1.94120000 9.91330000
-2.84250000 -1.92790000 10.25370000
-1.61610000 -1.93820000 9.48820000
-2.32440000 -1.93290000 9.98290000
-2.06320000 -1.90950000 9.94320000
-1.53020000 -1.92090000 9.51980000
-1.75300000 -1.87870000 9.79920000
-1.92320000 -1.84930000 9.95740000
-2.12620000 -1.88040000 10.04360000
-2.47290000 -1.91460000 10.16790000
-2.47150000 -1.87860000 10.25480000
-2.59130000 -1.79220000 10.38350000
-2.66750000 -1.66190000 10.44220000
-3.07420000 -1.71830000 10.58920000
-2.25210000 -1.84610000 10.16940000
-2.42750000 -1.84830000 10.27130000
-2.32150000 -1.76230000 10.24570000
-2.06230000 -1.81730000 10.06770000
-1.91520000 -1.73530000 9.99430000
-1.82050000 -1.81220000 9.91230000
-2.11560000 -1.27610000 10.16170000
-2.38560000 -1.61660000 10.30280000
-2.46290000 -0.68120000 10.39550000
-2.77220000 -0.96280000 10.52520000
-3.37870000 -0.88800000 7.61860000
-3.02430000 -0.89600000 6.60780000
-2.46620000 -0.93070000 6.68570000
-2.89060000 -0.91860000 7.42370000
-3.26830000 -0.87640000 7.81370000
-2.55380000 -0.90860000 7.16130000
-2.82960000 -0.88860000 7.58990000
-2.49480000 -0.82380000 7.44200000
-2.82800000 -0.83900000 7.75020000
-3.64130000 -0.67910000 8.46860000
-3.31820000 -0.71330000 8.31940000
-3.46290000 -0.76870000 8.27210000
-3.38170000 -0.64630000 8.42200000
-3.19050000 -0.58940000 8.38960000
-3.57770000 -0.82360000 8.16190000
-3.17720000 -0.82780000 7.96530000
-3.07680000 -0.73860000 8.12280000
-2.83770000 -0.69160000 8.01400000
-3.06530000 -0.63650000 8.27540000
-2.26920000 -0.86380000 7.03020000
-2.00520000 -0.75930000 7.13170000
-1.85100000 -0.83080000 6.81410000
-2.45860000 -0.75180000 7.55690000
-2.23880000 -0.68260000 7.45690000
-2.54360000 -0.58430000 7.83980000
-2.15900000 -0.55920000 7.49350000
-1.99770000 -0.71660000 7.21280000
-1.92070000 -0.64770000 7.20350000
-1.93060000 -0.48330000 7.33610000
-2.22110000 -0.40860000 7.69470000
-3.15030000 -0.36790000 8.52320000
-3.41390000 -0.49940000 8.54210000
-2.79980000 -0.58960000 8.11110000
-2.58880000 -0.43420000 8.04830000
-2.82450000 -0.45090000 8.25920000
-2.78200000 -0.27210000 8.32070000
-2.56380000 -0.23240000 8.16630000
-2.96030000 -0.34690000 8.42090000
-2.19860000 -0.24280000 7.81780000
-2.31820000 0.12780000 8.15150000
-2.82340000 0.09240000 8.56840000
-2.59170000 0.12890000 8.40590000
-0.34090000 -1.91800000 8.38590000
-0.78650000 -1.93470000 8.75700000
-1.07270000 -1.94420000 8.92340000
-0.24730000 -1.87670000 8.39090000
-0.56500000 -1.87640000 8.75190000
-0.67010000 -1.90780000 8.78310000
-1.02700000 -1.86140000 9.22380000
-0.72320000 -1.84330000 8.95740000
-0.42740000 -1.82090000 8.65570000
-0.71300000 -1.75120000 8.98870000
-0.30910000 -1.70720000 8.55870000
-0.70680000 -1.38120000 9.01410000
-1.10500000 -1.89400000 9.24140000
-0.95440000 -1.80170000 9.20260000
-1.03910000 -1.72730000 9.30760000
-0.92370000 -1.34770000 9.22160000
-0.06200000 -1.90280000 8.09880000
0.00590000 -1.82370000 8.13280000
0.02020000 -1.86590000 8.07480000
-0.22820000 -1.79330000 8.44250000
-0.38220000 -1.18720000 8.67800000
-0.60470000 -0.16990000 8.96160000
-0.81190000 -0.34600000 9.16680000
-0.14540000 -0.77320000 8.41310000
-1.40610000 -1.87780000 9.53860000
-1.58610000 -1.84720000 9.71580000
-1.29450000 -1.80980000 9.51750000
-1.58100000 -1.77530000 9.75080000
-1.29430000 -1.71450000 9.54000000
-1.36190000 -1.55400000 9.59330000
-1.70080000 -0.80580000 9.90960000
-1.14230000 -0.24240000 9.49110000
-2.24120000 -0.57240000 10.28370000
-1.50660000 0.05430000 9.82150000
-1.85140000 -0.25460000 7.43310000
-1.98440000 0.00920000 7.75490000
-2.16810000 0.18790000 8.04860000
-2.09740000 0.37140000 8.05430000
-1.92650000 0.35530000 7.89080000
-2.19200000 0.39300000 8.17580000
-2.00500000 0.55530000 8.07460000
-2.23580000 0.61890000 8.33330000
-2.11010000 0.62150000 8.20620000
-1.94800000 0.71460000 8.16900000
-2.22420000 0.74150000 8.45560000
-1.90130000 0.77990000 8.23570000
-3.77140000 -1.83660000 10.70450000
-3.39330000 -1.87820000 10.58620000
-3.43670000 -1.84900000 10.63370000
-3.81850000 -1.69830000 10.76130000
-3.13300000 -1.83310000 10.56860000
-3.43330000 -1.79680000 10.66770000
-3.40610000 -1.53970000 10.70430000
-3.58860000 -1.67630000 10.73190000
-3.69990000 -1.18030000 10.79130000
-4.01390000 -1.29990000 10.81420000
-4.31560000 -1.17650000 10.84120000
-3.06170000 -1.48820000 10.60480000
-3.39780000 -1.17690000 10.72610000
-4.07120000 -0.80680000 10.86040000
-4.36070000 -0.76170000 10.87060000
-3.82090000 -0.61610000 10.85280000
-3.08910000 -0.93150000 10.65300000
-3.55240000 -0.95320000 10.78700000
-3.38350000 -0.79340000 10.75250000
-3.50510000 -0.43070000 10.79930000
-3.15860000 -0.02250000 10.70950000
-3.71100000 -0.56910000 8.59570000
-3.90470000 -0.49940000 8.69570000
-3.98140000 -0.36600000 8.79330000
-3.66030000 -0.36530000 8.71390000
-3.36510000 -0.21530000 8.68750000
-3.80500000 -0.27240000 8.82110000
-4.06690000 -0.23320000 8.88760000
-3.80660000 -0.00800000 8.93470000
-3.64470000 -0.10780000 8.84000000
-4.36110000 0.02490000 9.01960000
-4.06700000 0.18790000 9.04820000
-3.41550000 0.11880000 8.87610000
-3.00690000 -0.10430000 8.60570000
-3.16780000 0.07850000 8.77130000
-3.03030000 0.24290000 8.76880000
-2.84490000 0.54360000 8.79650000
