-3.33990000 -1.14630000 -7.38960000
-3.23990000 -1.15610000 -7.48480000
-3.22000000 -1.19980000 -7.40410000
-3.03640000 -1.12100000 -7.65420000
-2.99130000 -1.14740000 -7.56450000
-3.08890000 -1.19450000 -7.43040000
-3.52240000 -1.20740000 -7.16570000
-3.54480000 -1.22650000 -6.91320000
-3.35270000 -1.19810000 -7.28340000
-3.39040000 -1.19500000 -7.12060000
-3.46240000 -1.20420000 -6.89580000
-3.35670000 -1.17960000 -6.98760000
-3.41120000 -1.21650000 -6.82010000
-3.28000000 -1.22530000 -6.89860000
-3.51280000 -1.23740000 -6.65340000
-3.36590000 -1.24790000 -6.56920000
-3.16970000 -1.22280000 -7.23190000
-2.99480000 -1.19630000 -7.28560000
-3.24690000 -1.20400000 -7.08230000
-3.12960000 -1.24380000 -6.93230000
-2.90140000 -1.20300000 -7.13650000
-3.16000000 -1.25040000 -6.47560000
-3.01200000 -1.23970000 -6.77330000
-2.91800000 -1.21250000 -6.92060000
-2.80590000 -1.22020000 -6.79160000
-2.79370000 -1.19010000 -6.96180000
-2.72140000 -1.22540000 -6.50540000
-3.35890000 -0.43300000 -6.83930000
-3.83440000 0.29950000 -7.05830000
-4.09220000 0.40530000 -7.03490000
-3.54120000 0.25940000 -6.80260000
-3.94060000 0.47610000 -6.92050000
-3.88450000 0.41670000 -7.03010000
-3.84060000 0.45820000 -6.99880000
-3.77130000 0.40900000 -6.80170000
-3.45510000 0.21800000 -7.24480000
-3.46790000 0.24360000 -7.13670000
-3.72630000 0.35430000 -7.03490000
-3.62490000 0.40840000 -7.02900000
-3.47230000 0.28480000 -7.07210000
-3.57890000 -0.52550000 -6.82660000
-3.56160000 -0.56050000 -6.78540000
-3.31890000 0.32310000 -7.04480000
-3.08050000 0.26150000 -7.10720000
-2.74220000 0.23910000 -7.17970000
-3.33620000 -0.53640000 -6.80180000
-3.22080000 -0.49630000 -6.81990000
-3.28140000 -0.56010000 -6.75430000
-2.79680000 -0.55420000 -6.70910000
-2.91200000 -0.46750000 -6.81150000
-2.57450000 -0.11810000 -6.80290000
-2.67630000 -0.52650000 -6.77180000
-2.00690000 -0.42960000 -6.80290000
-2.39260000 -0.47710000 -6.79910000
-4.01950000 -1.23990000 -6.11760000
-3.99740000 -1.21460000 -6.01610000
-4.06720000 -1.15470000 -5.85590000
-4.05440000 -1.14480000 -5.93360000
-3.89510000 -1.16000000 -5.86410000
-3.83900000 -1.25760000 -6.09390000
-3.91460000 -1.17820000 -5.97360000
-3.86290000 -1.15420000 -5.92380000
-3.72200000 -1.18920000 -5.79440000
-3.55400000 -1.20580000 -5.73570000
-3.55730000 -1.25400000 -6.18050000
-3.75720000 -1.25390000 -6.04970000
-3.62470000 -1.26770000 -6.09890000
-3.74510000 -1.21800000 -5.99010000
-3.71750000 -1.18560000 -5.94480000
-3.59610000 -1.23690000 -5.99850000
-3.43470000 -1.25900000 -6.05330000
-3.26880000 -1.26410000 -6.09820000
-3.73400000 -1.16490000 -5.87750000
-3.63150000 -1.18920000 -5.88090000
-3.46290000 -1.19200000 -5.91640000
-3.36870000 -1.20360000 -5.96680000
-3.34350000 -1.18120000 -5.80530000
-3.35380000 -1.15410000 -5.87590000
-3.26840000 -1.19910000 -5.68080000
-3.33090000 -1.23580000 -6.30850000
-3.28550000 -1.24760000 -6.18070000
-3.21940000 -1.22850000 -5.98660000
-3.32340000 -1.14890000 -5.93660000
-3.25590000 -1.14480000 -5.89560000
-3.21310000 -1.16710000 -5.83030000
-3.18390000 -1.17410000 -5.90520000
-3.04390000 -1.25100000 -6.00900000
-2.97270000 -1.21020000 -5.94420000
-2.93290000 -1.26350000 -6.27850000
-2.77110000 -1.26320000 -6.07090000
-2.67500000 -1.25050000 -6.25770000
-2.57310000 -1.23710000 -5.99600000
-2.44370000 -1.25830000 -6.11260000
-3.36880000 -1.23480000 -5.24470000
-3.03390000 -1.17480000 -5.85250000
-3.03340000 -1.20230000 -5.55590000
-2.91190000 -1.17430000 -5.68250000
-2.88560000 -1.16070000 -5.89610000
-2.75040000 -1.17760000 -5.92220000
-2.76160000 -1.15670000 -5.84540000
-2.68600000 -1.18090000 -5.65860000
-2.52970000 -1.19210000 -5.91250000
-2.61000000 -1.16330000 -5.88710000
-2.53960000 -1.17060000 -5.81230000
-2.73610000 -1.22270000 -5.18780000
-2.19230000 -1.18520000 -5.57210000
-1.93850000 -1.20000000 -5.15640000
-2.81370000 -1.07330000 -7.71120000
-2.96770000 -1.14690000 -7.50710000
-2.85150000 -1.15950000 -7.41760000
-2.63220000 -1.01700000 -7.73180000
-2.54910000 -1.09950000 -7.67850000
-2.66170000 -1.12650000 -7.51160000
-2.25290000 -1.10650000 -7.64550000
-2.42880000 -1.14120000 -7.37120000
-2.30910000 -1.04300000 -7.72250000
-2.15860000 -1.07870000 -7.69560000
-1.87570000 -0.97670000 -7.73330000
-2.75330000 -1.16460000 -7.16750000
-2.68610000 -1.19950000 -7.01550000
-2.30540000 -1.16250000 -7.16960000
-2.56800000 -1.20880000 -6.94390000
-2.65950000 -1.19310000 -6.68380000
-2.50480000 -1.19180000 -6.70660000
-2.40880000 -1.20500000 -6.81920000
-2.32150000 -1.19640000 -6.98870000
-2.14520000 -1.17330000 -6.91020000
-2.26860000 -1.18380000 -6.71500000
-2.36600000 -1.20980000 -6.52750000
-1.89480000 -1.08000000 -7.67430000
-1.63020000 -1.02650000 -7.72350000
-2.00470000 -0.20410000 -7.72370000
-1.43250000 -1.06730000 -7.69810000
-1.04490000 -0.60440000 -7.72170000
-1.89360000 -1.10920000 -7.45790000
-1.97640000 -1.14940000 -7.03290000
-1.75930000 -1.15360000 -7.21510000
-1.68860000 -1.14720000 -7.35020000
-1.55550000 -1.11770000 -7.51550000
-1.74570000 -1.18370000 -7.02380000
-1.85220000 -1.16610000 -6.93430000
-2.08500000 -1.17800000 -6.70160000
-1.80550000 -1.21290000 -6.72410000
-1.42730000 -1.09420000 -7.64970000
-1.51690000 -1.16870000 -7.40500000
-1.52530000 -1.18810000 -7.25660000
-1.27620000 -1.17630000 -7.44630000
-1.23060000 -1.12950000 -7.54150000
-1.35140000 -1.19680000 -7.29230000
-1.60180000 -1.16370000 -7.17630000
-1.38290000 -1.22060000 -6.95510000
-1.21320000 -1.20040000 -7.17310000
-2.43060000 0.23650000 -7.61540000
-2.51600000 0.22560000 -7.67600000
-2.32260000 0.21250000 -7.69880000
-1.83320000 0.19150000 -7.70830000
-1.96210000 0.22740000 -7.68320000
-1.94870000 -0.54910000 -6.67650000
-1.93290000 -0.53860000 -6.72170000
-1.87870000 -0.49760000 -6.77790000
-1.83740000 -0.54780000 -5.67660000
-1.33380000 0.12890000 -7.71230000
-1.43320000 -0.51070000 -6.76930000
-1.35030000 -0.04150000 -6.77920000
-1.10380000 -0.56040000 -6.68210000
-1.30890000 -0.54210000 -6.73500000
-1.05640000 -0.44980000 -6.79450000
-0.87620000 -0.56440000 -5.83220000
-0.98880000 -0.53690000 -6.75360000
-2.47890000 -1.20860000 -6.39750000
-2.55160000 -1.23410000 -6.21930000
-2.40720000 -1.23790000 -6.26350000
-2.21300000 -1.22270000 -6.36140000
-2.04600000 -1.22660000 -6.46710000
-2.09280000 -1.15280000 -5.83090000
-2.34090000 -1.17550000 -5.82110000
-2.21280000 -1.22020000 -5.95770000
-2.11700000 -1.25050000 -6.02560000
-1.86430000 -1.24250000 -6.39870000
-1.98020000 -1.15290000 -5.87230000
-1.58480000 -1.25380000 -6.03150000
-1.50330000 -1.24800000 -6.32440000
-1.78090000 -1.19330000 -5.91300000
-1.50130000 -1.23130000 -5.94060000
-1.91050000 -1.14660000 -5.67260000
-1.69870000 -1.15270000 -5.56930000
-1.68800000 -1.10830000 -5.80230000
-1.73200000 -1.11460000 -5.72610000
-1.55810000 -1.12340000 -5.84700000
-1.40880000 -1.13620000 -5.67030000
-1.09400000 -1.16390000 -5.41830000
-0.62610000 -1.24340000 -6.32740000
-0.74220000 -1.25520000 -5.94720000
-1.36160000 -1.11620000 -5.82030000
-1.25790000 -1.11460000 -5.77890000
-1.24250000 -1.17490000 -5.85300000
-1.13160000 -1.13230000 -5.73220000
-0.72900000 -1.23500000 -5.84430000
-0.92910000 -1.17410000 -5.79990000
-0.88370000 -1.13410000 -5.70650000
-0.85970000 -1.14460000 -5.74930000
-3.96550000 0.46600000 -6.84700000
-3.88930000 0.44640000 -6.81790000
-3.49640000 0.48340000 -6.91150000
-3.63730000 0.46900000 -6.83890000
-3.49480000 0.47580000 -6.97560000
-3.54110000 0.45040000 -7.01290000
-3.46380000 0.44390000 -6.80400000
-3.31980000 0.41350000 -6.79550000
-3.35010000 0.41020000 -7.02640000
-3.27270000 0.45130000 -7.01370000
-2.92430000 0.38010000 -7.02760000
-3.18240000 0.47860000 -6.98610000
-3.09160000 0.42620000 -7.02150000
-3.10320000 0.49020000 -6.88190000
-2.80580000 0.30600000 -7.05740000
-2.57740000 0.39800000 -6.78970000
-3.23130000 0.47050000 -6.82560000
-2.79160000 0.49190000 -6.93850000
-2.75130000 0.44630000 -6.79670000
-2.82630000 0.46490000 -7.00050000
-2.83220000 0.48270000 -6.83240000
-2.31300000 0.26670000 -7.11210000
-3.07000000 -0.56330000 -4.47510000
-2.71600000 -0.57380000 -3.92700000
-1.89600000 -0.55290000 -4.61180000
-2.24820000 -0.56490000 -4.20890000
-1.80140000 0.23750000 -7.20580000
-2.32820000 0.37290000 -7.02740000
-2.03410000 0.30350000 -7.05930000
-2.44520000 0.49120000 -6.95870000
-2.41820000 0.44270000 -7.01360000
-1.77330000 0.23450000 -7.43050000
-1.81840000 0.24170000 -7.63800000
-1.77930000 0.34640000 -7.02610000
-2.39250000 0.48220000 -6.82690000
-2.27290000 0.49570000 -6.87640000
-2.15610000 0.48110000 -6.98000000
-2.15090000 0.44740000 -7.00890000
-2.23150000 0.45350000 -6.80040000
-1.76300000 0.48850000 -6.93790000
-2.08630000 0.48030000 -6.81920000
-1.94800000 0.42380000 -7.01440000
-1.92780000 0.49250000 -6.84950000
-1.53410000 0.45260000 -6.98920000
-1.52540000 0.39990000 -7.00610000
-1.71530000 0.48290000 -6.83890000
-2.02540000 0.40530000 -6.78560000
-1.83830000 0.44390000 -6.78840000
-1.52680000 0.38680000 -6.77460000
-1.49340000 0.23760000 -7.64000000
-1.25860000 0.27170000 -7.07250000
-1.44820000 0.19790000 -7.70000000
-1.34770000 0.22010000 -7.68690000
-1.19970000 0.18150000 -7.70540000
-1.28350000 0.23390000 -7.62070000
-1.17580000 0.22060000 -7.67630000
-0.71620000 0.21740000 -7.58380000
-0.75600000 0.20840000 -7.34570000
-1.36090000 0.46960000 -6.97160000
-0.92650000 0.24990000 -7.09700000
-0.51750000 -0.04910000 -6.77480000
-1.51940000 0.46750000 -6.80590000
-1.42700000 0.43610000 -6.77960000
-1.32550000 0.48630000 -6.91810000
-1.20370000 0.48400000 -6.87880000
-0.71650000 0.39300000 -6.76430000
-1.12610000 0.30430000 -7.03210000
-1.18910000 0.42650000 -6.99730000
-1.16490000 0.46350000 -6.79640000
-1.17380000 0.47090000 -6.96570000
-0.78560000 0.18300000 -6.77250000
-0.75780000 0.30820000 -7.02070000
-0.79730000 0.37220000 -6.99970000
-1.02380000 0.43660000 -6.99100000
-0.97510000 0.46370000 -6.96140000
-0.86780000 0.47080000 -6.92670000
-0.76290000 0.47290000 -6.83600000
-0.83640000 0.43930000 -6.77800000
-2.06450000 -1.22290000 -3.80470000
-2.35480000 -0.59130000 -3.72090000
-2.21230000 -0.58720000 -3.49690000
-2.07180000 -0.56250000 -3.85720000
-1.92430000 -0.58270000 -3.66860000
-1.43770000 -0.59180000 -3.34500000
-0.71920000 -1.17830000 -4.55190000
-0.77660000 -1.20330000 -3.16010000
-1.52790000 -0.55730000 -4.27570000
-0.44260000 -1.14140000 -5.07770000
-0.14790000 -1.17830000 -3.49590000
-0.20210000 -1.12870000 -4.67210000
-0.70980000 -0.58650000 -3.77120000
0.36970000 -0.61970000 -3.78350000
-0.45050000 -0.63290000 -2.02170000
-1.05530000 -1.21550000 -1.60680000
-0.12050000 -1.18780000 -2.47380000
0.02860000 -1.19010000 -2.80800000
0.12310000 -1.21740000 -2.88090000
0.10750000 -1.20650000 -3.31050000
0.08090000 -1.21400000 -2.28260000
-0.03590000 -1.19580000 -1.24910000
0.17170000 -1.25300000 -2.35710000
0.11980000 -1.25240000 -1.70720000
0.03190000 -1.21520000 -1.04290000
0.18890000 -1.26650000 -1.50960000
0.44020000 -1.26080000 -1.69880000
-1.06890000 -1.06700000 -7.69930000
-0.91230000 -1.01970000 -7.71990000
-0.98020000 -1.13010000 -7.47120000
-0.87730000 -1.08370000 -7.67330000
-0.80790000 -1.09590000 -7.63400000
-1.06840000 -1.17480000 -7.34280000
-1.04320000 -1.18700000 -7.21520000
-0.93070000 -1.21460000 -7.07620000
-0.85640000 -1.17660000 -7.33210000
-0.52720000 -1.02470000 -7.72840000
-0.68050000 -1.11680000 -7.51160000
-0.78100000 -1.12970000 -7.42920000
-0.64760000 -1.05080000 -7.71410000
-0.58950000 -1.10570000 -7.65440000
-0.53190000 -1.12240000 -7.68870000
-0.56570000 -1.13900000 -7.57500000
-0.66190000 -1.15490000 -7.17740000
-0.75450000 -1.18890000 -7.17560000
-0.57000000 -1.15040000 -7.33340000
-0.61550000 -1.19440000 -6.95820000
-0.48960000 -1.18640000 -7.42790000
-0.40930000 -1.19240000 -7.19740000
-0.52630000 -1.16210000 -7.03490000
-0.46270000 -1.16340000 -7.10060000
-0.44950000 -1.13830000 -7.71370000
-0.47200000 -1.18580000 -7.63880000
-0.24040000 -1.13880000 -7.71820000
-0.08160000 -1.19660000 -7.63150000
-0.42120000 -1.20220000 -7.55790000
-0.24270000 -1.18590000 -7.68210000
0.15500000 -0.33840000 -7.71940000
-0.27780000 -1.22280000 -7.21300000
0.12570000 -1.20950000 -7.26610000
0.37900000 -1.17090000 -7.68590000
0.15060000 -1.11720000 -7.72250000
0.35050000 -1.00060000 -7.72600000
0.52950000 -1.18810000 -7.59200000
-0.81630000 -1.22570000 -6.86720000
-0.56820000 -1.22380000 -6.64190000
-0.42640000 -1.18020000 -6.83160000
-0.32590000 -1.16010000 -6.95480000
-0.27560000 -1.19470000 -7.02470000
-0.33230000 -1.19120000 -6.75410000
-0.11500000 -1.15110000 -6.67080000
-0.29390000 -1.22620000 -6.50730000
-0.15400000 -1.20100000 -6.52370000
-0.56630000 -1.17900000 -5.72070000
-0.55150000 -1.13390000 -5.61370000
-0.11570000 -1.24980000 -5.79110000
-0.24130000 -1.25270000 -5.73140000
-0.52310000 -1.12680000 -5.48380000
-0.33140000 -1.19800000 -5.65650000
-0.01290000 -1.21750000 -6.22590000
0.01890000 -1.22690000 -5.89300000
-0.19930000 -1.22350000 -5.60930000
-0.17160000 -1.23290000 -7.05900000
-0.05480000 -1.22630000 -7.10480000
-0.10590000 -1.15020000 -6.94710000
-0.08270000 -1.18010000 -6.99210000
-0.17330000 -1.14120000 -6.85390000
0.14450000 -1.19160000 -7.00970000
0.31720000 -1.20310000 -7.02930000
0.21850000 -1.12340000 -6.82090000
0.22250000 -1.14220000 -6.93080000
0.33660000 -1.13050000 -6.38770000
0.11670000 -1.14980000 -6.41960000
0.54770000 -1.20590000 -6.96080000
0.48460000 -1.17260000 -6.90130000
0.53000000 -1.13250000 -6.81370000
0.65590000 -1.11610000 -6.67750000
0.78260000 -1.11450000 -6.42310000
0.12420000 -1.17140000 -6.23820000
0.15210000 -1.19700000 -5.88910000
0.36320000 -1.15730000 -5.84910000
0.51890000 -1.11670000 -7.71520000
0.72950000 -1.13710000 -7.70290000
0.84570000 -1.16810000 -7.65130000
0.80050000 -1.07910000 -7.70930000
0.94240000 -1.12960000 -7.67050000
1.00350000 -1.17770000 -7.54760000
0.80030000 -0.32190000 -7.71100000
0.97300000 -0.69730000 -7.68750000
1.06650000 -1.07080000 -7.64290000
1.07530000 -1.15870000 -7.59440000
1.20630000 -1.13340000 -7.55650000
1.26900000 -1.16400000 -7.46150000
1.17620000 -0.73010000 -7.61400000
1.28490000 -1.09170000 -7.51740000
1.37570000 -0.75010000 -7.46760000
0.88040000 -1.19990000 -6.78530000
1.31180000 -1.19130000 -6.87670000
0.76010000 -1.19600000 -6.78920000
0.75470000 -1.15910000 -6.72380000
0.86110000 -1.13790000 -6.57040000
0.93010000 -1.17950000 -6.60410000
1.35650000 -1.17580000 -7.29640000
1.07750000 -1.19660000 -6.47160000
1.37600000 -1.12370000 -7.42650000
1.43470000 -1.09880000 -7.37400000
1.40370000 -1.16130000 -7.33540000
1.52300000 -1.00480000 -7.27060000
1.49500000 -1.14150000 -7.25810000
1.56140000 -1.15990000 -7.06810000
1.60960000 -1.12130000 -7.05130000
1.54750000 -1.18160000 -6.89060000
-1.05000000 0.22450000 -7.64680000
-0.90270000 0.16920000 -7.70430000
-0.84020000 0.20690000 -7.67980000
-0.56170000 0.14520000 -7.70250000
-0.55980000 0.20290000 -7.66790000
-0.32580000 0.16940000 -7.69640000
0.41920000 0.18970000 -7.33530000
-0.32610000 0.20440000 -7.65930000
-0.79760000 -0.51030000 -6.78550000
-0.71950000 -0.56270000 -6.72200000
-0.62890000 -0.46700000 -6.79920000
-0.53620000 -0.54140000 -6.75860000
0.02080000 -0.21590000 -6.80510000
-0.08380000 -0.46750000 -6.81660000
-0.30300000 -0.52260000 -6.78960000
-0.23220000 0.21340000 -7.17740000
-0.73230000 0.42990000 -6.98530000
-0.42760000 0.23890000 -7.09440000
-0.24450000 0.26840000 -7.04360000
-0.32830000 0.39440000 -6.99550000
-0.02750000 0.11210000 -7.70900000
0.00650000 0.17800000 -7.69420000
0.00840000 0.20890000 -7.63140000
0.24820000 0.18560000 -7.68560000
0.39930000 0.12760000 -7.70390000
0.38500000 0.19060000 -7.66710000
0.45280000 0.20140000 -7.61740000
0.08560000 0.23920000 -7.07850000
0.33700000 0.14860000 -6.77760000
0.94980000 0.19140000 -7.41710000
-0.68450000 0.47320000 -6.91600000
-0.41990000 0.45790000 -6.95990000
-0.35520000 0.44540000 -6.77760000
-0.43020000 0.47370000 -6.91840000
-0.35520000 0.47240000 -6.82710000
-0.13520000 0.32180000 -7.00710000
-0.05970000 0.44180000 -6.96890000
-0.05090000 0.46620000 -6.92060000
0.14790000 0.47440000 -6.87750000
0.09390000 0.37320000 -6.76590000
-0.03940000 0.41930000 -6.76590000
0.02420000 0.46360000 -6.80680000
0.07980000 0.29750000 -7.01520000
0.11370000 0.39990000 -6.98580000
0.30670000 0.23040000 -7.08530000
0.24300000 0.28340000 -7.00860000
0.23820000 0.35570000 -6.97160000
0.16040000 0.45560000 -6.95630000
0.25230000 0.42940000 -6.95540000
0.26350000 0.46940000 -6.89310000
0.32740000 0.29900000 -6.92420000
0.14880000 0.44910000 -6.78030000
0.29480000 0.36400000 -6.89770000
0.30380000 0.35450000 -6.80700000
0.38850000 0.28500000 -6.83010000
0.26470000 0.46770000 -6.80840000
0.27750000 0.30610000 -6.77330000
0.24380000 0.41570000 -6.76660000
0.30330000 0.43110000 -6.86590000
0.41410000 0.25230000 -6.77750000
0.63260000 0.19890000 -7.17930000
0.40010000 0.26500000 -6.98610000
0.55910000 0.25620000 -7.02620000
0.47950000 -0.29650000 -6.83180000
0.55970000 -0.17300000 -6.79660000
0.79330000 0.22740000 -7.07770000
0.45590000 0.27770000 -6.86430000
0.65940000 0.34410000 -6.86620000
0.63280000 0.33850000 -6.78370000
0.52430000 0.23020000 -6.75300000
0.50100000 0.27500000 -6.79440000
0.61510000 0.18100000 -6.71950000
0.63610000 0.31700000 -6.72000000
0.71490000 0.34530000 -6.91850000
0.75460000 0.30680000 -6.97510000
0.72800000 0.30330000 -6.63580000
0.77850000 0.41290000 -6.67750000
0.77670000 0.39890000 -6.62620000
0.80110000 0.40370000 -6.77240000
0.84440000 0.46280000 -6.73060000
0.83760000 0.48020000 -6.57210000
0.89550000 0.51450000 -6.68510000
0.94330000 0.52390000 -6.56250000
-0.45910000 -0.57030000 -6.66870000
-0.16520000 -0.56880000 -6.74710000
0.34840000 -0.59990000 -5.95840000
-0.21910000 -1.14580000 -5.47920000
-0.32650000 -1.10570000 -5.35420000
-0.20030000 -1.11450000 -5.33280000
-0.16510000 -1.10250000 -5.15240000
-0.02530000 -1.23680000 -5.46690000
-0.06550000 -1.17920000 -5.39280000
0.08050000 -1.24670000 -5.38690000
0.38190000 -1.24320000 -5.21480000
-0.04590000 -1.13320000 -5.21110000
0.03770000 -0.54700000 -6.80200000
0.25680000 -0.59240000 -6.65720000
0.23670000 -0.57890000 -6.76710000
0.32650000 -0.51530000 -6.83870000
0.31910000 -0.43640000 -6.84510000
0.50950000 -0.56590000 -6.78400000
0.51760000 -0.50190000 -6.83620000
0.63810000 -0.59110000 -6.65410000
0.67270000 -0.54060000 -6.76940000
0.62950000 -0.60720000 -6.28620000
0.60490000 -0.45360000 -6.81900000
0.69710000 -0.11790000 -6.71280000
0.74130000 -0.57080000 -6.68700000
0.80900000 -0.59920000 -6.24800000
0.58010000 -1.14660000 -5.75850000
0.23330000 -1.22650000 -5.61940000
0.45070000 -1.21610000 -5.41670000
0.37420000 -1.19050000 -5.60070000
0.49390000 -1.16810000 -5.52790000
0.58870000 -1.18900000 -5.47580000
0.78180000 -1.12430000 -5.96130000
0.77750000 -1.16390000 -5.42400000
0.87190000 -1.14090000 -5.48650000
0.94570000 -1.14620000 -5.70740000
0.83470000 -0.59860000 -5.87350000
0.88450000 -0.56520000 -6.08810000
0.83530000 -0.60540000 -5.45970000
0.79510000 -0.30470000 -6.66270000
0.78700000 0.10020000 -6.59480000
0.83660000 -0.14970000 -6.54890000
0.84510000 0.21330000 -6.48450000
0.86180000 -0.05910000 -6.38290000
0.86350000 0.28030000 -6.24780000
0.89340000 -0.39710000 -6.20460000
0.88920000 -0.32610000 -5.64920000
0.81340000 0.38410000 -6.54930000
0.85880000 0.44660000 -6.44900000
0.88880000 0.50340000 -6.48970000
0.87590000 0.41170000 -6.29540000
0.92610000 0.48630000 -6.33220000
1.00840000 0.51860000 -6.35650000
0.92330000 0.46720000 -6.16690000
0.85520000 0.17740000 -5.71810000
0.87520000 0.40200000 -5.77690000
0.90550000 -0.50960000 -6.05870000
0.90540000 -0.54580000 -5.73960000
0.82130000 -0.61640000 -4.94460000
0.89780000 -0.57090000 -5.32340000
0.89870000 -0.55990000 -5.48260000
0.87590000 -0.58430000 -5.67760000
0.90860000 -0.49960000 -5.50410000
0.91940000 -0.51490000 -5.02770000
0.90900000 -0.30520000 -4.18570000
0.87600000 0.12720000 -3.85120000
0.74170000 0.13430000 -7.69940000
0.59380000 0.14420000 -7.70160000
0.60940000 0.18680000 -7.67600000
0.65140000 0.20050000 -7.62090000
0.78080000 0.19000000 -7.66640000
1.11870000 -0.06380000 -7.65140000
1.28940000 -0.17580000 -7.56670000
0.92730000 0.12390000 -7.68900000
0.90490000 0.20020000 -7.63930000
1.03250000 0.18590000 -7.64490000
1.16680000 0.14460000 -7.62380000
1.48010000 -0.36140000 -7.37500000
1.59740000 -0.61410000 -7.15840000
1.57240000 -0.02090000 -7.26750000
0.93760000 0.26230000 -6.99150000
0.90300000 0.32830000 -6.91470000
1.00010000 0.33800000 -6.85130000
1.08990000 0.20430000 -7.09590000
1.05150000 0.24990000 -6.98360000
1.11190000 0.26650000 -6.87450000
1.21840000 0.21210000 -6.91610000
1.13470000 0.19900000 -7.52900000
1.18360000 0.19610000 -7.56420000
1.29610000 0.17690000 -7.53870000
1.39170000 0.11930000 -7.49790000
1.39910000 0.17810000 -7.43560000
1.49090000 0.17590000 -7.30860000
1.34200000 0.18160000 -7.14920000
1.54760000 0.16460000 -6.23160000
1.56100000 0.17200000 -7.07200000
0.85050000 0.39750000 -6.85600000
0.92640000 0.45200000 -6.81660000
0.98190000 0.43090000 -6.78880000
0.88350000 0.47710000 -6.78310000
1.05170000 0.39320000 -6.72560000
1.08340000 0.33050000 -6.75020000
1.18590000 0.25540000 -6.69570000
1.31510000 0.20340000 -6.59320000
0.96320000 0.51900000 -6.73480000
1.00700000 0.52570000 -6.60630000
1.03040000 0.50000000 -6.69380000
1.09230000 0.45210000 -6.62200000
1.50440000 0.09620000 -7.38580000
1.49890000 0.15360000 -7.37060000
1.62870000 -0.15810000 -7.09700000
1.62910000 0.01060000 -7.14930000
1.58630000 0.12120000 -7.27610000
1.60920000 0.15150000 -7.20240000
1.66690000 0.10510000 -7.13220000
1.66320000 -0.04110000 -6.97460000
1.68290000 0.07230000 -7.05830000
1.68010000 0.15140000 -7.02970000
1.71360000 0.10960000 -6.98220000
0.75630000 -0.47840000 -6.73630000
0.81490000 -0.51570000 -6.67410000
0.86490000 -0.44310000 -6.59380000
0.84170000 -0.58310000 -6.43130000
0.83870000 -0.56020000 -6.57500000
0.89840000 -0.54160000 -6.42290000
0.87130000 -0.52130000 -6.57860000
0.89750000 -0.43280000 -6.46360000
0.96750000 -1.14730000 -6.00770000
0.97060000 -1.14320000 -6.39670000
1.03220000 -1.17380000 -6.15580000
1.18130000 -1.21120000 -5.83380000
1.30120000 -1.20550000 -6.13060000
1.07940000 -1.18980000 -5.57440000
1.56270000 -1.18600000 -6.52300000
1.61310000 -1.18160000 -6.16780000
1.56890000 -1.19540000 -5.88050000
1.47170000 -1.20590000 -5.54340000
1.66720000 -1.11790000 -5.90520000
1.66560000 -1.13880000 -6.21270000
1.66880000 -0.97450000 -6.13960000
1.63530000 -1.17150000 -5.87840000
1.65970000 -1.13910000 -5.72330000
1.60730000 -1.06470000 -7.09590000
1.64520000 -0.79880000 -6.97610000
1.63180000 -1.16050000 -6.74360000
1.66030000 -1.08670000 -6.86900000
1.66600000 -1.13380000 -6.60710000
1.67600000 -1.06820000 -6.60550000
1.66630000 -0.72280000 -6.76780000
1.66870000 -0.18400000 -6.85250000
1.64140000 -1.16540000 -6.42460000
1.67780000 -1.11110000 -6.41230000
1.66130000 -0.27370000 -5.89400000
1.15160000 0.30820000 -6.60450000
1.11470000 0.38310000 -6.58940000
1.23760000 0.23480000 -6.36580000
1.15220000 0.33780000 -6.39060000
1.08110000 0.51660000 -6.38010000
1.10290000 0.49750000 -6.51120000
1.13570000 0.45560000 -6.39840000
1.14080000 0.40780000 -6.18640000
1.17340000 0.27710000 -6.04240000
1.22360000 0.22620000 -5.81880000
1.44340000 0.16500000 -5.68160000
1.28700000 0.19320000 -5.45030000
1.67400000 0.15760000 -6.77370000
1.61610000 0.16600000 -6.40460000
1.70800000 0.13460000 -6.62170000
1.69900000 0.13050000 -6.50180000
1.67920000 -0.02710000 -6.69230000
1.67360000 -0.03670000 -6.22300000
1.70100000 0.07070000 -6.55610000
1.69890000 0.10270000 -6.37820000
1.66830000 0.13430000 -5.99890000
1.65070000 0.15180000 -6.29450000
1.68240000 0.13260000 -6.28460000
1.69950000 0.09860000 -6.17670000
1.68660000 0.06130000 -6.16040000
1.67840000 0.01990000 -5.64490000
1.69590000 0.11990000 -6.09440000
1.68860000 0.07460000 -5.92210000
1.70440000 0.07120000 -6.87050000
1.71600000 0.13440000 -6.89880000
1.72060000 0.11160000 -6.75230000
-0.09370000 -1.13000000 -4.60500000
0.01730000 -1.14560000 -4.76510000
0.07270000 -1.18260000 -5.11890000
0.17350000 -1.23630000 -5.08150000
0.15010000 -1.21220000 -4.74980000
0.42560000 -1.25180000 -4.70380000
0.25200000 -1.25580000 -4.44060000
0.17560000 -1.23580000 -4.34410000
0.04540000 -1.17080000 -3.86680000
0.10090000 -1.18220000 -4.10420000
0.67750000 -1.24780000 -4.21850000
0.31230000 -1.25450000 -3.67450000
0.71740000 -1.20860000 -5.23190000
0.90010000 -1.22290000 -4.76650000
1.02520000 -1.15120000 -5.33500000
1.05640000 -1.16200000 -5.44840000
0.95430000 -1.15610000 -5.24680000
0.99850000 -1.19060000 -5.11650000
1.12920000 -1.20140000 -4.87890000
1.12180000 -1.21210000 -4.63060000
1.29020000 -1.18520000 -4.99040000
1.31110000 -1.15240000 -5.09080000
0.19500000 -1.24030000 -3.60550000
0.73990000 -1.23770000 -3.85650000
0.89820000 -0.58290000 -5.07110000
0.88360000 -0.60650000 -4.63640000
0.92710000 -0.56480000 -4.52130000
0.93040000 -0.45700000 -4.24880000
1.15570000 -1.22830000 -3.55490000
1.22660000 -1.22770000 -4.19940000
1.37540000 -1.19810000 -4.83290000
1.43820000 -1.20430000 -4.54530000
1.41950000 -1.21030000 -3.93460000
0.83660000 -0.62630000 -3.94940000
0.91600000 -0.59120000 -4.19480000
0.88340000 -0.61630000 -3.84600000
0.93790000 -0.54820000 -4.01200000
0.93930000 -0.53450000 -4.19410000
0.92760000 -0.58370000 -3.77360000
0.19010000 -1.25020000 -3.18670000
0.56570000 -1.24630000 -3.09080000
0.24160000 -1.25650000 -2.90610000
1.00960000 -1.24530000 -1.93030000
1.25800000 -1.22780000 -2.57280000
1.36870000 -1.20960000 -2.91230000
1.60880000 -1.10300000 -3.46490000
1.56560000 -1.15950000 -3.33550000
1.56940000 -1.17180000 -3.96040000
1.48100000 -1.19720000 -3.52580000
1.63600000 -1.04470000 -3.85860000
1.64680000 -0.97560000 -4.30940000
1.63120000 -0.81360000 -3.13820000
1.62810000 -1.02310000 -2.92070000
1.53670000 -1.17320000 -3.11230000
1.53560000 -1.17630000 -2.83300000
1.60590000 -1.10560000 -2.91090000
1.58080000 -1.14840000 -2.96570000
1.18870000 -1.21130000 -5.48260000
1.15410000 -1.16150000 -5.36330000
1.22160000 -1.13750000 -5.23810000
1.27840000 -1.19620000 -5.38520000
1.25330000 -1.15480000 -5.34830000
1.32300000 -1.22040000 -5.43760000
1.38450000 -1.16910000 -5.34750000
1.50720000 -1.18890000 -5.40910000
1.35100000 -1.13260000 -5.28440000
1.52110000 -1.13100000 -5.31540000
1.47940000 -1.13080000 -5.18640000
1.58490000 -1.10620000 -5.17170000
1.56210000 -1.15330000 -5.03410000
1.60240000 -1.18700000 -5.52080000
1.63940000 -1.16830000 -5.64790000
1.61140000 -1.11460000 -5.36020000
1.62620000 -1.16520000 -5.44850000
1.65960000 -1.12470000 -5.49890000
1.59430000 -1.08800000 -5.29120000
1.65440000 -1.04820000 -5.37960000
1.65690000 -0.88150000 -5.16600000
1.66860000 -1.08790000 -5.58610000
1.59620000 -1.16130000 -4.85960000
1.55720000 -1.17920000 -4.70530000
1.61980000 -1.12370000 -4.96110000
1.64720000 -1.01290000 -5.04390000
1.64500000 -1.03700000 -5.23790000
1.62480000 -1.14870000 -4.72490000
1.63440000 -1.09390000 -4.71360000
1.61290000 -1.14890000 -4.62860000
1.61270000 -1.16520000 -4.46270000
1.55650000 -1.18980000 -4.36250000
1.62830000 -1.12280000 -4.43700000
1.60510000 -1.16550000 -4.25260000
1.61090000 -1.13330000 -4.09690000
0.88990000 0.36980000 -1.21610000
0.91300000 0.39290000 -1.36370000
0.87460000 0.34240000 -1.50880000
0.86750000 0.29770000 -1.14610000
0.95350000 0.40170000 -1.17850000
1.04330000 0.50820000 -6.08740000
0.97390000 0.49200000 -6.00610000
0.93840000 0.47060000 -5.55790000
0.90280000 0.45080000 -5.90970000
1.04890000 0.49200000 -5.62220000
1.08980000 0.49310000 -5.82090000
1.12320000 0.47240000 -5.88900000
1.09490000 0.49920000 -6.02110000
1.12550000 0.43260000 -5.58870000
1.13640000 0.34940000 -5.83130000
1.13610000 0.43330000 -5.93360000
1.11010000 0.46490000 -5.62280000
0.86530000 0.33360000 -4.87690000
0.87150000 0.39460000 -5.23960000
0.92890000 0.45250000 -5.11490000
0.89520000 0.43940000 -5.32600000
0.88410000 0.41160000 -4.94190000
1.13000000 0.32340000 -5.40820000
1.16090000 0.26320000 -5.29220000
1.02410000 0.47710000 -5.26920000
1.09890000 0.45980000 -5.37390000
1.11270000 0.40690000 -5.14380000
1.19810000 0.21100000 -4.27890000
1.12000000 0.34330000 -4.95890000
0.90320000 0.42890000 -4.70430000
0.94870000 0.45260000 -4.76890000
1.00060000 0.46530000 -4.91080000
1.06410000 0.46190000 -4.96060000
1.10110000 0.43350000 -4.99270000
1.07410000 0.46490000 -5.18120000
1.10870000 0.39700000 -4.80300000
1.06570000 0.45270000 -4.75530000
1.08690000 0.50930000 -6.19790000
1.12870000 0.48510000 -6.25160000
1.12850000 0.47740000 -6.09690000
1.50260000 0.14590000 -4.23170000
1.59790000 0.15340000 -5.51540000
1.30510000 0.17090000 -4.40830000
1.57730000 0.15220000 -4.96580000
1.65130000 0.12560000 -5.11350000
1.67170000 0.12240000 -5.40740000
1.64750000 0.14130000 -5.50270000
1.66090000 0.03650000 -4.90420000
1.68210000 0.06050000 -5.37080000
1.67600000 0.10360000 -5.23800000
1.65780000 0.13820000 -5.82900000
1.69110000 0.10750000 -5.73320000
1.69890000 0.08950000 -5.58410000
0.92200000 0.43050000 -4.02170000
0.87790000 0.38460000 -4.19400000
0.87350000 0.35070000 -3.95640000
0.87670000 0.38640000 -4.62410000
0.93170000 0.43890000 -4.43200000
0.90120000 0.42030000 -4.27030000
1.02050000 0.45610000 -4.53120000
1.08030000 0.43740000 -4.59160000
1.10390000 0.40020000 -4.64620000
1.10260000 0.39040000 -4.49520000
1.11060000 0.32520000 -4.48750000
1.08630000 0.41990000 -4.41220000
0.99830000 0.44810000 -4.12570000
1.06040000 0.44080000 -4.26270000
1.10800000 0.31390000 -4.03160000
1.14090000 0.26630000 -4.52200000
1.09150000 0.37780000 -3.86320000
0.94020000 -0.53260000 -3.77690000
0.94050000 -0.52750000 -3.34080000
0.89530000 -0.61770000 -3.56510000
0.92060000 -0.59710000 -3.38330000
1.12410000 0.26460000 -3.70140000
1.45860000 0.13090000 -2.95580000
1.59980000 0.13890000 -4.08260000
1.57720000 0.14920000 -4.45450000
1.63340000 0.12130000 -4.24020000
1.64960000 0.09060000 -4.00500000
1.64660000 0.01460000 -4.06330000
1.62480000 0.12450000 -3.90910000
1.60420000 0.13220000 -3.82170000
1.64860000 0.06120000 -3.79120000
1.63480000 -0.05310000 -3.09400000
1.62450000 -0.33840000 -2.88560000
1.64580000 0.02490000 -3.56330000
0.89050000 0.39580000 -3.75720000
0.94550000 0.43280000 -3.62720000
0.89810000 0.39650000 -3.43730000
0.87870000 0.33170000 -3.39730000
1.01260000 0.44160000 -3.70620000
1.01150000 0.43220000 -3.42340000
1.05250000 0.42540000 -3.53610000
1.07900000 0.38860000 -3.44570000
0.87780000 0.32110000 -2.82580000
0.89370000 0.38490000 -2.81490000
0.92770000 0.41780000 -3.08760000
1.06880000 0.39390000 -3.32160000
1.09270000 0.30550000 -3.13980000
0.99420000 0.42960000 -3.06880000
1.04950000 0.41680000 -3.15620000
1.07840000 0.35880000 -2.88010000
1.04500000 0.41030000 -2.84280000
1.06080000 0.42810000 -3.86790000
1.07620000 0.40270000 -3.61610000
1.13320000 0.23710000 -3.30030000
1.09540000 0.32100000 -3.49440000
1.25890000 0.14750000 -2.22310000
1.58570000 0.13140000 -3.63050000
1.57990000 0.12620000 -3.34570000
1.65780000 0.07370000 -3.47000000
1.64350000 0.10610000 -3.38970000
1.63970000 0.10580000 -3.57070000
1.65830000 0.05990000 -3.29820000
1.64730000 0.09270000 -3.68110000
0.61270000 -0.64680000 -2.21960000
0.81880000 -0.64750000 -2.85720000
0.89770000 -0.62060000 -3.05470000
0.94010000 -0.47530000 -2.86990000
0.93110000 -0.57760000 -2.83870000
0.87410000 -0.63650000 -2.61570000
0.93080000 -0.53610000 -2.33110000
0.90910000 -0.16810000 -2.76930000
0.90560000 -0.12800000 -2.56880000
0.89320000 -0.08040000 -2.25360000
0.91700000 -0.45670000 -1.60140000
0.84420000 -0.64400000 -2.32230000
0.79770000 -0.64950000 -1.87900000
0.86380000 -0.63350000 -2.07600000
0.90650000 -0.60320000 -2.31910000
0.91610000 -0.56640000 -1.94620000
0.72860000 -0.65100000 -0.68990000
0.80170000 -0.64620000 -1.43500000
0.85980000 -0.63170000 -1.79150000
0.88480000 -0.61060000 -1.65600000
0.89730000 -0.60410000 -1.97080000
0.92020000 -0.53540000 -1.79980000
1.52760000 -1.19220000 -2.47890000
1.45780000 -1.21310000 -2.08640000
1.58570000 -1.15990000 -2.56910000
1.60430000 -1.14330000 -2.43130000
1.58600000 -1.17490000 -2.21340000
1.55720000 -1.19050000 -2.02740000
1.61760000 -1.06530000 -2.27560000
1.60410000 -1.15360000 -1.94370000
0.87760000 0.09740000 -2.53170000
0.90250000 0.02110000 -2.61730000
0.89170000 0.09250000 -2.78190000
0.91450000 -0.06380000 -2.71740000
1.10620000 0.26050000 -2.69830000
1.14810000 0.20860000 -2.61790000
0.87410000 0.32580000 -2.09240000
0.87260000 0.15220000 -1.79380000
0.90050000 0.39050000 -2.30740000
0.94650000 0.41930000 -2.64310000
0.98590000 0.41900000 -2.36220000
0.94500000 0.41260000 -2.16500000
0.89140000 0.37940000 -1.97990000
0.98040000 0.41420000 -1.94420000
1.03100000 0.40440000 -2.10350000
1.04110000 0.40070000 -2.27190000
1.07200000 0.35090000 -2.00190000
1.09630000 0.26310000 -2.22020000
1.07470000 0.34470000 -2.30910000
1.01350000 0.42120000 -2.61580000
1.07060000 0.37430000 -2.64660000
1.06030000 0.39050000 -2.46920000
1.12710000 0.20530000 -1.74670000
1.18250000 0.16220000 -1.53170000
1.41260000 0.12010000 -1.90030000
0.90800000 -0.56170000 -1.50190000
0.88270000 -0.11390000 -0.70070000
0.93860000 0.40650000 -1.78620000
1.07380000 0.32600000 -1.86240000
1.08900000 0.25570000 -1.62200000
1.55070000 0.11680000 -1.91490000
1.59000000 0.12260000 -3.13890000
1.58470000 0.12410000 -2.91510000
1.62980000 0.10590000 -2.93900000
1.58550000 0.11550000 -2.70770000
1.64840000 0.05940000 -2.83620000
1.63500000 0.08470000 -2.75530000
1.63820000 0.01310000 -2.80430000
1.63710000 0.01420000 -2.55810000
1.64170000 0.10790000 -3.21750000
1.65390000 0.06060000 -3.11310000
1.64700000 0.07500000 -3.00290000
1.58430000 0.11370000 -2.53340000
1.62380000 0.09380000 -2.42820000
1.63690000 0.07630000 -2.59590000
1.64250000 0.05660000 -2.42910000
1.59740000 0.10220000 -2.07430000
1.62930000 0.06840000 -2.20510000
1.62730000 0.02130000 -1.97370000
1.61920000 -0.07930000 -1.44480000
1.62190000 0.08400000 -1.83980000
1.63560000 0.04770000 -1.61450000
1.61540000 0.08570000 -1.51900000
1.66850000 0.08340000 -4.95670000
1.61300000 0.14610000 -5.00580000
1.64130000 0.12910000 -4.90600000
1.65360000 0.02100000 -4.41780000
1.64100000 0.12290000 -4.73610000
1.65750000 0.07720000 -4.56200000
1.61000000 0.14270000 -4.51610000
1.64740000 0.11210000 -4.49460000
1.64080000 0.11690000 -4.36690000
1.65470000 0.08200000 -4.28890000
0.89900000 0.38360000 -1.57100000
1.01130000 0.40400000 -1.65470000
1.04460000 0.39250000 -1.83700000
1.06480000 0.35530000 -1.62590000
0.96100000 0.40640000 -1.48490000
1.04310000 0.38510000 -1.48090000
1.06700000 0.31380000 -1.26910000
1.08290000 0.24070000 -1.03940000
1.00600000 0.40090000 -1.30120000
1.04670000 0.37360000 -1.19790000
1.00520000 0.39530000 -1.03350000
1.57750000 0.09690000 -1.10350000
-8.84840000 -1.23150000 0.70900000
-8.85440000 -1.22090000 1.01320000
-8.84230000 -1.25570000 0.89550000
-8.85720000 -0.92120000 1.04120000
-8.86120000 -1.16980000 1.16940000
-8.80060000 -1.30710000 0.97620000
-8.81910000 -1.29300000 1.10360000
-8.74910000 -1.31640000 1.10020000
-8.84730000 -1.26490000 1.39320000
-8.79730000 -1.30410000 1.43020000
-8.68790000 -1.31460000 1.55360000
-8.85580000 -1.22270000 1.51990000
-8.86060000 -1.24240000 1.97650000
-8.84250000 -1.28400000 2.21810000
-8.86660000 -1.17580000 2.24010000
-8.81460000 -1.29620000 1.64820000
-8.84580000 -1.26610000 1.78150000
-8.78090000 -1.31130000 1.80730000
-8.88650000 -0.56150000 2.07040000
-8.82870000 -1.29960000 2.00400000
-8.78350000 -1.31820000 2.11940000
-8.48090000 -1.32700000 2.50960000
-8.21630000 -1.32610000 1.71700000
-8.87950000 -0.06370000 1.35830000
-8.88770000 -0.08530000 1.60640000
-8.86490000 -0.06650000 1.74130000
-8.89470000 -0.12060000 1.82080000
-8.90040000 -0.14000000 2.13250000
-8.89050000 -0.47000000 2.70960000
-8.89440000 -0.63540000 3.01510000
-8.82010000 -1.31080000 2.36430000
-8.84850000 -1.27900000 2.42260000
-8.75350000 -1.32430000 2.52530000
-8.87730000 -1.22930000 3.18300000
-8.84220000 -1.30280000 3.32650000
-8.87680000 -1.25720000 3.56060000
-8.88370000 -1.14780000 3.29900000
-8.85780000 -1.29190000 3.73080000
-8.79960000 -1.32450000 3.71500000
-8.89740000 -1.20710000 4.03880000
-8.82560000 -1.31630000 3.99450000
-8.87830000 -1.26700000 4.01650000
-8.91290000 -1.05690000 4.15070000
-8.86550000 -1.28710000 4.20930000
-8.69330000 -1.32070000 4.34450000
-8.86000000 -1.25950000 2.63940000
-8.79860000 -1.32000000 2.61570000
-8.83540000 -1.30440000 2.68210000
-8.81010000 -1.31870000 2.95760000
-8.85780000 -1.28000000 3.09200000
-8.67510000 -1.32990000 3.04370000
-8.20780000 -1.33540000 3.81480000
-8.81050000 -1.31530000 4.51750000
-8.91500000 -1.15140000 4.58350000
-8.89380000 -1.26140000 4.45410000
-8.86620000 -1.30120000 4.56640000
-8.82250000 -1.27840000 0.59200000
-8.75310000 -1.31670000 0.59130000
-8.79410000 -1.30610000 0.75740000
-8.75780000 -1.31790000 0.87450000
-7.95590000 -0.74130000 0.92370000
-7.87630000 -0.78010000 1.04570000
-7.93050000 -0.76870000 1.03820000
-8.01100000 -0.66400000 1.23480000
-8.02090000 -0.62080000 1.71480000
-7.99220000 -0.72370000 1.14180000
-7.98360000 -0.75010000 1.40700000
-7.90700000 -0.78740000 1.49740000
-7.94730000 -0.77360000 1.27060000
-7.80350000 -0.78350000 1.27840000
-8.41290000 -0.02130000 1.74010000
-8.34410000 0.00770000 1.74230000
-8.00450000 -0.30650000 2.51870000
-8.01720000 -0.72500000 1.81890000
-7.95880000 -0.77590000 1.69180000
-8.00190000 -0.75850000 2.05640000
-7.92830000 -0.79620000 2.17560000
-8.03010000 -0.74100000 2.44210000
-7.98620000 -0.78560000 2.42750000
-8.03520000 -0.70800000 2.49640000
-7.53190000 -0.79150000 2.23360000
-7.31950000 -1.27480000 1.80470000
-7.09230000 -1.23720000 3.35150000
-7.23270000 -1.25070000 1.55720000
-6.99710000 -1.23980000 1.10410000
-7.48610000 -1.32690000 3.46840000
-7.41120000 -1.31140000 2.57210000
-8.00660000 -0.78570000 2.89980000
-7.93530000 -0.81560000 2.81120000
-7.36950000 -1.28490000 3.03140000
-7.64350000 -1.33680000 3.83170000
-7.39730000 -1.29540000 4.22580000
-7.27160000 -1.25470000 3.31000000
-6.84520000 -1.24170000 2.19270000
-5.92900000 -1.23210000 3.05940000
-6.26080000 -0.73890000 1.25780000
-5.87610000 -0.76890000 3.74910000
-5.89690000 -0.72530000 0.89040000
-5.28130000 -0.71380000 0.63530000
-5.18090000 -0.73420000 1.58990000
-4.04940000 -1.25500000 0.76970000
-8.89860000 -0.12910000 2.70870000
-8.90430000 -0.15720000 2.98230000
-8.88350000 -0.09060000 2.96700000
-8.87060000 -0.08170000 2.76760000
-8.82500000 -0.06820000 3.03990000
-8.73700000 -0.05440000 1.99420000
-8.82380000 -0.05600000 1.83700000
-8.86730000 -0.07270000 1.96790000
-8.84040000 -0.06140000 2.09900000
-8.26880000 0.09310000 1.97640000
-8.24660000 0.23620000 1.94180000
-8.25410000 0.16870000 1.75070000
-8.89160000 -0.09320000 2.13710000
-8.83020000 -0.06190000 2.29840000
-8.87110000 -0.07230000 2.26540000
-8.89860000 -0.13140000 2.47350000
-8.87260000 -0.08630000 2.48630000
-8.81540000 -0.06990000 2.60650000
-8.76310000 -0.07340000 3.02980000
-8.60430000 -0.09590000 3.99300000
-8.36070000 -0.02020000 2.49100000
-8.30400000 0.02880000 2.32660000
-8.42740000 -0.04750000 2.65660000
-8.42370000 -0.05710000 3.28660000
-8.25230000 0.17460000 2.38690000
-8.23210000 0.25480000 2.31540000
-8.21380000 0.28140000 1.94520000
-8.16850000 0.28450000 2.30060000
-8.25200000 0.21990000 2.51160000
-8.21580000 0.27140000 2.52470000
-8.33960000 -0.01710000 3.18590000
-8.30720000 0.01590000 2.84270000
-8.27040000 0.08550000 2.70600000
-8.25610000 0.22340000 2.77540000
-8.26420000 0.15390000 3.18910000
-8.21490000 0.26570000 2.76250000
-8.24010000 0.24950000 2.97200000
-8.16230000 0.27220000 3.01640000
-8.09300000 0.28000000 2.51650000
-8.06470000 0.26280000 3.05000000
-8.03350000 0.25090000 2.71060000
-8.91540000 -0.50880000 3.67820000
-8.89950000 -0.13420000 3.26690000
-8.86860000 -0.07750000 3.17330000
-8.85290000 -0.08410000 3.35270000
-8.78380000 -0.08450000 3.67860000
-8.91310000 -0.34230000 3.79190000
-8.89450000 -0.12210000 3.49310000
-8.90870000 -0.16600000 3.61950000
-8.85950000 -0.08850000 3.54860000
-8.89990000 -0.12530000 3.73580000
-8.87160000 -0.09670000 3.81660000
-8.91400000 -0.92180000 4.28240000
-8.92430000 -0.58690000 4.35250000
-8.94890000 -0.49440000 4.70060000
-8.94360000 -0.74670000 4.79360000
-8.91810000 -0.23250000 4.14780000
-8.93260000 -0.25440000 4.66900000
-8.90410000 -0.12970000 4.03630000
-8.27990000 0.06040000 3.41860000
-8.01190000 -0.49030000 3.69690000
-8.03220000 -0.66180000 3.05650000
-7.99800000 -0.80480000 3.44760000
-7.93010000 -0.81720000 3.13380000
-8.01950000 -0.80390000 3.81000000
-8.02370000 -0.78470000 3.62380000
-8.04610000 -0.73900000 3.78390000
-8.03750000 -0.72690000 3.46800000
-8.03510000 -0.76690000 3.37280000
-8.03540000 -0.74660000 3.01570000
-7.90320000 -0.83520000 3.73020000
-7.97670000 -0.82450000 3.77780000
-8.03170000 -0.63600000 3.87330000
-8.03930000 -0.77650000 4.01060000
-8.02400000 -0.79220000 4.13440000
-7.96550000 -0.83730000 4.19530000
-8.02840000 -0.74750000 4.27100000
-8.01720000 -0.71270000 4.68470000
-8.91410000 -0.16290000 4.30570000
-8.87000000 -0.09920000 4.20880000
-8.84430000 -0.09450000 4.01950000
-8.79980000 -0.10140000 4.40880000
-8.89820000 -0.12220000 4.32770000
-8.85880000 -0.10610000 4.45300000
-8.89650000 -0.13530000 4.55710000
-8.92440000 -0.17250000 4.78620000
-8.85330000 -0.12160000 4.74370000
-8.90250000 -0.14050000 4.93530000
-8.30810000 0.00630000 4.78140000
-8.28600000 0.05560000 4.09150000
-8.33100000 -0.02280000 4.40960000
-8.28010000 0.16120000 4.47560000
-8.22580000 0.23010000 4.50250000
-8.25180000 0.22000000 4.32250000
-8.27070000 0.20380000 4.61950000
-8.28680000 0.12910000 4.90640000
-8.28020000 0.18240000 4.82110000
-8.23220000 0.22520000 4.75470000
-8.22130000 0.25620000 3.18590000
-8.26710000 0.19020000 3.13350000
-8.26040000 0.21450000 3.35350000
-8.20010000 0.25890000 3.41320000
-8.24170000 0.24050000 3.51710000
-8.26950000 0.15620000 3.58760000
-8.38420000 -0.05880000 4.24080000
-8.30220000 0.01530000 3.78640000
-8.25710000 0.22260000 3.71860000
-8.17590000 0.25740000 3.65640000
-8.12030000 0.26390000 3.28810000
-8.08910000 0.25510000 3.58170000
-8.27460000 0.18040000 3.90780000
-8.00960000 0.20050000 2.73520000
-8.02060000 0.23000000 3.13560000
-8.00760000 0.11850000 3.16230000
-8.04420000 0.24690000 3.38100000
-8.01290000 0.19160000 3.52430000
-8.04190000 0.23700000 3.60610000
-8.00630000 0.07260000 4.01020000
-8.22270000 0.24520000 3.86760000
-8.16570000 0.25090000 3.97600000
-8.08110000 0.24360000 3.85170000
-8.02810000 0.21240000 3.86500000
-8.01950000 0.19880000 3.76090000
-8.49740000 -0.10510000 4.79090000
-7.99410000 -0.29900000 4.59680000
-8.26260000 0.21740000 4.01470000
-8.27710000 0.14980000 4.21830000
-8.21710000 0.24160000 4.14090000
-8.09400000 0.24150000 4.08900000
-8.03190000 0.21910000 3.99700000
-8.00950000 0.16450000 3.96420000
-8.01450000 0.18200000 4.07520000
-8.04060000 0.21280000 4.21240000
-8.00860000 0.07610000 4.41460000
-8.15290000 0.23900000 4.42000000
-8.09280000 0.22580000 4.54860000
-8.18260000 0.22620000 4.95760000
-8.04980000 0.19730000 4.81720000
-8.03050000 0.19060000 4.39760000
-8.01940000 0.14050000 4.76450000
-8.96560000 -0.43960000 5.20900000
-8.96310000 -1.01050000 5.39410000
-8.96980000 -0.65000000 5.56700000
-8.96690000 -0.95320000 5.90180000
-8.95330000 -1.33910000 5.63900000
-8.96510000 -1.28660000 5.97680000
-8.94140000 -1.37170000 5.84660000
-8.94760000 -0.20030000 5.07230000
-8.95390000 -0.27400000 5.36270000
-8.95100000 -0.44540000 5.59120000
-8.93490000 -0.18070000 5.39070000
-8.89740000 -0.14550000 5.28290000
-8.94750000 -0.21130000 5.62450000
-8.94780000 -0.31140000 5.81070000
-8.90700000 -0.15950000 5.66710000
-8.84040000 -0.14390000 5.67820000
-8.83800000 -0.13190000 5.27060000
-8.74740000 -0.13570000 5.54300000
-8.95460000 -0.47440000 6.00020000
-8.95250000 -0.88340000 6.11780000
-8.97470000 -1.18890000 6.15090000
-8.96840000 -1.20200000 6.30520000
-8.95100000 -0.52320000 6.26110000
-8.94450000 -0.91570000 6.26610000
-8.95950000 -0.28600000 6.17710000
-8.92800000 -0.19280000 5.91060000
-8.86880000 -0.13780000 5.90630000
-8.91970000 -0.18030000 6.08470000
-8.86840000 -0.15850000 6.18010000
-8.95130000 -0.21750000 6.19140000
-8.78380000 -0.14910000 6.17960000
-8.96080000 -0.45450000 6.47760000
-8.86260000 -1.39900000 5.70360000
-8.91280000 -1.38810000 6.05080000
-8.87920000 -1.39780000 6.23730000
-8.97250000 -1.34150000 6.09600000
-8.96010000 -1.37670000 6.17470000
-8.98050000 -1.35100000 6.24610000
-8.96380000 -1.38100000 6.32220000
-8.97560000 -1.32640000 6.40510000
-8.94420000 -1.38080000 6.43230000
-8.95300000 -1.18680000 6.52660000
-8.95910000 -1.34000000 6.55260000
-8.92490000 -1.38170000 6.57220000
-8.86360000 -1.38930000 6.65000000
-8.89080000 -1.16670000 6.77560000
-8.94530000 -1.34120000 6.67690000
-8.92310000 -1.36920000 6.77780000
-8.65650000 -1.40670000 6.15220000
-8.71280000 -1.39130000 6.89930000
-8.96140000 -1.10590000 6.60010000
-8.95870000 -0.91130000 6.47930000
-8.95270000 -0.86560000 6.60540000
-8.90990000 -1.10940000 6.70300000
-8.86650000 -1.25410000 6.91640000
-8.93740000 -1.01390000 6.68490000
-8.90740000 -1.32890000 6.87710000
-8.89300000 -1.36970000 6.88770000
-8.90230000 -0.90160000 6.73940000
-8.81460000 -0.97260000 7.02970000
-8.94680000 -0.52170000 6.63440000
-8.96270000 -0.68650000 6.59660000
-8.91370000 -0.55230000 6.73620000
-8.96160000 -0.30520000 6.62050000
-8.81690000 -0.70210000 7.09250000
-8.84990000 -0.62270000 7.04180000
-8.85580000 -0.79110000 6.91360000
-8.80840000 -0.68980000 7.17030000
-8.86300000 -0.44230000 7.01120000
-8.79420000 -0.86530000 7.14650000
-8.83110000 -1.36850000 7.01070000
-8.83200000 -1.32620000 7.07590000
-8.79340000 -1.11060000 7.16710000
-8.69270000 -1.37740000 7.18830000
-8.54480000 -1.38210000 7.25840000
-8.76700000 -1.33060000 7.17880000
-8.81230000 -1.10760000 7.11220000
-8.69270000 -1.33540000 7.25720000
-8.60100000 -1.35940000 7.30390000
-8.72600000 -1.12510000 7.25810000
-8.62750000 -1.25070000 7.32380000
-8.23750000 -1.38490000 7.24790000
-8.52540000 -1.34330000 7.35280000
-8.41040000 -1.32040000 7.40150000
-8.30380000 -1.37330000 7.37470000
-8.62660000 -0.76260000 7.34610000
-8.45450000 -0.77280000 7.42410000
-8.72810000 -0.75060000 7.26090000
-8.78300000 -0.65240000 7.22450000
-8.30830000 -1.17910000 7.43740000
-8.91770000 -1.25570000 4.90190000
-8.89430000 -1.28900000 4.93310000
-8.93800000 -1.15900000 5.01440000
-8.87900000 -1.30110000 5.10940000
-8.94060000 -1.27730000 5.23620000
-8.93530000 -0.95850000 4.98490000
-8.87020000 -1.35550000 5.28190000
-8.92620000 -1.35240000 5.35600000
-8.92800000 -1.37660000 5.50910000
-8.87090000 -1.39380000 5.38790000
-8.72340000 -1.33830000 5.24500000
-8.59900000 -1.32170000 5.16320000
-8.76170000 -1.38600000 5.33380000
-8.60310000 -1.39860000 5.48140000
-8.41640000 -1.34620000 5.37970000
-8.06070000 -1.32820000 5.36050000
-8.51190000 -1.40670000 5.80520000
-8.35640000 -1.36210000 5.54860000
-8.37700000 -1.37130000 5.90640000
-8.15580000 -1.32020000 6.00480000
-8.00990000 -0.80960000 4.49090000
-8.01140000 -0.80960000 4.81630000
-7.96400000 -0.84460000 4.60130000
-7.97560000 -0.84750000 4.92090000
-7.90940000 -0.86130000 4.94370000
-8.00050000 -0.81960000 4.27750000
-7.24670000 -0.84810000 5.19890000
-7.38970000 -1.31000000 5.96170000
-7.45770000 -1.31910000 5.08660000
-7.25760000 -1.29220000 5.53000000
-7.32050000 -1.28760000 5.35530000
-8.38590000 -0.07430000 4.97270000
-8.32890000 -0.03480000 5.21810000
-8.29530000 0.03630000 5.19900000
-8.43790000 -0.11440000 5.64210000
-8.37670000 -0.08370000 5.46990000
-8.02710000 -0.78270000 5.67020000
-8.02870000 -0.77660000 5.50050000
-8.01230000 -0.64120000 5.39340000
-8.01780000 -0.79700000 5.84070000
-7.99410000 -0.83170000 5.86080000
-8.01690000 -0.68330000 5.94540000
-8.00600000 -0.25510000 5.85930000
-8.00540000 -0.56140000 6.24410000
-8.02800000 -0.77530000 5.01410000
-8.02720000 -0.78820000 5.19860000
-8.00800000 -0.83000000 5.06060000
-7.96310000 -0.85540000 5.12890000
-8.01360000 0.01680000 5.45360000
-8.01280000 -0.82590000 5.26920000
-7.97450000 -0.84940000 5.41590000
-8.01420000 -0.82430000 5.51560000
