-8.41080000 0.68680000 -4.58050000
-8.34330000 0.74720000 -4.68400000
-6.05770000 2.03360000 -6.72050000
-2.71880000 3.21420000 -4.33270000
-5.97140000 2.13400000 -6.61800000
-6.10230000 2.16820000 -6.70110000
-6.03340000 2.23700000 -6.64040000
-8.19330000 0.69690000 -4.83490000
-8.11550000 0.64740000 -4.95450000
-1.32630000 2.89630000 -5.18490000
-5.95930000 2.33910000 -6.60950000
-1.60050000 2.87720000 -5.42160000
-8.11310000 0.79730000 -4.87520000
-1.48960000 2.92440000 -5.29610000
-1.56020000 2.94040000 -5.38120000
-6.43930000 2.11920000 -6.58690000
-6.34660000 2.28340000 -6.59690000
-1.64420000 3.00520000 -5.44220000
-7.36960000 2.24840000 -5.26310000
-7.43540000 2.26420000 -5.21070000
-6.42620000 2.19670000 -6.49300000
-6.34950000 2.21850000 -6.38330000
-7.32780000 2.24690000 -5.53330000
-6.28810000 2.24400000 -6.31070000
-6.27830000 2.29660000 -6.26860000
-6.33660000 2.28610000 -6.42280000
-7.28590000 2.28870000 -5.40890000
-1.79560000 3.03160000 -5.50510000
-6.22560000 2.37000000 -6.63480000
-7.27900000 2.36500000 -5.31080000
-7.42810000 2.37320000 -5.27410000
-1.95200000 3.10950000 -5.57570000
-3.09060000 3.29580000 -4.61310000
-7.23960000 2.35600000 -5.35990000
-6.36790000 2.34240000 -6.51850000
-7.37900000 2.07290000 -5.64770000
-7.29410000 2.12570000 -5.69310000
-6.34230000 2.38240000 -6.44870000
-6.30800000 2.37430000 -6.26630000
-6.30270000 2.37250000 -6.36940000
-7.19530000 2.04060000 -5.82780000
-2.07240000 3.22200000 -5.54240000
-7.22930000 2.07160000 -5.74110000
-7.18370000 2.18070000 -5.80660000
-6.19290000 2.51680000 -6.57220000
-1.23590000 2.92030000 -5.09720000
-7.27470000 2.27110000 -5.65220000
-6.12570000 2.35880000 -6.67170000
-7.21240000 2.41950000 -5.51140000
-7.13110000 2.38950000 -5.78480000
-6.01810000 2.43660000 -6.63470000
-7.18500000 2.43270000 -5.65770000
-7.06150000 2.51600000 -5.74710000
-7.07340000 2.55530000 -5.58640000
-7.58730000 2.32460000 -5.17910000
-7.56350000 2.43440000 -5.19500000
-7.44620000 2.49470000 -5.27470000
-7.29600000 2.48760000 -5.30620000
-7.53060000 2.54860000 -5.18720000
-6.46910000 2.50810000 -6.30130000
-8.05800000 0.88270000 -4.86390000
-7.14170000 2.47370000 -5.46040000
-7.07520000 2.15240000 -5.91950000
-6.99570000 2.23180000 -5.94860000
-7.11820000 2.26070000 -5.88070000
-6.97480000 2.39510000 -5.96640000
-6.87660000 2.31830000 -6.04400000
-2.35230000 3.30900000 -5.20760000
-7.00190000 2.49910000 -5.88130000
-2.35250000 3.28410000 -5.51490000
-6.95620000 2.62710000 -5.60480000
-6.93020000 2.62550000 -5.74410000
-6.77490000 2.39150000 -6.10870000
-6.84120000 2.48990000 -5.99900000
-2.22140000 3.24140000 -5.58340000
-2.25020000 3.30180000 -5.47670000
-6.88220000 2.67690000 -5.84200000
-6.85700000 2.56760000 -5.92650000
-6.85810000 2.66070000 -5.90190000
-6.64620000 2.40830000 -6.20410000
-2.12520000 3.29610000 -5.35460000
-2.43080000 3.32180000 -5.46430000
-6.57100000 2.47270000 -6.19950000
-6.70540000 2.56460000 -6.09360000
-6.79880000 2.59970000 -6.00240000
-6.77590000 2.73290000 -5.97400000
-6.69880000 2.68780000 -6.09050000
-7.07650000 2.56690000 -5.33210000
-7.09830000 2.48890000 -5.38820000
-7.03820000 2.56360000 -5.45960000
-6.76820000 2.87580000 -5.10710000
-6.72330000 2.70770000 -5.45990000
-6.87120000 2.65380000 -5.32970000
-7.31030000 2.65780000 -5.26410000
-7.48150000 2.64240000 -5.11820000
-7.35740000 2.71050000 -5.19510000
-4.72120000 3.02780000 -4.81140000
-7.10390000 2.81950000 -5.24510000
-7.06620000 2.66790000 -5.29740000
-6.97670000 2.63790000 -5.33870000
-4.55750000 3.20540000 -4.87860000
-6.90820000 2.74360000 -5.23780000
-6.93370000 2.63140000 -5.40800000
-6.99070000 2.82450000 -5.23200000
-6.82030000 2.81220000 -5.15440000
-6.88120000 2.87500000 -5.15440000
-6.85480000 2.93740000 -5.03100000
-6.80250000 2.97340000 -4.94250000
-6.72040000 3.02560000 -4.89890000
-6.62630000 2.87880000 -5.31850000
-6.86900000 3.01890000 -5.00810000
-4.39310000 3.36790000 -4.92470000
-6.73170000 3.07490000 -4.79910000
-6.77480000 3.09210000 -4.81390000
-6.64970000 3.19070000 -4.68240000
-6.50040000 3.30270000 -4.64200000
-5.70010000 0.65430000 -6.84240000
-6.42790000 3.36610000 -4.53440000
-5.63620000 0.72290000 -6.80980000
-5.69460000 0.76340000 -6.86790000
-5.66250000 0.80660000 -6.93960000
-5.50680000 0.87990000 -6.92270000
-6.80340000 2.69840000 -5.54700000
-6.74110000 2.68530000 -5.50810000
-6.61530000 2.73930000 -5.65370000
-6.54320000 2.76070000 -5.64780000
-6.68760000 2.80490000 -5.73150000
-5.65270000 0.86750000 -7.06810000
-6.41630000 2.85520000 -5.71100000
-6.48980000 2.86910000 -5.73510000
-5.53080000 0.89400000 -7.02970000
-5.52190000 0.95860000 -7.11060000
-6.25370000 2.97520000 -5.55770000
-6.27090000 2.92500000 -5.65690000
-5.40050000 0.98210000 -7.01150000
-6.79190000 2.77000000 -5.75480000
-6.67310000 2.86790000 -5.91180000
-3.93490000 3.03030000 -1.07090000
-2.14650000 3.27000000 -2.47810000
-1.53080000 3.26340000 -2.51540000
-2.57180000 3.01500000 -0.73210000
-1.21990000 3.22340000 -3.04250000
-1.66880000 3.19090000 -1.82510000
-1.09080000 3.13870000 -3.97800000
-0.87890000 3.08550000 -3.99090000
-1.01460000 3.10500000 -4.20810000
-0.96720000 3.10150000 -3.85590000
-1.14780000 3.13260000 -3.78710000
-8.16690000 -2.24580000 -5.02920000
-8.20100000 -2.19830000 -5.14430000
-7.68440000 -2.25260000 -5.62540000
-9.03790000 -2.23770000 -3.34910000
-8.82260000 -2.24400000 -3.86780000
-9.02200000 -2.28790000 -2.88390000
-8.26120000 -2.09650000 -5.28280000
-7.96150000 -2.04600000 -5.74840000
-7.86750000 -2.16520000 -5.65150000
-10.06510000 -1.33460000 -0.70440000
-10.11160000 -0.97880000 -1.15640000
-10.01740000 -1.32210000 -1.31450000
-8.24300000 -1.97290000 -5.49040000
-9.63150000 -2.15070000 0.30200000
-9.63550000 -2.14140000 -0.85810000
-9.53010000 -2.22820000 -0.37610000
-9.73850000 -2.05250000 -0.29540000
-9.11300000 -2.16060000 -3.50280000
-8.73490000 -2.18100000 -4.30100000
-9.08650000 -2.06630000 -3.86180000
-9.26160000 -2.01240000 -3.56230000
-8.75720000 -2.27730000 -3.80250000
-9.40040000 -2.07030000 -2.93140000
-9.43180000 -1.90020000 -3.29900000
-9.25240000 -1.88500000 -3.84450000
-9.76280000 -1.99480000 -0.98130000
-9.85870000 -1.88300000 -0.13700000
-9.41260000 -1.74830000 -3.62910000
-9.53700000 -1.72390000 -3.25030000
-8.67140000 -1.23360000 -4.28080000
-8.79160000 -1.33550000 -4.07960000
-8.67020000 -1.36260000 -4.26580000
-7.89610000 -1.44140000 -3.74720000
-8.54180000 -1.39290000 -4.26310000
-8.62340000 -1.40400000 -3.41360000
-9.21200000 -2.31040000 -0.80340000
-9.38050000 -2.28760000 0.17060000
-9.43200000 -2.27050000 -0.50470000
-9.52820000 -0.45430000 -1.86940000
-9.53030000 -0.85320000 -1.66020000
-9.48080000 -0.78130000 -1.87790000
-9.43440000 -0.66790000 -2.20200000
-9.34490000 -1.64570000 -3.93380000
-6.89260000 -2.27610000 -6.27500000
-7.13070000 -2.30030000 -5.72460000
-7.53380000 -2.27790000 -5.65510000
-7.18920000 -2.24770000 -6.13810000
-8.53620000 -1.10610000 -4.52880000
-8.78400000 -1.04470000 -4.10000000
-8.61790000 -0.72560000 -4.51630000
-9.48920000 -2.23850000 0.45940000
-9.08240000 -1.53200000 -4.59260000
-9.21800000 -1.57280000 -4.29270000
-9.26570000 -1.30900000 -4.38750000
-9.57860000 -0.77890000 -1.42260000
-9.75790000 -2.01880000 0.26750000
-9.61650000 -0.04140000 -1.57160000
-9.60960000 -0.52340000 -1.27430000
-8.95300000 -1.95950000 -4.36720000
-8.78070000 -2.09980000 -4.42690000
-9.14260000 -1.09070000 -4.74820000
-9.43690000 -0.17840000 -2.39000000
-9.96080000 -1.65970000 0.52310000
-9.94170000 -1.72020000 -0.17530000
-9.84190000 -1.84770000 -1.12300000
-9.97940000 -1.60250000 -0.62680000
-7.29570000 -2.18460000 -6.19530000
-9.64000000 -0.19150000 -1.12170000
-9.63120000 -0.53580000 -1.04920000
-9.11010000 -1.79060000 -4.29480000
-9.38310000 -1.04270000 -4.27440000
-10.15730000 -0.68030000 -1.23040000
-10.04480000 -0.88370000 -1.84970000
-9.55200000 -0.93990000 -3.91940000
-9.44330000 -0.64490000 -4.29170000
-10.06020000 -1.44250000 0.09130000
-8.05410000 -1.87820000 -5.83760000
-8.41570000 -1.82090000 -5.41890000
-9.61710000 -0.65210000 -3.82890000
-9.43640000 -1.44040000 -3.89150000
-7.81530000 -1.93700000 -6.03900000
-10.12790000 -1.12440000 -0.40530000
-7.47470000 -2.09840000 -6.18370000
-7.41520000 -2.01980000 -6.34890000
-9.28710000 -0.72760000 -4.61590000
-10.11160000 -0.48410000 -1.78160000
-7.44390000 -1.88130000 -6.45570000
-10.17480000 -0.26300000 -1.38160000
-9.09600000 -0.80420000 -4.94960000
-8.83080000 -2.30080000 -3.08680000
-8.83480000 -2.32030000 -1.63500000
-10.20430000 -0.32770000 -1.05450000
-9.12170000 -0.33760000 -5.01100000
-7.15300000 -2.33200000 -1.81010000
-9.25660000 -0.29860000 -4.76560000
-7.89330000 -1.76130000 -6.11860000
-9.57310000 -1.24260000 -3.67150000
-8.78350000 -0.61980000 -4.18830000
-7.75760000 -1.63310000 -6.34570000
-8.14450000 -1.53090000 -5.97860000
-9.36440000 -1.36780000 -1.16310000
-9.53800000 -1.35300000 -1.28200000
-9.64040000 -1.35550000 -0.29770000
-9.61470000 -1.33040000 -1.03630000
-10.20210000 -0.62670000 -0.65950000
-8.87820000 -0.81590000 -3.95220000
-9.70360000 -1.32300000 -0.32810000
-9.65810000 -1.28090000 -0.79870000
-8.90490000 -0.13340000 -4.04830000
-8.50320000 -1.92900000 -5.17890000
-9.71400000 -1.26070000 -0.27380000
-9.68550000 -1.18750000 -0.53700000
-9.71080000 -1.30230000 -0.17250000
-9.67730000 -1.34970000 -0.20030000
-9.20420000 -1.39240000 0.22150000
-9.71220000 -1.09400000 -0.13230000
-9.67880000 -1.14440000 0.17850000
-9.71070000 -0.98060000 -0.29880000
-8.49530000 -1.52620000 -5.53560000
-8.73040000 -1.46470000 -5.24610000
-8.78800000 -1.22480000 -5.29170000
-10.23530000 0.02680000 -0.84170000
-8.55750000 -1.05430000 -5.69290000
-8.29560000 -1.37050000 -4.85210000
-8.36690000 -1.38590000 -4.66150000
-8.26780000 -1.39660000 -4.79200000
-8.30810000 -1.31160000 -4.86280000
-8.20030000 -1.39830000 -4.93240000
-8.19890000 -1.36630000 -5.02250000
-8.00440000 -1.40790000 -5.00060000
-8.02540000 -1.39440000 -5.20580000
-8.04320000 -1.34990000 -5.25600000
-8.21110000 -1.20640000 -5.04870000
-10.24860000 -0.17170000 -0.25630000
-7.99870000 -2.30860000 -4.00500000
-8.38570000 -2.28900000 -4.32960000
-8.47410000 -2.10040000 -4.95940000
-8.56120000 -2.24760000 -4.36540000
-8.41910000 -1.25810000 -4.67400000
-8.41390000 -0.94900000 -4.78530000
-8.08710000 -2.27540000 -4.98250000
-8.15950000 -0.91780000 -5.22390000
-7.91060000 -1.37980000 -5.38880000
-7.82440000 -1.41210000 -5.35260000
-7.83480000 -1.39770000 -5.43520000
-7.86310000 -1.33270000 -5.46660000
-7.99920000 -1.14300000 -5.37120000
-7.72980000 -1.27010000 -5.62590000
-8.23750000 -1.74510000 -5.72540000
-10.16180000 -1.00620000 0.03130000
-7.76240000 -1.37160000 -5.54360000
-10.20520000 -0.69930000 0.15900000
-10.19300000 0.36610000 -1.43390000
-9.69150000 -0.30120000 -0.42410000
-9.67510000 -0.57500000 -0.56840000
-9.64090000 -0.42740000 -0.75280000
-9.67530000 -0.10270000 -0.63540000
-9.71250000 -2.01360000 1.00220000
-10.27130000 0.53480000 -0.46230000
-9.84880000 -1.85140000 0.84660000
-7.95820000 -1.31120000 -6.30110000
-7.99420000 -0.93230000 -5.45860000
-8.27980000 -1.24630000 -5.97070000
-9.51100000 -2.17770000 1.22720000
-9.45490000 -2.23590000 0.91870000
-9.30200000 -2.28600000 1.06200000
-10.10670000 -0.06890000 -1.96930000
-10.03160000 -0.30430000 -2.36280000
-9.26480000 -2.18710000 -2.91860000
-8.82160000 -0.97900000 -5.34740000
-9.18700000 -2.25570000 -2.70520000
-8.24920000 -1.06510000 -6.07460000
-8.65470000 -0.61500000 -5.69480000
-8.86660000 -0.75530000 -5.34770000
-9.94260000 -1.62110000 1.15420000
-9.56600000 -0.18170000 -1.80340000
-9.55090000 -1.98950000 -2.60910000
-9.61940000 -1.77220000 -2.84780000
-10.04490000 -1.42180000 0.77330000
-8.94990000 -0.63380000 -5.25220000
-9.57840000 -2.08500000 1.54150000
-6.34090000 -1.56830000 0.20150000
-5.97300000 -1.56080000 -0.79560000
-6.75520000 -1.54950000 -0.41370000
-9.68560000 -1.94480000 1.69900000
-9.26440000 -2.29620000 -1.52500000
-9.41720000 -2.18260000 1.72970000
-9.34860000 -2.23010000 -2.23100000
-9.44160000 -2.15210000 -2.38590000
-9.58330000 -2.00190000 1.98260000
-9.54320000 -0.03420000 -1.98980000
-8.94580000 -0.39750000 -5.29180000
-9.78480000 -1.77310000 1.78740000
-9.82710000 -1.80350000 1.36430000
-9.67720000 -1.90290000 -2.27030000
-9.87820000 -1.59220000 1.76250000
-8.84330000 -0.43410000 -5.46030000
-8.75740000 -0.35770000 -5.58840000
-9.61870000 -1.50090000 -3.28190000
-9.76340000 -1.53190000 -2.63830000
-9.72260000 -1.28610000 -3.12170000
-8.72140000 -0.10370000 -5.68780000
-9.59100000 0.28180000 -1.87310000
-8.16350000 -0.58640000 -5.19860000
-8.14970000 -0.21350000 -5.23540000
-8.34340000 -0.51540000 -4.94400000
-9.95630000 -1.43960000 1.56310000
-9.53460000 -2.15310000 -1.84750000
-9.63130000 0.35310000 -1.68890000
-9.65940000 0.38410000 -1.45260000
-9.30770000 -2.27110000 -1.89760000
-8.86820000 0.00390000 -5.46790000
-10.04630000 -1.20560000 1.31780000
-10.14350000 0.54830000 -1.86660000
-8.42040000 -1.35580000 -4.64430000
-9.99160000 0.11480000 -2.64150000
-9.58640000 -2.06940000 -2.12990000
-10.03470000 0.50760000 -2.49040000
-8.46700000 -0.64720000 -5.93070000
-8.29360000 -0.60010000 -6.14450000
-9.44620000 -2.23520000 -1.42150000
-8.25840000 -0.78100000 -5.06170000
-8.45800000 -0.68270000 -4.78220000
-10.15090000 0.79520000 -1.95830000
-10.11270000 0.78080000 -2.20080000
-6.26770000 -1.54330000 -1.52500000
-10.19620000 0.85020000 -1.57210000
-10.15280000 0.88220000 -1.77630000
-9.60700000 -1.32910000 0.84910000
-9.54760000 -1.36660000 0.80370000
-9.61220000 -1.36010000 0.47610000
-9.63540000 -1.33300000 0.62760000
-8.58470000 -0.51240000 -4.62770000
-9.67340000 -2.05150000 -1.61500000
-6.01060000 -1.54540000 -2.27350000
-6.42700000 -1.53380000 -2.25170000
-6.12150000 -1.54300000 -1.92330000
-9.75020000 -1.91650000 -1.73390000
-5.78660000 -1.54650000 -1.95090000
-5.68930000 -1.54580000 -2.45710000
-5.92190000 -1.52100000 -3.42090000
-5.57410000 -1.54220000 -2.73320000
-9.65400000 0.15620000 -1.12560000
-9.66150000 -0.02250000 -0.89730000
-5.50390000 -1.54840000 -2.50060000
-5.50000000 -1.55290000 -2.29070000
-8.76700000 -0.17630000 -4.33160000
-8.66750000 -0.18860000 -4.53160000
-9.16210000 -2.31090000 0.90280000
-9.37650000 -1.38200000 1.25510000
-9.62030000 -1.36550000 0.15650000
-8.86420000 -2.32020000 0.91240000
-9.83480000 -1.59380000 -2.10310000
-9.88960000 -1.66000000 -1.52890000
-5.56640000 -1.55250000 -2.06950000
-5.66570000 -1.54400000 -1.87540000
-5.71690000 -1.54470000 -1.83240000
-5.69990000 -1.54590000 -1.66220000
-9.67620000 0.13640000 -0.67590000
-9.95510000 -1.41770000 -1.68450000
-5.47170000 -1.56120000 -1.62050000
-5.34530000 -1.55820000 -1.74630000
-5.40530000 -1.54990000 -1.91500000
-5.57360000 -1.54820000 -1.76530000
-9.68890000 0.06050000 -0.49460000
-5.35190000 -1.56400000 -2.07590000
-5.40660000 -1.55270000 -2.39560000
-5.20590000 -1.57850000 -1.83640000
-9.69090000 0.47770000 -0.76290000
-9.95140000 -1.23240000 -2.05940000
-8.55140000 -0.08280000 -4.71120000
-10.11090000 -1.23350000 0.53820000
-9.86070000 -1.25450000 -2.53920000
-7.72860000 -1.49160000 -1.22870000
-8.43250000 -1.43360000 -1.76540000
-8.41820000 -1.46000000 -0.37470000
-6.78120000 -2.33380000 1.84100000
-9.68520000 0.58700000 -1.19540000
-9.65740000 0.57800000 -1.58370000
-8.29070000 -0.06560000 -5.06860000
-4.94010000 -2.34790000 0.56840000
-8.47240000 0.22100000 -4.83380000
-5.35010000 -1.57790000 -1.47640000
-5.19010000 -1.58550000 -1.27680000
-9.31620000 -1.37260000 -2.19030000
-9.40090000 -1.35500000 -2.28700000
-9.46840000 -1.35160000 -1.75090000
-9.45070000 -1.30910000 -2.11270000
-4.86470000 -1.58950000 -1.74520000
-8.86580000 0.29340000 -4.21420000
-4.82340000 -1.58980000 -1.18580000
-5.15050000 -1.58350000 -1.08680000
-5.04870000 -1.60100000 -0.55910000
-8.73780000 0.51540000 -4.47640000
-5.30870000 -1.55570000 -1.05010000
-5.22690000 -1.58220000 -0.89000000
-9.92420000 -0.98500000 -2.51590000
-5.71540000 -1.54820000 -1.36210000
-5.85920000 -1.55390000 -1.48430000
-5.60300000 -1.55190000 -1.42540000
-5.77710000 -1.55290000 -1.10860000
-9.05390000 -2.29790000 2.06860000
-9.16260000 -2.25980000 2.18310000
-9.32540000 -2.25260000 1.53600000
-10.24560000 0.62510000 -1.01230000
-10.12640000 -0.97100000 1.00100000
-9.64590000 -1.28560000 0.55160000
-7.03420000 -1.44320000 -5.54370000
-9.62620000 -1.29290000 0.82180000
-7.58030000 -1.41450000 -5.61660000
-7.67070000 -1.38970000 -5.62420000
-8.96330000 -1.36410000 -3.59740000
-9.02200000 -1.38830000 -3.33450000
-8.88400000 -1.39160000 -3.58800000
-9.00270000 -1.31980000 -3.52990000
-7.63820000 -1.36520000 -5.70010000
-8.97940000 -1.39500000 -3.13910000
-9.08430000 -1.36510000 -3.27520000
-9.13270000 -1.33380000 -3.16930000
-10.16840000 -0.89950000 0.53090000
-9.10530000 -1.20990000 -3.25460000
-10.28040000 0.82840000 -0.75460000
-10.26860000 0.81490000 -1.04440000
-10.26580000 0.84970000 -0.93610000
-9.11360000 -1.38730000 -3.11230000
-5.71260000 -1.54590000 -0.95340000
-5.77450000 -1.55350000 -0.77510000
-5.66310000 -1.54590000 -1.15330000
-5.70160000 -1.54300000 -0.81950000
-5.62470000 -1.53980000 -0.93820000
-9.19640000 -1.37780000 -2.95710000
-9.19040000 -1.38700000 -2.85670000
-9.67570000 -1.33320000 0.15770000
-9.68430000 -1.28460000 0.15990000
-5.43870000 -1.58120000 -1.20030000
-5.50610000 -1.57370000 -1.31540000
-5.50540000 -1.55450000 -1.02620000
-5.56830000 -1.55730000 -1.17230000
-10.23920000 0.80230000 -1.33800000
-10.24550000 0.84200000 -1.27140000
-10.19210000 0.88570000 -1.41510000
-5.39930000 -1.55920000 -0.97250000
-5.46800000 -1.53840000 -0.85530000
-10.13550000 0.89760000 -1.52410000
-5.38240000 -1.56760000 -1.14610000
-7.81780000 -2.31930000 3.33420000
-9.60730000 -0.39970000 -3.93220000
-9.72580000 -0.81880000 -0.16190000
-9.70740000 -0.91800000 0.12720000
-9.52090000 -0.34160000 -4.17240000
-9.35060000 -0.23790000 -4.57060000
-9.72500000 0.83640000 -0.90510000
-9.69100000 0.82660000 -1.41400000
-9.72610000 0.87050000 -1.16790000
-10.24350000 0.86290000 -1.10260000
-9.63680000 -1.14920000 0.51250000
-10.21650000 0.87960000 -0.89530000
-10.15920000 0.88420000 -0.86360000
-9.62560000 -1.09180000 0.72730000
-9.67460000 -1.01590000 -3.50600000
-9.64370000 -0.95750000 0.50170000
-9.65190000 -0.81610000 0.64410000
-9.67960000 -0.91360000 0.32930000
-9.53620000 -0.00640000 -4.15580000
-9.25550000 -1.34410000 -2.87000000
-9.29560000 -1.29220000 -2.77780000
-9.68080000 -0.55970000 0.34770000
-9.66010000 -0.52900000 0.51570000
-9.82750000 -1.02490000 -2.94470000
-9.50540000 -1.37480000 1.20470000
-9.57300000 -1.35680000 1.07660000
-9.04830000 -0.05760000 -5.17890000
-9.84310000 -0.76900000 -3.03110000
-9.60690000 -1.12460000 0.99930000
-9.59610000 -1.29540000 1.16940000
-9.05310000 0.34580000 -5.16840000
-9.16420000 0.16330000 -4.96590000
-9.57790000 -1.11410000 1.25240000
-7.09970000 -1.51850000 -1.22800000
-6.58660000 -1.52340000 -2.13750000
-7.20960000 -1.49780000 -2.48630000
-9.55680000 -1.34990000 1.39820000
-9.56050000 -1.25540000 1.42540000
-9.51890000 -1.37300000 1.46800000
-9.47160000 -1.38020000 1.74100000
-9.25900000 0.04280000 -4.78620000
-9.34640000 0.12260000 -4.58390000
-9.54440000 -1.30330000 1.65030000
-9.53280000 -1.19330000 1.68410000
-9.55370000 -0.89040000 1.39120000
-9.20480000 -0.96000000 -3.00000000
-9.25740000 -1.16280000 -2.85920000
-9.03760000 -1.05060000 -3.47290000
-9.13230000 -0.67710000 -3.34070000
-9.42700000 0.38030000 -4.40600000
-9.56740000 0.19050000 -4.07260000
-9.21320000 -0.60650000 -3.12550000
-6.88340000 -1.47960000 -4.26650000
-6.79380000 -1.48050000 -4.77490000
-9.21720000 0.48190000 -4.87140000
-9.71180000 -0.63630000 -0.36640000
-9.43780000 0.50300000 -4.39990000
-9.71760000 -0.53360000 0.04790000
-9.71450000 -0.17380000 -0.10180000
-9.29040000 0.76220000 -4.71590000
-10.19900000 -0.58640000 0.66470000
-9.68740000 -0.06510000 0.24550000
-10.13830000 -0.72070000 1.26120000
-10.03630000 -0.88000000 1.79550000
-10.21050000 -0.21470000 0.89520000
-8.87070000 -1.37190000 -3.85080000
-8.92650000 -1.20120000 -3.75910000
-9.29890000 -1.36770000 -2.64860000
-9.35570000 -1.34170000 -2.55630000
-9.39660000 -1.30660000 -2.43270000
-9.63730000 -0.55630000 0.92970000
-9.35860000 -1.09590000 -2.53280000
-9.41220000 -1.14060000 -2.32460000
-9.66880000 -0.00820000 0.85840000
-9.67270000 -0.23070000 0.64290000
-9.58160000 -0.69180000 1.19960000
-9.62580000 -0.15520000 1.06950000
-9.47640000 -1.27620000 -1.90100000
-9.44570000 -1.05180000 -1.98270000
-9.40710000 -0.89600000 -2.29170000
-8.94410000 -0.95590000 -3.76550000
-9.33480000 -0.90790000 -2.57580000
-8.46980000 -1.47530000 1.94310000
-7.99350000 -1.50690000 0.85820000
-9.37760000 -0.74700000 -2.47720000
-6.65300000 -1.59760000 1.59330000
-9.02090000 -0.75880000 -3.57260000
-9.25520000 -0.69430000 -2.93210000
-9.30850000 -0.60720000 -2.73280000
-9.26250000 -0.57490000 -2.93500000
-9.55430000 -2.18340000 -1.27220000
-10.24720000 -0.09810000 0.30900000
-4.74130000 -2.34420000 -4.04490000
-7.41400000 -2.32250000 -3.51260000
-9.08900000 -0.46060000 -3.49030000
-9.36260000 -0.56350000 -2.54860000
-9.19160000 -0.33900000 -3.25620000
-10.12430000 -0.17860000 1.62650000
-9.01980000 -0.03000000 -3.79480000
-9.70310000 -0.04210000 -0.30350000
-9.69430000 0.02600000 -0.41560000
-9.70360000 0.16510000 -0.26290000
-9.70770000 0.31230000 0.01590000
-9.17190000 0.08450000 -3.42990000
-10.27020000 0.51760000 0.25540000
-9.08850000 0.20120000 -3.63910000
-10.22250000 0.28510000 1.00750000
-9.26200000 -0.38890000 -2.98480000
-9.33330000 -0.15860000 -2.79120000
-10.28810000 0.78910000 -0.34240000
-9.28590000 0.00980000 -3.05480000
-10.28980000 0.81370000 0.15040000
-9.74780000 -0.53100000 -3.46740000
-6.43520000 -1.52240000 -2.07030000
-9.91050000 -0.31800000 -2.92480000
-9.68880000 0.47910000 0.69650000
-6.19450000 -1.60500000 1.77420000
-9.75670000 -0.12340000 -3.52310000
-6.08670000 -1.57040000 0.31410000
-9.99290000 -0.59460000 -2.44840000
-9.69040000 0.33940000 0.31900000
-9.67510000 0.06070000 -3.77990000
-9.84960000 0.00170000 -3.23270000
-9.66510000 0.51830000 0.90950000
-9.78810000 0.26320000 -3.43060000
-9.62020000 0.29230000 -3.95600000
-9.61730000 0.55120000 -3.95020000
-9.79500000 0.56090000 -3.43100000
-8.67940000 -1.99270000 -4.81210000
-9.33920000 0.20340000 -2.88520000
-8.82770000 -1.82170000 -4.78340000
-5.67890000 -1.54560000 -0.67560000
-9.92850000 0.37840000 -2.94390000
-5.87470000 -1.56000000 -0.38830000
-5.79920000 -1.55280000 -0.55720000
-5.71580000 -1.54980000 -0.44500000
-5.60380000 -1.55210000 -0.52690000
-6.03400000 -1.56550000 -0.19060000
-9.39080000 -0.01240000 -2.64540000
-8.76390000 -1.66860000 -5.03610000
-5.88140000 -1.57070000 -0.17660000
-5.79000000 -1.55020000 -0.38400000
-5.77170000 -1.55460000 -0.27860000
-5.61660000 -1.57250000 -0.18290000
-5.76050000 -1.57360000 -0.07700000
-5.56780000 -1.58550000 0.09050000
-8.95030000 -1.36540000 -4.94880000
-9.41270000 0.09950000 -2.54350000
-5.80450000 -1.58900000 0.48380000
-9.36200000 0.11950000 -2.73260000
-5.66520000 -1.56090000 -0.31640000
-5.51400000 -1.56400000 -0.36180000
-5.51590000 -1.57050000 -0.14440000
-5.44350000 -1.56830000 -0.21080000
-9.41680000 0.38980000 -2.57670000
-5.47280000 -1.57290000 -0.01970000
-5.44010000 -1.56860000 -0.10710000
-5.38550000 -1.57040000 -0.13730000
-5.38120000 -1.57670000 0.02360000
-9.25640000 0.27690000 -3.26600000
-9.33250000 0.45490000 -3.03330000
-9.39070000 0.57420000 -2.74140000
-5.44170000 -1.60430000 0.63230000
-5.39510000 -1.59930000 0.28240000
-5.44460000 -1.58390000 0.09320000
-5.28300000 -1.59180000 0.21420000
-9.37460000 0.68460000 -2.93320000
-7.63760000 -1.53360000 0.64380000
-7.05420000 -1.59620000 2.23490000
-5.23460000 -1.61090000 1.03630000
-9.94190000 0.75870000 -2.95200000
-10.03080000 0.69680000 -2.64960000
-10.07210000 0.72350000 -2.43790000
-10.02880000 0.84800000 -2.69100000
-10.08320000 0.80240000 -2.49360000
-9.66830000 0.69540000 0.92570000
-10.26400000 0.58370000 0.69790000
-10.27810000 0.69180000 0.46970000
-10.25270000 0.65660000 0.96800000
-10.28800000 0.70310000 0.82420000
-10.19650000 0.60030000 1.39970000
-10.26050000 0.74300000 1.04310000
-9.77390000 0.86830000 -3.48840000
-9.86820000 0.88180000 -3.19310000
-10.27100000 0.80040000 0.94610000
-9.82910000 0.90100000 -3.28960000
-9.94530000 0.87750000 -2.94170000
-9.90900000 0.91410000 -2.94860000
-9.81220000 0.92870000 -3.19590000
-10.28630000 0.80210000 0.34430000
-5.52850000 -1.62180000 1.79170000
-10.00190000 0.89810000 -2.67930000
-10.27230000 0.84820000 0.03720000
-10.24910000 0.86540000 0.31530000
-10.12810000 0.87340000 0.41550000
-10.21650000 0.87230000 -0.03400000
-10.27340000 0.78990000 0.53510000
-10.26160000 0.83440000 0.46500000
-9.99740000 0.91690000 -2.38040000
-10.22920000 0.85030000 0.58290000
-9.85190000 0.92460000 -2.86880000
-10.28540000 0.72660000 0.68220000
-10.27340000 0.80830000 0.69380000
-10.29370000 0.77420000 0.83690000
-10.24400000 0.84830000 0.81180000
-10.16730000 0.87030000 0.85560000
-8.99480000 0.51170000 -4.01520000
-5.38640000 -1.54260000 -0.78130000
-5.27240000 -1.57310000 -0.54170000
-5.29180000 -1.55920000 -0.78190000
-5.40260000 -1.56290000 -0.55120000
-5.35970000 -1.57260000 -0.26070000
-5.31210000 -1.57710000 -0.06200000
-5.18720000 -1.59350000 0.13710000
-9.71350000 0.51130000 -0.26410000
-9.68930000 0.44300000 -0.53270000
-9.16710000 0.65400000 -3.55760000
-4.79630000 -1.62900000 1.60400000
-8.77080000 -1.38680000 -3.97340000
-9.08310000 0.70410000 -3.78520000
-8.87020000 -1.29660000 -3.91040000
-4.42400000 -1.61380000 0.22950000
-8.73820000 -1.37900000 -4.11430000
-9.71600000 0.64280000 0.11620000
-9.72810000 0.79870000 -0.24810000
-8.88450000 0.69270000 -4.22740000
-8.52490000 -1.37780000 -4.44720000
-9.72260000 0.81920000 -0.58350000
-9.74960000 0.85290000 -0.11180000
-8.55330000 -1.32950000 -4.45710000
-9.15140000 0.87240000 -3.61860000
-9.00970000 0.86970000 -4.00560000
-8.97070000 0.83230000 -4.08800000
-10.29200000 0.77010000 -0.60280000
-9.06720000 0.89600000 -3.88720000
-9.21050000 0.91560000 -3.55870000
-9.05020000 0.92320000 -4.04830000
-9.26010000 0.93110000 -3.77710000
-5.54460000 -1.54180000 -0.76060000
-5.49410000 -1.55470000 -0.60910000
-9.94080000 0.87770000 -0.41320000
-10.22170000 0.87700000 -0.45290000
-10.28820000 0.83000000 -0.52180000
-10.24350000 0.87260000 -0.32150000
-10.26220000 0.85680000 -0.66000000
-9.48750000 0.75630000 -4.26830000
-10.27780000 0.83670000 -0.27770000
-9.61370000 0.92320000 -3.90050000
-9.61910000 0.86990000 -3.92500000
-9.67770000 0.90230000 -3.75150000
-9.61060000 0.94020000 -3.78180000
-9.72780000 0.89270000 -3.62110000
-9.68340000 0.92650000 -3.67850000
-9.69000000 0.93710000 -3.52390000
-9.81060000 0.88810000 -1.19890000
-9.52450000 0.90110000 -4.15050000
-9.78180000 0.87560000 -0.66600000
-9.74530000 0.86340000 -0.57280000
-9.57610000 0.92040000 -4.00300000
-9.43830000 0.88250000 -4.36620000
-9.47320000 0.92200000 -4.23760000
-9.53650000 0.94220000 -4.01910000
-9.46840000 0.94580000 -4.14570000
-9.37280000 0.89950000 -4.51210000
-9.26600000 0.94410000 -4.49410000
-9.37380000 0.93100000 -4.45730000
-9.39710000 0.93530000 -4.36650000
-9.79210000 0.87330000 -0.14100000
-9.43050000 0.94450000 -4.14040000
-8.91040000 0.92560000 -4.38850000
-9.71210000 0.63430000 0.37690000
-9.56360000 0.94630000 -3.88960000
-9.73170000 0.80180000 0.38060000
-9.74640000 0.84370000 0.30120000
-9.79410000 0.86880000 0.37000000
-9.71050000 0.74770000 0.53970000
-9.75960000 0.85670000 0.73800000
-9.22020000 0.60710000 -3.45660000
-9.87350000 0.87210000 0.48940000
-9.71550000 0.81050000 0.82860000
-9.29580000 0.58950000 -3.23180000
-9.26370000 0.71770000 -3.33610000
-9.34680000 0.64650000 -3.09580000
-9.34370000 0.74240000 -3.10940000
-9.33490000 0.85260000 -3.11530000
-9.24920000 0.84170000 -3.37390000
-9.29690000 0.88440000 -3.23580000
-9.39380000 0.83250000 -2.85080000
-9.77610000 0.92470000 -3.37540000
-9.56030000 0.92790000 -2.95330000
-9.56800000 0.58450000 -2.13340000
-9.52410000 0.58890000 -2.31630000
-9.31360000 0.92580000 -3.34760000
-9.40810000 0.88950000 -2.85440000
-9.36900000 0.90610000 -3.08560000
-9.41820000 0.92390000 -3.04710000
-9.61770000 0.53600000 -1.83990000
-9.65450000 0.75980000 -1.76660000
-9.44490000 0.85440000 -2.63430000
-9.54090000 -1.32090000 -1.51040000
-9.59090000 -1.27950000 -1.32500000
-9.60090000 -1.10320000 -1.18360000
-9.56520000 -1.09940000 -1.42880000
-9.62160000 -0.94480000 -0.91980000
-10.10280000 0.84430000 -2.32430000
-10.10400000 0.88360000 -2.16190000
-10.06820000 0.87190000 -2.47830000
-10.05840000 0.90110000 -2.33130000
-9.64950000 0.85490000 -1.83040000
-9.70610000 0.89310000 -1.66740000
-9.61550000 0.90990000 -2.26340000
-9.51540000 -1.23120000 -1.63450000
-10.14010000 0.85660000 -2.04180000
-10.10870000 0.89770000 -2.01630000
-9.49180000 -1.08390000 -1.69770000
-9.55170000 0.84950000 -2.30440000
-9.49110000 0.91640000 -2.63540000
-9.53600000 0.89600000 -2.40760000
-9.60780000 -0.75250000 -1.13150000
-9.68080000 0.73630000 -1.50100000
-9.67180000 -0.96560000 -0.58860000
-9.63070000 -0.59950000 -0.91260000
-2.28570000 -1.38640000 7.38270000
-2.03090000 -1.05700000 7.35010000
-2.48540000 -1.22520000 7.54100000
-4.35130000 -1.95110000 7.64540000
-4.51640000 -1.69320000 7.78740000
-4.78420000 -1.77230000 7.72280000
-3.98350000 -1.84110000 7.70010000
-3.84330000 -1.64850000 7.77960000
-1.93550000 -1.45990000 7.14660000
-1.66820000 -1.18090000 7.08240000
-4.25880000 -1.62260000 7.82340000
-2.26230000 -0.81540000 7.53180000
-3.75890000 -1.62310000 5.23770000
-4.48170000 -1.62240000 5.02430000
-4.86990000 -1.62400000 5.40160000
-2.52050000 -0.90510000 7.63470000
-4.06050000 -1.62580000 5.80530000
-2.78440000 -2.34190000 5.31740000
-0.60790000 -2.34390000 3.51090000
-1.30370000 -2.33050000 5.02230000
-4.75530000 -1.44700000 7.86470000
-5.16910000 -1.59480000 7.73010000
-4.39240000 -1.43160000 7.89280000
-2.59390000 -2.32670000 6.29410000
-5.06770000 -1.32120000 7.84440000
-1.48630000 -0.73640000 7.07080000
-2.49940000 -0.76520000 6.93630000
-2.28680000 -0.55650000 6.85210000
-2.28670000 -0.84020000 6.82250000
-4.95630000 -1.08000000 7.92590000
-4.57610000 -1.27160000 7.93160000
-4.82070000 -0.87340000 7.97450000
-1.97980000 -0.66370000 7.40940000
-2.11740000 -0.36870000 7.52170000
-2.56160000 -0.62170000 7.69690000
-0.87840000 -2.28500000 5.27690000
-1.36630000 -2.30340000 5.69660000
-0.53740000 -2.32120000 4.61730000
-0.61890000 -2.22900000 5.14050000
-1.17870000 -2.22060000 5.82070000
-3.01450000 -1.84150000 7.46160000
-2.95780000 -1.63700000 7.56690000
-3.36050000 -1.85080000 7.57060000
-3.26750000 -1.59440000 7.68870000
-1.33850000 -0.99580000 6.89680000
-1.33840000 -1.40270000 6.75530000
-2.79440000 -2.32480000 6.63650000
-3.93790000 -2.32910000 6.99930000
-1.16230000 -1.22000000 6.67670000
-2.50150000 -1.68790000 7.33640000
-2.73550000 -1.96150000 7.24590000
-0.97280000 -0.85150000 6.61750000
-2.72290000 -1.47000000 7.55370000
-4.89550000 -2.34520000 4.83610000
-5.15200000 -2.33480000 6.65360000
-6.48620000 -2.32960000 5.67550000
-1.13850000 -0.47410000 6.84120000
-3.01060000 -1.36640000 7.70410000
-3.38820000 -1.42860000 7.78610000
-2.71940000 -1.18510000 7.65250000
-2.04000000 -0.33370000 6.71260000
-2.04330000 -0.54310000 6.67600000
-1.70220000 -0.47880000 7.26520000
-3.40160000 -2.28500000 7.10830000
-3.90470000 -2.28270000 7.21760000
-3.47580000 -2.31500000 7.01920000
-3.63680000 -2.21000000 7.30150000
-1.95860000 -1.74930000 6.99380000
-1.51380000 -0.16910000 7.16710000
-2.96440000 -1.59760000 4.93320000
-2.23670000 -1.59570000 5.04940000
-2.84890000 -1.61610000 4.52250000
-0.35580000 -2.33470000 4.10850000
-2.94840000 -1.63610000 1.42980000
-3.59890000 -1.64580000 2.09640000
-2.88770000 -1.63280000 2.23140000
-0.41290000 -2.28740000 4.65430000
-3.18420000 -2.02700000 7.37270000
-3.54990000 -2.08980000 7.41980000
-3.03040000 -2.29200000 6.95880000
-3.16570000 -2.23600000 7.12860000
-1.83100000 0.16500000 7.39340000
-2.89310000 -0.95290000 7.76670000
-4.00470000 -1.61610000 0.65730000
-4.23700000 -1.63020000 1.61730000
-2.35590000 -2.30440000 6.51410000
-2.74800000 -2.25450000 6.90840000
-2.72150000 -1.58700000 5.54300000
-2.60420000 -2.12840000 7.02140000
-6.02890000 -2.32770000 6.52260000
-5.70040000 -2.31190000 6.82400000
-6.24020000 -2.29040000 6.59350000
-5.28920000 -1.64420000 3.28170000
-4.93420000 -1.65100000 3.48620000
-5.88170000 -2.26230000 6.88460000
-3.08010000 -2.15340000 7.20670000
-0.31090000 -2.16290000 4.85880000
-0.66740000 -2.15930000 5.36070000
-0.56320000 -1.99620000 5.47830000
-5.05890000 -2.33030000 6.92500000
-1.21090000 0.17030000 6.95910000
-1.24400000 -2.27420000 5.74440000
-5.23270000 -2.30500000 7.03920000
-5.48470000 -2.26250000 7.07510000
-5.72150000 -2.21300000 7.06200000
-1.73970000 -2.28030000 6.19010000
-1.70470000 -2.24270000 6.26540000
-1.48540000 -2.15750000 6.24250000
-1.43520000 0.51380000 7.14240000
-3.57030000 -1.62770000 0.54310000
-3.26840000 -2.34960000 3.57010000
-1.26000000 -2.09460000 6.12670000
-5.40190000 -2.18480000 7.23110000
-5.81560000 -2.09680000 7.16350000
-2.79610000 -0.68710000 7.05580000
-2.84910000 -0.90220000 7.03550000
-3.23970000 -0.72420000 7.17740000
-1.12550000 -1.96290000 6.16470000
-1.02680000 -1.84060000 6.18280000
-1.43530000 -1.96190000 6.45270000
-5.45090000 -2.06790000 7.34220000
-5.60570000 -1.91480000 7.41230000
-2.61010000 -0.45110000 7.04110000
-2.90010000 -0.47120000 7.13290000
-3.14900000 -0.42900000 7.19620000
-5.26320000 -1.96750000 7.49020000
-5.61530000 -1.73840000 7.52350000
-5.90860000 -1.76070000 7.37880000
-0.85520000 -2.06120000 5.75140000
-3.42130000 -0.32230000 7.26750000
-3.05740000 -0.16710000 7.20200000
-3.57140000 -1.74550000 7.69030000
-3.75000000 -1.90300000 7.62850000
-2.27080000 -2.27840000 6.57940000
-2.14620000 -2.22470000 6.61840000
-4.10460000 -1.38110000 7.90080000
-2.75500000 -0.26060000 7.12000000
-3.79950000 -1.45150000 7.84750000
-2.32450000 -0.35030000 6.91500000
-0.62210000 -1.80770000 5.75610000
-2.48930000 -0.22810000 7.01810000
-0.84440000 -1.66580000 6.13630000
-4.11940000 -1.22970000 7.94770000
-4.49170000 -2.31860000 7.11530000
-0.49290000 -1.64620000 5.73740000
-2.83810000 0.02130000 7.16170000
-2.67260000 -0.03510000 7.10410000
-1.23540000 -1.63810000 6.54250000
-1.01710000 -1.52030000 6.41480000
-1.45390000 -1.60760000 4.11490000
-2.25710000 -1.63260000 4.04080000
-3.68170000 -1.21090000 7.90210000
-0.63000000 -1.46790000 6.01950000
-3.26620000 -1.04370000 7.85150000
-3.57110000 0.06280000 7.30260000
-3.66540000 -0.18770000 7.30340000
-3.26430000 0.09130000 7.25990000
-0.68710000 -1.10000000 6.25280000
-0.88880000 -1.30310000 6.38800000
-3.97800000 -1.06190000 7.96040000
-3.72450000 0.15160000 7.31610000
-3.61460000 -0.80130000 7.95540000
-3.35560000 0.32600000 7.27300000
-4.54590000 -1.05610000 7.97290000
-1.75690000 -1.63310000 3.16470000
-4.19410000 -0.94510000 7.98760000
-2.77890000 0.34210000 7.13760000
-3.01480000 0.29010000 7.21230000
-2.45150000 -2.21750000 6.81930000
-3.09230000 0.49590000 7.21220000
-3.68120000 0.41010000 7.33220000
-1.60110000 -1.56110000 5.59940000
-2.04340000 -1.57250000 5.92310000
-2.36780000 -1.91060000 7.11170000
-4.23370000 -0.60150000 8.02990000
-4.60320000 -0.69930000 8.01660000
-5.25660000 -1.60900000 6.89870000
-4.89550000 -1.60590000 6.90780000
-4.76960000 -1.62390000 6.13160000
-3.38730000 0.61240000 7.27770000
-5.44500000 -1.60740000 6.57710000
-1.15600000 -1.58160000 4.74180000
-4.65300000 -2.28760000 7.21680000
-4.91530000 -2.24640000 7.26460000
-2.06740000 -2.07730000 6.77960000
-3.10660000 0.68450000 7.20010000
-3.44330000 0.73220000 7.29880000
-4.31380000 -1.01400000 7.29090000
-4.29810000 -0.35660000 7.35360000
-4.05640000 -0.78960000 7.29780000
-2.68410000 -0.30260000 7.78090000
-2.89740000 -0.55880000 7.82790000
-4.61820000 -2.12970000 7.47560000
-4.99590000 -2.15630000 7.38870000
-4.46490000 -0.74690000 7.31930000
-4.62120000 -1.96950000 7.61730000
-4.96150000 -1.98860000 7.54940000
-4.27300000 -2.21520000 7.37140000
-3.80710000 -0.55750000 8.00540000
-3.24280000 0.09910000 7.94200000
-2.91710000 -0.27150000 7.86150000
-2.87930000 0.45930000 7.85720000
-1.84530000 -1.93430000 6.78690000
-2.71270000 0.12750000 7.81040000
-4.58640000 -0.28930000 8.04610000
-4.17990000 -0.17530000 8.05130000
-2.33330000 -0.10900000 7.64710000
-3.98670000 -2.11680000 7.47720000
-4.29010000 -2.10180000 7.51620000
-4.06590000 -1.99570000 7.60310000
-2.52120000 0.26650000 7.74110000
-3.27200000 -1.55410000 7.09630000
-2.97010000 -1.53980000 7.02260000
-3.11200000 -1.58760000 7.01250000
-3.04470000 -1.42770000 7.07190000
-2.94200000 -1.59210000 6.37110000
-3.38340000 -1.61280000 6.57040000
-2.85560000 -1.58050000 6.86210000
-3.79340000 0.44030000 8.02610000
-3.53100000 -0.06770000 7.99370000
-2.40730000 -1.56690000 6.35480000
-3.42360000 0.65510000 7.97170000
-2.48700000 -1.55580000 6.73390000
-2.64060000 -1.55360000 6.84780000
-2.41100000 -1.52620000 6.74080000
-2.50400000 -1.52050000 6.81490000
-3.80110000 -0.67540000 7.25830000
-3.55770000 -0.72730000 7.23090000
-3.71380000 -1.08610000 7.20490000
-2.54310000 -1.45990000 6.85290000
-2.83340000 -1.55860000 6.94950000
-2.69010000 -1.52680000 6.90560000
-2.73950000 -1.48490000 6.94450000
-2.83610000 -1.38290000 6.99620000
-2.93750000 -1.12710000 7.04630000
-5.25040000 -1.75840000 7.63360000
-2.39870000 -1.35030000 6.77830000
-2.66910000 -1.25350000 6.93020000
-3.35490000 0.72670000 7.94970000
-3.14350000 0.71230000 7.91670000
-3.46620000 0.76650000 7.89710000
-3.43310000 0.75040000 7.93840000
-3.18010000 0.76830000 7.85870000
-3.16390000 0.75740000 7.89860000
-4.92650000 -1.59480000 7.09530000
-4.70520000 -1.57130000 7.14730000
-4.62300000 -1.58620000 7.08170000
-3.25660000 -0.72900000 7.89740000
-5.20050000 -1.57400000 7.08190000
-5.31010000 -1.60840000 7.00980000
-5.35250000 -1.55420000 7.05090000
-2.79330000 0.72420000 7.82850000
-2.69810000 0.78270000 7.48120000
-5.12310000 -1.60850000 7.05310000
-5.07160000 -1.59910000 7.09340000
-5.14290000 -1.47820000 7.12030000
-5.03860000 -1.56010000 7.13110000
-3.42800000 -2.35010000 0.05570000
-1.33750000 -2.33660000 -0.46670000
-3.21730000 -1.09360000 7.12960000
-2.36500000 -0.08830000 6.95870000
-4.93730000 -1.41540000 7.17740000
-4.85160000 -1.54670000 7.16390000
-2.15790000 0.12660000 6.82800000
-4.59280000 -1.51030000 7.20250000
-4.76510000 -1.40930000 7.21480000
-1.95230000 0.16460000 6.68260000
-5.11390000 -1.03260000 7.17810000
-4.85360000 -1.07330000 7.22300000
-2.49730000 0.08780000 7.02660000
-2.56410000 0.49170000 7.03240000
-1.82190000 -0.18260000 6.52180000
-3.62950000 -1.63680000 4.36750000
-3.12540000 -1.64270000 3.73910000
-3.86760000 -1.20790000 7.21760000
-1.76750000 0.23100000 6.53190000
-2.27320000 0.50290000 6.89820000
-4.00700000 -0.33020000 7.32290000
-2.09220000 0.47820000 6.79800000
-3.46920000 -1.61200000 5.00810000
-2.47970000 0.68720000 6.97820000
-2.22960000 0.72470000 6.86350000
-2.87710000 0.61980000 7.14130000
-3.33030000 -1.61620000 5.51430000
-2.75210000 0.71520000 7.09620000
-4.21320000 -1.60000000 6.65960000
-2.94850000 0.74710000 7.17320000
-3.23160000 0.77120000 7.27730000
-2.71800000 0.77500000 7.15850000
-3.58720000 0.77490000 7.41310000
-2.49980000 0.76100000 7.01480000
-2.67960000 0.76090000 7.10030000
-2.35190000 0.74870000 6.93200000
-4.09280000 0.07380000 7.37230000
-2.24300000 0.78520000 6.94440000
-2.11760000 0.23970000 7.55710000
-1.73250000 -2.12540000 6.49530000
-2.42860000 -1.63610000 2.12740000
-3.32350000 -0.47160000 7.94590000
-2.03210000 -1.56390000 6.35640000
-1.78620000 -1.54060000 6.20000000
-1.75300000 -1.56050000 6.07620000
-1.68430000 -1.54660000 6.10280000
-1.68930000 -1.52020000 6.14830000
-1.54510000 -1.54640000 5.92880000
-4.34390000 -1.55750000 7.17390000
-4.05890000 -1.57990000 7.15010000
-4.29510000 -1.58450000 7.12050000
-4.09760000 -1.52400000 7.18970000
-3.85080000 -1.60050000 6.82380000
-3.79870000 -1.59680000 7.08680000
-2.26570000 0.71140000 7.63990000
-2.52740000 0.68980000 7.74340000
-1.98300000 0.65190000 7.49950000
-3.47470000 -1.60350000 7.08750000
-3.71870000 -1.57520000 7.13300000
-3.68850000 -1.53290000 7.15570000
-3.98850000 -1.41160000 7.20760000
-5.24970000 -1.62180000 5.75190000
-5.23040000 -1.61880000 5.32720000
-2.02800000 0.77580000 7.48340000
-2.45520000 0.78130000 7.62530000
-1.84730000 0.78540000 7.33040000
-3.53650000 -1.38140000 7.16000000
-1.98030000 0.73060000 7.49750000
-2.27820000 0.76310000 7.62210000
-4.11210000 -1.22010000 7.25470000
-5.20150000 -1.63230000 4.82940000
-4.53910000 -1.29360000 7.24300000
-1.57400000 -1.45410000 6.90620000
-4.26710000 -1.40150000 7.23030000
-2.65940000 0.75900000 7.76630000
-2.87460000 0.76270000 7.82810000
-2.51630000 0.77040000 7.68530000
-2.41550000 0.74090000 7.69110000
-4.68270000 -1.11420000 7.25450000
-1.50450000 -1.84670000 6.61370000
-1.61210000 -1.66070000 6.82270000
-4.17840000 -1.63930000 2.25380000
-4.01870000 -1.65270000 3.03830000
-4.66890000 -0.71990000 7.30480000
-1.98250000 -1.54290000 6.38390000
-1.75240000 -1.46540000 6.21800000
-2.03680000 -1.46640000 6.48640000
-1.67510000 -1.20170000 6.18150000
-1.63390000 -1.36980000 6.12510000
-2.40760000 -1.56120000 6.60550000
-2.21690000 -1.55770000 6.53570000
-2.26210000 -1.55190000 6.60560000
-2.29420000 -1.52990000 6.66530000
-2.34420000 -1.47100000 6.73330000
-2.11590000 -1.52330000 6.53650000
-2.19460000 -1.50070000 6.62770000
-2.15800000 -1.26920000 6.63770000
-2.37710000 -1.15630000 6.80480000
-4.27570000 -1.64570000 3.93670000
-2.98040000 -1.62930000 0.84160000
-1.95670000 -1.31420000 6.44180000
-3.22260000 -1.64780000 2.77090000
-2.12170000 -1.04050000 6.68070000
-1.91420000 -1.05520000 6.50330000
-3.43830000 -1.54610000 7.13230000
-1.85180000 -1.17270000 6.39230000
-2.03910000 -0.88630000 6.64910000
-3.26500000 -1.41480000 7.11770000
-1.17260000 -1.55770000 5.39680000
-1.30370000 -1.52630000 5.74410000
-1.31510000 -1.54390000 5.69190000
-1.39350000 -1.53540000 5.84770000
-1.26480000 -1.49010000 5.73570000
-1.34500000 -1.49640000 5.85710000
-1.25620000 -1.36150000 5.78550000
-1.57840000 -1.53030000 6.02820000
-1.57990000 -1.47840000 6.06860000
-1.43560000 -1.50630000 5.93090000
-1.47020000 -1.28610000 5.99820000
-1.39760000 -1.43960000 5.92900000
-1.24140000 -1.52710000 5.64960000
-1.12830000 -1.49720000 5.53600000
-1.15950000 -1.53700000 5.51380000
-0.97650000 -1.49540000 5.36730000
-0.93840000 -1.53950000 5.26410000
-1.03330000 -1.53200000 5.40630000
-1.00270000 -1.56000000 5.27170000
-0.81360000 -1.46730000 5.13660000
-0.81870000 -1.33620000 5.18520000
-1.10470000 -1.36860000 5.56990000
-1.29100000 -1.22370000 5.84980000
-1.31260000 -0.94710000 5.90210000
-0.94360000 -1.15500000 5.44950000
-1.60200000 -0.98270000 6.17110000
-1.83310000 -0.84540000 6.46370000
-1.59410000 -0.74680000 6.19890000
-1.82240000 -0.62530000 6.46130000
-1.67280000 -0.60620000 6.27890000
-1.62300000 -0.52220000 6.21340000
-1.46770000 -0.50400000 6.08020000
-1.70350000 -0.39110000 6.33250000
-1.51840000 -0.30240000 6.13450000
-1.54790000 -0.06970000 6.22480000
-8.43750000 -2.29620000 3.71250000
-7.67870000 -2.30940000 4.72410000
-5.51570000 -1.60020000 6.92630000
-5.64500000 -1.58390000 6.90280000
-5.55620000 -1.56340000 6.96100000
-6.67390000 0.78700000 6.72970000
-7.13990000 0.79330000 6.76380000
-6.52290000 0.78280000 7.14400000
-10.15400000 0.39960000 1.65400000
-6.47060000 0.68410000 6.73690000
-6.57670000 0.71950000 6.66120000
-6.48780000 0.76160000 6.75200000
-5.69390000 -1.60490000 6.81430000
-5.67860000 -1.52900000 6.91120000
-5.76600000 -1.57930000 6.84970000
-6.53840000 0.78260000 6.78160000
-6.60540000 0.76730000 6.66500000
-6.42460000 0.77510000 6.81560000
-5.82500000 -1.60180000 6.79870000
-5.87770000 -1.53520000 6.81530000
-5.89430000 -1.42140000 6.80310000
-6.32880000 0.78050000 6.96640000
-8.87040000 -2.19270000 3.45910000
-9.01890000 -2.11220000 3.39490000
-9.07370000 -2.17430000 3.03190000
-5.60020000 -1.31080000 6.95610000
-8.52130000 -2.22540000 4.08450000
-8.85620000 -2.25020000 3.20450000
-5.99800000 -1.62480000 6.66480000
-5.84320000 -1.61890000 6.72060000
-5.82220000 -1.62330000 6.17880000
-5.96240000 -1.59520000 6.74690000
-6.04930000 -1.56650000 6.70430000
-6.10900000 -1.62830000 6.62300000
-6.17070000 -1.58890000 6.63490000
-6.08060000 -1.35590000 6.70710000
-9.23430000 -2.07080000 2.96760000
-9.11390000 -1.97050000 3.51720000
-9.33670000 -1.93240000 3.04670000
-8.68350000 0.74740000 4.29050000
-8.70170000 0.49960000 4.20200000
-8.78160000 0.67010000 4.10770000
-8.80710000 0.79780000 4.12780000
-9.29080000 -1.73760000 3.50250000
-8.69380000 0.80520000 4.33340000
-9.48120000 -1.76330000 2.97630000
-8.51340000 0.72620000 4.57330000
-8.47700000 0.52280000 4.65710000
-8.62520000 0.50010000 4.37770000
-8.57710000 0.81800000 4.60980000
-8.83290000 0.82070000 4.20130000
-8.68880000 0.81110000 4.75590000
-8.57820000 0.77850000 4.48340000
-8.59440000 0.81320000 4.52110000
-10.06920000 0.12930000 2.05430000
-8.99700000 0.81430000 4.27280000
-8.17970000 0.40520000 5.03560000
-8.05010000 0.04070000 5.15320000
-8.23980000 0.11430000 4.95260000
-9.99000000 -0.48860000 2.23960000
-9.97070000 0.28170000 2.53490000
-8.24800000 0.65030000 4.96110000
-8.46090000 0.77810000 4.67070000
-8.42930000 -2.18150000 4.44670000
-8.74030000 -2.11650000 4.00290000
-8.46540000 -2.09220000 4.60370000
-8.92960000 -1.41320000 3.55110000
-8.83830000 -1.43370000 3.67480000
-8.89810000 -1.45110000 3.54750000
-7.89780000 -0.15140000 5.29030000
-7.84530000 0.29570000 5.42240000
-8.59360000 -1.48680000 4.01280000
-8.65710000 -1.46670000 3.91810000
-8.61020000 -1.44250000 4.08270000
-9.88010000 -0.21970000 2.78760000
-8.34270000 0.76300000 4.81580000
-8.30060000 0.78720000 4.92930000
-8.38030000 0.79860000 4.94890000
-8.05490000 0.56150000 5.21430000
-9.03600000 -1.43990000 3.18610000
-9.01780000 -1.41110000 3.31110000
-8.94470000 -1.45530000 3.36260000
-8.77260000 -1.46270000 3.21260000
-9.03180000 -1.44850000 3.09620000
-8.67120000 -1.48110000 3.78330000
-8.96410000 -1.43210000 3.44100000
-8.98430000 -1.37270000 3.43370000
-8.14880000 0.73890000 5.10940000
-5.21180000 -1.63330000 2.26120000
-5.79840000 -1.01870000 6.89680000
-9.09170000 -1.77330000 3.90730000
-8.01020000 0.70710000 5.28200000
-8.19610000 0.77870000 5.09580000
-8.08560000 0.76860000 5.22970000
-8.91970000 -1.31490000 3.57620000
-7.86260000 -2.29160000 4.81820000
-7.39530000 -2.29460000 5.48290000
-8.76070000 -1.46080000 3.73740000
-8.80470000 -1.38170000 3.72810000
-6.34500000 -1.22290000 6.58040000
-6.35550000 -1.53490000 6.55410000
-6.58140000 -1.41210000 6.42940000
-10.06240000 0.46500000 2.15940000
-9.13600000 -1.55100000 4.07630000
-6.54150000 -1.05890000 6.49100000
-8.75610000 -1.99920000 4.22900000
-10.13400000 0.63450000 1.90210000
-10.10270000 0.63800000 2.09470000
-10.13730000 0.68950000 1.99210000
-6.82220000 -2.31930000 5.93720000
-7.89260000 0.61780000 5.40170000
-5.23580000 -1.61550000 1.90960000
-7.74560000 0.52540000 5.54790000
-10.02100000 0.60940000 2.39510000
-6.87590000 -1.27720000 6.23170000
-6.67240000 -0.79090000 6.43740000
-7.99520000 -1.52600000 4.10840000
-8.75400000 -1.79510000 4.55000000
-10.06670000 0.63500000 2.21860000
-7.93360000 0.74460000 5.37580000
-8.60180000 -1.95620000 4.60100000
-6.84390000 -0.91370000 6.30670000
-7.81150000 0.72630000 5.50640000
-10.06860000 0.74310000 2.27870000
-7.05860000 -1.13820000 6.06980000
-6.91310000 -1.00640000 6.24310000
-7.51900000 -2.25110000 5.53990000
-6.92170000 -2.28690000 6.06340000
-7.67570000 0.71060000 5.65880000
-7.51920000 0.53400000 5.82150000
-8.72110000 0.53980000 5.44190000
-8.90790000 0.67500000 5.16020000
-8.96100000 0.06660000 5.03200000
-7.79460000 0.79320000 5.67420000
-7.74280000 0.77450000 5.63090000
-7.91490000 0.78340000 5.48180000
-7.72920000 0.79560000 6.17710000
-8.03430000 -2.26100000 4.77470000
-8.43120000 -2.27590000 3.96880000
-8.69910000 -1.40860000 3.88060000
-9.89300000 0.57850000 2.84930000
-9.98850000 0.72940000 2.58580000
-8.72650000 -1.27350000 3.83420000
-6.14830000 -0.71400000 6.76860000
-8.12250000 -2.20960000 4.85310000
-8.94840000 0.76340000 5.08530000
-8.72860000 0.75810000 5.43190000
