-1.69310000 2.02180000 -0.51340000
-1.66940000 2.05750000 -0.30840000
-1.73690000 1.99370000 -0.33440000
-1.72180000 2.00930000 -0.30920000
-1.65690000 2.07630000 -0.20050000
-1.73550000 1.99510000 -0.30930000
-2.06510000 2.47120000 -1.50390000
-1.64200000 2.01780000 -1.59350000
-1.58800000 2.06830000 -1.87050000
-1.70290000 1.98790000 -1.30050000
-1.84760000 1.97070000 -1.32940000
-1.73590000 1.96950000 -1.78400000
-1.67070000 2.01810000 -1.09230000
-1.74500000 1.99230000 -0.30950000
-1.81670000 1.97560000 -0.31100000
-1.76440000 1.97620000 -0.95200000
-2.23730000 2.03190000 -1.42480000
-1.91870000 1.97670000 -0.31330000
-2.10900000 2.00030000 -0.31770000
-1.84210000 1.97430000 -0.31150000
-2.28240000 2.06380000 -1.62670000
-1.73770000 1.99360000 -0.30940000
5.33210000 2.95650000 5.86310000
3.38020000 3.50220000 -0.20840000
2.25770000 3.13360000 2.15700000
1.71500000 3.29190000 1.56200000
5.32880000 2.94490000 2.42470000
1.16180000 3.42690000 3.01790000
2.26210000 3.11020000 3.25110000
1.12690000 3.46370000 1.64680000
3.07340000 2.89100000 2.50140000
2.35620000 3.07610000 3.22060000
3.05710000 2.87400000 3.65360000
5.14570000 2.30140000 3.13690000
5.13990000 2.28080000 4.11610000
5.13360000 2.25880000 5.04360000
5.15230000 2.32460000 1.68540000
5.15160000 2.32190000 1.85890000
6.10020000 2.03970000 2.90070000
5.14750000 2.30770000 2.77510000
5.39930000 2.25410000 1.78230000
1.23890000 3.36120000 5.06650000
1.08230000 3.50380000 -0.19380000
0.97780000 3.52260000 -0.26230000
1.07640000 3.50560000 -0.26000000
1.47890000 3.38420000 -0.24990000
2.78470000 3.02380000 -0.21740000
1.26510000 3.44710000 -0.25520000
1.09760000 3.49990000 -0.25950000
-1.53450000 3.79690000 6.08130000
-1.65330000 3.30860000 6.23880000
-1.64970000 3.31550000 6.24510000
-1.65150000 3.31610000 6.23640000
-1.72300000 3.33730000 5.81170000
-1.72030000 3.33650000 5.83330000
-1.72860000 3.33900000 5.76910000
-1.73210000 3.30700000 5.81750000
-1.56700000 3.29110000 6.65920000
-1.70450000 2.84000000 6.68680000
-1.83260000 2.77490000 6.19740000
-1.88970000 2.78720000 5.92610000
-1.76330000 3.34950000 5.47860000
-1.84020000 3.04410000 5.60740000
-1.91110000 3.00440000 5.20560000
-1.92270000 3.05200000 4.97290000
-1.83770000 3.37230000 4.70970000
-1.96480000 2.89320000 4.98220000
-1.87170000 2.97920000 5.53970000
-1.88140000 2.99700000 5.37710000
-1.91700000 2.93800000 5.45080000
-1.95260000 2.83260000 5.55210000
-1.98230000 2.76840000 5.48040000
-1.91270000 2.75570000 5.75560000
-1.92030000 2.79100000 5.64580000
-2.00700000 2.61910000 5.64290000
-1.95020000 2.82450000 5.36010000
-1.99060000 2.73980000 5.20080000
-2.03180000 2.68240000 4.93620000
-2.01850000 2.68850000 5.08020000
-2.06070000 2.64510000 5.00360000
-2.02520000 2.64540000 5.47140000
-2.01420000 2.62510000 5.34340000
-2.00770000 2.57950000 5.22720000
-2.02850000 2.59260000 5.12350000
-2.10790000 2.47410000 5.08690000
-2.05580000 2.48040000 5.17070000
-2.08260000 2.42070000 5.28440000
-1.80650000 2.57200000 6.61300000
-1.88520000 2.39640000 6.58150000
-1.93350000 2.52420000 6.26640000
-1.98120000 2.37430000 6.33110000
-2.04890000 2.33770000 6.23260000
-1.78150000 2.36810000 6.95750000
-1.88220000 2.14640000 6.99570000
-1.96830000 2.28140000 6.54450000
-2.02610000 2.22700000 6.47230000
-2.09410000 2.19880000 6.28770000
-2.02490000 2.11520000 6.61430000
-1.99740000 2.05870000 6.69330000
-1.92130000 2.05550000 6.96280000
-1.95440000 1.98930000 6.78970000
-2.06180000 2.10510000 6.44310000
-2.03740000 2.02700000 6.52550000
-2.02900000 1.96330000 6.41190000
-1.98970000 1.93880000 6.61320000
-1.94950000 2.59950000 5.89500000
-2.03100000 2.51880000 5.81590000
-2.05320000 2.43900000 5.83160000
-2.10070000 2.48510000 5.68270000
-1.95910000 2.50780000 6.04790000
-2.10120000 2.36470000 6.04890000
-2.02320000 2.42610000 6.07300000
-2.03500000 2.42770000 5.93660000
-2.14320000 2.31620000 5.92100000
-2.13870000 2.36370000 5.76020000
-2.19600000 2.19590000 5.77030000
-2.05840000 2.52090000 5.43300000
-2.10350000 2.50130000 5.56950000
-2.12520000 2.41110000 5.48040000
-2.17850000 2.34170000 5.61990000
-2.16430000 2.32590000 5.19720000
-2.18130000 2.29740000 5.38170000
-2.22420000 2.23760000 5.19680000
-2.23650000 2.18550000 5.41610000
-2.19920000 2.10170000 5.71760000
-2.24300000 2.12940000 5.20320000
-2.24910000 2.11310000 5.38290000
-2.22120000 2.03190000 5.34190000
-2.14810000 2.20080000 6.08840000
-2.11820000 2.08510000 6.24360000
-2.12520000 2.02750000 6.08340000
-2.17500000 1.99130000 5.60040000
-2.07960000 1.96550000 6.16000000
-2.10460000 1.95300000 5.73440000
-2.00750000 1.92740000 5.56690000
-1.98280000 1.91600000 6.37080000
-2.19740000 1.98660000 5.00740000
-2.12420000 1.96220000 4.76250000
-1.83800000 3.37240000 4.70360000
-2.05700000 2.69680000 4.64520000
-1.98310000 3.00260000 4.30940000
-2.07630000 2.73900000 4.38580000
-2.16350000 2.51650000 4.13930000
-2.17620000 2.47180000 3.90680000
-2.11870000 2.48590000 5.00320000
-2.12930000 2.48110000 4.72180000
-2.13870000 2.48740000 4.46960000
-2.11260000 2.47040000 4.92940000
-2.17520000 2.37580000 4.87920000
-2.24960000 2.21970000 4.90580000
-2.15580000 2.53330000 4.31440000
-2.20860000 2.37450000 4.45180000
-2.24600000 2.35870000 4.32200000
-2.25280000 2.36580000 4.17140000
-2.25210000 2.33660000 3.91420000
-2.29860000 2.17350000 4.46920000
-2.31640000 2.21970000 4.09270000
-2.34460000 2.12730000 4.08930000
-2.30670000 2.09810000 4.41240000
-2.21470000 2.43560000 3.50620000
-2.24960000 2.41990000 3.05660000
-2.28600000 2.32590000 3.48340000
-2.36010000 2.26240000 2.79310000
-2.36530000 2.20350000 3.23220000
-2.39070000 2.15670000 2.96170000
-2.33630000 2.18040000 3.76890000
-2.36080000 2.14940000 3.50060000
-2.34270000 2.08970000 3.70620000
-2.34090000 2.07300000 3.98810000
-2.23260000 2.00210000 4.14410000
-2.31420000 2.03420000 3.72990000
-2.29010000 2.04000000 4.31690000
-2.37690000 2.09260000 3.17980000
-2.34050000 2.03460000 3.12140000
-2.29450000 2.02420000 2.52470000
-2.26470000 2.11120000 4.93500000
-2.24670000 2.03580000 4.89300000
-1.85800000 1.90800000 5.54100000
-1.12070000 2.78330000 5.86890000
-1.04160000 3.14360000 5.77900000
-0.98720000 3.12750000 6.05050000
-1.46940000 2.08140000 4.91140000
-1.15110000 2.05760000 6.57260000
-1.29380000 2.08230000 5.95510000
-1.28900000 1.94770000 6.21800000
-1.71920000 1.83920000 7.11680000
-1.83820000 1.88170000 6.44310000
-1.50850000 1.84920000 6.21510000
-1.16660000 1.92390000 6.69470000
-1.22210000 1.83700000 6.73320000
-1.08630000 1.82540000 7.10100000
-1.38460000 1.86160000 6.22060000
-1.31210000 1.88520000 6.32410000
-1.37200000 2.00860000 5.70520000
-1.45430000 1.98740000 5.29810000
-1.52450000 1.94800000 5.04670000
-1.52920000 1.90430000 5.42310000
-1.53530000 1.87920000 5.75230000
-1.77950000 1.92190000 4.56900000
-1.39050000 1.91240000 5.92490000
-1.54810000 1.99270000 4.61950000
-1.65590000 1.95230000 4.15030000
-1.63830000 1.92020000 4.81000000
-1.57980000 2.03140000 4.08090000
-1.54760000 2.14200000 3.93270000
-1.62640000 1.99880000 3.85070000
-1.76370000 1.94840000 3.65200000
-1.62900000 2.04250000 3.43540000
-1.70100000 1.97700000 3.29670000
-1.83990000 2.07430000 7.19750000
-1.83980000 2.00620000 7.21300000
-1.82530000 1.92000000 7.15450000
-1.89460000 1.94780000 6.95470000
-1.78230000 1.87570000 7.18130000
-1.89790000 1.90200000 6.76890000
-2.40620000 2.11760000 2.31780000
11.04990000 1.12490000 5.14290000
11.35120000 0.99490000 3.81090000
10.85200000 1.24850000 4.39520000
8.99970000 1.26840000 1.68770000
8.88630000 1.25250000 3.33590000
8.31060000 1.45600000 1.65240000
8.57270000 1.42020000 -0.37130000
8.63480000 1.39810000 -0.07180000
8.53420000 1.42540000 -0.07420000
5.94430000 2.69180000 -5.19470000
5.31260000 2.88790000 -4.30280000
7.11850000 2.36750000 -2.34690000
7.45570000 2.22520000 -6.13460000
8.57800000 1.94540000 -2.04940000
8.71950000 1.86530000 -4.72200000
9.81300000 1.58390000 -3.19950000
6.82690000 1.93660000 -5.10340000
7.58230000 1.72840000 -2.93390000
5.62400000 2.27880000 -4.09700000
8.50470000 1.47800000 -3.04550000
8.39480000 1.51370000 -5.04840000
9.04230000 1.34210000 -3.54140000
8.91380000 1.37130000 -4.66110000
5.16590000 2.37220000 -0.83800000
6.98210000 1.86850000 -0.90460000
5.16160000 2.35730000 -0.15820000
5.17280000 2.39650000 -3.92790000
7.87580000 2.16990000 -0.09570000
9.80940000 1.60220000 -0.04730000
8.95330000 1.35080000 -1.76430000
7.39890000 1.73910000 -0.10250000
6.69770000 1.92920000 -0.11990000
11.47440000 0.96760000 2.33740000
11.48450000 0.99450000 1.13470000
11.21270000 1.11870000 2.59350000
9.34660000 1.75980000 3.54530000
9.63820000 1.66980000 5.74040000
10.21300000 1.48690000 5.14960000
10.65330000 1.35370000 1.87010000
9.92510000 1.56990000 0.14090000
9.41800000 1.03850000 2.06880000
9.41520000 0.99110000 2.83780000
9.33740000 1.10300000 2.60040000
10.75720000 1.30360000 3.52470000
11.21880000 1.13710000 1.15560000
11.08830000 0.39760000 2.93930000
10.61530000 0.52470000 3.16810000
10.89770000 0.50550000 1.66560000
11.06600000 0.46510000 1.75270000
9.22420000 1.24560000 -0.30880000
9.27680000 1.23220000 -1.33570000
9.32720000 1.18350000 -0.05430000
9.26330000 1.21960000 -0.05610000
9.43840000 1.06380000 -0.04170000
9.44120000 1.06090000 -0.05070000
9.53150000 0.97210000 -0.04780000
9.56450000 0.94400000 0.42310000
9.58490000 0.93910000 -0.04630000
9.51500000 0.98600000 -0.28280000
9.60460000 0.93430000 -0.49980000
11.02040000 1.22790000 0.48150000
10.99220000 1.23740000 -0.01750000
10.80190000 1.30230000 -0.02240000
11.22040000 1.14060000 -0.01150000
11.08800000 1.19960000 -0.01500000
11.08640000 0.51160000 0.29150000
10.44770000 0.66650000 0.35870000
10.53170000 0.65330000 -0.02260000
11.03390000 0.53020000 -0.01020000
9.30250000 1.17880000 1.52600000
9.24720000 1.21410000 1.26320000
9.38960000 1.16090000 1.34140000
9.31610000 1.17640000 1.15670000
9.43260000 1.11490000 1.25730000
9.49360000 1.08650000 1.34370000
9.46960000 1.09160000 1.52410000
9.51940000 1.04370000 1.45520000
9.55780000 0.94640000 1.31030000
9.46780000 1.02990000 1.16640000
9.25010000 1.17650000 2.37190000
9.54590000 0.91480000 1.82130000
9.46190000 1.01660000 1.79960000
9.52350000 0.97870000 1.64620000
9.50870000 0.89130000 2.79380000
9.38010000 1.11580000 1.61360000
9.62150000 0.87330000 1.65240000
9.78520000 0.76650000 3.25610000
9.71120000 0.86990000 0.65670000
10.07910000 0.75920000 0.61340000
9.50340000 1.00800000 0.51920000
9.50930000 0.96900000 0.93430000
9.41620000 1.08240000 0.81010000
9.22790000 1.24050000 -0.05710000
8.69690000 1.38220000 -0.07020000
9.24000000 1.23370000 -0.05670000
9.34900000 1.16260000 0.49800000
9.64650000 0.90900000 -0.04470000
9.78400000 0.86050000 -0.04120000
9.99450000 0.79660000 -0.03590000
11.65380000 0.83210000 2.39690000
11.66640000 0.76930000 3.35140000
11.43130000 0.89420000 4.65210000
11.74680000 0.60210000 4.08640000
11.62430000 0.73460000 4.33680000
11.86500000 0.60900000 2.47450000
11.95390000 0.31790000 3.29810000
11.91480000 0.42550000 3.23700000
11.86850000 0.32630000 4.10210000
11.92460000 0.48240000 2.76850000
11.94150000 0.22660000 3.63980000
12.00550000 0.20850000 2.93930000
11.94390000 0.14300000 3.58130000
12.00650000 0.10630000 2.76860000
12.00580000 0.45610000 1.48920000
11.83210000 0.71920000 1.21610000
12.02510000 0.30550000 2.38530000
12.06970000 0.29000000 1.55840000
12.06040000 0.22420000 2.10710000
12.06890000 0.13440000 1.96970000
11.16370000 0.35240000 2.59730000
11.20720000 0.32020000 1.96040000
11.18040000 0.25240000 2.98370000
11.19920000 0.23790000 2.39370000
11.89370000 -0.14010000 3.24290000
11.96630000 -0.11130000 2.50260000
11.76420000 -0.58700000 3.07020000
11.79970000 -0.50340000 2.97050000
11.78920000 -0.50070000 3.10360000
11.73550000 -0.74160000 2.72430000
11.82080000 -0.50870000 2.64240000
12.03120000 -0.05800000 1.75420000
11.84050000 -0.51360000 2.34340000
11.85550000 -0.51730000 2.08480000
11.76730000 -0.74790000 2.25070000
11.86860000 0.70530000 -0.12250000
11.84700000 0.72310000 0.00630000
11.86510000 0.70660000 0.00680000
11.67460000 0.86570000 1.03410000
11.96270000 0.57820000 0.51180000
12.05860000 0.41630000 0.36100000
12.10000000 0.32170000 0.01730000
11.55480000 0.96460000 -0.62580000
11.43790000 1.02470000 -0.00560000
11.53000000 0.97520000 -0.00310000
11.59990000 0.92740000 -0.00110000
11.72560000 0.83330000 0.00250000
11.77220000 0.80360000 -0.93970000
11.22180000 1.14360000 -0.99860000
11.88790000 0.67920000 0.00760000
11.95510000 0.59130000 0.00990000
11.93480000 0.62610000 -1.32340000
12.05800000 0.41800000 0.01370000
11.98540000 0.54090000 0.01100000
11.17430000 0.48200000 0.04720000
11.14950000 0.44840000 1.37280000
11.18280000 0.08080000 0.06870000
11.22850000 0.25900000 1.14120000
11.24150000 0.32960000 0.61720000
11.23800000 0.28710000 0.01950000
11.07370000 0.52170000 -0.00920000
11.17630000 0.48070000 -0.00660000
11.21880000 0.42780000 -0.00510000
11.22910000 0.40530000 0.43150000
11.23970000 0.37660000 -0.00420000
11.24250000 0.36890000 -0.12260000
11.24240000 0.36260000 -0.00400000
11.23870000 0.30040000 -0.00360000
12.10350000 0.20450000 1.20250000
12.08830000 0.06530000 1.22990000
12.12160000 0.13240000 0.23930000
12.09990000 0.32190000 0.01550000
12.12800000 0.20200000 -0.95480000
12.12290000 0.22190000 0.01690000
12.12280000 0.14530000 0.01760000
12.10240000 0.02590000 0.01830000
12.12070000 0.11740000 0.01780000
12.09350000 -0.00090000 0.38450000
12.12220000 0.22490000 0.16540000
11.96890000 -0.34460000 0.95110000
11.92200000 -0.51280000 0.43950000
12.06720000 -0.09870000 0.01860000
11.99590000 -0.31260000 0.01890000
11.19900000 0.40360000 1.32940000
11.07420000 -0.29250000 0.90440000
11.07420000 -0.29270000 0.99500000
11.18540000 0.10590000 1.66680000
11.16820000 0.10140000 2.34340000
11.06320000 -0.29150000 1.88980000
11.05660000 -0.29030000 2.18510000
11.05400000 -0.36490000 0.87330000
11.07500000 -0.29240000 0.74240000
11.06590000 -0.28820000 -0.00210000
11.02690000 -0.41220000 -0.00190000
11.88960000 -0.52540000 1.33530000
11.89210000 -0.52600000 1.28440000
11.91880000 -0.45370000 1.42400000
11.87910000 -0.55670000 1.34090000
11.89100000 -0.52580000 1.36580000
11.80260000 -0.69820000 1.91350000
11.86630000 -0.51990000 1.86920000
11.88510000 -0.52460000 1.56590000
11.72020000 -0.99620000 1.77520000
11.89220000 -0.52640000 1.47110000
11.72080000 -1.07570000 0.97030000
11.69440000 -1.08760000 1.56630000
11.90620000 -0.52930000 0.95590000
11.91560000 -0.53090000 0.45660000
11.76720000 -1.01280000 0.03270000
11.91640000 -0.53100000 0.42470000
9.91890000 1.57070000 -0.04460000
10.64260000 1.35390000 -1.53280000
10.00370000 1.54630000 -0.04240000
9.51700000 0.98790000 -3.17130000
9.66670000 0.92570000 -1.34050000
9.48570000 1.00940000 -2.23130000
10.64740000 1.35380000 -0.02630000
10.91230000 1.26400000 -1.42990000
11.32230000 1.09030000 -2.53690000
11.01240000 0.57040000 -1.45810000
10.81100000 0.60930000 -1.28990000
10.74120000 0.66690000 -3.38540000
9.14620000 1.73430000 -6.38920000
10.61890000 1.34740000 -4.09810000
11.07590000 1.19090000 -3.74790000
10.76980000 1.28230000 -5.04950000
11.24990000 1.09270000 -4.40150000
10.99870000 1.16690000 -5.46390000
10.93390000 0.62580000 -3.34570000
10.84990000 0.65120000 -4.37000000
10.63040000 0.70970000 -4.35170000
10.23430000 0.78960000 -5.45530000
10.53560000 0.72580000 -5.53330000
10.06870000 0.84110000 -4.22790000
10.39220000 0.74760000 -3.33840000
9.28640000 1.21310000 -2.22770000
9.14790000 1.30350000 -2.31960000
9.20050000 1.26260000 -3.07480000
9.32530000 1.11540000 -3.19860000
9.37660000 1.10280000 -2.32240000
9.37010000 1.04370000 -3.76920000
9.70800000 0.93490000 -3.77800000
9.87720000 0.84840000 -0.93560000
9.08140000 1.30060000 -4.04920000
9.21370000 1.16100000 -3.91650000
9.21760000 1.20300000 -3.67680000
9.26660000 1.09950000 -4.03890000
9.12850000 1.22110000 -4.33100000
9.18790000 1.09960000 -4.72750000
9.28670000 1.05040000 -4.81570000
10.28960000 0.74500000 -1.44400000
11.46430000 1.00310000 -3.32290000
11.67760000 0.87970000 -1.71830000
12.05540000 0.42550000 -1.53800000
11.97850000 0.54030000 -2.18930000
11.78010000 0.77170000 -2.69800000
11.88310000 0.64320000 -2.99070000
11.15540000 0.50650000 -2.04690000
11.20240000 0.46410000 -0.70540000
11.11030000 0.54490000 -1.84480000
11.21810000 0.41880000 -1.15390000
11.21030000 0.31050000 -1.38260000
11.20120000 0.36160000 -1.93220000
11.07400000 0.56130000 -2.76590000
11.13130000 0.51370000 -2.55600000
11.15620000 0.43590000 -2.51930000
11.18690000 0.43590000 -2.05700000
11.14540000 0.31600000 -2.44590000
11.12230000 0.07930000 -1.80320000
11.02460000 -0.04940000 -2.51140000
12.10000000 0.32170000 0.01550000
12.10820000 0.30010000 -1.41300000
12.10950000 0.23010000 -1.84560000
12.09420000 0.09370000 -1.77580000
12.09620000 0.04040000 -1.19230000
12.11820000 0.07340000 -0.63380000
12.07320000 0.32150000 -2.33180000
12.01280000 0.42240000 -2.98390000
12.06090000 0.26230000 -2.80280000
12.07610000 0.17340000 -2.53610000
12.04080000 -0.04480000 -2.12130000
12.03460000 0.04450000 -2.68840000
12.02720000 -0.18550000 -1.23950000
11.98490000 -0.30470000 -1.77540000
11.99130000 -0.25260000 -2.08170000
11.91490000 -0.35230000 -2.66270000
11.89010000 -0.51780000 -2.25100000
11.88930000 -0.52330000 -2.23710000
11.58110000 0.90650000 -3.74950000
11.90610000 0.55490000 -3.62780000
11.75470000 0.73470000 -3.95990000
11.39570000 0.94410000 -5.22670000
11.57540000 0.84840000 -4.67300000
11.89500000 0.49390000 -4.23070000
11.77820000 0.63390000 -4.58700000
11.66190000 0.65900000 -5.39430000
11.75460000 0.55290000 -5.21350000
11.86960000 0.39310000 -4.79640000
10.96380000 0.59910000 -3.94340000
10.99250000 0.59930000 -3.39180000
11.01580000 0.54330000 -3.73190000
10.93310000 0.52840000 -4.46080000
11.02470000 0.43590000 -3.76650000
11.05190000 0.48690000 -3.53460000
10.83660000 0.64120000 -4.74010000
10.93460000 0.57550000 -4.35740000
10.91010000 0.40780000 -4.55240000
10.97260000 0.31120000 -3.89950000
10.84230000 0.50260000 -4.97100000
10.82110000 0.17780000 -4.64860000
10.88790000 0.22000000 -4.23690000
11.98280000 0.35120000 -3.73440000
11.84150000 0.28950000 -5.04280000
11.93060000 0.28570000 -4.39710000
11.90770000 0.09160000 -4.25430000
12.01140000 0.19730000 -3.43450000
11.83750000 -0.33300000 -3.79520000
11.96920000 -0.04690000 -3.28530000
11.10530000 0.50060000 -2.90240000
11.11010000 0.41350000 -3.01660000
11.00180000 -0.00810000 -2.95990000
11.01240000 0.12070000 -3.08450000
11.05800000 0.31170000 -3.26020000
11.00210000 0.20700000 -3.39000000
10.95830000 -0.03090000 -3.19490000
10.88700000 -0.22980000 -3.41850000
10.89000000 -0.23080000 -3.38240000
10.91160000 -0.23750000 -3.13390000
10.87580000 -0.27220000 -3.42130000
10.87440000 -0.40230000 -3.08510000
10.92620000 -0.24190000 -3.03410000
10.88210000 0.03920000 -3.95080000
10.94550000 0.15980000 -3.66750000
10.88280000 -0.22860000 -3.44610000
10.86600000 -0.22340000 -3.63810000
10.85950000 -0.19130000 -3.78060000
10.71870000 -0.16950000 -4.75600000
10.79130000 -0.20080000 -4.25210000
10.79530000 -0.20200000 -4.21740000
10.78360000 -0.23450000 -4.25330000
10.73240000 -0.18320000 -4.64990000
10.85270000 -0.21930000 -3.77730000
10.72800000 -0.72810000 -3.71760000
10.82500000 -0.21100000 -3.99560000
10.67250000 -0.61140000 -4.38430000
11.74250000 -0.65440000 -3.73250000
11.80380000 -0.49020000 -3.61160000
11.83420000 -0.49980000 -3.20030000
11.71080000 -0.91410000 -3.12260000
11.85850000 -0.50760000 -2.78980000
11.79210000 -0.48660000 -3.76530000
11.71360000 -0.53220000 -4.36440000
11.73340000 -0.46860000 -4.35310000
11.75000000 -0.47370000 -4.19720000
11.52590000 -1.21950000 -4.23920000
11.56380000 -1.21660000 -3.78320000
9.44220000 1.07410000 -1.18700000
9.40200000 1.11500000 -0.58510000
9.52040000 0.99770000 -1.37230000
9.37590000 1.13840000 -0.05280000
9.43780000 1.06470000 -0.05080000
10.27690000 0.72100000 -0.02890000
9.36100000 1.15940000 -1.56950000
9.39330000 1.09550000 -1.80070000
10.41400000 0.68320000 -0.02550000
11.22910000 0.33860000 -0.85640000
11.08970000 0.51630000 -0.00880000
11.17250000 0.48370000 -0.00670000
11.23780000 0.28850000 -0.00350000
11.18640000 0.10080000 -0.00290000
11.18410000 0.09220000 -0.00290000
11.00140000 -0.45690000 -0.82620000
11.05940000 -0.28510000 -0.54040000
11.04920000 -0.28140000 -0.95340000
11.04160000 -0.27880000 -1.15070000
10.89920000 -0.72000000 -1.64310000
11.02410000 -0.27250000 -1.73270000
11.01100000 -0.26830000 -1.97610000
10.87130000 -0.70440000 -2.19290000
12.12090000 0.23200000 0.01680000
12.04650000 -0.17550000 -0.26900000
11.92120000 -0.52980000 -0.78490000
11.91940000 -0.52900000 -0.90800000
11.91750000 -0.53050000 0.01910000
11.90830000 -0.52440000 -1.57600000
11.90820000 -0.52400000 -1.74930000
11.89730000 -0.51520000 -1.91090000
11.89350000 -0.51910000 -2.06770000
11.89600000 -0.52020000 -1.90540000
11.89580000 -0.52010000 -1.91190000
11.85370000 -0.68010000 -1.73060000
11.74570000 -1.01490000 -2.01990000
11.90340000 -0.58030000 -0.85850000
11.66840000 -1.27370000 -1.39210000
11.65520000 -1.32330000 -1.54090000
11.64830000 -1.29180000 -1.83620000
10.78520000 -1.21510000 -0.60620000
10.89520000 -0.86710000 -0.00070000
10.76930000 -1.21790000 -1.44920000
10.78010000 -1.29790000 -0.41380000
10.79040000 -1.33530000 -0.82650000
10.80260000 -1.34680000 -1.73110000
10.82630000 -1.40150000 -0.20630000
10.86780000 -1.39640000 -1.85710000
10.76870000 -1.27520000 -1.61060000
11.91600000 -0.53470000 0.01910000
11.76910000 -1.00670000 0.02010000
11.76680000 -1.01380000 0.02010000
11.74970000 -1.06050000 -0.55240000
11.66920000 -1.34290000 -0.31530000
11.63540000 -1.39120000 -0.80590000
11.68270000 -1.27310000 0.02060000
11.76360000 -1.02470000 0.02010000
11.33830000 -1.64050000 0.01620000
11.40660000 -1.65470000 0.01780000
11.40950000 -1.65870000 0.10670000
11.32450000 -1.65500000 0.46050000
11.45940000 -1.62760000 -0.45420000
11.41740000 -1.65380000 0.01810000
11.37170000 -1.60550000 -1.06310000
11.61170000 -1.49050000 0.43490000
11.64340000 -1.40910000 0.02090000
11.57550000 -1.56010000 0.27520000
11.61590000 -1.46660000 0.02080000
11.62150000 -1.45950000 -0.40490000
11.56400000 -1.56810000 0.02060000
11.59270000 -1.52250000 0.02080000
11.55420000 -1.57490000 -0.19530000
11.54690000 -1.53290000 -0.79810000
11.50870000 -1.61550000 -0.28540000
11.27700000 -1.58200000 -1.30150000
11.38810000 -1.58540000 -1.60970000
11.44070000 -1.59150000 -1.18560000
11.24760000 -1.54920000 -1.94220000
11.64410000 -1.39080000 -1.01110000
11.59640000 -1.45760000 -1.27210000
11.50830000 -1.55180000 -1.14920000
11.58560000 -1.42260000 -1.77880000
11.52820000 -1.49700000 -1.66680000
11.48330000 -1.55350000 -1.60460000
11.43870000 -1.55330000 -1.76500000
11.26710000 -1.62050000 0.01440000
11.31250000 -1.63650000 0.01550000
10.97600000 -0.25740000 -2.41030000
10.95620000 -0.25110000 -2.69220000
10.70910000 -1.03190000 -3.09430000
10.62270000 -1.11540000 -3.83880000
10.70580000 -1.25460000 -3.47760000
10.74960000 -1.27910000 -2.39410000
10.70680000 -1.19870000 -2.90640000
10.77720000 -1.31140000 -3.15650000
11.05440000 -1.49300000 -1.63720000
10.90230000 -1.37110000 -3.90510000
10.70000000 -1.13480000 -3.00250000
10.64000000 -1.19500000 -3.85330000
10.75590000 -1.30860000 -4.37330000
11.70110000 -1.04600000 -2.61720000
11.86620000 -0.51010000 -2.65230000
11.87390000 -0.51260000 -2.50720000
11.43270000 -1.52510000 -2.60960000
11.42990000 -1.51980000 -2.46060000
11.33730000 -1.54180000 -2.52320000
11.31840000 -1.54060000 -2.76770000
11.40690000 -1.52220000 -2.76750000
11.23860000 -1.52820000 -2.56020000
11.64740000 -1.29570000 -2.12170000
11.56710000 -1.41720000 -2.07460000
11.63390000 -1.30200000 -2.53710000
11.62040000 -1.37400000 -2.22980000
11.56230000 -1.43480000 -2.48550000
11.53730000 -1.46270000 -2.25220000
11.58910000 -1.37810000 -2.79020000
11.56930000 -1.33510000 -3.22690000
11.52600000 -1.42870000 -2.90340000
11.39640000 -1.46780000 -3.02310000
11.29770000 -1.45850000 -4.01160000
11.40480000 -1.41160000 -3.99220000
11.33500000 -1.47130000 -3.55930000
11.23100000 -1.48450000 -3.71830000
11.49060000 -1.40820000 -3.38760000
11.51850000 -1.35160000 -3.67380000
11.45370000 -1.35100000 -4.31620000
11.46690000 -1.38250000 -3.89110000
11.33530000 -1.48630000 -3.22820000
11.43790000 -1.43470000 -3.15670000
11.25180000 -1.50010000 -3.19220000
11.32560000 -1.50770000 -2.96390000
11.09190000 -1.45820000 -3.36680000
11.19260000 -1.49260000 -3.05940000
10.74490000 -1.21180000 -2.10620000
11.36310000 -1.56340000 -1.84940000
11.33890000 -1.56070000 -2.19180000
11.41630000 -1.54790000 -2.10500000
11.49860000 -1.49840000 -1.92340000
6.87190000 2.45990000 9.48000000
7.07460000 2.35350000 9.78200000
7.95050000 2.09810000 9.56980000
7.77570000 2.21140000 9.15990000
7.07320000 2.30050000 10.01150000
5.29700000 2.83310000 10.11810000
6.04500000 2.58300000 10.23280000
6.15020000 2.44920000 10.46770000
5.24090000 2.63600000 10.63030000
6.94730000 2.26530000 10.25340000
6.97180000 2.15020000 10.45320000
6.53220000 2.16130000 10.66080000
7.51190000 1.89810000 10.47620000
6.93060000 1.96820000 10.67460000
7.37630000 1.77360000 10.63790000
6.75730000 1.91580000 10.76530000
7.20920000 1.66800000 10.74210000
7.43330000 1.51800000 10.71270000
7.72900000 1.49970000 10.63060000
7.65250000 2.00720000 10.22310000
7.76790000 2.05870000 9.99400000
6.85300000 1.46090000 9.91580000
7.30890000 1.33350000 9.93270000
6.51840000 1.53980000 10.06590000
6.69880000 1.48010000 9.60150000
7.20230000 1.35820000 9.37440000
6.64090000 1.50590000 9.82170000
7.56120000 1.23940000 9.92930000
7.14530000 1.33940000 10.04540000
7.30710000 1.32160000 9.65650000
7.61880000 1.25470000 9.65330000
8.79260000 1.89260000 8.85450000
8.53480000 1.91850000 9.38520000
8.48820000 1.84330000 9.73610000
8.99210000 1.74550000 9.28730000
9.60980000 1.55800000 8.81800000
9.28430000 1.71060000 8.79620000
9.46080000 1.54370000 9.18210000
9.82440000 1.43510000 8.83240000
8.68720000 1.67730000 9.89050000
9.13710000 1.58610000 9.55060000
9.26510000 1.40330000 9.72800000
8.63440000 1.60280000 10.06170000
9.45640000 1.19880000 9.75650000
9.66640000 1.24510000 9.48990000
9.60600000 1.37200000 9.36860000
7.82780000 1.61820000 10.54170000
8.02450000 1.70020000 10.38510000
8.15570000 1.36950000 10.51180000
7.98290000 1.20140000 10.57520000
8.42030000 1.47200000 10.33260000
8.17520000 1.84380000 10.08060000
8.07510000 1.77800000 10.26440000
8.50940000 1.57360000 10.20070000
7.93940000 1.18070000 9.68540000
7.53840000 1.18460000 9.98670000
7.90420000 1.17740000 9.78600000
7.45560000 1.15200000 10.02710000
7.56670000 1.05030000 9.99870000
8.46240000 1.27030000 10.40610000
8.38990000 1.04300000 10.44160000
8.02710000 0.55350000 10.50550000
8.22270000 0.49800000 10.44300000
7.88890000 1.17690000 9.27590000
8.41120000 1.05420000 9.59250000
8.26460000 1.06640000 9.70890000
7.94590000 1.12200000 9.84150000
8.19120000 1.03060000 9.78880000
8.05550000 1.00380000 9.85400000
8.03440000 0.90840000 9.86640000
7.87110000 0.82430000 9.88710000
8.32670000 0.83600000 9.76830000
8.16270000 0.68320000 9.77850000
8.96540000 1.39220000 10.02080000
8.77080000 1.37610000 10.18070000
8.80950000 1.19560000 10.24940000
9.14030000 1.20100000 10.02810000
9.17030000 1.08390000 10.06630000
8.71760000 0.95690000 9.49590000
8.48600000 1.00490000 9.64040000
8.66290000 0.98970000 9.37090000
8.74740000 0.87760000 9.55980000
9.51340000 1.00020000 9.83720000
9.02500000 1.02830000 10.16460000
9.41390000 0.88290000 9.93020000
8.98510000 0.89370000 9.33650000
8.93490000 0.87870000 9.42410000
9.07640000 0.77810000 9.38760000
8.95600000 0.73980000 9.46610000
9.23320000 0.78310000 9.26450000
8.65460000 1.07720000 10.34210000
8.53110000 0.41050000 10.31730000
8.57710000 0.45240000 10.30470000
8.94380000 0.87530000 10.19560000
8.38810000 0.95490000 9.73680000
8.58700000 0.82720000 9.65670000
8.46320000 0.70360000 9.69430000
8.74340000 0.57150000 9.54410000
8.36030000 0.56320000 9.68210000
8.27940000 0.53120000 9.68050000
8.47440000 0.50610000 9.64910000
9.00440000 0.27610000 10.08130000
9.00460000 0.27630000 10.08120000
9.00250000 0.27690000 10.08230000
9.05830000 0.51950000 9.37890000
9.87350000 1.57200000 7.57330000
9.10490000 1.83440000 7.78540000
9.45650000 1.70600000 8.17150000
8.50440000 2.02070000 6.76200000
5.40990000 2.93380000 5.93910000
8.07480000 1.39280000 6.49980000
6.30690000 1.93730000 4.61020000
8.23580000 1.42210000 3.67390000
8.95690000 1.09600000 6.43890000
8.80490000 1.16290000 6.71070000
8.89170000 1.15430000 6.36540000
8.70000000 1.21030000 6.76190000
8.86810000 1.08350000 6.76650000
9.00110000 0.92600000 6.71600000
9.05380000 1.00010000 6.35250000
9.11000000 0.92930000 6.34110000
9.18820000 0.85350000 6.52420000
8.97120000 1.16310000 5.51500000
9.04090000 1.11460000 5.78470000
9.12920000 1.03140000 5.73180000
9.14870000 0.93120000 6.07210000
9.14080000 1.13220000 4.66390000
9.19500000 1.07860000 4.86720000
7.14890000 1.63420000 7.89590000
6.45830000 1.55820000 9.12950000
5.95870000 1.94850000 8.24410000
5.40180000 2.07050000 8.32810000
5.26010000 2.03930000 8.39610000
5.69590000 1.92760000 8.38440000
6.15230000 1.86540000 8.28800000
6.56790000 1.78810000 8.15210000
5.74540000 1.85400000 8.41850000
6.32000000 1.77450000 8.31260000
6.36130000 1.68770000 8.35020000
5.90830000 1.75260000 8.47620000
5.06670000 2.02350000 8.44080000
6.83820000 1.48500000 8.40100000
6.65160000 1.72280000 8.23350000
6.89940000 1.65630000 8.17030000
6.77710000 1.63220000 8.25940000
6.61620000 1.57230000 8.37600000
6.86880000 1.52130000 8.30590000
7.02380000 1.53400000 8.20630000
7.14770000 1.61000000 8.02720000
7.11190000 1.58450000 8.10300000
7.25010000 1.43150000 8.18290000
8.29560000 2.07120000 8.76710000
7.87290000 1.43410000 7.69210000
7.70200000 1.46130000 7.86010000
7.51130000 1.46110000 8.01180000
7.77300000 1.30280000 7.99300000
7.94200000 1.33940000 7.83240000
7.57400000 1.30310000 8.17350000
8.12030000 1.34370000 7.63680000
8.19910000 1.27670000 7.65790000
8.37160000 1.15820000 7.58290000
8.08240000 1.20600000 7.84090000
8.20710000 1.13500000 7.82640000
7.92380000 1.21540000 7.99420000
7.84290000 1.21030000 8.21140000
8.68530000 0.97460000 8.08600000
8.39810000 1.05710000 7.88540000
8.31090000 1.31290000 7.37670000
9.92320000 1.49790000 8.25520000
8.61260000 1.23560000 7.07250000
8.57130000 1.22880000 7.25750000
8.68010000 1.17590000 7.18430000
8.70960000 1.19060000 7.06150000
8.77230000 1.11640000 7.08040000
8.45610000 1.23400000 7.40890000
8.59370000 1.15520000 7.34340000
8.58420000 1.05560000 7.43630000
8.69250000 1.08400000 7.25120000
8.73240000 0.99990000 7.27730000
8.63950000 1.00190000 7.48230000
8.81050000 1.01580000 7.10270000
8.85000000 0.95140000 7.14140000
8.99690000 0.89860000 6.94090000
8.84720000 0.93330000 7.36230000
9.72700000 0.70050000 6.47120000
8.98310000 0.89340000 8.79030000
9.71110000 0.70020000 8.26980000
7.87550000 1.18790000 8.75010000
9.14640000 0.85440000 9.21170000
9.34040000 0.80610000 9.03800000
8.72680000 0.35660000 9.52380000
8.53740000 0.41020000 9.61040000
8.33710000 0.21080000 9.67650000
8.44240000 0.43720000 9.65550000
8.71050000 0.14670000 9.50400000
8.86870000 0.31630000 9.44710000
9.01010000 0.27630000 9.36440000
8.94600000 -0.04710000 9.34520000
8.85130000 1.03920000 6.91710000
9.97450000 1.30850000 8.90940000
10.20230000 1.12930000 8.88150000
9.91500000 1.20160000 9.22220000
10.18110000 1.02660000 9.06990000
10.40630000 0.93370000 8.81510000
9.96340000 1.04230000 9.34000000
9.74240000 0.96940000 9.64160000
10.32390000 0.83490000 9.03600000
10.14860000 0.79530000 9.29240000
10.34300000 0.69540000 9.08380000
9.94570000 0.86100000 9.48770000
10.11280000 0.71780000 9.34590000
10.38320000 0.58430000 9.02470000
9.91020000 -0.06030000 9.33680000
9.95920000 0.00640000 9.30450000
9.92980000 0.01470000 9.33770000
9.91840000 0.01790000 9.35050000
9.72570000 0.83950000 9.70050000
9.78250000 0.73810000 9.64370000
9.37850000 0.17050000 9.83410000
9.38280000 0.16930000 9.83080000
9.37820000 0.16260000 9.83300000
9.40520000 0.16290000 9.81340000
9.97790000 0.58830000 9.45030000
9.63790000 0.16590000 9.64450000
10.14940000 -0.02150000 9.09370000
10.09160000 -0.03090000 9.15240000
9.76330000 0.06170000 9.50280000
10.19780000 1.42060000 7.69070000
10.19220000 1.30760000 8.42140000
10.30030000 1.32690000 7.97800000
10.60380000 1.10040000 7.99220000
10.38280000 1.13530000 8.49450000
10.63310000 1.16700000 7.58820000
10.31280000 1.43790000 6.19570000
10.64080000 1.29240000 6.22080000
10.59380000 1.24490000 7.24140000
10.79610000 1.19090000 6.52210000
10.92590000 0.94990000 7.41220000
10.83720000 0.91380000 7.83140000
10.71390000 0.88340000 8.24340000
10.87990000 0.71130000 8.06810000
11.03350000 0.77660000 7.51910000
11.06030000 0.63450000 7.66540000
11.05990000 1.00030000 6.55120000
11.16690000 0.85360000 6.79680000
11.19630000 0.76520000 6.96450000
11.33760000 0.78430000 6.21340000
11.37500000 0.65650000 6.48320000
11.23780000 0.62000000 7.11210000
10.33790000 0.53070000 7.59220000
10.62840000 0.46860000 6.10630000
10.64040000 0.46100000 6.91550000
11.19740000 0.45170000 7.44420000
11.00700000 0.50220000 7.92580000
11.17520000 0.32050000 7.51980000
11.32350000 0.33870000 7.10900000
11.40400000 0.41080000 6.78140000
10.76170000 0.34950000 7.02170000
10.66490000 0.39380000 7.34860000
10.68040000 0.43090000 7.11890000
10.84950000 0.40230000 6.25590000
10.83480000 0.36230000 6.62430000
10.85760000 0.28370000 6.62720000
10.72010000 0.26700000 7.20550000
10.80920000 0.20960000 6.82090000
11.20260000 1.00930000 5.44000000
11.34330000 0.87000000 5.64750000
11.56060000 0.70840000 5.09440000
10.98510000 0.36720000 5.42620000
10.87180000 0.41520000 5.67230000
10.98220000 0.38610000 4.80000000
11.04660000 0.30590000 5.19130000
11.04370000 0.35020000 4.68870000
11.06960000 0.25040000 5.08340000
10.63590000 0.47230000 5.04460000
11.07910000 0.29750000 4.67760000
9.44890000 0.81870000 5.21630000
9.22030000 0.92000000 5.72420000
9.30190000 0.85600000 5.74480000
10.10490000 0.62400000 5.07330000
9.84640000 0.65830000 7.36780000
9.26840000 0.97950000 4.93610000
9.35310000 0.89630000 4.78190000
10.97990000 0.33600000 5.75390000
10.93080000 0.33050000 6.12730000
10.97750000 0.27350000 5.91990000
11.00090000 0.19150000 5.69190000
11.02960000 0.27140000 5.49450000
10.92100000 0.27270000 6.28130000
10.90100000 0.18690000 6.31660000
10.70970000 -0.20120000 6.59900000
10.70380000 -0.19960000 6.63200000
10.79940000 -0.22550000 6.05960000
10.79570000 -0.22450000 6.08480000
10.79110000 -0.24260000 6.07470000
10.69630000 -0.22830000 6.61870000
10.79960000 -0.22560000 6.05420000
10.84810000 -0.23850000 5.67070000
10.81260000 -0.35910000 5.63400000
11.05330000 0.19780000 5.19000000
10.93480000 -0.16150000 5.16320000
10.92620000 0.02620000 5.75140000
11.44470000 0.52500000 6.45210000
11.41900000 0.23750000 6.84840000
11.47220000 0.21100000 6.56560000
11.53030000 0.31450000 6.31770000
11.34170000 0.22740000 7.07810000
11.38050000 0.13060000 6.90810000
11.37320000 0.01040000 6.76590000
11.25340000 0.15830000 7.24590000
11.19170000 -0.04880000 7.23440000
11.18100000 -0.33610000 6.99610000
11.18350000 -0.33680000 6.98830000
11.54170000 0.64940000 5.54690000
11.55850000 0.51520000 5.87980000
11.67120000 0.51890000 5.12890000
11.56260000 0.39950000 6.07650000
11.68920000 0.41130000 5.29400000
11.69620000 0.26430000 5.41880000
11.77850000 0.45730000 4.50060000
11.80640000 0.29110000 4.74860000
11.85530000 0.20770000 4.42600000
11.10180000 0.21030000 4.54950000
11.11160000 0.26060000 4.40290000
11.07400000 0.14660000 4.75790000
10.99620000 -0.20450000 4.30030000
11.66720000 0.03920000 5.47070000
11.73580000 0.08040000 5.08300000
11.81200000 0.13980000 4.76730000
11.75300000 -0.04450000 4.80090000
11.74760000 -0.21360000 4.37600000
11.85840000 0.08630000 4.22810000
11.64950000 -0.38850000 4.66850000
11.59790000 0.16810000 5.94910000
11.53140000 0.05800000 6.16430000
11.47040000 -0.17880000 6.13690000
11.47540000 -0.34230000 5.81150000
11.58730000 -0.22680000 5.40470000
11.18080000 -0.34170000 6.99140000
11.24650000 -0.35420000 6.76180000
11.32380000 -0.36890000 6.49140000
11.32240000 -0.37520000 6.48590000
11.43300000 -0.40540000 5.89170000
10.88170000 -0.24740000 5.36800000
11.67820000 -0.14500000 5.13110000
11.53090000 -0.48700000 5.29560000
11.54210000 -0.43520000 5.31730000
11.50740000 -0.42570000 5.51400000
11.55200000 -0.43790000 5.27200000
11.58810000 -0.44750000 4.96660000
11.60410000 -0.45180000 4.83450000
11.57460000 -0.49280000 4.94200000
11.52420000 -0.61670000 5.13160000
11.45060000 -0.89750000 4.85510000
11.62280000 -0.45680000 4.69350000
11.44870000 -0.82120000 5.10240000
10.90240000 -0.25290000 5.17970000
10.59660000 -1.11550000 5.33520000
11.35350000 -0.83940000 5.55010000
11.45820000 -0.41230000 5.77470000
11.44600000 -0.40900000 5.83910000
11.28470000 -0.77430000 5.99020000
11.41180000 -0.85340000 5.29800000
11.32020000 -1.09960000 5.37710000
11.35660000 -1.27300000 4.89480000
10.49990000 0.97580000 8.57530000
9.53780000 0.75500000 8.95880000
9.63810000 0.73140000 8.75370000
9.65330000 0.68060000 8.95750000
9.42920000 0.76180000 9.09200000
9.70130000 0.69820000 8.84340000
9.90550000 0.64990000 8.52840000
9.70520000 0.59020000 8.95030000
9.79670000 0.62920000 8.81650000
9.95980000 0.60690000 8.58630000
9.93220000 0.56270000 8.68900000
9.81820000 0.49400000 8.83330000
9.98640000 0.37630000 8.63460000
10.04520000 0.43870000 8.58130000
10.19660000 0.51850000 8.32790000
10.15560000 0.47880000 8.42820000
10.17220000 0.56410000 8.25370000
10.32180000 0.53170000 7.91230000
10.23400000 0.40530000 8.32870000
10.11350000 0.31460000 8.46260000
9.80700000 0.27090000 8.76730000
10.02020000 0.17460000 8.48800000
10.65970000 0.75020000 8.53160000
10.79630000 0.56220000 8.39860000
10.52760000 0.73980000 8.79040000
10.56570000 0.62440000 8.78140000
10.57280000 0.47660000 8.74600000
10.77330000 0.40190000 8.41090000
10.31730000 0.51150000 8.09480000
10.40820000 0.49490000 7.90420000
10.39830000 0.46420000 8.04220000
10.47760000 0.41580000 7.88490000
10.34510000 0.43250000 8.14840000
10.42560000 0.36330000 8.03430000
11.04950000 0.28060000 7.79300000
10.89750000 0.44350000 8.19200000
10.90660000 0.27410000 8.08440000
11.01070000 0.09720000 7.77470000
10.80540000 0.16030000 8.20210000
10.42830000 0.04130000 8.75190000
10.34110000 0.31730000 8.15690000
10.25090000 0.22600000 8.22790000
10.41780000 0.14330000 7.91300000
10.11720000 -0.01120000 8.28720000
10.27960000 0.05050000 8.07050000
10.69010000 -0.04880000 8.31720000
10.76870000 -0.13890000 8.12990000
10.47520000 -0.13880000 8.60380000
10.62480000 -0.18090000 8.35940000
10.65120000 -0.41720000 8.18590000
10.73760000 -0.21250000 8.14470000
10.67470000 -0.19480000 8.26510000
10.49130000 0.46860000 7.77150000
10.55670000 0.46690000 7.48620000
10.59970000 0.39650000 7.57240000
10.59430000 0.25720000 7.59150000
10.56660000 0.35010000 7.69440000
10.66710000 0.33840000 7.42380000
10.49330000 0.31560000 7.86010000
10.56260000 0.04480000 7.45430000
11.10880000 0.03930000 7.52000000
11.16720000 0.16270000 7.46100000
10.91060000 -0.08550000 7.89850000
10.99880000 -0.12920000 7.70670000
10.59570000 -0.16990000 7.10940000
10.53480000 -0.15300000 7.32080000
10.64650000 -0.18390000 6.91300000
10.28630000 -0.08380000 7.99340000
10.23620000 -0.06970000 8.07450000
10.13910000 -0.33790000 8.08340000
10.33660000 -0.09780000 7.89550000
10.20260000 -0.49550000 7.86650000
10.37400000 -0.10830000 7.79560000
10.29190000 -0.57940000 7.57570000
10.48310000 -0.13860000 7.49000000
10.89270000 -0.33170000 7.76190000
10.92730000 -0.26560000 7.74390000
10.89810000 -0.25740000 7.80310000
10.83850000 -0.24070000 7.93090000
10.77030000 -0.38760000 7.96150000
10.76930000 -0.22130000 8.07410000
10.47050000 -0.60950000 7.01260000
9.44250000 0.69230000 9.15260000
9.31760000 0.67390000 9.25560000
9.57650000 0.56620000 9.06970000
9.32660000 0.44520000 9.21930000
9.56850000 0.65880000 9.06240000
9.54920000 0.25630000 9.02140000
9.46110000 0.14870000 9.05870000
9.29460000 0.19580000 9.18550000
9.72780000 0.15570000 8.81050000
9.90020000 0.09390000 8.58370000
9.88470000 -0.10170000 8.55820000
9.78840000 0.05630000 8.71310000
9.89480000 0.02630000 8.57490000
9.72300000 0.07480000 8.78820000
9.16260000 0.23310000 9.27350000
9.25660000 -0.10120000 9.14530000
8.98860000 -0.58340000 9.22460000
9.51930000 -0.42640000 8.84110000
9.54350000 0.12540000 8.98680000
9.70100000 0.08100000 8.81440000
9.51010000 0.13480000 9.01910000
9.29980000 -0.51820000 9.00680000
9.68500000 -0.56740000 8.61140000
10.07980000 -0.02570000 8.33090000
10.10750000 -0.03350000 8.29050000
9.91230000 -0.48280000 8.35710000
10.53400000 -0.36470000 8.41820000
10.61400000 -0.52550000 8.22320000
10.56400000 -0.68380000 8.20870000
10.36570000 -0.10810000 8.77740000
10.18650000 -0.53540000 8.85030000
10.15130000 -0.04770000 9.08130000
9.87920000 -0.73200000 9.16940000
10.14060000 -0.04470000 9.09620000
10.05120000 -0.84580000 8.94220000
10.31560000 -0.76050000 8.58020000
10.18470000 -0.97280000 8.73830000
10.41450000 -0.98340000 8.38130000
10.11890000 -0.03680000 8.27120000
10.68610000 -0.61510000 8.00010000
10.58070000 -0.81230000 8.08560000
9.98650000 -0.85960000 8.02280000
9.73280000 -1.04870000 8.33350000
9.88670000 -1.11540000 8.05390000
9.84220000 -1.19330000 8.14400000
10.68640000 -1.03650000 7.78290000
10.55530000 -1.18460000 8.10940000
10.21040000 -1.13120000 8.72370000
10.41160000 -1.24110000 8.43210000
10.03140000 -1.14920000 7.74220000
10.11660000 -1.22040000 7.48670000
10.09030000 -1.26740000 7.60840000
9.93110000 -1.20730000 7.96410000
9.96970000 -1.26950000 7.97430000
10.14440000 -1.35610000 7.80730000
9.95410000 -1.30910000 8.23570000
10.23560000 -1.43170000 8.06750000
10.16750000 -1.32970000 7.53790000
10.18860000 -1.17690000 7.29160000
10.29830000 -1.24260000 6.89420000
10.24120000 -1.29270000 7.13120000
10.37380000 -1.19330000 6.60780000
10.33410000 -1.37960000 7.06690000
11.05200000 -0.19550000 7.52430000
11.11540000 -0.14720000 7.44730000
10.98720000 -0.22270000 7.61670000
11.11190000 -0.20770000 7.36450000
11.17740000 -0.33510000 7.00980000
11.01630000 -0.29040000 7.51780000
11.04320000 -0.29790000 7.44400000
10.98440000 -0.37500000 7.51200000
10.94560000 -0.27060000 7.68050000
10.98610000 -0.28190000 7.57600000
10.78110000 -0.62810000 7.76280000
10.83420000 -0.74640000 7.56270000
11.08040000 -0.62360000 7.04330000
10.99450000 -0.69410000 7.18440000
10.94530000 -0.82700000 7.21720000
10.89410000 -1.03830000 7.30790000
10.77710000 -0.91130000 7.59720000
10.75810000 -1.30040000 7.65690000
10.48060000 -1.32060000 8.32020000
10.52470000 -1.41360000 8.20320000
10.60520000 -1.39070000 8.03820000
10.37670000 -1.40520000 8.47550000
10.47360000 -1.47900000 8.27350000
10.44420000 -1.50650000 8.21960000
10.51090000 -1.49980000 8.12960000
10.65960000 -1.45010000 7.90590000
10.72390000 -1.41320000 7.74250000
10.67340000 -1.52160000 7.80570000
10.82230000 -1.39310000 7.48550000
10.75060000 -1.49130000 7.57670000
10.71950000 -1.47650000 7.71550000
10.68450000 -1.54260000 7.67820000
10.64380000 -1.55610000 7.56250000
10.75410000 -1.54370000 7.46470000
10.45310000 -1.51850000 8.04470000
10.33800000 -1.48360000 8.21010000
10.54950000 -1.53010000 7.44460000
10.46410000 -1.46480000 7.06890000
10.62750000 -1.49620000 7.95070000
10.57190000 -1.50350000 8.03540000
10.54870000 -1.53810000 7.91670000
10.61850000 -1.54290000 7.86550000
10.59810000 -1.55090000 7.79550000
11.17850000 -0.63460000 6.64740000
11.32060000 -0.37480000 6.49480000
11.09720000 -0.83740000 6.69880000
11.17850000 -0.69130000 6.47320000
11.25450000 -0.67050000 6.22850000
11.18300000 -0.82300000 6.27820000
11.19300000 -0.95740000 6.17300000
11.03930000 -0.79680000 6.96940000
11.00840000 -1.05040000 6.96940000
10.95140000 -1.36220000 7.15520000
11.16430000 -1.18580000 6.27920000
11.05260000 -1.41650000 6.73710000
11.17850000 -1.42270000 6.20970000
11.13440000 -1.47670000 6.38520000
11.13500000 -1.59850000 6.11100000
11.03270000 -1.59400000 6.49160000
11.04620000 -1.52870000 6.63140000
10.59580000 -1.28720000 4.92930000
10.50760000 -1.27570000 5.69950000
11.28150000 -0.93980000 5.74710000
11.26020000 -1.12920000 5.70380000
11.27900000 -1.36020000 5.52310000
10.47470000 -1.22710000 5.99360000
10.39910000 -1.29820000 6.41640000
10.43410000 -1.33490000 6.23180000
10.49390000 -1.37420000 5.93860000
10.61490000 -1.43530000 5.41890000
10.49450000 -1.41470000 6.25370000
10.69550000 -1.51480000 5.84510000
10.53280000 -1.32630000 5.49990000
10.59750000 -1.37310000 5.03390000
10.57240000 -1.39940000 5.45070000
11.27390000 -1.47820000 5.53780000
11.19770000 -1.53950000 5.99020000
11.21910000 -1.55050000 5.77330000
11.17970000 -1.62620000 5.75640000
11.06770000 -1.65040000 6.15950000
11.12500000 -1.65530000 5.91480000
11.07770000 -1.67990000 5.73290000
11.00080000 -1.66530000 6.04690000
10.95990000 -1.64010000 5.55330000
11.02860000 -1.67250000 5.63380000
11.13810000 -1.69660000 5.31030000
11.16260000 -1.67590000 5.62010000
10.95830000 -1.60740000 4.60760000
11.29310000 -1.59250000 5.15950000
11.23470000 -1.61570000 5.49940000
11.25260000 -1.66170000 5.18140000
11.20110000 -1.68240000 5.38090000
11.19160000 -1.70480000 5.10400000
10.34400000 -1.27550000 6.68300000
10.39490000 -1.35500000 6.53820000
10.38980000 -1.38360000 6.71550000
10.31650000 -1.32250000 6.86290000
10.95350000 -1.51400000 7.02120000
10.96820000 -1.57630000 6.84000000
11.00790000 -1.51940000 6.80810000
10.93990000 -1.44130000 7.20540000
10.85470000 -1.46850000 7.35430000
10.87730000 -1.52100000 7.21830000
10.75460000 -1.57960000 7.30950000
10.90520000 -1.58390000 7.00280000
10.84490000 -1.58800000 7.13480000
10.75700000 -1.59170000 7.04950000
10.87510000 -1.62060000 6.80300000
10.89290000 -1.63370000 6.39190000
10.92490000 -1.63980000 6.49060000
10.95070000 -1.62780000 6.68430000
10.99220000 -1.60090000 6.68360000
11.01440000 -1.63380000 6.40720000
10.99430000 -1.65600000 6.30230000
6.25040000 1.98490000 10.85980000
6.20570000 2.11940000 10.80470000
5.81140000 2.07430000 10.90460000
6.34320000 1.80440000 10.88000000
5.85960000 1.93290000 10.92100000
5.33060000 1.86730000 10.16470000
5.21960000 1.89330000 9.81070000
5.82950000 1.73360000 10.10990000
5.62010000 1.71740000 10.25940000
5.77390000 1.72050000 10.20490000
5.72260000 1.75040000 9.90680000
6.03190000 1.53950000 10.24730000
6.11480000 1.59060000 10.20410000
5.45370000 1.38320000 10.28730000
5.18480000 1.43870000 10.29640000
5.35120000 1.31520000 10.28720000
5.18350000 1.36290000 10.29340000
6.14380000 1.28700000 10.89560000
5.55660000 1.25530000 10.93970000
5.97980000 1.13500000 10.90730000
5.90420000 1.49120000 10.27040000
5.66370000 1.39180000 10.27010000
5.96020000 1.22550000 10.24810000
5.53770000 1.05550000 10.27320000
5.48060000 1.27840000 10.28280000
5.60770000 1.24220000 10.27150000
5.83860000 1.17660000 10.25530000
5.18070000 1.20200000 10.28700000
5.97060000 1.13910000 10.23790000
5.98760000 0.99790000 10.22120000
5.69950000 0.88810000 10.24520000
6.80820000 1.77240000 10.80900000
6.86260000 1.56510000 10.81980000
7.38820000 1.27940000 10.72020000
6.65050000 0.94440000 10.82630000
6.71620000 0.92570000 10.81810000
6.66640000 1.38770000 10.17240000
6.50910000 1.50130000 10.14180000
6.81780000 1.39880000 10.12590000
6.36560000 1.48690000 10.19580000
6.51050000 1.36710000 10.20030000
6.28300000 1.26020000 10.22060000
6.79260000 1.23000000 10.16140000
6.57930000 1.22320000 10.17330000
6.58190000 1.09970000 10.14790000
6.71110000 0.90340000 10.81810000
6.73930000 0.91910000 10.81400000
6.87660000 1.42640000 10.07020000
7.02480000 1.28100000 10.12100000
7.18990000 1.28430000 10.07410000
7.02030000 1.16450000 10.12490000
6.81870000 1.03110000 10.11930000
7.28980000 0.99300000 10.03490000
6.99430000 1.03610000 10.08190000
6.86930000 0.92700000 10.04950000
6.83000000 0.96270000 10.08050000
6.96480000 0.93370000 10.04210000
6.90990000 0.87220000 10.06240000
6.86710000 0.88440000 10.06150000
6.95740000 0.79030000 10.08930000
6.86400000 0.82090000 10.07940000
6.96090000 0.85770000 10.06710000
7.07530000 0.88940000 10.05030000
7.01820000 0.84140000 10.06920000
6.19120000 1.07630000 10.22100000
