-8.14030000 3.47620000 -0.85510000
-5.44000000 0.46410000 3.12360000
-5.24420000 0.39150000 3.50650000
-5.65970000 0.73580000 -3.26540000
-7.16710000 1.09730000 -0.32950000
-7.82750000 3.69100000 -0.43440000
-6.99880000 1.24520000 -0.50590000
-8.07570000 3.03490000 1.18750000
-5.22740000 0.46220000 3.19840000
-7.84800000 3.03910000 1.11250000
-5.26370000 0.13060000 3.69340000
-8.67370000 4.56550000 1.43130000
-5.55560000 0.74220000 -3.16870000
-4.79520000 0.35840000 4.00710000
-7.67130000 2.99460000 0.99280000
-5.37870000 0.69630000 -3.08420000
-7.61690000 3.22580000 0.94120000
-5.24270000 0.72290000 -3.33780000
-4.66010000 0.38390000 3.69610000
-5.17610000 0.43440000 2.97580000
-8.56060000 4.28450000 1.32620000
-8.91780000 1.76600000 -0.10560000
-8.84430000 1.29760000 -0.54270000
-5.32970000 0.33920000 -2.93600000
-5.19280000 0.54180000 -3.20090000
-8.15850000 2.94740000 1.24770000
-8.50470000 4.06610000 1.55180000
-8.65550000 1.31380000 -0.37320000
-5.33890000 0.72720000 -3.45580000
-7.86440000 2.78260000 1.00960000
-8.15290000 2.78280000 1.15910000
-7.02330000 1.37400000 -2.51120000
-6.84130000 1.36260000 -2.37400000
-6.69450000 1.07590000 -2.59820000
-6.60530000 1.15950000 -2.32570000
-5.22820000 0.34420000 2.78560000
-5.11500000 0.66170000 -3.40130000
-6.78380000 0.95130000 -2.76410000
-7.06630000 1.12700000 -2.72000000
-5.17710000 0.74100000 -3.87160000
-7.86830000 3.36400000 -0.78970000
-5.35950000 0.66800000 -3.83400000
-9.65790000 3.96410000 1.66180000
-4.97780000 0.20960000 3.13770000
-8.54790000 1.52730000 -0.10100000
-8.16430000 1.48860000 -0.00580000
-8.26000000 1.18120000 -0.22360000
-9.48390000 3.91520000 1.74710000
-6.60000000 0.86270000 -2.70380000
-9.16030000 3.99590000 1.96890000
-5.00620000 -0.28160000 2.98130000
-5.35250000 -0.07830000 2.47910000
-7.47310000 2.93570000 0.79640000
-4.42140000 0.36010000 4.17610000
-5.10870000 0.40300000 -3.36420000
-9.23820000 3.80020000 1.74970000
-4.66600000 0.32580000 3.56730000
-5.02380000 -0.22230000 -3.36770000
-9.28070000 1.87380000 -0.39620000
-8.75950000 0.99610000 -0.80680000
-4.74130000 0.20620000 3.43030000
-7.63550000 2.72250000 0.94610000
-7.70110000 2.57500000 0.89120000
-7.46820000 2.59850000 0.77950000
-6.74850000 0.62680000 -2.96850000
-6.64180000 0.55530000 -3.03330000
-9.18980000 3.68820000 1.71770000
-6.48870000 0.79190000 -2.72060000
-7.40450000 2.69570000 0.66420000
-6.37280000 0.91060000 -2.26200000
-7.83250000 3.08600000 -1.10980000
-7.56700000 3.31580000 -0.62000000
-8.91030000 3.74630000 1.76260000
-7.97980000 2.55440000 0.94170000
-8.24530000 2.95910000 -1.39190000
-7.98860000 3.01310000 -1.27350000
-6.28970000 0.62550000 1.02830000
-6.24360000 0.69000000 0.55190000
-6.46850000 0.61050000 0.55420000
-7.68110000 2.78090000 -1.39570000
-7.85970000 2.83550000 -1.38980000
-8.44430000 2.92760000 -1.42310000
-5.36280000 -0.47810000 -2.61050000
-8.13120000 2.89140000 -1.39300000
-6.37560000 0.69210000 0.32240000
-7.89340000 2.89590000 -1.29160000
-7.59590000 2.62280000 -1.50630000
-7.59030000 2.50150000 -1.69730000
-6.34660000 0.51190000 1.33130000
-6.52140000 0.39000000 1.03560000
-7.74410000 2.10180000 -2.11230000
-7.67710000 2.90310000 -1.16310000
-5.53760000 -0.76800000 -1.95990000
-7.52140000 2.42150000 0.72540000
-7.50050000 2.32870000 -1.79360000
-5.49520000 -1.08560000 -1.48970000
-7.36070000 3.47990000 -0.07750000
-9.34970000 3.13280000 -0.97460000
-9.18670000 3.07200000 -1.10120000
-5.23610000 -1.12560000 -2.17390000
-5.34000000 -0.80350000 -2.42720000
-9.61800000 4.15040000 -0.20810000
-8.67260000 1.52840000 -1.96240000
-9.66340000 4.02600000 -0.18130000
-8.03290000 1.37140000 -0.05250000
-9.72960000 2.76470000 -0.24060000
-8.93480000 1.38530000 -1.57730000
-7.72590000 1.40370000 -0.09110000
-6.76140000 0.08660000 0.80190000
-9.51890000 2.19910000 -0.44390000
-9.63370000 4.01970000 -0.38760000
-7.60400000 0.99560000 -0.16860000
-7.94360000 0.83980000 -0.22780000
-9.49350000 4.12480000 -0.43180000
-7.85190000 1.06600000 -0.15740000
-9.47830000 3.96320000 -0.52960000
-9.58970000 3.72150000 -0.57030000
-9.71590000 3.83440000 -0.34050000
-9.66640000 3.72930000 -0.23100000
-8.36560000 1.60480000 -2.20110000
-9.69420000 3.86300000 -0.41880000
-9.63570000 3.51760000 -0.42320000
-9.65010000 3.62040000 -0.49600000
-6.02000000 0.63050000 0.98060000
-9.53750000 2.40620000 -0.73580000
-7.32000000 0.78290000 -0.21380000
-9.45320000 3.56320000 -0.74080000
-5.99600000 0.60190000 0.80140000
-7.63790000 0.66580000 -0.21200000
-9.48050000 2.90870000 -0.87540000
-7.98080000 1.68990000 -2.36290000
-8.87830000 4.64710000 0.68020000
-9.22730000 4.58410000 0.73110000
-5.68620000 -0.32440000 1.68890000
-7.78280000 1.75310000 -2.39470000
-9.10780000 4.62050000 0.66660000
-8.45300000 1.83190000 0.19880000
-9.20730000 4.52820000 0.56680000
-7.28610000 0.45640000 -0.18170000
-7.41790000 1.99600000 -2.15480000
-7.57450000 1.82070000 -2.36180000
-7.42070000 1.74200000 -2.36520000
-9.67850000 3.24580000 -0.27810000
-9.78420000 3.12830000 -0.14160000
-5.05530000 -0.95310000 -2.87700000
-7.60420000 1.58030000 -2.49570000
-9.61640000 3.33420000 -0.36630000
-8.59140000 4.64250000 0.88090000
-7.10630000 0.83520000 -0.31500000
-9.81090000 3.10680000 0.02890000
-8.45210000 4.55200000 1.01050000
-9.23100000 2.79050000 -1.14600000
-7.17260000 0.55070000 -0.21330000
-9.75520000 3.02080000 -0.36480000
-9.66770000 3.08250000 -0.50870000
-9.59190000 3.27370000 -0.59800000
-4.79010000 -1.23680000 -2.93580000
-9.54890000 2.83290000 -0.75240000
-9.71730000 2.79430000 -0.46300000
-6.68280000 0.54990000 -0.07440000
-4.92930000 -1.43780000 -2.12100000
-6.17310000 0.70100000 0.22290000
-9.34920000 4.50410000 0.93600000
-9.35700000 4.36150000 0.96420000
-9.49340000 4.12970000 1.01430000
-9.39010000 4.04750000 0.84510000
-9.26830000 4.39750000 0.76700000
-6.10130000 0.62980000 0.07410000
-4.48500000 -1.55080000 -2.79080000
-7.67990000 0.27970000 -0.31040000
-7.33950000 1.24410000 -2.69340000
-9.60430000 2.69000000 -0.71650000
-9.28050000 4.24110000 0.64890000
-9.64160000 2.49960000 -0.58270000
-9.29030000 4.32160000 0.41940000
-7.45370000 0.31630000 -0.21170000
-6.22720000 0.83590000 -1.78650000
-6.16700000 0.73490000 -2.21700000
-6.20020000 0.61770000 -2.64840000
-7.37630000 2.50110000 -1.54110000
-6.02670000 0.67650000 -2.56360000
-7.32550000 2.36450000 -1.62740000
-6.33910000 0.71440000 -2.65280000
-6.39550000 0.54700000 -2.91250000
-7.03620000 2.15040000 -1.34670000
-6.95680000 1.97710000 -1.13750000
-6.22980000 0.46080000 -2.97770000
-6.90160000 1.83410000 -1.51870000
-6.86190000 1.74370000 -1.32770000
-6.02600000 0.56230000 -3.05200000
-7.16790000 0.19670000 -0.06310000
-7.21140000 2.24890000 -1.69100000
-7.32350000 2.20770000 -1.88460000
-7.10980000 1.97140000 -1.91940000
-7.00290000 1.93040000 -1.72670000
-6.76090000 1.58970000 -1.67510000
-6.17990000 0.36350000 -3.19440000
-6.86200000 1.56550000 -1.00900000
-6.72690000 1.46060000 -1.17800000
-5.85720000 0.59550000 -3.34240000
-6.78740000 1.57310000 -1.37490000
-6.63120000 1.38490000 -1.50250000
-6.57410000 1.17440000 -1.20570000
-6.38910000 1.00730000 -1.56050000
-7.11690000 1.72660000 -2.21160000
-6.84930000 1.61120000 -1.99210000
-6.97450000 1.70620000 -2.07750000
-6.88540000 1.59660000 -2.03840000
-7.24580000 1.59050000 -2.44180000
-6.61700000 1.33880000 -1.91930000
2.08090000 -0.26310000 6.61450000
2.86380000 -0.32270000 6.82430000
2.71630000 -0.29230000 6.61360000
8.96070000 -0.31140000 3.37440000
8.51510000 -0.27830000 4.02410000
8.61850000 -0.44200000 4.09750000
8.95570000 -0.20280000 3.01900000
8.52170000 -0.30350000 3.23430000
8.33770000 -0.26300000 4.17150000
9.07730000 -0.44810000 3.36050000
7.23180000 -0.71360000 3.15530000
8.13700000 -0.35410000 3.77820000
9.53650000 -0.07140000 0.81410000
9.43390000 -0.12980000 1.64800000
9.56870000 -0.15020000 1.20600000
8.82880000 -0.55090000 3.83880000
3.53710000 -0.34860000 6.42070000
2.55360000 -0.34110000 6.47610000
9.70580000 -0.33920000 1.07980000
5.73140000 -0.35310000 6.25950000
6.27570000 -0.38970000 6.08930000
6.16980000 -0.36030000 5.93620000
7.32250000 -0.57810000 3.90170000
5.78200000 -1.06260000 3.54220000
7.03670000 -0.44830000 4.96490000
2.91880000 -0.46070000 6.36190000
3.73510000 -0.46510000 6.30710000
6.45430000 -0.65840000 6.21550000
6.68670000 -0.39700000 5.87010000
6.79780000 -0.33670000 5.68470000
3.21880000 -0.71710000 6.11900000
4.41370000 -1.61540000 1.87130000
4.89340000 -1.56420000 1.04310000
3.61250000 -1.84390000 0.79840000
3.67570000 -0.38030000 6.89830000
3.16870000 -0.41270000 6.98690000
4.48710000 -0.35130000 6.34830000
5.07860000 -0.38570000 6.08650000
4.49080000 -0.55130000 6.05890000
5.32610000 -0.33890000 6.21320000
4.38350000 -0.32330000 6.51420000
5.45060000 -0.39040000 6.08590000
4.00900000 -0.52080000 7.01620000
5.09080000 -0.46190000 6.00840000
2.24270000 -2.10260000 0.35430000
2.64450000 -2.02610000 -0.24370000
9.72380000 -0.83360000 0.69250000
9.59170000 -0.87470000 1.14450000
9.19830000 -1.08790000 0.75280000
8.57070000 -1.29970000 1.28930000
8.87310000 -1.11790000 1.57710000
7.85220000 -1.53650000 1.63980000
9.18140000 -0.19580000 2.70690000
5.27940000 -0.59960000 5.72910000
8.83920000 -0.63960000 3.78220000
8.62610000 -0.81990000 3.84520000
9.22110000 -0.81000000 2.78860000
8.48830000 -1.36020000 0.78690000
9.05430000 -1.10690000 1.14500000
4.79040000 -1.56830000 0.01900000
0.85880000 -2.30510000 -0.70330000
1.54590000 -2.19580000 -1.07200000
4.07920000 -0.33280000 6.46630000
7.69010000 -1.62480000 0.20730000
7.65510000 -1.62040000 0.71680000
8.93030000 -0.21800000 1.54050000
5.31100000 -0.46980000 6.58790000
5.42500000 -0.68380000 6.72320000
4.14520000 -0.59090000 6.12580000
9.25370000 -0.12910000 2.25480000
9.67910000 -0.83200000 1.50420000
9.52050000 -0.80880000 1.76860000
4.59430000 -0.39130000 6.71030000
9.46850000 -0.27650000 2.04730000
4.89820000 -0.99430000 4.71330000
9.34050000 -0.37370000 2.69360000
9.30810000 -0.11930000 1.77480000
5.58300000 -0.83280000 6.77370000
5.93940000 -0.89760000 6.61380000
6.32210000 -0.80930000 6.36710000
4.60270000 -0.66840000 6.98590000
5.74050000 -0.96020000 6.75830000
5.95920000 -0.98740000 6.64610000
6.02640000 -0.97850000 6.54970000
5.97240000 -1.08470000 6.56220000
6.30800000 -0.91390000 6.37310000
6.50980000 -0.97440000 6.15070000
7.84250000 -0.61870000 1.94960000
7.59520000 -1.06340000 4.73700000
6.56970000 -1.32760000 5.13370000
7.62540000 -1.22970000 3.97860000
6.12700000 -1.72690000 3.78760000
2.97130000 -1.80230000 2.43190000
3.53550000 -1.47600000 3.64810000
4.74640000 -1.33110000 3.33250000
6.03220000 -1.16220000 6.40390000
5.94420000 -1.36360000 5.93480000
6.82570000 -1.00160000 5.78560000
6.48040000 -1.15830000 5.80950000
6.35850000 -0.46700000 5.49350000
6.31750000 -1.17450000 1.13280000
5.60190000 -1.34130000 1.81190000
7.08200000 -0.92960000 1.34370000
5.12500000 -0.79350000 5.33760000
2.58210000 -1.98310000 1.53320000
8.95160000 -0.99050000 2.90330000
7.50590000 -1.49360000 2.91640000
6.88720000 -1.77540000 2.04660000
3.34500000 -0.90310000 5.87250000
4.17670000 -0.74230000 5.92680000
4.09260000 -0.90590000 5.59990000
4.51050000 -0.71400000 5.83040000
8.44380000 -1.24720000 2.25880000
8.97680000 -1.05380000 2.13980000
7.58670000 -1.64780000 1.24430000
6.39300000 -1.96120000 1.41690000
9.31810000 -0.90490000 2.28150000
7.54150000 -0.31810000 5.05300000
8.01340000 -0.35750000 4.04590000
7.64290000 -0.74730000 5.25750000
7.40800000 -0.91190000 5.31270000
7.93450000 -0.83310000 4.95590000
7.25710000 -1.05330000 5.20910000
6.80240000 -0.95990000 2.24070000
5.83100000 -1.20360000 2.61910000
7.60920000 -0.43150000 5.18370000
8.21700000 -0.36630000 4.54060000
8.29390000 -0.53540000 4.59420000
7.75260000 -0.64120000 5.17860000
8.14490000 -0.70690000 4.81680000
3.33590000 -1.14930000 5.23160000
5.52430000 -2.19760000 1.07740000
8.08330000 -0.91770000 4.59150000
6.99860000 -0.56410000 5.76960000
8.28560000 -0.77040000 4.57810000
7.07520000 -0.76850000 5.77710000
6.32250000 -1.17450000 0.33910000
7.13250000 -0.34920000 5.50810000
6.95230000 -1.22430000 5.11490000
6.43560000 -1.95050000 -0.29220000
8.21310000 -1.19690000 3.28890000
8.48460000 -1.03140000 3.59920000
5.96050000 -1.93070000 2.86950000
8.15510000 -0.29770000 4.52760000
8.51520000 -0.63270000 4.32920000
8.04130000 -0.34340000 3.84270000
7.93070000 -0.43590000 3.64110000
9.31370000 -0.58250000 2.96150000
9.24750000 -0.68730000 3.01160000
9.40740000 -0.06830000 0.90200000
9.50860000 -0.01980000 -0.25830000
9.44220000 -0.49860000 2.62450000
5.11010000 -2.24210000 2.11240000
9.70930000 -0.19070000 0.04830000
9.51190000 -0.65000000 2.41320000
7.42910000 -0.80620000 0.33820000
9.61260000 -0.55440000 2.14410000
9.74130000 -0.56940000 1.80380000
9.79900000 -0.70640000 1.66890000
9.67500000 -0.68550000 1.90840000
9.83590000 -0.66160000 1.56670000
9.78170000 -0.79150000 1.53520000
9.52810000 -0.76180000 2.18780000
3.42430000 -2.62910000 0.96730000
4.25580000 -2.46450000 0.27980000
9.26520000 -0.90520000 1.93490000
9.82420000 -0.78580000 1.21270000
9.85900000 -0.73860000 1.40640000
9.86280000 -0.61350000 1.22870000
3.65880000 -2.54070000 1.76420000
9.89390000 -0.67950000 1.05090000
9.86340000 -0.71370000 1.22640000
9.82910000 -0.48540000 0.39560000
9.87000000 -0.74760000 0.95920000
9.83800000 -0.62940000 0.48810000
5.62540000 -1.61240000 5.25370000
7.23500000 -0.83840000 -0.51990000
8.52220000 -0.37300000 1.18030000
5.64830000 -1.31740000 -0.60740000
-5.20640000 -1.40330000 -1.36880000
-4.69580000 -1.63280000 -1.88840000
-4.08000000 -2.66630000 4.43360000
-4.22660000 -2.47630000 4.31220000
-3.85820000 -2.67970000 4.23920000
-7.14530000 -1.23260000 -1.94540000
-3.96040000 -2.55030000 4.06500000
-3.64230000 -2.65770000 4.11270000
-4.69180000 -1.55460000 4.74840000
-4.73710000 -1.79790000 4.73970000
-4.63820000 -1.63870000 4.93540000
-3.80860000 -2.76880000 4.32450000
-3.91120000 -2.97080000 4.48160000
-3.69060000 -3.05330000 4.44280000
-4.20910000 -2.79880000 4.58360000
-5.63350000 -1.58950000 2.79110000
-6.29460000 -1.56590000 1.31640000
-5.70760000 -1.80490000 2.17650000
-4.14710000 -3.10660000 4.57080000
-4.84740000 -1.65020000 4.49560000
-4.86420000 -1.92180000 4.41660000
-4.75900000 -2.03920000 4.51760000
-3.42680000 -2.95660000 4.36700000
-3.25030000 -2.83520000 4.28000000
-4.49790000 -2.89990000 5.03930000
-4.44750000 -2.89910000 4.86730000
-4.43940000 -2.94600000 4.73810000
-4.53240000 -3.01940000 4.89500000
-6.92940000 -1.45380000 -1.54160000
-7.26990000 -1.12930000 -1.69480000
-4.34920000 -2.79160000 4.74800000
-6.79040000 -1.47780000 -2.07070000
-4.42700000 -2.77980000 4.98600000
-4.53060000 -3.10530000 4.88260000
-4.56270000 -2.07150000 4.97540000
-4.36770000 -1.83370000 5.36140000
-4.63470000 -3.14280000 4.98230000
-4.61910000 -3.20980000 4.86050000
-4.39880000 -2.16410000 5.32560000
-4.41670000 -3.12500000 4.73940000
-1.85380000 -2.88620000 2.01170000
-3.10860000 -2.82990000 2.12310000
-2.10930000 -2.98170000 1.19470000
-7.02290000 -0.79140000 0.12050000
-6.65380000 -1.06850000 1.03080000
-5.79050000 -2.22280000 -1.13230000
-6.43770000 -1.80690000 -1.37150000
-6.04850000 -2.00660000 -1.73660000
-3.12890000 -3.04640000 4.46060000
-3.35570000 -3.25960000 4.50920000
-4.36070000 -0.07940000 4.83810000
-5.12450000 -0.17540000 4.04770000
-4.67280000 -0.37440000 4.62720000
-4.29450000 -2.98060000 4.63090000
-4.36860000 -3.19560000 4.65790000
-4.67110000 -2.16690000 3.65150000
-4.72660000 -2.18690000 3.23790000
-4.37020000 -2.39380000 3.10270000
-4.66520000 0.22650000 4.31430000
-4.27220000 -2.39130000 3.52620000
-4.67450000 -3.26690000 4.94470000
-4.60540000 -3.34370000 4.80730000
-4.57720000 -3.52210000 4.99190000
-4.64450000 -3.24030000 5.02450000
-4.59160000 -3.56930000 4.86660000
-3.87070000 -2.52110000 3.70040000
-5.79810000 -0.54200000 1.18660000
-5.83170000 -0.77710000 0.70940000
-4.47640000 -3.41290000 4.70110000
-4.33220000 -3.32890000 4.61700000
-4.51020000 -3.59870000 4.77640000
-3.69200000 -2.62920000 2.93960000
-4.10620000 -2.63330000 2.13820000
-3.55220000 -1.65690000 3.55140000
-3.30210000 -1.64260000 3.82350000
-3.71090000 -1.72120000 3.11910000
-3.87820000 -3.48060000 4.59420000
-4.25410000 -3.73040000 4.68450000
-5.46790000 -2.34280000 -1.35960000
-3.12390000 -1.84110000 3.27250000
-2.49920000 -1.82650000 3.79120000
-6.33650000 -1.76180000 -2.16750000
-5.60270000 -2.20610000 -1.85290000
-5.57150000 -0.13780000 3.43560000
-5.15520000 -0.52240000 4.10980000
-3.44600000 -2.93730000 0.62970000
-3.78080000 -2.92600000 -0.46480000
-2.69390000 -3.03760000 0.07790000
-3.56110000 -3.39740000 4.51080000
-4.42410000 -2.30720000 3.97600000
-5.29730000 -2.48180000 -1.02070000
-4.06310000 -2.47860000 3.86370000
-3.47550000 -3.57010000 4.56040000
-4.39680000 -0.54140000 5.02870000
-4.91690000 -0.70750000 4.45010000
-5.40200000 -2.47500000 -0.34430000
-4.60840000 -2.75090000 -0.35840000
-4.59810000 -0.81440000 4.87070000
-4.94810000 -1.07090000 4.43580000
-5.23070000 -1.86740000 -3.33380000
-3.43860000 -2.62280000 3.95370000
-3.77440000 -3.76220000 4.63160000
-3.41320000 -3.68560000 4.68130000
-3.66270000 -3.83630000 4.65670000
-3.46860000 -3.93360000 4.79850000
-3.35260000 -2.60120000 3.76880000
-5.33850000 -0.75970000 3.88320000
-5.19520000 -0.81410000 4.02360000
-5.50240000 -1.06840000 1.52340000
-4.41880000 -2.34250000 5.23830000
-4.33960000 -2.31300000 5.48920000
-4.45570000 -3.66910000 5.10370000
-4.46990000 -3.78160000 5.01110000
-3.19260000 -2.72740000 4.12640000
-5.62900000 -1.08630000 1.03200000
-4.37770000 -3.89480000 5.07500000
-4.51710000 -3.76830000 4.88850000
-4.36630000 -3.88160000 4.92490000
-4.31690000 -3.84880000 4.76190000
-5.27100000 -0.97570000 4.00270000
-4.69630000 -2.10150000 4.67300000
-2.94120000 -2.66050000 4.06240000
-5.18900000 -1.24020000 4.07890000
-4.52890000 -2.25540000 4.83530000
-3.20740000 -2.60550000 3.58070000
-4.69700000 -2.19510000 4.44050000
-4.51630000 -2.38380000 4.56840000
-4.92300000 -2.40450000 -2.11650000
-4.62850000 -2.60790000 -1.66940000
-5.90360000 -0.77450000 0.03310000
-5.96390000 -0.08520000 2.80640000
-2.76350000 -2.60840000 3.92630000
-4.41190000 -2.48280000 4.87600000
-4.28660000 -2.51910000 5.29700000
-5.68280000 -2.02550000 -2.31180000
-4.86330000 -1.30670000 4.54120000
-4.71520000 -1.15150000 4.72680000
-1.58030000 -1.95610000 5.49700000
-1.91420000 -2.15070000 5.32710000
-1.76820000 -2.23510000 5.10880000
-5.73370000 -1.11900000 0.38410000
-2.20650000 -2.35110000 5.37820000
-1.98840000 -2.32330000 5.06230000
-4.28640000 -2.60760000 5.28940000
-4.32760000 -2.70850000 4.92740000
-4.37950000 -2.67510000 5.29260000
-4.70350000 -1.39820000 4.80480000
-4.96350000 -1.55680000 4.36440000
-5.11500000 -1.51500000 3.99400000
-4.33000000 -2.61530000 4.94780000
-4.32820000 -2.61760000 4.77760000
-5.92560000 -0.57840000 2.92540000
-5.64700000 -0.46330000 3.40440000
-6.30400000 -0.34030000 2.11920000
-4.44640000 -4.00050000 5.30740000
-4.48980000 -3.86240000 5.42290000
-4.43560000 -3.73440000 5.18880000
-2.13240000 -2.43780000 4.80670000
-1.91030000 -2.39880000 4.80910000
-4.30510000 -2.69560000 4.80060000
-4.35800000 -3.96920000 5.17400000
-4.29850000 -4.03700000 5.21780000
-4.12390000 -4.06590000 5.04850000
-4.22180000 -2.33680000 5.64160000
-4.27260000 -2.47490000 5.52500000
-2.27680000 -2.53260000 4.46150000
-2.08390000 -2.50530000 4.42140000
-4.14940000 -2.47750000 5.74900000
-4.32820000 -2.61200000 5.50870000
-4.22650000 -2.63380000 5.75570000
-5.00360000 -1.81620000 4.05530000
-4.91520000 -1.79530000 4.26320000
-3.93110000 -4.07520000 5.13480000
-3.93380000 -4.11240000 4.96920000
-1.44570000 -2.34140000 4.85220000
-1.47520000 -2.51610000 4.42290000
-3.66790000 -4.08510000 5.24300000
-3.78050000 -4.08060000 4.97210000
-3.35370000 -1.02680000 6.02960000
-3.56360000 -1.18970000 6.00670000
-3.12340000 -1.12820000 6.22400000
-4.39230000 -4.04960000 5.28760000
-4.25000000 -4.06760000 5.37570000
-4.30420000 0.23970000 4.66880000
-4.02380000 0.02050000 5.07950000
-4.04380000 0.26590000 4.80960000
-5.98050000 -1.35580000 2.33590000
-6.54860000 -1.43550000 0.92090000
-3.69760000 0.06710000 5.26490000
-6.83390000 -1.03800000 0.51400000
-3.46670000 -1.52010000 6.17530000
-3.18630000 -1.66050000 6.32220000
-2.92250000 -0.97080000 6.23540000
-2.65790000 -2.66480000 4.35720000
-2.34640000 -2.54760000 4.64160000
-5.04860000 -2.08550000 -2.95460000
-4.12070000 -4.00320000 4.74160000
-2.70810000 -0.95330000 6.29780000
-2.77670000 -1.13380000 6.37870000
-2.75200000 -2.89310000 4.58640000
-2.91720000 -2.92390000 4.46340000
-4.16530000 -4.02860000 4.84420000
-2.89560000 -1.45300000 6.39350000
-2.48110000 -2.67850000 4.73610000
-3.99920000 -4.11990000 4.90060000
-4.02470000 -4.05360000 4.80800000
-3.79580000 -4.03890000 4.81700000
-3.92850000 -3.94460000 4.68110000
-3.18670000 0.13520000 5.46610000
-3.12720000 -0.05040000 5.66580000
-6.94010000 -1.13920000 -0.10960000
-6.79470000 -1.35540000 0.08940000
-3.07560000 -3.36630000 4.66930000
-3.55280000 -0.16620000 5.50060000
-2.92960000 -3.11220000 4.64410000
-3.82800000 -1.67740000 5.95620000
-3.71930000 -0.15160000 5.41150000
-0.87780000 -2.88320000 2.15570000
-3.57930000 -4.05740000 4.91940000
-3.58200000 -2.06330000 6.22120000
-6.66580000 -1.50210000 0.31080000
-3.40340000 -0.22900000 5.65990000
-6.52130000 -1.65760000 0.29940000
-2.59750000 -2.92270000 4.95360000
-3.63030000 0.25810000 4.98930000
-2.80480000 -3.10490000 4.76670000
-2.51970000 -0.98050000 6.31210000
-6.28100000 -1.86140000 0.22010000
-5.79290000 -2.02440000 1.14320000
-2.59920000 -1.16520000 6.39060000
-2.94690000 -3.55310000 4.99540000
-2.77290000 -3.29500000 4.99040000
-2.76790000 -3.30810000 5.13750000
-2.21980000 -2.46760000 5.12860000
-2.36580000 -2.63140000 5.18170000
-2.30560000 -2.54450000 4.90000000
-2.77790000 0.16330000 5.56370000
-2.41230000 -1.16410000 6.35000000
-2.57930000 -1.33510000 6.38480000
-2.32480000 -1.30580000 6.29290000
-2.89710000 -3.59110000 5.63340000
-3.03280000 -3.70220000 5.75870000
-2.94010000 -3.66880000 5.38530000
-2.78450000 -1.86820000 6.34520000
-6.03190000 -1.81130000 1.39370000
-6.20700000 -0.65790000 2.32440000
-2.54200000 -1.85140000 6.26090000
-2.56500000 -2.96600000 5.24530000
-3.14980000 -3.83180000 5.01240000
-3.19480000 -3.91250000 5.20640000
-2.52160000 -2.81510000 5.52580000
-4.11340000 -0.29590000 5.14490000
-2.10290000 -1.31420000 6.16130000
-5.75480000 -1.03630000 3.09310000
-3.25990000 -3.52630000 4.61560000
-3.12250000 -3.61900000 4.76930000
-2.92350000 -3.35670000 4.82260000
-6.18330000 -1.06570000 2.14280000
-4.07400000 -0.40700000 5.29030000
-4.04910000 -0.68300000 5.41310000
-2.15370000 -0.92780000 6.19030000
-2.34400000 -1.82940000 6.10340000
-3.29230000 -3.89130000 4.87940000
-2.65910000 -1.66940000 4.16200000
-1.95370000 -1.32560000 6.08770000
-1.99660000 -1.63640000 5.94040000
-1.77020000 -1.46440000 5.99320000
-5.29510000 -0.81550000 2.25880000
-5.48050000 -0.88620000 1.80260000
-5.34750000 -0.57430000 2.28160000
-4.35430000 -0.95840000 5.13140000
-3.93340000 -0.80940000 5.50570000
-4.10380000 -0.96720000 5.46080000
-4.58150000 -1.18050000 4.96210000
-5.27240000 -1.14400000 1.94720000
-2.48970000 -1.94050000 3.10970000
-2.27850000 -2.05030000 5.91700000
-3.72280000 -0.36550000 5.53960000
-3.55320000 -0.59060000 5.76840000
-4.97960000 -1.17960000 2.48740000
-2.20060000 -2.68290000 3.61430000
-3.29930000 -0.49990000 5.87970000
-1.83890000 -2.62010000 3.95350000
-5.23300000 -1.30060000 1.71920000
-4.75680000 -1.42480000 2.45090000
-2.69610000 -3.23320000 5.52160000
-3.22360000 -2.32560000 6.37860000
-2.52340000 -2.57990000 4.19170000
-3.46390000 -0.74070000 5.85060000
-3.54340000 -0.90190000 5.89530000
-3.93340000 -1.06040000 5.64800000
-4.80400000 -1.71980000 -0.50630000
-3.97840000 -2.02210000 -0.78470000
-4.34370000 -1.85350000 -1.40860000
-3.76890000 -2.65130000 6.28580000
-3.50450000 -2.41850000 6.35070000
-3.15450000 -3.86700000 5.56730000
-3.44270000 -4.02610000 5.29390000
-4.93610000 -1.62410000 -1.15480000
-3.40920000 -3.95740000 5.69290000
-3.39050000 -4.00560000 4.96930000
-4.70760000 -1.60430000 1.90440000
-4.36060000 -1.62530000 2.51670000
-2.93670000 -2.75090000 4.23180000
-2.88210000 -2.62530000 6.28210000
-5.11110000 -1.47350000 1.42790000
-4.05380000 0.29750000 4.33870000
-2.55680000 -2.42530000 6.02180000
-1.34280000 -3.08420000 0.44160000
-5.78290000 -1.05020000 -0.03610000
0.14060000 -2.99600000 0.90930000
-3.48360000 0.19380000 4.77440000
-3.94960000 0.19440000 4.33660000
-2.78470000 -2.77020000 6.15750000
-3.37990000 0.08950000 4.78670000
-3.93510000 -0.30190000 4.22140000
-3.92170000 -1.83860000 2.23560000
-1.96370000 -1.88230000 5.74190000
-1.79920000 -1.66860000 5.83870000
-2.34790000 -2.24660000 -1.99630000
-3.24180000 -2.19200000 -0.97400000
-2.74250000 -2.27590000 -0.59310000
-5.45630000 -1.31450000 0.96580000
-4.45620000 -0.09260000 3.73970000
-2.10580000 -1.96490000 5.75510000
-5.63010000 -1.26370000 -0.07520000
-5.53900000 -1.34490000 0.37260000
-2.24530000 -2.19840000 5.73260000
-4.78290000 -0.15970000 3.32980000
-2.05320000 -2.10780000 5.55930000
-1.82220000 -1.93360000 5.57870000
-4.98390000 -1.61970000 1.00160000
-3.96620000 -0.83230000 4.00110000
-4.53130000 -0.71060000 3.46630000
-5.68800000 -1.14460000 -0.51310000
-3.46610000 -0.41150000 4.58810000
-5.32180000 -1.48080000 0.60490000
-5.50240000 -1.38410000 -0.01630000
-5.35430000 -1.42680000 -0.55690000
-5.25290000 -1.53370000 0.24700000
-2.44050000 -2.56180000 5.71960000
-3.66360000 -2.00780000 1.50760000
-3.50830000 -2.01700000 -2.13180000
-2.94720000 -2.01720000 2.31700000
-2.66620000 -2.84760000 5.94270000
-3.25010000 0.20840000 5.05560000
-4.46360000 -1.81720000 1.10810000
-3.96030000 -2.81550000 -1.42620000
-2.83630000 0.14440000 5.19750000
-3.09970000 -0.36460000 4.86320000
-6.99570000 -1.32540000 -0.73500000
-5.58610000 -0.85180000 3.49550000
-6.67740000 -1.63410000 -0.67830000
-4.61770000 -3.13850000 5.83120000
-4.46670000 -3.04920000 5.95750000
-4.55140000 -3.02390000 5.63280000
-6.04300000 -2.08450000 -0.29850000
-4.62050000 -3.17190000 6.00260000
-4.66260000 -3.27380000 5.95550000
-4.51980000 -3.25670000 6.07360000
-4.58460000 -3.38330000 6.03620000
-4.64730000 -3.28930000 5.74270000
-3.81010000 -2.06540000 0.15650000
-4.10540000 -2.79300000 6.01200000
-3.94760000 -2.55530000 6.07220000
-4.31190000 -2.75670000 5.74790000
-4.39700000 -2.88020000 5.63020000
-4.28380000 -2.93530000 5.87910000
-3.97010000 -2.94060000 6.18240000
-5.46530000 -1.06940000 3.60270000
-5.26510000 -2.00780000 2.54390000
-3.71140000 -2.96140000 6.35720000
-2.79920000 -2.24890000 0.00660000
-5.76360000 -2.21880000 0.27880000
-4.19590000 -3.44330000 6.21090000
-4.21240000 -3.26850000 6.25800000
-4.29960000 -3.20580000 6.12750000
-4.29380000 -3.06790000 6.10800000
-3.83710000 -3.04060000 6.36160000
-4.08180000 -3.18660000 6.31400000
-2.09990000 -2.15400000 1.96130000
-5.41290000 -1.14900000 3.77070000
-3.05360000 -2.14520000 1.11210000
-5.47490000 -1.27890000 3.57400000
-3.98270000 -3.30670000 6.40660000
-2.67670000 -3.03490000 -1.26260000
-2.03480000 -3.09200000 -0.57810000
-4.60090000 -3.42340000 5.72810000
-4.52840000 -3.60590000 5.96900000
-5.52220000 -1.23820000 -0.89150000
-4.42310000 -3.63630000 6.05980000
-4.04450000 -1.83630000 -2.44040000
-4.10660000 -1.72020000 -2.85760000
-4.21300000 -3.52400000 6.14430000
-1.81660000 -2.31470000 0.43300000
-1.58590000 -2.37870000 -0.68500000
-4.19560000 -3.48160000 6.29500000
-5.15480000 -2.30710000 1.59530000
-3.81360000 -3.39580000 6.43710000
-4.06510000 -3.55580000 6.39110000
-4.17730000 -3.52610000 6.38480000
-4.12670000 -3.66770000 6.32120000
-3.95050000 -3.72140000 6.38280000
-2.91720000 -0.90040000 4.76850000
-4.09930000 -3.84010000 6.19390000
-3.36040000 -0.91140000 4.50220000
-3.99510000 -3.88290000 6.28460000
-3.30250000 -1.15160000 4.38880000
-4.52510000 -2.97590000 5.37340000
-4.43190000 -2.79600000 5.54280000
-4.33670000 -2.70100000 5.56510000
-4.47560000 -2.82270000 5.31250000
-2.14460000 -0.19930000 6.05080000
-2.16860000 0.06150000 5.89960000
-4.61660000 -3.16270000 5.63080000
-4.65330000 -2.50570000 1.76300000
-0.76530000 -2.11800000 2.35010000
-1.96900000 -1.89610000 3.60690000
-2.88410000 -0.26680000 5.87010000
-4.32610000 -1.05560000 3.53110000
-4.65540000 -1.03890000 3.12610000
-1.58030000 -1.81120000 4.00980000
-2.17060000 0.13020000 5.57560000
-2.85230000 -2.11600000 -2.51890000
-2.21360000 0.10250000 5.46540000
-2.62800000 0.07140000 5.22860000
-0.68630000 0.03580000 6.22560000
-4.97070000 -0.83500000 2.81490000
-1.72100000 -2.34790000 -1.43120000
-4.69790000 -3.18450000 5.51680000
-4.64400000 -3.09240000 5.36540000
-4.71950000 -3.24330000 5.39390000
-4.66300000 -3.25450000 5.57260000
-4.61840000 -3.41100000 5.55480000
-4.62650000 -3.54780000 5.46050000
-1.27190000 -0.05600000 6.25770000
-2.22350000 -0.47020000 6.13940000
-1.26800000 -0.29320000 6.36690000
-2.05040000 -0.06970000 5.45170000
-4.56540000 -3.02860000 5.20290000
-4.64870000 -3.17850000 5.27010000
-2.62030000 -0.19960000 5.15990000
-4.59050000 -3.15590000 5.19780000
-4.58030000 -3.10350000 5.10570000
-4.53220000 -3.03330000 5.03110000
-3.64590000 -2.72200000 -2.52640000
-4.27360000 -2.41100000 -3.07520000
-4.57450000 -3.41140000 5.19110000
-0.63580000 0.00880000 6.06250000
-4.56160000 -3.32700000 5.14080000
-4.60960000 -3.52600000 5.34940000
-1.27040000 -0.03920000 5.77770000
-4.59320000 -3.23340000 5.09470000
-1.83210000 -0.50220000 5.38720000
-3.37470000 -2.97230000 -1.13860000
-4.93010000 -1.67670000 0.57150000
-3.09740000 -0.71110000 6.06290000
-3.01250000 -0.37860000 5.92940000
-4.52070000 -3.48710000 5.65820000
-4.43390000 -3.80840000 5.61240000
-2.65350000 -0.57440000 6.14320000
-4.49870000 -3.84020000 5.53040000
-4.36240000 -1.89560000 0.03790000
-4.40300000 -3.80730000 5.91950000
-4.38820000 -3.77270000 5.77030000
-4.30140000 -3.86300000 6.07760000
-2.67910000 -0.80920000 6.26580000
-3.02170000 -2.94960000 -1.84100000
-4.55660000 -1.30070000 2.98260000
-4.26770000 -4.00440000 5.93830000
-4.32910000 -3.99100000 5.67980000
-2.39950000 -0.65790000 6.21210000
-4.31490000 -4.06470000 5.72590000
-3.79090000 -1.14030000 4.00560000
-4.18490000 -4.08180000 5.78730000
-4.16350000 -3.89720000 6.11650000
-4.06330000 -4.00170000 6.09140000
-3.03100000 -2.72170000 3.01310000
-3.88860000 -4.00110000 6.20080000
-1.94410000 -0.47200000 6.20350000
-4.12780000 -1.21260000 3.59290000
-3.89030000 -4.05540000 6.02670000
-2.05270000 -0.79680000 6.17560000
-1.89640000 -0.92160000 6.17010000
-3.86850000 -1.40980000 3.65460000
-3.37480000 -1.39320000 4.12340000
-4.43820000 -4.04730000 5.50950000
-4.30320000 -4.06400000 5.55610000
-2.33100000 -0.98190000 6.28180000
-4.48670000 -4.02480000 5.42030000
-4.42320000 -4.07860000 5.40190000
-2.38440000 -2.73780000 3.08500000
-3.79050000 -4.08590000 5.66980000
-3.69250000 -3.99960000 5.95430000
-3.53000000 -3.92560000 5.85430000
-4.25470000 -1.50930000 3.02170000
-3.05830000 -1.25970000 4.46060000
-5.29110000 -1.58800000 3.60770000
-3.64460000 -2.80460000 6.40280000
-3.59950000 -3.01660000 6.43410000
-3.34700000 -3.01850000 6.38600000
-3.90150000 -2.80870000 1.12430000
-1.32650000 -3.08620000 -1.68650000
-5.28860000 -1.44110000 3.81440000
-3.00610000 -1.54210000 4.21170000
-3.14700000 -3.24770000 6.26440000
-3.01390000 -3.25300000 6.15460000
-5.16510000 -1.71330000 3.72760000
-5.09880000 -1.68140000 4.03190000
-2.32610000 -0.70380000 5.13250000
-5.09420000 -1.81570000 3.91360000
-3.46750000 -3.42460000 6.34400000
-4.92730000 -1.96930000 4.10320000
-4.84590000 -2.07880000 4.26810000
-4.81340000 -2.09570000 4.06220000
-0.61920000 -2.39900000 -0.29250000
-3.40680000 -3.56550000 6.26780000
-1.17580000 -2.31640000 0.84960000
-0.15350000 -2.30820000 0.76430000
-5.04870000 -1.90380000 3.79530000
-5.31570000 -1.79090000 3.14460000
-5.00810000 -1.96830000 3.54030000
-3.63600000 -3.78600000 6.26160000
-3.81390000 -3.84130000 6.31680000
-3.20310000 -3.61210000 6.08310000
-2.81850000 -3.25730000 5.87200000
-2.81230000 -1.15360000 4.69070000
-2.61180000 -1.34690000 4.63620000
-2.30300000 -1.55410000 4.50330000
-5.27970000 -2.46300000 0.32850000
-2.37100000 -1.15020000 4.88700000
-1.18050000 -2.69500000 3.51450000
-1.58990000 -2.71050000 3.66010000
-1.57180000 -2.75400000 3.14440000
-3.48630000 -3.79410000 6.10770000
-0.97100000 -3.10980000 -0.42830000
-1.43580000 -0.97850000 5.31200000
-1.79440000 -1.34180000 4.90110000
-1.77040000 -1.57100000 4.62470000
-2.16560000 -2.82120000 2.66250000
-1.22160000 -1.43570000 4.97120000
-1.59590000 -1.66730000 4.46470000
-3.25670000 -3.84910000 5.86880000
-4.28610000 -1.17210000 5.30910000
-3.72360000 -3.96200000 6.15900000
-4.47070000 -1.43210000 5.07390000
-4.05860000 -1.23430000 5.51880000
-4.32940000 -1.41230000 5.31360000
-4.03130000 -1.36660000 5.66330000
-3.78470000 -1.10700000 5.75560000
-0.25420000 -3.08540000 -0.52850000
-4.73740000 -2.64840000 0.62940000
-0.78880000 -2.40810000 -1.03240000
-4.00390000 -2.01160000 5.87440000
-4.26190000 -2.79850000 0.13590000
-4.56740000 -2.29500000 4.36820000
-0.18880000 -2.38920000 -0.92000000
0.43710000 -2.34060000 -0.30250000
-4.27770000 -2.51900000 4.54140000
-4.31810000 -2.56640000 4.65260000
-4.29270000 -2.66410000 4.64890000
-4.33700000 -2.72420000 4.67820000
-7.24840000 -0.92770000 -0.59920000
-4.36130000 -2.81920000 4.61470000
-7.04910000 -0.97690000 -0.26260000
-6.88900000 -1.33610000 -0.34650000
-7.25360000 -1.14620000 -1.38370000
3.00200000 -4.59910000 7.40380000
2.73270000 -4.52740000 7.58410000
2.88660000 -4.51420000 7.35440000
2.76740000 -4.48790000 7.71320000
2.85640000 -4.56630000 7.75100000
2.99040000 -4.63530000 7.69170000
1.26630000 -0.41630000 6.96380000
1.57960000 -0.79100000 7.05110000
1.89840000 -0.60770000 7.05160000
-0.71270000 -0.03190000 6.37700000
3.00910000 -4.56770000 7.80570000
3.13770000 -4.64800000 7.88600000
-0.60580000 -2.47890000 4.64440000
-0.93590000 -2.40320000 4.83100000
3.15710000 -4.68770000 7.57620000
3.25480000 -4.62770000 7.30560000
-0.57160000 -2.59960000 4.03060000
3.14490000 -4.18540000 8.09770000
3.15980000 -4.47720000 8.13070000
3.12570000 -4.25940000 8.20780000
2.35470000 -1.00270000 7.16410000
2.74350000 -0.79390000 7.17640000
3.17750000 -4.46600000 8.04970000
3.13370000 -4.42840000 7.95680000
3.19410000 -4.59820000 8.16450000
3.11530000 -4.56050000 7.97730000
3.34370000 -4.55230000 8.33940000
3.43700000 -4.72710000 8.22400000
3.33160000 -4.71990000 8.09290000
2.00770000 -1.11810000 5.70110000
2.94560000 -1.08250000 5.63340000
2.49510000 -1.27070000 5.17880000
-1.30860000 -0.50670000 6.39650000
3.38050000 -4.72350000 7.80410000
3.49680000 -4.64140000 8.33140000
1.13800000 -2.84690000 1.99680000
1.78300000 -2.83070000 1.59110000
3.52110000 -4.45400000 8.37390000
3.62330000 -4.63120000 8.28380000
3.62580000 -4.74470000 8.18910000
3.63750000 -4.42540000 8.39180000
3.71710000 -4.56650000 8.38240000
3.69370000 -4.70970000 8.23200000
0.12900000 -2.29170000 5.10870000
0.45890000 -2.49820000 4.30990000
1.01670000 -2.27030000 5.08320000
3.76760000 -4.67370000 8.39270000
3.85930000 -4.74370000 8.31660000
3.55270000 -4.77060000 8.05810000
3.85840000 -4.77500000 8.12500000
1.50760000 -0.15860000 6.64940000
1.26870000 -0.15910000 6.44830000
1.74200000 -1.91910000 6.21650000
1.37630000 -1.91300000 6.02920000
1.80130000 -2.03490000 5.74110000
1.16910000 -2.07620000 5.60120000
1.59730000 -2.90690000 0.74700000
3.55860000 -4.67460000 7.52110000
-0.72220000 -0.29480000 5.87300000
1.77280000 -0.20790000 6.79300000
3.84160000 -4.75820000 7.82150000
2.27440000 -2.02470000 5.93270000
-0.19730000 -0.11410000 6.10200000
1.62930000 -0.26570000 6.41560000
1.89550000 -0.39740000 6.97070000
2.99870000 -0.55060000 7.09190000
2.65830000 -2.05130000 5.42850000
3.92720000 -1.76800000 7.57870000
4.65390000 -2.43640000 7.82950000
4.74040000 -1.55090000 7.49670000
-0.67450000 -0.71650000 5.70850000
2.34060000 -0.34050000 6.91710000
2.00180000 -2.25270000 4.81090000
4.41010000 -0.82740000 7.17090000
4.99530000 -0.89500000 7.05730000
3.33140000 -2.47280000 2.77730000
1.93340000 -2.66960000 2.69410000
0.63380000 -0.06780000 6.42270000
4.60500000 -0.99850000 7.23330000
4.92390000 -1.07830000 7.23040000
-0.40970000 -0.00670000 6.40290000
2.34170000 -2.06810000 6.33780000
2.71910000 -2.08290000 5.75880000
5.21630000 -1.16740000 7.14810000
4.89440000 -1.23310000 7.30560000
4.40040000 -1.12410000 7.35480000
2.79850000 -2.22690000 6.19930000
-0.31590000 -0.33330000 6.65570000
4.39220000 -1.28700000 7.39610000
2.58100000 -1.13400000 7.20430000
3.15810000 -0.92260000 7.23360000
2.97890000 -1.13110000 7.29050000
1.26440000 -0.89450000 7.00020000
3.06200000 -2.17300000 5.77900000
0.51270000 -2.03360000 5.68520000
3.11700000 -2.40470000 6.16850000
1.72280000 -1.12720000 7.04380000
0.90810000 -1.03260000 6.86920000
1.60410000 -1.35860000 6.90430000
3.07930000 -2.09310000 5.58090000
5.19060000 -1.40250000 7.30060000
0.03290000 -0.35250000 6.08560000
5.39660000 -1.27300000 7.06620000
2.08420000 -1.38620000 7.02990000
5.39430000 -1.02140000 6.96710000
1.83980000 -1.57220000 6.85860000
-1.60730000 -0.75110000 6.28280000
1.98320000 -1.71320000 6.95630000
2.11580000 -1.54930000 7.07640000
5.41870000 -1.41740000 6.88680000
5.26050000 -2.00160000 7.17010000
2.20440000 -1.12130000 7.15000000
2.31570000 -1.22650000 7.14170000
5.55750000 -1.03200000 6.85500000
5.73570000 -1.07970000 6.73160000
5.55860000 -1.21170000 6.73050000
2.49820000 -1.25670000 7.22500000
2.27100000 -1.37150000 7.16110000
2.34140000 -1.51010000 7.17090000
-0.85150000 -0.69630000 6.53310000
2.64780000 -1.37860000 7.25450000
-1.45160000 -1.07530000 6.22730000
-1.12260000 -0.94550000 6.35780000
2.19030000 -1.68320000 7.07330000
4.62100000 -1.96140000 4.32560000
3.16010000 -2.35680000 3.59690000
4.45930000 -2.21700000 3.19640000
2.23350000 -1.79590000 6.98700000
2.45500000 -1.61470000 7.15100000
2.44880000 -1.72190000 7.11230000
-1.76600000 -1.18870000 6.11460000
2.70740000 -1.49750000 7.25180000
2.60970000 -1.64680000 7.25430000
2.90740000 -1.45640000 7.33910000
2.75570000 -1.73130000 7.29300000
2.49800000 -1.78320000 7.17650000
2.37310000 -1.85220000 7.06840000
5.17640000 -1.76010000 4.84330000
4.13840000 -1.97210000 4.93240000
2.74030000 -1.90670000 7.23130000
-1.36480000 -1.21500000 6.19440000
4.77600000 -1.84330000 5.17270000
0.72810000 -2.28610000 0.50630000
-1.17550000 -1.29480000 6.14850000
1.42730000 -2.20010000 0.85390000
1.07580000 -2.26280000 0.09650000
1.38410000 -0.52020000 6.23690000
1.60790000 -1.69790000 3.87770000
1.49930000 -0.77460000 6.07520000
2.59790000 -0.63140000 6.26380000
-0.49450000 -0.93600000 6.55530000
0.01990000 -0.75170000 6.75620000
-0.03290000 -1.77270000 4.11240000
3.20880000 -2.18530000 4.52180000
-0.70400000 -1.17580000 6.34560000
-0.61520000 -1.63240000 6.00990000
3.27350000 -2.05910000 5.29550000
5.07170000 -1.76330000 7.52550000
5.16940000 -1.88910000 7.49120000
0.33700000 -1.25350000 6.58560000
4.96170000 -2.39910000 7.76480000
5.12640000 -2.55450000 7.51560000
0.49430000 -2.02940000 2.69100000
1.94530000 -0.91470000 5.97670000
2.57110000 -0.90540000 6.00580000
4.17860000 -3.01070000 8.00870000
0.21120000 -0.70020000 5.95640000
0.98370000 -1.45080000 6.57120000
1.42240000 -1.63280000 6.59620000
0.77970000 -3.01020000 -0.41440000
1.35590000 -1.73900000 6.39750000
1.69210000 -1.74380000 6.59440000
3.99430000 -2.86000000 7.91470000
3.73590000 -2.95410000 7.86200000
1.84780000 -1.76640000 6.77180000
2.00700000 -1.86760000 6.82040000
-0.82720000 -1.01160000 5.50210000
3.90990000 -3.41450000 8.07850000
4.20040000 -3.58010000 8.20670000
3.84920000 -3.52950000 8.09080000
1.86130000 -1.85700000 6.59040000
3.17080000 -4.12390000 7.05500000
2.99100000 -3.83730000 7.10880000
3.27750000 -3.74450000 6.98030000
4.53860000 -3.44320000 8.16890000
0.76290000 -2.29490000 -0.36230000
4.43330000 -3.70710000 8.25110000
4.27420000 -3.76550000 8.34280000
1.54790000 -1.85220000 6.32640000
-0.33430000 -1.26800000 5.37840000
3.45480000 -2.04940000 4.99190000
1.95060000 -1.93330000 6.41220000
2.18000000 -2.02380000 6.54390000
-0.35870000 -1.00860000 5.60700000
4.98310000 -2.70590000 7.81960000
2.25090000 -1.90750000 6.88930000
4.80270000 -3.08440000 8.03380000
4.85900000 -3.21970000 7.99030000
2.85500000 -4.28630000 7.20980000
3.01880000 -4.44730000 7.14960000
3.21890000 -4.33080000 7.03250000
4.97800000 -3.11370000 7.76900000
3.16520000 -4.49020000 7.08310000
3.15180000 -4.56880000 7.17580000
3.52650000 -4.12040000 6.94360000
3.52800000 -4.34080000 7.00850000
3.40950000 -4.52280000 7.09010000
3.66090000 -3.79860000 6.86960000
5.27950000 -2.16270000 6.99380000
5.09250000 -2.99240000 7.45580000
5.03170000 -3.11830000 7.32250000
3.71850000 -0.74750000 7.16000000
3.90960000 -3.88820000 6.87670000
4.18120000 -4.16450000 7.12820000
0.41640000 -0.05510000 6.59480000
0.08150000 -0.11880000 6.63780000
3.37260000 -0.95340000 7.29030000
3.34410000 -1.10570000 7.30930000
0.75060000 -0.22570000 6.81190000
3.91100000 -0.86290000 7.24770000
0.90720000 -0.14070000 6.75330000
4.04650000 -0.98280000 7.26120000
3.54090000 -1.17610000 7.36690000
3.87740000 -4.56540000 7.25210000
3.77530000 -4.63660000 7.32570000
4.65630000 -3.63400000 8.16400000
4.56840000 -4.03430000 8.12220000
0.46920000 -0.37550000 6.81950000
0.51150000 -0.66600000 6.86880000
4.94350000 -3.48370000 7.63850000
4.88280000 -3.61840000 7.53120000
4.12000000 -4.66170000 7.51630000
4.03820000 -1.07120000 7.33860000
4.76010000 -3.86720000 7.84590000
4.79180000 -3.83160000 7.71400000
4.71410000 -3.88170000 7.49950000
3.93210000 -1.27410000 7.42060000
0.44470000 -0.30380000 6.18990000
3.11500000 -1.28530000 7.33980000
3.38970000 -1.39230000 7.42270000
0.68720000 -0.16040000 6.31070000
3.16330000 -1.59530000 7.39070000
3.72350000 -3.69740000 8.28690000
3.96620000 -3.92370000 8.49730000
3.56200000 -1.53370000 7.43690000
0.93960000 -2.12960000 1.95890000
4.18030000 -4.06300000 8.56870000
4.35130000 -3.88620000 8.39230000
-0.00130000 -3.04920000 -1.82300000
3.35790000 -2.48260000 6.05520000
3.15410000 -1.76310000 7.37270000
2.93400000 -1.92970000 7.30840000
3.43130000 -2.17560000 5.66260000
3.58040000 -2.48120000 5.95420000
3.73450000 -3.97600000 8.51230000
3.81370000 -4.15370000 8.64010000
3.99630000 -4.19540000 8.65330000
3.71440000 -4.21540000 8.57710000
3.78830000 -4.33410000 8.60410000
3.91630000 -4.34690000 8.64040000
4.06920000 -4.34290000 8.63370000
4.29060000 -4.07040000 8.48850000
4.20320000 -4.34030000 8.48950000
3.64890000 -1.61870000 7.51430000
3.26400000 -1.88440000 7.47290000
5.43320000 -1.55470000 6.65670000
5.52360000 -1.39720000 6.56260000
4.52620000 -3.88170000 8.25320000
3.63670000 -2.20130000 7.65700000
5.35280000 -1.60590000 6.45970000
5.37370000 -1.52600000 6.35770000
5.54300000 -1.47600000 6.21580000
5.29030000 -1.96720000 6.70590000
4.49300000 -3.05930000 6.56780000
4.29830000 -2.44040000 6.02720000
4.54990000 -2.17870000 6.00660000
3.83290000 -4.55600000 8.53820000
3.94480000 -4.49730000 8.59440000
3.85880000 -1.47640000 7.46610000
4.76340000 -2.88930000 6.69530000
4.01960000 -4.58980000 8.50820000
4.83290000 -1.80750000 5.72310000
4.95750000 -1.75450000 5.97140000
4.10950000 -1.50430000 7.51290000
3.88870000 -4.70100000 8.44400000
5.05970000 -1.80840000 6.18490000
5.07620000 -2.16400000 6.52960000
1.54930000 -0.22910000 6.88060000
0.99870000 -2.62470000 3.34710000
5.80390000 -1.23230000 6.57930000
5.65840000 -1.33360000 6.52660000
4.55080000 -1.91360000 5.59410000
4.30540000 -1.93930000 5.35230000
4.59490000 -4.28150000 7.80540000
4.36120000 -4.56070000 7.62370000
4.39890000 -4.59510000 7.90860000
4.27300000 -4.65620000 7.65830000
4.46310000 -4.42130000 8.05070000
4.49520000 -4.20570000 7.47430000
2.11780000 -1.93230000 6.76170000
4.25080000 -4.61250000 8.23750000
3.48750000 -2.09560000 5.50920000
3.97270000 -4.78430000 8.33460000
2.33370000 -1.96740000 6.96190000
3.71130000 -2.02530000 5.27630000
4.06590000 -4.70710000 8.35900000
2.47400000 -1.96540000 7.08090000
2.53860000 -2.07420000 6.99800000
4.15890000 -4.72240000 8.14340000
4.06130000 -4.77010000 8.09270000
2.28540000 -2.02550000 6.79350000
2.41510000 -2.11990000 6.84490000
5.12880000 -2.58240000 6.95380000
3.78650000 -2.12770000 5.58050000
2.41020000 -2.13060000 6.72590000
1.57850000 -1.99880000 2.38900000
4.10460000 -2.03020000 5.49050000
2.70570000 -2.03830000 7.13150000
3.95960000 -2.22380000 5.72900000
5.11650000 -2.23270000 6.59790000
4.21210000 -2.09520000 5.67880000
2.78440000 -2.10970000 7.20620000
2.76430000 -2.24790000 7.11150000
2.52510000 -2.14710000 6.81320000
4.20260000 -4.71640000 7.83160000
3.72070000 -2.37430000 5.83170000
2.74630000 -2.30660000 6.88020000
4.10390000 -2.57790000 6.04840000
2.72050000 -2.29150000 6.54570000
4.78270000 -2.16340000 6.17910000
2.94260000 -2.46670000 6.76070000
-0.71000000 -1.50610000 4.96720000
2.98040000 -2.06150000 7.39420000
3.22700000 -2.32900000 7.53660000
2.87510000 -2.20220000 7.30300000
3.04730000 -2.32740000 7.39760000
3.20340000 -2.53530000 7.45250000
4.53600000 -1.97560000 5.74600000
3.47260000 -2.79160000 7.68880000
-0.63260000 -1.69410000 4.49950000
0.13830000 -1.32880000 5.39370000
0.51690000 -1.41100000 5.24590000
0.31050000 -1.55930000 6.32460000
0.69880000 -1.51050000 4.98370000
3.56350000 -3.03710000 7.73810000
3.61510000 -3.26880000 7.89760000
0.37070000 -1.01870000 5.75430000
3.06570000 -2.52610000 6.58780000
3.39540000 -2.75090000 6.46640000
3.60150000 -3.51000000 7.97880000
3.16650000 -2.68730000 6.64780000
3.13170000 -2.75790000 6.80480000
3.20160000 -2.93280000 6.77970000
3.30580000 -3.01920000 6.75190000
3.00490000 -2.47700000 7.17060000
3.46680000 -3.02550000 6.68490000
4.98220000 -2.90300000 6.96480000
3.65510000 -3.05650000 6.54540000
3.64380000 -2.85490000 6.36320000
3.03390000 -2.55930000 6.97610000
3.11570000 -2.66420000 7.15730000
3.68270000 -3.28300000 6.70650000
3.20760000 -2.68480000 7.36100000
3.35390000 -2.89010000 7.52970000
3.22100000 -2.90230000 7.22420000
3.84400000 -2.79290000 6.25540000
0.95380000 -1.10950000 5.72950000
3.11250000 -2.64040000 6.82080000
3.14260000 -2.76590000 6.96050000
4.01220000 -2.69360000 6.12020000
3.19270000 -3.01670000 7.10960000
3.20340000 -3.01760000 6.93600000
3.26620000 -3.10780000 7.29150000
3.32430000 -3.14250000 7.45010000
4.13580000 -2.90810000 6.28020000
3.32440000 -3.26560000 7.56450000
3.15480000 -3.37890000 7.25360000
3.18720000 -3.47870000 7.54030000
3.36520000 -3.37810000 7.73190000
4.28600000 -3.00740000 6.41150000
2.99660000 -3.63120000 7.34680000
3.32240000 -3.52460000 7.72610000
4.75360000 -3.56280000 7.18160000
3.91560000 -3.00260000 6.40060000
4.11290000 -3.00430000 6.38810000
4.10690000 -3.23200000 6.54130000
3.24310000 -3.22550000 7.09900000
4.37930000 -4.13540000 7.24060000
3.87690000 -3.29670000 6.57570000
3.11120000 -3.45630000 7.08480000
3.25470000 -3.24890000 6.94310000
3.20520000 -3.41890000 6.96380000
4.30680000 -3.34640000 6.68570000
2.89890000 -3.72430000 7.22120000
3.51670000 -3.25770000 6.77960000
3.33070000 -3.26770000 6.80860000
3.40100000 -3.31260000 6.77210000
3.50580000 -3.11690000 7.76130000
3.33300000 -3.44470000 6.87510000
3.49920000 -3.48970000 6.84600000
3.51240000 -3.22780000 7.78230000
-0.38240000 -1.87150000 5.83470000
-0.20280000 -2.72920000 3.03280000
1.08000000 -1.71990000 6.27810000
3.07470000 -3.78870000 7.93000000
3.15920000 -4.00740000 7.98180000
3.14210000 -3.73680000 7.96610000
3.93540000 -3.53560000 6.72130000
3.44790000 -3.63630000 8.08510000
3.27720000 -3.62270000 7.84540000
3.19980000 -3.77820000 8.15750000
3.37720000 -3.77110000 8.27410000
1.61120000 -1.33590000 5.29670000
3.14110000 -3.85230000 8.13810000
3.16390000 -3.91480000 8.07110000
3.51330000 -3.85310000 8.39450000
1.04080000 -2.95840000 -1.66210000
1.95140000 -2.88230000 -0.07750000
-1.59190000 -1.66680000 5.83380000
3.14710000 -3.94300000 8.35030000
3.23330000 -4.02300000 8.43060000
1.36130000 -1.55930000 4.68890000
3.08350000 -3.94950000 8.28570000
3.07070000 -4.04420000 8.22870000
3.39040000 -3.94560000 8.40390000
2.14280000 -2.81280000 -1.40070000
3.13990000 -4.08120000 8.40430000
3.08210000 -4.11740000 8.30920000
3.18840000 -4.33030000 8.31800000
3.33420000 -4.35990000 8.40430000
3.39530000 -4.18110000 8.42620000
