0.42030000 1.24380000 -7.12220000
0.40290000 1.24880000 -6.81010000
0.48120000 1.23280000 -6.85590000
0.57510000 1.23400000 -7.05610000
0.58710000 1.22970000 -6.91260000
0.61440000 1.23790000 -6.83260000
0.26200000 1.28840000 -6.44900000
0.18940000 1.27610000 -6.76090000
0.13990000 1.27110000 -6.56900000
0.31280000 1.27230000 -6.77030000
0.00440000 1.27960000 -6.43770000
0.07160000 1.28950000 -6.39420000
0.55740000 1.25780000 -6.52460000
0.49100000 1.25100000 -6.51820000
0.40330000 1.27870000 -6.35750000
0.55870000 1.27780000 -6.21540000
0.53740000 1.25390000 -7.17990000
0.69260000 1.25590000 -7.16580000
0.72420000 1.23550000 -7.03270000
0.87750000 1.23850000 -7.11470000
0.85100000 1.25970000 -6.98160000
0.69770000 1.25800000 -6.81920000
0.99470000 1.27680000 -6.97670000
0.78370000 1.27980000 -6.76410000
1.04840000 1.27740000 -6.91860000
0.83270000 1.27360000 -6.61310000
1.12120000 1.25580000 -6.75460000
0.64840000 1.27480000 -6.59160000
0.71660000 1.28530000 -6.33140000
0.77830000 1.28120000 -6.36640000
1.00900000 1.25340000 -6.59610000
0.96640000 1.27260000 -6.48180000
1.28010000 1.24940000 -6.53570000
0.92240000 1.28760000 -6.36190000
1.09670000 1.28950000 -6.40830000
0.97000000 1.29300000 -6.15440000
1.16400000 1.29060000 -6.20170000
0.43630000 1.29480000 -6.07750000
0.20730000 1.29170000 -5.86420000
0.32200000 1.29040000 -5.78190000
0.58300000 1.30090000 -5.72270000
0.16280000 1.28360000 -5.66360000
0.35010000 1.30040000 -5.63820000
0.28910000 1.28100000 -5.47350000
0.34780000 1.29990000 -5.52150000
0.20110000 1.26840000 -5.41330000
0.11870000 1.27650000 -5.27500000
0.23500000 1.27540000 -5.26130000
0.36230000 1.27200000 -5.35820000
0.38970000 1.27930000 -5.29820000
0.64570000 1.30190000 -5.57580000
0.46290000 1.29400000 -5.45090000
0.55940000 1.27160000 -5.31520000
0.59350000 1.28700000 -5.45850000
0.72050000 1.28660000 -6.05080000
0.65970000 1.29730000 -5.96230000
1.05770000 1.30140000 -5.91350000
1.02170000 1.30110000 -5.75580000
0.83510000 1.27260000 -5.43240000
0.78760000 1.27230000 -5.18570000
0.82730000 1.29330000 -5.56080000
0.99740000 1.30390000 -5.61150000
1.10050000 1.28700000 -5.53150000
1.18220000 1.26420000 -5.43120000
1.44270000 1.27090000 -5.19380000
-0.45410000 0.63750000 -4.93560000
-0.50490000 0.80720000 -4.73300000
-0.47880000 0.83480000 -4.80170000
-0.46050000 1.00920000 -5.04600000
-0.45300000 1.12370000 -5.04230000
-0.43960000 1.16390000 -5.09950000
-0.39560000 1.20820000 -5.07450000
-0.47270000 1.02810000 -4.87900000
-0.46590000 1.08770000 -4.91610000
-0.49690000 1.05100000 -4.75970000
-0.47520000 1.12450000 -4.77450000
-0.43240000 1.17470000 -4.85410000
-0.38140000 1.20830000 -4.86070000
-0.59650000 0.75320000 -4.55230000
-0.54610000 1.05460000 -4.65830000
-0.58650000 0.96430000 -4.59510000
-0.61460000 1.01860000 -4.45230000
-0.60460000 1.07450000 -4.52610000
-0.58890000 1.11580000 -4.53590000
-0.62300000 1.15200000 -4.22520000
-0.60170000 1.16810000 -4.36390000
-0.62910000 1.11890000 -4.08940000
-0.50030000 1.15110000 -4.66250000
-0.56080000 1.16500000 -4.51600000
-0.52270000 1.19910000 -4.49160000
-0.43360000 1.19970000 -4.65740000
-0.38230000 1.22820000 -4.61140000
-0.57080000 1.22150000 -4.29750000
-0.50060000 1.23800000 -4.37630000
-0.31520000 1.26920000 -4.47670000
-0.17100000 1.26150000 -5.09670000
-0.33140000 1.23010000 -5.04680000
-0.18580000 1.24500000 -4.98520000
-0.29390000 1.23020000 -4.88140000
-0.05200000 1.26930000 -4.88670000
-0.25800000 1.24710000 -4.73330000
-0.00550000 1.29140000 -5.13710000
0.12360000 1.28670000 -5.10550000
0.09550000 1.29600000 -4.91360000
0.16000000 1.30320000 -4.97610000
0.23720000 1.30590000 -4.84980000
0.16330000 1.29950000 -4.46640000
-0.03160000 1.31460000 -4.30460000
0.08720000 1.29300000 -4.19450000
0.00650000 1.29070000 -4.72060000
0.02260000 1.31250000 -4.60230000
-0.31640000 1.29330000 -4.27720000
-0.11330000 1.31560000 -4.37300000
0.16840000 1.31930000 -4.63230000
-0.63450000 1.14050000 -3.70520000
-0.63050000 1.19790000 -3.81460000
-0.61140000 1.22210000 -4.04220000
-0.60080000 1.25840000 -3.84410000
-0.50510000 1.27680000 -4.13820000
-0.56230000 1.27390000 -3.99440000
-0.50110000 1.30730000 -3.76240000
-0.31400000 1.31410000 -3.90160000
-0.61380000 1.25700000 -3.66600000
-0.63520000 1.20120000 -3.54420000
-0.64220000 1.15740000 -2.94720000
-0.63680000 1.21560000 -3.19740000
-0.60420000 1.28540000 -3.38160000
-0.62420000 1.25220000 -3.39380000
-0.55770000 1.30780000 -3.58760000
-0.50960000 1.32950000 -3.29830000
-0.41030000 1.33340000 -3.27730000
-0.14090000 1.31640000 -4.01290000
-0.18530000 1.32910000 -3.62390000
-0.00950000 1.29650000 -3.64310000
0.21000000 1.28480000 -3.61690000
-0.14460000 1.32290000 -2.84360000
0.55640000 1.28330000 -5.20740000
0.50720000 1.30160000 -5.07280000
0.61410000 1.28280000 -5.02320000
0.39570000 1.31090000 -4.93040000
0.51500000 1.29720000 -4.92730000
0.56230000 1.30540000 -4.86060000
0.38750000 1.31910000 -4.81210000
0.66940000 1.31930000 -4.79950000
0.68270000 1.28040000 -4.94120000
0.25600000 1.29520000 -5.06130000
0.30960000 1.30410000 -5.15410000
0.31050000 1.29170000 -5.24390000
0.41590000 1.30350000 -5.20990000
0.40610000 1.30970000 -5.08970000
0.39090000 1.30240000 -4.63370000
0.42750000 1.28320000 -4.47980000
0.56460000 1.31780000 -4.74820000
0.90850000 1.28180000 -4.61910000
1.60000000 1.27250000 -4.40170000
0.83070000 1.31280000 -4.84720000
0.84800000 1.29250000 -4.90300000
1.29520000 1.27940000 -4.99840000
1.57670000 1.29070000 -4.95220000
1.38190000 1.31360000 -4.87800000
1.21220000 1.31770000 -4.82910000
1.10630000 1.30760000 -4.77210000
1.01820000 1.29300000 -4.70960000
1.00750000 1.27660000 -3.67860000
1.59250000 1.25110000 -6.80850000
1.50910000 1.24820000 -6.58500000
1.61790000 1.26780000 -6.69160000
1.20750000 1.27200000 -7.12740000
1.40030000 1.27520000 -7.13230000
1.45280000 1.26300000 -6.94000000
1.69450000 1.26570000 -7.05290000
1.71640000 1.27130000 -6.92780000
1.47650000 1.24560000 -6.80990000
1.35200000 1.24240000 -6.65210000
1.50330000 1.25230000 -6.37570000
1.64790000 1.26600000 -6.54740000
1.67640000 1.25320000 -6.42790000
1.38640000 1.26840000 -6.36750000
1.47330000 1.29190000 -6.13150000
1.26540000 1.29180000 -6.32080000
1.71590000 1.25490000 -6.20370000
1.63170000 1.26490000 -6.12540000
1.24130000 1.27570000 -6.45910000
1.84330000 1.27170000 -6.88930000
1.73210000 1.27240000 -6.80270000
1.69900000 1.28800000 -6.68450000
1.79650000 1.28780000 -6.70710000
2.04580000 1.25500000 -6.96300000
1.95880000 1.25350000 -6.91130000
2.16100000 1.27140000 -6.98290000
1.91170000 1.27530000 -6.72490000
2.16620000 1.24040000 -6.76620000
2.02050000 1.25250000 -6.66040000
1.73430000 1.28810000 -6.58960000
1.78030000 1.26550000 -6.48910000
1.87120000 1.27700000 -6.57430000
1.91410000 1.25740000 -6.47640000
1.90980000 1.26220000 -6.28110000
2.08790000 1.24770000 -6.58650000
2.11300000 1.25950000 -6.51380000
1.97770000 1.26670000 -6.39920000
2.12400000 1.28630000 -6.41150000
2.07020000 1.28940000 -6.29120000
2.12770000 1.28920000 -6.23760000
2.05210000 1.26620000 -5.61580000
2.02250000 1.27660000 -5.10690000
1.35910000 1.30110000 -6.11300000
1.24770000 1.29780000 -5.69580000
1.44060000 1.30150000 -5.89610000
1.57370000 1.28720000 -5.90180000
1.49780000 1.27900000 -5.70340000
1.28730000 1.27370000 -5.57320000
1.61110000 1.26080000 -5.60910000
1.69830000 1.26460000 -5.85690000
1.92920000 1.26150000 -6.10580000
2.12650000 1.26730000 -6.03510000
2.16520000 1.28550000 -6.13370000
2.17930000 1.26050000 -5.85250000
2.70240000 1.27320000 -6.50620000
2.88210000 1.27640000 -6.24240000
3.35640000 1.26650000 -6.90890000
2.31350000 1.27870000 -6.97380000
2.28380000 1.27570000 -7.08540000
2.42680000 1.25930000 -6.67560000
2.42550000 1.27340000 -6.83260000
2.25900000 1.24900000 -6.79990000
2.33510000 1.24640000 -6.58400000
2.62230000 1.24580000 -6.96740000
2.50910000 1.26100000 -6.93260000
2.57120000 1.26880000 -6.71500000
2.26340000 1.28760000 -6.40290000
2.26960000 1.26810000 -6.49150000
2.43100000 1.26360000 -6.41930000
2.34020000 1.27740000 -6.32970000
2.56360000 1.27140000 -6.47660000
2.44710000 1.27610000 -6.22180000
2.37120000 1.26880000 -5.99200000
2.44230000 1.27340000 -5.81180000
2.40430000 1.27730000 -6.07520000
2.40430000 1.27800000 -5.59280000
2.20660000 1.28660000 -5.15690000
2.46020000 1.27990000 -5.32000000
2.73850000 1.28740000 -5.48960000
3.27070000 1.28210000 -5.97890000
3.13290000 1.27340000 -6.26160000
3.02760000 1.28040000 -5.34970000
1.91320000 1.27890000 -5.01150000
1.73570000 1.31360000 -4.83050000
1.66540000 1.28770000 -4.73500000
2.21550000 1.29860000 -4.80030000
2.15550000 1.29910000 -4.98410000
1.88350000 1.31060000 -4.90590000
2.21290000 1.31760000 -4.89370000
2.77540000 1.28080000 -4.74640000
2.31680000 1.27250000 -4.57160000
1.58720000 1.27670000 -4.64920000
2.59370000 1.27210000 -3.95960000
2.13170000 1.28500000 -2.78540000
2.28410000 1.28510000 -5.03720000
2.39180000 1.29170000 -4.98240000
2.55240000 1.31510000 -4.87550000
2.65480000 1.28760000 -5.04890000
2.63690000 1.30750000 -4.95990000
3.12740000 1.27190000 -4.63990000
3.03350000 1.28520000 -5.05450000
3.22440000 1.29320000 -5.06240000
3.11270000 1.30740000 -4.96620000
2.85940000 1.31610000 -4.91850000
3.34650000 1.30730000 -4.89200000
3.11140000 1.30010000 -4.84570000
4.79330000 1.25500000 -4.33980000
3.52820000 1.27140000 -3.41720000
-0.57860000 1.07690000 -6.76310000
-0.57370000 1.14560000 -6.91250000
-0.55950000 1.13840000 -7.20920000
-0.53920000 1.17870000 -7.24950000
-0.54990000 1.19140000 -7.09440000
-0.50520000 1.21830000 -7.25780000
-0.49420000 1.23800000 -7.15240000
-0.54120000 1.22400000 -6.87200000
-0.48670000 1.25550000 -6.84010000
-0.57400000 1.17810000 -6.58390000
-0.58220000 1.13430000 -6.48010000
-0.55840000 1.20710000 -6.73030000
-0.53270000 1.24040000 -6.55330000
-0.47020000 1.26330000 -6.39550000
-0.56500000 1.20340000 -6.45040000
-0.56740000 1.17750000 -6.37600000
-0.52740000 1.20210000 -6.29760000
-0.52360000 1.23820000 -6.36620000
-0.25990000 1.25460000 -7.07610000
-0.41060000 1.26140000 -6.85560000
-0.26590000 1.25860000 -6.81830000
-0.05690000 1.24990000 -7.03300000
-0.11240000 1.26010000 -7.15140000
-0.13120000 1.24440000 -6.86690000
-0.16580000 1.25170000 -6.63820000
0.04260000 1.25820000 -6.78670000
-0.23780000 1.26500000 -6.57190000
-0.34230000 1.26580000 -6.47580000
-0.41020000 1.27080000 -6.38150000
-0.18820000 1.27430000 -6.46340000
-0.04260000 1.24800000 -6.64720000
-0.08460000 1.25340000 -6.53250000
0.01090000 1.25470000 -6.52390000
-0.48440000 1.18400000 -6.20630000
-0.47240000 1.24130000 -6.26510000
-0.44440000 1.22520000 -6.17130000
-0.39600000 1.26300000 -6.17550000
0.13740000 1.26630000 -7.10290000
4.24500000 -0.65380000 -9.28250000
4.18780000 -0.58410000 -9.30600000
4.27960000 -0.58450000 -9.32020000
4.24110000 -0.48630000 -9.32380000
4.13700000 -0.67280000 -9.20230000
4.07760000 -0.62790000 -9.18570000
4.12880000 -0.62700000 -9.25540000
4.05770000 -0.55380000 -9.17820000
4.11490000 -0.56790000 -9.26190000
4.07420000 -0.69500000 -9.00700000
4.00950000 -0.67380000 -9.01940000
4.09530000 -0.67970000 -9.11810000
4.19880000 -0.69560000 -9.16690000
4.01660000 -0.62480000 -9.08740000
4.00230000 -0.51120000 -9.09600000
4.27520000 -0.68760000 -9.22300000
4.73400000 -0.69890000 -9.13490000
4.23590000 -0.69810000 -8.96890000
4.06930000 -0.35910000 -9.21560000
3.99580000 -0.20280000 -9.09960000
4.13740000 -0.46960000 -9.28970000
4.18550000 -0.33650000 -9.31680000
4.11450000 -0.30390000 -9.27640000
4.05340000 -0.12850000 -9.18170000
4.10710000 -0.11150000 -9.26360000
3.91790000 -0.67610000 -8.93160000
3.86330000 -0.64440000 -8.93830000
3.88360000 -0.53570000 -8.97990000
3.95890000 -0.63830000 -9.00600000
3.94110000 -0.58150000 -9.01730000
3.81790000 -0.51610000 -8.95200000
3.73980000 -0.38900000 -8.94290000
3.82490000 -0.34750000 -8.97070000
3.95690000 -0.47510000 -9.04740000
3.88440000 -0.29110000 -9.00390000
3.76370000 -0.20050000 -8.95240000
3.87000000 -0.10370000 -8.97880000
3.82080000 -0.02940000 -8.95440000
3.71370000 -0.04020000 -8.93240000
3.95300000 -0.28360000 -9.05900000
3.91870000 -0.13910000 -9.01480000
3.92900000 0.02920000 -9.00420000
4.04360000 0.04540000 -9.14250000
3.98110000 0.02350000 -9.05010000
4.39840000 -0.66620000 -9.27080000
4.42420000 -0.62360000 -9.30940000
4.65290000 -0.53770000 -9.32890000
4.65570000 -0.68920000 -9.21450000
4.62470000 -0.64090000 -9.30130000
4.74450000 -0.67390000 -9.26100000
4.73730000 -0.60150000 -9.32220000
4.75810000 -0.65140000 -9.29190000
4.61740000 -0.58360000 -9.32470000
4.61680000 -0.25780000 -9.32980000
4.14670000 -0.16440000 -9.30380000
4.20210000 -0.13770000 -9.31670000
4.09460000 -0.00790000 -9.23970000
4.15640000 0.04280000 -9.29120000
4.24500000 -0.04090000 -9.31600000
5.06770000 -0.02110000 -9.33080000
5.19230000 0.47850000 -9.33430000
5.38180000 -0.69100000 -9.04880000
5.02920000 -0.68800000 -9.19390000
5.38400000 -0.69770000 -8.86990000
5.38090000 -0.66480000 -9.21780000
5.12380000 -0.66880000 -9.25130000
5.35830000 -0.61950000 -9.30880000
5.44460000 -0.63520000 -9.28480000
5.51060000 -0.56100000 -9.33390000
5.58740000 -0.64080000 -9.24900000
5.57390000 -0.59730000 -9.31570000
5.70190000 -0.61420000 -9.28460000
5.70780000 -0.64590000 -9.18870000
5.73430000 -0.68220000 -8.90990000
5.68630000 -0.55670000 -9.33240000
5.75210000 -0.49920000 -9.34080000
5.89740000 -0.61480000 -9.22140000
5.81940000 -0.56600000 -9.31800000
5.94780000 -0.66150000 -8.90490000
6.09830000 -0.62930000 -8.97360000
5.86400000 -0.69350000 -8.59150000
6.01070000 -0.68680000 -8.01550000
5.01480000 -0.64850000 -9.29210000
4.88510000 -0.60850000 -9.32090000
5.09380000 -0.60000000 -9.32520000
5.16320000 -0.53320000 -9.33750000
5.41240000 -0.25130000 -9.34290000
5.21100000 -0.61730000 -9.31620000
5.30700000 -0.57590000 -9.33330000
5.46150000 -0.50680000 -9.34050000
5.94040000 -0.36510000 -9.34150000
6.11010000 0.04850000 -9.33740000
3.67170000 0.28530000 -8.92290000
3.56970000 0.30850000 -8.92260000
3.49230000 0.44640000 -8.92810000
3.95930000 0.27230000 -9.02400000
3.88230000 0.33230000 -8.97200000
3.76430000 0.41210000 -8.92990000
3.87820000 0.66550000 -8.95010000
3.53440000 0.72200000 -8.90850000
3.33440000 0.87700000 -8.96450000
3.65320000 0.73800000 -8.90290000
4.12380000 0.18340000 -9.26610000
4.20700000 0.17530000 -9.30910000
4.17180000 0.30840000 -9.29730000
4.27340000 0.31730000 -9.31790000
4.20420000 0.43620000 -9.30990000
4.09380000 0.25230000 -9.22730000
4.01630000 0.28640000 -9.08640000
4.08130000 0.48150000 -9.18240000
4.13590000 0.42570000 -9.27260000
4.11260000 0.52590000 -9.23860000
4.02970000 0.59700000 -9.07490000
3.96840000 0.60760000 -9.00830000
4.27020000 0.72070000 -9.31710000
4.10180000 0.83780000 -9.15070000
3.93690000 0.85230000 -8.95970000
4.20020000 0.60280000 -9.30560000
4.14950000 0.65230000 -9.27320000
4.12910000 0.73440000 -9.23860000
4.19500000 0.77250000 -9.29400000
4.16800000 0.88370000 -9.25940000
4.16860000 1.00470000 -9.23580000
4.21530000 0.94750000 -9.28700000
4.03400000 0.90340000 -9.02780000
4.01040000 0.97250000 -8.98400000
4.10860000 1.04090000 -9.09470000
4.08920000 1.10840000 -9.01540000
3.14710000 1.07710000 -9.16050000
3.12710000 1.13130000 -9.17680000
3.22380000 1.11120000 -9.03060000
3.10890000 1.19530000 -9.15460000
3.17250000 1.18360000 -9.05580000
3.10770000 1.21690000 -9.09960000
5.24650000 0.87470000 -9.33380000
4.62920000 0.97680000 -9.31750000
4.24660000 1.05040000 -9.29340000
4.33190000 1.10080000 -9.30670000
4.64450000 1.09910000 -9.31240000
4.16230000 1.09440000 -9.19390000
4.43920000 1.15690000 -9.29910000
4.66680000 1.15420000 -9.30160000
4.65610000 1.21090000 -9.26110000
4.93320000 1.18100000 -9.29270000
5.02410000 1.22310000 -9.24000000
4.55810000 1.23360000 -9.20730000
4.60250000 1.23160000 -9.08430000
4.44370000 1.23610000 -8.85380000
4.87170000 1.22730000 -8.98640000
5.07330000 1.14080000 -9.31290000
5.44050000 1.09810000 -9.32410000
5.11630000 1.19320000 -9.28820000
5.12450000 1.22790000 -9.16760000
4.22290000 1.14560000 -9.26060000
4.27340000 1.17120000 -9.27830000
4.36470000 1.19900000 -9.27250000
4.15850000 1.15900000 -9.12030000
4.19670000 1.16340000 -9.20970000
4.20130000 1.20940000 -9.11280000
4.12270000 1.18610000 -8.98710000
4.28810000 1.22280000 -9.21990000
4.25610000 1.23220000 -9.13110000
4.34260000 1.23820000 -9.14160000
4.23360000 1.23790000 -8.96990000
3.40040000 0.82510000 -8.93410000
3.47220000 0.88140000 -8.90330000
3.58930000 0.90230000 -8.88390000
3.70440000 0.94020000 -8.87640000
3.81760000 0.85640000 -8.91250000
3.81650000 0.98280000 -8.87990000
3.94290000 0.97450000 -8.93350000
3.91430000 1.05850000 -8.88420000
4.02730000 1.08580000 -8.95260000
3.41430000 0.99700000 -8.90260000
3.30230000 1.02690000 -8.96760000
3.33330000 1.12440000 -8.89750000
3.13940000 1.22890000 -8.91270000
3.21650000 1.20880000 -8.93610000
3.26890000 1.14570000 -8.95040000
3.36970000 1.17400000 -8.82520000
3.29760000 1.21170000 -8.80810000
3.20480000 1.22050000 -8.76940000
3.21100000 1.21560000 -8.53980000
3.30840000 1.20790000 -8.69710000
3.35820000 1.20560000 -8.56960000
3.55630000 0.99050000 -8.86620000
3.52900000 1.05230000 -8.84850000
3.40940000 1.10580000 -8.86080000
3.50360000 1.12540000 -8.80840000
3.70650000 1.05600000 -8.83360000
3.61050000 1.10640000 -8.80370000
3.45190000 1.17630000 -8.75900000
3.53510000 1.18640000 -8.69980000
3.60670000 1.21270000 -8.56240000
3.55250000 1.16360000 -8.75000000
3.48890000 1.22740000 -8.26390000
3.72910000 1.13220000 -8.78440000
3.84840000 1.11480000 -8.81540000
3.75430000 1.17600000 -8.73720000
3.72990000 1.19850000 -8.68680000
3.88660000 1.19420000 -8.70780000
3.89910000 1.21580000 -8.60830000
4.01370000 1.13580000 -8.90270000
3.93480000 1.13940000 -8.83200000
4.05470000 1.18630000 -8.88920000
3.96230000 1.18230000 -8.76250000
4.06820000 1.21090000 -8.82800000
4.05840000 1.21510000 -8.61950000
4.14280000 1.22730000 -8.67150000
3.76070000 1.23580000 -8.36080000
3.92560000 1.23980000 -8.12630000
4.04830000 1.23270000 -8.37820000
3.73180000 1.27400000 -6.38790000
3.82220000 1.25330000 -7.76560000
3.52870000 1.26550000 -6.71380000
4.20930000 1.24920000 -7.78200000
4.09370000 1.26900000 -6.73190000
3.90380000 1.27060000 -6.12450000
3.32890000 1.25160000 -7.62250000
4.25370000 1.23790000 -8.70040000
4.38130000 1.22340000 -8.59800000
4.63180000 1.22200000 -8.84230000
4.56020000 1.20730000 -8.65420000
4.43910000 1.20790000 -8.45410000
4.25620000 1.23170000 -8.40160000
4.32500000 1.23510000 -8.17790000
4.34810000 1.24250000 -7.98320000
4.47330000 1.22100000 -8.17690000
4.55990000 1.20700000 -8.35430000
4.76680000 1.21770000 -8.43020000
4.62190000 1.22380000 -8.12800000
4.71970000 1.23480000 -8.22580000
4.52120000 1.25230000 -8.00560000
4.79430000 1.22040000 -8.84670000
4.69680000 1.22160000 -8.75800000
4.78730000 1.23740000 -8.72960000
4.92620000 1.22100000 -8.75950000
4.89370000 1.23010000 -8.56720000
4.82160000 1.24330000 -8.63540000
4.81160000 1.22590000 -8.54000000
4.71290000 1.22660000 -8.66920000
4.70780000 1.21300000 -8.54840000
4.91350000 1.23320000 -8.65930000
5.04580000 1.20420000 -8.68820000
5.13790000 1.21130000 -8.89290000
5.16070000 1.20130000 -8.66040000
5.00490000 1.21080000 -8.52410000
4.75140000 1.23890000 -8.31040000
4.86810000 1.24320000 -8.35410000
4.90800000 1.25300000 -8.20940000
4.75450000 1.23400000 -8.14090000
4.78330000 1.24810000 -8.05310000
4.96230000 1.22810000 -8.40690000
5.00860000 1.24870000 -8.27920000
5.16670000 1.21230000 -8.35560000
5.17690000 1.22590000 -8.19960000
4.95000000 1.25490000 -8.08130000
5.09510000 1.23820000 -8.00820000
4.15620000 1.22990000 -8.90200000
4.48170000 1.23520000 -7.77080000
4.35080000 1.24840000 -7.61900000
4.50910000 1.25180000 -7.88140000
4.70960000 1.25600000 -7.85470000
4.73480000 1.23820000 -7.74360000
4.61600000 1.23770000 -7.36530000
4.81990000 1.23530000 -7.47440000
4.27560000 1.26250000 -7.23590000
4.56970000 1.26140000 -6.98210000
4.70160000 1.26230000 -6.34980000
4.65450000 1.25100000 -7.01840000
5.12730000 1.22800000 -7.79450000
4.93680000 1.23810000 -7.81770000
5.89720000 1.21580000 -7.65580000
4.82330000 1.25890000 -7.94050000
4.85830000 1.24760000 -6.77180000
5.14660000 1.24000000 -7.15700000
4.95980000 1.24980000 -6.88240000
5.15970000 1.25980000 -7.02260000
5.62900000 1.22280000 -7.39360000
5.93300000 -0.58210000 -9.28540000
6.04320000 -0.48050000 -9.33430000
6.12020000 -0.51030000 -9.31270000
6.12100000 -0.54920000 -9.27330000
6.14580000 -0.56520000 -9.21810000
6.19200000 -0.58680000 -9.09350000
6.25190000 -0.51070000 -9.25300000
6.21020000 -0.41250000 -9.33140000
6.28740000 -0.44430000 -9.29780000
6.21190000 -0.27700000 -9.33620000
6.34020000 -0.55030000 -9.06200000
6.41400000 -0.59850000 -8.77120000
6.39520000 -0.64780000 -8.39710000
6.10880000 -0.68460000 -8.44250000
6.12490000 -0.66600000 -8.66240000
6.31620000 -0.36580000 -9.31720000
6.35450000 -0.46020000 -9.22640000
6.39400000 -0.38280000 -9.25620000
6.31900000 -0.26760000 -9.32860000
6.40570000 -0.29000000 -9.29460000
6.46620000 -0.24920000 -9.26750000
6.44260000 -0.18020000 -9.31360000
6.39220000 -0.50780000 -9.10660000
6.43600000 -0.46440000 -9.12430000
6.46380000 -0.55320000 -8.89340000
6.48970000 -0.39980000 -9.12170000
6.51990000 -0.48530000 -8.97150000
6.55390000 -0.43520000 -8.99370000
6.53800000 -0.32040000 -9.11100000
6.51340000 -0.12260000 -9.30090000
6.64390000 -0.30840000 -8.95550000
6.53910000 -0.20910000 -9.20160000
6.63210000 -0.04350000 -9.25280000
6.64180000 -0.08910000 -9.17030000
6.64230000 -0.16650000 -9.06770000
6.56090000 -0.57310000 -8.62490000
6.54450000 -0.53430000 -8.81340000
6.58770000 -0.61110000 -8.33170000
6.66640000 -0.49630000 -8.61770000
6.63120000 -0.45110000 -8.81810000
6.69940000 -0.54050000 -8.36750000
6.74370000 -0.42580000 -8.51990000
6.69280000 -0.39240000 -8.75840000
6.69080000 -0.26340000 -8.88680000
6.74740000 -0.21990000 -8.74430000
6.75250000 -0.33180000 -8.62280000
6.42840000 -0.04760000 -9.33030000
6.47890000 -0.06850000 -9.32470000
6.58590000 -0.04920000 -9.29030000
6.59250000 0.01410000 -9.31240000
6.61510000 0.12010000 -9.32460000
6.78750000 0.43970000 -9.32190000
6.38430000 0.53450000 -9.34440000
6.33610000 0.93700000 -9.34950000
6.71790000 -0.03150000 -9.06870000
6.71470000 -0.12290000 -8.93650000
6.78140000 -0.08300000 -8.76960000
6.79770000 0.03130000 -8.98050000
6.86130000 -0.01510000 -8.61600000
6.89690000 0.05220000 -8.71250000
6.91440000 0.12150000 -8.97100000
6.81060000 -0.18990000 -8.50480000
6.86180000 -0.07180000 -8.48050000
7.08130000 0.16080000 -8.52310000
7.08150000 0.22390000 -8.89780000
7.17620000 0.25640000 -8.66170000
6.67520000 0.05360000 -9.28890000
6.74360000 0.05170000 -9.21120000
6.74180000 0.14500000 -9.30420000
6.80900000 0.12020000 -9.23770000
6.80660000 0.25830000 -9.31620000
6.80320000 0.08160000 -9.14740000
6.94430000 0.23110000 -9.25830000
6.90240000 0.16320000 -9.18850000
6.96410000 0.30310000 -9.29220000
7.04920000 0.26980000 -9.19060000
6.94230000 0.35750000 -9.30520000
6.72930000 0.95630000 -9.34080000
6.91260000 0.82920000 -9.32550000
7.04550000 0.34410000 -9.26930000
7.09530000 0.28190000 -9.08980000
7.10370000 0.37240000 -9.21370000
7.11990000 0.33970000 -9.14240000
7.13590000 0.39140000 -9.10580000
7.01520000 0.42300000 -9.29230000
7.06800000 0.45290000 -9.26470000
6.98350000 0.54100000 -9.30580000
7.05250000 0.57180000 -9.29520000
7.10110000 0.48090000 -9.23710000
7.12830000 0.48930000 -9.12420000
7.14150000 0.55240000 -9.19370000
7.10210000 0.56580000 -9.26860000
7.15360000 0.64900000 -9.26940000
7.16960000 0.60660000 -9.22310000
7.29510000 0.71930000 -9.20160000
7.07430000 0.68370000 -9.30050000
7.06790000 0.88830000 -9.30190000
6.98270000 1.07910000 -9.30760000
7.18460000 0.73120000 -9.27420000
7.16910000 0.93280000 -9.27690000
7.28950000 0.79810000 -9.23660000
7.14000000 0.30540000 -8.97310000
7.19710000 0.32550000 -8.75580000
7.16270000 0.46350000 -8.94030000
7.15750000 0.56550000 -9.06470000
7.18020000 0.56160000 -8.89790000
7.22880000 0.42790000 -8.67420000
7.21300000 0.49530000 -8.72520000
7.20120000 0.54000000 -8.78520000
7.25390000 0.35470000 -8.56530000
7.20270000 0.61660000 -9.14480000
7.20760000 0.61590000 -8.98760000
7.29120000 0.68120000 -9.12940000
7.36860000 0.71490000 -8.99310000
7.27710000 0.66020000 -8.86400000
7.26140000 0.60010000 -8.66320000
7.24510000 0.62110000 -8.78440000
7.53790000 0.79440000 -8.56720000
7.38320000 0.70610000 -8.65520000
7.27100000 1.00260000 -9.23970000
7.16010000 1.12300000 -9.26180000
7.02190000 1.13990000 -9.28960000
7.09230000 1.18390000 -9.24430000
7.20630000 1.17160000 -9.22220000
7.05060000 1.21480000 -9.18420000
7.33570000 1.20230000 -8.94760000
7.02600000 1.21610000 -9.10670000
7.00720000 1.21930000 -8.85790000
5.26300000 1.15030000 -9.31280000
5.33660000 1.20650000 -9.27430000
5.46080000 1.13820000 -9.31810000
5.23780000 1.22930000 -9.21530000
5.60120000 1.22640000 -9.20770000
5.44320000 1.21590000 -9.12140000
5.33290000 1.21220000 -8.92700000
5.63370000 1.17170000 -9.30720000
5.75180000 1.21700000 -9.25900000
5.58190000 1.21630000 -8.98880000
5.60530000 1.21940000 -9.11090000
6.18520000 1.07430000 -9.33680000
6.09520000 1.14600000 -9.32320000
5.71320000 1.22830000 -9.02920000
5.83570000 1.22750000 -8.93350000
5.95530000 1.19670000 -9.29120000
6.10980000 1.22340000 -9.12450000
6.11170000 1.22220000 -9.23980000
5.85770000 1.21950000 -9.11050000
6.40760000 1.22970000 -8.94620000
6.56610000 1.08660000 -9.33750000
6.50190000 1.15360000 -9.32470000
6.27980000 1.18990000 -9.30150000
6.40170000 1.20650000 -9.28120000
6.57440000 1.22180000 -9.21320000
6.50130000 1.22020000 -9.12800000
6.77310000 1.11940000 -9.32540000
6.75620000 1.16520000 -9.30970000
6.60250000 1.20520000 -9.27630000
6.91540000 1.19600000 -9.26300000
6.48190000 -0.67400000 -7.81270000
6.72030000 -0.58470000 -8.10790000
6.78590000 -0.51100000 -8.14860000
6.80210000 -0.42580000 -8.24530000
6.84450000 -0.48190000 -7.94550000
6.83620000 -0.35210000 -8.13010000
6.89400000 -0.50960000 -7.72300000
6.20810000 1.21870000 -7.37710000
5.91010000 1.22980000 -7.32900000
5.67950000 1.26770000 -7.15060000
5.62600000 1.26800000 -7.06090000
6.16440000 1.25650000 -7.04250000
5.89730000 1.25600000 -6.99650000
6.36600000 1.22940000 -7.25630000
6.22810000 1.25170000 -7.22340000
5.89740000 1.25460000 -7.24300000
6.17920000 1.24270000 -6.87730000
6.39710000 1.26310000 -7.08610000
6.87490000 -0.36380000 -7.93190000
6.87250000 -0.18690000 -8.20010000
6.91700000 -0.07590000 -8.22210000
7.04580000 -0.11320000 -7.66560000
6.97120000 -0.23110000 -7.74670000
7.00140000 0.02640000 -8.19610000
7.03040000 0.07620000 -8.27180000
7.07290000 -0.00250000 -7.85330000
7.17420000 0.17580000 -8.20310000
7.16110000 0.09080000 -7.86560000
6.94730000 -0.36870000 -7.68740000
6.96830000 -0.44190000 -7.53420000
7.20370000 0.02460000 -7.42450000
7.24180000 0.28440000 -8.47790000
7.26960000 0.20940000 -8.01100000
7.28410000 0.32620000 -8.39690000
7.32020000 0.30150000 -8.16400000
7.28810000 0.39240000 -8.43010000
7.32430000 0.34640000 -8.22990000
7.33320000 0.38670000 -8.19720000
7.28890000 0.46100000 -8.39520000
7.30650000 0.48100000 -8.20340000
7.32600000 0.44610000 -8.11590000
7.28580000 0.12470000 -7.50460000
7.34060000 0.26600000 -7.95960000
7.36890000 0.22040000 -7.61670000
7.36960000 0.32090000 -7.97210000
7.36470000 0.38810000 -8.02110000
7.31670000 0.53330000 -8.03040000
7.39670000 0.34790000 -7.85370000
7.38300000 0.41710000 -7.82580000
7.35480000 0.43990000 -7.94200000
7.32600000 0.50320000 -7.91340000
7.34000000 0.57390000 -7.91170000
7.39950000 0.30010000 -7.76350000
7.40700000 0.38860000 -7.72400000
7.41180000 0.26110000 -7.55980000
7.42390000 0.34520000 -7.66520000
7.42640000 0.30010000 -7.59130000
7.35020000 0.47070000 -7.82610000
7.34650000 0.54640000 -7.80740000
7.38090000 0.45300000 -7.69560000
7.36460000 0.51160000 -7.72870000
7.39010000 0.61600000 -7.81460000
7.38910000 0.57510000 -7.71130000
7.51970000 0.71770000 -7.65280000
6.51360000 1.24600000 -7.92220000
6.34350000 1.24560000 -8.11220000
6.27630000 1.23950000 -8.06870000
6.79550000 1.22920000 -8.30900000
6.76190000 1.23620000 -8.54690000
6.49250000 1.24060000 -8.17270000
6.78710000 1.23360000 -8.12450000
6.80840000 1.23320000 -7.95980000
7.28800000 0.58290000 -8.52140000
7.28060000 0.53580000 -8.46850000
7.34020000 0.65450000 -8.51150000
7.43800000 0.71640000 -8.32380000
7.30390000 0.53760000 -8.23400000
7.31960000 0.59110000 -8.30090000
7.36710000 0.63950000 -8.15780000
6.98520000 1.23310000 -8.37780000
6.98300000 1.22050000 -8.67940000
7.31310000 1.21040000 -8.69420000
7.12490000 1.22720000 -8.52080000
7.33970000 1.22220000 -8.43840000
7.33260000 0.58110000 -8.07210000
7.47990000 0.72110000 -7.96030000
7.02600000 1.22740000 -8.16560000
7.21860000 1.23240000 -8.06750000
7.01570000 1.22640000 -7.95580000
7.13740000 1.23200000 -7.84980000
6.88150000 1.20790000 -7.81210000
7.22170000 -0.10130000 -6.99440000
7.30710000 0.02520000 -7.01090000
7.40130000 0.22160000 -7.31620000
7.39540000 0.19250000 -7.17950000
7.48080000 0.29460000 -7.15270000
7.46720000 0.36140000 -7.41260000
7.43340000 0.38170000 -7.55000000
7.40020000 0.44930000 -7.59790000
7.46060000 0.30390000 -7.34100000
7.42350000 0.45620000 -7.50780000
7.46210000 0.42560000 -7.41580000
7.47070000 0.53380000 -7.40980000
7.41050000 0.53070000 -7.57560000
7.49070000 0.66630000 -7.56040000
7.51150000 0.65240000 -7.42500000
7.51840000 0.37900000 -7.16410000
7.52500000 0.55110000 -7.25500000
7.52750000 0.33300000 -7.04520000
7.55040000 0.49570000 -7.07140000
7.44150000 0.16490000 -6.95310000
7.53020000 0.22170000 -6.79360000
7.49300000 0.11800000 -6.61780000
7.58030000 0.32210000 -6.78070000
7.57360000 0.44510000 -6.91490000
7.60650000 0.22000000 -6.40180000
7.62630000 0.33170000 -6.55100000
6.22430000 1.22220000 -8.01330000
6.28450000 1.21220000 -7.82460000
6.42230000 1.22660000 -7.83230000
6.52210000 1.21170000 -7.63900000
6.55730000 1.22430000 -7.79990000
6.51750000 1.21230000 -7.36750000
6.69280000 1.21270000 -7.79220000
6.74730000 1.21260000 -7.65020000
6.65230000 1.21870000 -7.53280000
6.67230000 1.22150000 -7.36170000
6.49210000 1.24990000 -7.13020000
6.56820000 1.22090000 -7.19640000
6.40670000 1.24790000 -6.89230000
6.66530000 1.26130000 -6.82290000
6.70030000 1.21640000 -7.21940000
6.84670000 1.21340000 -7.13160000
6.66660000 1.25350000 -7.01070000
6.77170000 1.26410000 -6.84260000
6.94200000 1.20730000 -7.67650000
6.86350000 1.21780000 -7.61280000
6.99830000 1.21410000 -7.79180000
6.81920000 1.24420000 -7.49800000
6.80680000 1.24940000 -7.40640000
7.01710000 1.22270000 -7.62080000
6.97260000 1.24410000 -7.44680000
7.09030000 1.23160000 -7.63060000
7.17360000 1.23450000 -7.49450000
7.02850000 1.24100000 -7.32760000
7.01670000 1.21500000 -6.89680000
6.84370000 1.21680000 -7.04940000
6.85020000 1.23920000 -6.92080000
7.20240000 1.22790000 -7.05420000
7.20490000 1.23250000 -7.28650000
7.07190000 1.21600000 -7.15190000
7.11440000 1.21400000 -6.94200000
6.86510000 1.24450000 -7.31070000
7.00790000 1.22430000 -7.21940000
5.47630000 1.23720000 -8.44250000
5.45410000 1.23980000 -8.58210000
5.34730000 1.22760000 -8.52460000
5.63520000 1.23030000 -8.75330000
5.68810000 1.24230000 -8.46400000
5.27970000 1.21570000 -8.71530000
5.37300000 1.23090000 -8.75850000
5.30280000 1.21390000 -8.44890000
5.48490000 1.22890000 -8.87130000
5.47960000 1.21380000 -8.23530000
5.55250000 1.22100000 -8.30490000
5.69340000 1.23760000 -8.32260000
5.88120000 1.21380000 -8.08990000
5.92230000 1.22840000 -8.58900000
5.95440000 1.23480000 -8.72040000
5.93790000 1.23520000 -8.38580000
6.44620000 1.23670000 -8.47310000
6.14380000 1.23280000 -8.41200000
6.26890000 1.23130000 -8.53990000
6.11220000 1.23700000 -8.53160000
5.95370000 1.23380000 -8.22840000
6.13280000 1.23160000 -8.23230000
6.05940000 1.21350000 -8.09950000
5.43850000 1.24240000 -7.23580000
5.27800000 1.27330000 -7.00160000
5.32670000 1.26880000 -6.89290000
5.62760000 1.26030000 -6.97140000
5.09030000 1.25250000 -6.12630000
5.11730000 1.24690000 -6.01580000
5.29380000 1.24290000 -5.95610000
4.80230000 1.27300000 -5.23510000
4.71880000 1.27640000 -5.56220000
4.60670000 1.27480000 -5.56370000
4.61590000 1.26730000 -5.26760000
4.54440000 1.26900000 -5.13600000
4.34920000 1.27950000 -5.10320000
4.65920000 1.28000000 -5.05460000
5.06770000 1.26030000 -5.82880000
5.00760000 1.26040000 -5.53550000
5.27310000 1.24850000 -5.65030000
4.77860000 1.26680000 -5.64710000
5.04330000 1.26100000 -5.18110000
4.89800000 1.28090000 -5.06950000
5.11470000 1.26930000 -5.08670000
5.27800000 1.26400000 -5.31730000
5.34150000 1.28150000 -5.04560000
5.35490000 1.26300000 -5.16070000
3.60600000 1.27620000 -5.67910000
4.18950000 1.27600000 -5.64670000
3.32530000 1.28040000 -5.35690000
3.35360000 1.28180000 -5.09340000
3.58160000 1.27880000 -5.08660000
3.79150000 1.28730000 -5.07500000
3.71220000 1.28400000 -5.49890000
3.82730000 1.28150000 -5.62940000
3.96130000 1.27410000 -5.20790000
4.05940000 1.28000000 -5.07420000
4.11930000 1.27120000 -5.29450000
4.78070000 1.26220000 -6.50520000
4.35660000 1.26730000 -6.10770000
4.45620000 1.27050000 -6.30930000
4.97230000 1.26900000 -6.57500000
4.92930000 1.26180000 -6.37310000
5.05110000 1.27150000 -6.82240000
5.09270000 1.27750000 -6.66710000
5.22010000 1.26010000 -6.69080000
5.12690000 1.27160000 -6.52610000
5.30580000 1.24220000 -6.60210000
5.22860000 1.26710000 -6.47750000
5.15260000 1.27300000 -6.34410000
5.14530000 1.26350000 -6.17150000
5.26860000 1.27580000 -6.24530000
5.46840000 1.25370000 -3.26410000
4.91780000 1.29640000 -4.98200000
4.28930000 1.29510000 -5.01750000
4.88670000 1.29310000 -4.92620000
4.89070000 1.25770000 -4.72120000
5.32560000 1.25950000 -4.79820000
4.45300000 1.28410000 -4.87530000
3.63810000 1.30690000 -4.93270000
3.52040000 1.29530000 -4.99950000
3.97800000 1.30320000 -4.97180000
3.83550000 1.27970000 -4.82000000
5.35880000 1.24660000 -6.52680000
5.49060000 1.23860000 -6.55950000
5.61130000 1.25760000 -6.68180000
5.67550000 1.26450000 -6.82320000
5.54360000 1.24540000 -6.79800000
5.65430000 1.25350000 -6.51570000
5.59320000 1.24080000 -6.42710000
5.70620000 1.27240000 -6.57570000
5.35980000 1.27320000 -6.40950000
5.46750000 1.25530000 -6.39770000
5.38760000 1.26810000 -6.23490000
5.51210000 1.24810000 -6.28860000
5.37080000 1.25300000 -6.11210000
5.57620000 1.23980000 -6.07660000
5.73950000 1.24380000 -6.38730000
5.77050000 1.24120000 -6.14210000
5.83990000 1.25910000 -6.88670000
5.80240000 1.26570000 -6.72350000
5.90480000 1.24660000 -6.80940000
6.06890000 1.23510000 -6.67560000
5.84130000 1.27320000 -6.63030000
5.79230000 1.27040000 -6.51950000
5.93450000 1.25970000 -6.58750000
5.88550000 1.25500000 -6.43440000
6.02460000 1.24730000 -6.49950000
6.09060000 1.23220000 -6.77270000
6.26480000 1.23400000 -6.59540000
6.17330000 1.26800000 -6.42370000
6.32320000 1.25190000 -6.51960000
5.99520000 1.26560000 -6.32480000
5.86130000 1.25270000 -6.20500000
5.96170000 1.25930000 -5.98580000
6.05240000 1.27520000 -6.04190000
6.17580000 1.27640000 -6.18840000
6.35590000 1.28070000 -5.86190000
5.84110000 1.24280000 -5.54650000
6.06130000 1.24460000 -5.21800000
5.60640000 1.25940000 -5.08830000
5.97760000 1.25730000 -5.09640000
5.51390000 1.24940000 -5.21930000
5.80870000 1.28550000 -4.99040000
6.35740000 1.25930000 -5.66150000
6.25430000 1.27620000 -5.80190000
6.11400000 1.25570000 -5.81360000
5.95750000 1.24330000 -5.82500000
6.47610000 1.23930000 -5.43540000
6.53350000 1.26760000 -5.02190000
6.51950000 1.28220000 -4.94640000
7.64470000 0.27340000 -6.26170000
6.41480000 1.23340000 -6.72570000
6.53150000 1.24260000 -6.66290000
6.36460000 1.27050000 -6.41810000
6.56550000 1.25690000 -6.57590000
6.58940000 1.26600000 -6.33490000
6.80680000 1.26020000 -6.55800000
6.64420000 1.26330000 -6.11050000
6.49540000 1.27220000 -5.87490000
6.69200000 1.27090000 -5.96140000
6.87630000 1.25260000 -6.82960000
7.07540000 1.23110000 -6.67560000
6.98050000 1.25960000 -6.53930000
7.21120000 1.23960000 -6.57020000
7.29490000 1.24800000 -6.69310000
7.11380000 1.24720000 -6.40340000
6.95490000 1.26090000 -6.20730000
7.12930000 1.26520000 -5.96710000
6.87730000 1.27490000 -5.73640000
7.01560000 1.26310000 -5.84460000
7.20270000 1.26030000 -6.18800000
7.18300000 1.24660000 -5.82930000
7.35590000 1.26800000 -6.00710000
7.27800000 1.23150000 -5.65140000
7.18650000 1.23300000 -5.41400000
7.32200000 1.23100000 -5.37340000
7.16760000 1.23800000 -5.25340000
7.18080000 1.25540000 -5.03500000
7.26360000 1.26390000 -5.12160000
7.29790000 1.24850000 -5.23710000
6.96420000 1.24620000 -5.07210000
7.17650000 1.27400000 -4.90950000
7.35490000 1.27340000 -4.99760000
6.53790000 1.27560000 -5.71110000
6.60750000 1.25260000 -5.48150000
6.77340000 1.27320000 -5.49560000
6.87610000 1.25600000 -5.38940000
6.61850000 1.27340000 -5.59370000
6.87890000 1.23830000 -5.24310000
7.07020000 1.26920000 -5.65840000
6.91890000 1.27530000 -5.54860000
7.02170000 1.25390000 -5.41780000
7.16830000 1.24450000 -5.72770000
7.30810000 1.26150000 -5.85950000
7.34730000 1.23900000 -5.71260000
7.14710000 1.24480000 -5.52930000
5.43540000 1.24420000 -6.80070000
5.81310000 1.28740000 -4.92960000
6.39350000 1.26780000 -4.86300000
6.78120000 1.24160000 -4.62010000
6.70980000 1.24870000 -4.77360000
6.42260000 1.24090000 -4.34610000
6.90690000 1.24230000 -3.94940000
7.21150000 1.24560000 -4.66050000
7.15450000 1.26180000 -4.81610000
7.36840000 1.27650000 -4.81320000
7.41500000 1.25250000 -4.62940000
7.47510000 1.24390000 -4.23940000
7.58180000 1.24760000 -3.75620000
7.43210000 0.77610000 -9.11090000
7.46940000 0.82170000 -9.12240000
7.48140000 0.78220000 -9.03040000
7.54190000 0.82380000 -9.02240000
7.57930000 0.89070000 -9.03460000
7.61270000 0.84240000 -8.84020000
7.64380000 0.87610000 -8.89140000
7.66720000 0.95810000 -8.92100000
7.69580000 0.92980000 -8.83860000
7.70410000 0.89330000 -8.68850000
7.70430000 1.02620000 -8.85250000
7.39580000 0.82470000 -9.18200000
7.38310000 0.90010000 -9.19530000
7.42170000 0.99910000 -9.16590000
7.48090000 0.88940000 -9.13570000
7.57060000 0.92900000 -9.05160000
7.52070000 1.05020000 -9.08490000
7.37370000 1.10840000 -9.17680000
7.28640000 1.12250000 -9.21690000
7.25760000 1.19640000 -9.16760000
7.27090000 1.20930000 -9.10810000
7.36950000 1.17200000 -9.14600000
7.44700000 1.16980000 -9.09610000
7.37490000 1.19840000 -9.09940000
7.38200000 1.20760000 -9.00610000
7.42890000 1.20580000 -9.03610000
7.46480000 1.20400000 -8.80480000
7.53870000 1.13960000 -9.04220000
7.63000000 1.02500000 -8.97660000
7.61300000 1.12240000 -8.97230000
7.57300000 1.18120000 -8.96570000
7.67490000 1.10210000 -8.89540000
7.73700000 1.09310000 -8.77890000
7.72050000 1.16560000 -8.75690000
7.64620000 1.16520000 -8.89350000
7.57610000 1.20190000 -8.90260000
7.64990000 1.19510000 -8.81900000
7.60330000 1.21000000 -8.79260000
7.49660000 1.19050000 -9.02830000
7.49570000 1.20750000 -8.93960000
7.67840000 0.86990000 -8.53280000
7.74630000 0.93400000 -8.67150000
7.78800000 1.02230000 -8.62700000
7.77160000 1.06840000 -8.68530000
7.76240000 0.92060000 -8.46830000
7.79690000 0.97340000 -8.53030000
7.67520000 0.86290000 -8.14130000
7.73760000 0.90460000 -8.26400000
7.81990000 0.97520000 -8.34960000
7.81860000 0.98880000 -8.27490000
7.60090000 1.21100000 -8.66740000
7.71760000 1.19950000 -8.66110000
7.71340000 1.21020000 -8.57350000
7.60620000 1.20860000 -8.39980000
7.43110000 1.21350000 -8.37280000
7.72480000 1.21120000 -8.38350000
7.70490000 0.86910000 -7.74610000
7.71830000 0.89940000 -8.10230000
7.72790000 0.91360000 -7.94230000
7.75900000 0.94540000 -8.15840000
7.75160000 0.99090000 -7.98250000
7.80050000 1.01400000 -8.19580000
7.76280000 1.03920000 -8.05830000
7.78450000 1.08830000 -8.14660000
7.75970000 1.11270000 -8.06200000
7.72520000 0.89390000 -7.81610000
7.75700000 0.97370000 -7.84160000
7.79760000 0.95890000 -7.68240000
7.74980000 1.10200000 -7.93570000
7.75470000 1.16640000 -8.10150000
7.72080000 1.19230000 -7.92970000
7.71400000 1.21040000 -8.10250000
7.67440000 1.21890000 -8.10210000
7.76480000 1.07820000 -7.80450000
7.74470000 1.15560000 -7.85670000
7.51190000 1.22770000 -7.94260000
7.66960000 1.23130000 -7.77750000
7.70190000 1.21760000 -7.81310000
7.37090000 1.22350000 -8.16770000
7.53540000 1.21810000 -8.18280000
7.35120000 1.23380000 -7.57830000
7.59090000 1.22380000 -7.63740000
7.81190000 1.12630000 -8.52830000
7.83280000 1.02850000 -8.43330000
7.83340000 1.08130000 -8.43790000
7.81840000 1.16220000 -8.41290000
7.84520000 1.04980000 -8.35120000
7.83170000 1.08160000 -8.25910000
7.83790000 1.12380000 -8.33980000
7.79310000 1.18940000 -8.28150000
7.77030000 1.14050000 -8.65830000
7.78530000 1.17070000 -8.57430000
7.78070000 1.19560000 -8.48600000
7.78250000 1.20130000 -8.36300000
7.81180000 1.14380000 -8.23150000
7.55650000 0.65590000 -7.25100000
7.63750000 0.77600000 -7.24060000
7.70740000 0.85820000 -7.39360000
7.60770000 0.53160000 -6.78800000
7.64220000 0.49320000 -6.64980000
7.56130000 0.57440000 -7.08360000
7.59230000 0.66360000 -7.04180000
7.57640000 0.58170000 -6.91120000
7.62920000 0.73770000 -7.05580000
7.70960000 0.84040000 -7.07880000
7.66770000 0.79250000 -6.88440000
7.61510000 0.71340000 -6.88060000
7.62610000 0.67710000 -6.79070000
7.66570000 0.63840000 -6.67250000
7.66970000 0.76260000 -6.76700000
7.73240000 0.86780000 -6.89800000
7.83820000 0.96010000 -7.07880000
7.75500000 0.87760000 -6.76390000
7.86410000 0.97680000 -6.78200000
7.86770000 0.97840000 -7.36250000
7.96690000 1.05620000 -7.05520000
8.00150000 1.09430000 -6.99560000
8.01680000 1.10990000 -6.77400000
8.02150000 1.13440000 -6.90430000
8.03110000 1.17080000 -6.78910000
7.81600000 0.95180000 -7.61370000
7.80420000 1.02050000 -7.69530000
7.79490000 1.08540000 -7.70330000
7.88480000 0.99020000 -7.46810000
7.64180000 1.23150000 -7.68830000
7.78720000 1.15500000 -7.68230000
7.74900000 1.19320000 -7.73770000
7.74390000 1.22350000 -7.62400000
7.51850000 1.22490000 -7.47670000
7.57880000 1.23550000 -7.32920000
7.73080000 1.22950000 -7.51860000
7.75550000 1.22840000 -7.26210000
7.38860000 1.23990000 -7.14700000
7.53080000 1.23850000 -7.20840000
7.59960000 1.22010000 -7.06310000
7.37060000 1.24420000 -6.83810000
7.56370000 1.22590000 -6.89770000
7.66410000 1.22430000 -7.21540000
7.71320000 1.21190000 -6.95600000
7.80590000 1.22500000 -6.94690000
7.65680000 1.21900000 -6.76890000
7.89010000 1.02680000 -7.54000000
7.87970000 1.09190000 -7.56410000
7.84420000 1.13720000 -7.58990000
7.81770000 1.20470000 -7.54850000
7.94930000 1.09360000 -7.43980000
7.94940000 1.04930000 -7.38320000
7.92400000 1.15020000 -7.47260000
7.88860000 1.19000000 -7.47630000
7.98030000 1.08280000 -7.26580000
7.98830000 1.12750000 -7.30000000
7.96060000 1.17860000 -7.37190000
7.89180000 1.21840000 -7.39900000
7.88450000 1.23040000 -7.31630000
7.95950000 1.20370000 -7.29820000
7.81250000 1.22930000 -7.45800000
7.81380000 1.23170000 -7.36040000
7.90810000 1.23360000 -7.08390000
8.00230000 1.12220000 -7.12720000
7.99180000 1.16590000 -7.22450000
7.95460000 1.22040000 -7.18170000
7.98930000 1.19750000 -7.10870000
8.01190000 1.16040000 -7.03570000
7.97060000 1.22450000 -7.00760000
8.01380000 1.19370000 -6.92010000
7.96630000 1.23540000 -6.80950000
7.99960000 1.22080000 -6.80380000
7.66660000 0.50120000 -6.54340000
7.66140000 0.42440000 -6.42290000
7.69010000 0.50830000 -6.39150000
7.72700000 0.63620000 -6.48810000
7.65950000 0.39240000 -6.27080000
7.67560000 0.33290000 -6.09720000
7.67940000 0.41770000 -6.11640000
7.69820000 0.49380000 -6.16670000
7.74290000 0.61180000 -6.35640000
7.75180000 0.59480000 -6.19800000
7.81590000 0.72210000 -6.33220000
7.84920000 0.71280000 -6.09460000
7.71890000 0.72500000 -6.62720000
7.79640000 0.86520000 -6.65650000
7.78570000 0.77150000 -6.53720000
7.89690000 0.90630000 -6.53560000
7.87330000 0.95700000 -6.67690000
7.87770000 0.81830000 -6.38290000
7.93240000 0.92710000 -6.46550000
7.92210000 0.80900000 -6.11440000
7.94250000 0.86550000 -6.17130000
7.71400000 0.49420000 -6.04230000
7.72790000 0.40240000 -5.89370000
7.75140000 0.58340000 -6.06320000
7.76320000 0.54180000 -5.92730000
7.81230000 0.64470000 -5.95220000
7.78630000 0.48340000 -5.71000000
7.82160000 0.58330000 -5.75640000
7.89510000 0.63570000 -5.53860000
7.89930000 0.71040000 -5.78380000
7.95200000 0.76590000 -5.72340000
7.99550000 0.80740000 -5.53040000
7.78080000 1.25260000 -6.07510000
7.54410000 1.26290000 -5.96800000
7.73390000 1.26830000 -5.59310000
7.97360000 1.05890000 -6.69740000
7.98960000 1.04550000 -6.57280000
8.02300000 1.11800000 -6.65170000
8.02400000 1.20060000 -6.67300000
7.99470000 1.07750000 -6.50310000
8.02640000 1.15560000 -6.59920000
7.98920000 1.21840000 -6.56040000
7.94730000 0.94070000 -6.29980000
7.95500000 0.97270000 -6.43900000
7.95010000 1.03400000 -6.29270000
7.96050000 1.05420000 -6.39050000
7.96230000 1.12010000 -6.40510000
7.94320000 1.13420000 -6.31910000
7.93690000 1.19500000 -6.39340000
7.92580000 1.19790000 -6.30550000
7.90700000 1.23170000 -6.39590000
7.98600000 1.17180000 -6.48410000
7.97660000 0.90310000 -5.88690000
7.95930000 1.01260000 -6.13230000
7.94670000 1.14320000 -6.17370000
7.85990000 1.24630000 -6.24180000
7.90830000 1.22370000 -6.18900000
7.87710000 1.24490000 -6.08690000
7.93950000 1.18990000 -6.11640000
8.00340000 1.09380000 -5.45330000
7.96760000 1.15190000 -5.94070000
7.98310000 1.16480000 -5.63490000
7.93240000 1.21970000 -6.00040000
7.87120000 1.25650000 -5.87630000
7.95480000 1.21050000 -5.83700000
7.91100000 1.24400000 -5.88380000
7.48850000 1.22350000 -6.77250000
7.41940000 1.23240000 -6.68480000
7.55740000 1.21530000 -6.68580000
7.43100000 1.24430000 -6.59410000
7.56380000 1.22450000 -6.61240000
7.35210000 1.25650000 -6.47820000
7.54230000 1.24840000 -6.52240000
7.51560000 1.25750000 -6.31800000
7.71970000 1.23890000 -6.58430000
7.87430000 1.24030000 -6.63570000
7.71530000 1.25090000 -6.44240000
7.73520000 1.24520000 -6.21190000
7.55530000 1.25180000 -6.16070000
7.97500000 1.23390000 -6.63700000
7.88220000 1.24430000 -6.44420000
7.80800000 0.46960000 -5.53400000
7.84410000 0.54900000 -5.51900000
7.98910000 0.72950000 -5.35220000
8.01740000 0.68400000 -5.08060000
8.01880000 0.74940000 -5.18860000
7.59670000 1.27100000 -5.48390000
7.51130000 1.27060000 -5.74910000
7.46390000 1.25610000 -5.67530000
7.42500000 1.23700000 -5.53480000
7.48810000 1.25020000 -5.36640000
8.03850000 0.80430000 -5.11080000
8.06410000 0.74750000 -5.00390000
7.43690000 1.25450000 -5.23850000
7.44640000 1.27290000 -5.12980000
7.57180000 1.27140000 -5.24650000
7.54570000 1.27010000 -5.09280000
7.49520000 1.27930000 -4.82910000
7.59240000 1.25920000 -4.96030000
7.78930000 1.27190000 -5.23480000
7.72240000 1.25640000 -5.09000000
7.80150000 1.25230000 -4.97040000
7.75550000 1.25600000 -4.80410000
7.91060000 1.26270000 -4.73140000
8.01910000 0.87690000 -5.33180000
7.93490000 1.24000000 -5.69510000
7.96240000 1.21860000 -5.63370000
7.89570000 1.25840000 -5.61190000
7.95970000 1.23650000 -5.48530000
7.99450000 1.19710000 -5.33920000
7.88490000 1.27020000 -5.38960000
7.93400000 1.25890000 -5.38970000
8.07070000 0.81030000 -5.01980000
8.06370000 0.90180000 -5.04100000
8.02750000 1.02200000 -5.14400000
8.05020000 1.04650000 -5.04080000
8.15130000 0.82940000 -4.82160000
8.13560000 0.87580000 -4.90190000
8.15080000 1.02310000 -4.87050000
8.17470000 0.92360000 -4.80090000
8.18440000 1.06830000 -4.77110000
8.09350000 1.05400000 -4.95780000
8.05880000 1.16000000 -4.98480000
8.15130000 1.16390000 -4.85110000
8.11650000 1.20700000 -4.88580000
8.13320000 1.24170000 -4.81520000
8.01530000 1.14710000 -5.16990000
7.96530000 1.25150000 -5.21480000
7.90540000 1.27270000 -5.11580000
7.99520000 1.23560000 -5.08530000
8.02380000 1.18850000 -5.05600000
7.93880000 1.27120000 -4.93760000
7.97920000 1.26380000 -5.00040000
7.94420000 1.27210000 -4.83320000
8.04800000 1.24650000 -4.92750000
8.03550000 1.28070000 -4.83090000
8.08220000 1.27100000 -4.82570000
7.55860000 1.26030000 -4.55010000
7.62020000 1.28240000 -4.62950000
7.64740000 1.25780000 -4.14750000
7.70140000 1.27770000 -4.67530000
7.94940000 1.26910000 -4.43590000
7.70770000 1.27600000 -4.29230000
7.89500000 1.27920000 -4.26960000
7.79460000 1.28800000 -4.39570000
7.72540000 1.26320000 -3.75880000
