10.00530000 -1.35880000 2.88810000
9.98390000 -1.37570000 2.76900000
10.00100000 -1.41130000 2.80390000
10.01880000 -1.41180000 2.90380000
10.03860000 -1.44960000 2.86910000
9.98210000 -1.41550000 2.70360000
10.02010000 -1.45450000 2.74130000
9.98890000 -1.45050000 2.57250000
10.07310000 -1.49250000 2.68660000
10.09690000 -1.49300000 2.85680000
10.16760000 -1.52080000 2.70510000
10.20510000 -1.41570000 2.34920000
10.21600000 -1.45830000 2.46820000
10.22000000 -1.47710000 2.55650000
10.22930000 -1.50750000 2.67680000
10.18260000 -1.50920000 2.55080000
10.21120000 -1.52410000 2.74340000
9.91860000 -1.39240000 2.42020000
9.95560000 -1.43300000 2.48720000
10.03330000 -1.49280000 2.37450000
10.17420000 -1.43060000 2.17410000
10.17220000 -1.47920000 2.27790000
10.13650000 -1.50090000 2.21340000
10.19330000 -1.49080000 2.41340000
10.19500000 -1.46360000 2.34340000
10.15060000 -1.50940000 2.37070000
10.12210000 -1.51260000 2.50260000
10.10080000 -1.50890000 2.25300000
9.96770000 -1.47920000 2.09100000
10.02150000 -1.49860000 1.97570000
11.13330000 -0.16200000 5.34330000
11.10160000 -0.15940000 5.44730000
11.15240000 -0.20260000 5.40340000
11.17990000 -0.25010000 5.36450000
11.15160000 -0.18760000 5.27640000
11.18630000 -0.29120000 5.28100000
11.13780000 -0.22520000 5.46890000
11.06120000 -0.20730000 5.57310000
11.14940000 -0.29330000 5.47170000
11.18650000 -0.34750000 5.37780000
10.99820000 -0.07510000 5.43960000
11.03080000 -0.06790000 5.27730000
11.01260000 -0.13410000 5.56170000
10.53320000 -0.25640000 5.31220000
10.51530000 -0.29910000 5.45590000
10.62290000 -0.29530000 5.32430000
10.63280000 -0.34000000 5.35140000
10.67110000 -0.28670000 5.20450000
10.69970000 -0.32510000 5.25310000
10.69710000 -0.39620000 5.28580000
11.08940000 -0.12780000 5.18540000
11.12550000 -0.20450000 5.11400000
11.11770000 -0.24670000 5.04080000
11.05220000 -0.35470000 4.84710000
11.16560000 -0.31950000 5.15670000
11.10770000 -0.48010000 5.01970000
10.64140000 -0.28290000 4.93050000
10.68890000 -0.31780000 4.96890000
10.68470000 -0.29100000 5.06000000
10.67710000 -0.35970000 4.90870000
10.65540000 -0.31130000 4.88660000
10.59200000 -0.27260000 4.81090000
10.59720000 -0.31320000 4.71780000
10.63050000 -0.31850000 4.81070000
10.61890000 -0.38910000 4.75650000
10.72730000 -0.31160000 5.16800000
10.73270000 -0.33120000 5.09090000
10.74310000 -0.37380000 5.20700000
10.75550000 -0.37460000 5.15240000
10.72430000 -0.37580000 5.03820000
10.73070000 -0.60060000 5.19490000
10.72310000 -0.67830000 5.14280000
10.65830000 -0.51200000 4.88970000
10.63920000 -0.62920000 4.89180000
11.00890000 -0.26770000 5.65400000
11.10660000 -0.43980000 5.51260000
10.57730000 -0.36670000 5.41080000
10.63220000 -0.52480000 5.35120000
10.64220000 -0.80050000 5.31120000
10.45820000 -1.08760000 5.46880000
11.18150000 -0.45750000 5.30290000
11.14990000 -0.48030000 5.43710000
11.16550000 -0.52510000 5.37560000
11.17460000 -0.45650000 5.23290000
11.11920000 -0.69550000 5.14910000
11.00230000 -0.96630000 5.51800000
11.10030000 -0.75790000 5.43930000
11.14260000 -0.72790000 5.30710000
11.11930000 -0.83880000 5.21840000
10.70590000 -0.59390000 5.25530000
10.70440000 -0.86580000 5.22540000
10.67290000 -1.08080000 5.09170000
10.70410000 -0.99800000 5.16760000
10.94560000 -0.67140000 4.66290000
10.57100000 -0.39600000 4.63750000
10.98290000 -0.94780000 4.88560000
11.06430000 -1.02720000 5.13990000
10.56870000 -1.01140000 4.77740000
10.79280000 -1.06140000 4.40470000
10.79810000 -1.34500000 4.57930000
10.80930000 -1.26740000 5.66600000
11.08020000 -0.99160000 5.38280000
11.08960000 -1.01160000 5.27680000
11.00120000 -1.28390000 5.42660000
10.60210000 -1.12460000 5.33250000
10.69700000 -1.06930000 5.20490000
10.66310000 -1.11050000 5.27070000
10.67570000 -1.20010000 5.23100000
10.63860000 -1.51710000 5.78810000
10.93400000 -1.48130000 5.47400000
10.76410000 -1.56780000 5.64600000
10.85030000 -1.52640000 5.56850000
10.90010000 -1.56800000 5.49330000
10.83530000 -1.59940000 5.53960000
11.03360000 -1.29470000 5.23910000
10.68340000 -1.13840000 5.13820000
10.97400000 -1.40800000 5.09150000
10.67870000 -1.22810000 5.18650000
10.86090000 -1.53220000 4.84080000
10.99710000 -1.46110000 5.33940000
10.98020000 -1.57030000 5.21750000
10.95320000 -1.59200000 5.13390000
10.95680000 -1.55050000 5.10080000
10.92540000 -1.58860000 5.05590000
10.90120000 -1.54810000 4.95150000
10.89010000 -1.61820000 5.08320000
10.96840000 -1.55110000 5.39100000
10.96880000 -1.59550000 5.30830000
10.93510000 -1.60290000 5.40310000
10.87440000 -1.61940000 5.43520000
10.74260000 -1.61030000 5.58640000
10.83070000 -1.61860000 5.31560000
10.72940000 -1.61360000 5.46750000
10.91900000 -1.62150000 5.27920000
10.94330000 -1.61140000 5.20090000
10.81250000 -1.60690000 5.14410000
10.88160000 -1.60900000 5.00310000
10.89660000 -1.58160000 4.97110000
10.47120000 -0.95520000 4.50380000
10.31420000 -1.15740000 4.04570000
10.53570000 -1.17870000 4.71610000
10.59430000 -1.20210000 4.89480000
10.58520000 -1.11490000 4.81710000
10.38940000 -1.33660000 4.32500000
10.64550000 -1.33350000 5.25430000
10.49420000 -1.42850000 5.42520000
10.30170000 -1.42440000 5.61430000
10.39650000 -1.45110000 6.02930000
10.40790000 -1.52360000 5.57850000
10.51150000 -1.50000000 5.43110000
10.61460000 -1.42410000 5.29190000
10.56950000 -1.59260000 5.66950000
10.35270000 -1.55740000 5.81530000
10.55410000 -1.57920000 5.53870000
10.62880000 -1.56740000 5.38050000
10.54640000 -1.40310000 4.80440000
10.65950000 -1.34760000 5.16910000
10.62860000 -1.43170000 5.06340000
10.62460000 -1.48190000 5.03270000
10.57410000 -1.49350000 4.83400000
10.62520000 -1.54240000 4.87590000
10.49030000 -1.43280000 4.62670000
10.75780000 -1.53580000 4.55320000
10.80600000 -1.49480000 4.67260000
10.72680000 -1.55980000 4.47470000
10.71500000 -1.52610000 4.41090000
10.61930000 -1.58570000 4.50370000
10.58240000 -1.58050000 4.34790000
10.64620000 -1.59470000 4.44420000
10.82230000 -1.55390000 4.74990000
10.82260000 -1.58660000 4.79110000
10.78180000 -1.60510000 4.76460000
10.72850000 -1.59900000 4.85040000
10.73470000 -1.60390000 4.73440000
10.51620000 -1.50330000 4.61130000
10.58050000 -1.55610000 4.60430000
10.72160000 -1.58580000 4.96990000
10.68780000 -1.59430000 4.66190000
10.79250000 -1.55880000 4.67520000
10.75800000 -1.57730000 4.61620000
10.79120000 -1.58550000 4.70520000
10.74760000 -1.60130000 4.68480000
10.71320000 -1.59780000 4.60630000
10.67380000 -1.59610000 4.54980000
10.73190000 -1.58100000 4.53790000
10.69610000 -1.58550000 4.45480000
10.39250000 -1.42530000 4.31910000
10.46930000 -1.50920000 4.42470000
10.35880000 -1.45870000 4.17210000
10.36840000 -1.50000000 4.09370000
10.50220000 -1.55030000 4.31660000
10.64940000 -1.45380000 5.22610000
10.65370000 -1.44510000 5.18000000
10.66400000 -1.50860000 5.16970000
10.63820000 -1.50730000 5.27850000
10.65250000 -1.54700000 5.30560000
10.68070000 -1.54000000 5.22390000
10.72260000 -1.57960000 5.27680000
10.71300000 -1.56340000 5.15740000
10.66560000 -1.53690000 5.06320000
10.83180000 -1.61770000 5.00160000
10.84820000 -1.60760000 4.92390000
10.79730000 -1.61320000 4.92220000
10.85480000 -1.58860000 4.87520000
10.81500000 -1.60630000 4.84430000
10.76930000 -1.60910000 4.81410000
10.58070000 -1.35450000 3.89790000
10.21150000 -1.36820000 3.73030000
10.44900000 -1.40380000 3.45640000
10.39030000 -1.43290000 3.23660000
10.39940000 -1.49500000 3.32370000
10.43830000 -1.51460000 3.46750000
10.43920000 -1.47230000 3.43900000
10.46570000 -1.49660000 3.54830000
10.41100000 -1.54020000 3.44720000
10.65030000 -1.45610000 4.17500000
10.27610000 -1.40020000 3.94630000
10.24530000 -1.43690000 3.81010000
10.28280000 -1.47080000 3.87660000
10.36100000 -1.52530000 3.92770000
10.48100000 -1.56420000 4.09340000
10.59120000 -1.51730000 4.00110000
10.56500000 -1.50320000 3.91040000
10.55870000 -1.55370000 3.95510000
10.49650000 -1.57120000 3.96710000
10.51930000 -1.55880000 3.87120000
10.61420000 -1.52850000 4.08970000
10.58250000 -1.55430000 4.03280000
10.61190000 -1.55590000 4.12660000
10.63850000 -1.52460000 4.16960000
10.57080000 -1.57460000 4.10140000
10.53800000 -1.57400000 4.02080000
10.52390000 -1.57580000 4.07370000
10.43280000 -1.55980000 3.90110000
10.47650000 -1.56480000 3.83260000
10.33130000 -1.54120000 3.62690000
10.52680000 -1.52970000 3.80790000
10.52980000 -1.48790000 3.77580000
10.49580000 -1.50190000 3.66570000
10.47050000 -1.53440000 3.62030000
10.43010000 -1.55570000 3.59580000
10.50610000 -1.52430000 3.72340000
10.49290000 -1.55020000 3.75740000
10.40880000 -1.55980000 3.67570000
10.44220000 -1.56280000 3.75430000
10.46200000 -1.55420000 3.67660000
10.37430000 -1.55540000 3.59710000
10.44610000 -1.53620000 3.52930000
10.39230000 -1.55640000 3.51360000
10.17520000 -1.41320000 3.58230000
10.21750000 -1.45640000 3.66590000
10.11470000 -1.35790000 3.36570000
10.05670000 -1.38920000 3.11520000
10.08150000 -1.42640000 3.16440000
10.13900000 -1.45720000 3.33070000
10.13030000 -1.41920000 3.38750000
10.14770000 -1.48120000 3.23300000
10.18520000 -1.46070000 3.51950000
10.21350000 -1.49480000 3.46850000
10.25980000 -1.49280000 3.69450000
10.26480000 -1.53280000 3.33710000
10.21380000 -1.52610000 3.11320000
10.30090000 -1.54220000 3.25040000
10.33610000 -1.54880000 3.42330000
10.35600000 -1.53580000 3.29350000
10.34240000 -1.47780000 3.06940000
10.31940000 -1.48040000 2.97540000
10.36060000 -1.49830000 3.18020000
10.33280000 -1.51610000 3.10290000
10.28390000 -1.53800000 3.08880000
10.30380000 -1.52310000 3.02110000
10.06050000 -1.44000000 3.02660000
10.09310000 -1.47490000 3.01410000
10.18470000 -1.52340000 2.96010000
10.24980000 -1.53490000 3.00850000
10.19370000 -1.52700000 2.82530000
10.22550000 -1.52920000 2.90460000
10.28450000 -1.49750000 2.85970000
10.24800000 -1.52210000 2.82570000
10.27360000 -1.52270000 2.93180000
10.26680000 -1.53900000 3.17150000
10.32170000 -1.53640000 3.17130000
10.67320000 -1.51050000 4.27960000
10.67430000 -1.55310000 4.31320000
10.64580000 -1.54870000 4.23450000
10.62900000 -1.58050000 4.29430000
10.66370000 -1.58570000 4.37400000
10.59730000 -1.57660000 4.20610000
10.55190000 -1.57700000 4.18090000
9.83150000 -1.35030000 1.92900000
8.30780000 -1.14150000 7.25860000
8.47980000 -1.19210000 7.19600000
8.34080000 -1.20040000 7.22610000
8.67560000 -1.20600000 7.12740000
8.39830000 -1.23610000 7.17110000
8.34140000 -1.23710000 7.10260000
8.44190000 -1.25200000 7.12420000
8.61820000 -1.24370000 7.13010000
8.46980000 -1.22010000 7.18530000
8.49060000 -1.24830000 7.14860000
9.41820000 -1.34390000 6.75560000
8.93020000 -1.28220000 7.00930000
8.92810000 -1.23410000 7.02280000
8.78330000 -1.26870000 7.06660000
8.88550000 -1.30810000 6.99960000
9.16400000 -1.31210000 6.89640000
8.90230000 -1.32410000 6.95050000
8.66030000 -1.28680000 7.03180000
9.11620000 -1.35970000 6.83920000
8.95090000 -1.31610000 6.97360000
9.06510000 -1.32860000 6.92710000
8.68820000 -1.27900000 7.07460000
8.58940000 -1.26370000 7.11160000
8.78480000 -1.29710000 7.03070000
9.05430000 -1.34450000 6.68110000
9.19890000 -1.36360000 6.84050000
9.32850000 -1.37330000 6.78470000
9.44560000 -1.40650000 6.68170000
9.61910000 -1.43960000 6.53170000
9.74350000 -1.40150000 6.54160000
9.54110000 -1.40330000 6.65650000
9.67760000 -1.43290000 6.55330000
9.87850000 -1.37070000 6.45790000
9.87240000 -1.43900000 6.44170000
9.81350000 -1.45970000 6.44830000
9.76770000 -1.46480000 6.43530000
9.77830000 -1.46330000 6.26640000
10.17150000 -1.46600000 6.21470000
10.07730000 -1.48980000 6.26440000
10.23910000 -1.53030000 6.10630000
10.11230000 -1.51970000 6.16020000
9.87910000 -1.47810000 6.36380000
7.95840000 -1.15470000 7.32230000
7.86800000 -1.15260000 7.32440000
7.78060000 -1.13320000 7.36470000
8.07360000 -1.16340000 7.30330000
8.14030000 -1.14850000 7.30180000
8.20410000 -1.19120000 7.25860000
8.10230000 -1.19710000 7.24270000
8.28490000 -1.21930000 7.20450000
10.67720000 -1.58800000 5.70290000
10.33860000 -1.51310000 6.05750000
10.32910000 -1.55500000 5.96110000
10.39780000 -1.54730000 5.95360000
10.49970000 -1.51850000 5.90040000
10.58220000 -1.55200000 5.81320000
10.49650000 -1.56380000 5.82160000
10.61580000 -1.59270000 5.71980000
9.01040000 0.68080000 -3.59020000
8.88920000 0.75190000 -2.40360000
9.18170000 0.62940000 -2.45510000
9.40360000 0.50330000 -2.70990000
8.81230000 0.75620000 -3.86690000
8.44360000 0.88890000 -2.70310000
8.06970000 0.97240000 -4.51840000
7.70160000 1.05750000 -3.83040000
8.51260000 0.85570000 -4.11310000
7.56260000 1.07560000 -5.38030000
7.81290000 0.98860000 -5.74020000
8.09820000 0.94180000 -5.18400000
7.62930000 0.99330000 -6.12330000
8.11210000 0.85700000 -5.93130000
6.77330000 1.24810000 -5.55580000
8.33910000 0.83360000 -5.47790000
7.83520000 0.90130000 -6.24470000
8.36430000 0.74710000 -5.93550000
7.99430000 0.80560000 -6.37810000
8.31220000 0.65820000 -6.36320000
8.11990000 0.64910000 -6.66790000
8.59660000 0.68440000 -5.68070000
8.56850000 0.57620000 -6.17870000
8.86590000 0.50660000 -5.77150000
8.87040000 0.43550000 -6.00410000
8.75860000 0.41700000 -6.26650000
8.44020000 0.52030000 -6.53810000
8.29530000 0.50380000 -6.75210000
8.36290000 0.22020000 -6.87190000
8.07440000 0.32780000 -7.06650000
8.21960000 0.38260000 -6.94270000
8.64370000 0.40360000 -6.47080000
8.92520000 0.28940000 -6.20440000
8.73570000 0.29030000 -6.47350000
8.52950000 0.39440000 -6.63080000
8.47910000 0.32050000 -6.73980000
8.70010000 0.18670000 -6.55660000
8.55770000 0.22110000 -6.70090000
8.27800000 0.43240000 -6.85460000
8.53000000 -0.09320000 -6.72320000
8.33740000 -0.03540000 -6.89710000
9.22750000 0.57500000 -3.44970000
9.43130000 0.44610000 -3.48620000
9.11870000 0.59840000 -4.07260000
9.24090000 0.50440000 -4.26650000
9.63610000 0.29510000 -3.51600000
9.51600000 0.32260000 -4.11400000
9.21480000 0.44140000 -4.85810000
9.32110000 0.32750000 -5.04460000
9.56650000 0.20360000 -4.60010000
9.76160000 0.16620000 -3.69480000
9.84190000 0.06850000 -3.73440000
9.71800000 0.14660000 -4.11480000
9.82300000 0.00680000 -4.03700000
9.74950000 0.07310000 -4.25370000
9.72370000 0.02690000 -4.46800000
9.72480000 -0.03130000 -4.51520000
9.84710000 -0.07760000 -3.98250000
9.65650000 0.11960000 -4.53810000
9.74730000 -0.14160000 -4.39180000
9.66590000 -0.04910000 -4.73510000
8.89940000 0.67740000 -4.53710000
8.61360000 0.78660000 -4.81350000
8.66700000 0.72650000 -5.18530000
8.92020000 0.60640000 -5.05720000
7.93100000 0.27080000 -4.96120000
7.80250000 0.29990000 -4.97470000
7.66060000 0.31870000 -5.41620000
7.83290000 0.26700000 -5.27570000
8.06890000 0.24840000 -4.60730000
8.11600000 0.21910000 -4.69180000
7.96600000 0.24430000 -5.03670000
8.09850000 0.17560000 -4.87220000
8.06900000 0.12650000 -5.04740000
7.92540000 0.19420000 -5.22470000
7.77610000 0.24430000 -5.41210000
7.86290000 0.15420000 -5.43540000
8.14030000 0.09070000 -5.03720000
7.77960000 0.19440000 -5.47410000
7.84950000 0.14740000 -5.56380000
8.37610000 0.04290000 -4.65670000
7.77210000 0.18520000 -6.36080000
8.74860000 -0.01440000 -4.82340000
8.19210000 0.24670000 -3.49980000
8.26390000 0.22510000 -3.97110000
8.40110000 0.20300000 -3.32880000
8.36780000 0.19510000 -3.77070000
8.52760000 0.04610000 -3.49890000
8.52960000 0.07820000 -3.31230000
8.47790000 0.13520000 -3.48170000
8.44980000 0.17580000 -3.41060000
8.42420000 0.13890000 -3.76940000
8.46270000 0.06170000 -3.82870000
8.55680000 0.01460000 -3.59270000
8.34570000 0.18210000 -3.95340000
8.32880000 0.15720000 -4.14140000
8.43420000 0.05270000 -4.02290000
8.41410000 0.03880000 -4.29780000
8.57370000 0.00400000 -3.74010000
8.83540000 -0.04310000 -3.39040000
7.39140000 0.37720000 -4.61440000
6.43290000 0.55010000 -2.50530000
8.16510000 0.22950000 -4.39320000
8.24600000 0.20750000 -4.25290000
8.29720000 0.13330000 -4.33310000
8.34200000 0.07340000 -4.35950000
9.29910000 -0.11290000 -4.17570000
9.20200000 -0.09460000 -4.31150000
9.29580000 -0.11210000 -3.82420000
9.37110000 -0.13600000 -4.04400000
9.39730000 -0.17310000 -4.10690000
9.35460000 -0.14380000 -4.23710000
9.25790000 -0.10920000 -4.45410000
9.28300000 -0.11340000 -4.34700000
9.18770000 -0.09100000 -4.61400000
9.30540000 -0.16140000 -4.51730000
9.30160000 -0.13700000 -4.47070000
9.24770000 -0.11590000 -4.61310000
9.26310000 -0.15380000 -4.66320000
9.30030000 -0.23150000 -4.55600000
9.03440000 -0.05720000 -4.92380000
9.20510000 -0.10930000 -4.77340000
9.14850000 -0.08300000 -4.79820000
9.22040000 -0.20000000 -4.81010000
9.22470000 -0.59560000 -4.65230000
9.34590000 -0.16480000 -4.34510000
9.32300000 -0.14400000 -4.39620000
9.32640000 -0.17080000 -4.44180000
9.32810000 -0.20870000 -4.45590000
9.36670000 -0.21250000 -4.28710000
9.34060000 -0.43160000 -4.28900000
8.15170000 0.21460000 -4.58150000
8.20750000 0.18080000 -4.52290000
8.22770000 0.12880000 -4.59450000
8.17240000 0.18070000 -4.64580000
8.25130000 0.08120000 -4.67970000
9.46260000 0.19020000 -5.07300000
9.57830000 0.08900000 -4.92470000
9.58250000 0.02230000 -4.99040000
9.57970000 -0.07960000 -5.00760000
9.59180000 -0.41860000 -4.80090000
9.64910000 -0.71940000 -4.35960000
8.91670000 0.53910000 -5.50690000
9.09540000 0.38960000 -5.60340000
9.02670000 0.31200000 -5.99010000
9.16360000 0.27000000 -5.76610000
9.05070000 0.22120000 -6.06120000
9.25260000 0.16280000 -5.71840000
9.30510000 0.24580000 -5.43980000
9.37200000 0.14220000 -5.46580000
9.46860000 0.10230000 -5.24660000
9.47970000 0.02970000 -5.27750000
9.38530000 0.04520000 -5.50270000
9.28110000 0.07630000 -5.70900000
9.40070000 -0.03590000 -5.47040000
9.21480000 -0.06670000 -5.82120000
9.27580000 -0.34200000 -5.64280000
9.11780000 0.11250000 -5.99350000
8.90190000 -0.03310000 -5.33590000
8.85080000 -0.02320000 -5.56140000
8.95890000 -0.06710000 -5.44270000
8.91230000 -0.07510000 -5.56490000
8.95950000 -0.05290000 -5.37360000
8.98960000 -0.12040000 -5.42420000
8.93740000 -0.17570000 -5.53830000
8.49040000 0.05500000 -6.09970000
8.71380000 0.00720000 -5.78400000
8.63630000 0.02680000 -5.96140000
8.62200000 0.02490000 -6.02790000
8.67850000 -0.00170000 -5.98780000
8.65840000 -0.02420000 -6.04840000
8.61120000 0.01030000 -6.08640000
8.51670000 0.04670000 -6.15530000
8.76470000 -0.00110000 -5.61760000
8.80760000 -0.03270000 -5.71370000
8.71450000 -0.00350000 -5.87880000
8.74210000 -0.05160000 -5.89040000
8.83560000 -0.09310000 -5.71390000
8.76860000 -0.12100000 -5.84250000
8.70380000 -0.03490000 -5.97280000
8.69460000 -0.07860000 -5.99300000
8.69760000 -0.34340000 -5.91420000
8.91410000 0.17340000 -6.29140000
8.90820000 0.23760000 -6.27640000
8.99970000 0.03280000 -6.17290000
9.02550000 -0.53690000 -6.01870000
8.88370000 -0.26110000 -6.28680000
8.80560000 0.07810000 -6.43820000
8.66490000 -0.16820000 -6.57660000
8.61040000 -0.02330000 -6.11880000
8.57120000 0.00190000 -6.16590000
8.60790000 -0.07830000 -6.12310000
8.36790000 0.07100000 -6.32280000
8.49340000 0.04160000 -6.22510000
8.44820000 0.03550000 -6.29740000
8.40520000 0.02010000 -6.37820000
8.46970000 -0.02360000 -6.31120000
8.45680000 -0.07090000 -6.32450000
8.17170000 0.12000000 -6.49800000
8.32870000 0.07070000 -6.43230000
8.17390000 0.09240000 -6.58000000
8.32840000 0.03330000 -6.46820000
8.25020000 -0.01160000 -6.54060000
8.27190000 -0.40840000 -6.46090000
8.52140000 0.00720000 -6.23490000
8.54330000 -0.03140000 -6.21960000
8.46420000 -0.19040000 -6.28890000
8.48650000 -0.72870000 -6.69130000
8.54430000 -0.52200000 -6.11910000
8.37410000 -0.62310000 -6.32450000
8.69080000 -0.76350000 -6.44270000
9.10550000 -0.07200000 -4.93860000
9.17340000 -0.09860000 -4.85460000
9.15750000 -0.10890000 -4.94050000
9.20420000 -0.14340000 -4.84660000
9.14720000 -0.16670000 -5.01950000
9.05260000 -0.06270000 -5.05400000
9.07480000 -0.07680000 -5.09440000
9.00820000 -0.06390000 -5.25390000
9.05850000 -0.09870000 -5.21770000
9.04170000 -0.07030000 -5.17410000
9.09050000 -0.10280000 -5.13360000
9.06600000 -0.13540000 -5.22900000
9.02680000 -0.09430000 -5.30230000
9.02650000 -0.17250000 -5.33100000
9.10840000 -0.08270000 -5.01480000
9.12200000 -0.10700000 -5.04800000
9.11070000 -0.14670000 -5.11540000
9.05300000 -0.47700000 -5.16840000
9.46470000 -0.28660000 -5.24040000
9.31770000 -0.92790000 -5.33920000
8.88680000 -0.43160000 -5.57570000
9.23470000 -0.84090000 -5.55800000
9.44380000 -0.84560000 -5.02940000
8.84410000 -0.84060000 -5.56280000
8.91180000 -0.98290000 -5.38490000
9.05350000 -0.96520000 -5.02270000
9.05700000 -0.87070000 -5.86800000
8.48170000 -0.91310000 -6.14480000
8.70010000 -0.89460000 -5.79750000
8.58970000 -1.12690000 -6.49680000
8.75710000 -1.14240000 -6.27290000
8.68340000 -1.05540000 -5.81580000
8.82160000 -1.07550000 -5.57620000
8.94090000 -1.10330000 -5.29780000
8.87390000 -1.16340000 -5.48310000
9.07800000 -1.14840000 -5.75040000
8.72330000 -1.16020000 -5.77940000
8.53790000 -1.12370000 -6.07860000
8.66110000 -1.18810000 -5.92520000
8.76760000 -1.12010000 -5.68110000
8.82370000 -1.18140000 -5.61220000
8.81920000 -1.21470000 -5.66930000
8.82790000 -1.23840000 -5.71390000
8.69200000 -1.22800000 -5.95800000
8.97080000 -1.21770000 -5.91060000
8.92440000 -1.18120000 -6.00950000
9.03370000 -1.24700000 -5.77910000
8.97290000 -1.27880000 -5.81210000
8.95910000 -1.25310000 -5.89510000
8.87510000 -1.17250000 -6.09100000
8.46980000 -1.03940000 -6.16170000
8.55260000 -1.19530000 -6.13890000
8.56460000 -1.22260000 -6.20840000
8.81510000 -1.19750000 -6.16880000
8.84290000 -1.21890000 -6.11540000
8.80350000 -1.23710000 -6.14760000
8.67950000 -1.20420000 -6.34700000
8.73770000 -1.19130000 -6.28000000
8.63740000 -1.22790000 -6.35620000
8.61890000 -1.19040000 -6.43030000
8.67630000 -1.24050000 -6.27890000
8.74260000 -1.22900000 -6.23570000
8.63630000 -1.24430000 -6.26110000
8.75750000 -1.25450000 -6.15720000
8.72050000 -1.25750000 -6.11630000
8.71390000 -1.25080000 -6.20280000
8.87920000 -1.23350000 -6.05350000
8.92390000 -1.24090000 -5.97300000
8.88000000 -1.26490000 -5.99040000
8.76000000 -1.25670000 -5.96690000
8.75480000 -1.26210000 -6.03570000
8.82970000 -1.27180000 -6.00150000
8.84270000 -1.25450000 -6.06760000
8.79890000 -1.26380000 -6.07830000
8.86350000 -1.27330000 -5.86260000
8.91600000 -1.27220000 -5.91260000
9.72970000 0.32950000 -0.52370000
9.92180000 0.18660000 -0.04030000
10.10910000 0.03060000 0.54030000
10.02830000 0.07250000 -0.33410000
10.14210000 -0.02930000 0.38640000
10.09450000 -0.01360000 -0.40530000
10.17760000 -0.11340000 0.32820000
10.15400000 -0.08390000 0.09520000
10.16550000 -0.15480000 0.00430000
10.18060000 -0.20340000 0.25280000
10.12310000 -0.08930000 -0.53950000
10.12760000 -0.14670000 -0.59490000
10.12730000 -0.33440000 -0.11660000
10.14070000 -0.22980000 -0.29410000
10.12290000 -0.48900000 0.21370000
10.19260000 -0.04880000 0.94370000
10.21750000 -0.11590000 0.90720000
10.24380000 -0.16450000 1.17100000
9.81470000 -0.16710000 1.19880000
9.78300000 -0.15590000 1.12290000
9.83760000 -0.19980000 1.13500000
9.74960000 -0.14900000 0.95250000
9.81930000 -0.19930000 0.94370000
9.81460000 -0.17950000 1.04550000
9.79820000 -0.17180000 0.88940000
9.82830000 -0.24250000 0.96730000
10.21230000 -0.26740000 0.95100000
10.21620000 -0.17960000 0.73340000
9.74020000 -0.14790000 0.76010000
9.79260000 -0.18190000 0.73990000
10.19700000 -0.10820000 0.54130000
9.81280000 -0.19600000 0.85310000
9.80940000 -0.22720000 0.75340000
9.78810000 -0.34140000 0.63400000
9.83240000 -0.28900000 1.06430000
10.20590000 -0.23640000 0.54800000
10.16970000 -0.48850000 0.81800000
10.17510000 -0.34070000 0.52160000
10.24490000 -0.26110000 1.28480000
10.17050000 -0.60140000 1.13830000
9.83520000 -0.17230000 1.30230000
9.85420000 -0.18510000 1.34820000
9.85880000 -0.20640000 1.29890000
9.87200000 -0.22390000 1.37630000
9.85960000 -0.27550000 1.29480000
9.84800000 -0.19830000 1.23040000
9.85230000 -0.24180000 1.20480000
10.13160000 -0.65710000 0.70450000
10.07720000 -1.00260000 0.82640000
10.20300000 -0.16730000 0.42680000
10.16580000 -0.33340000 0.32500000
10.14170000 -0.48790000 0.50590000
10.12800000 -0.62000000 0.41910000
10.06340000 -0.78470000 0.17000000
10.08860000 -0.80910000 0.46070000
10.06550000 -1.04190000 0.64840000
9.06860000 0.69190000 -0.78680000
9.51060000 0.47800000 -0.30510000
9.25950000 0.60470000 -1.19530000
9.53810000 0.44370000 -1.62370000
9.82090000 0.23470000 -1.67050000
8.62870000 0.12850000 -1.22470000
8.64020000 0.09130000 -1.28890000
8.65170000 0.04410000 -1.17860000
8.65640000 0.03440000 -0.49280000
8.64920000 0.03120000 -0.56410000
8.69540000 0.00720000 -0.53460000
8.66440000 0.00860000 -0.58750000
8.71180000 -0.00130000 -0.69000000
8.67660000 0.00320000 -0.64450000
8.85930000 -0.03200000 -0.72390000
8.63370000 0.05420000 -0.65190000
8.63630000 0.00690000 -0.66800000
8.65570000 -0.00260000 -0.74240000
9.13060000 -0.08920000 -1.47750000
9.29960000 -0.09690000 -0.14890000
8.70520000 -0.00320000 -0.89360000
8.64480000 0.00450000 -0.86390000
8.67250000 0.01530000 -1.08130000
8.78160000 -0.02510000 -1.19330000
8.70040000 0.01140000 -1.24770000
8.63690000 0.09600000 -1.07050000
8.64820000 0.04670000 -1.02820000
9.66170000 0.33190000 -2.67450000
9.87890000 0.15660000 -2.62590000
9.98020000 0.04500000 -2.57390000
9.93260000 0.12480000 -2.12080000
9.97730000 0.10870000 -1.02300000
10.01680000 0.05650000 -1.31270000
9.57890000 -0.15200000 -0.74320000
9.57100000 -0.15800000 -1.17070000
10.06900000 -0.02310000 -1.31050000
10.01310000 0.03940000 -1.91720000
10.08170000 -0.02450000 -0.90510000
10.08790000 -0.25110000 -0.97980000
10.08160000 -0.13140000 -1.68920000
10.08900000 -0.08600000 -1.36740000
10.04180000 -0.39680000 -1.45600000
10.01080000 -0.73020000 -0.90020000
9.53950000 -0.15980000 -1.61750000
9.58140000 -0.17100000 -1.68250000
9.62840000 -0.19920000 -1.63970000
9.60450000 -0.17590000 -1.52600000
9.56670000 -0.16230000 -1.36780000
9.64550000 -0.23520000 -1.61090000
9.63420000 -0.19840000 -1.54620000
9.64040000 -0.20260000 -1.35870000
9.63350000 -0.18620000 -1.26380000
9.60350000 -0.17560000 -1.38970000
9.61290000 -0.17010000 -1.20020000
9.65020000 -0.19420000 -1.14550000
9.66200000 -0.22900000 -1.21340000
9.65180000 -0.21170000 -1.29150000
9.65080000 -0.24940000 -1.39070000
9.65560000 -0.27930000 -1.29680000
9.63510000 -0.20170000 -1.45290000
9.64970000 -0.23800000 -1.51870000
9.64520000 -0.28140000 -1.57960000
9.62000000 -0.53120000 -1.41860000
8.61680000 0.12450000 -1.47110000
8.56600000 0.15910000 -1.57290000
8.58760000 0.14730000 -1.85850000
8.64520000 0.07710000 -1.75180000
8.69200000 0.01780000 -1.53620000
8.65360000 0.07600000 -1.42020000
8.67700000 0.02710000 -1.69250000
8.58390000 0.14660000 -1.31960000
8.74090000 -0.01520000 -1.44430000
8.75890000 -0.02640000 -1.67450000
8.70780000 -0.00590000 -1.75240000
8.67880000 0.01030000 -1.93430000
8.78000000 -0.03540000 -2.01260000
8.71190000 -0.01480000 -2.03830000
9.14970000 -0.09740000 -2.47790000
10.05110000 -0.04840000 -2.34180000
10.06680000 -0.05560000 -1.94820000
10.00200000 -0.02720000 -2.79600000
10.04880000 -0.08020000 -2.47040000
10.06770000 -0.11350000 -2.33550000
10.04670000 -0.14080000 -2.48280000
10.07860000 -0.11750000 -2.05130000
10.06190000 -0.18040000 -2.30020000
10.06900000 -0.19620000 -1.96950000
9.64330000 -0.23400000 -1.70630000
9.61620000 -0.19020000 -1.75650000
9.64240000 -0.25380000 -1.77720000
9.61950000 -0.39830000 -2.03780000
9.97610000 -0.62050000 -2.01500000
10.02080000 -0.36820000 -2.22750000
9.51700000 -0.15980000 -2.07380000
9.60690000 -0.18970000 -1.92840000
9.57330000 -0.17080000 -1.84290000
9.57520000 -0.17690000 -1.99450000
9.62900000 -0.22320000 -1.98580000
9.59110000 -0.18030000 -2.09550000
9.62580000 -0.21350000 -2.05940000
9.63470000 -0.27250000 -2.11170000
9.58200000 -0.17920000 -2.26110000
9.55940000 -0.17090000 -2.43350000
9.61580000 -0.21040000 -2.39620000
9.60020000 -0.19080000 -2.50900000
9.62770000 -0.26330000 -2.46760000
9.62400000 -0.22250000 -2.56460000
9.53810000 -0.16460000 -2.66190000
9.59960000 -0.18990000 -2.60070000
9.62150000 -0.21410000 -2.20980000
9.62990000 -0.26740000 -2.29880000
9.60120000 -0.49700000 -2.41280000
9.63560000 -0.21630000 -1.87090000
9.63810000 -0.27790000 -1.93910000
9.58310000 -0.83770000 -1.71600000
8.09510000 0.26510000 -2.04850000
8.43680000 0.19750000 -1.69780000
8.45450000 0.20320000 -2.47980000
8.51260000 0.18300000 -1.90720000
8.53330000 0.17570000 -2.24840000
8.60720000 0.12200000 -1.99790000
8.60430000 0.11210000 -2.20690000
8.64270000 0.05150000 -2.05030000
8.64860000 0.02890000 -2.26170000
8.49790000 0.17630000 -2.79470000
8.55300000 0.14630000 -2.62830000
8.53320000 0.17320000 -2.52950000
8.54830000 0.11720000 -2.94260000
8.59830000 0.08520000 -2.53410000
8.60140000 0.04680000 -2.70350000
8.58120000 0.04950000 -3.00020000
8.63200000 0.00940000 -2.76140000
8.66260000 -0.00870000 -2.86860000
8.60340000 0.01850000 -3.05410000
8.58810000 0.01700000 -3.23590000
8.67530000 -0.01530000 -3.16130000
8.50440000 0.14340000 -3.20560000
8.55010000 0.16670000 -2.39330000
8.60910000 0.09860000 -2.32730000
8.57900000 0.13840000 -2.44140000
8.65530000 0.00640000 -2.47520000
8.69600000 -0.01830000 -2.62090000
8.70750000 -0.01670000 -2.33510000
8.84760000 0.00230000 0.61750000
8.88400000 -0.02700000 0.11880000
9.63450000 -0.13290000 0.52630000
9.70370000 -0.14960000 0.21320000
9.72320000 -0.14940000 0.45370000
9.77390000 -0.18400000 0.39350000
9.75130000 -0.15920000 0.44220000
8.66430000 0.16910000 0.30160000
8.71070000 0.15600000 0.46460000
8.73980000 0.14840000 0.36560000
8.71710000 0.16430000 0.30440000
8.75730000 0.10420000 0.39010000
8.75260000 0.12160000 0.49370000
8.75570000 0.11050000 0.31840000
8.73090000 0.14060000 0.26620000
8.74520000 0.08450000 0.26260000
8.76080000 0.06100000 0.35000000
8.77650000 0.03020000 0.30660000
8.71240000 0.07630000 -0.06620000
8.69660000 0.04950000 -0.10840000
8.72200000 0.02220000 -0.08880000
8.70350000 0.02060000 -0.17590000
8.77510000 0.00310000 -0.05710000
8.74860000 0.03800000 0.21940000
8.82780000 -0.00080000 0.33510000
8.77750000 0.01420000 0.16320000
8.72380000 0.10260000 0.07010000
8.73320000 0.02910000 0.10440000
8.72520000 0.05500000 0.13910000
8.74530000 0.02110000 0.05330000
8.72000000 0.07060000 0.01780000
8.71660000 0.03850000 -0.00020000
8.73380000 0.10390000 0.18860000
8.72170000 0.15430000 0.60470000
8.78940000 0.07160000 0.60950000
8.79810000 0.02920000 0.42370000
9.64650000 -0.15330000 -0.21070000
9.63150000 -0.15530000 -0.41780000
9.68880000 -0.17100000 -0.27240000
9.70480000 -0.19680000 -0.38870000
9.67750000 -0.17190000 -0.44450000
9.70880000 -0.25850000 -0.46140000
9.70080000 -0.20310000 -0.50260000
9.64910000 -0.14690000 -0.01680000
9.65110000 -0.16410000 -0.54450000
9.68290000 -0.19080000 -0.61480000
9.69550000 -0.25040000 -0.65200000
9.70490000 -0.17330000 -0.15680000
9.73060000 -0.18620000 -0.07780000
9.71080000 -0.16090000 0.02930000
9.75190000 -0.22840000 -0.01490000
9.73880000 -0.18290000 0.01570000
9.76420000 -0.22290000 0.13730000
9.74980000 -0.17260000 0.26640000
9.73650000 -0.16730000 0.12830000
9.77320000 -0.21720000 0.29110000
9.74820000 -0.27510000 -0.00530000
9.75370000 -0.19240000 0.08520000
9.73210000 -0.21270000 -0.17860000
9.72070000 -0.22750000 -0.30340000
9.71350000 -0.51060000 -0.02130000
8.70790000 0.00990000 -0.32480000
8.68580000 0.04180000 -0.19180000
8.68930000 0.02370000 -0.28160000
8.66520000 0.01970000 -0.40040000
8.68040000 0.01170000 -0.44640000
8.64550000 0.02640000 -0.45840000
8.66400000 0.04780000 -0.38140000
9.75000000 -0.15570000 0.64210000
9.77890000 -0.17950000 0.58010000
9.77730000 -0.18470000 0.49080000
9.79340000 -0.23010000 0.55760000
9.78490000 -0.24260000 0.41400000
10.00860000 -0.87560000 -0.26950000
10.05370000 -0.92540000 0.41270000
10.01380000 -1.09530000 0.30170000
10.02190000 -1.16550000 0.45620000
9.97130000 -1.22440000 0.06610000
9.61510000 -1.02300000 -0.64150000
9.65770000 -1.14400000 0.16540000
9.64730000 -1.30620000 0.10380000
9.61850000 -1.27250000 -0.25630000
9.63170000 -1.32570000 -0.12380000
9.66910000 -1.36270000 0.19500000
10.10620000 -0.11160000 -0.97750000
9.65980000 -0.17950000 -0.75310000
9.63700000 -0.16430000 -0.70690000
9.63700000 -0.17270000 -0.87750000
9.67140000 -0.19960000 -0.83130000
9.62550000 -0.16930000 -1.04060000
9.67110000 -0.20270000 -0.98190000
9.66720000 -0.22820000 -1.11560000
9.65760000 -0.19180000 -1.05200000
9.67290000 -0.24780000 -1.05170000
9.67870000 -0.23380000 -0.92970000
9.67690000 -0.29980000 -0.83360000
9.66700000 -0.28690000 -1.09380000
9.69010000 -0.22070000 -0.71790000
9.68750000 -0.25240000 -0.76960000
9.98830000 -0.82850000 -1.07860000
9.97610000 -0.98840000 -0.53460000
9.57380000 -1.13200000 -1.14960000
9.98110000 -0.71820000 -1.44620000
9.99120000 -0.74880000 -1.30460000
9.89410000 -1.08000000 -1.91320000
9.94320000 -0.99090000 -1.26020000
9.93730000 -1.09760000 -1.01870000
9.92200000 -1.17550000 -1.16930000
9.90900000 -1.17970000 -1.44180000
9.92010000 -1.20720000 -1.35400000
9.56450000 -1.28150000 -1.22380000
9.54680000 -1.26450000 -1.63760000
9.55780000 -1.31360000 -1.50290000
9.87950000 -1.28450000 -1.85500000
9.87140000 -1.38550000 -1.63140000
9.55260000 -1.31620000 -1.70180000
9.58640000 -1.37290000 -1.66470000
9.62730000 -1.40430000 -1.50240000
9.58980000 -1.36990000 -1.45860000
9.66940000 -1.42730000 -1.61440000
9.83630000 -1.43260000 -1.81860000
9.85670000 -1.39450000 -1.94850000
9.61900000 -1.40400000 -1.91200000
9.71540000 -1.44060000 -2.05960000
9.73930000 -1.44640000 -1.69840000
9.80850000 -1.44710000 -1.70420000
9.78310000 -1.44840000 -1.97350000
9.53680000 -1.26300000 -1.86610000
9.54500000 -1.31510000 -1.84470000
9.53830000 -1.21620000 -2.05410000
9.54110000 -1.30580000 -1.97530000
9.54870000 -1.30230000 -2.11930000
9.58230000 -1.36990000 -2.06150000
9.56200000 -1.35250000 -1.89740000
9.93990000 -1.22920000 -0.56070000
9.90310000 -1.38120000 -0.99720000
9.92200000 -1.37400000 -0.66320000
9.94710000 -1.35690000 -0.13630000
9.63440000 -1.35740000 -0.22630000
9.61730000 -1.32280000 -0.33370000
9.65030000 -1.38680000 -0.34070000
9.67950000 -1.40630000 -0.21810000
9.64560000 -1.36700000 -0.14430000
9.67840000 -1.39610000 -0.06430000
9.82330000 -1.46110000 -0.15120000
9.78570000 -1.45110000 -0.04670000
9.71740000 -1.42570000 -0.12210000
9.74400000 -1.44370000 -0.35700000
9.92460000 -1.40240000 -0.40860000
9.91530000 -1.44770000 -0.17220000
9.94040000 -1.42230000 -0.08230000
9.92270000 -1.42910000 -0.23990000
9.86840000 -1.46220000 -0.21470000
9.89470000 -1.44990000 -0.32530000
9.67660000 -1.41360000 -0.45540000
9.84820000 -1.46130000 -0.34680000
9.79960000 -1.45810000 -0.47900000
9.90910000 -1.42950000 -0.58040000
9.84130000 -1.46130000 -0.53390000
9.87280000 -1.45300000 -0.64010000
9.77850000 -1.45310000 -0.68940000
9.83420000 -1.45740000 -0.70920000
9.89690000 -1.42200000 -0.76840000
9.86810000 -1.44750000 -0.82700000
9.83770000 -1.45220000 -0.90870000
9.87680000 -1.45650000 -0.45360000
9.59480000 -1.28610000 -0.66580000
9.58860000 -1.32270000 -0.84070000
9.60820000 -1.35100000 -0.69800000
9.63100000 -1.38410000 -0.68620000
9.59830000 -1.35920000 -0.94180000
9.62600000 -1.38990000 -0.92840000
9.57630000 -1.31760000 -1.04930000
9.60680000 -1.31030000 -0.48270000
9.60860000 -1.34010000 -0.58180000
9.62890000 -1.37110000 -0.49560000
9.71220000 -1.43590000 -0.84010000
9.80080000 -1.45440000 -1.02350000
9.91410000 -1.29480000 -1.12480000
9.90130000 -1.30320000 -1.39540000
9.86530000 -1.43460000 -1.13060000
9.89090000 -1.41690000 -0.95580000
9.58300000 -1.35160000 -1.23410000
9.63500000 -1.40420000 -1.32060000
9.65290000 -1.41480000 -1.16130000
9.88390000 -1.39230000 -1.33580000
9.73660000 -1.44570000 -1.26830000
9.81430000 -1.45450000 -1.21490000
9.84430000 -1.44310000 -1.33700000
9.79620000 -1.45240000 -1.34860000
9.86420000 -1.41650000 -1.44990000
9.82550000 -1.44520000 -1.46330000
9.85010000 -1.42750000 -1.57450000
9.78760000 -1.45000000 -1.52170000
9.86640000 0.13550000 -3.04800000
9.92280000 0.05040000 -3.20830000
9.95770000 -0.02890000 -3.22660000
10.00990000 -0.09770000 -2.83460000
9.91700000 0.00150000 -3.46880000
9.48930000 -0.17620000 -3.66310000
9.49990000 -0.17470000 -3.54740000
9.44600000 -0.14230000 -3.53850000
9.52340000 -0.19210000 -3.45650000
9.49970000 -0.15960000 -3.35410000
9.51810000 -0.22710000 -3.56790000
9.44590000 -0.14560000 -3.11110000
9.54680000 -0.17220000 -2.84730000
9.59050000 -0.19210000 -2.69510000
9.61000000 -0.24120000 -2.73810000
9.58650000 -0.19810000 -2.81560000
9.60280000 -0.24660000 -2.84300000
9.53870000 -0.17700000 -3.09930000
9.57770000 -0.20320000 -2.95960000
9.57220000 -0.21970000 -3.08520000
9.57610000 -0.26070000 -3.09610000
9.59720000 -0.30880000 -2.82320000
9.56190000 -0.76690000 -2.51100000
9.49990000 -0.15790000 -3.18180000
9.92350000 -0.09170000 -3.52270000
9.95160000 -0.38300000 -2.92670000
9.79770000 -0.82460000 -3.45260000
9.53040000 -0.17300000 -3.25010000
9.55140000 -0.20600000 -3.30640000
9.53630000 -0.18770000 -3.36140000
9.56220000 -0.21260000 -3.21500000
9.56220000 -0.24530000 -3.26920000
9.54760000 -0.27180000 -3.37060000
9.54110000 -0.38280000 -3.26890000
9.53950000 -0.22480000 -3.42390000
9.48980000 -0.31890000 -3.66130000
9.50620000 -0.26070000 -3.62790000
9.47900000 -0.68900000 -3.44110000
9.51130000 -0.96140000 -2.87900000
9.87170000 -0.00520000 -3.77390000
9.89740000 -0.00360000 -3.61980000
9.79460000 -0.48550000 -3.87430000
9.83770000 -0.18460000 -3.95950000
9.36730000 -0.12440000 -3.90410000
9.45680000 -0.16850000 -3.79870000
9.42850000 -0.13780000 -3.73520000
9.42160000 -0.14470000 -3.86300000
9.42060000 -0.15810000 -3.94790000
9.44360000 -0.18570000 -3.91630000
9.46530000 -0.22400000 -3.83980000
9.41950000 -0.23510000 -4.04420000
9.38970000 -0.58380000 -3.96710000
9.48970000 -0.20260000 -3.71430000
9.91880000 -0.76090000 -2.53550000
9.61130000 -0.21740000 -2.67250000
9.62140000 -0.26670000 -2.64130000
9.81970000 -1.04760000 -2.98600000
9.84660000 -1.19950000 -2.48510000
9.45650000 -1.08520000 -3.27460000
9.69170000 -1.08570000 -3.82440000
9.75610000 -1.33070000 -3.12210000
9.79670000 -1.33340000 -2.78920000
9.73690000 -1.35290000 -3.24570000
9.71450000 -1.36710000 -3.38610000
9.73560000 -1.38820000 -3.14900000
9.69220000 -1.42450000 -3.17510000
9.71370000 -1.40170000 -3.26980000
9.59490000 -1.40990000 -3.13760000
9.56820000 -1.40450000 -3.40590000
9.64400000 -1.42590000 -3.20340000
9.67420000 -1.42120000 -3.31170000
9.60970000 -1.41560000 -3.49370000
9.69060000 -1.40160000 -3.42000000
9.67750000 -1.32350000 -3.69560000
9.68160000 -1.38200000 -3.56920000
9.62660000 -1.41270000 -3.61130000
9.28970000 -1.10860000 -4.17380000
9.60280000 -1.23130000 -4.19760000
9.40090000 -1.08160000 -3.62630000
9.33900000 -1.20210000 -3.91010000
9.30600000 -1.23560000 -4.08680000
9.33060000 -1.28110000 -4.02090000
9.37990000 -1.21590000 -3.68740000
9.36340000 -1.27390000 -3.83030000
9.41320000 -1.28990000 -3.56660000
9.40620000 -1.32460000 -3.74530000
9.61160000 -1.38600000 -3.92040000
9.56380000 -1.40700000 -3.84550000
9.56470000 -1.40370000 -3.97600000
9.35820000 -1.31730000 -3.99540000
9.39420000 -1.34560000 -3.97540000
9.33430000 -1.31220000 -4.11440000
9.47600000 -1.37670000 -3.75810000
9.47790000 -1.38510000 -3.91610000
9.41640000 -1.37620000 -4.22710000
9.42510000 -1.24270000 -3.42770000
9.50150000 -1.21540000 -2.67980000
9.46580000 -1.27270000 -3.12900000
9.45580000 -1.32230000 -3.37290000
9.48260000 -1.36290000 -3.46900000
9.50290000 -1.33850000 -3.03090000
9.54970000 -1.38230000 -3.04550000
9.64490000 -1.38870000 -3.74440000
9.59700000 -1.40440000 -3.84430000
9.63080000 -1.35130000 -3.92840000
9.51900000 -0.99790000 -4.69360000
9.50590000 -1.32720000 -4.55470000
9.18930000 -1.11590000 -4.57450000
9.17250000 -1.22410000 -4.65060000
9.10670000 -1.14960000 -4.83650000
9.23640000 -1.20120000 -4.38840000
9.24230000 -1.27070000 -4.43910000
9.18990000 -1.27940000 -4.68170000
9.30050000 -1.32900000 -4.39670000
9.27440000 -1.34550000 -4.69300000
9.45700000 -1.28880000 -4.76540000
9.10150000 -1.23300000 -4.90720000
9.18350000 -1.29670000 -4.77220000
9.15460000 -1.30660000 -4.94030000
9.36930000 -1.29830000 -5.03910000
9.33670000 -1.24600000 -5.16350000
9.40990000 -1.33110000 -4.87010000
9.36470000 -1.34470000 -4.96060000
9.21370000 -1.33840000 -5.02250000
9.32500000 -1.36260000 -4.80510000
9.29280000 -1.35440000 -5.01390000
9.31450000 -1.34140000 -5.08080000
9.24080000 -1.34470000 -5.11780000
9.45100000 -1.35340000 -4.68060000
9.39170000 -1.36950000 -4.73550000
8.99690000 -1.17140000 -5.17080000
8.95850000 -1.22050000 -5.33750000
9.00760000 -1.21780000 -5.18330000
9.00650000 -1.25080000 -5.25880000
9.08590000 -1.26710000 -5.03640000
9.03850000 -1.26190000 -5.17730000
9.08820000 -1.29860000 -5.18860000
9.12690000 -1.32120000 -5.35070000
9.22010000 -1.21540000 -5.45280000
9.22500000 -1.28630000 -5.38940000
9.28120000 -1.25810000 -5.29540000
9.25760000 -1.30510000 -5.29900000
9.29150000 -1.30940000 -5.21970000
9.24600000 -1.33290000 -5.24060000
9.32360000 -1.31150000 -5.14180000
9.28050000 -1.33770000 -5.16100000
8.89150000 -1.22130000 -5.51030000
8.90270000 -1.24970000 -5.56660000
8.98890000 -1.26630000 -5.38080000
8.98280000 -1.28370000 -5.51170000
9.16340000 -1.25510000 -5.54500000
9.11110000 -1.28000000 -5.62020000
9.11750000 -1.23730000 -5.64830000
9.12190000 -1.31020000 -5.51580000
9.07410000 -1.27170000 -5.69090000
9.03110000 -1.28920000 -5.71110000
8.99360000 -1.29510000 -5.67010000
8.95860000 -1.28830000 -5.75000000
8.90870000 -1.27290000 -5.68880000
9.03560000 -1.30240000 -5.58760000
9.06240000 -1.30020000 -5.63430000
9.19310000 -1.32400000 -5.35870000
9.18980000 -1.28960000 -5.45910000
9.55890000 -1.32240000 -4.33540000
9.53730000 -1.37120000 -4.32000000
9.48890000 -1.38560000 -4.39140000
9.49220000 -1.37000000 -4.49780000
9.57680000 -1.35060000 -4.21340000
9.50650000 -1.39450000 -4.22190000
9.43650000 -1.38500000 -4.38060000
9.58940000 -1.38400000 -4.03550000
9.59990000 -1.33700000 -4.12530000
9.56580000 -1.38420000 -4.15230000
9.55230000 -1.39820000 -4.08580000
9.52060000 -1.40090000 -4.04870000
9.28620000 -1.27180000 -4.23320000
9.32800000 -1.32730000 -4.24880000
9.45100000 -1.37930000 -4.53510000
9.52200000 -1.27400000 -2.42770000
9.52570000 -1.31780000 -2.54580000
9.54060000 -1.21790000 -2.19560000
9.53570000 -1.27340000 -2.27500000
9.56350000 -1.34780000 -2.19420000
9.58130000 -1.37560000 -2.27190000
9.53700000 -1.31610000 -2.33010000
9.55590000 -1.35480000 -2.43130000
9.62100000 -1.40550000 -2.30460000
9.83970000 -1.35880000 -2.29860000
9.81570000 -1.37700000 -2.53280000
9.80650000 -1.41870000 -2.39630000
9.51060000 -1.31660000 -2.76850000
9.54880000 -1.36360000 -2.68100000
9.78900000 -1.39970000 -2.69420000
9.75640000 -1.42170000 -2.81870000
9.76700000 -1.37810000 -2.92740000
9.71420000 -1.43230000 -2.85810000
9.53430000 -1.35950000 -2.85720000
9.59350000 -1.39900000 -2.76840000
9.63340000 -1.41820000 -2.87020000
9.67320000 -1.42870000 -3.01720000
9.76390000 -1.43740000 -2.41590000
9.69870000 -1.43480000 -2.32030000
9.72180000 -1.43790000 -2.57650000
9.65670000 -1.42380000 -2.55870000
9.79090000 -1.42110000 -2.54970000
9.74900000 -1.43310000 -2.67900000
9.68620000 -1.43260000 -2.74800000
9.83320000 -1.42230000 -2.12650000
9.78600000 -1.44210000 -2.20060000
9.82750000 -1.40480000 -2.27580000
9.84310000 -1.42000000 -1.97770000
9.81420000 -1.44020000 -2.01860000
9.74680000 -1.38820000 -3.06420000
9.73800000 -1.41610000 -2.96950000
9.71970000 -1.41690000 -3.08670000
10.15880000 -0.98560000 1.57550000
10.13110000 -1.02120000 1.34550000
10.09790000 -1.04730000 1.17460000
10.07320000 -1.21930000 1.12530000
10.13960000 -1.32180000 1.82290000
10.09880000 -1.31830000 1.48040000
10.06940000 -1.42120000 1.36650000
10.11890000 -1.43510000 1.78660000
10.09230000 -1.47300000 1.72980000
10.10410000 -1.41900000 1.63540000
10.14670000 -1.43980000 2.01970000
10.11310000 -1.49780000 2.09610000
10.12970000 -1.46860000 1.99850000
9.90500000 -1.45090000 1.98620000
10.09780000 -1.49220000 1.94700000
10.08060000 -1.50230000 2.04560000
10.04800000 -1.50120000 1.93980000
9.91140000 -1.46040000 1.87220000
10.11280000 -1.47260000 1.88040000
10.07400000 -1.49460000 1.83860000
9.97400000 -1.49000000 1.70880000
10.02760000 -1.49760000 1.72840000
10.06200000 -1.48900000 1.67780000
10.08360000 -1.45330000 1.58140000
10.03980000 -1.47380000 1.39330000
10.01820000 -1.48950000 1.54000000
10.15010000 -1.48160000 2.14640000
9.68950000 -1.25380000 0.66650000
9.72650000 -1.27250000 1.10190000
9.72220000 -1.33360000 1.03620000
9.77020000 -1.23500000 1.46470000
9.81080000 -1.30310000 1.79320000
9.77640000 -1.32890000 1.52870000
9.79450000 -1.36840000 1.61680000
9.82090000 -1.42050000 1.54470000
9.74870000 -1.31390000 1.31740000
9.72240000 -1.37230000 0.87140000
9.76580000 -1.40570000 1.11180000
9.77320000 -1.37750000 1.41250000
9.75750000 -1.37490000 1.26980000
9.78320000 -1.40190000 1.35640000
9.82950000 -1.44110000 1.32420000
10.04060000 -1.41220000 1.12150000
10.03870000 -1.45440000 1.20290000
9.99650000 -1.48800000 1.32080000
10.01990000 -1.47780000 1.22400000
9.97720000 -1.48700000 1.18600000
9.88310000 -1.46940000 1.15210000
9.93920000 -1.47960000 1.02120000
9.95080000 -1.48670000 1.36940000
9.81160000 -1.44160000 1.02730000
10.03500000 -1.30150000 0.86810000
9.99390000 -1.36970000 0.48390000
10.00710000 -1.40030000 0.68630000
9.66570000 -1.30840000 0.38520000
9.69640000 -1.31420000 0.74670000
9.75430000 -1.41400000 0.78770000
9.70740000 -1.37080000 0.66530000
9.68600000 -1.32590000 0.60300000
9.69250000 -1.36990000 0.49160000
9.74050000 -1.41390000 0.57460000
9.81200000 -1.45130000 0.65720000
9.96080000 -1.36380000 0.12070000
9.95910000 -1.41580000 0.26460000
9.95280000 -1.45160000 0.43350000
9.98010000 -1.45160000 0.58800000
9.98500000 -1.43160000 0.52090000
9.93320000 -1.47330000 0.54540000
9.90530000 -1.47640000 0.60020000
9.86100000 -1.46820000 0.45830000
9.90620000 -1.46910000 0.42560000
9.93750000 -1.45280000 0.30670000
9.71250000 -1.40770000 0.26930000
9.93460000 -1.43750000 0.04070000
9.93440000 -1.44860000 0.16820000
9.75350000 -1.43650000 0.15530000
9.83720000 -1.46250000 0.19780000
9.89510000 -1.46680000 0.27990000
9.89520000 -1.46270000 0.08190000
10.01160000 -1.42700000 0.88220000
9.99810000 -1.45730000 0.97090000
9.95360000 -1.47530000 0.86800000
9.89270000 -1.47310000 0.78140000
9.98700000 -1.45520000 0.77560000
9.95630000 -1.46990000 0.65480000
9.99390000 -1.43730000 0.70790000
9.93350000 -1.47470000 0.73300000
9.99660000 -1.47710000 1.10970000
9.84300000 -1.40410000 1.85860000
9.81240000 -1.35940000 1.77310000
9.82290000 -1.40660000 1.68150000
9.85580000 -1.43280000 1.74070000
9.89790000 -1.46390000 1.63910000
9.89110000 -1.46310000 -0.10340000
3.25410000 1.62090000 -0.51750000
3.49540000 1.64590000 -2.34320000
3.15490000 1.56630000 -2.05390000
3.27740000 1.65930000 0.88500000
3.54350000 1.69870000 0.90350000
3.56820000 1.67770000 -0.68130000
3.70040000 1.72420000 1.76180000
3.87970000 1.70190000 -0.21890000
2.94670000 1.57410000 1.01030000
3.01010000 1.54360000 -0.67420000
2.85090000 1.51990000 0.54900000
2.69800000 1.42160000 0.57570000
2.69660000 1.38820000 0.14070000
2.63220000 1.32990000 0.74640000
2.69450000 1.36260000 -0.17140000
2.62300000 1.19750000 0.17380000
2.76720000 1.43450000 -0.28510000
2.78070000 1.47800000 0.41390000
2.89380000 1.48130000 -1.44720000
2.80960000 1.44100000 -1.02290000
2.76020000 1.40420000 -0.85690000
2.71050000 1.34000000 -0.64700000
2.64730000 1.07840000 -0.88960000
3.04740000 0.99200000 0.00170000
3.01810000 0.98530000 -0.07010000
3.09070000 0.98620000 -0.18440000
3.01420000 0.97930000 -0.24450000
2.99200000 0.96690000 -0.15020000
3.07770000 0.98350000 -0.53930000
2.96750000 0.90930000 -0.16790000
2.98310000 0.94840000 -0.27040000
3.00550000 0.96510000 -0.39760000
2.98380000 0.91950000 -0.51520000
2.95800000 0.84660000 -0.17950000
5.05010000 1.55950000 -0.57610000
4.55010000 1.66230000 -3.05140000
4.57350000 1.63660000 0.00590000
4.27350000 1.67690000 0.10270000
4.35670000 1.67870000 -1.95740000
5.03810000 1.58170000 -3.03340000
2.75680000 1.34880000 -1.48570000
2.72580000 1.26800000 -1.50610000
2.80600000 1.41450000 -1.54750000
3.87480000 1.69810000 -1.45780000
3.94540000 1.69270000 -3.12180000
4.09030000 1.69810000 -0.55780000
2.99320000 1.49630000 -2.76790000
