-5.99200000 0.93910000 -8.14560000
-6.01530000 0.95760000 -8.09770000
-1.82630000 0.40390000 -8.86000000
0.25170000 1.92700000 -8.18910000
-0.25750000 1.93050000 -8.26810000
-0.01380000 1.95950000 -8.14140000
-6.07090000 0.87110000 -8.02350000
-2.32970000 0.30700000 -8.65140000
0.14220000 1.94120000 -8.06700000
-0.19410000 1.96440000 -8.10750000
-5.96760000 0.81770000 -8.20970000
-3.60950000 -1.75710000 -7.56830000
-6.11200000 0.79760000 -8.06310000
-6.09600000 0.79860000 -8.12330000
-3.01800000 -1.16650000 -7.49300000
-3.31340000 -1.65240000 -7.55930000
-6.00730000 0.64760000 -8.25730000
0.10790000 1.87580000 -8.34940000
-1.38230000 -0.00940000 -6.61050000
-2.33600000 0.22860000 -8.46680000
1.09140000 1.59730000 -3.07090000
1.10840000 1.61600000 -3.80260000
1.03680000 1.60570000 -3.76210000
0.35970000 1.93120000 -8.12620000
-3.54660000 -1.86920000 -8.01380000
-3.49950000 -1.29610000 -8.02140000
-3.42540000 -1.54820000 -8.01760000
-5.83190000 0.68530000 -8.39200000
1.20230000 1.60020000 -3.77280000
1.26990000 1.55620000 -2.93930000
-2.15370000 0.45150000 -8.92020000
-5.35140000 0.88150000 -8.68550000
-5.07850000 1.05620000 -8.71350000
0.93340000 1.53210000 -2.80040000
0.95350000 1.56300000 -3.74410000
-0.08370000 1.89260000 -7.57000000
-0.24060000 1.93820000 -7.65930000
-0.66890000 1.89500000 -7.58630000
-0.38860000 1.95040000 -7.72740000
1.00890000 1.57370000 -2.82320000
-1.72250000 0.35060000 -8.67970000
-1.70970000 0.30300000 -8.53960000
-0.26650000 1.94370000 -7.81070000
-0.55670000 1.93160000 -7.82280000
-5.44980000 0.74240000 -8.76450000
-5.25450000 0.83620000 -8.87930000
-0.33300000 1.92610000 -7.93960000
-3.33820000 -1.80680000 -8.02990000
-5.66520000 0.70750000 -8.53300000
-5.55000000 0.76160000 -8.60160000
-0.32540000 1.95120000 -8.07480000
-0.72980000 -0.08040000 -6.77330000
-0.43130000 -0.13540000 -6.83910000
-0.63870000 1.85500000 -8.53340000
-0.18470000 1.83340000 -8.55000000
-5.67660000 0.50920000 -8.72900000
-5.54100000 0.60660000 -8.82780000
-5.31190000 1.18800000 -0.28710000
-5.13010000 1.27120000 -0.47430000
-5.24740000 1.21540000 -1.68230000
-5.46540000 0.62280000 -8.89830000
-0.48260000 1.92360000 -8.02940000
-4.15340000 -1.77990000 -7.48610000
-1.82820000 0.21800000 -8.39200000
-5.34800000 0.69210000 -8.92680000
-5.59310000 0.39870000 -8.92990000
-0.58910000 -0.16470000 -7.03580000
-0.37990000 -0.25210000 -7.14440000
-0.59710000 -0.25270000 -7.19330000
0.72780000 1.49970000 -2.89590000
-0.79290000 1.91650000 -8.05170000
-1.47470000 0.15570000 -1.97050000
-2.09870000 0.15620000 -1.79130000
-1.82320000 0.16710000 -2.89400000
-0.90740000 -0.08450000 -6.88680000
-0.90540000 -0.16810000 -7.10940000
-1.15390000 -0.07960000 -6.93390000
-4.19080000 -1.73150000 -8.11510000
-0.84160000 1.90240000 -7.96960000
-5.79430000 0.49680000 -8.57250000
-5.93270000 0.40430000 -8.46850000
-0.45340000 -0.36040000 -7.29090000
-2.66740000 0.16850000 -8.43810000
-1.02830000 -0.27820000 -7.27180000
-5.95330000 0.20550000 -8.59800000
-5.68330000 0.38040000 -8.87940000
-2.85750000 0.08210000 -8.37590000
1.63670000 1.43740000 -3.80970000
1.40020000 1.52930000 -3.51340000
1.58990000 1.42760000 -2.45030000
1.14360000 1.57840000 -2.52240000
-2.61770000 0.00380000 -8.26350000
-5.87050000 0.20050000 -8.76350000
-5.83440000 0.15780000 -8.87570000
-3.94710000 -1.99350000 -7.55440000
-5.81730000 0.10000000 -8.92150000
-6.22660000 1.00050000 -7.83060000
-6.25270000 0.93310000 -7.87450000
-6.24830000 0.95530000 -7.83000000
-6.18900000 1.03530000 -7.67790000
-6.20680000 1.05500000 -7.55990000
-3.68000000 -2.07850000 -7.59070000
-6.16880000 0.98950000 -7.60490000
-6.15160000 0.94790000 -7.65300000
-6.19720000 1.00010000 -7.74370000
-6.20050000 0.94580000 -7.74280000
-3.34700000 0.07680000 -8.54560000
-3.63620000 0.06170000 -8.71570000
-3.77410000 -0.10490000 -3.49680000
-3.56890000 -0.05830000 -1.96120000
-3.78360000 -0.13710000 -1.90770000
0.87430000 1.51330000 -2.74380000
-6.14470000 0.95650000 -7.53150000
-3.65850000 -0.00250000 -8.59300000
-6.12890000 0.89400000 -7.54270000
-6.13900000 0.81530000 -7.67040000
-6.15700000 0.86940000 -7.70810000
-6.21420000 0.89940000 -7.77670000
-6.17710000 0.89320000 -7.92930000
-3.63920000 0.19790000 -8.92890000
-6.20440000 0.86990000 -7.89780000
-3.49850000 0.20110000 -8.91140000
0.60390000 1.86990000 -7.54260000
0.36390000 1.90290000 -7.60210000
-6.13590000 0.80300000 -7.91770000
-6.21790000 0.86710000 -7.84430000
-6.18410000 0.84380000 -7.77920000
-3.38080000 0.20590000 -8.88240000
0.49580000 1.82680000 -7.39080000
-6.16200000 0.81100000 -7.84790000
-2.43470000 0.14380000 -1.74070000
-6.15280000 0.76200000 -7.76890000
0.84990000 1.83010000 -7.49990000
0.83070000 1.86950000 -7.58380000
-3.56340000 -0.03270000 -3.65530000
-6.13890000 0.75160000 -7.87300000
-3.58490000 0.13000000 -8.84690000
-6.12210000 0.75440000 -7.99050000
1.15970000 1.77210000 -7.48340000
-3.62750000 -2.30640000 -7.99630000
-3.68910000 0.12650000 -8.90040000
-6.17070000 0.65750000 -8.10710000
-6.16610000 0.60250000 -7.94150000
-3.82900000 0.04360000 -8.85800000
-6.20480000 0.53370000 -7.99070000
-6.20230000 0.60730000 -8.04990000
-6.14430000 0.59590000 -8.15550000
0.87690000 1.79190000 -7.34270000
1.11830000 1.75260000 -7.37400000
-6.23260000 0.50650000 -8.08560000
-3.79890000 0.14350000 -8.93270000
-6.15390000 0.79560000 -7.43170000
-6.16330000 0.67770000 -7.79790000
-6.18780000 0.60530000 -7.49780000
-6.19130000 0.62960000 -7.64630000
0.62230000 1.80150000 -7.27870000
-6.23730000 0.49410000 -7.69010000
-4.56840000 -1.17960000 -8.41650000
-4.74390000 -1.54190000 -8.49670000
-4.65940000 -1.11480000 -8.54050000
0.70890000 1.76910000 -7.20640000
0.88290000 1.76880000 -7.19470000
-6.19400000 0.55110000 -7.82140000
0.88870000 1.73840000 -7.11490000
-4.87920000 -1.41840000 -8.73980000
-4.75920000 -1.11170000 -8.69450000
0.85290000 1.71020000 -7.05580000
0.71280000 1.72450000 -7.15520000
-6.09110000 0.44660000 -8.25750000
-0.61540000 1.40430000 -2.20580000
-1.12950000 1.39620000 -2.87550000
-4.58620000 -1.48260000 -8.35370000
-3.57500000 -0.04970000 -8.47180000
-6.25480000 0.45190000 -8.02940000
-6.30340000 0.27700000 -8.05050000
-3.41610000 -0.08670000 -8.36360000
-6.26900000 0.31300000 -7.97790000
-6.26990000 0.27400000 -8.11720000
-3.06470000 -0.01500000 -8.32930000
0.31950000 1.78980000 -7.27770000
-4.85860000 -1.65360000 -8.61030000
-6.18040000 0.67130000 -7.27920000
-1.91020000 0.09100000 -5.52560000
-1.99660000 0.04060000 -6.13480000
-4.68770000 -1.79130000 -8.38940000
-3.95080000 -0.19280000 -2.80420000
-0.38460000 1.72070000 -7.25250000
0.06820000 1.71330000 -7.21850000
-6.27210000 0.33200000 -7.77890000
-3.83430000 -0.12840000 -8.52010000
-6.27170000 0.27840000 -7.40490000
0.48520000 1.75230000 -7.22480000
0.45600000 1.70710000 -7.15950000
0.26960000 1.69020000 -7.10410000
-3.69400000 -0.19460000 -8.37010000
-6.32500000 0.17450000 -7.54140000
-6.26210000 0.22060000 -6.99290000
-4.27850000 -0.37390000 -3.23730000
-4.20700000 -0.31430000 -3.73580000
-4.12110000 -0.29320000 -2.16620000
-3.90580000 -0.24770000 -8.42600000
-3.95370000 -0.08820000 -8.70630000
-5.02530000 -1.96340000 -8.80520000
-5.00580000 -1.64550000 -8.86660000
-2.23160000 0.00100000 -6.42340000
-1.89840000 -0.01480000 -6.64780000
-4.47060000 -1.22850000 -8.32210000
-4.54060000 -1.71010000 -8.27950000
-6.22820000 0.40490000 -7.81130000
-4.37870000 -1.39770000 -8.23080000
-6.26630000 0.27340000 -7.91010000
-4.32290000 -1.60920000 -8.17340000
-4.04820000 -0.25340000 -8.52690000
0.22270000 1.60590000 -6.15600000
0.76180000 1.65110000 -6.56470000
-0.27070000 1.63530000 -6.73060000
-2.49700000 0.01170000 -6.15400000
-2.51260000 0.06440000 -5.58910000
-4.47660000 -2.01250000 -8.21990000
-6.31720000 0.20560000 -7.75840000
-6.36330000 0.08790000 -7.68470000
-6.31930000 0.09610000 -7.87310000
-4.34560000 -2.30560000 -8.15130000
-6.36090000 0.05470000 -8.03280000
-2.38180000 0.16190000 -3.19500000
-2.59100000 0.14170000 -4.02730000
-2.13020000 0.13810000 -4.56250000
-6.34940000 -0.01790000 -7.95740000
-3.36030000 -0.17910000 -8.27440000
-6.32140000 0.08300000 -7.81410000
-6.35900000 0.05280000 -7.73910000
-6.37200000 -0.07940000 -7.84950000
-4.12950000 -2.34000000 -8.07000000
-3.95280000 -0.23400000 -1.22290000
-3.67670000 -0.33630000 -8.26650000
-3.31320000 -0.27290000 -8.20810000
-6.06900000 0.22480000 -8.40990000
0.83790000 1.68500000 -6.90730000
-2.29250000 -0.26320000 -7.25180000
-2.64250000 -0.24920000 -7.20640000
-2.67300000 -0.32060000 -7.27080000
-3.77490000 -2.48340000 -8.00450000
-6.37260000 -0.27840000 -7.00900000
-6.37820000 -0.11240000 -7.39320000
0.50160000 1.88050000 -7.90860000
0.56330000 1.87450000 -8.00580000
-2.50500000 -0.36570000 -7.30950000
-2.96770000 -0.40640000 -7.30800000
-6.21210000 0.19040000 -8.22180000
0.47770000 1.91100000 -7.71340000
0.62640000 1.90840000 -7.68960000
0.68840000 1.87050000 -7.84340000
0.61010000 1.87420000 -7.81210000
-6.31270000 -0.07660000 -8.21740000
0.36300000 1.90520000 -7.86710000
-6.42890000 -0.37440000 -7.38460000
-6.45510000 -0.34030000 -7.62470000
-6.46850000 -0.46490000 -7.75870000
-6.44420000 -0.27040000 -7.71570000
-6.42270000 -0.27830000 -7.79640000
-2.63280000 -0.53040000 -7.38330000
-2.27460000 -0.43210000 -7.35270000
0.33700000 1.93560000 -7.68400000
-6.11470000 -0.19570000 -8.67390000
-4.33580000 -0.43360000 -2.20640000
-2.99070000 -0.10650000 -8.23980000
-5.98280000 -0.06800000 -8.84250000
-4.28400000 -0.46040000 -0.58110000
-6.17410000 -0.12960000 -8.48630000
-4.40480000 -0.51520000 -1.28330000
0.67000000 1.90190000 -7.63920000
-2.79200000 -0.14560000 -8.18920000
-3.01750000 -0.28190000 -8.15360000
-2.67830000 -0.26500000 -8.13180000
-6.45950000 -0.74590000 -7.32710000
-6.37410000 -0.00080000 -8.09890000
-6.39860000 -0.52740000 -6.85770000
-2.40530000 -0.30930000 -8.11690000
-1.84960000 -0.09260000 -8.16900000
0.48920000 1.90700000 -8.06850000
-6.42020000 -0.11800000 -8.04060000
0.44490000 1.74880000 -8.57240000
-2.84370000 -0.49580000 -8.08120000
-6.49800000 -0.67830000 -7.66470000
-6.39330000 -0.12090000 -7.99130000
-6.49050000 -0.76000000 -7.52800000
-2.49800000 -0.50050000 -8.08710000
-6.33050000 -0.27070000 -8.27900000
-1.12050000 0.13840000 -2.53650000
-1.32730000 0.14260000 -3.98540000
-4.50210000 -0.57160000 -2.33790000
-4.56900000 -0.65140000 -1.55620000
-2.34260000 -0.05320000 -6.74140000
-3.16770000 -0.44750000 -8.11680000
-2.15280000 -0.08250000 -6.93220000
-3.43190000 -0.44200000 -8.15730000
-6.41850000 -0.32150000 -7.87370000
-6.46300000 -0.54060000 -7.82850000
-6.42500000 -0.34820000 -7.92990000
-6.45390000 -0.60510000 -7.91310000
-6.44600000 -0.35790000 -7.98300000
-6.46840000 -0.60820000 -7.96160000
-3.22410000 -0.72490000 -8.06270000
-4.45480000 -0.51120000 -3.42710000
-6.23700000 -0.48830000 -8.69250000
1.16840000 1.66270000 -5.71670000
1.05790000 1.66530000 -5.66410000
1.11800000 1.65660000 -5.34720000
-2.13190000 -0.19180000 -7.18890000
-6.35130000 -0.72260000 -8.54290000
-6.37030000 -0.55220000 -8.34940000
1.26980000 1.62330000 -5.36200000
1.36810000 1.59360000 -5.59530000
-5.93640000 -0.09960000 -8.92240000
-6.00060000 -0.15410000 -8.89480000
-6.10480000 -0.34030000 -8.87570000
-2.43220000 -0.16430000 -7.11030000
-2.94120000 -0.87230000 -8.05150000
-2.32230000 -0.60800000 -8.09660000
-2.56990000 -0.77810000 -8.08660000
-6.47540000 -0.82710000 -8.24570000
-6.42360000 -0.49740000 -8.20890000
1.23010000 1.67180000 -6.50430000
1.30610000 1.63620000 -6.10760000
1.30880000 1.65000000 -6.84400000
-2.33700000 -0.11790000 -7.01430000
-1.95100000 -0.11230000 -7.06250000
1.51230000 1.57300000 -6.61420000
-1.86130000 0.16430000 -3.77120000
-6.49980000 -0.74340000 -7.73070000
-6.46410000 -0.67060000 -7.82010000
0.99330000 1.64620000 -5.66740000
1.05920000 1.69010000 -6.43680000
-6.51730000 -0.70700000 -8.02460000
-6.49010000 -0.55490000 -8.00630000
-6.50220000 -0.60760000 -8.09460000
-0.71700000 1.52110000 -8.94900000
-0.32050000 0.93890000 -8.93180000
-0.85960000 1.14880000 -8.93320000
-6.46610000 -0.74860000 -7.81300000
-6.46390000 -0.77570000 -7.87020000
-6.48590000 -0.81100000 -7.95130000
-1.08660000 1.38920000 -8.94070000
-6.52480000 -0.82330000 -8.01870000
-1.02690000 1.14530000 -8.93850000
-6.40000000 -0.10460000 -7.77370000
1.12800000 1.69450000 -6.70140000
1.13950000 1.68100000 -6.13590000
0.94850000 1.66760000 -6.58310000
-6.49660000 -0.85420000 -7.82170000
0.87480000 1.61360000 -5.66070000
-6.51520000 -0.92580000 -7.76290000
-6.53310000 -1.21080000 -7.71330000
-6.49610000 -0.96580000 -7.90280000
-4.57530000 -0.63110000 -3.44310000
0.71700000 1.60140000 -5.72320000
-4.63600000 -0.71030000 -2.50590000
-6.52410000 -0.78280000 -8.10030000
-6.42200000 -0.14120000 -8.08790000
-6.47280000 -0.35820000 -8.03350000
-4.69730000 -0.77180000 -3.95610000
-6.45680000 -0.33330000 -8.09610000
-6.54830000 -0.95820000 -8.05400000
-6.51560000 -0.96170000 -7.97980000
-4.72470000 -0.82800000 -2.66300000
-6.53650000 -1.06570000 -8.15850000
-6.55150000 -1.13700000 -8.02350000
-6.55950000 -1.17220000 -8.10010000
-2.77910000 -0.05490000 -6.48170000
-6.46510000 -1.06450000 -8.36990000
-6.48620000 -0.45320000 -8.06950000
-6.45770000 -1.03900000 -7.05960000
-6.51450000 -1.13870000 -7.53150000
-2.64730000 -0.09400000 -6.81290000
-6.36380000 -0.49610000 -6.18640000
-2.82630000 0.12440000 -3.42830000
-2.68070000 0.12920000 -2.14890000
-6.41710000 -0.96260000 -6.34140000
-1.57830000 0.72820000 -8.93160000
-1.03000000 0.51160000 -8.92190000
-6.42310000 -1.33660000 -5.99470000
1.56710000 1.52170000 -5.83640000
-5.36510000 1.30680000 -5.57760000
-5.13540000 1.44600000 -6.08650000
-5.28720000 1.37340000 -6.02450000
-6.50120000 -1.41480000 -7.38480000
0.17210000 0.56850000 -8.91830000
-0.34030000 1.43160000 -3.25540000
-4.66710000 1.56630000 -5.34320000
-4.66110000 1.58460000 -5.85780000
-4.88330000 1.47750000 -4.95460000
-4.93410000 1.50330000 -5.92950000
-2.95230000 0.08270000 -1.78560000
-1.02660000 0.47170000 -8.90560000
-0.66750000 0.44430000 -8.88520000
-6.46450000 -1.52050000 -6.94610000
-0.23390000 0.47850000 -8.91480000
-0.46480000 0.45740000 -8.90050000
1.63560000 1.46360000 -4.93290000
1.74070000 1.44550000 -6.11170000
-0.17480000 0.27830000 -8.52760000
-0.07530000 0.19650000 -8.41250000
-0.78680000 0.26930000 -8.45540000
0.31200000 0.21770000 -8.54360000
-0.40580000 0.14230000 -8.32510000
0.24700000 0.09720000 -8.34960000
1.80900000 1.37580000 -5.03080000
-6.52100000 -1.11630000 -7.76680000
-6.49260000 -1.08140000 -7.83740000
-0.15590000 -0.03170000 -5.41240000
0.11200000 -0.14210000 -6.10480000
0.13320000 -0.08920000 -5.40960000
-6.50080000 -1.15990000 -7.83210000
-6.49110000 -1.10680000 -7.91900000
-6.51810000 -1.20730000 -7.96550000
-6.51610000 -1.23660000 -7.86430000
0.40930000 0.40260000 -8.90600000
0.10060000 0.40030000 -8.89050000
-1.40920000 1.42110000 -3.99500000
-0.63070000 1.45070000 -4.23720000
-1.22450000 1.46240000 -4.77510000
-6.53040000 -1.32910000 -7.99100000
0.41990000 0.34410000 -8.88240000
0.40420000 0.31300000 -8.84400000
-6.49680000 -1.29890000 -8.30000000
-0.28700000 0.02720000 -4.61080000
-6.55820000 -1.34470000 -8.06070000
-6.55050000 -1.38100000 -8.13670000
-0.80470000 0.08460000 -4.71820000
-0.21330000 0.42050000 -8.88240000
0.05890000 0.37110000 -8.85290000
-3.28910000 1.88810000 -8.04460000
-3.11690000 1.91190000 -8.11410000
-3.54040000 1.89460000 -8.07090000
-3.50550000 1.89070000 -8.13570000
-2.94230000 1.90380000 -8.17760000
-3.07570000 1.84210000 -8.32760000
-0.00310000 0.30880000 -8.64170000
0.23370000 0.30380000 -8.73240000
-2.96850000 1.90500000 -7.75540000
-2.86400000 1.92400000 -7.71320000
-2.94610000 1.89110000 -7.84140000
-6.53530000 -1.49690000 -7.65850000
-3.15610000 1.91320000 -7.73360000
2.13700000 1.17790000 -5.69590000
2.31480000 1.09370000 -6.59650000
2.16880000 1.20200000 -6.52660000
-3.21490000 1.91200000 -7.63470000
-2.81470000 1.85410000 -7.46440000
-2.69050000 1.90600000 -7.63430000
-2.89760000 1.88390000 -8.02670000
2.38190000 1.00490000 -6.17260000
-6.51470000 -1.40840000 -7.90400000
-0.27610000 0.39490000 -8.83860000
-0.76340000 0.41060000 -8.82800000
-0.40910000 0.34510000 -8.66420000
-4.43920000 1.53390000 -4.52100000
-4.53120000 1.56770000 -4.85780000
-4.57930000 1.56590000 -4.44450000
-6.53440000 -1.54360000 -7.77270000
-4.52580000 1.55920000 -4.19910000
-6.50050000 -1.53740000 -7.85760000
-2.67890000 1.82810000 -8.40950000
-6.53660000 -1.50880000 -8.01710000
-2.53570000 1.91380000 -8.15070000
-2.65480000 1.90620000 -8.09000000
-4.65970000 1.54980000 -4.57840000
-6.55720000 -1.56070000 -8.09160000
-3.39470000 1.86370000 -7.96740000
-2.67490000 1.87550000 -7.96130000
-6.49610000 -1.58320000 -7.93090000
-3.33150000 1.87930000 -7.85140000
-6.55670000 -1.67020000 -8.07950000
-6.52730000 -1.71690000 -8.02230000
-3.24990000 0.04870000 -3.75010000
-4.58940000 1.57880000 -5.24240000
1.93900000 1.32430000 -5.97150000
-4.52620000 1.58100000 -5.54420000
-4.35760000 1.51720000 -4.62150000
-4.43750000 1.56380000 -5.94810000
-4.34550000 1.55430000 -6.00250000
-6.51510000 -1.62480000 -7.85040000
-3.27930000 0.02790000 -2.28930000
-6.53350000 -1.90950000 -7.67380000
-6.51520000 -1.79810000 -7.83210000
-6.50310000 -1.76130000 -7.95760000
1.94270000 1.29450000 -5.16370000
-1.37320000 0.27020000 -8.44780000
-1.10810000 0.21060000 -8.36170000
-1.34290000 0.15290000 -8.30250000
-2.06690000 1.90800000 -8.11480000
-1.78530000 1.91100000 -8.19910000
-2.20010000 1.88310000 -8.27000000
-6.48210000 -1.89340000 -7.90870000
-1.67790000 1.86740000 -8.03020000
-1.58930000 1.90990000 -8.10450000
-1.91810000 1.87700000 -8.05900000
-6.52350000 -2.02970000 -7.57270000
-1.81380000 1.86760000 -7.82230000
-1.57740000 1.87050000 -7.87760000
-1.95740000 1.86010000 -7.97180000
1.29270000 1.76320000 -7.58440000
-6.51650000 -1.93590000 -7.79880000
-0.85860000 0.07550000 -8.25240000
-1.58120000 1.92370000 -8.16020000
1.36100000 1.68020000 -7.38930000
1.50540000 1.67000000 -7.54820000
-6.43060000 -1.80420000 -6.21330000
1.61810000 1.55720000 -7.31990000
1.83240000 1.46320000 -7.38760000
-1.20920000 -0.02820000 -8.18870000
-1.42020000 1.79600000 -7.34700000
-0.74590000 1.84280000 -7.45720000
-1.41220000 1.83330000 -7.50590000
-1.21170000 1.76580000 -7.29170000
-4.20030000 1.48880000 -3.78300000
-3.86630000 1.47660000 -4.04320000
-1.24960000 1.68940000 -7.23750000
-1.49250000 1.71240000 -7.26490000
-0.79400000 1.75800000 -7.28470000
-1.59740000 0.50740000 -8.92600000
0.27780000 -0.05920000 -3.52020000
0.12230000 -0.04240000 -4.40850000
0.35930000 -0.11450000 -4.68800000
-6.48830000 -1.96300000 -7.25600000
-1.82170000 1.39640000 -3.23580000
-2.39760000 1.43460000 -4.14610000
-1.41150000 1.88610000 -8.05620000
-1.16760000 1.93890000 -8.14500000
-1.11620000 1.91650000 -8.08290000
-1.36250000 1.87600000 -7.99620000
1.95640000 1.37530000 -8.10290000
1.74760000 1.45520000 -8.21480000
1.67400000 1.54860000 -8.09990000
-1.44680000 0.45050000 -8.89640000
-1.14030000 0.42740000 -8.86330000
1.90660000 1.40370000 -8.02040000
-1.32540000 0.39610000 -8.79870000
-6.47690000 -1.98150000 -7.90290000
-6.52810000 -2.07030000 -7.77270000
-1.26550000 1.89610000 -7.79690000
-1.26350000 1.90540000 -7.71760000
1.34210000 1.67520000 -7.87210000
1.46680000 1.62120000 -7.93960000
-6.50850000 -2.08430000 -7.86780000
1.43470000 1.68130000 -7.72430000
1.50660000 1.62230000 -7.83940000
-6.26240000 -0.75080000 -8.85310000
-6.20320000 -0.71680000 -8.92050000
-6.20560000 -0.64010000 -8.89740000
-1.06820000 0.35960000 -8.65960000
-6.21720000 -0.89940000 -8.93230000
-6.11460000 -0.68120000 -8.94110000
-6.26210000 -0.88660000 -8.89810000
-1.28630000 1.88190000 -7.63240000
-0.83710000 1.92360000 -7.67440000
-6.32470000 -0.91700000 -8.77890000
1.31560000 1.70470000 -7.78890000
1.49650000 1.68240000 -7.63370000
-6.41120000 -1.09250000 -8.58860000
1.36890000 1.69880000 -8.08120000
-4.62820000 1.61030000 -6.35580000
-4.52490000 1.59510000 -6.26880000
1.22200000 1.63100000 -8.34490000
-5.33190000 -0.52220000 -8.93950000
-5.28280000 -1.46520000 -8.92410000
1.32780000 1.66340000 -8.21850000
-6.21470000 -1.06890000 -8.93560000
1.33730000 1.69880000 -8.01920000
0.59720000 -0.16130000 -3.60230000
0.60420000 -0.19160000 -4.58020000
0.82130000 -0.26240000 -4.06270000
-6.30810000 -1.04440000 -8.88330000
1.51080000 1.61220000 -7.99040000
1.47920000 1.59100000 -8.22870000
1.59140000 1.59550000 -8.03730000
-6.29950000 -1.14070000 -8.91780000
-6.28610000 -1.23480000 -8.92770000
-6.12060000 -1.55340000 -8.92930000
1.47620000 1.48330000 -8.43020000
1.63690000 1.59940000 -7.70800000
1.77650000 1.54750000 -7.61570000
1.76880000 1.54490000 -7.53370000
1.73010000 1.51410000 -7.77980000
1.80890000 1.45210000 -7.85970000
-1.95170000 1.88080000 -7.70220000
-3.90650000 1.53670000 -5.79300000
1.87540000 1.45620000 -7.72640000
-1.69910000 1.80740000 -7.46680000
-2.95790000 1.42570000 -3.50500000
0.77860000 -0.27900000 -4.91220000
1.79890000 1.44550000 -7.93580000
1.90010000 1.38780000 -7.96080000
-6.44730000 -1.29790000 -8.49070000
1.90110000 1.38890000 -6.82280000
1.93980000 1.37530000 -7.17290000
1.71940000 1.48850000 -6.89910000
-6.42010000 -1.48290000 -8.77100000
-0.18500000 0.01170000 -8.23210000
0.40180000 -0.19560000 -5.79930000
0.57840000 -0.21980000 -5.30710000
0.14930000 0.01560000 -8.26590000
-6.35000000 -1.20010000 -8.86820000
-6.38340000 -1.25270000 -8.81310000
2.09030000 1.27430000 -6.85300000
-6.33010000 -1.31510000 -8.91340000
-0.40770000 -0.08450000 -8.17080000
-6.37480000 -1.37500000 -8.87920000
2.15820000 1.25440000 -7.30320000
-5.42250000 1.22800000 -4.87860000
-5.15340000 1.35470000 -4.77830000
1.97510000 1.40170000 -7.44570000
-6.00120000 1.54860000 -4.46570000
-5.92610000 1.50390000 -4.67010000
-5.96650000 1.55850000 -4.66840000
-6.40540000 -1.46640000 -8.83310000
-6.46860000 -1.67690000 -8.57170000
-6.26300000 -1.50720000 -8.92910000
-5.95700000 1.54340000 -4.90650000
2.32060000 1.12740000 -7.21120000
-5.83360000 1.40500000 -5.03750000
-5.90680000 1.43830000 -4.58340000
-6.30220000 -1.46710000 -8.92770000
-0.56970000 -0.18810000 -8.13070000
-5.81410000 1.30740000 -5.03780000
-5.88180000 1.31820000 -4.55060000
-5.86250000 1.47080000 -5.08830000
2.48290000 0.96960000 -6.99440000
-2.38500000 1.77960000 -7.30450000
-1.93260000 1.78440000 -7.34990000
-2.39500000 1.80660000 -7.34670000
-0.71490000 -0.37790000 -8.10280000
-1.33470000 -0.16920000 -8.14370000
-2.71900000 1.72270000 -7.26830000
-2.76820000 1.77650000 -7.28960000
-6.36040000 -1.54180000 -8.90790000
-2.98390000 1.51110000 -5.59670000
-2.14640000 1.69610000 -7.25760000
-1.89540000 1.74380000 -7.28940000
-2.35050000 1.72810000 -7.27530000
2.15200000 1.24220000 -8.04230000
2.16680000 1.20650000 -7.95230000
2.09440000 1.26590000 -8.14040000
-6.40180000 -1.60160000 -8.87350000
1.89950000 1.29890000 -8.31340000
2.16060000 1.14390000 -8.23990000
-6.35170000 -1.66960000 -8.91860000
-2.55230000 1.67000000 -7.23400000
-5.41970000 1.18900000 -4.02810000
-2.31220000 1.64650000 -7.18060000
2.34800000 1.06990000 -8.01060000
-6.31000000 -1.80680000 -8.92440000
-1.99000000 1.67610000 -7.23690000
2.39850000 1.01450000 -8.09610000
2.50150000 0.90430000 -7.92340000
2.55910000 0.87460000 -8.00650000
0.81510000 -0.35510000 -5.71720000
1.98990000 1.42770000 -7.58710000
2.04060000 1.37590000 -7.67450000
-0.55370000 0.08690000 -2.43430000
0.34460000 0.15360000 -8.43810000
0.53840000 0.14590000 -8.51870000
0.50110000 0.02270000 -8.34020000
-2.36270000 1.88330000 -8.04650000
0.73830000 -0.00810000 -8.42620000
0.71960000 -0.07980000 -8.33450000
2.14070000 1.32630000 -7.53420000
0.99140000 -0.18140000 -8.39120000
0.86530000 -0.21840000 -8.29090000
2.08040000 1.29040000 -7.81390000
2.26380000 1.23740000 -7.61550000
2.21230000 1.24420000 -7.42660000
2.17230000 1.25410000 -7.72090000
0.54600000 -0.11320000 -8.24890000
2.20990000 1.19370000 -7.84720000
-5.14960000 -1.66750000 -8.91980000
-5.04100000 -1.52860000 -8.91450000
-5.06590000 -1.75550000 -8.90230000
-5.12560000 -1.83820000 -8.91380000
-2.09990000 1.87770000 -7.84410000
0.18090000 -0.12770000 -8.18030000
-2.37280000 1.90800000 -7.71390000
2.34500000 1.17460000 -7.52350000
-5.72580000 1.51350000 -5.77930000
-5.68900000 1.37330000 -5.75690000
-5.64500000 1.43870000 -5.99070000
-5.60690000 1.33740000 -6.01690000
-1.99710000 1.81640000 -7.49280000
-2.05560000 1.85370000 -7.60240000
-2.35160000 1.83910000 -7.47580000
-0.78660000 0.10810000 -3.70990000
-2.48770000 1.90820000 -7.77490000
2.38230000 1.12640000 -7.65670000
2.54180000 1.00360000 -7.56550000
0.78340000 -0.34890000 -8.19010000
2.42040000 1.01970000 -7.79140000
2.43260000 1.05040000 -7.69350000
-5.45990000 1.29820000 -5.95660000
-5.35830000 1.36410000 -6.15100000
0.53030000 -0.24400000 -8.17230000
2.48810000 1.00060000 -7.29240000
2.58070000 0.95490000 -7.44170000
-0.48540000 0.07530000 -1.19000000
-5.53980000 1.25670000 -5.89030000
0.56630000 -0.36300000 -8.13220000
0.89610000 -0.60580000 -8.13460000
-5.75660000 1.45320000 -5.52230000
0.70110000 0.27850000 -8.88540000
0.66350000 0.23040000 -8.82570000
2.57910000 0.89960000 -7.71260000
-5.73950000 1.36600000 -5.50250000
0.54090000 0.24290000 -8.74850000
-5.66640000 1.27290000 -5.75000000
2.40150000 1.00020000 -7.89010000
-5.72710000 1.26180000 -5.51160000
-5.66790000 1.21690000 -5.69050000
-5.61220000 1.28440000 -5.94160000
-5.61210000 1.24300000 -5.82310000
-5.55260000 1.26020000 -5.98370000
0.68540000 0.12440000 -8.60890000
0.85180000 0.16350000 -8.84760000
2.60280000 0.81140000 -7.82470000
1.39010000 1.63440000 -7.13610000
1.13410000 1.71680000 -7.10560000
-5.58630000 1.19660000 -5.62310000
-5.53670000 1.22620000 -5.54810000
-5.57330000 1.23140000 -5.75900000
-5.62590000 1.19350000 -5.67640000
-2.61240000 1.89420000 -7.84720000
1.03300000 1.69820000 -6.83680000
1.05000000 1.71760000 -6.97150000
-0.14150000 0.01620000 -0.51810000
-0.18920000 0.03410000 -1.68630000
-6.15320000 -2.25970000 -8.91530000
0.94280000 0.04100000 -8.71150000
1.00470000 0.06340000 -8.81920000
0.92490000 -0.04760000 -8.50740000
1.07630000 -0.05840000 -8.67100000
-2.91400000 1.80600000 -7.30970000
-3.01750000 1.82730000 -7.35010000
-6.50670000 -1.48300000 -8.24960000
-6.46080000 -1.48460000 -8.44090000
-6.50720000 -1.64260000 -8.32050000
-5.80090000 1.49980000 -5.41940000
-5.89690000 1.51700000 -5.12820000
1.06980000 -0.36450000 -8.30380000
1.07360000 -0.61230000 -8.18660000
-6.54390000 -1.82840000 -8.23330000
-5.78690000 1.14970000 -5.20990000
1.23990000 -0.19870000 -8.67100000
1.17100000 -0.22400000 -8.51080000
1.03560000 -0.14130000 -8.46790000
-5.61590000 1.15600000 -5.32610000
-5.67220000 1.14050000 -5.45460000
-5.76360000 1.14770000 -5.34300000
-5.73540000 1.13930000 -5.42310000
-5.71760000 1.19630000 -5.53840000
1.16880000 -0.06690000 -8.79990000
1.35050000 -0.34710000 -8.59530000
-5.68720000 1.10340000 -5.25890000
-1.65510000 1.77250000 -7.31360000
-6.42440000 -1.71480000 -8.85160000
-6.39730000 -1.72520000 -8.89620000
-6.41620000 -1.84180000 -8.87780000
-6.44550000 -1.86450000 -8.79830000
-5.71220000 1.07550000 -4.92510000
-5.73880000 1.05810000 -4.98870000
-5.82360000 1.14040000 -4.96280000
1.29710000 -0.18630000 -8.80150000
-5.82370000 1.08760000 -5.00560000
-5.78540000 1.08730000 -5.15370000
-1.76210000 1.66090000 -7.20220000
-5.78220000 1.05320000 -5.03900000
-5.74230000 1.09820000 -5.27610000
-6.51260000 -2.04390000 -8.43210000
1.26070000 -0.38350000 -8.42280000
-6.47240000 -2.20510000 -8.61100000
-6.55880000 -1.87450000 -8.13920000
-5.68470000 1.15940000 -5.55260000
1.30410000 -0.53450000 -8.34320000
-6.53850000 -1.93800000 -8.06650000
1.37590000 -0.43640000 -8.49360000
1.48740000 -0.45490000 -8.70460000
-1.49430000 1.65500000 -7.16210000
-6.49640000 -1.89880000 -7.99990000
1.51930000 -0.60040000 -8.52150000
-5.69030000 1.06190000 -4.44070000
1.59300000 -0.64020000 -8.63300000
-6.55700000 -2.12910000 -8.17580000
1.48380000 -0.67910000 -8.40170000
-6.54760000 -2.20930000 -8.09130000
1.60960000 -0.80530000 -8.46480000
-0.04410000 0.01260000 -3.30060000
1.46750000 -0.35460000 -8.82840000
1.59040000 -0.56570000 -8.78260000
-0.27190000 0.04930000 -3.63740000
1.59460000 -0.47170000 -8.85050000
-6.37190000 -1.82770000 -8.91280000
1.67640000 -0.67680000 -8.80870000
1.75120000 -0.63680000 -8.85730000
-6.32300000 -2.01310000 -8.91850000
-5.18380000 1.27910000 -3.09290000
-6.39830000 -1.97450000 -8.89600000
-6.42940000 -2.06470000 -8.85440000
-6.38430000 -2.06150000 -8.90240000
-6.34990000 -2.15820000 -8.91040000
-6.39260000 -2.19080000 -8.89060000
-6.42180000 -2.23240000 -8.84650000
1.24200000 -0.70050000 -8.22310000
-6.50310000 -2.09230000 -8.00620000
-6.49400000 -2.09980000 -7.94300000
1.49300000 -0.81420000 -8.33430000
-1.61120000 1.62280000 -6.94840000
-2.57190000 1.60830000 -6.93090000
0.21680000 1.45110000 -2.30700000
-6.50050000 -2.22360000 -7.88080000
1.37070000 -0.86150000 -8.23250000
-6.54320000 -2.37960000 -8.17090000
-0.16260000 -0.07840000 -6.06790000
-5.01060000 1.51840000 -6.48380000
-4.77820000 1.60020000 -6.69520000
-4.99720000 1.55780000 -6.65530000
1.10980000 -0.80170000 -8.12970000
-5.41260000 1.55960000 -6.45230000
-5.21250000 1.63550000 -6.64570000
-5.32380000 1.72510000 -6.60110000
-5.33100000 1.53070000 -6.53100000
1.35040000 -1.02720000 -8.17580000
1.14680000 -1.05810000 -8.09320000
-5.17980000 1.46820000 -6.46150000
-5.10390000 1.50300000 -6.58340000
-5.16660000 1.81190000 -6.75670000
-5.08260000 1.82550000 -6.86220000
-5.14270000 1.86070000 -6.83030000
-5.09050000 1.70360000 -6.74870000
-5.00550000 1.77430000 -6.91810000
-5.01750000 1.67790000 -6.84470000
-5.10900000 1.59950000 -6.70030000
0.11990000 -0.21210000 -8.13700000
-5.01410000 1.61960000 -6.77650000
-4.97310000 1.63660000 -6.87910000
-4.92920000 1.61190000 -6.87400000
-5.01900000 1.58470000 -6.72080000
-0.12960000 -0.13530000 -6.51340000
-4.79540000 1.63230000 -6.91930000
-4.84500000 1.62260000 -6.92950000
-0.01140000 -0.41820000 -8.08280000
0.30280000 -0.34600000 -8.10610000
-5.99950000 -2.72430000 -8.03400000
-6.20460000 -2.69800000 -8.30330000
-5.77500000 -2.70500000 -8.61220000
-0.90910000 1.77430000 -8.82840000
-5.27130000 1.49980000 -6.55450000
-5.13990000 1.50560000 -6.61610000
0.40560000 -0.64520000 -8.06240000
0.61340000 -0.57540000 -8.09060000
-5.26750000 1.45970000 -6.50560000
-0.69750000 1.72900000 -8.90590000
-1.08180000 1.74310000 -8.89340000
-0.85620000 1.69350000 -8.93660000
-0.56720000 1.78510000 -8.78770000
-0.59930000 1.75730000 -8.86150000
-6.34130000 -2.31560000 -8.90710000
-6.26480000 -2.38230000 -8.91220000
0.69000000 1.61800000 -8.81450000
0.26130000 1.70250000 -8.81680000
0.12090000 -0.79570000 -8.04810000
-1.82320000 1.85250000 -7.63840000
1.03970000 1.56450000 -1.26610000
1.05470000 1.56650000 -1.44820000
1.03100000 1.55840000 -1.75300000
1.08510000 1.57490000 -1.90100000
1.14640000 1.56800000 -1.77120000
1.22860000 1.54150000 -0.80430000
0.09410000 -0.53390000 -7.36060000
0.23610000 -0.54870000 -7.31880000
0.02000000 -0.37800000 -7.18770000
0.97050000 1.52060000 -1.48470000
0.91750000 1.61290000 -8.62960000
-0.09860000 -0.44120000 -7.30070000
-5.64250000 -2.54630000 -8.90880000
-0.26200000 -0.48070000 -7.37030000
0.35860000 1.64790000 -8.88940000
0.14370000 -0.65640000 -7.43260000
-0.08990000 -0.61040000 -7.43660000
-5.41590000 1.45200000 -6.41830000
-5.40020000 1.40890000 -6.40100000
-5.38430000 1.36590000 -6.32710000
0.81960000 1.52650000 -8.91090000
0.49270000 1.58390000 -8.92160000
0.78310000 1.56250000 -8.87830000
0.52180000 1.52560000 -8.93900000
0.26520000 -0.63590000 -7.39070000
-5.74330000 -2.61600000 -8.90040000
-5.92880000 -2.56500000 -8.91020000
-5.26370000 1.41430000 -6.32880000
-5.90100000 -2.61840000 -8.89800000
-5.76600000 -2.66370000 -8.86970000
-5.96210000 -2.64950000 -8.86530000
-5.68040000 -2.68370000 -8.82680000
-0.06600000 -0.72870000 -7.48400000
-6.41900000 -2.39420000 -8.79200000
1.16560000 1.53550000 -8.61070000
0.28470000 -0.89630000 -7.50290000
0.80350000 1.48890000 -1.63540000
0.91640000 1.50380000 -1.63430000
-6.48290000 -2.47740000 -8.41650000
-6.38930000 -2.32940000 -8.87730000
-5.56250000 1.37850000 -6.17020000
-5.53840000 1.52630000 -6.25870000
-5.63370000 1.52020000 -6.11260000
-6.33900000 -2.43320000 -8.89200000
-5.50670000 1.39090000 -6.27540000
-6.39830000 -2.44560000 -8.83270000
0.98570000 1.53120000 -1.92220000
0.90500000 1.50830000 -2.20730000
-5.48660000 1.33960000 -6.24830000
-6.17540000 -2.53220000 -8.90510000
-6.32770000 -2.51880000 -8.86420000
-5.44510000 1.33150000 -6.19420000
-6.25190000 -2.57810000 -8.86170000
-0.41290000 -0.76150000 -8.08650000
-6.41570000 -2.54830000 -8.68040000
0.49510000 -1.10870000 -8.03420000
-5.46060000 1.29790000 -6.05580000
0.98990000 1.51840000 -8.83430000
-6.47650000 -2.59480000 -8.35130000
-6.39520000 -2.62990000 -8.61410000
1.05270000 1.45830000 -8.89230000
0.97700000 1.43760000 -8.92520000
-6.06360000 -2.68040000 -8.71950000
-6.37880000 -2.67100000 -8.43820000
-6.32720000 -2.64830000 -8.70400000
1.36370000 1.43030000 -8.67090000
-6.37720000 -2.56970000 -8.76970000
-0.16430000 -0.18140000 -6.81100000
-6.31850000 -2.59550000 -8.80840000
1.31020000 1.38950000 -8.82330000
-6.23030000 -2.64430000 -8.79790000
-6.15770000 -2.62960000 -8.85110000
-5.50410000 1.28780000 -6.11100000
-6.08070000 -2.60400000 -8.89330000
-5.56320000 1.29130000 -6.09780000
0.39050000 -1.63040000 -8.04680000
0.09440000 -1.26000000 -8.06320000
-6.04310000 -2.66720000 -8.80590000
1.03650000 1.36580000 -8.93450000
0.32630000 1.47710000 -8.94480000
0.73750000 1.04830000 -8.92860000
-0.15860000 -0.25020000 -7.04890000
1.36510000 1.16400000 -8.92750000
0.46970000 -0.60430000 -7.25470000
0.30390000 -0.46300000 -7.16830000
0.44560000 -0.72180000 -7.38160000
0.64410000 -0.69570000 -7.24450000
0.66050000 -0.86810000 -7.37740000
-0.28790000 1.72600000 -8.88170000
-0.20740000 1.75020000 -8.84190000
-0.01600000 1.70200000 -8.89450000
-0.00700000 1.66000000 -8.92480000
-0.42390000 1.74400000 -8.85260000
-0.21930000 1.77620000 -8.76580000
-0.16800000 1.63340000 -8.91800000
-0.38250000 1.69040000 -8.91430000
0.38950000 -0.80600000 -7.45270000
-0.20910000 1.54470000 -8.92460000
0.19700000 1.77990000 -8.60050000
-3.97720000 1.81240000 -7.96670000
-3.74560000 1.87350000 -8.03650000
-4.00860000 1.83180000 -8.01660000
-3.75820000 1.83330000 -8.20220000
-4.10240000 1.81640000 -8.14900000
-3.97830000 1.85920000 -8.08040000
-4.39410000 1.74300000 -7.88410000
-4.32510000 1.76270000 -7.96380000
-4.45100000 1.78210000 -7.98060000
-4.50010000 1.79570000 -8.02810000
-4.54930000 1.78560000 -8.07050000
0.57750000 -0.97570000 -7.46810000
-4.29250000 1.79520000 -8.00290000
-4.70460000 -1.24000000 -6.90760000
-4.55780000 -1.15210000 -7.05630000
-4.64010000 -1.04520000 -6.82460000
-3.72060000 1.88400000 -7.61380000
-4.13270000 1.82730000 -7.58760000
-4.00920000 1.81370000 -7.45940000
0.40510000 -1.13950000 -7.53710000
-4.76940000 -1.16250000 -6.67620000
-4.70130000 -0.96980000 -6.57980000
-3.90730000 1.86170000 -7.68240000
0.32810000 -0.23100000 -6.34290000
-4.29300000 1.79080000 -7.64180000
-4.05050000 1.82300000 -7.73940000
0.98870000 -0.78510000 -7.03340000
0.79200000 -0.75750000 -7.20290000
0.90010000 -0.91000000 -7.25490000
0.62890000 -0.29820000 -6.00420000
-4.77640000 -1.35930000 -6.85610000
-4.30660000 1.78610000 -7.55540000
-4.63760000 -1.35970000 -7.08450000
-4.42500000 -1.08980000 -7.16680000
-4.56220000 -1.40950000 -7.18990000
0.83690000 -1.09010000 -7.40910000
1.06240000 -0.95630000 -7.15470000
1.07000000 -1.09820000 -7.26380000
-4.34850000 1.49790000 -3.68000000
-3.93690000 1.82250000 -7.87030000
0.00810000 1.58330000 -8.94450000
-4.71940000 -1.57760000 -7.07700000
0.81040000 -1.23970000 -7.47550000
-4.26230000 1.75610000 -7.89340000
-4.20380000 1.77940000 -7.78830000
-4.32630000 1.73490000 -7.79610000
0.72520000 -1.30920000 -7.51280000
-4.32150000 1.76210000 -7.71190000
-0.00270000 1.41690000 -8.94110000
-4.53630000 1.54040000 -3.07380000
-4.59680000 1.54980000 -3.73470000
-4.68650000 -1.75370000 -7.18040000
-4.51420000 -1.50330000 -7.26310000
-4.85200000 -1.23680000 -6.49590000
-4.86830000 -1.46390000 -6.71590000
-4.93880000 -1.50440000 -6.45770000
0.79350000 -0.98190000 -8.04680000
-4.84240000 -1.59360000 -6.86140000
-3.94250000 1.62450000 -7.08910000
-3.40310000 1.65970000 -7.19980000
-3.99110000 1.64680000 -7.15800000
-4.95130000 -1.72320000 -6.61180000
-3.25380000 1.60850000 -6.94450000
-2.99770000 1.64450000 -7.16740000
1.03670000 -0.90680000 -8.08700000
-4.88980000 -1.92390000 -6.86990000
-4.74440000 1.48330000 -3.33860000
-4.77990000 1.43130000 -2.02340000
-4.76930000 -1.72820000 -7.06420000
0.94550000 -1.21340000 -8.04500000
-2.93970000 0.05650000 -5.11050000
-3.23800000 0.03570000 -4.60300000
-3.28790000 -0.01650000 -5.46470000
-0.46330000 1.66040000 -8.94110000
-0.81330000 1.63740000 -8.95190000
-0.35540000 1.56610000 -8.94450000
-4.77070000 -2.23750000 -7.15610000
-0.20770000 1.37870000 -8.93870000
-4.83890000 -2.13220000 -7.03130000
-3.56850000 1.89750000 -7.68980000
-3.66230000 1.86260000 -7.81750000
-4.18510000 -0.32240000 -5.59600000
-3.96250000 -0.19500000 -4.88600000
-4.18030000 -0.29820000 -5.00180000
-3.43380000 1.86820000 -7.50300000
-4.39390000 -1.45260000 -7.32500000
-4.44670000 -1.86940000 -7.38050000
-4.62500000 -1.83110000 -7.25310000
-4.67820000 -2.23950000 -7.25040000
0.74600000 -1.66360000 -8.03730000
-3.49020000 -0.03110000 -4.83210000
0.99270000 -1.92820000 -8.04660000
-3.69150000 1.85010000 -7.93630000
-4.55370000 -2.15760000 -7.33870000
-4.32280000 -2.16030000 -7.46950000
-4.03790000 -0.21840000 -4.08490000
-3.75430000 -0.10580000 -4.57240000
-4.48620000 1.54540000 -3.83310000
-4.45540000 1.52370000 -3.21260000
-4.19520000 -2.33390000 -7.52440000
-4.54920000 1.55550000 -3.79850000
-3.98850000 -2.37760000 -7.56750000
-3.43180000 1.81570000 -7.31840000
-3.62510000 1.82470000 -7.36250000
-3.35200000 1.79090000 -7.28400000
-3.17670000 1.75800000 -7.26410000
-3.03030000 1.75470000 -7.27640000
-3.09750000 1.69890000 -7.24750000
-3.28210000 1.74380000 -7.26010000
-3.18780000 1.70220000 -7.25310000
-3.12630000 1.67050000 -7.22300000
-3.34540000 1.68490000 -7.23890000
-1.56500000 -0.35940000 -8.11440000
-4.48900000 -2.46670000 -7.40540000
-3.54430000 1.75530000 -7.27610000
-3.69140000 1.79000000 -7.29460000
-3.78760000 1.70440000 -7.24570000
-3.69540000 1.75580000 -7.26830000
-4.11470000 1.76280000 -7.30140000
-3.89090000 1.74550000 -7.26910000
-4.05740000 1.69380000 -7.23020000
1.46310000 0.49700000 -8.90960000
-3.74400000 1.67430000 -7.21640000
-3.69660000 -0.10910000 -5.27560000
-4.11980000 -2.57560000 -7.54910000
-3.48090000 -0.07640000 -5.67880000
-3.43080000 1.71130000 -7.25970000
-1.78120000 -0.63730000 -8.11490000
-1.64700000 -0.49250000 -8.10760000
-1.39690000 -0.62520000 -8.12780000
-4.37390000 -2.55960000 -7.46920000
-4.34750000 1.63030000 -7.09170000
-4.23750000 1.63240000 -7.12840000
-4.34350000 -2.65300000 -7.47800000
-4.36900000 1.59440000 -6.97480000
-4.10310000 1.59490000 -6.88990000
-4.86470000 1.87580000 -7.15980000
-4.83830000 1.90520000 -7.24100000
-4.92420000 1.95240000 -7.26170000
-4.95520000 1.94390000 -7.17500000
-4.20550000 -2.66920000 -7.52310000
-4.94260000 1.89520000 -7.11130000
-1.49580000 -0.83450000 -8.16850000
-4.37470000 -2.70900000 -7.47930000
-4.31340000 -2.72810000 -7.53360000
-4.82500000 1.72740000 -7.08440000
-4.78030000 1.81600000 -7.20400000
-5.02150000 1.89330000 -7.05540000
-4.12990000 -2.70900000 -7.55410000
-4.31170000 -2.73990000 -7.58690000
-4.91200000 1.74350000 -7.01220000
-1.72950000 -1.04330000 -8.21270000
-4.67480000 1.65030000 -6.97390000
-4.64750000 1.69790000 -7.21170000
-4.72820000 1.69810000 -7.14750000
-4.78620000 1.65490000 -7.05030000
-4.75790000 1.73890000 -7.18370000
-5.13640000 1.88520000 -6.90260000
-5.03220000 -1.86170000 -6.34900000
-5.12690000 1.90010000 -7.00470000
-1.09280000 -0.54450000 -8.11960000
-4.86790000 1.66000000 -6.99560000
-2.91170000 0.10020000 -4.26640000
-0.96630000 -0.36190000 -7.33370000
1.58880000 1.27730000 -8.76880000
1.51490000 1.26470000 -8.85890000
-4.99260000 -2.09250000 -6.65440000
-0.47650000 -0.51240000 -7.40470000
-5.04930000 -2.19710000 -6.48000000
-1.25930000 -0.44460000 -7.37240000
1.60910000 1.33220000 -8.62200000
1.70820000 1.34000000 -8.46710000
1.81240000 1.17660000 -8.67060000
-0.61270000 -0.62010000 -7.44690000
2.00840000 1.14220000 -8.44810000
-4.42470000 1.58240000 -6.67050000
-4.52910000 1.61530000 -6.75340000
-4.59960000 1.62980000 -6.72910000
1.64870000 1.18770000 -8.81950000
-1.57630000 -0.33390000 -7.30900000
-4.54580000 1.63790000 -6.94590000
-4.43920000 1.64720000 -7.07470000
-4.50960000 1.67650000 -7.09780000
1.88120000 1.07150000 -8.73380000
-4.58520000 1.68510000 -7.13330000
1.76000000 1.04370000 -8.87770000
-5.07730000 -2.18690000 -6.24510000
-5.04640000 -1.78170000 -6.10270000
1.88280000 0.96890000 -8.81850000
-4.46940000 1.60460000 -6.90660000
1.30690000 1.33360000 -8.90160000
-5.00870000 -2.50650000 -6.73270000
-4.69130000 1.87780000 -7.55180000
-4.58850000 1.81170000 -7.52160000
-4.64370000 1.84480000 -7.64060000
-4.53570000 1.80310000 -7.68210000
-4.50920000 1.76460000 -7.53420000
1.33850000 1.28060000 -8.91760000
-4.83600000 1.93190000 -7.44640000
-4.95740000 1.95250000 -7.41060000
-4.77020000 1.90000000 -7.39640000
-3.92480000 -0.20210000 -5.50570000
-4.72060000 1.85090000 -7.34800000
-1.49870000 -0.55100000 -7.40000000
-4.80210000 1.90660000 -7.58410000
-4.92480000 1.92070000 -7.56190000
-0.73550000 -0.75950000 -7.47310000
-4.85590000 1.87220000 -7.66980000
1.59550000 1.14540000 -8.89970000
1.63350000 1.06590000 -8.91820000
-4.68680000 1.85000000 -7.67540000
-5.05600000 -2.49420000 -6.52310000
-0.66600000 -1.10330000 -7.52580000
-1.43130000 -0.86790000 -7.46360000
-4.63260000 1.78180000 -7.38270000
-4.66490000 1.73330000 -7.28380000
-4.55770000 1.72890000 -7.36600000
-5.09170000 -2.35880000 -5.80840000
-5.08400000 -2.53920000 -6.18180000
-5.05970000 -2.61800000 -6.44530000
-4.73370000 1.77900000 -7.91890000
-4.59150000 1.78540000 -7.96790000
-4.92270000 1.70890000 -8.03710000
-4.50520000 1.77530000 -7.85660000
-4.58090000 1.79930000 -7.84450000
-4.56870000 1.81910000 -7.75100000
-3.81210000 -0.36500000 -6.82400000
-3.61860000 -0.27500000 -6.77480000
-3.70140000 -0.26090000 -6.55650000
-4.42130000 1.74490000 -7.78180000
-4.43420000 1.76820000 -7.67440000
-4.76960000 1.83050000 -7.74790000
-4.92190000 -2.54680000 -6.96040000
-3.91610000 -0.48140000 -6.95940000
-3.63990000 -0.38280000 -6.99960000
1.79540000 0.93510000 -8.91040000
-4.97490000 1.79600000 -7.79500000
1.77130000 0.83840000 -8.92110000
-4.92780000 1.76780000 -7.87560000
-0.79320000 -0.71530000 -8.11680000
-1.10100000 -0.74090000 -8.13920000
-0.90230000 -1.02380000 -8.18900000
-5.01190000 -2.69070000 -6.75690000
-4.37160000 1.73190000 -7.33720000
-5.08220000 -2.73800000 -6.53870000
-5.05740000 -2.68420000 -6.48890000
-5.02770000 -2.73180000 -6.79150000
-0.53030000 -1.04440000 -8.14210000
-4.44330000 1.75060000 -7.49020000
-3.52810000 1.41260000 -2.25510000
-4.23730000 1.45090000 -1.87420000
-4.21370000 1.70430000 -7.22660000
-4.35590000 1.70370000 -7.21170000
-4.67450000 -2.57520000 -7.27930000
2.14010000 1.00360000 -8.51300000
-4.54460000 1.69560000 -7.24530000
-2.83080000 0.03530000 -5.62880000
-1.25290000 -1.06050000 -8.22220000
2.30730000 0.93590000 -8.35350000
-4.83440000 -2.60310000 -7.10530000
-3.08690000 -0.01840000 -5.87440000
-4.76980000 -2.67100000 -7.18730000
2.12270000 0.94800000 -8.62920000
2.04850000 0.91630000 -8.72740000
-3.18740000 -0.06660000 -6.14790000
-4.69910000 -2.67210000 -7.25470000
-4.75200000 -2.72460000 -7.23190000
-4.85580000 -2.74650000 -7.47170000
-4.67950000 -2.73810000 -7.36100000
-4.78920000 -2.73860000 -7.25220000
2.21260000 0.82640000 -8.65750000
2.07090000 0.76100000 -8.78230000
2.15730000 0.76680000 -8.71350000
2.47840000 0.75710000 -8.38520000
-4.47000000 -2.68770000 -7.42690000
-4.53890000 -2.67120000 -7.37850000
-4.56610000 -2.72990000 -7.40900000
-4.52230000 -2.73640000 -7.47960000
-4.09560000 -2.74530000 -7.72160000
2.22490000 0.73380000 -8.71740000
2.30950000 0.78620000 -8.60040000
2.28810000 0.73740000 -8.70240000
-4.62160000 -2.67350000 -7.31730000
-4.67990000 -2.71870000 -7.29420000
2.35390000 0.67100000 -8.74020000
-4.58620000 -2.71420000 -7.35960000
2.29700000 0.67330000 -8.78300000
2.23100000 0.66550000 -8.78880000
2.27380000 0.64130000 -8.84950000
2.34170000 0.62290000 -8.84490000
2.45920000 0.59880000 -8.67500000
-0.93830000 -1.34540000 -8.25380000
2.39960000 0.58800000 -8.80350000
2.46970000 0.54250000 -8.68730000
2.66310000 0.52300000 -8.41200000
2.43140000 0.49940000 -8.82380000
1.90720000 0.85770000 -8.86770000
1.93010000 0.75380000 -8.89540000
-3.33040000 1.56880000 -6.52920000
-4.83140000 -2.69710000 -7.11430000
-4.82210000 -2.72810000 -7.16980000
-4.91040000 -2.74390000 -7.13880000
-4.93080000 -2.69340000 -6.95990000
2.09770000 0.62980000 -8.83890000
-3.25140000 0.00730000 -1.11110000
-4.91750000 -2.73200000 -7.03150000
2.16320000 0.65920000 -8.78280000
-3.68840000 -0.14580000 -5.79730000
-3.47300000 -0.15120000 -6.30130000
2.22590000 0.61330000 -8.85930000
2.46090000 0.40190000 -8.77370000
2.44930000 0.48000000 -8.69930000
2.31980000 0.57570000 -8.88550000
2.38190000 0.53770000 -8.86680000
2.37340000 0.47190000 -8.89010000
1.92110000 0.68990000 -8.91220000
1.99830000 0.51190000 -8.90890000
-5.04120000 -2.74770000 -6.88110000
-5.24100000 -2.75640000 -6.82030000
2.07180000 0.55500000 -8.89890000
-1.99940000 -0.64270000 -7.42120000
-5.11910000 -2.74590000 -7.79060000
-2.45590000 -0.84970000 -7.45770000
2.13880000 0.57980000 -8.86620000
2.19550000 0.53490000 -8.89550000
2.29900000 0.46120000 -8.90030000
2.24810000 0.21900000 -8.89050000
-3.32050000 -0.20290000 -6.81160000
2.43420000 0.42210000 -8.84410000
-3.09210000 -0.12770000 -6.66660000
2.38910000 0.30240000 -8.89710000
2.44720000 0.26790000 -8.87660000
2.40000000 0.16930000 -8.88760000
-2.73330000 -0.15710000 -6.97120000
-3.02280000 -0.15090000 -6.82050000
-3.01640000 -0.23400000 -7.10040000
-3.24560000 -0.28480000 -7.10930000
1.70420000 0.13210000 -8.88650000
-5.06230000 -1.89250000 -8.87740000
-3.41190000 -0.27650000 -6.95750000
-4.92320000 -2.01530000 -8.61880000
-4.83900000 -2.02430000 -8.50990000
-4.99910000 -2.33310000 -8.71400000
-4.68290000 -2.07330000 -8.35880000
-4.63100000 -2.33800000 -8.30560000
-4.90250000 -2.38540000 -8.56730000
-2.30480000 1.53070000 -5.97110000
-2.23550000 -0.79800000 -8.11450000
0.86570000 0.26180000 -8.89910000
-4.77760000 -2.42680000 -8.42780000
-4.06070000 -0.29210000 -5.90090000
-3.81340000 -0.22290000 -6.09480000
1.36500000 -0.09330000 -8.87850000
-4.73310000 -2.63360000 -8.38550000
-2.09730000 -1.10210000 -8.19730000
-4.86480000 -2.63650000 -8.51930000
-4.97820000 -2.58900000 -8.69000000
-5.17040000 -2.04450000 -8.91140000
0.09750000 -0.02130000 -1.40000000
0.97520000 0.15260000 -8.88070000
-5.12240000 -2.13970000 -8.90040000
1.23340000 -0.06760000 -8.85540000
-3.97340000 -0.32100000 -6.31930000
-5.09930000 -2.22660000 -8.88010000
-5.06530000 -2.36370000 -8.83110000
-5.18060000 -2.35720000 -8.90470000
-5.13330000 -2.33230000 -8.89890000
-2.51770000 -1.05320000 -8.13080000
-5.11200000 -2.43830000 -8.87300000
-5.35900000 -2.41080000 -8.90790000
-4.26240000 -0.33750000 -4.70750000
-4.36530000 -0.41810000 -5.50190000
-2.92490000 -1.12390000 -8.06600000
-5.30430000 -2.49450000 -8.88520000
-5.38720000 -2.55590000 -8.89280000
-5.18180000 -2.51500000 -8.87830000
-5.28060000 -2.61090000 -8.85360000
-4.24790000 -0.41430000 -6.11010000
-5.04800000 -2.57630000 -8.79730000
-5.02600000 -2.66550000 -8.71750000
-5.10690000 -2.56730000 -8.84400000
-4.37740000 -0.45200000 -5.87180000
-5.14320000 -2.62440000 -8.82670000
-5.20820000 -2.66430000 -8.80440000
-4.50730000 -0.53290000 -5.68480000
-5.05880000 -2.69600000 -8.69450000
0.45710000 -0.11030000 -2.13420000
-4.89380000 -2.68020000 -8.53710000
-4.90800000 -2.71630000 -8.48590000
-2.26700000 -1.34590000 -8.22680000
-1.91510000 -1.39240000 -8.26790000
-4.46720000 -0.56370000 -6.19560000
-2.31260000 -1.61490000 -8.24340000
-4.21860000 -0.46160000 -6.46850000
1.41080000 -0.21450000 -8.86590000
1.90040000 -0.35120000 -8.86850000
-4.04720000 -0.42020000 -6.66960000
-4.07120000 -0.49370000 -6.82760000
