9.16340000 -1.64890000 -7.38510000
6.26740000 -0.45160000 -9.61280000
11.56090000 0.09910000 -3.00510000
9.22400000 -1.63770000 -7.58920000
8.45360000 -1.71080000 -8.05730000
8.95140000 -1.72710000 -7.72930000
8.74370000 -1.75530000 -7.81210000
8.23330000 -1.79190000 -8.13410000
8.19760000 -1.78490000 -8.08660000
8.60560000 -1.74230000 -7.83160000
9.19850000 -1.38990000 -7.00690000
9.58530000 -1.66540000 -7.31570000
9.47370000 -1.71000000 -7.31270000
9.00370000 -1.73500000 -7.59240000
9.30710000 -1.68360000 -7.34850000
9.18320000 -1.73650000 -7.50680000
9.29570000 -1.71960000 -7.47880000
9.14760000 4.19380000 0.89820000
9.30150000 4.17640000 0.77210000
9.30560000 4.11030000 0.66190000
9.18270000 4.21320000 0.96860000
9.08860000 4.27140000 0.99330000
9.07710000 4.29810000 1.10800000
9.19900000 4.13210000 1.00550000
9.00200000 4.26430000 1.04790000
5.66350000 2.41420000 -2.96220000
4.65310000 2.33170000 -3.72380000
9.54600000 4.04750000 0.46780000
4.90770000 2.57510000 -2.77580000
8.97780000 4.20690000 1.04040000
9.21870000 4.01260000 0.58650000
8.86890000 4.11870000 0.92980000
8.84760000 4.21490000 1.17350000
9.69040000 3.97740000 0.18160000
9.73850000 3.89440000 0.24390000
8.42650000 3.04550000 0.63120000
8.82880000 2.82230000 -0.02060000
9.70830000 3.87840000 0.05430000
9.53890000 3.80850000 0.01800000
9.16560000 3.94340000 0.44600000
9.06910000 3.93140000 0.32710000
10.76050000 1.45100000 -0.84470000
10.07930000 1.90560000 0.08860000
9.81630000 1.93700000 0.40730000
9.65760000 0.59460000 -0.23860000
9.80750000 0.28890000 -0.40660000
8.61420000 0.86830000 1.14640000
5.88070000 2.29890000 -3.24920000
6.73380000 2.60870000 -1.82720000
8.71710000 0.78350000 1.06850000
9.38350000 2.84590000 0.95380000
8.31000000 3.83520000 -0.84180000
8.36290000 3.80740000 -0.79480000
8.79580000 3.59170000 -1.28420000
9.05260000 3.59380000 -1.38720000
8.35470000 3.93510000 -0.56940000
8.73960000 3.80320000 -0.63540000
9.32820000 3.48100000 -1.42260000
8.77730000 0.75450000 1.11380000
9.84970000 0.22390000 -0.41590000
8.83260000 3.57370000 -1.49470000
8.61640000 3.76290000 -0.93890000
5.36720000 2.53820000 -2.58860000
5.55620000 2.53240000 -2.57750000
8.66550000 3.66200000 -1.35600000
8.47970000 3.72880000 -1.17000000
7.98330000 3.88890000 -0.72830000
8.43860000 3.64910000 -1.25200000
7.94770000 3.77210000 -0.88790000
9.44530000 0.73780000 1.06330000
10.13930000 0.33660000 0.13940000
10.08830000 0.86490000 0.07260000
9.40710000 0.64110000 1.10920000
8.36430000 3.54100000 -1.44620000
8.77110000 3.51240000 -1.67720000
8.87170000 2.83960000 0.30300000
8.81140000 2.90430000 0.32960000
9.18530000 2.71860000 -0.16550000
5.30200000 2.62480000 -2.37970000
8.49620000 4.11430000 0.85700000
8.43960000 4.05660000 0.58670000
8.20200000 4.19280000 1.13450000
8.44980000 2.17560000 2.14740000
9.12310000 2.05460000 1.20660000
8.75080000 2.27710000 1.75780000
8.80530000 2.41750000 -1.44440000
8.19260000 4.03570000 0.16710000
7.79200000 4.18710000 0.77870000
9.42640000 1.75250000 0.80070000
9.41250000 1.41990000 0.91750000
10.67920000 0.98880000 -0.90980000
7.79620000 4.14440000 -0.06950000
8.13890000 4.03310000 -0.20920000
8.22830000 3.11280000 1.11550000
8.37070000 3.09540000 0.91420000
7.78010000 4.03130000 -0.46630000
7.49150000 4.14880000 -0.18250000
7.82710000 4.02530000 -0.38910000
7.49960000 4.07860000 -0.29200000
8.69350000 2.43430000 0.61950000
7.96100000 3.97200000 -0.39940000
7.93020000 4.02880000 -0.30610000
8.13430000 3.90600000 -0.76170000
4.66490000 2.21910000 -4.10120000
4.83630000 2.26400000 -3.83270000
8.09560000 2.80070000 1.32310000
9.74700000 2.41320000 -0.89390000
9.66530000 2.41830000 -0.96270000
7.59000000 4.17980000 0.02670000
7.51500000 4.24280000 0.22320000
9.38320000 2.59800000 -0.36050000
7.55110000 4.12050000 -0.04480000
7.36700000 4.18040000 0.01620000
9.89500000 2.30160000 -1.04240000
9.30670000 1.89850000 -0.12370000
4.52180000 2.24610000 -3.99470000
8.73350000 1.00220000 2.02710000
8.76590000 1.16120000 1.96330000
8.29940000 1.50480000 2.49570000
8.57350000 0.94890000 2.08780000
8.73240000 0.88160000 1.82630000
8.63480000 0.97860000 2.11880000
9.47360000 0.55260000 0.93970000
8.32470000 1.19610000 2.50880000
8.19190000 1.19250000 2.63340000
8.32640000 1.04640000 2.11220000
8.23000000 1.10570000 2.40380000
8.22150000 1.12870000 2.52510000
5.22800000 2.83590000 -1.69810000
10.32030000 0.17090000 -0.15850000
9.53010000 0.85870000 -0.09730000
9.04160000 1.12670000 0.45500000
9.44930000 0.92150000 -0.03860000
9.29410000 1.05010000 0.04440000
8.75630000 3.85720000 -0.16960000
9.27190000 3.61870000 -0.78780000
9.60500000 3.56270000 -0.74940000
9.12520000 3.85560000 0.04800000
8.72240000 4.09640000 0.84020000
8.68200000 4.10340000 0.96950000
8.82350000 4.01060000 0.59980000
8.89200000 4.03390000 0.73900000
8.55020000 4.11340000 0.96530000
8.96610000 2.38300000 1.62230000
10.38750000 1.41600000 -0.53240000
6.61770000 3.34230000 4.70620000
9.22650000 2.19810000 1.20820000
9.47630000 2.02230000 0.76390000
6.69010000 3.01870000 4.79380000
6.62180000 3.05200000 4.82060000
6.45830000 3.47800000 3.56340000
6.41060000 2.96600000 3.72950000
6.21620000 3.14680000 3.97990000
6.33500000 2.37220000 -2.84000000
6.39440000 2.28030000 -3.06830000
8.23620000 3.96120000 -0.51420000
8.55340000 2.43270000 2.11600000
8.33950000 3.85350000 -0.67980000
6.10340000 2.83960000 4.11850000
8.66920000 4.41150000 1.71100000
8.70030000 4.41960000 1.59090000
8.48920000 4.52350000 1.86360000
8.55500000 4.49810000 1.82990000
8.49900000 4.43270000 1.75690000
8.71850000 4.33740000 1.47290000
8.36380000 4.32100000 1.68270000
8.91190000 4.31700000 1.33070000
6.52770000 3.03430000 4.77340000
8.41190000 4.53200000 2.05310000
8.31330000 4.60910000 2.13210000
8.34920000 4.54870000 2.00260000
8.20080000 4.60280000 2.19390000
6.37890000 2.42000000 4.90460000
8.34380000 4.49150000 1.97750000
6.26640000 2.68190000 4.69190000
8.21880000 4.44050000 2.03020000
10.30800000 0.50970000 -1.40140000
9.89470000 0.72290000 -0.78550000
10.16610000 1.38920000 -1.31970000
10.01870000 0.62400000 -0.91160000
8.37660000 4.45060000 2.15790000
5.99060000 2.48080000 4.61650000
9.79320000 0.74810000 -0.52290000
9.64230000 0.82100000 -0.38230000
10.10340000 0.57340000 -0.87180000
10.25220000 0.50990000 -1.23250000
6.50760000 2.42650000 5.01220000
6.59360000 2.54700000 4.97970000
8.44130000 1.82920000 2.23240000
10.52400000 3.51410000 -1.08590000
10.18590000 3.69480000 -0.55580000
10.35620000 3.63740000 -0.68320000
10.19790000 3.61470000 -0.68750000
9.88060000 3.71980000 -0.30970000
10.02890000 3.55330000 -0.71190000
10.27940000 3.48460000 -0.92110000
10.93360000 3.33090000 -1.47240000
10.81080000 3.35520000 -1.24640000
8.98830000 4.32810000 1.14360000
9.00530000 4.27150000 1.24400000
10.99500000 3.19680000 -1.78170000
10.65070000 3.32200000 -1.38720000
10.84740000 3.35010000 -1.48960000
10.53830000 3.28630000 -1.40560000
10.75870000 3.40210000 -1.27180000
10.71650000 3.38170000 -1.34640000
8.07180000 1.61930000 1.56750000
7.74860000 2.20390000 1.81630000
8.11080000 1.54870000 1.67630000
8.37470000 1.44580000 1.25800000
7.88080000 1.65900000 1.82810000
10.66830000 3.47980000 -1.09510000
10.24540000 3.67130000 -0.47650000
10.56710000 3.53320000 -1.04490000
10.49460000 3.45290000 -1.14390000
8.52860000 1.41610000 1.02610000
8.66190000 1.30260000 0.99080000
8.55470000 1.31540000 1.16140000
8.65040000 1.06660000 1.07080000
8.07220000 1.33760000 1.77700000
9.97960000 3.45120000 -0.97620000
8.33790000 2.59100000 2.48840000
8.24540000 2.42850000 2.46920000
8.10480000 2.56260000 2.83910000
6.83030000 2.20730000 3.42970000
6.45930000 2.38810000 3.81200000
6.93320000 2.14150000 3.16320000
6.81530000 2.18380000 3.49900000
6.47980000 2.37540000 3.88890000
7.02160000 1.88040000 3.23680000
6.61560000 1.98850000 3.80160000
11.71670000 0.74580000 -2.13850000
11.34680000 1.06190000 -1.65430000
8.07530000 2.44130000 2.76850000
11.45380000 0.73400000 -2.00140000
11.54420000 0.79030000 -2.02790000
11.19320000 1.05150000 -1.57100000
10.04860000 3.80360000 -0.27630000
9.86390000 3.89330000 0.01580000
8.01170000 2.21120000 2.78300000
7.10340000 3.46990000 1.99110000
7.97370000 4.27950000 1.54390000
7.76710000 4.25790000 1.29840000
6.11200000 2.25790000 4.77040000
8.37840000 4.17330000 1.21370000
8.38760000 4.21750000 1.40980000
11.34500000 0.67460000 -1.87480000
7.96560000 2.38590000 3.03160000
7.18000000 1.86460000 4.26690000
8.16390000 4.22550000 1.44910000
7.89380000 2.16880000 3.07950000
6.88550000 1.94880000 4.64490000
6.62910000 2.09410000 5.00150000
9.61670000 3.69910000 -0.31130000
6.64520000 2.32800000 3.51040000
6.21860000 2.53580000 4.08670000
10.98720000 0.28280000 -1.19370000
6.83940000 1.91640000 4.59930000
11.51690000 -0.01430000 -2.04170000
7.98620000 1.82330000 2.82830000
5.71020000 2.60600000 -2.16780000
5.97430000 2.48340000 -2.53340000
5.97450000 2.55890000 -2.34350000
5.65810000 2.62340000 4.05220000
7.90670000 4.43040000 2.24520000
7.93420000 4.35150000 1.95540000
6.57240000 2.24530000 5.06780000
7.90890000 4.33390000 1.76590000
6.54170000 2.16550000 5.09340000
7.76940000 4.36330000 1.94480000
6.47500000 2.17750000 5.07790000
6.27640000 2.15490000 4.92770000
7.99210000 1.54870000 2.85120000
6.03640000 2.15470000 4.78290000
6.52380000 2.09940000 5.04630000
6.41030000 2.09980000 4.99600000
6.62700000 1.92930000 4.48790000
6.28400000 2.06090000 4.80730000
7.88190000 1.64630000 1.92590000
7.52330000 1.79770000 2.24600000
7.52160000 1.75320000 2.31580000
5.34460000 2.40240000 4.11950000
5.41740000 2.52790000 4.08780000
10.72980000 0.45860000 -2.10710000
6.08840000 2.08520000 4.78430000
5.56640000 2.55890000 4.07570000
5.72030000 2.51970000 4.21880000
5.68130000 2.23010000 4.31400000
7.78470000 1.81010000 3.38780000
7.82700000 1.80390000 3.11470000
6.14060000 2.67570000 4.14740000
6.02850000 2.57210000 4.21740000
6.11310000 2.53910000 4.20990000
6.08810000 2.52490000 4.30670000
5.87160000 2.54290000 4.21610000
6.00610000 2.52310000 4.33560000
5.95670000 2.41450000 4.36840000
7.79480000 1.78250000 3.27610000
6.18290000 2.48950000 4.23710000
6.29040000 2.42000000 4.18610000
6.11580000 2.46660000 4.36720000
6.14260000 2.25590000 4.41890000
6.26460000 2.29270000 4.26080000
7.74920000 1.50610000 3.28550000
7.70990000 1.36910000 3.12360000
7.34850000 1.56190000 3.52860000
7.15120000 1.58060000 3.46570000
7.24270000 1.44380000 2.92650000
7.73670000 1.23660000 2.42390000
6.06510000 2.23250000 4.46870000
5.97000000 2.13880000 4.49720000
7.70900000 1.51650000 3.49320000
7.71080000 1.57690000 3.54090000
7.38600000 1.67090000 3.93670000
7.68300000 1.46690000 3.39080000
10.73910000 0.27110000 -2.06800000
10.91810000 0.19020000 -2.38400000
7.62870000 1.79100000 2.03590000
10.64720000 0.31060000 -1.82690000
10.39850000 0.45020000 -1.33630000
10.53220000 0.35410000 -1.51720000
5.52880000 2.05940000 4.42100000
5.87260000 2.05700000 4.65670000
5.23790000 2.06380000 4.46850000
10.76680000 0.13620000 -1.89370000
10.34750000 0.24000000 -1.19230000
5.76290000 2.08640000 4.43050000
5.36050000 2.13110000 4.22520000
5.34570000 2.07670000 4.27360000
7.63460000 1.52740000 2.23390000
7.43950000 3.36720000 1.95990000
7.17740000 3.48030000 2.25390000
7.54930000 3.37510000 1.78600000
7.17780000 1.69940000 3.99520000
12.01350000 0.28330000 -2.49000000
11.76800000 0.62440000 -2.23580000
11.87190000 0.42080000 -2.36620000
11.68180000 0.54290000 -2.25840000
11.79430000 0.33070000 -2.37140000
11.60660000 0.39240000 -2.21830000
11.69190000 -0.16280000 -2.25950000
4.90690000 2.15010000 4.13640000
11.95250000 0.14510000 -2.43530000
4.61680000 2.10890000 4.31140000
4.93750000 2.09100000 4.20730000
4.51130000 2.11770000 4.18490000
11.79850000 0.00930000 -2.37610000
7.00230000 2.06960000 2.77280000
6.95080000 2.15190000 2.91220000
6.99500000 2.33960000 2.80480000
6.94660000 2.60450000 3.01120000
9.01310000 3.43910000 -1.91620000
9.06090000 3.33650000 -2.27610000
6.75200000 2.75740000 3.28800000
6.90010000 2.19420000 3.15100000
6.94510000 2.12180000 3.00710000
7.01490000 2.04670000 2.86490000
7.04830000 2.05770000 3.00140000
9.34460000 3.26620000 -2.34440000
9.15250000 3.44870000 -1.76100000
7.91660000 1.37850000 2.95740000
11.35660000 -0.11820000 -1.71880000
7.78430000 1.42360000 3.15680000
7.79040000 1.36150000 3.09410000
11.19610000 0.20840000 -2.77500000
5.62260000 2.69320000 -1.98560000
11.10110000 0.10940000 -2.65750000
7.55180000 3.60030000 -1.36770000
7.93190000 3.64040000 -1.17870000
9.13430000 3.34610000 -1.99340000
9.11410000 3.39800000 -1.81360000
10.95570000 0.14440000 -2.27890000
11.09250000 0.05670000 -2.42070000
11.09340000 0.06750000 -2.56150000
11.24560000 0.03100000 -2.59820000
11.03400000 -0.10520000 -2.31060000
7.30530000 2.58360000 2.24910000
7.41830000 1.97030000 2.21570000
8.91440000 3.57540000 -1.33950000
11.39740000 0.03130000 -2.85690000
11.38530000 -0.05110000 -2.64020000
11.35340000 -0.00550000 -2.71060000
11.23840000 -0.00590000 -2.54410000
7.95960000 3.24700000 1.29750000
11.51460000 -0.03760000 -2.76660000
11.27550000 0.02260000 -2.76000000
11.55250000 -0.07760000 -2.74300000
11.32910000 -0.23740000 -2.55050000
7.33050000 1.91470000 2.35220000
8.09180000 3.20550000 1.21560000
11.54170000 -0.27470000 -2.68550000
6.14170000 2.07640000 4.46590000
6.06040000 2.07110000 4.56860000
5.91860000 2.06840000 4.58160000
6.67520000 1.82470000 3.74810000
6.57420000 1.83350000 3.95410000
6.21300000 2.02420000 4.53990000
7.11810000 2.05890000 2.57960000
7.12140000 3.05240000 2.46090000
7.15090000 1.92830000 2.78720000
7.14270000 1.97070000 2.73070000
7.12180000 1.98520000 2.64640000
7.27340000 1.87000000 2.55510000
11.21390000 -0.39490000 -2.43040000
11.09040000 -0.39210000 -2.28880000
10.99050000 -0.29610000 -2.22120000
7.22400000 1.71800000 2.67700000
7.05640000 2.04180000 3.11680000
7.08720000 1.82470000 2.98740000
5.62140000 2.11910000 4.63300000
10.64180000 -0.12060000 -1.65060000
5.26560000 2.12480000 4.54960000
5.49050000 2.08180000 4.58590000
7.50590000 1.36900000 2.40180000
7.27400000 1.42940000 2.67020000
5.04730000 2.14960000 4.53020000
7.71910000 3.38020000 -2.10480000
7.12070000 1.54490000 2.86950000
4.80250000 2.16190000 4.53650000
7.06140000 1.59140000 3.06110000
7.12900000 1.49280000 2.94610000
7.06040000 1.57180000 3.25910000
10.87450000 -0.29570000 -2.00160000
10.51140000 -0.10060000 -1.39780000
4.98270000 2.09930000 4.50490000
4.64970000 2.22360000 4.55710000
4.59020000 2.17800000 4.53810000
4.73690000 2.12400000 4.52100000
4.57530000 2.12120000 4.45700000
4.45300000 2.18320000 4.48130000
4.44880000 2.13780000 4.45150000
11.43500000 -0.35190000 -1.84540000
7.52160000 1.30380000 2.47480000
11.25630000 -0.26000000 -1.52430000
5.22870000 2.06860000 4.51190000
10.74570000 -0.00460000 -0.74480000
10.71680000 -0.06820000 -0.81750000
11.39670000 -0.39590000 -1.82730000
7.72910000 3.29560000 1.64710000
7.95130000 1.16070000 1.95260000
11.16380000 -0.32580000 -1.62470000
8.00790000 1.10530000 1.94890000
11.43220000 -0.49620000 -2.25630000
10.44320000 -0.07840000 -1.18750000
11.10820000 -0.40700000 -2.19400000
4.24040000 2.10400000 4.13680000
6.98660000 1.65210000 3.32770000
12.03490000 -0.29630000 -2.44040000
11.92870000 -0.20300000 -2.40210000
11.96830000 -0.44580000 -2.36600000
10.42970000 1.99160000 -1.90670000
10.30630000 1.96530000 -2.12310000
12.14240000 -0.60080000 -2.55950000
11.98750000 -0.56170000 -2.36880000
10.24130000 2.08490000 -1.54180000
11.88580000 -0.50290000 -2.33470000
11.49150000 -0.48340000 -2.59590000
11.77400000 -0.41760000 -2.29940000
11.61750000 -0.44720000 -2.13570000
11.77120000 -0.52570000 -2.29000000
11.69440000 -0.54220000 -2.27460000
11.52940000 -0.55170000 -2.57780000
11.31700000 -0.46830000 -2.45740000
9.51840000 0.47410000 0.60210000
11.93860000 -0.59750000 -2.41260000
7.01140000 3.42120000 2.69940000
6.93400000 3.50420000 2.88450000
7.01750000 3.50420000 2.60780000
6.82630000 3.55940000 2.53360000
7.21260000 3.42340000 2.25570000
6.97100000 3.53820000 2.60430000
7.00980000 2.81980000 2.72820000
6.77060000 3.50540000 3.12180000
6.60390000 3.55270000 3.31660000
6.84770000 3.55780000 2.95730000
6.91910000 3.20780000 2.98410000
10.31900000 1.59240000 -0.35300000
8.90710000 1.17400000 0.71350000
-2.04950000 -0.57420000 -12.52170000
-2.37370000 -1.11110000 -12.05460000
-1.89860000 -1.24230000 -12.69790000
2.54400000 2.20950000 -8.79420000
3.39360000 1.30580000 -10.18450000
3.54870000 1.34260000 -10.20110000
3.74140000 1.13290000 -10.38100000
2.17050000 -0.52940000 -11.63430000
1.89730000 -0.55930000 -11.84150000
1.91620000 -0.97110000 -11.68760000
3.67130000 1.04380000 -10.43390000
3.32650000 1.15680000 -10.28650000
2.86980000 -1.65930000 -10.54290000
2.87080000 -1.44110000 -10.63490000
2.53740000 -1.81040000 -10.96490000
2.50320000 -1.71150000 -11.02360000
3.60420000 0.88300000 -10.51250000
3.12120000 1.06540000 -10.38900000
3.33630000 0.83620000 -10.55530000
-2.03330000 -1.28190000 -12.57840000
-2.42700000 -1.18280000 -12.11770000
-2.19330000 -1.27170000 -12.46600000
-2.45920000 -1.07310000 -11.89370000
-2.56910000 -1.13370000 -11.85880000
3.91520000 0.92200000 -10.50730000
3.83480000 1.13540000 -10.28030000
-2.54530000 -1.22600000 -11.96890000
2.66690000 -1.22700000 -10.82030000
2.32730000 -1.25720000 -11.22000000
2.32740000 -1.34980000 -11.24190000
3.98930000 1.08050000 -10.28200000
4.01360000 0.89150000 -10.41830000
-2.31200000 -1.30030000 -12.31290000
-2.57920000 -1.42190000 -11.87990000
4.14550000 0.79690000 -10.46940000
2.39420000 -1.38140000 -11.25330000
2.74230000 -1.28790000 -10.77840000
2.65140000 -1.39020000 -10.95030000
3.91970000 0.78380000 -10.60870000
3.78970000 0.62160000 -10.65300000
2.31220000 -1.43860000 -11.37490000
2.39840000 -1.53470000 -11.24470000
-1.89200000 -1.44850000 -12.89980000
-1.96080000 -1.68400000 -12.77360000
3.50900000 0.61960000 -10.65750000
2.19530000 -1.60650000 -11.42500000
2.24010000 -1.82130000 -11.30490000
-2.00820000 -1.83330000 -12.68930000
-2.45440000 -1.66950000 -12.06700000
3.01970000 0.93420000 -10.56380000
5.22720000 -0.82350000 -9.19130000
5.48390000 -1.06390000 -9.09220000
6.06860000 -1.02300000 -8.88900000
5.78900000 -1.10060000 -9.00520000
2.94130000 0.69520000 -10.89610000
2.85190000 0.91490000 -10.72060000
3.18010000 0.66790000 -10.73470000
-2.46850000 -0.94560000 -11.60820000
-2.49080000 -1.02220000 -11.68630000
-2.43930000 -0.97920000 -11.78910000
-2.55500000 -0.96810000 -11.47460000
2.25890000 -1.93200000 -11.34600000
2.09740000 -1.89480000 -11.42500000
2.76580000 1.08140000 -10.55050000
-2.55160000 -1.06210000 -11.72190000
-2.61900000 -1.00550000 -11.50850000
-2.60630000 -1.14290000 -11.68770000
-2.66510000 -1.05580000 -11.48230000
-2.66170000 -1.25810000 -11.47620000
2.74970000 2.16670000 -8.90110000
2.83460000 2.13150000 -8.78830000
5.43230000 -0.49840000 -9.82630000
5.01060000 -0.20070000 -9.93430000
5.44480000 -0.14480000 -9.85290000
4.94710000 -0.72890000 -9.88330000
2.60390000 0.62660000 -11.34140000
2.55940000 0.92280000 -11.04430000
3.19910000 1.94090000 -8.82710000
3.31880000 -0.97460000 -10.93040000
3.42870000 -1.61230000 -10.66000000
3.21260000 -1.54440000 -10.89300000
-2.60930000 -1.41210000 -11.68850000
2.41140000 1.10480000 -10.92570000
-2.63210000 -1.47020000 -11.54290000
-2.80010000 -1.24110000 -11.25680000
3.55160000 -1.81310000 -10.51460000
3.71030000 -1.51370000 -10.52920000
-2.71960000 -1.43720000 -11.35810000
3.17000000 -1.90350000 -10.82010000
-3.07470000 -1.30010000 -10.93310000
-2.91310000 -1.41850000 -11.14300000
3.14840000 -1.90850000 -10.68730000
3.58690000 -1.84320000 -10.33040000
3.17540000 -1.76670000 -10.38010000
4.69650000 -0.90880000 -9.96990000
4.77810000 -0.32370000 -10.02240000
-2.62310000 -1.54710000 -11.65200000
-2.72590000 -1.53340000 -11.45010000
5.40120000 -1.14900000 -9.69680000
-3.06500000 -1.48750000 -11.22030000
-2.67600000 -1.62050000 -11.72020000
3.34440000 0.38540000 -10.82750000
-2.94810000 -1.66100000 -11.75290000
-3.33070000 -1.30540000 -10.73260000
5.77490000 -0.53740000 -9.74830000
5.99570000 -0.79080000 -9.62540000
-2.59830000 -1.60280000 -11.84220000
2.86290000 0.57140000 -11.12460000
2.99910000 -1.73490000 -11.14620000
-2.52850000 -1.72730000 -12.06720000
2.98780000 0.21020000 -11.25960000
3.16360000 0.30900000 -10.97770000
2.76480000 0.34680000 -11.42990000
2.94920000 -1.98050000 -11.10540000
3.16340000 -1.41380000 -10.35870000
3.07820000 -1.67300000 -10.34490000
2.90970000 -1.74830000 -10.53620000
3.53700000 2.19930000 -7.91590000
4.11920000 1.62320000 -8.96430000
3.66450000 1.88800000 -8.56820000
2.71110000 -1.85150000 -10.86480000
4.08420000 0.69990000 -10.53810000
4.05750000 0.60560000 -10.63230000
3.97650000 0.49870000 -10.71560000
4.25860000 0.49930000 -10.58470000
4.24770000 0.69760000 -10.46780000
4.16220000 0.42700000 -10.62070000
-2.41000000 -1.82600000 -12.87240000
-3.01940000 -0.90160000 -12.07420000
-3.05000000 -1.46460000 -11.97760000
3.02440000 -1.97270000 -10.93280000
4.07380000 0.40690000 -10.70980000
4.84360000 -1.38640000 -9.76940000
3.46480000 -1.88950000 -10.52900000
3.75960000 -1.87080000 -10.43080000
3.82950000 0.40450000 -10.72040000
3.52580000 -1.89730000 -10.44310000
3.66230000 0.24620000 -10.76430000
3.29510000 -1.91990000 -10.62400000
3.29240000 -1.89690000 -10.67730000
1.65620000 0.60570000 -10.20150000
1.68740000 0.96240000 -9.27510000
0.21090000 0.59670000 -10.84030000
3.29490000 1.83230000 -9.45320000
3.70430000 1.46620000 -9.93550000
3.43560000 1.60520000 -9.76090000
3.85070000 1.40140000 -9.69850000
3.69660000 1.52630000 -9.82380000
3.46090000 1.71600000 -9.39910000
4.33840000 0.56470000 -10.37620000
4.33140000 0.38380000 -10.56920000
3.32200000 -1.61100000 -10.18100000
3.38470000 -1.38390000 -10.22150000
3.33990000 -1.71620000 -10.20640000
4.43340000 0.14750000 -10.39170000
3.44850000 -1.66600000 -10.11760000
4.29060000 0.20870000 -10.63010000
4.36560000 0.08440000 -10.57260000
3.12210000 1.90020000 -9.37800000
4.17140000 0.18280000 -10.68370000
4.66670000 -0.53460000 -9.40980000
4.93500000 -1.02400000 -9.21580000
4.01130000 0.19030000 -10.76010000
3.85740000 0.16990000 -10.75670000
4.57840000 -1.02930000 -9.31420000
2.84500000 -1.94600000 -11.29320000
4.75070000 -1.09420000 -9.28000000
4.21610000 -0.09910000 -10.64020000
4.09750000 -0.05290000 -10.72920000
2.31540000 -2.04070000 -11.56810000
3.85410000 -0.16050000 -10.75140000
-2.78600000 -1.79710000 -12.28210000
-2.94940000 -1.71200000 -12.10630000
-2.63580000 -1.80680000 -12.55780000
-3.01080000 -1.11680000 -11.85620000
-3.04300000 -1.35450000 -11.92430000
-3.03560000 -1.40290000 -11.76700000
3.28090000 2.02590000 -8.38880000
2.79810000 -2.01830000 -11.25460000
2.76500000 -2.00390000 -11.35980000
2.52500000 -2.05620000 -11.50260000
3.46770000 0.19740000 -10.84000000
5.36440000 -1.15460000 -9.17820000
3.37530000 0.02850000 -10.92850000
5.13050000 -1.09270000 -9.17170000
4.96580000 -1.13200000 -9.26050000
-3.06720000 -1.63140000 -11.92530000
-3.00940000 -1.70060000 -11.94810000
-3.06420000 -1.56520000 -11.75210000
3.10660000 -0.21620000 -10.61850000
2.64790000 -0.41430000 -11.12500000
3.12540000 -0.30420000 -10.61020000
2.77790000 -0.20740000 -10.87790000
2.91620000 -0.61710000 -10.72360000
-3.03750000 -1.64380000 -11.79660000
3.52150000 1.75650000 -8.99300000
5.14890000 -1.19790000 -9.22680000
-3.08620000 -1.35890000 -11.63040000
-3.10840000 -1.53340000 -11.59480000
-3.22200000 -1.51160000 -11.38230000
-3.22400000 -1.38470000 -11.40850000
4.69120000 -1.15110000 -9.34970000
-3.07020000 -1.59900000 -11.60250000
4.69070000 -1.33700000 -9.29350000
3.01660000 -0.17780000 -11.41250000
3.21680000 -0.00530000 -11.08360000
5.35520000 -1.32730000 -9.13600000
-3.14630000 -1.55430000 -11.39210000
3.59220000 -0.02390000 -10.82160000
4.84200000 -1.50780000 -9.19960000
2.52830000 -2.03350000 -11.57350000
1.10570000 0.10850000 -12.37690000
0.81450000 0.55980000 -12.15490000
1.41060000 0.44390000 -12.12530000
0.80360000 0.32470000 -12.31040000
4.37660000 -0.25610000 -10.48120000
2.28430000 -1.26800000 -11.99610000
1.85460000 -1.37580000 -12.24000000
2.24020000 -0.87200000 -12.10760000
1.46620000 0.10780000 -12.31570000
-2.42310000 -1.92440000 -12.69590000
3.65180000 -0.40650000 -10.78110000
3.44290000 -0.34300000 -10.91190000
4.45930000 -0.25660000 -10.31970000
1.12900000 -0.17030000 -12.48410000
3.24290000 -0.32910000 -11.11390000
0.87170000 0.02490000 -12.46380000
4.33820000 -0.12790000 -10.58320000
1.97760000 -1.83970000 -12.03110000
3.93040000 1.56390000 -9.13600000
0.15850000 -0.40650000 -13.29720000
0.05450000 -0.23270000 -13.27200000
0.09910000 -0.12960000 -13.22180000
-0.06810000 -0.28150000 -13.25150000
-0.22240000 -0.15500000 -13.24810000
0.04920000 -0.41390000 -13.29910000
1.93910000 -1.31250000 -11.57460000
1.52090000 -1.32740000 -11.81940000
0.80410000 -0.31190000 -12.63960000
0.68470000 0.07850000 -12.52380000
1.68890000 -1.41310000 -11.75160000
0.65780000 -0.17000000 -12.68110000
1.95970000 -1.38530000 -11.56940000
1.81260000 -1.45260000 -11.71470000
1.61660000 -1.50000000 -11.82950000
1.54950000 -0.20430000 -12.41570000
4.29680000 -0.59240000 -10.51760000
-0.10600000 -0.37590000 -13.21430000
1.52380000 -1.43290000 -11.84750000
2.12380000 -1.41960000 -11.51040000
2.03720000 -1.48590000 -11.59080000
-0.17550000 -0.53000000 -13.22670000
-0.26670000 -0.41770000 -13.16210000
1.63320000 -1.60760000 -11.77790000
3.28290000 1.59030000 -9.91810000
3.63050000 1.35860000 -10.12920000
1.26730000 -0.48750000 -12.53080000
3.31550000 1.63360000 -9.80160000
3.71800000 1.35470000 -10.05060000
0.25930000 -0.54210000 -13.23250000
0.15060000 -0.12810000 -13.15490000
0.13300000 -0.60880000 -13.34910000
1.59900000 -1.61820000 -12.30340000
1.65990000 -0.95730000 -12.41350000
1.31990000 -1.52360000 -12.41830000
1.02010000 -0.38690000 -12.56610000
0.03710000 -0.81920000 -13.33760000
3.78020000 1.52880000 -9.34960000
4.21380000 -0.36950000 -10.59850000
2.85180000 1.43170000 -9.99030000
3.03590000 1.51780000 -9.91760000
4.04760000 -0.61470000 -10.66340000
2.79570000 1.30420000 -10.17700000
3.90300000 -0.95440000 -10.61310000
0.11460000 -0.50980000 -12.74080000
0.15150000 -0.37110000 -12.60860000
-0.02340000 -0.58410000 -12.87150000
-0.16140000 -0.43470000 -12.83420000
0.98660000 -0.65530000 -12.61860000
-0.35310000 -0.48980000 -12.90410000
0.19990000 -0.59820000 -12.70100000
0.00500000 -0.69030000 -12.87130000
-0.52570000 -0.55920000 -12.94920000
4.16280000 -0.96160000 -10.49690000
-0.03600000 -0.92020000 -12.84340000
-0.41760000 -1.11380000 -12.84900000
4.10820000 -0.71080000 -10.61290000
1.35840000 -1.46880000 -11.94190000
1.17970000 -1.41590000 -11.97400000
-0.38200000 -0.53870000 -13.21180000
-0.22420000 -0.77420000 -13.26610000
2.11500000 1.48640000 -10.46970000
2.39450000 1.30120000 -10.55830000
2.07900000 1.29310000 -10.91720000
1.80970000 1.52230000 -10.70180000
1.15110000 -1.53010000 -12.02430000
0.59190000 -0.07570000 -12.04350000
1.63220000 -0.10600000 -11.58650000
0.85560000 0.11350000 -11.62470000
-0.50790000 -0.90480000 -13.28300000
-0.62620000 -0.45910000 -13.24160000
-0.81720000 -0.79200000 -12.96110000
0.43240000 1.24550000 -11.59180000
0.24910000 1.05680000 -11.81750000
1.21240000 -0.26490000 -12.02680000
0.16860000 -0.23880000 -12.45790000
1.92800000 -1.79010000 -11.55700000
3.53970000 -0.92510000 -10.75620000
0.25120000 -0.82660000 -13.27710000
0.73000000 -0.37980000 -12.32650000
0.19930000 -0.67530000 -13.33610000
0.32130000 -0.81010000 -13.23160000
0.37650000 -0.64600000 -13.22810000
1.55750000 -1.88300000 -11.74410000
3.14960000 -0.51960000 -11.23530000
0.15730000 -1.06970000 -13.32740000
0.38760000 -0.94070000 -13.23030000
0.47240000 -0.69810000 -13.18400000
2.04870000 1.90920000 -9.30880000
2.46750000 1.80440000 -9.47770000
2.35810000 1.63250000 -9.78240000
2.33920000 2.19460000 -8.90600000
2.62990000 2.11340000 -9.11330000
0.00800000 1.00610000 -12.01850000
0.44210000 -1.02070000 -13.19710000
0.27900000 -1.13680000 -13.23290000
1.59770000 -2.00600000 -12.19500000
1.34550000 -0.43460000 -12.10130000
1.82230000 -0.33880000 -11.77730000
0.21850000 -1.24950000 -13.27070000
0.12930000 -0.90180000 -12.69620000
3.68650000 0.71320000 -8.96930000
1.14950000 -0.49180000 -12.20960000
4.57270000 -0.38640000 -10.16800000
1.48240000 -1.95480000 -11.80280000
1.05370000 -1.87650000 -11.96410000
-0.11090000 -1.03970000 -13.29440000
0.80960000 -0.53010000 -12.34120000
1.83130000 -2.00220000 -11.73010000
1.10300000 -2.03640000 -12.13420000
1.55100000 -0.54720000 -12.03820000
1.08560000 -0.85350000 -12.14110000
2.17030000 -2.04220000 -11.84320000
1.81430000 -2.06560000 -12.06060000
4.04210000 -0.23030000 -9.98370000
4.24570000 -0.16820000 -9.77490000
4.10440000 -0.03250000 -9.84230000
1.68110000 -2.10880000 -12.05520000
0.60260000 0.96500000 -11.85330000
4.15940000 -0.48060000 -9.76450000
2.38090000 2.05560000 -9.11530000
-0.42110000 -1.20270000 -13.27750000
1.58710000 -2.09990000 -12.15700000
4.32990000 -0.65690000 -9.55500000
0.50470000 0.13110000 -12.60850000
-0.30470000 -1.48080000 -13.23640000
0.50880000 -0.08250000 -12.76910000
0.47580000 -0.18780000 -12.92850000
0.37870000 0.01200000 -12.93450000
0.42010000 0.72450000 -12.11760000
3.80640000 -0.19620000 -10.20940000
3.74810000 -0.05890000 -10.14220000
0.62500000 -0.46970000 -12.83780000
0.54930000 -0.49500000 -12.95970000
3.84930000 -0.29600000 -10.20980000
3.83270000 -0.48510000 -10.19490000
3.72650000 -0.30360000 -10.27530000
0.38450000 -0.36040000 -13.17650000
0.25990000 -0.06190000 -13.08950000
0.32150000 -0.02200000 -13.06210000
0.42890000 -0.26440000 -13.10890000
0.15240000 -1.35580000 -12.54970000
0.27890000 -1.09830000 -12.47490000
3.58000000 -0.55390000 -10.25610000
2.86380000 1.99380000 -9.22620000
0.28530000 -0.35970000 -13.17380000
0.18460000 -0.06540000 -13.09050000
-0.05610000 -1.32630000 -12.76110000
0.27260000 0.63790000 -12.30440000
3.95960000 -0.67450000 -9.94170000
0.47360000 -0.47310000 -13.13700000
2.82220000 1.93670000 -9.42790000
-0.07130000 0.94200000 -12.21630000
-0.17600000 0.93120000 -12.47720000
-0.23370000 0.92960000 -12.55580000
-0.00770000 0.78320000 -12.43160000
2.78060000 1.76800000 -9.59510000
3.84800000 -0.81540000 -10.06490000
-0.26470000 0.81810000 -12.62590000
0.43370000 -0.42860000 -12.49500000
0.45790000 -0.55680000 -12.50410000
-0.75540000 -0.95010000 -13.35470000
-0.90100000 -0.43590000 -13.33560000
-0.64840000 0.92520000 -12.73400000
-0.69640000 0.94500000 -12.67120000
-1.10590000 -0.51820000 -13.46240000
2.54770000 0.17120000 -10.58130000
3.67290000 0.51800000 -9.36210000
1.81720000 0.32080000 -10.74160000
0.76240000 -0.65050000 -12.75040000
-0.78120000 0.90740000 -12.63010000
4.37860000 -1.15290000 -10.20770000
-0.33350000 0.74690000 -12.77870000
-0.32590000 0.79390000 -12.65850000
1.07150000 -2.06420000 -12.37060000
0.97170000 -1.80170000 -12.47610000
-0.52190000 0.78560000 -12.82320000
-1.02040000 -0.99560000 -13.45090000
0.72700000 -2.08380000 -12.51710000
0.75680000 -1.68030000 -12.62010000
4.50060000 -1.04940000 -10.09200000
-0.87360000 0.68830000 -12.90020000
3.53000000 0.29590000 -9.81640000
1.71100000 1.76530000 -10.16520000
0.73710000 -1.87740000 -12.08540000
0.74330000 -1.65530000 -12.13870000
0.63980000 -1.93710000 -12.16990000
4.29060000 -1.29120000 -10.34000000
0.51260000 -1.87150000 -12.22350000
0.06760000 0.54240000 -12.74370000
0.41400000 -2.00170000 -12.39310000
0.52900000 -0.83870000 -13.07050000
0.74540000 -2.08890000 -12.40230000
1.17900000 -2.10300000 -12.23410000
0.22200000 0.49850000 -12.53100000
0.62830000 -0.82130000 -12.87820000
-0.68830000 -1.38700000 -13.30590000
0.06770000 0.38190000 -12.88180000
2.06470000 1.67450000 -9.94650000
1.15470000 -2.10780000 -12.29830000
0.80510000 -0.99570000 -12.71230000
-0.09360000 0.36200000 -12.99100000
-0.06160000 0.42670000 -12.87100000
0.51990000 -1.36310000 -12.97650000
-0.27920000 0.55140000 -12.94060000
-0.37140000 0.40060000 -13.01980000
-0.92980000 -1.64480000 -13.33310000
-1.29890000 -1.24920000 -13.55670000
0.57720000 -1.08660000 -12.28460000
4.21470000 -1.04030000 -9.53380000
0.43160000 -0.75320000 -12.45800000
2.53190000 -1.32650000 -11.79440000
3.42890000 -0.24710000 -10.40050000
2.14320000 -2.08260000 -11.81290000
-0.45330000 -0.01430000 -12.37210000
0.04880000 0.25460000 -11.69290000
3.32760000 -0.84700000 -10.27920000
1.67860000 -0.54420000 -12.42860000
1.84000000 -0.33220000 -12.33960000
0.52450000 0.36320000 -12.40550000
1.42420000 -0.85410000 -12.49460000
-0.68690000 -1.41970000 -12.83940000
-1.12300000 -1.28300000 -12.94730000
1.10380000 -0.89990000 -12.57550000
4.29520000 0.27620000 -9.40250000
4.08990000 0.15640000 -9.66640000
-0.48700000 -1.52630000 -12.87830000
-0.81410000 -1.47040000 -12.89310000
-0.83700000 -1.52900000 -12.94670000
-0.54660000 -1.70680000 -12.85620000
3.65260000 0.09410000 -10.03540000
-1.20550000 -1.41090000 -12.95610000
4.02700000 -1.20690000 -10.54700000
2.13530000 -0.52840000 -12.18860000
1.90000000 -0.81980000 -12.31980000
-1.35380000 -1.48750000 -13.08440000
-1.34330000 -1.53800000 -13.11340000
-0.95530000 -1.71710000 -12.94250000
3.74930000 -0.89770000 -10.11810000
3.32830000 -0.08860000 -10.39850000
1.13020000 0.79960000 -11.93070000
3.03480000 1.83090000 -9.59490000
0.43320000 -1.42100000 -13.13500000
0.35680000 -1.32560000 -13.18930000
3.97680000 -1.08400000 -9.77670000
3.78630000 -1.14510000 -10.02090000
3.51660000 -1.12720000 -10.12400000
3.61740000 -1.18500000 -10.09950000
3.13740000 1.79200000 -9.51510000
1.85410000 -0.45650000 -11.84970000
1.93930000 -1.93120000 -11.54890000
1.61440000 -0.73040000 -11.94990000
0.26880000 -1.68670000 -13.12950000
2.85340000 0.00930000 -10.61190000
0.07330000 -1.46690000 -13.26800000
3.16440000 -0.63240000 -10.46340000
3.12810000 -1.14490000 -10.33640000
0.12990000 -1.75230000 -13.20800000
3.33750000 -1.17680000 -10.20840000
3.06910000 -1.21910000 -10.41280000
-0.19830000 -1.90020000 -13.14690000
3.58440000 -1.26980000 -10.19190000
3.66610000 -1.22930000 -10.14610000
-0.84210000 0.76060000 -12.76590000
3.31330000 -1.24600000 -10.30110000
0.43780000 -1.76250000 -13.03280000
-0.80140000 0.69140000 -12.92630000
-0.63710000 0.63590000 -12.92300000
-0.87830000 0.77400000 -12.70630000
-1.05550000 0.52070000 -12.97450000
-1.08600000 0.58110000 -12.90400000
0.24440000 0.22740000 -12.91310000
0.34910000 0.22310000 -12.70670000
0.19560000 -1.88440000 -13.13320000
-1.23960000 0.35260000 -13.18310000
0.34260000 -1.94940000 -13.05850000
-0.74730000 0.35500000 -13.14150000
-0.84810000 0.46760000 -13.12090000
4.22350000 -1.37540000 -10.38910000
-0.54870000 0.32760000 -13.09850000
1.00160000 -1.24600000 -12.06250000
1.03860000 -1.47000000 -12.07100000
-0.94480000 0.49340000 -13.12340000
-0.01280000 0.17290000 -13.09760000
0.08560000 0.15100000 -13.00950000
-0.08180000 0.12410000 -13.14480000
-1.05280000 0.35220000 -13.27820000
-1.12190000 0.36870000 -13.21170000
-1.11430000 0.27000000 -13.33080000
0.32360000 -1.36800000 -12.37660000
-0.82260000 0.18610000 -13.29380000
0.33490000 -1.45820000 -12.40540000
-0.54360000 0.11290000 -13.20940000
-0.98840000 0.27420000 -13.32350000
0.34940000 -1.53660000 -12.47230000
0.13800000 -1.52450000 -12.66030000
2.55540000 1.35520000 -10.22260000
-0.97830000 0.16120000 -13.35560000
0.93910000 -1.36380000 -12.58480000
-0.00220000 -1.48140000 -12.71950000
0.16840000 -1.58660000 -12.67760000
3.65230000 2.37340000 -7.53640000
4.51320000 -1.58810000 -9.91200000
-0.18870000 -1.47300000 -12.78440000
1.41380000 1.46510000 -11.03530000
1.36800000 1.69860000 -10.62410000
-0.08290000 -1.53450000 -12.82220000
-0.17330000 -1.57320000 -12.85860000
0.00710000 -1.58140000 -12.82090000
0.02670000 -1.77950000 -12.76850000
-0.04360000 -1.76950000 -12.80520000
0.60410000 -1.59480000 -12.78180000
-0.26470000 -1.63150000 -12.85190000
-0.22940000 -1.94780000 -12.78540000
0.19310000 -1.70010000 -12.60060000
0.44860000 -1.65140000 -12.32950000
4.31710000 -1.75330000 -10.09130000
0.33030000 -1.84610000 -12.38220000
4.38580000 -1.02110000 -9.40610000
4.40000000 -1.08620000 -9.41580000
0.09710000 -1.96120000 -12.64500000
0.86280000 1.42550000 -11.31180000
0.27480000 -1.96190000 -12.44880000
4.38780000 -1.13890000 -9.49100000
4.48800000 -1.25490000 -9.41350000
0.83270000 -1.37400000 -12.09950000
4.29570000 -1.32540000 -9.50980000
4.09580000 -1.11440000 -9.64880000
4.12120000 -1.18510000 -9.71000000
-0.03550000 -2.02350000 -12.75630000
-1.56360000 0.31110000 -13.43000000
-0.28260000 -2.02720000 -12.79030000
0.07240000 -2.06840000 -12.72730000
0.56290000 -1.39960000 -12.22500000
3.94050000 -1.16200000 -9.86570000
3.93570000 -1.22730000 -9.99170000
3.97760000 -1.35490000 -9.89520000
4.10160000 -1.37330000 -9.68580000
0.75420000 -1.44010000 -12.15490000
0.75170000 -1.51010000 -12.18370000
-0.64670000 -1.96170000 -13.18190000
1.14800000 1.19240000 -11.52710000
0.83460000 1.09590000 -11.71420000
-0.00270000 -2.12340000 -13.11920000
0.55400000 -1.49140000 -12.29320000
-1.85590000 0.41030000 -13.71450000
4.59550000 -1.54660000 -9.28400000
4.39230000 -1.50410000 -9.38500000
-1.90370000 0.37190000 -13.73230000
-1.85770000 -0.68260000 -13.73190000
5.03000000 -1.61150000 -9.16320000
4.69570000 -1.64880000 -9.36010000
4.39150000 -1.58610000 -9.42220000
1.73530000 1.08180000 -11.39060000
-0.64020000 -1.97550000 -12.82740000
-1.62480000 0.03630000 -13.72240000
-1.79410000 0.13320000 -13.82670000
4.19690000 -1.51170000 -9.52540000
-1.70270000 -0.02970000 -13.85550000
4.00110000 -1.59560000 -9.76820000
4.12090000 -1.60360000 -9.62010000
-1.23500000 0.24010000 -13.29910000
-1.36610000 0.21580000 -13.36410000
3.96800000 1.21130000 -10.14570000
4.12920000 1.07760000 -9.99770000
3.91620000 1.30980000 -9.96710000
-1.13910000 0.19470000 -13.34230000
-1.20290000 0.12010000 -13.33610000
4.19240000 -1.80760000 -9.97960000
-0.90960000 0.05180000 -13.32830000
-0.90660000 -0.03630000 -13.27050000
4.12580000 0.95710000 -10.33960000
-1.28570000 -0.02940000 -13.43210000
4.22520000 0.86630000 -10.19930000
-1.46720000 -0.02660000 -13.56920000
-1.01250000 -1.95750000 -12.91350000
-0.86870000 -2.03420000 -12.90750000
4.04580000 -1.52260000 -10.45080000
4.37640000 0.65070000 -10.18570000
4.40440000 0.80400000 -9.97810000
4.50420000 0.49870000 -10.14600000
-1.42500000 -0.29780000 -13.63190000
4.10460000 -1.62340000 -10.36790000
-0.41990000 -2.05570000 -12.82810000
-0.14680000 -2.10920000 -12.86660000
2.27480000 0.95350000 -11.23300000
-0.90240000 -2.11750000 -13.06920000
4.45730000 0.29300000 -10.30370000
4.62550000 0.42010000 -10.06130000
3.82040000 -1.20660000 -10.04590000
2.17730000 0.74610000 -11.51570000
0.11950000 -2.16140000 -12.89850000
3.89700000 -1.31740000 -10.06740000
3.83430000 -1.27820000 -10.13540000
3.79360000 -1.41650000 -10.10980000
-0.28750000 -2.14970000 -13.08000000
-0.16850000 -2.18420000 -13.00290000
-0.43890000 -2.16780000 -13.04290000
3.86150000 -1.55010000 -10.02550000
4.36510000 1.31510000 -9.35900000
-1.95620000 0.00890000 -12.66220000
-0.68960000 -2.14150000 -13.13330000
-2.10840000 0.04640000 -12.50840000
1.61260000 0.72380000 -11.82430000
-1.39980000 0.02230000 -12.55470000
-1.80200000 -0.22120000 -12.89520000
3.57760000 -1.50960000 -10.11900000
-1.60430000 -0.85890000 -13.83920000
-1.40930000 -0.67620000 -13.66630000
-1.52550000 -1.78300000 -13.58880000
5.05200000 1.05080000 -9.51710000
4.68030000 0.96430000 -9.64890000
-1.73800000 -1.46700000 -13.79140000
-1.74110000 -1.06260000 -13.84480000
-1.67130000 -1.10870000 -13.84090000
-1.81570000 -1.74790000 -13.70040000
4.18950000 -1.76440000 -10.30520000
-1.66340000 -0.26170000 -12.98310000
4.24780000 -1.78920000 -10.22770000
-1.72070000 -1.78600000 -13.71760000
-1.01710000 -0.20300000 -12.78200000
-1.64960000 -0.80000000 -13.06410000
4.05260000 -1.86640000 -10.31770000
3.94510000 -1.71890000 -10.45320000
-1.11350000 -1.97740000 -13.32420000
4.57340000 0.11730000 -10.18950000
3.98180000 -1.86030000 -10.39040000
3.86920000 -1.89330000 -10.37970000
-0.16530000 -0.03050000 -13.19690000
4.02560000 -1.88100000 -10.26170000
-1.51370000 -1.08790000 -13.10050000
-1.55180000 -1.40180000 -13.05330000
4.30080000 1.16730000 -9.58820000
-1.63800000 -1.36390000 -13.03120000
-1.58530000 -1.13290000 -13.08760000
5.82510000 0.36780000 -9.71480000
5.21700000 0.53840000 -9.80380000
-1.75280000 -1.38730000 -12.93550000
4.06990000 1.30140000 -9.55620000
-1.64000000 -1.45790000 -13.07470000
5.46100000 0.28370000 -9.82140000
-0.66800000 0.00620000 -13.30450000
5.23240000 0.77170000 -9.69220000
-1.65710000 -1.50730000 -13.18450000
-1.77260000 -1.44790000 -13.02970000
-1.56500000 -1.59590000 -13.16900000
-0.46510000 -0.14160000 -13.26980000
5.02860000 0.14060000 -9.92060000
-1.69210000 -1.58060000 -13.16530000
-1.70300000 -1.79070000 -13.12270000
-1.63090000 -1.81990000 -13.14720000
3.64170000 -1.70550000 -10.07370000
5.07900000 0.16490000 -9.21150000
4.82900000 0.00990000 -9.42070000
-0.21370000 -0.25430000 -13.22250000
-0.39360000 -0.22840000 -13.20020000
-0.26230000 -0.30270000 -13.16220000
-0.40680000 -0.29880000 -13.15720000
4.02890000 -1.69170000 -9.82420000
4.28440000 1.03570000 -9.80690000
3.80800000 -1.69250000 -10.04100000
3.88080000 -1.70640000 -9.98800000
-0.32350000 -0.23350000 -12.66270000
3.81770000 -1.76740000 -10.07770000
-0.86010000 -0.35550000 -12.91090000
-1.44850000 -1.76650000 -13.09690000
-0.81740000 -0.16710000 -13.23210000
-1.43760000 -1.96320000 -13.05860000
-1.53740000 -2.11460000 -13.28670000
-1.28330000 -2.02220000 -13.02280000
-1.57620000 -2.03600000 -13.13930000
-1.62130000 -2.12490000 -13.55160000
-1.69400000 -2.04490000 -13.14720000
-1.85750000 -2.08920000 -13.25670000
5.08750000 -0.21690000 -9.36880000
5.26380000 -0.09110000 -9.33500000
-1.69370000 -1.98020000 -13.10000000
-1.96320000 -1.91190000 -12.78110000
-0.99110000 -0.45740000 -13.01690000
-2.03750000 -1.93090000 -12.76760000
-1.78480000 -1.95100000 -13.68850000
5.97180000 -1.51490000 -9.44580000
-1.83330000 -2.11570000 -13.63620000
-1.89210000 -2.13620000 -13.55010000
2.55100000 0.29240000 -11.65240000
1.97050000 0.15520000 -12.06840000
2.24700000 0.45030000 -11.72580000
-1.75110000 -2.16510000 -13.60010000
-1.61210000 -2.16220000 -13.44880000
-1.91830000 -2.14170000 -13.43980000
-2.31040000 -1.97420000 -12.97650000
6.09470000 -1.13870000 -8.94740000
5.89350000 -1.20350000 -9.03350000
5.78800000 -1.15180000 -9.06490000
5.71630000 -1.45710000 -9.00630000
-1.17710000 -2.11650000 -13.30610000
-1.23670000 -2.15000000 -13.27480000
2.79130000 0.01510000 -11.59960000
6.15750000 -1.57910000 -8.80290000
-1.45500000 -2.13350000 -13.43060000
4.92100000 0.65160000 -9.80660000
5.82620000 -1.62480000 -8.94150000
-1.62850000 -0.27890000 -13.88490000
5.60680000 -1.65230000 -9.03570000
5.43340000 -1.80440000 -9.37500000
-1.54790000 -0.55670000 -13.81400000
-1.51300000 -0.49090000 -13.15770000
-1.59800000 -0.45630000 -13.12660000
-1.19440000 -0.58830000 -13.09710000
-1.53310000 -0.61180000 -13.17630000
4.51840000 0.49980000 -8.97470000
4.88790000 0.37280000 -9.92240000
4.72430000 0.03220000 -10.06940000
4.74540000 0.33450000 -10.00250000
5.46680000 -1.64910000 -9.55230000
1.73640000 -0.03630000 -12.28940000
2.16160000 -0.18150000 -12.11570000
4.50370000 0.04210000 -9.54120000
4.70170000 -0.10070000 -9.50590000
-2.90980000 -0.88580000 -11.15480000
-3.19870000 -0.82530000 -10.85030000
-3.02990000 -1.02370000 -11.01460000
5.32920000 -1.57220000 -9.07330000
4.54250000 0.89520000 -9.77370000
4.76730000 0.68870000 -9.82580000
4.61400000 0.70280000 -9.89530000
4.46870000 -0.13580000 -9.62080000
2.06110000 -0.21270000 -11.47390000
5.21760000 -1.78390000 -9.56480000
5.12180000 -1.69830000 -9.27750000
4.81900000 -1.76390000 -9.53840000
2.69260000 -0.18520000 -11.75700000
2.50950000 0.05120000 -11.81280000
2.49550000 -0.42240000 -11.94580000
2.83620000 -0.36960000 -11.65890000
5.95960000 -1.81530000 -9.34510000
5.91660000 -1.86660000 -9.31210000
5.29080000 -1.82550000 -9.49540000
-3.80670000 -1.26080000 -10.73480000
-2.38560000 -0.42220000 -12.00620000
-3.76190000 -1.31820000 -10.73160000
2.42860000 -0.31300000 -11.29290000
-3.58450000 -1.34910000 -10.99110000
-3.48650000 -1.42130000 -11.06770000
-3.36470000 -1.42030000 -11.24410000
-2.40840000 -0.54400000 -11.80270000
-3.34690000 -1.47730000 -11.20890000
5.92640000 -0.30240000 -9.73560000
2.98320000 -0.48990000 -11.50150000
6.48560000 -1.78900000 -9.14490000
-1.79810000 -0.08540000 -13.84730000
6.38220000 -1.84640000 -9.14940000
2.74630000 -0.70070000 -11.74290000
2.33220000 -0.41100000 -11.46200000
2.41000000 -0.53950000 -11.38530000
2.65990000 -0.87230000 -10.95040000
2.55880000 2.08480000 -5.38050000
-1.71400000 -0.23260000 -13.91070000
6.20270000 -1.85160000 -9.16650000
4.31620000 -1.83140000 -10.03820000
4.85210000 -1.73250000 -9.66660000
2.59540000 1.90080000 -5.95870000
4.79420000 -1.81390000 -9.64220000
4.65300000 -1.81770000 -9.66330000
4.60780000 -1.76700000 -9.76520000
4.48150000 -1.82810000 -9.82470000
4.39750000 -1.83200000 -9.81510000
4.45040000 -1.75480000 -9.70970000
4.27860000 -1.86380000 -10.01390000
4.18550000 -1.85890000 -10.24670000
3.01550000 -0.86520000 -11.39080000
0.38970000 -2.11690000 -12.98510000
2.18000000 -0.99280000 -11.46750000
0.10780000 -2.16100000 -13.11960000
-1.63920000 -0.44730000 -13.91280000
0.51210000 -2.11280000 -12.73030000
0.60860000 -2.06750000 -12.64690000
0.43920000 -2.14430000 -12.84330000
0.52220000 -2.12570000 -12.62390000
-1.73060000 -0.53890000 -13.90300000
-1.68870000 -0.65520000 -13.91020000
2.82660000 -1.14880000 -11.56730000
0.34920000 -2.18660000 -12.90230000
0.19910000 -2.17160000 -13.04580000
0.31220000 -2.18330000 -13.00900000
0.19630000 -2.20220000 -12.98730000
0.02480000 -2.20260000 -13.07310000
2.73260000 -1.62690000 -11.53230000
2.91090000 -1.18230000 -10.53680000
-3.12630000 -0.61150000 -11.89550000
-3.05050000 -0.82760000 -11.93390000
3.12770000 -1.28170000 -10.43070000
2.95430000 -1.27910000 -10.57380000
-2.38320000 -0.87080000 -12.02130000
-2.41920000 -0.80650000 -11.91740000
-3.08320000 -0.71060000 -11.77860000
-3.17190000 -0.65690000 -11.58940000
-3.03840000 -0.98760000 -11.75910000
-3.13810000 -1.01310000 -11.56590000
-2.57520000 -0.88730000 -11.41270000
-3.02850000 -1.07850000 -11.99870000
-4.16160000 -2.24860000 -4.28720000
-4.26240000 -2.31520000 -4.34790000
-4.00970000 -2.26360000 -4.24180000
-4.02110000 -2.32640000 -4.32990000
-3.82110000 -0.30700000 -5.85090000
-3.78360000 -0.41500000 -5.87100000
-3.90280000 -0.36290000 -5.88970000
-3.56540000 -0.35650000 -5.84300000
-3.50420000 -0.42320000 -5.88010000
-6.44690000 -0.81090000 -6.33630000
-6.46790000 -0.50970000 -6.10680000
-6.47470000 -0.52680000 -6.34000000
-3.60860000 -0.27310000 -5.82960000
-3.93470000 -0.24920000 -5.79420000
-3.28440000 -0.24760000 -5.81600000
-4.46000000 -0.25030000 -5.75710000
-6.44260000 -0.86170000 -6.07610000
-6.42650000 -0.46700000 -6.27120000
-3.07020000 -0.28630000 -5.88610000
-3.70880000 -0.47900000 -5.44760000
-3.88950000 -0.75150000 -5.46040000
-3.50770000 -0.69620000 -5.48220000
-3.67480000 -0.99670000 -5.46310000
-6.09070000 -1.07200000 -1.04930000
-6.03520000 -1.09150000 -1.13440000
-6.08990000 -1.00850000 -1.30570000
-6.06550000 -1.07760000 -1.28440000
-5.76450000 -1.09500000 -1.33560000
-3.58870000 -2.11000000 -0.29840000
-2.94430000 -2.08870000 -0.06840000
-3.16480000 -2.11490000 -0.05130000
-6.62230000 -0.24200000 3.02150000
-6.57500000 -0.24890000 4.42200000
-6.50060000 -0.25740000 3.57690000
-6.50320000 -0.26750000 4.02930000
-3.55940000 -2.15600000 0.15330000
-3.18390000 -2.14110000 0.35370000
-3.56250000 -2.12380000 0.25200000
-3.34290000 -2.19990000 0.22420000
-3.31260000 -2.30480000 0.20650000
-3.11740000 -2.26080000 0.32860000
-3.42950000 -2.25640000 0.17340000
-3.48710000 -2.29210000 -0.15680000
-2.93420000 -2.29270000 0.11600000
-3.13780000 -2.32070000 0.09410000
-3.03970000 -2.31550000 0.28750000
-3.36770000 -2.32140000 0.12630000
-5.77500000 -2.36570000 1.30240000
-5.54430000 -2.35000000 0.96040000
-5.71410000 -2.35920000 1.47140000
-2.90430000 -2.29770000 0.39250000
-4.21750000 -2.33760000 -4.58070000
-4.39780000 -2.34160000 -4.40490000
-6.42970000 -0.45910000 -5.99750000
-3.05400000 -2.11160000 0.48200000
-3.23840000 -2.10890000 0.50050000
-3.92040000 -2.30120000 -4.22810000
-2.94090000 -2.18020000 0.42760000
