0.91880000 1.26190000 -6.05150000
3.76210000 0.95450000 -6.21440000
3.70220000 0.95750000 -6.29260000
3.75420000 0.93760000 -6.31670000
3.90560000 0.94850000 -6.12810000
1.14180000 1.19290000 -6.04300000
1.02060000 1.15230000 -6.05770000
0.27890000 1.07040000 -5.92650000
5.64970000 -0.46130000 -5.70230000
-0.22080000 0.73410000 -5.87990000
-0.39250000 0.73710000 -5.91110000
-0.01630000 0.64850000 -6.18210000
-0.42310000 0.76630000 -5.75260000
1.75600000 1.58160000 -5.96260000
5.49550000 -0.42260000 -5.86010000
5.38760000 -0.50020000 -5.92410000
1.81680000 1.51520000 -6.08800000
4.13140000 0.93680000 -5.99740000
5.57390000 -0.50080000 -5.77890000
-0.40320000 0.78690000 -5.66430000
0.27110000 0.88620000 -5.95430000
5.49070000 -0.57090000 -5.83480000
1.59410000 1.57940000 -5.99560000
5.63350000 -0.61690000 -5.67860000
1.66320000 1.50930000 -6.11220000
1.51340000 1.56310000 -6.00940000
0.07460000 0.80880000 -5.87190000
-0.40850000 0.83590000 -5.53180000
5.27300000 -0.51990000 -5.98720000
-0.67720000 2.13530000 -3.20450000
-0.52810000 0.82850000 -5.47220000
5.26620000 -0.60730000 -6.00170000
1.74390000 1.40420000 -6.23100000
5.09110000 -0.58030000 -6.10300000
-0.60300000 0.87600000 -5.28110000
5.31520000 -0.66320000 -5.99740000
5.32600000 -0.70150000 -6.02880000
1.73300000 1.31440000 -6.28710000
1.61260000 1.36640000 -6.22220000
0.56080000 0.64290000 -6.11480000
0.74050000 0.54790000 -6.19560000
0.47620000 0.61290000 -6.14900000
5.39600000 -0.61970000 -5.91300000
1.52970000 1.49250000 -6.10030000
0.44430000 0.75720000 -6.04330000
5.57590000 -0.65460000 -5.74860000
1.43500000 1.37480000 -6.13820000
-0.37970000 0.71800000 -6.11020000
-0.77010000 0.81840000 -5.53260000
-0.91030000 0.84610000 -5.50690000
0.37500000 0.65790000 -6.08450000
5.46780000 -0.67230000 -5.86580000
0.35360000 0.70250000 -6.04370000
5.61410000 -0.70160000 -5.71380000
5.49220000 -0.72810000 -5.88540000
5.63190000 -0.76200000 -5.74330000
1.52620000 1.63020000 -5.88180000
3.63520000 1.13240000 -5.87460000
-0.72420000 0.83240000 -5.40210000
0.57540000 0.55340000 -6.23800000
0.65250000 0.48580000 -6.40860000
0.22760000 0.56630000 -6.45850000
0.81080000 0.41660000 -6.65980000
0.83070000 0.47960000 -6.31300000
0.28890000 0.60760000 -6.19750000
0.06950000 0.65350000 -6.11550000
5.64650000 -0.80730000 -5.80210000
1.56840000 1.26660000 -6.25440000
1.47670000 1.01350000 -6.29190000
1.43430000 1.19180000 -6.21120000
0.15620000 0.67490000 -6.03670000
1.54770000 0.93940000 -6.34260000
0.26860000 0.77600000 -5.97650000
6.46290000 0.11390000 -5.13050000
6.23270000 0.21520000 -5.24520000
0.13850000 0.84820000 -5.89230000
0.17130000 0.74500000 -5.95330000
6.39370000 0.06460000 -5.22350000
6.18950000 0.17380000 -5.31000000
0.17070000 0.70800000 -5.98930000
6.23090000 0.08260000 -5.32900000
0.58410000 1.71990000 -5.76280000
0.77890000 1.69950000 -5.82590000
0.73580000 1.74520000 -5.76000000
0.54130000 1.78420000 -5.65740000
1.28520000 0.99230000 -6.18790000
1.28050000 1.13510000 -6.13030000
5.94500000 0.29770000 -5.39050000
1.33730000 1.26510000 -6.12520000
1.23680000 1.22390000 -6.06870000
0.93400000 1.76420000 -5.71120000
5.99350000 0.16370000 -5.43080000
6.08050000 -0.03090000 -5.44210000
6.29520000 -0.00510000 -5.31390000
1.16080000 1.11550000 -6.06880000
-0.11620000 0.65320000 -6.29220000
1.16980000 1.00520000 -6.10770000
6.23490000 -0.12690000 -5.37080000
6.42100000 -0.13720000 -5.24530000
1.06320000 1.09430000 -6.07240000
1.11900000 1.01480000 -6.08410000
0.75370000 1.81680000 -5.59360000
3.44110000 1.25430000 -5.62420000
3.35660000 1.33380000 -5.25320000
6.51130000 0.00830000 -5.14240000
0.78210000 1.62260000 -5.89900000
1.65400000 0.41870000 -6.81730000
1.67600000 0.44070000 -6.63160000
6.62760000 -0.01870000 -5.03340000
6.72230000 -0.10540000 -4.94970000
6.58450000 -0.15090000 -5.10980000
1.55080000 0.34560000 -6.80960000
1.52940000 0.34460000 -6.60530000
6.51590000 -0.37510000 -5.18420000
6.66300000 -0.25770000 -5.04350000
1.40470000 0.28770000 -6.79510000
1.46280000 0.30030000 -6.73190000
1.40280000 0.29070000 -6.71680000
2.93090000 1.32080000 -5.96790000
6.21990000 -0.28950000 -5.39660000
1.65680000 0.44820000 -6.47510000
-0.57700000 1.09780000 -5.12640000
-0.69180000 1.13000000 -4.89540000
3.06790000 1.31840000 -5.84200000
5.88750000 -0.40640000 -5.53570000
6.33040000 -0.43170000 -5.32890000
-0.60990000 0.94730000 -5.13850000
-0.68480000 0.93250000 -5.04250000
-0.72480000 0.91180000 -5.02950000
1.51070000 0.71780000 -6.37390000
-0.70840000 0.98670000 -4.93750000
0.73450000 1.49630000 -5.96530000
0.59120000 1.56850000 -5.89080000
1.35720000 0.84750000 -6.27880000
-0.78190000 0.96810000 -4.82760000
-0.87110000 0.91810000 -4.84290000
-0.76950000 0.88460000 -5.09080000
6.18550000 -0.59210000 -5.41260000
-0.78390000 1.06110000 -4.73280000
6.46040000 -0.69660000 -5.22980000
1.39850000 0.61550000 -6.34030000
-0.86420000 0.94340000 -4.75170000
1.31320000 0.65500000 -6.29190000
6.31050000 -0.68820000 -5.34000000
1.25120000 0.75540000 -6.23350000
-0.91730000 0.88220000 -5.03780000
6.83050000 -0.23360000 -4.82060000
6.73080000 -0.31930000 -4.97630000
6.77140000 -0.37070000 -4.91660000
-1.06640000 0.93770000 -4.53430000
-0.97610000 0.94570000 -4.57800000
1.63270000 0.47850000 -6.43150000
-1.15980000 0.92450000 -4.66080000
6.84400000 -0.34350000 -4.79430000
1.18160000 0.87050000 -6.14940000
-0.85700000 1.01910000 -4.60900000
-0.91890000 1.03160000 -4.44860000
-0.89940000 0.97200000 -4.60170000
1.06120000 0.97480000 -6.07830000
6.67130000 -0.49090000 -5.04160000
1.11360000 0.90660000 -6.09460000
1.03130000 0.78780000 -6.09920000
6.84640000 -0.47470000 -4.76620000
1.09760000 0.74620000 -6.12420000
6.70440000 -0.63790000 -4.97940000
6.84220000 -0.62750000 -4.75690000
6.90880000 -0.35190000 -4.65140000
1.15530000 0.69990000 -6.17360000
1.29190000 0.54820000 -6.29380000
-1.12900000 0.90340000 -4.96130000
1.12460000 0.58770000 -6.18900000
6.97160000 -0.54060000 -4.52780000
7.00830000 -0.61180000 -4.43380000
1.03600000 0.65560000 -6.12440000
1.50360000 0.48770000 -6.39400000
1.49290000 0.44150000 -6.40800000
1.36410000 0.44870000 -6.37040000
1.16900000 0.50940000 -6.25380000
1.23220000 0.43900000 -6.34450000
1.29720000 0.31950000 -6.61480000
1.06360000 0.36820000 -6.57440000
1.30440000 0.30560000 -6.71440000
1.23760000 0.38970000 -6.42950000
1.41960000 0.33510000 -6.53150000
6.89600000 -0.82530000 -4.59910000
1.45630000 0.31400000 -6.59840000
6.59360000 -0.65500000 -5.11760000
1.14070000 0.38840000 -6.45190000
6.78310000 -0.72570000 -4.83560000
6.51140000 -0.83590000 -5.16320000
6.61370000 -0.81250000 -5.06270000
-1.32920000 0.95240000 -4.66720000
-1.14310000 0.90510000 -5.04030000
1.58070000 0.41850000 -6.44500000
6.69100000 -0.87050000 -4.94240000
6.78520000 -0.94500000 -4.74280000
1.54050000 0.37160000 -6.48500000
6.61490000 -0.92200000 -5.01630000
6.68670000 -0.96260000 -4.89850000
1.48060000 0.37850000 -6.45660000
-1.23470000 0.95910000 -4.24150000
-1.50380000 0.99510000 -4.17930000
-1.32390000 0.95320000 -4.41940000
6.73750000 -1.02970000 -4.80420000
6.76760000 -1.00090000 -4.74700000
0.98710000 0.50990000 -6.21050000
1.00260000 0.47120000 -6.27510000
6.79230000 -1.09370000 -4.75580000
6.82340000 -1.05100000 -4.64080000
1.03060000 0.55900000 -6.16650000
6.04490000 -0.56910000 -5.47700000
-0.98500000 1.03280000 -4.25890000
-1.00680000 0.99010000 -4.30630000
5.71570000 -0.52840000 -5.60380000
-1.06390000 0.97000000 -4.28260000
-1.13110000 0.97830000 -4.10550000
5.88730000 -0.64140000 -5.51910000
5.73990000 -0.64290000 -5.57460000
5.67560000 -0.63730000 -5.62220000
5.69470000 -0.70290000 -5.61680000
5.75850000 -0.72330000 -5.57720000
5.89840000 -0.80110000 -5.53950000
6.02850000 -0.82800000 -5.48810000
5.99510000 -0.76500000 -5.48410000
6.38570000 -0.87170000 -5.26410000
6.26040000 -0.83450000 -5.35680000
6.10890000 -0.74400000 -5.43680000
-1.60760000 1.02010000 -3.64540000
6.19250000 -0.89080000 -5.42410000
6.34160000 -0.93990000 -5.32230000
-1.21410000 0.99200000 -3.82610000
-1.32320000 0.99590000 -3.63220000
6.27530000 -0.99820000 -5.46480000
6.08810000 -0.90440000 -5.50670000
6.33880000 -0.98870000 -5.36940000
0.93560000 0.38220000 -6.68940000
1.04560000 0.36590000 -6.65880000
-1.44860000 0.99880000 -3.59470000
5.84150000 -0.91000000 -5.80350000
5.99230000 -0.90860000 -5.59540000
5.76600000 -0.85750000 -5.74580000
5.75120000 -0.76580000 -5.60660000
5.79720000 -0.81850000 -5.62990000
5.87380000 -0.82410000 -5.57240000
5.62160000 -0.87470000 -6.08170000
5.57990000 -0.84970000 -6.04780000
1.27090000 0.30840000 -6.77000000
1.14820000 0.34060000 -6.74890000
1.15860000 0.33480000 -6.70050000
1.08970000 0.36610000 -6.73660000
5.08910000 0.71730000 -5.59700000
5.29470000 0.50880000 -5.82640000
5.40490000 0.52230000 -5.71120000
5.00290000 0.63830000 -5.87700000
6.51930000 -0.95760000 -5.14260000
6.50390000 -0.99140000 -5.17940000
5.23420000 0.63000000 -5.66890000
6.55300000 -0.93410000 -5.09170000
6.63350000 -1.00830000 -4.98550000
6.63600000 -1.06720000 -5.04670000
6.47430000 -1.02540000 -5.24430000
6.44760000 -1.05660000 -5.33850000
6.59910000 -1.08350000 -5.14040000
6.65750000 -0.98910000 -4.94200000
6.73920000 -1.14600000 -5.02400000
6.71660000 -1.07290000 -4.89560000
6.77390000 -1.13870000 -4.89460000
6.96650000 -1.21970000 -4.63940000
6.87500000 -1.15340000 -4.65810000
4.46620000 0.57680000 -6.62440000
4.46160000 0.59610000 -6.67890000
4.58500000 0.54520000 -6.66930000
4.54570000 0.54820000 -6.51850000
4.60350000 0.51360000 -6.52770000
5.26080000 0.42790000 -5.91670000
5.08010000 0.54620000 -5.93600000
5.11820000 0.42250000 -5.99120000
5.01280000 0.52560000 -5.99210000
4.14380000 0.56580000 -6.71400000
4.10340000 0.56130000 -6.62940000
4.06650000 0.59640000 -6.72170000
4.75380000 0.52690000 -6.10070000
4.20260000 0.56760000 -6.70390000
3.87870000 0.79940000 -6.71220000
4.59100000 0.57330000 -6.14490000
4.09610000 0.55890000 -6.54240000
4.01580000 0.63230000 -6.71950000
4.37640000 0.62620000 -6.68270000
4.33860000 0.61750000 -6.57220000
4.42020000 0.58490000 -6.50560000
4.48510000 0.56100000 -6.41320000
4.27550000 0.61530000 -6.52000000
4.35440000 0.61740000 -6.43920000
4.55680000 0.54540000 -6.44760000
4.58440000 0.52340000 -6.40770000
4.53330000 0.55040000 -6.32160000
4.32950000 0.63520000 -6.28890000
4.25950000 0.62980000 -6.34020000
4.30980000 0.63000000 -6.39120000
4.43820000 0.57860000 -6.27750000
4.26640000 0.59500000 -6.69300000
5.49680000 0.43680000 -5.73640000
5.61500000 0.42640000 -5.62310000
5.58020000 0.49550000 -5.56000000
5.59880000 0.36280000 -5.70050000
5.75150000 0.36030000 -5.52490000
5.67280000 0.28870000 -5.66700000
5.80630000 0.39570000 -5.42490000
3.59130000 0.97240000 -6.70110000
3.69680000 0.96760000 -6.70090000
3.65060000 0.97860000 -6.61150000
3.59030000 0.96670000 -6.56480000
3.67800000 0.97040000 -6.51010000
3.69580000 0.95270000 -6.55740000
3.75430000 0.91940000 -6.47100000
3.74310000 0.91010000 -6.70090000
3.71870000 0.92410000 -6.61420000
3.81600000 0.84870000 -6.70520000
5.86530000 0.27390000 -5.46510000
5.79940000 0.26720000 -5.52640000
3.82180000 0.84730000 -6.52890000
3.53730000 0.97940000 -6.44050000
3.46660000 0.98010000 -6.71100000
3.41810000 0.98440000 -6.51000000
3.62050000 0.96740000 -6.46750000
3.67620000 0.97490000 -6.44550000
3.72870000 0.95240000 -6.37000000
3.71080000 0.96620000 -6.42930000
3.64970000 0.96950000 -6.37760000
3.53670000 0.98480000 -6.33810000
5.55940000 0.55320000 -5.43670000
5.74430000 0.47500000 -5.36610000
3.25800000 0.99540000 -6.72200000
3.14600000 1.01940000 -6.44550000
3.20840000 1.02680000 -6.36460000
3.12590000 1.06310000 -6.33000000
3.06610000 1.02730000 -6.40530000
3.00590000 1.03600000 -6.38350000
3.07450000 1.01310000 -6.60010000
3.03430000 0.99270000 -6.76460000
3.12240000 1.01200000 -6.75300000
2.96870000 1.00630000 -6.54170000
2.85930000 0.97210000 -6.59940000
2.92870000 1.00730000 -6.45850000
3.39140000 0.99740000 -6.33300000
3.26320000 1.04040000 -6.31770000
3.32410000 0.99910000 -6.40500000
5.42980000 0.35560000 -5.84700000
5.54180000 0.29160000 -5.79290000
2.77480000 0.93310000 -6.77840000
3.84820000 0.79670000 -6.45630000
3.78620000 0.89420000 -6.40280000
3.80070000 0.87640000 -6.35400000
3.83520000 0.83060000 -6.33610000
3.92490000 0.72090000 -6.32130000
3.87050000 0.78980000 -6.32210000
7.35450000 -1.36880000 -3.44050000
7.27540000 -1.33600000 -3.88950000
7.45580000 -1.41760000 -3.43880000
7.14640000 -1.12270000 -3.33450000
7.12560000 -1.10600000 -3.51380000
7.21750000 -1.33420000 -4.55110000
7.09870000 -1.28570000 -4.57570000
7.16330000 -1.16240000 -3.17400000
7.14150000 -1.17340000 -3.42370000
7.18180000 -1.23090000 -3.21720000
7.10280000 -0.96970000 -3.83460000
7.15430000 -1.28630000 -4.20370000
7.01980000 -1.20250000 -4.31130000
7.17830000 -1.20390000 -3.06890000
7.10130000 -1.08030000 -3.70200000
7.23250000 -1.28890000 -3.09430000
7.20030000 -1.24800000 -3.00820000
7.07920000 -1.13870000 -3.82210000
7.11460000 -1.14710000 -3.60590000
7.13150000 -1.19590000 -3.59070000
7.32450000 -1.36550000 -4.17370000
7.10680000 -1.20250000 -3.80580000
7.18010000 -1.24590000 -3.38490000
7.15790000 -1.24840000 -3.70050000
7.24910000 -1.30570000 -3.36230000
7.38990000 -1.39810000 -3.92740000
7.22210000 -1.30150000 -3.77280000
6.99960000 -0.90650000 -4.29130000
6.92150000 -0.93950000 -4.47860000
6.97770000 -1.04120000 -4.24430000
7.00670000 -0.73140000 -4.38800000
6.94560000 -1.07480000 -4.33580000
6.88630000 -1.02300000 -4.50280000
7.04180000 -0.94080000 -4.11680000
6.96910000 -1.14280000 -4.32280000
7.00260000 -1.12640000 -4.16550000
6.89610000 -1.09290000 -4.49500000
7.31950000 -1.34930000 -2.96510000
6.91880000 -1.14550000 -4.50240000
7.03840000 -1.07830000 -4.00870000
7.05580000 -1.19970000 -4.10700000
7.06030000 -1.17920000 -4.00360000
7.11950000 -1.23880000 -3.96630000
7.05240000 -1.13850000 -3.95680000
7.21250000 -1.26400000 -2.85040000
7.25040000 -1.30390000 -2.79610000
-1.25040000 1.40680000 -1.80870000
-1.21780000 1.56000000 -1.50480000
-1.28520000 1.32230000 -1.54510000
-0.83390000 2.07220000 -2.84930000
-0.89120000 2.00410000 -2.90590000
-1.29360000 1.23270000 -1.74030000
-1.30640000 1.23830000 -1.56350000
-1.29050000 1.19670000 -2.00010000
-1.30760000 1.14560000 -1.80800000
-0.96050000 1.88340000 -2.95960000
-1.31500000 1.12710000 -1.88980000
-1.17150000 1.54520000 -2.24660000
-1.19660000 1.54510000 -1.98060000
-1.25700000 1.30150000 -2.12560000
-1.31760000 1.14560000 -1.53990000
-1.32150000 1.14310000 -1.66970000
-1.02090000 1.68920000 -3.14660000
-1.18350000 1.45510000 -2.48080000
-1.23050000 1.28970000 -2.44060000
-1.55660000 1.08410000 0.30600000
-1.60240000 1.06490000 0.38310000
-1.73300000 1.05620000 0.13320000
-1.28210000 1.33640000 -0.42670000
-1.29090000 1.30240000 -0.35000000
-1.89210000 1.07520000 0.34530000
-1.27070000 1.27830000 -0.45230000
-1.33030000 1.19240000 -0.52170000
-1.29370000 1.22280000 -0.43830000
-1.33600000 1.17430000 -0.40220000
-1.46300000 1.05620000 -1.75400000
-1.42900000 1.06420000 -1.64140000
-1.54890000 1.04960000 -1.28590000
-1.37770000 1.12130000 -0.49690000
-1.62830000 1.04590000 -1.68550000
-1.26290000 1.14570000 -2.54560000
-1.28310000 1.16130000 -2.25210000
-1.29120000 1.10800000 -2.45230000
-1.31720000 1.08940000 -2.37280000
-1.29690000 1.12130000 -2.28210000
-1.35600000 1.07490000 -2.21430000
-1.32220000 1.10580000 -2.14980000
-1.91110000 1.05340000 0.69180000
-1.56920000 1.05580000 -0.31790000
-1.71440000 1.04910000 -0.42170000
-1.33890000 1.11300000 -1.70710000
-1.35770000 1.09360000 -1.77930000
-1.28350000 1.09290000 -2.62060000
-1.30890000 1.07000000 -2.62230000
-1.34970000 1.06450000 -2.43000000
-1.86700000 1.06630000 -0.13970000
-1.39860000 1.07850000 -1.54310000
-1.41050000 1.04100000 -2.60720000
-1.33650000 1.05300000 -2.68730000
-1.34430000 1.09570000 -1.92600000
-1.38810000 1.07410000 -1.82480000
-1.41400000 1.06160000 -1.96120000
-1.40060000 1.05570000 -2.29840000
-0.91970000 2.03420000 -2.48910000
-1.28050000 1.34900000 -1.08880000
-1.27770000 1.35530000 -0.96980000
-1.27970000 1.28360000 -0.96280000
-1.29860000 1.24240000 -1.05860000
-1.46490000 1.04950000 -2.16800000
-1.47790000 1.03090000 -2.74550000
-1.58600000 1.03160000 -2.75980000
-1.26040000 1.45070000 -0.91510000
-1.26920000 1.43840000 -0.83660000
-1.25900000 1.43600000 -0.76000000
-1.26820000 1.35540000 -0.63400000
-1.78930000 1.06270000 -1.90790000
-1.74680000 1.05440000 -2.50150000
-1.24510000 1.01430000 -3.52690000
-1.28270000 1.32830000 -0.87500000
-1.27240000 1.33780000 -0.78300000
-1.25880000 1.33140000 -0.70910000
-1.27090000 1.28680000 -0.72930000
-0.97790000 1.92940000 -2.60740000
-1.84050000 1.07100000 -0.70690000
-1.83450000 1.06740000 -0.94210000
-1.66110000 1.04720000 -0.95510000
-1.30850000 1.12810000 -2.02750000
-1.35550000 1.08500000 -2.00590000
-1.28020000 1.33550000 -0.51500000
-1.28330000 1.27420000 -0.56070000
-1.30930000 1.23790000 -0.66890000
-1.68480000 1.03960000 -3.13830000
-1.51530000 1.04690000 -1.96790000
-1.57510000 1.04820000 -0.68740000
-1.31690000 1.21150000 -0.86040000
-1.28530000 1.27650000 -0.82240000
-1.08970000 1.75830000 -2.33180000
-1.04140000 1.75690000 -2.80880000
-1.31080000 1.20330000 -0.96060000
-1.47560000 1.06590000 -0.50810000
-1.34440000 1.13870000 -0.91930000
-1.37000000 1.11580000 -0.77840000
-1.09290000 1.59360000 -2.87090000
-1.35270000 1.14590000 -0.66680000
-1.85800000 1.06780000 -0.46500000
-1.13110000 1.37080000 -3.11080000
-1.41140000 1.08600000 -0.68370000
-1.17450000 1.37590000 -2.77070000
-1.42060000 1.08620000 -0.49140000
-1.29580000 1.30450000 -1.37620000
-1.30470000 1.20310000 -1.50330000
-1.32050000 1.20950000 -1.35520000
-1.32740000 1.14780000 -1.40600000
-1.31610000 1.23320000 -1.19120000
-1.34670000 1.13590000 -1.23250000
-1.37370000 1.10060000 -1.26630000
-1.33390000 1.15770000 -1.09830000
-1.36950000 1.10940000 -1.08900000
-1.43250000 1.07010000 -1.19430000
-1.19780000 1.12870000 -3.10620000
-1.36000000 1.10510000 -1.43650000
-1.48190000 1.05780000 -1.26400000
-1.73370000 1.05360000 -1.80090000
-1.27260000 1.24450000 -0.37640000
-1.30540000 1.22580000 -0.30450000
-1.34900000 1.23960000 -0.24280000
-1.31250000 1.18960000 -0.34790000
-1.21030000 1.21900000 -2.80120000
-1.31880000 1.16300000 -0.28370000
-1.34510000 1.16940000 -0.23710000
-1.35820000 1.13730000 -0.33110000
-1.36570000 1.13210000 -0.26420000
-1.10190000 1.80320000 -1.95310000
-1.38470000 1.23910000 -0.20770000
-1.44180000 1.16720000 -0.14400000
-1.82560000 1.06670000 -1.30960000
-1.39980000 1.14260000 -0.22700000
-1.48130000 1.10780000 -0.14720000
-1.40230000 1.10480000 -0.33770000
-1.50230000 1.05620000 -0.89030000
-1.24090000 1.12530000 -2.79600000
-1.24450000 1.09190000 -2.91400000
-1.29030000 1.06030000 -2.86470000
-1.27310000 1.08730000 -2.74020000
-1.46780000 1.08330000 -0.24210000
-1.16420000 1.68140000 -1.79110000
-1.56710000 1.06230000 -0.16460000
-1.54570000 1.07610000 -0.12710000
-1.21050000 1.04750000 -3.37120000
-1.18370000 1.08290000 -3.33990000
-1.39140000 1.09300000 -0.90640000
-1.20420000 1.08740000 -3.20730000
-1.24080000 1.04860000 -3.22260000
-1.42190000 1.07590000 -1.01920000
-1.25660000 1.02940000 -3.31010000
-1.30490000 1.02140000 -3.27430000
-1.43790000 1.07210000 -0.80870000
-1.22380000 1.03010000 -3.44870000
-1.29720000 1.03480000 -3.10850000
-1.38600000 1.02300000 -3.07210000
-1.26610000 1.05180000 -3.06160000
-1.24270000 1.07670000 -3.02380000
-1.34730000 1.03850000 -2.89910000
-1.79530000 1.06780000 -1.73100000
-1.81340000 1.06500000 -1.50650000
-1.21540000 1.60670000 -1.31430000
-1.24470000 1.48170000 -1.34870000
-1.24760000 1.46730000 -1.05870000
-1.27460000 1.41810000 -1.21150000
-1.50610000 1.15700000 0.10090000
-1.50410000 1.11850000 -0.01070000
-1.52920000 1.08550000 -0.04170000
-1.54950000 1.08090000 0.12850000
-1.57780000 1.06870000 0.05620000
-1.52490000 1.10210000 0.17420000
-1.61180000 1.06480000 0.22070000
-1.65500000 1.05740000 0.10760000
3.72790000 1.31540000 -2.86980000
3.67580000 1.31480000 -3.41580000
3.58010000 1.36440000 -3.47340000
3.53090000 1.37640000 -3.28610000
3.50930000 1.34220000 -2.71440000
3.48530000 1.38770000 -3.38750000
3.45420000 1.38030000 -2.49850000
3.50460000 1.37990000 -2.39050000
3.46930000 1.38910000 -3.07460000
3.65640000 1.31590000 -3.00170000
3.50260000 1.34400000 -2.88170000
3.60860000 1.33340000 -2.91660000
3.57020000 1.32470000 -2.81810000
3.69580000 1.33300000 -2.62500000
3.60300000 1.34710000 -3.15270000
3.69660000 1.31680000 -3.06680000
3.78890000 1.29430000 -3.35910000
3.82770000 1.30910000 -3.11100000
3.75720000 1.31490000 -3.25410000
3.72920000 1.31530000 -3.18670000
2.17370000 2.20530000 -3.85410000
3.13810000 1.93900000 -4.08530000
2.59670000 2.08330000 -4.37800000
3.40890000 1.90100000 -2.08290000
4.08320000 1.71240000 -2.28070000
3.51860000 1.85190000 -2.71510000
1.05110000 2.51410000 -1.41910000
1.58550000 2.38160000 -1.65720000
1.15840000 2.48260000 -2.20380000
4.56730000 1.58860000 -1.05000000
4.85450000 1.49530000 -1.19660000
4.41530000 1.62700000 -1.76690000
2.10400000 2.23320000 -3.42950000
2.66010000 2.08390000 -3.41060000
1.26010000 2.44580000 -3.08960000
1.67140000 2.35130000 -2.58260000
6.43250000 0.89740000 -3.99010000
6.63280000 0.82430000 -3.78180000
6.74550000 0.73140000 -4.30550000
5.44600000 1.30710000 -3.06540000
6.04780000 1.09540000 -3.00270000
5.77580000 1.18460000 -3.37820000
6.91390000 0.68430000 -3.72990000
3.56750000 1.87470000 -0.74990000
2.97600000 2.03660000 -0.71140000
2.28810000 2.20920000 -0.03900000
7.12340000 0.53980000 -3.99860000
7.22680000 0.50360000 -3.49530000
7.33030000 0.40530000 -3.79150000
1.57990000 2.35820000 -3.66260000
1.62740000 2.33180000 -4.21690000
0.79090000 2.55950000 -2.67150000
2.11520000 2.24260000 -2.26040000
2.52190000 2.14460000 -1.87630000
2.57350000 2.12150000 -2.35540000
7.01780000 0.64590000 -3.24790000
6.29800000 0.99890000 -2.41520000
6.56180000 0.88180000 -2.56880000
6.40800000 0.94670000 -3.23120000
2.91070000 2.05130000 -1.59440000
5.00980000 1.44580000 -3.08880000
5.18830000 1.39730000 -2.56640000
4.52940000 1.57380000 -3.26470000
4.74540000 1.52660000 -2.67650000
1.12970000 2.45570000 -3.82020000
4.23480000 1.68070000 -0.49510000
4.12770000 1.72000000 -1.06110000
2.04560000 2.23260000 -4.29510000
0.85180000 2.53190000 -3.29630000
3.81970000 1.79450000 -1.81790000
3.42190000 1.86730000 -3.97380000
3.91400000 1.73170000 -3.45680000
3.95410000 1.71560000 -4.04670000
4.65370000 1.47710000 -4.72690000
4.02990000 1.63500000 -5.04700000
3.74080000 1.75240000 -4.52780000
3.55290000 1.83930000 -3.12160000
2.67620000 2.12070000 -1.26010000
0.49730000 2.60280000 -3.06570000
3.78000000 1.81690000 -1.36780000
4.02860000 1.71270000 0.42660000
4.81360000 1.47500000 0.49860000
4.73200000 1.52200000 -0.12650000
5.90600000 1.14850000 -2.26820000
5.44760000 1.31310000 -2.04590000
3.82040000 1.74120000 -4.34560000
5.82800000 1.17380000 -1.46320000
6.18500000 1.03290000 -1.56810000
4.25740000 1.61910000 -4.17400000
4.60990000 1.52930000 -3.93410000
5.02810000 1.40100000 -4.16320000
4.86360000 1.49800000 -0.68940000
3.21790000 1.94990000 0.31090000
5.59390000 1.26170000 -1.45890000
5.50080000 1.23640000 -4.26130000
5.44890000 1.28610000 -3.75660000
0.71940000 2.58640000 -1.78550000
0.41500000 2.63150000 -2.23760000
2.13260000 2.24870000 -1.52780000
5.01230000 1.43210000 -3.61370000
0.64300000 2.55760000 -3.68330000
6.01330000 1.07780000 -3.82100000
1.79970000 2.33400000 -0.98120000
1.33280000 2.44860000 -0.34280000
1.94980000 2.29830000 -0.60580000
0.24820000 2.62480000 -3.39370000
5.09650000 1.31890000 -4.88810000
-0.05370000 2.63710000 -3.20810000
0.06980000 2.60990000 -3.73090000
0.10460000 2.64970000 -2.69880000
1.22560000 2.41270000 -4.31790000
4.20440000 1.65040000 -3.68890000
2.11680000 2.19230000 -4.65740000
-0.35230000 2.66140000 -2.76980000
-0.19180000 2.65960000 -2.75870000
2.96640000 2.00940000 -2.67130000
-0.41830000 2.68910000 -2.00700000
5.34800000 1.34150000 -1.35710000
4.99440000 1.45560000 -1.64200000
5.04230000 1.43440000 -1.03270000
4.95560000 1.47400000 -2.04830000
4.96390000 1.46610000 -0.87640000
5.21500000 1.37010000 -0.59420000
4.10300000 1.69730000 -2.87200000
5.06570000 1.41870000 -0.20380000
3.84000000 1.76030000 -3.15430000
3.34120000 1.85650000 -4.74050000
5.94730000 0.95950000 -5.11840000
5.60270000 1.03980000 -5.45990000
5.45290000 1.13350000 -5.30030000
4.68220000 1.42890000 -5.12580000
4.16160000 1.55770000 -5.34810000
4.77460000 1.35470000 -5.39890000
5.93480000 1.01150000 -4.84410000
5.74210000 1.12240000 -4.54580000
5.35130000 1.20600000 -5.09000000
6.77250000 0.78090000 -3.08050000
6.41610000 0.85720000 -4.52550000
6.32140000 0.63160000 -5.47030000
6.18350000 0.74860000 -5.42070000
6.47810000 0.67970000 -5.21860000
6.43050000 0.75890000 -5.06220000
6.65360000 0.57800000 -5.19690000
6.69350000 0.65010000 -4.95310000
6.60050000 0.51650000 -5.35670000
6.83910000 0.53060000 -5.00260000
6.92320000 0.56960000 -4.70010000
7.00170000 0.42730000 -4.89390000
7.02020000 0.48180000 -4.73370000
6.84850000 0.40910000 -5.19040000
7.03830000 0.16060000 -5.14760000
6.88980000 0.25460000 -5.29380000
7.06040000 0.26840000 -5.02280000
6.46350000 0.79930000 -4.81340000
6.10520000 0.83810000 -5.30460000
6.78930000 0.67010000 -4.61970000
7.21840000 0.37670000 -4.45860000
7.08590000 0.49730000 -4.47960000
7.21040000 0.44350000 -4.22270000
6.96480000 0.60970000 -4.34840000
7.37360000 0.23350000 -4.30730000
7.33330000 0.36750000 -4.02270000
7.44040000 0.23080000 -4.05290000
7.50070000 0.09040000 -4.13660000
7.15720000 0.38150000 -4.63300000
7.18300000 0.26760000 -4.77490000
7.26160000 0.26940000 -4.57780000
7.30980000 0.13170000 -4.65670000
7.17200000 0.11600000 -4.96080000
7.14830000 -0.00920000 -5.06090000
7.23260000 -0.06210000 -4.93560000
7.28710000 0.01630000 -4.79540000
7.45070000 0.04390000 -4.38680000
7.41400000 -0.11800000 -4.59060000
7.51970000 -0.18640000 -4.34570000
7.29820000 -0.18420000 -4.83750000
7.30030000 -0.29520000 -4.83280000
7.44450000 -0.34630000 -4.52720000
7.51630000 -0.38400000 -4.35340000
7.54810000 -0.06720000 -4.17290000
6.20630000 0.97660000 -4.20160000
6.44500000 0.77560000 2.31000000
6.09400000 0.90570000 3.17590000
6.23420000 0.84100000 3.02140000
6.47470000 0.69200000 3.02720000
6.63750000 0.62490000 2.58170000
7.24380000 0.44660000 -1.54740000
7.36800000 0.28880000 -1.16550000
7.41520000 0.31270000 -1.71760000
7.50140000 0.18710000 -1.59720000
7.23940000 -0.32950000 1.66920000
7.22240000 -0.08330000 1.64420000
7.17140000 -0.20930000 2.05460000
6.67310000 0.54000000 2.97140000
6.57450000 0.60010000 3.19340000
6.65450000 0.50680000 3.28850000
6.77970000 0.39150000 3.11880000
6.75800000 0.36530000 3.37450000
7.60390000 0.08020000 -1.95320000
7.57700000 0.02710000 -1.52240000
7.51650000 0.23530000 -2.04560000
7.16020000 -0.66210000 2.05530000
7.02560000 -0.77820000 2.69010000
7.02150000 -0.97800000 2.54850000
7.13570000 -0.91000000 1.96940000
7.05660000 -1.15700000 2.16320000
7.67470000 -0.10410000 -1.96790000
7.63290000 -0.15550000 -1.51380000
7.70740000 -0.31590000 -2.05000000
7.65030000 -0.36230000 -1.53570000
7.60360000 0.13900000 -2.33730000
7.51870000 0.26090000 -2.38680000
7.68130000 -0.03030000 -2.29520000
7.67750000 0.01400000 -2.50720000
6.49930000 0.89860000 -1.81580000
6.31420000 0.93900000 0.14380000
7.73710000 -0.22140000 -2.50690000
6.91640000 0.58600000 0.45870000
6.67030000 0.73720000 0.66320000
6.81470000 0.63140000 1.00380000
7.46070000 -0.65430000 -0.30930000
7.47820000 -0.49360000 -0.39220000
7.38440000 -0.68540000 0.21260000
6.95520000 0.52280000 0.91350000
6.93620000 -0.95010000 3.00390000
6.96390000 -0.71590000 3.04450000
6.85860000 -0.84520000 3.46120000
6.98870000 0.46290000 1.25030000
7.09650000 0.37640000 0.84130000
6.85140000 -1.06690000 3.32450000
6.76370000 0.77220000 -2.15300000
6.99350000 0.62630000 -1.65070000
7.00410000 0.64670000 -2.53440000
6.90000000 -1.12610000 3.04010000
6.63910000 0.78890000 -0.27160000
7.67140000 -0.55080000 -1.82230000
7.70380000 -0.55850000 -2.20880000
7.08100000 0.54880000 -1.08130000
7.19130000 0.43930000 -0.82720000
7.27840000 -0.46180000 1.41300000
7.25860000 -0.63330000 1.44810000
7.41430000 0.16470000 -0.83160000
7.66690000 -0.70940000 -1.92340000
6.89840000 0.65840000 -0.82350000
7.20920000 -0.73640000 1.70320000
7.18260000 -0.78710000 1.81450000
7.22840000 -0.84970000 1.43990000
6.38970000 0.87720000 0.93070000
6.51090000 0.83700000 0.36310000
7.14440000 -0.00900000 2.05550000
7.66170000 -0.80080000 -2.07670000
7.60830000 -0.89210000 -1.57580000
7.35730000 -0.57320000 0.46750000
7.35210000 -0.75850000 0.50190000
7.07360000 0.00610000 2.41380000
7.06370000 0.18600000 2.13640000
6.99060000 0.24850000 2.39370000
6.96620000 -1.12040000 2.71530000
6.85060000 0.57130000 1.48660000
7.11940000 -0.29080000 2.37900000
7.07210000 0.34960000 1.35850000
7.18150000 0.20900000 1.10580000
7.14910000 -0.50730000 2.23350000
7.13550000 0.22600000 1.49950000
7.19750000 0.10440000 1.44160000
6.82610000 0.38460000 2.85110000
6.90200000 0.34350000 2.59690000
6.78430000 0.48550000 2.61760000
6.90200000 0.21120000 2.97960000
6.97860000 0.19590000 2.59250000
7.46240000 -0.84820000 -0.37350000
7.34870000 -1.22940000 0.02460000
7.51950000 -0.92960000 -0.82540000
6.88570000 0.63820000 -0.11920000
7.08970000 0.47980000 -0.13030000
7.41960000 -1.24610000 -0.56990000
6.98810000 0.07350000 2.75010000
7.29820000 0.20160000 -0.04980000
7.28590000 0.29340000 -0.45440000
7.19150000 0.32970000 0.21590000
7.05360000 -0.17300000 2.65920000
6.99730000 -0.12050000 2.87620000
6.94670000 -0.00580000 3.07710000
6.97680000 -0.24580000 3.01230000
7.39190000 0.09310000 -0.38590000
5.16730000 1.31340000 1.92450000
4.41130000 1.57070000 1.31330000
4.62120000 1.47920000 2.15570000
7.51750000 -0.02150000 -0.95980000
6.85480000 0.25250000 3.21830000
7.05320000 0.46770000 0.45400000
6.90430000 0.10480000 3.28050000
7.21530000 0.50560000 -2.25730000
7.35240000 -0.96120000 0.26260000
7.45840000 -0.09310000 -0.43420000
7.52340000 -0.19800000 -0.73380000
7.47650000 -0.29180000 -0.40380000
6.95540000 -0.26060000 3.15570000
6.93480000 -0.11030000 3.30950000
6.83760000 0.21250000 3.43940000
6.88340000 0.02960000 3.51260000
7.69610000 -0.68940000 -2.41200000
6.90500000 -0.18210000 3.58050000
7.48810000 -1.25470000 -1.13390000
7.45320000 -1.25340000 -0.85320000
7.36900000 -0.12200000 0.15910000
7.33850000 0.06330000 0.11030000
7.33610000 -0.06510000 0.39910000
7.40620000 0.37260000 -3.38900000
7.24090000 0.50910000 -2.92970000
6.93790000 -0.28840000 3.40630000
7.29310000 0.08570000 0.47990000
6.94630000 -0.44320000 3.27060000
7.38400000 0.40370000 -2.80340000
7.51890000 0.26570000 -3.23750000
7.51740000 0.27900000 -2.84940000
7.63200000 0.10210000 -3.12150000
7.59110000 0.15050000 -3.34260000
7.30200000 -0.08340000 0.94330000
7.58880000 0.18980000 -2.86690000
7.65940000 -0.90940000 -2.39770000
7.70190000 -0.04930000 -3.06090000
7.67840000 0.03110000 -2.83500000
7.72190000 -0.09640000 -2.71030000
6.91160000 -0.40920000 3.57850000
7.35320000 -0.22710000 0.36820000
7.31600000 -0.69860000 0.93650000
7.32300000 -0.41940000 1.07470000
7.06720000 -0.40740000 2.63910000
7.63750000 -1.03100000 -2.54590000
7.55780000 -1.15680000 -2.06370000
7.31690000 -0.84380000 0.78300000
7.31940000 -0.95170000 0.61420000
6.98560000 -0.52170000 3.01930000
7.05660000 -0.60270000 2.64490000
7.38260000 -0.35000000 0.17990000
5.61630000 1.24300000 -0.75240000
7.40210000 0.36320000 -2.21670000
5.42930000 1.29050000 -0.02860000
7.58810000 -0.25010000 -1.12210000
7.26300000 -0.96550000 1.07630000
7.21050000 -1.19930000 1.15830000
7.27870000 -1.22650000 0.58920000
7.61980000 0.13900000 -2.65580000
7.60130000 -0.59480000 -1.27830000
6.03770000 1.07630000 -0.55830000
6.89650000 -0.54730000 3.55200000
6.93340000 -0.58830000 3.30110000
7.74850000 -0.27450000 -2.81750000
7.72510000 -0.16950000 -3.11640000
7.73180000 -0.43390000 -2.65220000
7.35460000 -0.41820000 0.45830000
7.59440000 -0.42260000 -1.14790000
7.47910000 0.26580000 -3.67620000
7.56890000 0.04230000 -3.90810000
7.61520000 -0.13410000 -3.91760000
7.54050000 0.15470000 -3.76520000
7.17130000 -1.04340000 1.61580000
7.12970000 -1.19970000 1.69200000
7.63390000 -0.02850000 -3.67730000
7.68850000 -0.18530000 -3.49470000
7.64960000 -0.32630000 -3.78190000
7.68520000 -0.47270000 -3.37010000
7.59380000 -0.26940000 -4.07320000
7.59900000 -0.44140000 -4.00310000
5.85260000 1.11060000 0.91540000
6.01280000 1.06350000 0.37690000
7.52600000 -0.56000000 -4.23660000
7.59170000 -0.60350000 -3.92050000
7.63800000 -0.48830000 -3.73670000
7.62350000 -0.66040000 -3.63010000
7.25450000 0.01050000 1.18910000
7.29860000 -0.22860000 1.22960000
7.32870000 -0.27840000 0.85550000
7.62080000 0.05910000 -3.51470000
7.67470000 -0.03490000 -3.33330000
7.73120000 -0.33440000 -3.09880000
7.61440000 -0.96420000 -1.95490000
7.30590000 -0.56930000 1.17600000
6.08700000 1.00900000 1.11100000
7.63300000 -0.78370000 -3.36100000
7.59940000 -0.83430000 -3.58780000
7.57280000 -1.06490000 -1.67070000
7.71340000 -0.51450000 -3.03980000
7.68360000 -0.66740000 -3.10790000
7.71110000 -0.61850000 -2.80570000
5.32320000 1.33520000 -0.44770000
7.53770000 -1.23090000 -1.63720000
7.66460000 -0.85810000 -2.78660000
5.56760000 1.19080000 1.56390000
6.66580000 0.70300000 1.50510000
6.70220000 0.63450000 2.05630000
6.77530000 0.54250000 2.32080000
7.60870000 -1.05420000 -2.97970000
6.22240000 0.91900000 1.86110000
6.48710000 0.80910000 1.46540000
6.95680000 0.40680000 1.97400000
6.90720000 0.40750000 2.29270000
6.99350000 0.29910000 2.24560000
6.96370000 0.44650000 1.64990000
7.05180000 0.30180000 1.79690000
5.74980000 1.10870000 2.14530000
5.84060000 1.05480000 2.55200000
6.00640000 0.99340000 2.37400000
5.14390000 1.29910000 2.51730000
6.00540000 0.94900000 3.14600000
5.70900000 1.08020000 2.93700000
-0.52620000 2.71170000 -0.63310000
-0.73140000 2.68950000 -1.09010000
-0.70910000 2.69300000 -0.23740000
0.01230000 2.64670000 2.13870000
-0.09970000 2.67600000 1.63170000
-0.23850000 2.65910000 2.23830000
1.06920000 2.33400000 4.71920000
1.34790000 2.28170000 4.67760000
1.13700000 2.35240000 4.37100000
-0.78250000 2.55490000 3.70440000
-0.72520000 2.57970000 3.44960000
-0.92550000 2.52620000 3.52690000
1.30620000 2.23810000 5.08540000
0.68780000 2.41250000 4.56170000
0.69430000 2.37480000 4.90960000
-0.61240000 2.58050000 3.71850000
-1.66260000 1.85990000 2.87100000
-1.74840000 1.65470000 2.64140000
-1.73920000 1.66330000 2.93490000
-0.90890000 2.49530000 4.06860000
-1.08960000 2.43250000 3.73230000
-1.03180000 2.44690000 3.94650000
0.39800000 2.40010000 5.09500000
0.93490000 2.28330000 5.28860000
0.57140000 2.32440000 5.43670000
-1.19060000 2.34060000 3.95320000
-1.23210000 2.30590000 4.17040000
-0.56030000 2.64840000 2.33740000
-0.37020000 2.68470000 1.73580000
-0.64980000 2.67030000 1.71780000
0.28530000 2.35970000 5.45000000
0.03290000 2.37510000 5.48900000
0.59400000 2.26270000 5.75310000
0.08780000 2.32000000 5.71390000
0.04320000 2.22520000 5.96790000
0.18840000 2.24430000 5.94160000
-1.75150000 1.54480000 3.39030000
-1.63190000 1.75100000 3.59460000
-1.67060000 1.80380000 3.15610000
-0.09030000 2.30020000 5.76570000
-0.66270000 2.68810000 1.14720000
-0.83830000 2.64760000 1.38040000
-0.22000000 2.27520000 5.76390000
-0.20460000 2.18720000 5.93720000
-0.07190000 2.12540000 6.10790000
-1.58240000 2.02700000 3.20390000
-1.55290000 2.14040000 3.05490000
-0.84140000 2.57400000 3.14770000
2.17490000 2.14820000 3.26980000
1.79300000 2.28090000 2.44190000
1.64700000 2.27820000 3.47210000
0.05040000 2.66890000 -1.76540000
-1.05210000 2.50590000 3.24690000
-1.10360000 2.46150000 3.48720000
-1.78810000 1.50550000 3.17840000
-0.88900000 2.61520000 1.85050000
-1.41060000 2.25080000 -1.24170000
-1.31500000 2.37230000 -1.24150000
-1.25690000 2.41630000 -1.44950000
-1.34440000 2.31320000 -1.59930000
1.31390000 2.36180000 3.43100000
-1.46700000 2.13390000 -1.52740000
-1.18320000 2.47460000 3.04060000
-1.23790000 2.41670000 3.30310000
-1.33240000 2.39080000 3.05170000
-1.38750000 2.32120000 3.21690000
-1.37140000 2.29240000 3.42370000
-1.49640000 2.18550000 3.25290000
-1.83050000 1.23790000 3.80820000
-1.41550000 2.11850000 3.73290000
-1.23460000 2.37260000 3.56410000
-1.57440000 1.82000000 3.78400000
-1.35640000 2.25100000 3.60740000
-1.08580000 2.58220000 1.32070000
-1.15100000 2.54520000 1.57740000
-0.98910000 2.60140000 1.63400000
-1.55350000 2.04500000 3.33320000
-1.54800000 1.91780000 3.61920000
-1.09880000 2.53850000 1.85820000
-1.85960000 1.23750000 3.57120000
-0.85970000 2.66060000 -0.77550000
-0.81090000 2.67290000 -0.33830000
-0.95400000 2.62680000 -0.25590000
-1.04670000 2.53830000 2.14080000
-1.19010000 2.46180000 2.04890000
-1.26730000 2.29640000 3.75130000
-1.29750000 2.40990000 1.90510000
-1.32380000 2.21480000 3.88070000
-1.32510000 2.33810000 2.07750000
-1.41030000 2.26760000 1.99770000
-1.41710000 2.08100000 3.91980000
-1.42220000 2.06320000 4.06290000
-0.82150000 2.61820000 2.19040000
-1.13890000 2.52470000 -0.49570000
-1.07700000 2.56510000 -0.32190000
1.66340000 2.32400000 2.08340000
1.90740000 2.28530000 1.17590000
1.66900000 2.35280000 0.84230000
-1.84200000 1.41860000 2.86570000
-1.37700000 2.12910000 4.21700000
-1.27600000 2.26150000 4.36550000
-0.98710000 2.56190000 2.40590000
-1.88890000 1.23950000 3.30170000
-1.38450000 2.08290000 4.43120000
1.33250000 2.41410000 1.53990000
1.22870000 2.42770000 2.12950000
-0.48460000 2.63790000 -3.03200000
-0.65680000 2.65150000 -2.72110000
-1.39830000 2.35510000 2.85170000
-1.47400000 2.26210000 3.00460000
0.21440000 2.63850000 1.50240000
0.26620000 2.60140000 2.47410000
0.48330000 2.57960000 2.12820000
0.64850000 2.56820000 1.14970000
0.89210000 2.50330000 2.04400000
-0.85450000 2.58680000 -2.81850000
-0.78560000 2.63420000 -2.52170000
-0.99630000 2.50630000 -2.89970000
-1.48520000 1.63210000 4.71350000
-1.46220000 1.50860000 4.90870000
-1.31040000 1.96440000 4.88150000
-1.27640000 1.83300000 5.05830000
-1.37460000 1.97610000 4.65480000
1.24400000 2.46760000 -0.62130000
-1.37560000 1.46840000 5.12980000
2.70350000 2.08360000 0.72110000
2.24560000 2.21100000 0.59410000
-1.26040000 1.53490000 5.28680000
-0.04240000 2.62810000 2.61630000
-0.93350000 2.58630000 -2.39480000
-1.09220000 2.48910000 -2.40880000
-0.32880000 2.62790000 2.84110000
-1.62420000 1.64000000 4.09290000
-1.47270000 1.85250000 4.44590000
-0.63790000 2.69400000 -1.91590000
-0.80070000 2.65390000 -2.04650000
3.53700000 1.82950000 1.40570000
-1.61710000 1.48970000 4.42890000
0.11240000 2.60530000 2.83600000
-0.97360000 2.58940000 -1.92180000
-0.54110000 2.71200000 -1.37340000
-0.80060000 2.67020000 -1.43650000
-1.92480000 1.23930000 2.72730000
-1.91180000 1.23760000 3.01880000
-1.66910000 1.20580000 4.68410000
-1.15950000 2.49790000 2.82450000
-1.02550000 2.53840000 2.93290000
-1.10290000 2.53700000 -1.49630000
-0.94990000 2.62220000 -1.26450000
-1.28350000 2.43820000 2.85050000
-1.25640000 2.39560000 2.19940000
-1.40210000 2.23080000 2.16780000
-1.43780000 2.19350000 2.09060000
-1.12660000 2.50530000 -1.75420000
-1.17230000 2.47660000 2.40100000
-1.24020000 2.40430000 -1.88500000
-1.54950000 1.19380000 5.00650000
-1.35810000 2.38460000 2.69020000
-1.23230000 2.46320000 2.64550000
-1.18630000 2.41300000 -2.40360000
-1.29780000 2.33320000 -2.01200000
-1.40840000 2.24800000 2.27850000
-1.39530000 2.22960000 -1.77100000
-1.43470000 2.11490000 -2.01540000
-1.32710000 2.26800000 -2.27980000
-1.42410000 2.27800000 2.41530000
-1.48560000 2.24820000 2.65350000
0.22900000 2.51660000 4.08990000
-0.12400000 2.55290000 4.08600000
0.02270000 2.51320000 4.46700000
2.77460000 2.02300000 2.28090000
0.35760000 2.46150000 4.58450000
2.01230000 2.27650000 -0.25240000
-1.53270000 2.11580000 2.40090000
-1.61370000 1.96790000 2.58430000
-0.37300000 2.56520000 4.16050000
-0.14560000 2.50260000 4.72950000
-0.51450000 2.54100000 4.42130000
-0.35620000 2.50660000 4.76750000
0.09220000 2.46820000 4.84990000
1.10570000 2.49310000 0.11260000
0.76540000 2.56700000 0.18990000
-1.63020000 1.20290000 4.79910000
-0.51290000 2.60660000 3.32990000
-0.63180000 2.61640000 2.93160000
-0.56600000 2.50380000 4.74350000
-0.14570000 2.45840000 5.06420000
-1.06920000 1.53630000 5.54800000
-1.16020000 1.95280000 5.17600000
-0.34970000 2.58430000 3.75690000
-0.74650000 2.52640000 4.25280000
-0.68560000 2.51800000 4.50980000
-0.93820000 1.75640000 5.56570000
-1.02730000 1.95120000 5.33710000
-0.84520000 1.43250000 5.89590000
-0.84900000 1.61250000 5.77210000
-0.85760000 2.47930000 4.50730000
-0.73580000 2.48770000 4.67910000
-0.98010000 1.32640000 5.80290000
-0.95260000 2.47200000 4.28660000
-1.01520000 2.43470000 4.44760000
-1.11930000 2.38950000 4.31660000
-1.93130000 1.24320000 2.35450000
0.48730000 2.46900000 4.27930000
0.69690000 2.51200000 3.12850000
0.85970000 2.49260000 2.77630000
-0.95580000 2.63110000 1.04350000
-1.28480000 2.49180000 1.41300000
1.07000000 2.43740000 2.98440000
-1.12280000 2.57310000 0.72730000
-1.27910000 2.50340000 1.12440000
-1.27970000 2.50290000 0.67990000
-1.42470000 2.40880000 0.89660000
0.32910000 2.64600000 0.43870000
-1.41320000 1.15860000 5.30480000
-1.47020000 2.36080000 1.33870000
-1.30700000 1.11770000 5.50140000
-1.55970000 2.26930000 1.18430000
-1.40910000 2.40820000 1.47920000
0.07730000 2.41690000 5.24380000
-1.28810000 2.46740000 1.65240000
0.64610000 2.60450000 -0.77420000
0.37450000 2.65190000 -1.09300000
-1.45360000 2.33800000 1.67730000
-1.54020000 2.26630000 1.55750000
-1.61600000 2.14580000 1.43410000
-1.58040000 2.14410000 1.71490000
-1.10910000 2.57460000 0.35130000
-1.25850000 2.48020000 -0.03920000
-1.60020000 2.20710000 0.82340000
-1.62790000 2.14780000 0.49340000
-1.66700000 2.05540000 0.71360000
-1.66020000 2.06260000 1.08740000
-1.28030000 2.41550000 -0.29170000
-1.73180000 1.87130000 0.87950000
-1.51190000 2.33030000 0.82770000
-0.38630000 2.44950000 5.12210000
-1.42730000 2.30650000 1.87680000
-0.67030000 2.45440000 4.92030000
-0.59570000 2.41400000 5.13690000
-1.50630000 2.24240000 1.80460000
-0.85140000 2.36470000 5.02150000
-0.71740000 2.34030000 5.23000000
-0.92980000 2.25440000 5.16890000
-0.77540000 2.24270000 5.34640000
-0.92230000 2.13330000 5.32420000
-0.86590000 2.42860000 4.77750000
-1.74510000 1.79570000 1.46210000
-1.01060000 2.40470000 4.62860000
-1.67490000 1.93610000 1.69460000
-1.04520000 2.33300000 4.82910000
-0.29180000 2.69210000 -1.47310000
-1.15200000 2.34890000 4.50170000
-1.29480000 2.20730000 4.57790000
-1.49890000 2.13330000 2.02500000
-0.11850000 2.69110000 -0.78690000
-1.61220000 1.93850000 2.04490000
-1.16640000 2.30410000 4.67950000
-0.19260000 2.70820000 0.02110000
-0.44330000 2.71330000 0.01360000
-0.33140000 2.70990000 0.52610000
-1.23640000 2.18300000 4.80510000
-1.08470000 2.24190000 4.97810000
-1.20380000 2.08810000 5.00590000
-0.39660000 2.71660000 -0.47700000
-0.58500000 2.70760000 -0.01250000
-0.73220000 2.68180000 0.57630000
-1.66300000 1.90700000 1.86980000
1.53690000 2.28820000 3.84300000
-0.02260000 2.68530000 0.74180000
0.13150000 2.68020000 -0.11130000
-1.59630000 1.93710000 2.19460000
-1.52120000 2.06900000 2.22770000
-1.08160000 2.12430000 5.15020000
-1.70590000 1.72770000 2.15600000
-1.86320000 1.52220000 0.75750000
-1.79640000 1.69440000 0.74360000
-1.80560000 1.61390000 0.28290000
2.28300000 2.09440000 3.78150000
-1.71830000 1.70770000 2.28160000
-0.90220000 1.99220000 5.44140000
1.48050000 2.27260000 4.34670000
-1.85180000 1.54460000 1.23450000
0.89420000 2.43740000 3.78750000
-0.12760000 2.41320000 5.33620000
-1.96130000 1.26310000 0.52020000
-0.29310000 2.36370000 5.46250000
-0.55560000 2.31900000 5.38900000
-0.46880000 2.26010000 5.54830000
-1.76290000 1.66460000 1.93890000
-0.55880000 2.20420000 5.55190000
-0.37170000 2.25520000 5.66880000
-0.58680000 2.07030000 5.69740000
2.06100000 2.12410000 4.34640000
-1.17420000 2.54290000 0.16560000
-0.76430000 2.09730000 5.49440000
-0.67030000 2.10070000 5.56420000
-1.45730000 2.34110000 0.05070000
-1.35850000 2.44220000 0.28210000
-1.79510000 1.23780000 4.07090000
-1.81660000 1.48690000 2.13340000
-0.17990000 2.33700000 5.60980000
-1.96640000 1.27560000 1.11160000
-1.74560000 1.22580000 4.37310000
-0.76400000 1.96260000 5.59830000
-1.70070000 1.21260000 4.57100000
-0.31210000 2.20710000 5.82410000
-0.46240000 2.13260000 5.79240000
-0.18650000 2.69820000 1.05930000
-0.44770000 2.70210000 1.17340000
-0.49740000 1.97380000 5.92090000
-0.37640000 2.08730000 5.95690000
-0.31870000 2.01380000 6.07970000
-0.43430000 1.85590000 6.09170000
-0.52090000 1.77530000 6.04430000
-0.64050000 1.87100000 5.82020000
-0.79830000 1.78790000 5.70250000
-0.89820000 1.88580000 5.52030000
0.29050000 2.56840000 3.10330000
0.62440000 2.50390000 3.46820000
-0.70290000 1.52530000 6.01180000
-0.66310000 1.68100000 5.94390000
-0.49860000 1.59230000 6.17280000
-0.26230000 2.69820000 1.35580000
-1.50770000 2.32060000 0.35640000
0.92530000 2.39340000 4.39090000
-0.82330000 1.30650000 6.00050000
-1.20880000 1.08800000 5.66370000
-1.07420000 1.04540000 5.86170000
-1.05090000 2.58060000 -0.86910000
-1.23000000 2.45440000 -0.66550000
-1.17580000 2.49850000 -1.06760000
-1.06240000 2.56940000 -1.20770000
-1.36610000 2.31380000 -0.67390000
-1.43520000 2.22540000 -0.30620000
-1.46360000 2.17390000 -0.69890000
-1.55220000 1.99900000 -0.60940000
-1.53810000 2.04410000 -0.42010000
-1.51040000 2.08090000 -1.13290000
-1.59760000 1.88580000 -1.07570000
-1.56140000 1.92220000 -1.51150000
-1.65070000 1.71160000 -1.37100000
-1.65510000 1.76810000 -0.66470000
-1.95810000 1.27990000 1.47670000
-1.61540000 1.87700000 -0.51130000
-1.70740000 1.69680000 -0.37460000
-1.52780000 2.20910000 -0.05940000
-1.55130000 2.06790000 -0.24840000
-1.60210000 2.13870000 0.20420000
-1.62750000 1.96540000 -0.09630000
-1.60800000 1.92820000 -0.33880000
-1.68340000 1.92270000 0.20770000
-1.70600000 1.80110000 -0.00490000
2.37100000 2.12970000 2.42780000
-1.90180000 1.25460000 -0.26140000
-1.94050000 1.25940000 1.93500000
3.20390000 1.89450000 2.45340000
2.68270000 2.03370000 2.74170000
1.85970000 2.31400000 0.40940000
1.31070000 2.39280000 2.65540000
5.94500000 0.92140000 3.83300000
5.60470000 1.00300000 4.67830000
5.76400000 0.93310000 4.62060000
4.56060000 0.86440000 6.60370000
4.40460000 0.92810000 6.58290000
4.43800000 0.72630000 6.64050000
5.89510000 0.87190000 4.54630000
6.04130000 0.74460000 4.93360000
6.06430000 0.80890000 4.28470000
4.35230000 0.81010000 6.61630000
4.56300000 0.70050000 6.67690000
4.70880000 0.75400000 6.66050000
5.74160000 1.03870000 3.43220000
5.99940000 0.72900000 5.29220000
5.50780000 1.13370000 3.37540000
5.30890000 1.21210000 3.18090000
6.20460000 0.63450000 4.87600000
6.13960000 0.67610000 4.99160000
6.06160000 0.86340000 3.84470000
0.90990000 2.22910000 5.65760000
1.49960000 2.13030000 5.55280000
5.07500000 0.78770000 6.50340000
4.90810000 0.92090000 6.49180000
4.86370000 0.82220000 6.59210000
6.18160000 0.78780000 3.85360000
6.31100000 0.65590000 4.07950000
4.86570000 0.65900000 6.67200000
5.03110000 0.61680000 6.61690000
6.38190000 0.54910000 4.32000000
6.29580000 0.63020000 4.34060000
4.97560000 0.49220000 6.67560000
5.04340000 0.48060000 6.63830000
4.91550000 0.52400000 6.69510000
4.83790000 0.52590000 6.72010000
6.50550000 0.27490000 4.41310000
6.37700000 0.50840000 4.47400000
6.43410000 0.40230000 4.49470000
4.78300000 0.54590000 6.73240000
4.72670000 0.59660000 6.72040000
6.49960000 0.21080000 4.58540000
6.51370000 0.34870000 4.26890000
6.57810000 0.16040000 4.32850000
6.56140000 0.05390000 4.46600000
6.33610000 0.50450000 4.79270000
6.49940000 0.14140000 4.84120000
6.42450000 0.33780000 4.91980000
6.28870000 0.53320000 4.99830000
6.58530000 -0.95230000 4.42340000
6.54660000 -0.73650000 4.63460000
6.49270000 -0.89720000 4.75960000
2.34090000 2.03480000 4.57220000
2.90520000 1.90480000 4.09550000
1.31830000 2.10100000 5.94420000
6.43420000 0.23430000 5.13070000
6.46050000 -0.65350000 4.98080000
6.48150000 0.04200000 5.11010000
1.01940000 2.15390000 5.97040000
6.35640000 0.41710000 5.08900000
6.24790000 0.52650000 5.22980000
3.62220000 1.77260000 2.43330000
3.78600000 1.70270000 3.01800000
6.40870000 0.13140000 5.34660000
0.83460000 2.13450000 6.16390000
