0.88610000 -2.03770000 3.87370000
0.46110000 -2.04000000 2.91210000
0.42510000 -2.03800000 2.48780000
0.61890000 -2.03450000 2.08150000
0.50970000 -2.03680000 1.99070000
2.05870000 -0.52230000 2.73870000
2.03220000 -0.52210000 2.89530000
1.81520000 0.85810000 3.84980000
1.88850000 0.80260000 3.59380000
1.89120000 0.90360000 3.57050000
1.90130000 0.94970000 3.48540000
1.79510000 0.93210000 3.87890000
1.82000000 0.98670000 3.69260000
1.83150000 1.02280000 3.46790000
1.74820000 1.01520000 3.78020000
1.74040000 1.03280000 3.58670000
2.03180000 0.88270000 2.92810000
2.08260000 0.93440000 2.58490000
2.09440000 0.75830000 2.55150000
2.05600000 1.00030000 2.54830000
1.97940000 1.00610000 2.96060000
1.99520000 0.95820000 3.04700000
1.94000000 1.03210000 2.93010000
2.05200000 1.03460000 2.29220000
2.04050000 1.05440000 2.00050000
1.90440000 1.04670000 2.74620000
1.96470000 0.88150000 3.26360000
1.90870000 0.57350000 3.49920000
1.82930000 0.59320000 3.79680000
1.90810000 1.00160000 3.31010000
1.64560000 1.03660000 3.41090000
1.67980000 1.04540000 2.26160000
1.81650000 1.05910000 1.84570000
1.45830000 1.02600000 3.35530000
1.55060000 1.04300000 2.62420000
1.42920000 1.03960000 3.13110000
1.40460000 1.06030000 2.98700000
1.44310000 1.06380000 2.71050000
2.21640000 0.16920000 1.20080000
2.21700000 -0.52330000 1.06160000
2.21850000 -0.52330000 0.94100000
2.22030000 0.45250000 0.92620000
2.19310000 0.44380000 1.61020000
2.20360000 0.78310000 1.46660000
2.13440000 0.71710000 2.25480000
2.15920000 0.32960000 2.02700000
2.18130000 -0.52300000 1.79750000
2.13460000 0.89770000 2.23620000
2.17560000 0.86210000 1.85630000
2.14010000 0.94880000 2.14620000
2.18340000 0.93800000 1.70960000
2.12990000 0.99610000 2.06430000
2.12480000 1.03090000 1.82370000
2.18440000 0.97760000 1.57220000
2.10810000 1.05510000 1.61330000
2.20850000 0.95790000 1.19940000
2.21080000 0.89840000 1.24600000
2.21330000 0.94510000 0.73380000
2.19740000 1.00300000 1.14100000
2.17130000 1.04700000 0.96340000
2.15170000 1.04780000 1.27890000
2.20950000 0.98140000 0.82740000
2.19380000 1.02120000 0.73960000
2.17390000 1.01760000 1.43990000
2.11190000 1.07320000 1.08510000
2.14690000 1.06650000 0.83520000
2.07830000 1.08350000 0.89790000
2.07500000 1.07000000 1.39590000
1.96670000 1.06370000 1.85610000
1.95710000 1.10040000 0.17480000
1.82440000 1.08150000 0.70310000
1.72370000 1.06430000 1.31140000
1.66660000 1.07700000 1.02980000
1.64740000 1.05810000 1.75680000
1.59610000 1.07550000 1.61980000
1.54350000 1.06620000 2.17890000
1.54190000 1.08260000 1.77710000
1.35000000 1.06600000 2.84190000
1.41180000 1.06480000 2.57550000
1.31060000 1.04270000 2.71980000
1.47710000 1.07250000 2.27850000
1.42050000 1.06340000 2.22940000
1.34520000 1.03530000 2.38630000
1.27440000 1.01990000 2.44170000
1.48400000 1.07900000 1.88820000
1.43370000 1.06030000 1.79180000
1.37230000 1.03640000 1.79450000
1.32130000 1.02890000 1.65420000
1.02980000 1.00930000 2.27350000
0.97990000 1.01520000 1.57390000
1.55200000 1.09040000 1.38770000
1.49640000 1.08270000 1.47470000
1.42370000 1.05530000 1.11860000
1.57150000 1.09690000 0.93550000
1.48910000 1.08490000 0.89850000
1.27960000 1.03350000 0.94880000
1.72880000 0.85230000 4.11820000
1.68920000 0.91540000 4.20930000
1.72320000 0.96990000 4.04920000
1.66300000 1.00530000 4.11430000
1.58870000 1.02070000 4.19800000
1.15690000 1.01540000 4.16130000
1.07030000 1.04920000 4.00710000
0.91140000 1.03780000 4.47810000
1.26140000 1.02780000 3.75590000
1.23920000 1.04960000 3.60200000
0.83820000 1.00160000 4.12200000
1.03470000 1.00910000 3.62740000
1.06450000 1.00390000 3.28070000
1.31240000 1.05280000 3.26260000
1.19840000 1.05510000 3.54280000
1.16980000 1.04010000 3.46130000
1.26730000 1.05090000 3.12110000
1.14870000 1.01860000 3.35040000
1.33690000 1.06580000 3.02090000
1.19930000 1.02030000 3.07500000
0.91750000 1.00360000 3.06270000
1.02180000 1.04630000 4.00040000
0.97640000 1.02560000 3.96270000
0.88930000 1.04630000 4.41710000
0.85660000 1.02930000 4.30180000
0.76290000 1.04960000 4.60840000
0.78490000 1.04850000 4.51840000
0.77530000 1.01760000 4.38100000
0.70990000 1.03500000 4.46360000
0.62810000 1.04400000 4.57150000
0.61100000 1.04850000 4.48720000
0.68860000 1.01220000 4.39290000
0.72690000 0.99630000 4.26800000
0.52070000 1.04320000 4.40560000
0.47780000 1.01280000 4.28950000
0.59790000 0.99700000 4.27990000
0.69500000 0.99110000 4.08340000
0.20030000 0.99130000 3.45960000
0.21040000 1.01010000 4.95070000
0.24140000 0.99240000 4.03120000
0.47300000 1.04640000 4.47260000
0.32030000 1.01320000 4.56890000
0.41150000 1.02530000 4.52070000
0.30740000 1.03870000 4.26820000
0.34350000 1.05020000 4.37230000
-0.28940000 1.01560000 4.38120000
0.19790000 1.02170000 4.42130000
0.23890000 1.04340000 4.36280000
0.15010000 1.00020000 4.06470000
0.20220000 1.05290000 4.27810000
0.08760000 1.02530000 4.11250000
0.04530000 1.04830000 4.25400000
0.00580000 1.03070000 4.29220000
0.03750000 1.05240000 4.17380000
-0.06690000 1.00580000 3.98120000
0.28920000 0.99680000 2.83480000
-0.41900000 0.99090000 3.62960000
-0.38160000 0.99520000 3.78780000
-0.56040000 0.99040000 2.75850000
0.60310000 1.00280000 2.35830000
0.59990000 0.99760000 2.12880000
0.37750000 0.98130000 2.23590000
0.39030000 0.99480000 2.34300000
0.37400000 0.98430000 2.09570000
0.04510000 0.99970000 2.58810000
0.12420000 0.99980000 2.42130000
0.53110000 1.00300000 1.90760000
0.35710000 1.00240000 1.25380000
0.13880000 0.99820000 1.96030000
0.01040000 0.99100000 2.31210000
0.02360000 0.98950000 2.16040000
-0.33610000 0.99630000 2.23880000
-0.73150000 0.99730000 1.95610000
-0.43330000 0.99110000 1.56510000
1.10390000 -1.92270000 5.37720000
1.21280000 -1.95840000 5.18350000
1.27400000 -1.89040000 5.11390000
1.13770000 -1.98080000 5.27430000
1.12820000 -1.85110000 5.35280000
1.21390000 -1.41290000 5.22560000
0.94430000 -1.88980000 5.60980000
1.04050000 -1.96970000 5.44840000
0.96870000 -1.94900000 5.56320000
0.95200000 -1.99060000 5.54740000
1.00360000 -2.01040000 5.42620000
1.05570000 -2.01630000 5.30200000
0.92630000 -2.02780000 5.44080000
0.89510000 -2.03280000 5.31760000
1.08880000 -2.02810000 5.13590000
1.04990000 -0.91810000 5.48180000
0.96240000 -1.42220000 5.59490000
0.86020000 -1.84910000 5.71810000
0.82680000 -1.94300000 5.74710000
0.75790000 -1.95810000 5.82180000
0.80280000 -1.99210000 5.73630000
0.71490000 -2.01330000 5.79020000
0.67960000 -1.98460000 5.88750000
0.67730000 -2.00360000 5.85870000
0.65250000 -2.02560000 5.79680000
0.88100000 -1.96860000 5.66690000
0.80730000 -2.01410000 5.68090000
0.90420000 -2.01520000 5.55290000
0.81510000 -2.02850000 5.57950000
0.52310000 -2.02950000 5.84290000
0.48790000 -2.03650000 5.20210000
0.70770000 -0.54900000 5.91270000
0.88160000 -0.84840000 5.70520000
0.61880000 -1.86790000 5.99020000
0.74730000 -1.90460000 5.85110000
0.64130000 -1.95330000 5.95030000
0.58720000 -0.87190000 6.04090000
0.52760000 -1.91630000 6.07740000
0.50240000 -1.94640000 6.09450000
0.55130000 -1.97970000 6.02220000
0.46280000 -2.00210000 6.07350000
0.46570000 -0.92430000 6.16270000
0.35270000 -1.87750000 6.24680000
0.59020000 -2.01040000 5.93210000
0.49460000 -2.02410000 5.96170000
0.50730000 -2.00900000 6.01460000
0.44340000 -1.97580000 6.13160000
0.37700000 -2.02050000 6.08460000
0.38030000 -2.00140000 6.15300000
0.38500000 -1.94960000 6.20390000
0.28880000 -1.97390000 6.27120000
0.33340000 -1.98930000 6.21450000
0.25170000 -1.93400000 6.32610000
0.26430000 -2.02090000 6.18760000
-0.32700000 -2.02960000 6.50530000
0.24590000 -1.23900000 6.35400000
0.31440000 -0.51240000 6.30940000
0.26820000 -0.51210000 6.35120000
0.19730000 -1.87410000 6.38080000
0.14350000 -1.92570000 6.41670000
0.17690000 -1.97270000 6.36690000
0.09090000 -2.00150000 6.39320000
0.08390000 -1.89200000 6.46800000
0.03110000 -1.75730000 6.51050000
0.06080000 -1.96830000 6.45540000
-0.01400000 -1.94270000 6.52260000
-0.05400000 -2.02010000 6.43690000
-0.04670000 -2.00180000 6.48610000
-0.17020000 -1.87470000 6.64260000
-0.10240000 -1.98000000 6.55610000
-0.20600000 -2.02270000 6.52020000
-0.21150000 -2.00710000 6.58520000
-0.17030000 -1.95430000 6.62200000
-0.26220000 -1.98840000 6.65150000
-0.26660000 -1.93240000 6.69380000
-0.35500000 -2.00720000 6.67510000
-0.45250000 -2.02020000 6.68250000
-0.36970000 -1.97670000 6.72890000
0.23870000 -2.01340000 6.24860000
0.19820000 -2.00290000 6.30900000
0.05210000 -2.02580000 6.32930000
0.09960000 -2.01820000 6.34270000
-1.14230000 -2.03640000 6.41740000
-0.62170000 -2.03580000 5.21220000
0.06350000 -0.40500000 6.51320000
0.06090000 -0.51100000 6.51300000
0.08670000 -0.51110000 6.49300000
0.04330000 -0.51090000 6.52550000
-0.14470000 -1.49680000 6.63940000
0.00980000 -0.51070000 6.54900000
-0.13550000 -0.79700000 6.64580000
-0.34380000 -1.64660000 6.75870000
-0.36640000 -1.91220000 6.75920000
-0.44890000 -1.88530000 6.80740000
-0.45490000 -1.94680000 6.79580000
-0.47510000 -1.98270000 6.77700000
-0.48720000 -1.56230000 6.83930000
-0.37910000 -1.13530000 6.78750000
-0.51300000 -0.95420000 6.86180000
-0.73650000 -0.70470000 6.96450000
-0.73520000 -1.63980000 6.94920000
-0.55410000 -1.95140000 6.84010000
-0.56470000 -2.00260000 6.79190000
-0.70610000 -1.98130000 6.88210000
-0.76140000 -2.01300000 6.84770000
-0.58270000 -1.89390000 6.87270000
-0.73150000 -1.86690000 6.94100000
-0.72100000 -1.91680000 6.92830000
-0.67030000 -1.94000000 6.89770000
-0.90990000 -2.02640000 6.83740000
-1.28030000 -2.03210000 6.88220000
-0.93940000 -1.99990000 6.94670000
-0.87370000 -1.95300000 6.97260000
-0.93390000 -1.91750000 7.00860000
-1.02930000 -1.85800000 7.04740000
-1.17140000 -2.02090000 6.96330000
-1.08300000 -1.96660000 7.03100000
-1.24200000 -1.99990000 7.03710000
-1.19080000 -1.92330000 7.08350000
-1.35090000 -1.95740000 7.10680000
-1.03960000 -1.31640000 7.06180000
-0.88590000 -0.87220000 7.01780000
-1.22350000 -1.81240000 7.10480000
-1.21330000 -1.11240000 7.11320000
-1.37850000 -1.09330000 7.14900000
-2.29500000 -2.03780000 5.78770000
0.58780000 -0.51390000 6.04400000
0.49880000 -0.51340000 6.13370000
1.01640000 -0.51630000 5.52820000
0.90760000 -0.51570000 5.67220000
0.86460000 -0.51540000 5.72740000
0.71260000 -0.51460000 5.90710000
1.06540000 -0.51660000 5.45530000
0.27180000 -0.39620000 6.35080000
0.44590000 -0.51310000 6.18580000
0.40060000 0.42660000 6.23870000
-0.22750000 -0.20620000 6.71310000
-0.18020000 -0.50970000 6.67850000
0.70420000 -0.51460000 5.91690000
0.58990000 0.61880000 6.05360000
0.65450000 0.86670000 5.98580000
0.49480000 0.83460000 6.15430000
0.55360000 0.91250000 6.08410000
0.41080000 0.88770000 6.23130000
0.56260000 0.96850000 6.02970000
0.41540000 0.94230000 6.20420000
0.43610000 0.97620000 6.14660000
0.48440000 0.99210000 6.06430000
0.36600000 0.99950000 6.15790000
0.26300000 1.01130000 6.17710000
0.66210000 0.95480000 5.93940000
0.55200000 1.00560000 5.94830000
0.46830000 1.01560000 5.88860000
0.07180000 1.01170000 6.22630000
0.32250000 0.85000000 6.31530000
0.20860000 0.54960000 6.40580000
0.01390000 0.52820000 6.54950000
0.10780000 0.84290000 6.48280000
0.23580000 0.92590000 6.37260000
0.27380000 0.97050000 6.30540000
0.18210000 0.99040000 6.34880000
0.24900000 1.00200000 6.25700000
0.10800000 0.90100000 6.47950000
0.12120000 0.95760000 6.44210000
-0.01520000 0.90500000 6.56650000
0.32750000 1.00070000 5.57600000
0.36480000 1.01430000 5.40180000
0.14420000 0.78910000 5.32220000
0.16840000 0.71810000 5.34890000
0.13200000 0.78780000 5.37560000
0.08990000 0.85220000 5.40570000
0.12240000 0.86900000 5.30290000
0.16230000 0.73700000 5.27480000
0.15680000 0.65060000 5.27080000
0.17050000 0.66980000 5.34150000
0.13600000 0.68540000 5.21030000
0.13020000 0.78440000 5.21890000
0.11000000 0.75960000 5.17650000
0.07150000 0.73450000 5.13350000
0.12850000 0.84060000 5.26110000
0.07640000 0.87140000 5.18330000
0.00440000 0.81480000 5.10200000
0.11390000 0.58610000 5.46000000
0.14580000 0.60240000 5.36350000
0.12550000 0.57420000 5.33500000
0.13680000 0.64830000 5.43860000
0.01310000 0.49590000 5.56080000
0.04510000 0.56430000 5.55960000
0.05250000 0.64680000 5.55550000
0.05460000 0.49420000 5.46870000
0.04160000 0.47440000 5.42100000
-0.02230000 0.44080000 5.55420000
-0.03610000 0.41220000 5.48350000
-0.09890000 0.43010000 5.65290000
-0.13130000 0.38210000 5.62460000
-0.09860000 0.37610000 5.50890000
-0.09970000 0.49540000 5.68970000
-0.04880000 0.57510000 5.65680000
0.05760000 0.76330000 5.51270000
0.10440000 0.78320000 5.44270000
0.12870000 0.70680000 5.44190000
-0.08100000 0.74710000 5.64830000
-0.00360000 0.84210000 5.54050000
-0.17080000 0.63300000 5.75510000
0.10600000 0.56260000 5.27560000
0.09290000 0.60830000 5.19020000
0.04690000 0.51970000 5.24670000
0.00840000 0.55870000 5.14900000
0.05010000 0.49460000 5.33310000
-0.05410000 0.47620000 5.18570000
-0.08680000 0.53290000 5.08820000
-0.02710000 0.42710000 5.36980000
-0.06340000 0.42930000 5.27300000
-0.13980000 0.36820000 5.40080000
-0.19470000 0.37970000 5.26760000
-0.17310000 0.43370000 5.14900000
-0.15410000 0.47580000 5.09480000
-0.36910000 0.38710000 5.11150000
0.03040000 0.66100000 5.10940000
-0.04700000 0.60920000 5.07030000
-0.22100000 0.57730000 4.96830000
-0.04960000 0.74140000 5.05230000
-0.15750000 0.66200000 4.98490000
-0.22930000 0.49510000 5.02040000
-0.20880000 0.68240000 6.69730000
-0.40210000 0.47500000 6.80940000
-0.61130000 0.47520000 6.91260000
-0.48410000 -0.25860000 6.85550000
-0.36160000 0.59680000 5.90140000
-0.55140000 0.46650000 6.02030000
-0.53960000 0.57530000 6.02590000
-0.69280000 0.50790000 6.10510000
-0.44950000 0.66660000 5.95230000
-0.66680000 0.40630000 6.07120000
-0.79210000 0.34380000 6.10940000
-0.84060000 0.38380000 6.15040000
-0.90480000 0.44490000 6.19580000
-0.20500000 0.38970000 5.73130000
-0.22810000 0.54740000 5.80350000
-0.27680000 0.41880000 5.81050000
-0.37120000 0.46850000 5.89370000
-0.22300000 0.33390000 5.60690000
-0.22330000 0.32950000 5.51360000
-0.25930000 0.33520000 5.69760000
-0.32540000 0.33350000 5.77450000
-0.36330000 0.37130000 5.84650000
-0.49150000 0.39620000 5.95690000
-0.43350000 0.29030000 5.78220000
-0.49440000 0.32930000 5.90760000
-0.41870000 0.27740000 5.65940000
-0.28830000 0.74550000 5.82410000
-0.32850000 0.32930000 5.31780000
-0.38240000 0.28750000 5.48740000
-0.56460000 0.32680000 5.14450000
-0.54500000 0.27840000 5.33030000
-0.76800000 0.20210000 5.66380000
-0.62800000 0.23080000 5.52720000
-0.64730000 0.28010000 5.95320000
-0.58310000 0.35400000 5.99550000
-0.59790000 0.25270000 5.83710000
-0.74520000 0.20960000 5.77890000
-0.73190000 0.31180000 6.05130000
-0.82770000 0.21070000 5.90970000
-0.83700000 0.24260000 6.01930000
-0.78380000 0.22590000 5.39490000
-1.04990000 0.16750000 5.54100000
-0.91300000 0.27110000 5.12640000
-0.70970000 -0.01090000 6.96050000
-0.86150000 0.55210000 7.01290000
-0.49450000 -0.50790000 6.85780000
-0.45420000 -0.50810000 6.83610000
-0.65770000 -0.50700000 6.93110000
-0.66810000 -0.50700000 6.93570000
-0.27690000 -0.50910000 6.73740000
-0.66270000 -0.49160000 6.93340000
-0.80590000 -0.50620000 6.99300000
-0.90420000 -0.50570000 7.02970000
-1.59980000 -0.89890000 7.18890000
-1.66920000 -1.60900000 7.19070000
-1.09640000 -0.39840000 7.09350000
-1.08980000 -0.50460000 7.08980000
-1.04910000 -0.50490000 7.07650000
-1.11380000 -0.50450000 7.09640000
-0.92060000 -0.17780000 7.04020000
-1.08180000 0.51620000 7.08370000
-1.24630000 0.24330000 7.12950000
-1.02620000 0.34660000 6.22060000
-1.04490000 0.28610000 6.19530000
-1.26130000 0.32460000 6.30030000
-1.20780000 0.26560000 6.24510000
-0.98610000 0.25520000 6.13680000
-1.03890000 0.20720000 6.08120000
-1.11240000 0.17010000 5.99860000
-1.13020000 0.15170000 5.87300000
-1.33110000 0.15760000 6.10310000
-1.28590000 0.21920000 6.22630000
-1.24620000 0.13290000 5.75960000
-1.18540000 0.19610000 5.27520000
-1.31830000 0.14740000 5.46230000
-1.46260000 0.11900000 5.58790000
-1.44690000 0.18170000 6.22440000
-1.49670000 0.11520000 6.00620000
-1.62790000 0.09830000 5.87370000
-1.54670000 0.13470000 6.14310000
-1.65830000 0.09860000 5.70170000
-1.34740000 -0.18150000 7.15330000
-1.30100000 -0.50350000 7.13940000
-1.35840000 -0.50320000 7.15170000
-1.46040000 -0.50260000 7.16920000
-1.76270000 -0.19840000 7.21570000
-1.79390000 -0.50080000 7.21500000
-1.69230000 -0.50130000 7.20410000
-1.55650000 0.46690000 7.18740000
-2.10120000 -0.45240000 7.23920000
-1.87990000 0.38740000 7.22730000
1.45480000 -1.94140000 4.74770000
1.36270000 -1.96280000 4.91720000
1.40390000 -1.98710000 4.79740000
1.32330000 -2.00180000 4.91740000
1.34150000 -2.01400000 4.83420000
1.40960000 -2.01310000 4.70340000
1.23700000 -2.02940000 4.89160000
1.27480000 -1.99540000 5.02780000
1.23770000 -2.02490000 4.97340000
1.37480000 -1.88920000 4.92830000
1.29990000 -1.94860000 5.04650000
1.48500000 -1.98480000 4.62810000
1.50090000 -2.01030000 4.51940000
1.43210000 -2.02290000 4.59640000
1.18040000 -1.99510000 5.17140000
1.18970000 -2.01630000 5.09260000
0.50660000 -2.03660000 4.78770000
-0.32980000 -2.03870000 4.80920000
0.14140000 -2.04090000 3.84860000
-0.75250000 -2.03910000 4.19550000
0.48460000 -2.03640000 3.09880000
0.20640000 -2.03820000 3.31550000
0.08820000 -2.03620000 2.46430000
0.21160000 -2.03690000 1.29350000
-0.37010000 -2.03890000 2.41880000
-0.71020000 -2.03670000 3.23780000
-0.98300000 -2.03480000 2.68810000
-0.85240000 -2.03860000 1.32920000
-1.52420000 -2.03550000 5.10590000
-2.47990000 -2.03400000 5.17190000
-1.67450000 -2.03360000 4.30000000
-1.69790000 -2.03370000 3.08650000
-1.95150000 -2.04450000 1.41490000
-0.28110000 0.52330000 4.96330000
-0.36540000 0.45830000 4.98100000
-0.33820000 0.60970000 4.89040000
-0.40980000 0.53820000 4.88110000
-0.48340000 0.43180000 4.95180000
-0.59950000 0.38710000 4.97170000
-0.49740000 0.49480000 4.86850000
-0.57330000 0.45720000 4.87010000
-0.72160000 0.39980000 4.88900000
-0.87800000 0.33830000 4.94730000
-2.81960000 -2.03250000 3.72740000
-2.95640000 -2.03700000 2.68160000
-2.03150000 -2.03250000 2.67800000
-2.39550000 -2.04290000 1.81030000
-1.47770000 -1.98660000 7.10410000
-1.51970000 -2.01550000 7.05880000
-1.36140000 -1.91800000 7.12680000
-1.49860000 -1.88320000 7.15740000
-1.55190000 -1.93300000 7.15490000
-1.45350000 -1.81530000 7.15370000
-1.77600000 -2.02780000 7.03850000
-1.78750000 -2.00110000 7.12810000
-1.75600000 -1.90660000 7.18970000
-1.73570000 -1.95880000 7.16520000
-1.80280000 -1.85310000 7.20020000
-1.89780000 -2.01490000 7.10990000
-2.41450000 -2.03490000 6.96660000
-1.92420000 -1.91860000 7.20170000
-1.99090000 -1.96260000 7.18610000
-1.94870000 -1.56640000 7.21820000
-2.17360000 -1.75540000 7.22210000
-2.15000000 -1.92720000 7.21050000
-2.17870000 -1.88100000 7.21900000
-2.06610000 -1.99870000 7.15680000
-2.10370000 -2.01900000 7.11410000
-2.27660000 -2.02720000 7.08310000
-2.20200000 -1.97290000 7.18970000
-2.29890000 -1.99730000 7.16530000
-2.31020000 -1.94460000 7.20550000
-2.45440000 -2.00830000 7.14130000
-1.85520000 -1.09520000 7.21380000
-2.18190000 -1.14690000 7.23030000
-2.41850000 -1.44490000 7.22420000
-2.08330000 -0.49920000 7.23730000
-2.10670000 -0.49910000 7.23860000
-2.39810000 -0.68260000 7.23350000
-2.48740000 -1.87040000 7.21340000
-2.44010000 -1.95930000 7.19550000
-2.56260000 -1.96880000 7.18190000
-2.62820000 -2.01140000 7.12390000
-2.55920000 -1.90390000 7.20730000
-2.66830000 -1.98470000 7.16140000
-2.70820000 -1.93780000 7.18640000
-2.65690000 -1.35730000 7.21230000
-2.80420000 -1.88170000 7.18620000
-2.82910000 -1.56740000 7.19300000
-2.92040000 -1.01540000 7.18930000
-3.09360000 -1.33650000 7.15650000
-2.84640000 -2.03050000 7.01730000
-3.18180000 -2.03780000 6.63580000
-2.83270000 -2.02140000 7.07460000
-2.85240000 -1.99100000 7.13350000
-2.87760000 -1.95330000 7.15950000
-3.15530000 -1.81960000 7.13500000
-3.00020000 -1.95690000 7.13990000
-3.00120000 -2.01750000 7.06660000
-3.02120000 -1.99730000 7.10220000
-3.02480000 -1.90760000 7.15270000
-3.08730000 -1.97350000 7.11470000
-3.19100000 -1.99430000 7.07370000
-3.20740000 -1.93850000 7.11070000
-3.21960000 -2.01820000 7.02120000
-3.38860000 -2.03380000 6.85440000
-3.27430000 -1.55820000 7.11850000
-2.16110000 -0.49880000 7.23800000
-2.42790000 -0.49730000 7.23460000
-2.54190000 0.21020000 7.23860000
-2.20910000 0.18250000 7.24440000
-2.70940000 -0.45770000 7.22260000
-2.65630000 -0.49610000 7.22450000
-2.70720000 -0.49580000 7.22220000
-2.72380000 -0.49570000 7.22030000
-3.01230000 -0.49410000 7.18560000
-3.02260000 -0.43590000 7.18520000
-3.24550000 -0.76980000 7.13440000
-3.23100000 -0.48280000 7.14870000
-3.23150000 -0.49290000 7.14820000
-3.22500000 -0.49300000 7.14950000
-3.41280000 -0.81640000 7.09960000
-3.52120000 -1.30530000 7.06230000
-3.56150000 -0.49120000 7.06430000
-3.62620000 -0.49080000 7.04670000
-3.80190000 -0.83280000 6.98130000
-3.70620000 -0.49040000 7.02050000
-3.40280000 -1.85780000 7.08060000
-3.34920000 -1.95530000 7.07110000
-3.37670000 -2.01070000 7.00760000
-3.41050000 -1.97840000 7.04350000
-3.36910000 -2.02670000 6.95510000
-3.48200000 -1.90580000 7.05670000
-3.49090000 -2.00570000 6.98710000
-3.50670000 -1.95800000 7.03270000
-3.59720000 -2.00230000 6.96360000
-3.61690000 -1.95530000 7.00290000
-3.63070000 -1.60650000 7.02500000
-3.67200000 -1.91180000 6.99990000
-3.81290000 -1.56470000 6.96260000
-3.58770000 -2.02690000 6.88890000
-3.67060000 -1.98860000 6.95970000
-3.69980000 -2.01050000 6.90860000
-3.72330000 -2.03290000 6.68550000
-3.75460000 -2.02090000 6.83170000
-3.73960000 -1.95670000 6.95990000
-3.78850000 -1.98670000 6.90090000
-3.80370000 -1.90950000 6.95030000
-3.83270000 -1.95600000 6.90640000
-3.82470000 -2.01000000 6.80830000
-3.93860000 -1.94760000 6.83160000
-3.83350000 -1.85350000 6.94660000
-3.94920000 -1.89820000 6.87480000
-3.82620000 -2.02480000 6.65130000
-3.91610000 -1.99480000 6.71570000
-3.91380000 -2.02130000 6.56390000
-3.90560000 -1.98040000 6.79720000
-4.03800000 -1.93600000 6.77010000
-4.01110000 -1.99040000 6.65350000
-4.15780000 -1.97690000 6.66150000
-4.08880000 -1.79310000 6.83730000
-3.95640000 -1.18230000 6.91300000
-3.98730000 -1.83530000 6.88110000
-4.10520000 -1.56100000 6.83860000
-4.06950000 -1.87560000 6.82120000
-4.20410000 -1.89740000 6.74620000
-4.18940000 -1.94600000 6.70290000
-4.21500000 -1.84310000 6.76830000
-4.28950000 -1.40980000 6.74720000
-4.12570000 -0.83990000 6.84130000
-3.06870000 -2.03380000 4.66780000
-3.78830000 -2.03470000 4.62920000
-4.32670000 -2.03210000 5.43960000
-3.59330000 -2.03440000 3.41470000
-4.04160000 -2.03370000 3.71530000
-3.91360000 -2.03600000 2.87170000
-4.55930000 -2.04140000 3.35140000
-3.95170000 -2.03460000 6.42720000
-4.25470000 -2.03270000 6.05160000
-4.09240000 -2.02450000 6.52860000
-4.28160000 -2.01140000 6.57160000
-4.28640000 -2.03040000 6.47100000
-4.38950000 -1.97290000 6.62500000
-4.37450000 -1.91330000 6.67210000
-4.45950000 -2.00590000 6.55240000
-4.48110000 -1.95980000 6.60010000
-4.43200000 -2.02530000 6.49510000
-4.55010000 -2.02890000 6.37680000
-4.54210000 -2.00000000 6.52000000
-4.60530000 -2.02080000 6.42090000
-4.43520000 -1.84610000 6.65510000
-4.51080000 -1.92530000 6.60050000
-4.58280000 -1.87090000 6.56450000
-4.46800000 -1.32130000 6.64520000
-4.62360000 -1.18470000 6.55010000
-4.77550000 -1.57220000 6.44060000
-4.59580000 -1.96640000 6.52800000
-4.63410000 -1.92800000 6.52340000
-4.63030000 -2.00070000 6.46380000
-4.69100000 -2.00970000 6.40180000
-4.69440000 -1.95640000 6.47070000
-4.74270000 -1.98580000 6.41080000
-4.70730000 -1.89740000 6.48000000
-4.78390000 -1.95450000 6.40980000
-4.89300000 -1.91050000 6.34280000
-4.95580000 -2.02910000 5.99720000
-4.71050000 -2.02490000 6.31620000
-4.78100000 -2.01510000 6.32020000
-4.85980000 -2.02490000 6.20070000
-4.84240000 -1.99010000 6.33210000
-4.88150000 -1.95630000 6.33570000
-4.87000000 -2.01250000 6.26340000
-4.93540000 -1.98170000 6.27290000
-4.97390000 -2.00590000 6.19640000
-4.93530000 -1.48250000 6.32130000
-5.08190000 -1.47900000 6.19950000
-4.98620000 -1.95360000 6.25550000
-5.02580000 -1.88930000 6.24010000
-5.04020000 -1.98990000 6.17300000
-5.05030000 -1.93220000 6.21130000
-5.12840000 -2.01480000 6.03230000
-5.10540000 -1.96470000 6.14740000
-5.13640000 -1.99000000 6.08970000
-5.14510000 -1.92890000 6.13090000
-5.20410000 -1.87680000 6.08400000
-5.21730000 -1.37550000 6.07880000
-5.24430000 -2.02600000 5.82930000
-5.21070000 -1.96820000 6.04880000
-5.22690000 -1.99620000 5.99490000
-5.23690000 -1.92440000 6.04750000
-5.29540000 -2.01150000 5.88420000
-5.51460000 -2.02930000 5.46920000
-5.30260000 -1.96380000 5.96480000
-5.34660000 -1.99420000 5.87940000
-5.36410000 -1.69850000 5.93060000
-5.32720000 -1.91940000 5.96170000
-5.39680000 -1.96670000 5.86270000
-5.42650000 -1.89510000 5.86100000
-5.45180000 -2.01150000 5.71700000
-5.50570000 -1.99210000 5.70740000
-5.47860000 -1.95240000 5.78300000
-5.62980000 -1.80040000 5.62640000
-5.54580000 -1.93440000 5.71690000
-5.84910000 -2.03890000 4.52930000
-5.53010000 -2.02080000 5.57820000
-5.62460000 -2.01360000 5.50250000
-5.63240000 -1.90010000 5.62070000
-5.63080000 -1.95800000 5.59780000
-5.63390000 -1.99710000 5.54190000
-4.93970000 -2.03920000 4.08480000
-5.69140000 -2.02650000 5.32360000
-5.94410000 -2.03190000 4.87850000
-5.70410000 -1.97530000 5.48950000
-5.73540000 -2.00240000 5.39600000
-5.77990000 -2.02010000 5.25880000
-0.27440000 0.90610000 6.73240000
-0.15480000 0.90340000 6.66170000
-0.18560000 0.94860000 6.66470000
-0.23810000 0.97560000 6.67480000
-0.33890000 0.96090000 6.74490000
-0.30300000 0.99400000 6.68270000
-0.41650000 0.92790000 6.80460000
-0.42710000 1.00660000 6.71170000
-0.46870000 0.84540000 6.84210000
-0.58550000 0.91190000 6.89090000
-0.66600000 0.87900000 6.93280000
-0.82930000 0.84200000 6.99790000
-0.51770000 0.98480000 6.81030000
-0.58860000 0.96270000 6.86770000
-0.71330000 1.01050000 6.80880000
-0.69900000 0.94850000 6.92650000
-0.79740000 0.92650000 6.97450000
-0.66770000 0.99860000 6.85180000
-0.74880000 0.97490000 6.92350000
-0.90630000 1.00360000 6.91860000
0.06090000 1.00740000 5.74420000
-0.18100000 0.99450000 6.03300000
0.08610000 1.00770000 6.36670000
0.05580000 0.98640000 6.45550000
-0.06480000 1.01300000 6.43810000
-0.08260000 1.00400000 6.51270000
-0.45880000 0.99890000 6.35100000
-0.20060000 1.01760000 5.88970000
-0.08390000 1.02240000 5.76490000
-0.25740000 1.00360000 6.00380000
-0.19900000 1.01750000 5.79790000
-0.23620000 1.02130000 5.86140000
-0.29150000 0.99620000 5.82390000
0.32750000 1.03490000 5.32360000
0.22010000 1.02720000 5.45290000
0.25110000 1.03710000 5.28770000
0.13370000 1.02230000 5.56870000
0.10990000 1.01050000 5.49790000
0.06850000 1.01680000 5.56200000
0.19820000 1.01770000 5.36070000
0.16820000 0.99790000 5.26880000
0.13400000 0.93770000 5.29180000
0.15200000 0.98840000 5.35500000
0.11980000 0.97720000 5.40640000
0.10000000 0.91980000 5.38160000
0.06170000 0.95590000 5.47260000
0.14600000 1.00790000 5.43450000
0.20280000 1.03230000 5.22450000
0.22860000 1.03960000 5.11640000
0.10450000 1.04190000 5.10050000
0.06360000 1.01750000 4.90870000
0.12440000 0.95970000 5.23000000
0.11760000 0.91140000 5.24830000
0.06350000 0.93580000 5.18170000
-0.06260000 0.89380000 5.08370000
0.13710000 1.01350000 5.19350000
0.03170000 1.00440000 5.12680000
0.02050000 1.03800000 5.06240000
0.00160000 0.95330000 5.13090000
0.02000000 1.04110000 4.97740000
-0.07250000 0.98200000 5.07240000
-0.05520000 1.03920000 5.02030000
-0.10340000 1.02120000 5.02730000
-0.09960000 1.04530000 4.92810000
-0.14030000 1.04350000 4.96560000
-0.16540000 1.04490000 4.89250000
-0.14330000 0.91870000 5.65440000
-0.01270000 0.92840000 5.54120000
-0.01000000 1.02250000 5.66340000
0.02160000 0.97250000 5.53100000
-0.02400000 0.98960000 5.58710000
-0.10830000 1.01750000 5.71880000
-0.06620000 1.00910000 5.65500000
-0.10830000 0.94840000 5.63070000
0.04110000 0.88900000 5.47750000
-0.20010000 0.87420000 5.70920000
-0.13640000 0.99190000 5.68270000
-0.20080000 0.96400000 5.71290000
-0.32150000 0.91610000 5.80570000
-0.20280000 0.99870000 5.74930000
-0.29080000 0.97240000 5.79710000
-0.27980000 0.82610000 4.94640000
-0.13620000 0.96520000 5.04130000
-0.22460000 0.92060000 4.99890000
-0.20850000 0.96710000 5.00520000
-0.18190000 1.02520000 4.98250000
-0.23040000 1.00120000 4.98020000
-0.36800000 0.96750000 4.92540000
-0.20880000 1.04320000 4.93190000
-0.28950000 1.02400000 4.92960000
-0.04560000 0.95120000 6.56960000
-0.12220000 0.98120000 6.59180000
-0.20870000 0.99840000 6.61630000
-0.28730000 1.01240000 6.60290000
-0.38490000 1.01260000 6.58070000
-0.55850000 1.00760000 6.16280000
-0.38910000 1.01730000 5.95870000
-0.33230000 1.01130000 5.89030000
-0.36790000 0.96160000 5.85340000
-0.46830000 1.01770000 6.04800000
-0.44060000 0.98920000 5.92370000
-0.47520000 0.96390000 5.92380000
-0.48010000 0.89020000 5.91390000
-0.72810000 0.99150000 6.36290000
-0.80760000 1.01530000 6.21030000
-0.59540000 0.91230000 5.97940000
-0.47830000 0.77220000 5.93840000
-0.67480000 0.84730000 6.03180000
-0.55190000 0.99790000 6.00240000
-0.59340000 0.95140000 5.98620000
-0.62870000 1.00940000 6.08100000
-0.69350000 0.97170000 6.05810000
-1.14760000 1.00810000 6.88570000
-0.56740000 0.66720000 6.03200000
-0.69310000 0.58940000 6.10540000
-0.66400000 0.74160000 6.06050000
-0.81720000 0.64570000 6.15620000
-0.88110000 0.53110000 6.19810000
-0.84350000 0.81030000 6.13060000
-0.75390000 0.90290000 6.06940000
-0.80460000 0.92740000 6.10140000
-0.99880000 0.75020000 6.20820000
-0.93530000 0.87260000 6.15810000
-1.17900000 0.98930000 6.53670000
-1.00050000 1.01010000 6.35720000
-0.76980000 0.99470000 6.12650000
-0.88570000 0.97750000 6.16180000
-0.87780000 1.00740000 6.20460000
-1.05880000 0.99940000 6.25570000
-1.16660000 1.01530000 6.33970000
-0.92050000 0.93650000 6.15720000
-1.09540000 0.88450000 6.21750000
-1.06440000 0.94190000 6.21570000
-0.35120000 0.84680000 5.83700000
-0.90040000 0.98430000 6.96360000
-0.92590000 0.89660000 7.02800000
-0.99310000 0.94910000 7.03070000
-1.12190000 0.87710000 7.09110000
-1.06700000 0.91620000 7.06900000
-1.35390000 0.82420000 7.14900000
-1.16010000 0.98590000 7.04310000
-1.21290000 0.95990000 7.08730000
-1.31290000 1.00490000 7.02600000
-1.24240000 0.91960000 7.11660000
-1.36450000 0.89110000 7.14990000
-1.39430000 0.98020000 7.10840000
-1.36600000 0.94570000 7.13360000
-1.46540000 0.92780000 7.16160000
-1.56490000 0.88130000 7.18620000
-1.64600000 0.98940000 7.12570000
-1.56160000 0.96760000 7.15070000
-1.66520000 1.00370000 7.07470000
-1.59750000 0.92660000 7.18090000
-1.81210000 0.82990000 7.22250000
-1.73680000 0.88440000 7.21160000
-1.72760000 0.94380000 7.19060000
-1.85060000 0.91450000 7.22030000
-1.83840000 0.97550000 7.18090000
-2.12920000 0.80500000 7.24430000
-1.99920000 0.87150000 7.23650000
-1.90310000 0.95350000 7.20680000
-1.96340000 0.92070000 7.22670000
-1.86590000 1.00160000 7.12810000
-1.97880000 0.98960000 7.16800000
-1.99270000 0.95750000 7.20900000
-2.08210000 0.91590000 7.23480000
-2.09080000 0.97180000 7.20140000
-2.23780000 0.88330000 7.24680000
-2.20250000 0.94660000 7.22680000
-1.06540000 0.51670000 6.27250000
-1.02160000 0.59740000 6.25160000
-1.15620000 0.41100000 6.29450000
-1.30840000 0.40710000 6.34280000
-1.27870000 0.51520000 6.34580000
-1.25950000 0.72660000 6.30900000
-1.23330000 0.82900000 6.27390000
-1.23870000 0.61130000 6.32860000
-1.40900000 0.25080000 6.30530000
-1.46570000 0.40580000 6.38210000
-1.52010000 0.30330000 6.36430000
-1.58260000 0.25910000 6.35140000
-1.68230000 0.34160000 6.41060000
-1.41400000 0.61480000 6.37660000
-1.48440000 0.50420000 6.39860000
-1.59890000 0.57060000 6.42020000
-1.67530000 0.45320000 6.43240000
-1.64680000 0.99030000 6.73560000
-1.32270000 1.00950000 6.45740000
-1.21230000 0.99560000 6.30340000
-1.09700000 0.97070000 6.23910000
-1.16470000 0.93880000 6.24850000
-1.29860000 0.90480000 6.29020000
-1.20320000 0.97910000 6.28060000
-1.27340000 0.94540000 6.28850000
-1.73370000 0.98670000 6.62990000
-1.47230000 0.76920000 6.36010000
-1.44890000 0.90190000 6.33360000
-1.47900000 1.01070000 6.42610000
-1.39850000 0.99090000 6.36400000
-1.63980000 1.00400000 6.55100000
-1.41970000 0.96540000 6.34620000
-1.87960000 1.00540000 7.05000000
-1.64540000 0.65390000 6.41710000
-1.56120000 0.83870000 6.35540000
-1.67730000 0.73940000 6.39720000
-1.85370000 0.77440000 6.42580000
-1.53090000 0.99710000 6.40230000
-1.72990000 1.01360000 6.49390000
-1.66540000 0.98760000 6.41620000
-1.57620000 0.95070000 6.37290000
-1.74190000 0.90950000 6.39270000
-1.71410000 0.94580000 6.39620000
-1.75280000 0.82980000 6.39440000
-1.97900000 0.88720000 6.42060000
-1.65100000 0.19910000 6.30740000
-1.75080000 0.15730000 6.25910000
-1.89540000 0.09870000 6.06960000
-1.89810000 0.10270000 5.51630000
-1.77650000 0.27980000 6.40080000
-1.88140000 0.40920000 6.45880000
-1.85730000 0.50460000 6.46250000
-1.94380000 0.31470000 6.44170000
-2.11730000 0.37410000 6.47290000
-1.84500000 0.61640000 6.45620000
-2.15870000 0.54490000 6.48700000
-1.97230000 0.71880000 6.44880000
-2.06250000 0.48330000 6.48230000
-2.26630000 0.59080000 6.48860000
-2.22220000 0.74030000 6.46190000
-2.37460000 0.68800000 7.24700000
-2.30730000 0.44230000 6.49080000
-2.48010000 0.65020000 6.47360000
-1.83400000 0.12750000 6.19510000
-1.74050000 0.22850000 6.35750000
-1.94840000 0.17900000 6.34210000
-2.06740000 0.13320000 6.25940000
-2.17530000 0.10810000 6.17970000
-1.91090000 0.23130000 6.39490000
-2.11770000 0.21870000 6.40290000
-2.09550000 0.27710000 6.43880000
-2.51620000 0.09180000 6.03860000
-2.04070000 0.07950000 5.78050000
-2.06250000 0.08220000 5.95890000
-2.25620000 0.08680000 5.64010000
-2.33100000 0.07850000 5.91220000
-2.18910000 0.18880000 6.37410000
-2.30050000 0.16410000 6.34190000
-2.30510000 0.27670000 6.44860000
-2.31190000 0.22420000 6.41610000
-2.42530000 0.19410000 6.38570000
-2.45610000 0.12360000 6.24070000
-2.54060000 0.16470000 6.34000000
-2.56090000 0.08580000 5.80550000
-2.31460000 0.35140000 6.47590000
-2.49170000 0.24620000 6.42580000
-2.52900000 0.32500000 6.46190000
-2.58930000 0.42130000 6.48040000
-2.47620000 0.51570000 6.48750000
-2.66950000 0.53410000 6.48240000
-2.71060000 0.10850000 6.11500000
-2.76680000 0.09720000 5.90710000
-1.79870000 1.00190000 6.46170000
-1.82140000 0.97450000 6.43030000
-2.02600000 0.95330000 6.43160000
-1.96160000 0.98780000 6.45420000
-2.13650000 1.00190000 7.12490000
-2.36670000 1.00190000 7.09200000
-2.49570000 0.98870000 6.87820000
-2.23190000 0.99240000 6.64220000
-2.02470000 1.01260000 6.56900000
-2.04210000 1.01350000 6.52680000
-2.14150000 0.88760000 6.43330000
-2.16510000 1.00720000 6.50840000
-2.18650000 0.98690000 6.46740000
-2.16330000 0.94830000 6.43800000
-2.43060000 0.97790000 6.73690000
-2.28200000 0.91770000 6.43930000
-2.38000000 0.82950000 6.44410000
-2.30140000 1.00950000 6.56840000
-2.33580000 1.00090000 6.50330000
-2.33740000 0.94870000 6.44700000
-2.42010000 0.98710000 6.47490000
-2.20490000 0.98330000 7.18690000
-2.37120000 0.99190000 7.16530000
-2.31530000 0.91590000 7.24310000
-2.30420000 0.97540000 7.20190000
-2.44390000 0.89000000 7.24480000
-2.38430000 0.93980000 7.23180000
-2.58980000 0.86090000 7.24340000
-2.45890000 0.97080000 7.20310000
-2.51080000 0.98930000 7.16510000
-2.48320000 0.94570000 7.22580000
-2.55300000 0.91360000 7.23740000
-2.57670000 0.95070000 7.21880000
-2.64380000 0.97510000 7.18940000
-2.67280000 0.99460000 7.14120000
-2.73490000 0.99750000 7.09360000
-2.85210000 0.99480000 7.01120000
-2.73690000 0.97780000 6.67340000
-2.55600000 0.91110000 6.43690000
-2.49950000 0.95930000 6.45110000
-2.50170000 1.00920000 6.54730000
-2.63990000 0.99640000 6.61100000
-2.55280000 1.00330000 6.50920000
-2.61050000 0.98780000 6.47480000
-2.93360000 0.97410000 6.70860000
-2.76840000 1.00540000 6.53880000
-2.69100000 0.99770000 6.49490000
-2.77580000 0.62670000 6.45870000
-2.66010000 0.73310000 6.44660000
-2.62450000 0.83570000 6.43580000
-2.83580000 0.87960000 6.41830000
-2.66670000 0.95210000 6.44570000
-2.78130000 0.93090000 6.42980000
-2.74790000 0.98110000 6.46430000
-2.88030000 1.00070000 6.49290000
-2.88400000 0.97640000 6.44740000
-0.16570000 1.00760000 4.68690000
-0.06740000 1.01770000 4.33240000
-0.17100000 1.01980000 4.78510000
-0.05990000 1.05590000 4.15960000
-0.13490000 1.05320000 4.15450000
-0.14960000 1.04320000 4.03970000
-0.15290000 1.05560000 4.08210000
-0.22370000 1.03340000 4.18370000
-0.36480000 1.02150000 4.19870000
-0.29060000 0.71030000 4.91120000
-0.44310000 0.65700000 4.83120000
-0.53350000 0.77650000 4.80940000
-0.58300000 0.60000000 4.77240000
-0.59380000 0.69080000 4.76270000
-0.41850000 0.91640000 4.90180000
-0.23570000 1.04650000 4.85740000
-0.29190000 1.04720000 4.87330000
-0.31400000 1.03120000 4.76160000
-0.35090000 1.04730000 4.80870000
-0.35210000 1.04500000 4.86380000
-0.39820000 1.02400000 4.88120000
-0.50030000 1.02840000 4.67600000
-0.50900000 1.01420000 4.60770000
-0.47150000 0.98690000 4.87230000
-0.56690000 0.92300000 4.83490000
-0.28080000 1.05460000 4.08520000
-0.45020000 1.03720000 4.83360000
-0.47150000 1.04670000 4.78870000
-0.50920000 1.04480000 4.73190000
-0.66940000 1.01470000 4.47600000
-0.53500000 1.02020000 4.82310000
-0.57280000 0.98340000 4.82940000
-0.56450000 1.04620000 4.76200000
-0.64270000 0.97040000 4.80190000
-0.63040000 1.01710000 4.78500000
-0.61540000 1.04640000 4.72060000
-0.69140000 1.03500000 4.74030000
-0.71410000 1.04440000 4.64630000
-0.74680000 1.04760000 4.68120000
-0.90120000 1.03640000 4.54270000
-1.15250000 1.02840000 4.21720000
-0.31540000 1.00270000 3.86660000
-0.30450000 1.02370000 3.93140000
-0.32650000 1.05220000 3.99180000
-0.38630000 1.05820000 4.02060000
-0.50200000 1.04240000 3.89450000
-0.50400000 1.04770000 4.03390000
-0.52150000 1.05760000 3.93690000
-0.58100000 1.01740000 3.81300000
-0.65290000 0.99940000 3.73030000
-1.41140000 0.98350000 2.95580000
-0.64180000 1.03830000 4.02810000
-0.61170000 1.05740000 3.96250000
-0.84840000 1.02800000 4.06310000
-0.66920000 1.05630000 3.89640000
-0.70690000 1.04060000 3.82820000
-0.73690000 1.01410000 3.76380000
-0.78980000 1.05090000 3.91830000
-0.83130000 1.05100000 3.83570000
-0.89540000 1.03670000 3.95520000
-0.94930000 1.05020000 3.84400000
-1.12160000 1.05140000 3.86170000
-1.03230000 0.99220000 3.58120000
-1.05070000 1.00590000 3.67060000
-0.92100000 1.02950000 3.75310000
-1.05770000 1.05280000 3.79040000
-1.25200000 1.02880000 3.68910000
-0.62500000 0.53560000 4.77890000
-0.70580000 0.49400000 4.77410000
-0.74610000 0.64110000 4.69670000
-0.78600000 0.43750000 4.80380000
-0.74040000 0.77470000 4.71930000
-0.85430000 0.71050000 4.66390000
-0.77140000 0.90740000 4.74700000
-0.77370000 0.56860000 4.70160000
-0.89360000 0.45510000 4.73970000
-0.86120000 0.52580000 4.69100000
-1.01540000 0.50110000 4.65500000
-0.95910000 0.83140000 4.66000000
-0.89670000 0.61710000 4.64330000
-0.99510000 0.56780000 4.62390000
-0.99320000 0.65210000 4.61080000
-1.07870000 0.70820000 4.59540000
-0.99560000 0.39580000 4.78510000
-1.17240000 0.31600000 4.88570000
-1.30900000 0.22470000 5.10410000
-1.10920000 0.46080000 4.66150000
-1.22790000 0.40340000 4.69790000
-1.46380000 0.32620000 4.77920000
-1.13970000 0.55510000 4.58750000
-1.24840000 0.51150000 4.58430000
-1.20050000 0.60080000 4.56160000
-1.32010000 0.44080000 4.62640000
-1.49030000 0.37050000 4.68700000
-1.48860000 0.48690000 4.54940000
-0.72800000 0.96610000 4.76950000
-0.73240000 1.00720000 4.75440000
-0.81160000 0.98550000 4.73380000
-0.79170000 1.03310000 4.70730000
-0.92050000 0.92390000 4.69590000
-0.87400000 1.01340000 4.70020000
-0.90890000 0.98510000 4.70220000
-0.87210000 1.04230000 4.66230000
-1.12680000 1.02910000 4.43780000
-0.97430000 0.95130000 4.68240000
-1.08070000 0.90810000 4.64470000
-0.94500000 1.04990000 4.60730000
-0.95220000 1.02530000 4.66440000
-1.02660000 1.05170000 4.56400000
-1.30730000 1.02590000 4.35410000
-0.99030000 0.99190000 4.67430000
-1.06760000 0.96010000 4.65690000
-1.03060000 1.03790000 4.62840000
-1.08090000 1.01090000 4.64330000
-1.15080000 0.97440000 4.63710000
-1.10860000 1.04710000 4.50690000
-1.10440000 1.05030000 4.58720000
-1.17960000 1.05520000 4.54450000
-1.15400000 1.03280000 4.60880000
-1.19570000 1.00630000 4.62100000
-1.23240000 1.04630000 4.57390000
-1.24900000 0.87920000 4.60340000
-1.25020000 0.69400000 4.55540000
-1.40980000 0.62970000 4.51890000
-1.45960000 0.70190000 4.51990000
-1.48680000 0.54820000 4.51640000
-1.27460000 0.97500000 4.61240000
-1.29580000 1.01610000 4.59390000
-1.44780000 0.89480000 4.57520000
-1.57400000 0.78460000 4.52770000
-1.39990000 0.97380000 4.59040000
-1.52520000 0.93680000 4.57490000
-1.39830000 1.03700000 3.93950000
-1.58740000 0.60590000 4.49030000
-1.28580000 1.05590000 4.52560000
-1.31010000 1.05230000 4.48090000
-1.35570000 1.04250000 4.55590000
-1.40790000 1.05430000 4.48060000
-1.55190000 1.04500000 4.41490000
-1.40040000 1.02340000 4.57090000
-1.46530000 0.98570000 4.58110000
-1.45900000 1.05050000 4.52410000
-1.49530000 1.02560000 4.55690000
-1.57980000 1.05260000 4.50730000
-1.59170000 0.98250000 4.56720000
-1.72710000 0.87740000 4.54020000
-1.67410000 0.93830000 4.55940000
-1.56270000 1.03300000 4.54410000
-1.66340000 1.05850000 4.46980000
-1.63810000 1.01220000 4.55380000
-1.70520000 0.97960000 4.55660000
-1.66580000 1.04400000 4.51910000
-1.70750000 1.02180000 4.53810000
-1.76460000 1.04950000 4.49900000
-2.51060000 1.03330000 4.11770000
-1.22790000 1.06060000 3.80380000
-1.26740000 1.05450000 3.74040000
-1.51800000 1.04780000 3.83940000
-1.42460000 0.99470000 3.57030000
-1.52480000 1.06000000 3.75720000
-1.49150000 1.04810000 3.69620000
-1.68810000 1.00550000 3.59810000
-1.83200000 1.03930000 4.36930000
-1.84030000 1.02680000 4.30310000
-1.74350000 1.05830000 4.44560000
-1.77670000 1.05700000 3.71960000
-1.88040000 1.03920000 3.66350000
-1.90930000 1.04930000 3.80740000
-2.29650000 1.03970000 3.89740000
-2.23990000 1.05860000 3.73500000
-1.33560000 0.98460000 2.35680000
-1.69390000 0.96750000 1.65520000
-1.74240000 0.97120000 2.00700000
-2.01830000 0.98540000 3.43190000
-2.37810000 0.97080000 2.76130000
-2.22120000 1.00980000 3.60220000
-2.27420000 0.99090000 3.52600000
-1.57010000 0.15160000 5.32020000
-1.68420000 0.20360000 5.06690000
-1.56190000 0.26680000 4.89980000
-1.62200000 0.41830000 4.59220000
-1.77420000 0.34480000 4.68760000
-1.90680000 0.15160000 5.23450000
-1.94220000 0.11410000 5.40920000
-1.92430000 0.25080000 4.88060000
-2.10600000 0.20090000 5.01640000
-2.18380000 0.29210000 4.77440000
-1.74520000 0.45600000 4.53680000
-1.67840000 0.55900000 4.48540000
-1.73480000 0.50580000 4.50120000
-1.91740000 0.38680000 4.60470000
-1.88360000 0.51940000 4.48180000
-1.95680000 0.45520000 4.52380000
-1.75690000 0.69150000 4.48030000
-1.80850000 0.62320000 4.46710000
-1.85760000 0.82720000 4.51090000
-1.88660000 0.57060000 4.46440000
-2.01920000 0.53110000 4.47130000
-2.01200000 0.66770000 4.46070000
-2.04040000 0.58410000 4.45780000
-2.16760000 0.36640000 4.63090000
-2.11960000 0.41170000 4.56740000
-2.40470000 0.34270000 4.68820000
-2.05420000 0.48520000 4.49720000
-2.19940000 0.45980000 4.52190000
-2.16680000 0.54720000 4.46970000
-2.15980000 0.62040000 4.45980000
-2.26320000 0.50290000 4.49340000
-2.32300000 0.41510000 4.57360000
-2.41370000 0.48240000 4.51950000
-2.27190000 0.13910000 5.27230000
-2.25650000 0.10070000 5.46470000
-2.66970000 0.10690000 5.61120000
-2.36000000 0.19810000 5.03860000
-2.52260000 0.26600000 4.85820000
-2.63550000 0.17230000 5.17630000
-2.79930000 0.22640000 5.03240000
-2.55940000 0.13070000 5.35840000
-2.83430000 0.13860000 5.43060000
-2.96290000 0.19150000 5.21530000
-2.64740000 0.39250000 4.64530000
-2.52750000 0.44370000 4.56620000
-2.65770000 0.31560000 4.77570000
-2.87020000 0.29800000 4.86680000
-3.02150000 0.25740000 5.01840000
-1.84250000 0.93940000 4.54190000
-1.78270000 0.99730000 4.54420000
-1.83970000 1.02450000 4.52640000
-2.06470000 0.74140000 4.47900000
-2.04690000 0.88370000 4.52430000
-2.21720000 0.82800000 4.50920000
-1.84420000 1.05880000 4.45610000
-1.89650000 1.05600000 4.42730000
-1.89700000 1.04910000 4.48850000
-1.90260000 0.99450000 4.53610000
-1.95890000 1.03300000 4.51200000
-2.07880000 1.05750000 4.45820000
-2.06630000 1.04610000 4.39390000
-2.40420000 1.02310000 4.29290000
-1.99730000 0.95090000 4.53960000
-2.02210000 0.99570000 4.53620000
-2.17190000 0.95000000 4.53950000
-2.03400000 1.03490000 4.51100000
-2.11950000 1.04890000 4.49200000
-2.13780000 0.99300000 4.53750000
-2.19070000 1.02940000 4.51960000
-2.38460000 1.03080000 4.35510000
-2.39690000 0.79140000 4.51240000
-2.30430000 0.59320000 4.46730000
-2.40510000 0.66070000 4.47990000
-2.39830000 0.54870000 4.48440000
-2.53380000 0.59540000 4.49130000
-2.23510000 1.00940000 4.53420000
-2.35610000 0.97250000 4.55200000
-2.29860000 0.92880000 4.54230000
-2.49030000 0.91740000 4.56130000
-2.53620000 0.71140000 4.50410000
-2.25060000 1.05610000 4.47170000
-2.27660000 1.05400000 4.42550000
-2.63710000 1.05470000 3.80810000
-2.26130000 1.04320000 4.50590000
-2.32510000 1.01470000 4.53680000
-2.39180000 1.03630000 4.52260000
-2.42810000 1.05670000 4.47210000
-2.55220000 1.04930000 4.44920000
-2.48370000 0.99610000 4.56380000
-2.55320000 0.95880000 4.57930000
-2.67700000 0.89800000 4.58400000
-2.53470000 1.02200000 4.55810000
-2.49150000 1.04560000 4.52500000
-2.58400000 1.05030000 4.51450000
-2.61140000 0.99220000 4.58490000
-2.66750000 1.02070000 4.57600000
-2.84000000 1.03270000 4.45730000
-2.75490000 1.04690000 4.55390000
-2.89340000 1.05250000 4.54440000
-3.15240000 1.01550000 4.43480000
-3.88970000 1.00950000 4.54550000
-3.30800000 1.03890000 4.01470000
-2.55640000 0.52920000 4.51130000
-2.62880000 0.48840000 4.54380000
-2.68760000 0.58020000 4.51870000
-2.90360000 0.38050000 4.72100000
-2.73660000 0.45300000 4.59110000
-2.78210000 0.53650000 4.54790000
-2.93870000 0.44320000 4.64880000
-2.90750000 0.50730000 4.59100000
-2.70750000 0.67190000 4.52270000
-2.80970000 0.62150000 4.53880000
-2.66760000 0.77690000 4.54200000
-2.91610000 0.58600000 4.56590000
-2.94990000 0.68800000 4.57980000
-3.15010000 0.37260000 4.81590000
-3.28330000 0.30050000 5.01950000
-3.35420000 0.35090000 4.94120000
-3.20700000 0.51040000 4.68140000
-3.09630000 0.55950000 4.62340000
-3.14330000 0.63650000 4.63110000
-3.18660000 0.43220000 4.74140000
-3.21590000 0.47300000 4.70990000
-2.68780000 0.95610000 4.60050000
-2.75370000 0.98170000 4.61330000
-2.83360000 0.92990000 4.62800000
-2.88470000 0.79130000 4.59410000
-3.08530000 0.80500000 4.65610000
-2.77960000 1.02420000 4.59610000
-2.86490000 0.98610000 4.63690000
-2.91250000 1.04020000 4.60730000
-3.02080000 0.92880000 4.67750000
-2.93270000 1.01010000 4.64300000
-3.06280000 0.97900000 4.69060000
-3.04330000 1.01490000 4.66860000
-3.10480000 1.03670000 4.65910000
-3.23870000 1.03420000 4.57590000
-3.25560000 0.69830000 4.67640000
-3.25350000 0.58580000 4.66900000
-3.42800000 0.64630000 4.72940000
-3.17270000 0.95640000 4.72410000
-3.20640000 0.99660000 4.72270000
-3.25840000 0.89780000 4.74140000
-3.34720000 0.81920000 4.74650000
-3.32570000 0.94230000 4.77100000
-3.40550000 0.89390000 4.79120000
-2.31920000 1.04780000 3.68850000
-2.68570000 1.00400000 3.62080000
-2.98740000 0.98530000 3.54910000
-2.75890000 1.05170000 3.75100000
-2.94570000 1.03340000 3.72640000
-3.23960000 1.00050000 3.70730000
-3.34860000 0.96290000 2.55210000
-3.88350000 1.02050000 4.30880000
-3.23320000 1.03380000 4.69610000
-3.30560000 1.00670000 4.74580000
-3.30590000 1.04630000 4.66610000
-3.44800000 0.97140000 4.81440000
-3.44440000 1.03750000 4.75160000
-3.46830000 1.01660000 4.79600000
-3.72230000 1.00630000 4.68960000
-3.61750000 1.03750000 4.74950000
-3.68190000 1.02130000 4.72960000
-3.86290000 1.00070000 4.70230000
-3.17350000 1.05680000 3.85920000
-3.22790000 1.05260000 3.82720000
-3.31820000 1.03550000 3.80680000
-3.51730000 1.05420000 3.96130000
-3.75520000 1.00060000 3.87770000
-3.77970000 0.97920000 3.53170000
-3.62880000 1.04850000 3.93860000
-4.12770000 1.03250000 4.30380000
-3.72660000 1.02220000 3.91690000
-3.92030000 1.05300000 4.10280000
-3.94970000 1.03400000 4.03460000
-3.89370000 0.98640000 3.83150000
