9.65160000 -1.33730000 -11.33670000
10.07100000 -1.33360000 -11.45770000
9.51980000 -1.30450000 -11.03090000
9.73180000 -1.30740000 -10.98560000
10.15000000 -1.41350000 -11.02950000
9.36130000 -1.19300000 -10.95950000
9.89920000 -1.27010000 -10.96280000
9.55450000 -1.22340000 -11.46610000
10.49010000 -1.18560000 -10.92710000
9.48100000 -1.09300000 -10.93390000
9.26460000 -0.91470000 -10.89690000
10.11170000 -1.02780000 -10.88400000
12.70850000 -1.85740000 -11.35080000
12.68210000 -1.79890000 -11.43990000
12.93670000 -1.87170000 -11.40790000
12.23900000 -1.69010000 -11.45380000
12.71350000 -1.74470000 -11.47030000
12.30760000 -1.64760000 -11.47280000
12.44750000 -1.83160000 -11.25530000
12.97910000 -1.91620000 -11.13900000
12.64310000 -1.87500000 -11.18910000
12.16290000 -1.77330000 -11.12890000
12.51880000 -1.78340000 -11.03390000
12.56530000 -1.72310000 -10.99770000
11.73690000 -1.66450000 -11.03980000
11.97340000 -1.09510000 -11.47610000
12.56930000 -1.60350000 -11.48070000
11.69650000 -1.68510000 -11.08250000
11.38290000 -1.54600000 -10.99650000
11.89060000 -1.63510000 -10.99440000
11.73600000 -1.52160000 -10.96760000
11.67130000 -1.42640000 -10.95640000
12.52470000 -1.63970000 -10.97850000
11.96650000 -1.36960000 -10.92030000
12.26530000 -1.38450000 -10.90340000
11.26260000 -1.27400000 -10.92390000
11.38470000 -1.20820000 -10.85200000
12.42100000 -1.35280000 -10.83600000
12.15860000 -1.23910000 -10.71850000
12.85790000 -1.54890000 -10.94830000
13.87220000 -1.53270000 -10.73440000
12.98000000 -1.36170000 -10.69140000
12.87460000 -1.42830000 -10.81740000
12.99370000 -1.29750000 -10.63820000
12.23680000 -1.19430000 -10.65160000
12.14060000 -1.10750000 -10.61520000
11.26610000 -1.07750000 -10.68090000
13.04620000 -1.22180000 -10.61410000
12.44420000 -1.03630000 -10.60010000
13.07420000 -1.85840000 -11.44370000
13.16430000 -1.79340000 -11.47400000
12.65880000 -1.05700000 -11.47650000
13.10550000 -0.94850000 -11.47680000
12.48980000 -0.52470000 -11.46310000
13.31070000 -1.14810000 -11.47520000
14.32640000 -1.65300000 -10.81740000
13.75630000 -1.45720000 -10.67280000
13.69210000 -1.38950000 -10.64190000
13.79270000 -1.28950000 -10.62490000
13.62410000 -0.90830000 -10.62680000
12.46740000 -0.64230000 -10.60410000
14.06600000 -0.73100000 -11.46730000
14.19720000 -0.25870000 -11.43030000
12.77590000 -0.13330000 -11.42760000
12.61390000 0.26300000 -11.39940000
11.35200000 -1.04680000 -10.64310000
10.88290000 -0.92850000 -10.61640000
11.20150000 -0.94300000 -10.61230000
10.38060000 -0.73410000 -10.59090000
11.35830000 -0.84270000 -10.59810000
11.21510000 -1.12180000 -10.75700000
11.47080000 -0.95960000 -10.59820000
9.97190000 -0.95250000 -10.83200000
10.35950000 -0.94560000 -10.72080000
10.13800000 -0.83730000 -10.63660000
10.10530000 -0.76130000 -10.60270000
11.20350000 -0.60950000 -10.60990000
9.71190000 -0.36110000 -10.58860000
9.50790000 0.00340000 -11.45380000
11.16220000 -0.25850000 -11.45890000
10.23510000 0.29510000 -11.42610000
9.90190000 -0.08890000 -10.60080000
11.04460000 -0.25920000 -10.59450000
11.06710000 0.07180000 -10.59000000
11.55970000 -0.48400000 -10.59940000
12.01390000 -0.25440000 -10.58930000
11.97990000 -0.05070000 -10.59130000
11.28330000 0.17770000 -10.57950000
11.84800000 0.10470000 -10.57100000
10.97370000 0.29130000 -10.55020000
11.53280000 0.25870000 -10.49540000
11.80230000 0.19300000 -10.52900000
11.01580000 0.36480000 -10.42980000
10.94340000 0.34280000 -10.50060000
11.95360000 0.24180000 -10.41080000
11.53510000 0.31500000 -10.24870000
10.45350000 0.46950000 -10.36200000
10.60710000 0.45860000 -10.17300000
11.69940000 -0.04000000 -11.43080000
10.97710000 0.50830000 -11.39330000
11.38730000 0.46690000 -11.40180000
12.70420000 -0.06090000 -10.60750000
12.35710000 0.06900000 -10.57930000
11.77320000 0.73320000 -11.33090000
13.51690000 0.45570000 -11.33820000
12.11310000 0.49260000 -11.37980000
13.07120000 0.63110000 -11.29700000
10.94220000 0.80720000 -11.34360000
12.65150000 0.78060000 -11.25070000
11.17010000 1.00860000 -11.26920000
11.77620000 1.03350000 -11.17470000
11.43270000 0.50340000 -6.26190000
10.88450000 0.61340000 -7.47750000
12.43410000 0.37230000 -6.61590000
11.45040000 0.54130000 -7.82750000
16.91520000 -2.45120000 -6.25840000
16.97670000 -2.45030000 -6.85080000
17.00090000 -2.45090000 -5.97190000
16.76670000 -2.34350000 -5.84810000
16.77470000 -2.35410000 -6.79830000
16.80670000 -2.40320000 -6.65160000
16.84900000 -2.42670000 -5.88030000
16.75130000 -2.29460000 -6.42960000
16.79190000 -2.37490000 -5.36200000
16.74080000 -2.24420000 -5.80090000
16.73540000 -2.16620000 -6.43470000
16.90240000 -2.45520000 -5.38750000
17.08690000 -2.41980000 -5.62980000
17.06620000 -2.43510000 -6.33240000
17.11040000 -2.40990000 -6.00890000
17.15260000 -2.36410000 -5.65310000
17.14120000 -2.37930000 -6.23790000
17.17050000 -2.31590000 -6.08550000
17.19710000 -2.03000000 -6.38320000
17.17950000 -2.24460000 -5.61040000
16.74050000 -2.21210000 -4.83250000
16.69990000 -2.01260000 -5.43050000
16.71030000 -2.07660000 -5.88410000
16.73440000 -2.11500000 -5.69190000
16.71670000 -2.07660000 -6.37130000
16.67890000 -2.00950000 -6.36100000
16.62370000 -1.91990000 -5.40130000
16.58650000 -1.92800000 -7.12810000
16.55230000 -1.77020000 -5.22560000
16.52890000 -1.80930000 -6.86120000
16.57120000 -1.85010000 -5.63530000
16.55220000 -1.54050000 -6.32180000
16.54450000 -1.66390000 -5.46540000
16.58530000 -1.35860000 -5.46540000
17.05950000 -2.44020000 -4.03570000
17.00570000 -2.45630000 -3.86810000
16.97090000 -2.45460000 -4.58030000
16.91050000 -2.44850000 -4.57670000
16.92490000 -2.43560000 -3.30200000
16.85260000 -2.42820000 -4.66350000
16.82910000 -2.40060000 -4.08580000
17.04580000 -2.43250000 -3.04260000
17.14510000 -2.38920000 -3.76690000
17.10810000 -2.41980000 -4.47250000
17.08630000 -2.42820000 -3.34820000
17.14730000 -2.39200000 -3.50380000
17.17650000 -2.35700000 -3.93540000
17.19760000 -2.30600000 -3.96050000
17.20860000 -2.19950000 -3.89520000
17.18740000 -2.31920000 -3.43440000
17.20590000 -2.11650000 -3.65320000
16.84830000 -2.39730000 -2.07830000
16.78410000 -2.33990000 -3.00640000
16.78150000 -2.34080000 -4.06270000
16.75360000 -2.23410000 -2.97580000
16.75440000 -2.28450000 -4.45150000
16.73180000 -2.09780000 -3.79570000
16.72000000 -2.01630000 -3.29080000
16.74460000 -2.10220000 -3.12590000
16.64830000 -1.92660000 -3.65760000
16.68960000 -1.97820000 -4.31970000
16.97540000 -2.46220000 -5.31540000
17.04060000 -2.44290000 -4.94100000
17.09350000 -2.42600000 -5.32570000
17.14310000 -2.38970000 -5.26340000
17.15140000 -2.37480000 -4.73410000
17.18100000 -2.30380000 -5.16190000
17.19230000 -2.30080000 -4.62800000
17.20340000 -2.05930000 -4.76940000
16.72930000 -2.07920000 -4.94120000
16.57680000 -1.54140000 -3.95520000
17.16140000 -2.38040000 -4.31720000
17.19910000 -2.31820000 -4.39980000
17.19030000 -2.31720000 -4.19890000
17.20460000 -2.12140000 -4.24170000
17.23520000 -1.73880000 -3.86230000
17.31410000 -0.91420000 -5.38240000
16.59110000 -1.83970000 -3.89730000
16.57410000 -1.77590000 -3.61530000
16.56560000 -1.68580000 -3.93750000
16.65170000 -0.89550000 -4.44150000
16.63220000 -1.20320000 -3.11080000
16.63390000 -0.93340000 -5.74810000
17.31610000 -0.98050000 -3.91810000
15.17620000 -0.18360000 -5.58660000
15.97980000 -0.27280000 -5.18470000
15.51720000 -0.23660000 -3.93450000
16.71890000 -0.52080000 -4.21880000
16.68490000 -0.58120000 -6.05890000
16.68270000 -0.77980000 -3.94070000
16.72380000 -0.60320000 -3.88740000
16.68540000 -0.50060000 -5.87750000
16.72870000 -0.47470000 -3.24740000
16.70980000 -0.42870000 -2.99870000
16.63160000 -0.38550000 -5.45350000
16.63260000 -0.37190000 -3.76570000
16.36440000 -0.30880000 -5.32800000
16.30020000 -0.31230000 -3.26480000
16.58590000 -0.35560000 -2.70100000
16.52210000 -0.33930000 -5.53930000
12.89800000 0.26120000 -1.51560000
11.76490000 0.40190000 -0.58330000
11.27820000 0.48390000 -2.39090000
13.09590000 0.28090000 -7.07370000
13.82600000 0.15850000 -5.50240000
14.58860000 -0.05760000 -5.12920000
14.48000000 0.02810000 -4.88490000
14.51580000 0.00830000 -6.53830000
11.75490000 0.42440000 -4.28800000
13.10210000 0.24000000 -3.11650000
13.69300000 0.16080000 -3.53180000
14.87540000 -0.15260000 -2.92210000
14.66440000 -0.09190000 -5.31840000
14.77440000 -0.12250000 -5.37810000
14.68940000 -0.11300000 -3.48490000
14.56030000 -0.03070000 -2.92790000
14.50270000 0.02390000 -3.21790000
14.41820000 0.07230000 -3.39330000
14.29960000 0.10130000 -2.23800000
14.30200000 0.10010000 -3.93070000
14.23970000 0.11150000 -5.32750000
14.05800000 0.13390000 -3.19030000
14.37970000 0.08790000 -5.79100000
14.83540000 0.90850000 -7.54320000
11.55000000 1.45780000 -6.97520000
14.21210000 0.91400000 -2.53250000
16.61180000 -2.37680000 -10.74990000
16.60000000 -2.36780000 -10.84110000
16.70760000 -2.39550000 -10.78510000
16.53950000 -2.29320000 -10.83710000
16.29700000 -2.21680000 -11.01580000
16.27020000 -2.20410000 -11.13470000
16.35960000 -2.21290000 -11.06940000
16.28570000 -2.11590000 -11.22670000
16.46720000 -2.16980000 -11.09810000
16.47030000 -2.24530000 -11.01800000
16.53880000 -1.98740000 -11.17930000
16.39300000 -2.02190000 -11.24260000
16.56120000 -2.32610000 -10.90850000
16.45570000 -2.25800000 -10.93790000
16.54990000 -2.27560000 -10.98560000
16.63820000 -2.35770000 -10.87820000
16.59360000 -2.22240000 -10.99950000
16.70620000 -2.33560000 -10.84180000
16.69250000 -2.12770000 -10.94790000
16.42940000 -2.21080000 -10.89710000
16.29320000 -2.16380000 -10.94930000
16.47400000 -2.13770000 -10.82480000
16.66260000 -1.95100000 -11.06770000
15.85320000 -2.38090000 -11.14190000
15.94670000 -2.36240000 -11.24960000
15.88630000 -2.31800000 -11.34810000
15.69280000 -2.35630000 -11.08160000
16.00870000 -2.33500000 -11.08020000
15.85150000 -2.35720000 -11.05860000
15.95850000 -2.31300000 -11.02030000
16.04990000 -2.33230000 -11.16890000
16.18500000 -2.24220000 -11.05030000
15.79430000 -2.29900000 -11.01100000
15.54260000 -2.28940000 -11.02550000
15.55460000 -2.21150000 -10.99660000
15.72870000 -2.13600000 -10.98510000
16.04170000 -2.22130000 -10.98290000
16.01500000 -2.29340000 -11.31620000
16.02920000 -2.22440000 -11.34140000
16.09120000 -2.28910000 -11.25340000
15.92170000 -2.07050000 -11.40620000
16.18870000 -2.24690000 -11.15490000
16.18920000 -2.18930000 -11.24850000
16.14630000 -2.07910000 -11.32920000
16.17650000 -1.94400000 -11.36730000
15.84990000 -1.89340000 -11.46530000
16.00870000 -1.82280000 -11.43270000
15.26530000 -2.08740000 -10.98360000
15.22590000 -1.94630000 -10.96110000
15.76200000 -1.96150000 -10.94770000
15.69450000 -1.73570000 -11.49220000
16.13690000 -2.23860000 -11.00840000
16.18100000 -2.14280000 -10.96540000
15.96700000 -2.07180000 -10.96060000
16.06180000 -2.00290000 -10.92360000
16.26690000 -2.03210000 -10.88790000
16.07730000 -1.92760000 -10.86850000
15.78750000 -1.79960000 -10.78280000
16.23490000 -1.86990000 -10.75410000
15.77160000 -1.87120000 -10.88650000
15.49850000 -1.89280000 -10.92280000
15.41810000 -1.81220000 -10.83890000
15.95040000 -1.79910000 -10.73830000
15.75450000 -1.69260000 -10.68680000
16.96460000 -2.45370000 -9.75440000
16.90980000 -2.46610000 -10.19990000
17.00600000 -2.45780000 -9.99360000
16.86430000 -2.44540000 -9.93840000
16.74790000 -2.34320000 -10.15020000
16.79450000 -2.40720000 -10.08690000
16.77820000 -2.36230000 -9.75410000
16.74990000 -2.29040000 -9.10820000
16.71370000 -2.14750000 -9.74950000
16.73230000 -2.23570000 -10.15590000
16.71980000 -2.10310000 -9.95630000
16.71550000 -2.43360000 -10.63000000
16.68470000 -2.42140000 -10.74890000
16.77770000 -2.42580000 -10.64840000
16.66030000 -2.41840000 -10.69570000
16.72080000 -2.39490000 -10.47640000
16.82340000 -2.45020000 -10.43970000
16.89950000 -2.36250000 -10.56960000
16.78790000 -2.44090000 -10.40960000
16.69570000 -2.34110000 -10.46290000
16.90920000 -2.41070000 -10.48470000
16.93380000 -2.43950000 -10.36200000
16.82450000 -2.30700000 -10.71510000
16.96650000 -2.09060000 -10.54650000
16.83210000 -2.05240000 -10.77460000
16.59320000 -2.29770000 -10.71830000
16.67370000 -2.21400000 -10.48000000
16.61670000 -2.17360000 -10.63320000
16.63840000 -2.08080000 -10.57940000
16.69530000 -2.05720000 -10.37760000
16.61190000 -2.01260000 -10.58300000
16.54330000 -2.07560000 -10.73160000
16.44960000 -2.00260000 -10.77480000
16.50600000 -1.95830000 -10.68740000
16.87060000 -1.75390000 -10.79160000
16.55210000 -1.93340000 -10.56680000
17.00190000 -2.44630000 -10.15190000
17.03800000 -2.39680000 -10.21120000
17.01530000 -2.33430000 -10.35580000
17.04270000 -2.09970000 -10.37270000
17.10390000 -2.34350000 -10.08630000
17.08300000 -2.41510000 -9.97710000
17.12140000 -2.24640000 -10.09590000
17.11880000 -2.01160000 -10.17540000
16.72510000 -2.13920000 -10.26010000
16.63780000 -1.96370000 -10.42150000
16.68550000 -1.99670000 -10.28390000
16.63550000 -1.93700000 -10.18950000
16.54020000 -1.85430000 -10.23520000
16.70590000 -2.02930000 -10.08460000
16.63530000 -1.96870000 -9.83330000
17.06640000 -1.68230000 -10.46830000
16.44800000 -1.84710000 -10.49850000
16.38970000 -1.75590000 -10.42670000
16.29890000 -1.77070000 -10.54310000
16.34680000 -1.94290000 -10.79090000
16.39430000 -1.88360000 -10.67040000
16.14510000 -1.76780000 -10.65040000
16.01360000 -1.69360000 -10.63630000
15.90140000 -1.60260000 -10.63230000
16.24910000 -1.69000000 -10.50510000
16.14020000 -1.65580000 -10.57240000
16.10160000 -1.58070000 -10.58030000
16.26720000 -1.57800000 -10.47250000
16.24770000 -1.08910000 -10.54430000
16.08660000 -1.19900000 -10.60510000
15.90860000 -1.07590000 -10.65090000
16.46720000 -1.80770000 -10.33500000
16.38810000 -1.69250000 -10.37370000
16.44680000 -1.74640000 -10.28000000
16.44740000 -1.67030000 -10.23350000
16.37960000 -1.58370000 -10.37850000
16.56000000 -1.87840000 -9.98930000
16.51390000 -1.79370000 -9.96190000
16.49960000 -1.73460000 -10.08020000
16.45030000 -1.46040000 -10.30580000
16.49470000 -1.57580000 -10.07940000
16.48950000 -1.47900000 -10.21110000
16.38340000 -1.24590000 -10.42680000
16.46110000 -1.19140000 -10.34730000
16.39090000 -0.75160000 -10.48470000
14.96660000 -1.76020000 -10.82350000
15.12550000 -1.86210000 -10.91650000
14.67170000 -1.63290000 -10.71820000
15.23210000 -1.71250000 -10.73080000
14.76570000 -1.57280000 -10.66680000
15.28090000 -1.60620000 -10.66990000
15.04750000 -1.49850000 -10.64740000
15.48820000 -1.55070000 -11.47070000
15.79570000 -1.57710000 -11.44630000
15.49600000 -1.68990000 -10.70250000
15.57660000 -1.58100000 -10.66420000
15.33200000 -1.42600000 -10.65900000
15.69050000 -1.30060000 -10.65720000
14.54390000 -1.18160000 -10.64670000
15.60410000 -0.92510000 -10.67560000
14.31190000 -1.53800000 -10.67910000
14.34330000 -1.43680000 -10.64260000
15.32210000 -1.00310000 -11.46380000
14.14720000 -0.63800000 -10.65460000
14.85080000 -0.75570000 -10.66430000
15.65970000 -0.60070000 -10.68000000
15.07220000 -0.43510000 -10.65830000
15.56450000 -0.41580000 -10.64500000
15.20430000 -0.31840000 -10.60140000
14.76540000 -0.30850000 -10.63440000
15.35530000 -0.26040000 -10.42920000
14.81860000 -0.21360000 -10.53900000
15.62020000 -0.32570000 -10.53400000
15.68760000 -0.28350000 -10.22390000
14.91570000 -0.18090000 -10.26220000
16.79160000 -2.38040000 -7.93220000
16.84610000 -2.42300000 -8.02210000
16.82060000 -2.40120000 -7.33570000
16.77340000 -2.34350000 -7.68420000
16.92100000 -2.44830000 -8.86480000
16.83680000 -2.41720000 -8.46680000
16.77500000 -2.35230000 -8.72930000
16.84960000 -2.42430000 -9.12190000
16.80460000 -2.38960000 -9.15090000
16.98870000 -2.45170000 -8.95140000
17.04760000 -2.43860000 -9.31530000
17.06220000 -2.42930000 -7.91780000
17.10620000 -2.40520000 -8.70630000
16.74730000 -2.24570000 -8.16350000
16.71290000 -2.15220000 -9.26580000
16.68450000 -2.06730000 -9.00020000
16.62740000 -1.99320000 -9.15720000
16.68790000 -2.06360000 -7.95630000
16.59400000 -1.97120000 -8.18850000
17.00000000 -2.44390000 -7.75300000
16.93820000 -2.44780000 -7.66200000
17.14210000 -2.36340000 -8.68670000
17.13030000 -2.38100000 -7.17320000
17.16620000 -2.30910000 -7.37100000
17.16450000 -2.29580000 -9.01350000
16.72940000 -2.13700000 -7.65820000
16.75150000 -2.24690000 -7.34980000
16.53000000 -1.88030000 -7.95320000
16.54250000 -1.90470000 -8.95980000
16.50920000 -1.81160000 -8.60260000
16.53370000 -1.56120000 -8.52900000
16.51340000 -1.69850000 -9.03170000
16.52070000 -1.73490000 -6.99570000
16.53340000 -1.61150000 -7.34390000
16.57190000 -1.40440000 -7.69840000
16.86630000 -2.42580000 -9.51780000
17.13480000 -2.36460000 -9.84580000
16.92190000 -2.43700000 -9.58870000
17.16150000 -2.28300000 -9.82140000
17.19850000 -1.95760000 -9.48390000
16.67960000 -2.04540000 -9.60320000
16.56980000 -1.92360000 -9.72670000
17.21190000 -1.86260000 -8.51490000
17.15930000 -2.12720000 -9.92610000
17.20560000 -1.72090000 -9.93640000
17.17430000 -1.57760000 -10.18550000
17.15220000 -1.02900000 -10.41290000
17.27000000 -1.29400000 -9.64120000
17.21900000 -1.03500000 -10.20000000
17.28330000 -0.99090000 -9.86680000
16.51050000 -1.84030000 -9.71260000
16.50230000 -1.76940000 -9.60280000
16.50140000 -1.66920000 -9.85990000
16.51710000 -1.63440000 -9.57170000
16.55030000 -1.42070000 -9.68620000
16.56110000 -1.35060000 -9.23070000
16.53200000 -1.30890000 -10.12360000
16.53700000 -1.42540000 -10.02180000
16.57160000 -1.12350000 -10.01860000
16.55510000 -1.26650000 -9.64950000
16.53790000 -0.98660000 -10.24710000
16.58400000 -0.91860000 -10.13450000
16.60770000 -0.86290000 -9.88930000
16.60480000 -0.97800000 -9.47730000
16.63610000 -0.67960000 -9.74310000
17.29090000 -1.17260000 -8.61670000
16.58530000 -1.28480000 -8.75410000
16.60950000 -1.06500000 -8.96640000
16.61160000 -0.93340000 -8.85960000
16.61340000 -1.03850000 -8.46570000
16.64290000 -0.74990000 -8.45550000
16.65740000 -0.67710000 -8.93910000
16.66580000 -0.62580000 -9.40880000
17.35630000 -0.56900000 -8.87910000
17.35820000 -0.48250000 -9.37150000
16.30450000 -0.38830000 -10.08570000
16.41240000 -0.38770000 -9.52820000
16.11030000 -0.33650000 -9.91070000
15.55200000 -0.25160000 -9.25790000
14.54330000 -0.11810000 -9.50940000
16.23690000 -0.32080000 -8.60410000
15.84000000 -0.24840000 -7.92780000
16.63960000 -0.52400000 -9.50680000
16.61430000 -0.58400000 -9.90130000
16.58100000 -0.50440000 -9.84760000
16.56700000 -0.45130000 -9.56990000
16.49270000 -0.44700000 -9.94840000
16.65530000 -0.53410000 -9.02830000
16.61370000 -0.46360000 -8.89720000
16.54890000 -0.41870000 -8.97900000
16.66440000 -0.59120000 -8.52210000
16.54790000 -0.41820000 -8.50250000
16.42300000 -0.35750000 -8.42890000
14.82160000 -0.14430000 -8.66560000
16.15680000 0.71220000 -9.39180000
14.24690000 1.02850000 -9.77730000
13.33220000 1.19030000 -9.08660000
16.59930000 -1.89730000 -11.14860000
16.23330000 -1.84060000 -11.35980000
16.05090000 -1.66350000 -11.38010000
16.42220000 -1.90600000 -11.27720000
16.40820000 -1.79360000 -11.26830000
16.30620000 -1.66000000 -11.28410000
16.55110000 -1.80430000 -11.17470000
16.50320000 -1.68050000 -11.17800000
16.39240000 -1.55990000 -11.23390000
16.09870000 -1.46910000 -11.36270000
15.83820000 -1.39170000 -11.43640000
16.10300000 -1.29830000 -11.37720000
16.33540000 -1.35780000 -11.28440000
16.11580000 -1.12690000 -11.35580000
16.77960000 -1.58420000 -10.94310000
17.07700000 -0.95280000 -10.58220000
16.67050000 -1.68050000 -11.05710000
16.63520000 -1.38360000 -11.11120000
16.52260000 -1.35440000 -11.19350000
16.73560000 -1.02520000 -11.02890000
16.45020000 -0.93890000 -11.23010000
16.60080000 -0.97090000 -11.14370000
16.23180000 -0.77870000 -11.30640000
16.90450000 -1.03620000 -10.83840000
16.62750000 -0.64420000 -11.14060000
16.91960000 -0.69810000 -10.87030000
16.73050000 -0.56200000 -11.06040000
15.62820000 -1.24700000 -11.46530000
15.88030000 -1.24450000 -11.43670000
15.89460000 -0.96600000 -11.40620000
15.67540000 -0.85100000 -11.43420000
15.24960000 -0.51740000 -11.43420000
15.67610000 -0.34280000 -11.40160000
15.08020000 -0.04140000 -11.40370000
16.01260000 -0.28830000 -11.33710000
16.19050000 -0.48310000 -11.31170000
16.22540000 -0.70020000 -10.59930000
16.00210000 -0.59330000 -10.65540000
16.17890000 -0.57280000 -10.60830000
16.50010000 -0.47000000 -11.20110000
16.01010000 -0.49920000 -10.63710000
16.05400000 -0.45730000 -10.60310000
15.76920000 -0.47040000 -10.65680000
15.65590000 -0.38020000 -10.61260000
15.93520000 -0.38950000 -10.57300000
16.38590000 -0.28400000 -11.21600000
16.61370000 -0.38140000 -11.12580000
16.83270000 -0.48210000 -10.95250000
16.61950000 -0.12240000 -11.03250000
16.22170000 -0.09730000 -11.23890000
16.03420000 0.01980000 -11.25910000
16.31060000 -0.02580000 -11.16650000
15.77150000 -0.05380000 -11.33650000
15.39450000 -0.07120000 -11.39380000
15.22960000 0.14450000 -11.34980000
15.62190000 0.14390000 -11.29770000
15.41770000 0.32590000 -11.23490000
15.97410000 0.22110000 -11.19170000
16.29320000 0.11890000 -11.09270000
16.09750000 0.30480000 -11.05830000
15.85060000 0.33040000 -11.14670000
15.81890000 0.43800000 -11.02990000
15.51430000 0.43160000 -11.14270000
15.36270000 0.59470000 -10.95400000
16.49440000 -0.78050000 -10.37820000
16.57710000 -0.65110000 -10.20370000
16.99950000 -0.45950000 -10.74950000
17.14210000 -0.51130000 -10.51090000
17.28970000 -0.65020000 -10.03710000
17.24460000 -0.62430000 -10.25980000
17.06730000 -0.28460000 -10.59500000
17.24810000 -0.38900000 -10.21650000
17.18300000 -0.27110000 -10.36070000
17.11850000 -0.13270000 -10.40700000
16.95310000 -0.27890000 -10.76350000
17.32230000 -0.42700000 -9.84780000
17.20890000 -0.14700000 -10.20180000
17.28740000 -0.24990000 -9.95050000
17.21610000 -0.07980000 -10.04070000
17.33240000 -0.28750000 -9.56800000
17.32100000 -0.15700000 -9.25000000
17.26650000 -0.06010000 -9.60440000
16.32670000 -0.59510000 -10.53750000
16.17360000 -0.47030000 -10.56420000
16.41890000 -0.58350000 -10.45720000
16.31760000 -0.50660000 -10.50510000
16.50880000 -0.65930000 -10.35700000
16.51190000 -0.56020000 -10.29150000
16.40080000 -0.51180000 -10.42140000
16.32030000 -0.42540000 -10.33600000
16.23910000 -0.44260000 -10.49360000
16.42980000 -0.47450000 -10.29480000
16.13670000 -0.39110000 -10.46240000
15.98050000 -0.34860000 -10.43120000
16.58080000 -0.56320000 -10.11530000
16.52570000 -0.49740000 -10.11780000
16.75290000 -0.23710000 -10.96720000
16.90570000 -0.09210000 -10.72500000
16.78380000 -0.02590000 -10.82520000
16.53180000 0.08210000 -10.95260000
16.67000000 0.16810000 -10.74740000
16.36630000 0.26370000 -10.92450000
16.44390000 0.33970000 -10.73270000
16.87970000 0.06690000 -10.61490000
17.01420000 0.03160000 -10.43670000
16.89230000 0.15440000 -10.46180000
16.74050000 0.27470000 -10.46270000
16.41960000 0.41360000 -10.58510000
15.62310000 0.65950000 -10.69630000
16.05790000 0.57120000 -10.55330000
15.82060000 0.54110000 -10.85990000
15.65440000 0.73480000 -10.35490000
16.13060000 0.63770000 -10.18320000
15.89500000 0.73360000 -9.96850000
16.15480000 0.41420000 -10.86060000
16.43930000 0.47340000 -10.38570000
17.12130000 -0.00830000 -10.26990000
17.14670000 0.06630000 -9.95780000
17.02380000 0.12770000 -10.23970000
16.87170000 0.29410000 -10.15060000
16.98990000 0.24530000 -9.96620000
16.64070000 0.42320000 -10.19750000
16.71060000 0.45870000 -9.89620000
17.09230000 0.19670000 -9.70810000
16.90570000 0.36910000 -9.66730000
17.18510000 0.11900000 -9.41280000
17.08350000 0.24890000 -9.36990000
16.65450000 0.54920000 -9.52760000
16.87140000 0.42640000 -9.38020000
16.45950000 0.55690000 -9.98930000
16.40230000 0.63140000 -9.67170000
15.29030000 0.84900000 -9.94290000
16.43100000 0.65680000 -9.25170000
13.53620000 0.04550000 -9.57100000
13.27620000 0.09520000 -8.75180000
13.01830000 0.13160000 -9.70920000
13.88430000 -0.41240000 -10.64140000
14.37640000 -0.32940000 -10.64850000
14.29640000 -0.24110000 -10.63030000
13.87330000 -0.25080000 -10.63660000
13.86600000 -0.13870000 -10.61280000
13.44820000 -0.10920000 -10.61940000
13.29560000 -0.00390000 -10.57960000
12.51320000 0.10340000 -10.55030000
12.71080000 0.11640000 -10.50990000
13.43690000 0.04320000 -10.49670000
12.96420000 0.12170000 -10.41570000
13.45690000 0.07590000 -10.25220000
14.11390000 -0.05800000 -10.40730000
13.74010000 0.04530000 -11.41370000
13.99110000 0.16790000 -11.38970000
14.41640000 0.25250000 -11.36450000
14.03120000 -0.11200000 -10.57500000
13.85440000 -0.03520000 -10.49630000
14.02610000 -0.02790000 -10.13020000
14.57320000 -0.22450000 -10.60190000
12.58400000 0.18790000 -10.22760000
12.90640000 1.16270000 -10.62150000
13.40550000 1.13920000 -10.34400000
14.83610000 0.87150000 -10.47680000
12.14710000 0.24390000 -9.68650000
11.04000000 0.39630000 -9.71850000
11.75240000 0.31440000 -8.74870000
13.47780000 0.77510000 -11.14340000
14.05360000 0.56590000 -11.24300000
13.69750000 0.83220000 -11.03640000
12.05400000 1.07210000 -11.07800000
12.46740000 1.08930000 -10.95520000
14.14120000 0.84380000 -10.90130000
11.99480000 1.23330000 -10.84290000
10.86050000 1.36410000 -10.97780000
11.81230000 1.44170000 -10.12550000
11.06350000 1.58740000 -9.83710000
11.26820000 1.50160000 -10.36070000
14.51330000 -0.07160000 -8.23780000
14.08100000 -0.01380000 -8.40790000
13.65950000 0.07300000 -8.34350000
12.95350000 0.16210000 -8.45320000
13.19310000 0.20280000 -8.18580000
12.82000000 0.20390000 -8.32460000
14.05110000 0.08420000 -8.17720000
14.14650000 -0.00370000 -8.29380000
14.28500000 0.00950000 -8.15770000
14.24960000 0.09300000 -8.04850000
14.71960000 -0.08480000 -7.68490000
14.57010000 -0.03540000 -7.62150000
14.55110000 -0.04850000 -7.96400000
15.10800000 -0.15550000 -7.91880000
14.41450000 -0.00460000 -8.03880000
14.44550000 0.02260000 -7.90200000
14.35030000 0.09790000 -7.88400000
14.20770000 0.14890000 -7.94530000
14.48840000 0.03290000 -7.54320000
14.25010000 0.15240000 -7.72920000
14.40710000 0.09270000 -7.47100000
13.50450000 0.24850000 -7.95890000
13.56760000 0.24420000 -7.71920000
12.97120000 0.30070000 -7.94690000
13.87900000 0.18590000 -7.28550000
13.76160000 0.12260000 -8.21500000
13.82220000 0.19570000 -8.06100000
14.03270000 0.16780000 -8.03090000
13.40590000 0.22430000 -8.09910000
14.05800000 0.19530000 -7.86520000
14.27880000 0.13290000 -7.28440000
11.28000000 0.39370000 -8.47220000
11.63750000 0.35670000 -8.37260000
12.30850000 0.33740000 -8.18870000
12.61630000 0.34360000 -8.04680000
11.69730000 0.49310000 -8.02100000
12.25140000 0.42250000 -7.91160000
11.38950000 0.41880000 -8.30340000
11.46190000 0.46300000 -8.19980000
11.34460000 0.53270000 -8.09480000
14.59890000 0.38470000 -11.30150000
14.23350000 0.61850000 -11.17900000
15.03040000 0.44600000 -11.21720000
14.99070000 0.58340000 -11.08300000
15.11790000 0.73930000 -10.75100000
14.59260000 0.87760000 -10.62820000
15.09340000 0.86020000 -10.25820000
16.87290000 -2.42630000 -7.21330000
16.87440000 -2.43890000 -7.50050000
16.87030000 -2.43690000 -6.89350000
16.65690000 -2.00380000 -7.31940000
16.71720000 -2.08270000 -7.02460000
17.20660000 -1.92860000 -7.54050000
17.18120000 -2.08060000 -7.17220000
17.13230000 -2.37250000 -6.62270000
17.16540000 -2.29790000 -6.61520000
17.19320000 -2.07400000 -6.93140000
17.21500000 -1.70230000 -7.34160000
17.22760000 -1.67070000 -7.10450000
17.30070000 -1.08930000 -7.56550000
16.64040000 -0.86340000 -7.76940000
16.62500000 -0.99850000 -6.85000000
17.27350000 -1.40070000 -7.29500000
17.28770000 -1.20060000 -6.85300000
16.57410000 -1.45080000 -6.69110000
16.60830000 -1.16710000 -6.28490000
17.34360000 -0.63280000 -7.91330000
17.33880000 -0.25740000 -8.52710000
17.35030000 -0.48860000 -7.11330000
17.29010000 -0.07990000 -8.37860000
17.33780000 -0.32320000 -7.03870000
17.28200000 -0.10610000 -7.26060000
17.30900000 -0.17960000 -6.37170000
16.34200000 -0.30870000 -7.70760000
16.05340000 -0.28880000 -6.69770000
14.83490000 -0.11970000 -7.34250000
15.32980000 -0.19250000 -7.44140000
16.67420000 -0.58090000 -7.75310000
16.67040000 -0.51670000 -7.71080000
16.63770000 -0.42370000 -7.37270000
16.62090000 -0.40610000 -6.64270000
16.59790000 -0.38300000 -7.49220000
16.54350000 -0.36480000 -6.84850000
16.53120000 -0.35160000 -7.48570000
16.40140000 -0.33020000 -6.99480000
16.66540000 -0.46990000 -7.27370000
16.64940000 -0.51540000 -8.46080000
16.60650000 -0.44090000 -8.28260000
16.63610000 -0.43520000 -7.99990000
16.55780000 -0.37000000 -7.98730000
16.45800000 -0.33630000 -7.97580000
16.61680000 0.58490000 -7.85960000
16.82130000 0.47800000 -8.67010000
16.66630000 0.56560000 -8.91570000
16.44770000 0.64170000 -8.03420000
16.23750000 0.68820000 -7.97550000
17.22320000 0.05050000 -7.77130000
17.12430000 0.19410000 -8.20750000
17.02530000 0.31110000 -8.76250000
16.98530000 0.29560000 -4.71220000
16.88730000 0.42780000 -7.65880000
16.73440000 0.51550000 -7.03460000
17.33530000 -0.73440000 -6.34530000
17.34500000 -0.47550000 -5.60410000
17.35050000 -0.41870000 -3.53830000
17.35080000 -0.58520000 -3.64840000
17.32880000 -0.28160000 -3.39400000
16.67290000 -0.44400000 -5.71850000
17.28570000 -0.14130000 -3.47770000
17.22730000 -0.01740000 -3.91650000
17.10610000 0.18590000 -6.09830000
16.87310000 0.38990000 -4.74710000
16.78250000 0.42390000 -3.47910000
16.17540000 0.61270000 -3.55520000
16.36470000 0.51610000 -0.83960000
16.62010000 0.48170000 -2.82190000
17.26060000 0.01130000 -9.31960000
14.66100000 -0.07910000 -7.31740000
14.58060000 -0.04490000 -7.08130000
14.42950000 0.07190000 -6.84250000
16.76980000 -2.30980000 -2.15060000
16.81340000 -2.35940000 -1.58380000
16.81050000 -2.32390000 -0.61950000
16.76250000 -2.22590000 -1.78920000
17.04630000 -2.42690000 -0.96930000
16.98120000 -2.43140000 -1.13420000
17.09730000 -2.40220000 -1.39610000
17.01510000 -2.42490000 -2.17330000
17.16160000 -2.36170000 -0.50970000
17.14570000 -2.35960000 -1.77610000
17.17880000 -2.31370000 -1.27600000
16.83250000 -2.34270000 1.04200000
16.78450000 -2.20980000 1.36740000
16.81580000 -2.29950000 0.47950000
16.79130000 -2.16960000 0.64520000
17.00590000 -2.42760000 -0.13850000
17.08980000 -2.41530000 -0.38410000
17.15540000 -2.36130000 0.14220000
16.90920000 -2.41470000 -0.38930000
16.91990000 -2.42170000 -1.79230000
16.85920000 -2.36810000 -0.00260000
16.92560000 -2.40590000 -0.09850000
17.19720000 -2.19990000 -1.74070000
17.19680000 -2.26290000 -0.83350000
17.26540000 -1.52530000 -1.40480000
17.24690000 -1.80450000 0.18110000
16.79380000 -2.25160000 -0.46750000
16.76950000 -2.08550000 -1.26970000
16.79280000 -2.16570000 -0.24790000
16.78830000 -2.07350000 -0.34140000
16.74750000 -1.99500000 -1.38460000
16.70250000 -1.90640000 -0.87500000
16.69880000 -1.92910000 -1.91480000
16.75420000 -1.97400000 -0.49500000
16.63360000 -1.80960000 -1.09840000
16.60040000 -1.72820000 0.23040000
16.61120000 -1.74440000 -1.46150000
16.60490000 -1.67530000 -0.77080000
16.77150000 -2.01210000 0.25280000
16.70890000 -0.78800000 -0.68720000
16.63520000 -1.28240000 -1.77450000
16.61950000 -1.42380000 -0.55270000
17.04680000 -2.42130000 0.79820000
17.10110000 -2.40360000 0.53550000
17.19680000 -2.29630000 0.36820000
17.21050000 -2.23810000 0.39300000
16.96410000 -2.42210000 0.53640000
16.91200000 -2.40730000 0.46600000
16.87040000 -2.38290000 0.68430000
17.15210000 -2.36910000 0.96630000
17.18660000 -2.33260000 1.56020000
17.24650000 -1.95970000 2.04550000
16.71130000 -1.91870000 0.38950000
16.62520000 -1.80500000 0.76880000
16.67290000 -1.88370000 1.20500000
17.33080000 -0.88810000 -0.86490000
16.69580000 -0.90760000 0.63160000
15.13110000 -0.16390000 -0.66720000
15.32850000 -0.20990000 -1.57970000
15.89780000 -0.23600000 -0.20900000
16.75260000 -0.56150000 -1.13050000
16.44540000 -0.28460000 -0.11310000
16.02110000 -0.27740000 -1.79220000
16.14820000 -0.24730000 0.16520000
15.07570000 -0.12690000 0.86690000
17.10700000 -2.39870000 -2.48950000
16.74670000 -2.12580000 -2.48940000
16.73310000 -2.03140000 -2.35180000
17.15000000 -2.37830000 -3.14590000
17.20280000 -2.23800000 -3.37680000
17.19840000 -2.15410000 -2.71930000
17.16640000 -2.34340000 -2.64930000
17.18690000 -2.27930000 -2.53020000
16.59280000 -1.77330000 -2.79810000
16.65720000 -1.90400000 -2.76060000
16.58770000 -1.67760000 -2.65180000
16.60070000 -1.83660000 -3.23710000
17.15120000 -2.34790000 -2.20560000
17.09480000 -2.39170000 -2.07180000
17.22130000 -1.88600000 -2.50700000
17.26610000 -1.51530000 -2.81760000
17.33160000 -0.86110000 -2.77570000
16.70180000 -0.88260000 -1.64260000
15.41440000 -0.22990000 -2.62070000
16.74170000 -0.59280000 -2.74400000
16.68080000 -0.38340000 -1.94260000
17.15880000 0.06800000 -2.99570000
17.05720000 0.12240000 0.85780000
17.34720000 -0.62820000 -2.01110000
17.34820000 -0.48890000 -0.57020000
17.32770000 -0.34510000 -0.25330000
17.28980000 -0.21640000 -0.21930000
16.53430000 -0.32550000 -1.40440000
16.74990000 -0.46950000 -1.63600000
16.71940000 -0.40460000 -1.43470000
17.25490000 -0.10930000 -1.54660000
16.62910000 -0.34360000 -1.25610000
16.70780000 -0.37720000 -0.42060000
16.74130000 -0.41930000 -0.26580000
16.75030000 -0.47660000 -0.43960000
16.67000000 -0.34310000 -0.28240000
16.57370000 -0.31100000 -0.22870000
17.16510000 0.01060000 -0.64230000
16.95150000 0.23540000 0.37080000
16.73550000 0.39750000 -1.05250000
13.82810000 0.15060000 -1.73060000
14.59000000 -0.03360000 -1.61270000
14.64530000 -0.08640000 -2.48260000
14.68600000 -0.07670000 -0.77730000
12.88400000 0.24160000 0.01730000
14.13870000 0.13880000 -0.21440000
13.75830000 0.16070000 -0.15580000
13.92990000 0.17740000 1.78260000
13.38590000 0.19540000 0.70890000
14.60410000 0.00150000 -0.09160000
14.49290000 0.06730000 -0.71320000
14.79620000 -0.12310000 -1.30090000
14.77990000 -0.08300000 0.24480000
14.37130000 0.11050000 -0.53020000
14.68180000 -0.04290000 0.63380000
14.44000000 0.12130000 0.88080000
14.54330000 0.07170000 0.57890000
14.52020000 0.09460000 1.30040000
14.29850000 0.14670000 1.03890000
14.43310000 0.06390000 -1.86580000
17.08060000 -2.41230000 1.74070000
17.14730000 -2.37950000 1.49160000
16.95530000 -2.41330000 1.88730000
17.00960000 -2.42200000 1.75770000
16.90220000 -2.39360000 1.88350000
16.81390000 -2.29650000 1.88820000
17.21810000 -2.26560000 1.50360000
16.86210000 -2.36060000 2.04670000
17.23430000 -2.18800000 2.22120000
16.78240000 -2.09560000 1.85400000
16.63700000 -1.82340000 1.80720000
16.75150000 -1.99220000 1.60390000
16.79020000 -2.04580000 2.46780000
16.61460000 -1.74360000 2.30850000
17.00650000 -2.40900000 2.82600000
16.90410000 -2.38260000 2.76330000
17.20870000 -2.28430000 2.18400000
17.16210000 -2.35240000 2.17010000
16.75940000 -1.95910000 2.38970000
17.34280000 -0.78980000 1.06340000
17.31770000 -1.11200000 0.56500000
17.35430000 -0.53810000 1.76190000
16.36400000 -0.24260000 1.88310000
15.61360000 -0.19060000 1.00920000
16.76170000 -0.52070000 1.18110000
16.75630000 -0.41990000 1.29650000
16.73410000 -0.38950000 0.75620000
16.63470000 -0.31870000 0.47920000
16.61840000 -0.31560000 0.95080000
16.69610000 -0.35000000 0.61000000
16.77510000 -0.44210000 2.49930000
16.71780000 -0.33540000 1.85090000
16.57660000 -0.27520000 1.90650000
16.66040000 -0.29280000 2.12400000
16.75300000 -0.34080000 2.97070000
17.24600000 -0.12490000 0.24160000
17.25500000 -0.17520000 1.95840000
17.16060000 -0.00600000 0.82830000
15.54360000 -0.15930000 2.05830000
17.34870000 -0.81140000 3.03570000
17.34770000 -0.54890000 2.28880000
17.35800000 -0.61240000 3.54980000
17.34960000 -0.48920000 3.33530000
17.32610000 -0.37660000 1.91300000
16.43490000 -0.21440000 3.34430000
16.58380000 -0.23690000 3.53230000
16.69040000 -0.27540000 3.46310000
17.19190000 -0.08560000 3.09270000
17.29910000 -0.27230000 2.22470000
14.61920000 0.01050000 1.26370000
14.80340000 -0.06760000 2.00930000
14.57510000 0.06100000 2.13750000
14.50270000 0.11250000 2.41770000
6.60970000 -0.76860000 -11.17030000
6.53500000 -0.74680000 -11.31070000
7.86010000 -1.00970000 -11.20200000
7.74310000 -0.96250000 -11.36530000
7.34460000 -0.84680000 -11.42850000
8.03860000 -1.03680000 -11.29140000
7.47150000 -0.78480000 -11.47490000
7.15440000 -0.77280000 -11.45270000
7.13750000 -0.63230000 -11.47930000
8.10530000 -0.79230000 -11.48660000
6.63360000 -0.74970000 -11.36560000
6.63180000 -0.70390000 -11.43020000
6.76560000 -0.64430000 -11.46960000
7.06650000 -0.29690000 -11.47650000
6.31050000 -0.66990000 -11.40240000
6.45360000 -0.64230000 -11.45460000
5.73930000 -0.60730000 -11.13990000
5.88400000 -0.60020000 -11.37830000
5.94790000 -0.56270000 -11.43710000
6.07570000 -0.54140000 -11.46100000
5.56380000 -0.37660000 -11.47150000
6.31280000 -0.50640000 -11.47850000
5.52660000 -0.22560000 -11.47540000
6.55560000 -0.68400000 -10.94560000
6.34200000 -0.68080000 -10.98850000
6.82130000 -0.76300000 -10.98100000
6.81160000 -0.79420000 -11.04560000
5.99880000 -0.51380000 -10.90720000
6.05750000 -0.58920000 -10.94230000
6.70120000 -0.56130000 -10.89040000
5.60430000 -0.55840000 -11.02100000
6.17020000 -0.43490000 -10.88080000
6.37190000 0.11230000 -11.45990000
6.53890000 -0.44230000 -11.47800000
2.35750000 0.07580000 -10.34830000
2.38600000 0.08950000 -10.17210000
2.22370000 0.08980000 -9.98380000
2.28770000 0.08250000 -9.63440000
2.47700000 0.13790000 -10.25370000
2.32210000 0.09390000 -9.45540000
2.44500000 0.15510000 -9.89250000
2.19950000 0.08720000 -9.45700000
2.22000000 0.09260000 -8.59350000
2.38130000 0.12160000 -9.12220000
2.44180000 0.16710000 -9.38350000
2.50780000 0.25040000 -9.71440000
2.56460000 0.37520000 -9.12330000
2.54070000 0.32110000 -9.47280000
2.61660000 0.42160000 -9.29010000
2.66810000 0.45660000 -9.82670000
2.29490000 0.09440000 -8.28350000
2.44500000 0.18230000 -8.80210000
2.53540000 0.34600000 -8.50700000
2.74830000 0.49990000 -9.16980000
2.78400000 0.53170000 -9.54220000
2.65720000 0.45390000 -8.58450000
2.81670000 0.55490000 -8.89810000
2.83540000 0.57520000 -9.44200000
2.99470000 -0.04130000 -11.28990000
3.27160000 -0.11080000 -11.31470000
2.97280000 -0.06980000 -11.17720000
3.24610000 -0.07840000 -11.36780000
3.11380000 -0.01520000 -11.37730000
3.44090000 -0.04780000 -11.42520000
3.16550000 0.07990000 -11.41170000
2.56110000 0.08930000 -11.10330000
2.77070000 0.02160000 -11.22070000
2.65540000 0.01580000 -11.09350000
2.35310000 0.10930000 -10.88360000
2.39390000 0.19030000 -10.96760000
2.45750000 0.06100000 -10.96370000
2.58770000 0.17020000 -11.14760000
2.91490000 0.04690000 -11.31400000
2.93830000 0.15280000 -11.34140000
2.74050000 0.10190000 -11.24600000
2.70650000 0.23950000 -11.23220000
4.11130000 -0.25670000 -11.37840000
4.58110000 -0.36960000 -11.29910000
3.75280000 -0.20910000 -11.32160000
3.41050000 -0.16070000 -11.17700000
3.94670000 -0.26520000 -11.09010000
3.80600000 -0.14240000 -11.43170000
4.28840000 -0.24880000 -11.43140000
4.29340000 -0.18180000 -11.46090000
4.60180000 -0.37370000 -11.01350000
4.57400000 -0.38050000 -11.16610000
4.99630000 -0.46270000 -11.07200000
4.01250000 -0.23280000 -10.94940000
4.83370000 -0.38740000 -10.95290000
4.25330000 -0.23950000 -10.91090000
4.42500000 -0.12050000 -10.85300000
3.96220000 -0.13290000 -10.88470000
3.73250000 0.08600000 -10.84030000
5.41300000 -0.47200000 -10.94160000
4.83490000 -0.33420000 -10.90120000
5.21070000 -0.36470000 -10.89040000
4.84090000 -0.23900000 -10.86990000
5.31550000 -0.27030000 -10.86870000
4.48210000 -0.19850000 -10.86400000
4.98870000 -0.12480000 -10.82970000
4.47930000 -0.04380000 -10.82600000
4.57910000 0.03160000 -10.74880000
5.29470000 -0.11830000 -10.79560000
4.25770000 0.06830000 -10.78030000
4.26480000 0.20560000 -10.62990000
5.28540000 -0.00690000 -10.66220000
4.57420000 0.31450000 -10.55670000
4.92950000 0.12210000 -10.60200000
5.42130000 0.08800000 -10.58350000
4.16710000 0.33630000 -10.56860000
5.03210000 -0.43050000 -11.37350000
5.37540000 -0.45120000 -11.43140000
5.53120000 -0.51030000 -11.40580000
5.38400000 -0.52580000 -11.30630000
4.76760000 -0.32720000 -11.43430000
4.90440000 -0.30190000 -11.45910000
4.68790000 -0.14330000 -11.47140000
5.56300000 -0.42740000 -11.46000000
4.55570000 -0.31360000 -11.41050000
4.16580000 0.00420000 -11.47460000
5.31980000 0.22800000 -11.46230000
6.74580000 -0.47540000 -10.86570000
6.60940000 -0.37980000 -10.82470000
5.63340000 -0.25270000 -10.85280000
5.76680000 -0.15780000 -10.75560000
4.21650000 0.56470000 -11.44640000
5.52820000 0.66200000 -11.43870000
5.18460000 0.29480000 -10.55510000
4.92090000 1.06580000 -11.41370000
3.04040000 -0.06870000 -10.93600000
3.21590000 -0.12470000 -11.03090000
3.54490000 -0.17320000 -10.98540000
3.18230000 -0.06570000 -10.91060000
3.61780000 -0.14340000 -11.39340000
3.78830000 -0.03160000 -11.45770000
3.91850000 0.31230000 -11.46600000
3.60450000 -0.12960000 -10.91780000
3.34280000 0.00340000 -10.87380000
3.17640000 -0.02570000 -10.88540000
3.32660000 0.06600000 -11.43460000
3.46470000 0.29490000 -11.44130000
3.49750000 0.07680000 -10.85660000
3.08420000 0.15610000 -10.84430000
3.21380000 0.18550000 -10.85080000
3.28380000 0.25230000 -10.82100000
3.35700000 0.30660000 -10.75500000
3.74680000 0.16160000 -10.80280000
3.79210000 0.22960000 -10.72590000
2.72040000 -0.01990000 -10.88560000
2.55270000 0.01130000 -10.87110000
2.86100000 -0.01170000 -10.84390000
2.68210000 0.01000000 -10.76100000
2.96790000 0.00400000 -10.84430000
2.79510000 0.05500000 -10.75190000
3.01870000 0.05980000 -10.83890000
2.61760000 0.07810000 -10.62670000
2.66680000 0.13240000 -10.63060000
2.83510000 0.12330000 -10.75510000
2.78810000 0.22860000 -10.70560000
2.95940000 0.22960000 -10.80540000
2.29700000 0.07540000 -10.68260000
2.24770000 0.08530000 -10.46050000
2.46600000 0.04030000 -10.61880000
2.24510000 0.11740000 -10.69500000
2.27650000 0.15420000 -10.79640000
2.16490000 0.12960000 -10.46680000
2.19890000 0.19760000 -10.66100000
2.28350000 0.33100000 -10.79340000
2.50650000 0.06380000 -10.54960000
2.49320000 0.10310000 -10.43050000
2.56840000 0.13020000 -10.49980000
2.13270000 0.11830000 -10.14090000
2.54990000 0.43810000 -11.09300000
2.47510000 0.76490000 -10.94290000
2.91930000 0.35110000 -10.72730000
3.13060000 0.48850000 -10.51740000
2.97220000 0.48830000 -10.45470000
2.90350000 0.42700000 -10.61290000
3.03450000 0.40340000 -10.67500000
2.65240000 0.25560000 -10.55470000
2.58320000 0.24190000 -10.42630000
2.53820000 0.26260000 -10.16620000
2.62690000 0.36530000 -10.37450000
2.60350000 0.38670000 -10.07930000
2.72810000 0.34270000 -10.60650000
2.73550000 0.40930000 -10.51630000
2.79810000 0.36290000 -10.65640000
2.71470000 0.43920000 -10.38330000
2.83750000 0.46150000 -10.47740000
2.73780000 0.47470000 -10.12320000
2.99380000 0.37890000 -11.34840000
2.86880000 0.57950000 -11.27560000
3.29590000 0.63360000 -11.39710000
3.09010000 0.82110000 -11.33030000
2.70160000 0.59220000 -11.18660000
3.07850000 0.28940000 -10.81250000
3.10580000 0.33960000 -10.77550000
3.19200000 0.40040000 -10.66010000
3.25450000 1.08110000 -11.33240000
2.99100000 1.31060000 -11.21020000
3.45380000 0.37660000 -10.62550000
3.83870000 0.33550000 -10.59810000
3.55150000 0.48860000 -10.54670000
4.01050000 0.52780000 -10.55270000
3.67420000 0.68900000 -10.53910000
4.95150000 0.87290000 -10.55270000
4.14730000 0.87950000 -10.55240000
3.01900000 0.53940000 -10.38270000
3.11570000 0.60170000 -10.40160000
2.83910000 0.54370000 -10.04030000
2.79590000 0.54340000 -9.81130000
2.86930000 0.59350000 -9.95200000
2.84140000 0.50160000 -10.28750000
2.90780000 0.55480000 -10.23520000
3.02590000 0.61200000 -10.31240000
2.96260000 0.63730000 -10.19730000
2.95840000 0.70280000 -10.12050000
3.14410000 0.65070000 -10.39140000
3.04850000 0.73840000 -10.29060000
3.04980000 1.00520000 -10.21420000
2.84230000 0.61660000 -9.62970000
2.88460000 0.67540000 -9.79490000
2.88850000 0.70150000 -9.44900000
2.91500000 0.86420000 -9.68230000
3.00570000 1.16870000 -9.96160000
2.97630000 0.87660000 -10.08420000
3.39290000 0.46050000 -10.55770000
3.26120000 0.53670000 -10.49250000
3.34020000 0.61930000 -10.47570000
3.47200000 0.77680000 -10.50150000
3.16650000 0.82990000 -10.38300000
3.28570000 0.90460000 -10.44000000
3.16600000 1.13570000 -10.34370000
3.74600000 1.10330000 -10.54260000
3.59460000 1.21020000 -10.51770000
4.11460000 1.16010000 -10.53630000
3.26160000 1.19600000 -10.41220000
3.42360000 1.28620000 -10.46740000
3.22140000 1.42430000 -10.32290000
3.89420000 1.43160000 -10.52080000
3.34690000 1.45610000 -10.41160000
3.58970000 1.50050000 -10.49110000
3.46520000 1.54750000 -10.43990000
3.64840000 0.59680000 -11.44190000
3.78290000 1.00760000 -11.41000000
4.28500000 1.15950000 -11.40610000
3.44870000 0.93760000 -11.39070000
3.46950000 1.37700000 -11.33110000
3.74280000 1.39600000 -11.37660000
4.12960000 1.51760000 -11.38030000
3.23600000 1.61960000 -11.22820000
3.58880000 1.69660000 -11.32110000
3.93020000 1.80420000 -11.33780000
4.41260000 1.84300000 -11.34290000
5.15730000 1.58290000 -11.36800000
3.76260000 2.07810000 -11.26930000
3.97330000 2.06520000 -11.29030000
4.13420000 2.17350000 -11.25860000
4.81640000 2.06090000 -11.26290000
8.98490000 -1.22360000 -11.27570000
8.85830000 -1.19970000 -11.15480000
8.71120000 -1.15890000 -11.33200000
9.08070000 -1.19690000 -11.00470000
8.50820000 -1.05570000 -10.97340000
8.84120000 -1.18000000 -11.05900000
8.86310000 -1.07600000 -10.96000000
8.30440000 -1.03750000 -11.41640000
8.12450000 -0.95330000 -11.45960000
8.79700000 -1.09620000 -11.45040000
8.12360000 -1.02850000 -11.01950000
7.91860000 -0.94670000 -10.97230000
7.49670000 -0.92780000 -11.06730000
8.20690000 -1.06650000 -11.08520000
8.27600000 -0.92050000 -11.47890000
8.32340000 -0.92190000 -10.93850000
7.39510000 -0.75580000 -10.91680000
7.63190000 -0.60160000 -10.86490000
8.11930000 -0.76660000 -10.90850000
8.33240000 -0.72250000 -10.87660000
8.85060000 -0.89640000 -10.91610000
9.31020000 -0.77570000 -10.72250000
8.48130000 -0.70220000 -10.83260000
8.42750000 -0.61210000 -10.71560000
9.15720000 -0.70680000 -10.65470000
9.29360000 -0.69200000 -10.62260000
8.81120000 -0.54790000 -10.59620000
9.29050000 -0.61810000 -10.59020000
8.55120000 -0.55390000 -10.62010000
7.92900000 -0.38050000 -10.58960000
7.85500000 -0.44940000 -10.64290000
8.72620000 -0.39240000 -10.57210000
8.38900000 0.26150000 -10.57920000
7.41020000 -0.88190000 -10.98580000
7.13220000 -0.79440000 -10.95190000
6.85530000 -0.69960000 -10.91910000
8.56760000 -0.28500000 -11.46700000
7.36390000 -0.47450000 -10.78720000
7.12640000 -0.35370000 -10.67380000
7.19190000 -0.30830000 -10.61650000
6.68000000 -0.65330000 -10.91460000
6.33380000 -0.23830000 -10.72080000
6.54610000 -0.18570000 -10.60720000
6.37660000 -0.20740000 -10.66010000
6.45640000 -0.11130000 -10.58220000
5.98350000 -0.07130000 -10.61440000
7.09400000 -0.21610000 -10.58260000
7.08390000 -0.09440000 -10.56410000
6.13010000 -0.00920000 -10.57700000
7.44990000 0.06060000 -10.56370000
5.84920000 0.47990000 -10.55290000
7.40850000 0.58460000 -11.43220000
7.51480000 0.00220000 -11.46400000
7.38990000 0.50320000 -10.56590000
6.04290000 0.82740000 -10.55750000
7.01820000 0.80930000 -10.56790000
7.78630000 0.61220000 -10.58520000
7.46030000 0.78700000 -10.56880000
7.76870000 0.90310000 -10.46830000
7.37500000 0.90900000 -10.53680000
7.76080000 0.84810000 -10.53410000
7.00770000 1.01440000 -10.50690000
8.32160000 0.85090000 -10.08450000
7.07820000 1.08510000 -9.90900000
7.75970000 0.95230000 -10.23760000
8.13930000 0.87940000 -9.58680000
7.24310000 1.05290000 -9.26930000
9.45560000 0.65470000 -9.86750000
8.70770000 0.79620000 -9.01970000
10.30260000 0.53040000 -8.96380000
7.78360000 1.02930000 -8.38340000
6.72190000 1.22000000 -8.42820000
7.74820000 1.00250000 -8.48300000
7.88280000 0.95280000 -8.78080000
2.16900000 0.10870000 -7.71230000
2.29110000 0.07940000 -7.24930000
2.35340000 0.09800000 -7.37020000
2.22580000 0.07670000 -7.23110000
2.42710000 0.14000000 -7.35360000
2.40610000 0.14720000 -7.93790000
2.46510000 0.21010000 -7.96970000
2.48860000 0.21020000 -6.73940000
2.54030000 0.31220000 -7.38370000
2.44790000 0.15930000 -6.05540000
2.59750000 0.37590000 -6.50380000
2.60880000 0.41370000 -7.61400000
2.71710000 0.48160000 -6.64490000
2.38170000 0.13430000 -8.41270000
2.48310000 0.25570000 -8.63960000
2.86870000 0.63530000 -9.08100000
2.92940000 0.83140000 -9.23920000
2.91990000 0.85240000 -8.79400000
2.73720000 0.50760000 -8.09990000
