-0.04860000 -1.28380000 4.33800000
0.15760000 -1.32440000 4.32160000
-0.05050000 -1.28010000 4.11810000
0.15590000 -1.32080000 4.10260000
0.36120000 -1.36900000 4.08620000
0.15530000 -1.31730000 3.88400000
0.36110000 -1.36540000 3.86880000
0.56620000 -1.42010000 3.85350000
0.36210000 -1.36210000 3.65190000
0.56770000 -1.41670000 3.63810000
0.77340000 -1.47530000 3.62490000
0.57000000 -1.41350000 3.42310000
0.77620000 -1.47200000 3.41140000
0.98100000 -1.53930000 3.40150000
0.77950000 -1.46900000 3.19850000
0.98460000 -1.53650000 3.18990000
1.18980000 -1.60670000 3.18380000
0.98840000 -1.53370000 2.97870000
1.19420000 -1.60320000 2.97370000
1.40180000 -1.66950000 2.97220000
1.39680000 -1.67270000 3.18130000
1.60520000 -1.74220000 2.97570000
1.60020000 -1.74410000 3.18410000
1.79320000 -1.80890000 2.98010000
1.60970000 -1.74000000 2.76710000
1.79600000 -1.80680000 2.77200000
1.93240000 -1.84960000 2.77450000
1.79890000 -1.80480000 2.56390000
1.93520000 -1.84770000 2.56640000
2.02630000 -1.86700000 2.56720000
1.93730000 -1.84610000 2.35820000
2.02780000 -1.86550000 2.35920000
2.09680000 -1.87900000 2.36000000
2.02250000 -1.86260000 2.15000000
2.09320000 -1.87670000 2.15090000
2.15400000 -1.88580000 2.15130000
2.08850000 -1.87460000 1.93910000
2.14990000 -1.88620000 1.93950000
2.20500000 -1.87560000 1.93990000
2.14330000 -1.88500000 1.73120000
2.19970000 -1.87740000 1.73160000
2.22970000 -1.82910000 1.73210000
2.19350000 -1.87740000 1.52530000
2.22570000 -1.83210000 1.52590000
2.23740000 -1.77410000 1.52610000
2.22370000 -1.83740000 1.31680000
2.23580000 -1.78010000 1.31660000
2.24120000 -1.70970000 1.31650000
2.23880000 -1.77700000 1.10420000
2.24160000 -1.70440000 1.10350000
2.24380000 -1.62470000 1.10290000
2.24170000 -1.70120000 0.88740000
2.24380000 -1.62530000 0.88750000
2.24570000 -1.54600000 0.88800000
2.24370000 -1.62590000 0.67170000
2.24570000 -1.54600000 0.67270000
2.24760000 -1.46430000 0.67390000
2.24560000 -1.54870000 0.45790000
2.24760000 -1.46570000 0.45930000
2.24930000 -1.38680000 0.46080000
2.24940000 -1.38390000 0.67510000
2.25090000 -1.31160000 0.46220000
2.25090000 -1.30890000 0.67640000
2.25200000 -1.24510000 0.46330000
2.25200000 -1.24300000 0.67750000
2.25250000 -1.18610000 0.46440000
2.25250000 -1.18450000 0.67850000
2.24520000 -1.13440000 0.46520000
2.25250000 -1.18850000 0.25060000
2.24630000 -1.13680000 0.25140000
2.20780000 -1.10880000 0.25240000
2.20440000 -1.10830000 0.46630000
2.15860000 -1.09770000 0.25440000
2.15290000 -1.09780000 0.46850000
2.09010000 -1.08100000 0.25650000
2.08660000 -1.08470000 0.47080000
2.01000000 -1.05090000 0.25660000
2.00360000 -1.06070000 0.46980000
1.94420000 -0.99680000 0.25650000
1.93770000 -1.01080000 0.46960000
1.90710000 -0.92330000 0.25870000
1.90180000 -0.93430000 0.47290000
1.89530000 -0.85620000 0.25810000
1.89160000 -0.85970000 0.47210000
1.89200000 -0.80030000 0.25640000
1.88970000 -0.80170000 0.47020000
1.88700000 -0.74850000 0.25620000
1.88600000 -0.75010000 0.46930000
1.86520000 -0.70360000 0.25620000
1.86820000 -0.70400000 0.46900000
1.81870000 -0.70540000 0.25690000
1.82340000 -0.70010000 0.46940000
1.79420000 -0.74980000 0.25830000
1.79530000 -0.74100000 0.47070000
1.77970000 -0.79970000 0.26010000
1.78060000 -0.79060000 0.47250000
1.76570000 -0.85190000 0.26370000
1.76660000 -0.84310000 0.47460000
1.75000000 -0.90950000 0.26690000
1.75100000 -0.90170000 0.47850000
1.72470000 -0.98220000 0.26790000
1.72970000 -0.97190000 0.48070000
1.67950000 -1.04520000 0.26820000
1.68700000 -1.03920000 0.48250000
1.61340000 -1.08360000 0.26880000
1.62210000 -1.08260000 0.48350000
1.52920000 -1.08500000 0.26910000
1.53600000 -1.08590000 0.48320000
1.42250000 -1.07330000 0.26890000
1.42350000 -1.07380000 0.48210000
1.28440000 -1.05680000 0.26800000
1.27530000 -1.05650000 0.48100000
1.26310000 -1.05560000 0.69310000
1.10010000 -1.03530000 0.47970000
1.08550000 -1.03430000 0.69210000
1.07370000 -1.03390000 0.90440000
0.89370000 -1.01080000 0.69100000
0.88070000 -1.01100000 0.90340000
0.86900000 -1.01250000 1.11530000
0.67380000 -0.98600000 0.90180000
0.66090000 -0.98830000 1.11330000
0.65080000 -0.99030000 1.32390000
0.44810000 -0.96330000 1.11060000
0.43730000 -0.96610000 1.32100000
0.42880000 -0.96750000 1.53090000
0.22190000 -0.94160000 1.31750000
0.21320000 -0.94360000 1.52730000
0.20640000 -0.94360000 1.73700000
-0.00340000 -0.91940000 1.52320000
-0.00990000 -0.91850000 1.73320000
-0.01460000 -0.91660000 1.94350000
0.20110000 -0.94270000 1.94680000
-0.01840000 -0.91520000 2.15430000
0.19670000 -0.94210000 2.15700000
-0.02190000 -0.91500000 2.36560000
0.19260000 -0.94240000 2.36760000
-0.02560000 -0.91470000 2.57750000
0.18820000 -0.94310000 2.57880000
-0.02990000 -0.91290000 2.78970000
0.18330000 -0.94310000 2.79050000
-0.03530000 -0.91020000 3.00230000
0.17760000 -0.94230000 3.00270000
-0.04120000 -0.90680000 3.21580000
0.17110000 -0.94140000 3.21510000
-0.04570000 -0.90330000 3.43120000
0.16530000 -0.94020000 3.42780000
-0.04780000 -0.89960000 3.64880000
0.16200000 -0.93680000 3.64160000
0.16160000 -0.93200000 3.85720000
-0.25470000 -0.87220000 3.43680000
-0.25200000 -0.87550000 3.21840000
-0.46150000 -0.84930000 3.22440000
-0.24780000 -0.87930000 3.00240000
-0.45910000 -0.85160000 3.00620000
-0.66990000 -0.83140000 3.01270000
-0.67090000 -0.82990000 3.23210000
-0.88070000 -0.81520000 3.01900000
-0.88120000 -0.81420000 3.23830000
-1.09210000 -0.80320000 3.02240000
-1.09240000 -0.80240000 3.24170000
-1.30420000 -0.79590000 3.02250000
-1.30440000 -0.79470000 3.24170000
-1.51660000 -0.79250000 3.02000000
-1.30380000 -0.79660000 2.80390000
-1.51630000 -0.79360000 2.80140000
-1.72910000 -0.79560000 2.79730000
-1.51570000 -0.79390000 2.58340000
-1.72860000 -0.79640000 2.57920000
-1.94170000 -0.80540000 2.57460000
-1.94170000 -0.80400000 2.79290000
-2.15450000 -0.81970000 2.57030000
-2.15400000 -0.81840000 2.78860000
-2.36700000 -0.83930000 2.56630000
-2.36610000 -0.83810000 2.78450000
-2.57920000 -0.86290000 2.56220000
-2.57800000 -0.86170000 2.78030000
-2.79110000 -0.88940000 2.55780000
-2.78980000 -0.88840000 2.77560000
-3.00310000 -0.91760000 2.55290000
-3.00180000 -0.91670000 2.77040000
-3.21520000 -0.94660000 2.54770000
-3.00370000 -0.91850000 2.33530000
-3.21580000 -0.94750000 2.33060000
-3.42820000 -0.97720000 2.32600000
-3.42770000 -0.97630000 2.54280000
-3.64060000 -1.00890000 2.32220000
-3.63990000 -1.00780000 2.53850000
-3.85210000 -1.04210000 2.31960000
-3.85070000 -1.04070000 2.53550000
-4.05520000 -1.07490000 2.31830000
-4.05240000 -1.07310000 2.53380000
-4.23970000 -1.10480000 2.31810000
-4.23660000 -1.10260000 2.53310000
-4.40440000 -1.13090000 2.31880000
-4.40010000 -1.12830000 2.53370000
-4.53920000 -1.14910000 2.32000000
-4.53590000 -1.14740000 2.53450000
-4.63340000 -1.14330000 2.32090000
-4.63020000 -1.14200000 2.53510000
-4.70650000 -1.10780000 2.32160000
-4.70210000 -1.10470000 2.53560000
-4.75070000 -1.03860000 2.32210000
-4.74760000 -1.03220000 2.53560000
-4.78080000 -0.95500000 2.32260000
-4.78110000 -0.94550000 2.53630000
-4.80360000 -0.88450000 2.32370000
-4.80320000 -0.87730000 2.53800000
-4.82300000 -0.82710000 2.32420000
-4.82100000 -0.82260000 2.53890000
-4.84600000 -0.77720000 2.32490000
-4.84250000 -0.77460000 2.53950000
-4.87670000 -0.73430000 2.32620000
-4.87260000 -0.73380000 2.54010000
-4.92460000 -0.72040000 2.32700000
-4.91950000 -0.72310000 2.54100000
-4.96480000 -0.75220000 2.32770000
-4.95840000 -0.75360000 2.54180000
-4.98020000 -0.80390000 2.32830000
-4.97650000 -0.80200000 2.54210000
-4.98200000 -0.86730000 2.32880000
-4.98110000 -0.86050000 2.54250000
-4.99510000 -0.94620000 2.32930000
-4.99700000 -0.93510000 2.54470000
-5.00280000 -0.92580000 2.75860000
-5.04210000 -1.00880000 2.54740000
-5.04840000 -1.00650000 2.76020000
-5.05360000 -1.00940000 2.97320000
-5.11020000 -1.06160000 2.76120000
-5.11500000 -1.06200000 2.97480000
-5.12570000 -1.06870000 3.18680000
-5.16400000 -1.10480000 2.97610000
-5.17470000 -1.11270000 3.18770000
-5.18200000 -1.11970000 3.39980000
-5.20110000 -1.17210000 3.18900000
-5.20450000 -1.18270000 3.40090000
-5.20070000 -1.24170000 3.19100000
-5.20000000 -1.25600000 3.40300000
-5.20030000 -1.26460000 3.61490000
-5.19070000 -1.33720000 3.40510000
-5.19010000 -1.34880000 3.61720000
-5.18810000 -1.36060000 3.82820000
-5.17860000 -1.44070000 3.61930000
-5.17650000 -1.45700000 3.83120000
-5.17490000 -1.46900000 4.03990000
-5.16740000 -1.53130000 3.83320000
-5.16620000 -1.54220000 4.04210000
-5.16730000 -1.53720000 4.24980000
-5.15810000 -1.61020000 4.04410000
-5.15970000 -1.60230000 4.25170000
-5.16190000 -1.59010000 4.45970000
-5.15210000 -1.66530000 4.25360000
-5.15450000 -1.65350000 4.46180000
-5.15610000 -1.64680000 4.66390000
-5.16300000 -1.58620000 4.66250000
-5.15770000 -1.63810000 4.86250000
-5.16450000 -1.57720000 4.86140000
-5.15970000 -1.62810000 5.05800000
-5.16640000 -1.56620000 5.05780000
-5.16210000 -1.61800000 5.24490000
-5.16890000 -1.55510000 5.24750000
-5.16430000 -1.61640000 5.42010000
-5.17240000 -1.54520000 5.42800000
-5.16150000 -1.62530000 5.55550000
-5.16970000 -1.53970000 5.56250000
-5.15310000 -1.62220000 5.64280000
-5.15870000 -1.53310000 5.64570000
-5.12490000 -1.61600000 5.71160000
-5.12750000 -1.52480000 5.71420000
-5.05720000 -1.61030000 5.75660000
-5.06220000 -1.51860000 5.75620000
-4.94040000 -1.56300000 5.80090000
-4.95690000 -1.48840000 5.79670000
-4.76620000 -1.50130000 5.85860000
-4.78200000 -1.43690000 5.85500000
-4.57280000 -1.45840000 5.92160000
-4.58530000 -1.39640000 5.91910000
-4.37030000 -1.41530000 5.98770000
-4.38340000 -1.35210000 5.98490000
-4.39810000 -1.28600000 5.98160000
-4.18130000 -1.29790000 6.04490000
-4.19680000 -1.22930000 6.04220000
-3.97230000 -1.23550000 6.09810000
-4.16680000 -1.36300000 6.04720000
-3.95670000 -1.30340000 6.10060000
-3.74410000 -1.24860000 6.14720000
-3.94170000 -1.36850000 6.10200000
-3.72950000 -1.31260000 6.14520000
-3.51450000 -1.24210000 6.18640000
-3.71610000 -1.36440000 6.13590000
-3.50220000 -1.30250000 6.18650000
-3.28010000 -1.24960000 6.21620000
-3.48840000 -1.35230000 6.16220000
-3.26660000 -1.29720000 6.18010000
-3.05600000 -1.25920000 6.20780000
-3.25890000 -1.30290000 6.11420000
-3.04880000 -1.26350000 6.14210000
-2.83890000 -1.23130000 6.17590000
-3.04210000 -1.26310000 6.07240000
-2.83230000 -1.23190000 6.10720000
-2.61400000 -1.20700000 6.12260000
-2.82480000 -1.23110000 6.02780000
-2.60690000 -1.20620000 6.04080000
-2.38930000 -1.18680000 6.04940000
-2.59920000 -1.20510000 5.94290000
-2.38210000 -1.18580000 5.95400000
-2.16020000 -1.16940000 5.96350000
-2.37360000 -1.18440000 5.82020000
-2.15520000 -1.16810000 5.83220000
-1.93760000 -1.15490000 5.84350000
-2.15000000 -1.16660000 5.67430000
-1.93430000 -1.15330000 5.67940000
-1.71850000 -1.14170000 5.67870000
-1.93100000 -1.15160000 5.49860000
-1.71660000 -1.13990000 5.49700000
-1.50100000 -1.13340000 5.49230000
-1.71490000 -1.13790000 5.29410000
-1.50130000 -1.13160000 5.28980000
-1.28770000 -1.13470000 5.28640000
-1.50170000 -1.12970000 5.07420000
-1.28980000 -1.13290000 5.07090000
-1.07910000 -1.15190000 5.06570000
-1.29150000 -1.13120000 4.84960000
-1.08200000 -1.15020000 4.84390000
-0.87300000 -1.17280000 4.83550000
-1.08420000 -1.14830000 4.62050000
-0.87590000 -1.17050000 4.61210000
-0.66810000 -1.19620000 4.60150000
-0.87810000 -1.16830000 4.38870000
-0.67060000 -1.19380000 4.37860000
-0.46340000 -1.22220000 4.36650000
-0.67240000 -1.19140000 4.15590000
-0.46530000 -1.21960000 4.14460000
-0.25800000 -1.24920000 4.13190000
-0.46630000 -1.21710000 3.92300000
-0.25890000 -1.24630000 3.91120000
-0.05120000 -1.27690000 3.89830000
-0.25900000 -1.24350000 3.69080000
-0.05100000 -1.27360000 3.67900000
0.15600000 -1.31390000 3.66580000
-0.05010000 -1.27020000 3.46010000
0.15720000 -1.31090000 3.44810000
0.36380000 -1.35900000 3.43560000
0.15900000 -1.30790000 3.23100000
0.36600000 -1.35610000 3.21980000
0.57270000 -1.41060000 3.20870000
0.36870000 -1.35320000 3.00440000
0.57580000 -1.40770000 2.99470000
0.78300000 -1.46590000 2.98590000
0.57910000 -1.40480000 2.78110000
0.78660000 -1.46310000 2.77360000
0.99230000 -1.53100000 2.76770000
0.79040000 -1.46020000 2.56130000
0.99620000 -1.52810000 2.55660000
1.20270000 -1.59690000 2.55390000
1.19850000 -1.60020000 2.76380000
1.41080000 -1.66370000 2.55430000
1.40650000 -1.66660000 2.76320000
1.61320000 -1.73740000 2.55860000
1.41490000 -1.66050000 2.34520000
1.61610000 -1.73460000 2.34980000
1.80060000 -1.80230000 2.35540000
1.61970000 -1.73210000 2.14050000
1.80190000 -1.79970000 2.14610000
1.93540000 -1.84340000 2.14890000
1.80580000 -1.79790000 1.93620000
1.93340000 -1.84030000 1.93820000
2.01740000 -1.85980000 1.93880000
1.93100000 -1.83700000 1.72910000
2.01150000 -1.85660000 1.72990000
2.08070000 -1.87200000 1.73070000
2.00880000 -1.85420000 1.52210000
2.07700000 -1.87010000 1.52370000
2.13760000 -1.88280000 1.52460000
2.07600000 -1.86880000 1.31370000
2.13700000 -1.88320000 1.31530000
2.19210000 -1.88000000 1.31680000
2.13810000 -1.88530000 1.10270000
2.19720000 -1.88680000 1.10440000
2.23030000 -1.83940000 1.10460000
2.20130000 -1.88130000 0.88610000
2.23120000 -1.83320000 0.88670000
2.23950000 -1.77140000 0.88730000
2.23020000 -1.83010000 0.66970000
2.23830000 -1.77100000 0.67020000
2.24160000 -1.70230000 0.67090000
2.23890000 -1.77370000 0.45470000
2.24150000 -1.70630000 0.45550000
2.24360000 -1.62990000 0.45660000
2.24140000 -1.70750000 0.24250000
2.24350000 -1.63410000 0.24330000
2.24550000 -1.55570000 0.24440000
2.24350000 -1.63410000 0.03170000
2.24530000 -1.55880000 0.03300000
2.24720000 -1.48110000 0.03420000
2.24730000 -1.47530000 0.24580000
2.24890000 -1.40280000 0.03530000
2.24910000 -1.39430000 0.24720000
2.25050000 -1.32580000 0.03610000
2.25080000 -1.31580000 0.24860000
2.25180000 -1.25660000 0.03680000
2.25200000 -1.24810000 0.24970000
2.25270000 -1.19430000 0.03760000
2.25160000 -1.26260000 -0.17470000
2.25250000 -1.19930000 -0.17420000
2.24770000 -1.14450000 -0.17410000
2.24750000 -1.14050000 0.03810000
2.20910000 -1.11170000 -0.17330000
2.20990000 -1.11030000 0.03920000
2.15700000 -1.09730000 -0.17210000
2.15990000 -1.09770000 0.04100000
2.09180000 -1.07960000 -0.17010000
2.09230000 -1.08080000 0.04310000
2.01130000 -1.04740000 -0.17020000
2.01010000 -1.04990000 0.04340000
1.94420000 -0.98370000 -0.17090000
1.94320000 -0.99200000 0.04270000
1.91190000 -0.90930000 -0.16970000
1.90730000 -0.91640000 0.04360000
1.90110000 -0.85260000 -0.16780000
1.89650000 -0.85480000 0.04390000
1.89710000 -0.79880000 -0.16680000
1.89350000 -0.80010000 0.04450000
1.89170000 -0.74640000 -0.16600000
1.88870000 -0.74850000 0.04500000
1.86740000 -0.70330000 -0.16520000
1.86570000 -0.70490000 0.04560000
1.82070000 -0.71040000 -0.16480000
1.81920000 -0.71020000 0.04600000
1.79630000 -0.75520000 -0.16450000
1.79460000 -0.75430000 0.04700000
1.78190000 -0.80570000 -0.16410000
1.78040000 -0.80410000 0.04830000
1.76800000 -0.85860000 -0.16390000
1.76670000 -0.85520000 0.04990000
1.75240000 -0.91770000 -0.16330000
1.75090000 -0.91430000 0.05170000
1.73080000 -0.98510000 -0.16150000
1.72880000 -0.98520000 0.05310000
1.68580000 -1.04640000 -0.16020000
1.68110000 -1.04820000 0.05400000
1.61830000 -1.08360000 -0.15970000
1.61210000 -1.08420000 0.05450000
1.53460000 -1.08540000 -0.15970000
1.52910000 -1.08480000 0.05460000
1.43180000 -1.07360000 -0.15990000
1.42630000 -1.07330000 0.05450000
1.29860000 -1.05640000 -0.16040000
1.29260000 -1.05680000 0.05400000
1.13300000 -1.03460000 -0.16110000
1.12430000 -1.03540000 0.05300000
1.11360000 -1.03590000 0.26670000
0.93330000 -1.01090000 0.05160000
0.92070000 -1.01140000 0.26520000
0.90720000 -1.01130000 0.47830000
0.71340000 -0.98440000 0.26330000
0.70130000 -0.98500000 0.47660000
0.68810000 -0.98500000 0.68950000
0.48750000 -0.95700000 0.47440000
0.47420000 -0.95810000 0.68730000
0.46080000 -0.96020000 0.89940000
0.25900000 -0.93180000 0.68410000
0.24560000 -0.93440000 0.89610000
0.23290000 -0.93810000 1.10720000
0.02950000 -0.90850000 0.89150000
0.01670000 -0.91220000 1.10260000
0.00560000 -0.91620000 1.31310000
-0.19980000 -0.88540000 1.09650000
-0.21100000 -0.88950000 1.30770000
-0.21980000 -0.89240000 1.51840000
-0.42670000 -0.86180000 1.30100000
-0.43560000 -0.86410000 1.51330000
-0.44150000 -0.86420000 1.72550000
-0.22600000 -0.89180000 1.72930000
-0.44540000 -0.86300000 1.93790000
-0.23020000 -0.88970000 1.94030000
-0.44810000 -0.86180000 2.15040000
-0.23330000 -0.88810000 2.15180000
-0.45070000 -0.86060000 2.36310000
-0.23630000 -0.88730000 2.36370000
-0.45340000 -0.85840000 2.57630000
-0.23960000 -0.88580000 2.57600000
-0.45630000 -0.85500000 2.79030000
-0.24340000 -0.88290000 2.78860000
-0.66660000 -0.83530000 2.57940000
-0.66840000 -0.83330000 2.79530000
-0.87890000 -0.81730000 2.58360000
-0.88000000 -0.81620000 2.80070000
-1.09090000 -0.80440000 2.58620000
-1.09170000 -0.80390000 2.80390000
-1.30310000 -0.79670000 2.58600000
-1.08970000 -0.80440000 2.36910000
-1.30180000 -0.79670000 2.36850000
-1.51450000 -0.79410000 2.36580000
-1.29990000 -0.79650000 2.15110000
-1.51250000 -0.79420000 2.14850000
-1.72590000 -0.79760000 2.14450000
-1.72760000 -0.79720000 2.36170000
-1.93960000 -0.80720000 2.14010000
-1.94100000 -0.80640000 2.35710000
-2.15340000 -0.82150000 2.13560000
-2.15430000 -0.82070000 2.35270000
-2.36680000 -0.84080000 2.13120000
-2.36730000 -0.84000000 2.34850000
-2.57950000 -0.86420000 2.12680000
-2.57970000 -0.86370000 2.34440000
-2.79170000 -0.89100000 2.12230000
-2.79180000 -0.89030000 2.34000000
-3.00370000 -0.91930000 2.11770000
-2.79080000 -0.89160000 1.90470000
-3.00290000 -0.92000000 1.90010000
-3.21510000 -0.94910000 1.89590000
-3.21580000 -0.94840000 2.11330000
-3.42760000 -0.97900000 1.89210000
-3.42820000 -0.97820000 2.10910000
-3.64020000 -1.01090000 1.88900000
-3.64080000 -1.01000000 2.10570000
-3.85160000 -1.04450000 1.88720000
-3.85240000 -1.04340000 2.10350000
-4.05490000 -1.07780000 1.88680000
-4.05530000 -1.07640000 2.10270000
-4.24080000 -1.10820000 1.88730000
-4.24180000 -1.10680000 2.10270000
-4.40280000 -1.13410000 1.88850000
-4.40640000 -1.13290000 2.10360000
-4.53350000 -1.15200000 1.88970000
-4.53770000 -1.15090000 2.10520000
-4.63210000 -1.14380000 1.89070000
-4.63140000 -1.14510000 2.10580000
-4.71100000 -1.10400000 1.89150000
-4.70770000 -1.10810000 2.10630000
-4.75880000 -1.03010000 1.89160000
-4.75320000 -1.03790000 2.10740000
-4.78940000 -0.94380000 1.89280000
-4.78300000 -0.95630000 2.10860000
-4.80980000 -0.88060000 1.89420000
-4.80590000 -0.88560000 2.11020000
-4.82880000 -0.82740000 1.89530000
-4.82550000 -0.82850000 2.10990000
-4.85140000 -0.77990000 1.89600000
-4.84820000 -0.77860000 2.11010000
-4.88080000 -0.73800000 1.89630000
-4.87850000 -0.73530000 2.11060000
-4.92700000 -0.72480000 1.89670000
-4.92630000 -0.72070000 2.11110000
-4.96090000 -0.76030000 1.89730000
-4.96400000 -0.75500000 2.11200000
-4.97180000 -0.81170000 1.89760000
-4.97730000 -0.80710000 2.11340000
-4.97860000 -0.87240000 1.89810000
-4.98240000 -0.86840000 2.11380000
-5.00550000 -0.95140000 1.89900000
-5.00320000 -0.94420000 2.11480000
-5.05610000 -1.02750000 1.89960000
-5.05020000 -1.02010000 2.11580000
-5.03550000 -1.01910000 2.33150000
-5.10890000 -1.07090000 2.11790000
-5.10280000 -1.06570000 2.33600000
-5.10370000 -1.05990000 2.54810000
-5.15650000 -1.09950000 2.33590000
-5.15610000 -1.09620000 2.55070000
-5.15980000 -1.10060000 2.76360000
-5.19290000 -1.14130000 2.55300000
-5.19240000 -1.14960000 2.76610000
-5.19330000 -1.15990000 2.97770000
-5.20010000 -1.21110000 2.76730000
-5.19910000 -1.22430000 2.97940000
-5.19410000 -1.28200000 2.76900000
-5.19300000 -1.29830000 2.98110000
-5.19180000 -1.31850000 3.19290000
-5.18230000 -1.38600000 2.98310000
-5.18120000 -1.40370000 3.19500000
-5.18020000 -1.42250000 3.40720000
-5.17060000 -1.48750000 3.19740000
-5.17000000 -1.50260000 3.40910000
-5.16920000 -1.51620000 3.62090000
-5.16060000 -1.57500000 3.41100000
-5.16020000 -1.58740000 3.62230000
-5.15870000 -1.60160000 3.83480000
-5.15160000 -1.65420000 3.62350000
-5.15060000 -1.66680000 3.83670000
-5.15060000 -1.67220000 4.04630000
-5.14260000 -1.72910000 3.83870000
-5.14310000 -1.73220000 4.04860000
-5.14450000 -1.72460000 4.25590000
-5.13540000 -1.78830000 4.05080000
-5.13630000 -1.78160000 4.25850000
-5.13840000 -1.77270000 4.46590000
-5.14710000 -1.71430000 4.46390000
-5.14130000 -1.76570000 4.66710000
-5.14900000 -1.70680000 4.66550000
-5.14330000 -1.75640000 4.86590000
-5.15080000 -1.69790000 4.86400000
-5.14560000 -1.74580000 5.05910000
-5.15300000 -1.68720000 5.05860000
-5.14730000 -1.73720000 5.24140000
-5.15500000 -1.67840000 5.24250000
-5.14980000 -1.73360000 5.40830000
-5.15710000 -1.67690000 5.41370000
-5.15050000 -1.74010000 5.53790000
-5.15570000 -1.68760000 5.54580000
-5.14470000 -1.75260000 5.63250000
-5.14890000 -1.69710000 5.63850000
-5.11770000 -1.74870000 5.71130000
-5.12350000 -1.69460000 5.70960000
-5.02730000 -1.71420000 5.76100000
-5.04200000 -1.67530000 5.76000000
-4.90620000 -1.66060000 5.80660000
-4.92390000 -1.61320000 5.80550000
-4.73980000 -1.61590000 5.86150000
-4.75250000 -1.55980000 5.86140000
-4.55000000 -1.57850000 5.92380000
-4.56100000 -1.51900000 5.92350000
-4.34510000 -1.53820000 5.99060000
-4.35750000 -1.47770000 5.99030000
-4.13890000 -1.48430000 6.04540000
-4.15290000 -1.42460000 6.04760000
-3.92720000 -1.42750000 6.10010000
-4.12140000 -1.52920000 6.01310000
-3.91000000 -1.47670000 6.07280000
-3.70270000 -1.40010000 6.10490000
-3.89840000 -1.47900000 6.00930000
-3.69140000 -1.41440000 6.05370000
-3.47840000 -1.35550000 6.09140000
-3.68120000 -1.41490000 5.98810000
-3.46890000 -1.35370000 6.01540000
-3.25190000 -1.30250000 6.04260000
-3.45930000 -1.35170000 5.93760000
-3.24490000 -1.30170000 5.96780000
-3.03550000 -1.26240000 5.99910000
-3.23710000 -1.30040000 5.87770000
-3.02790000 -1.26130000 5.91060000
-2.81580000 -1.22970000 5.92830000
-3.01710000 -1.25920000 5.77700000
-2.80500000 -1.22770000 5.79550000
-2.58970000 -1.20360000 5.80690000
-2.79380000 -1.22510000 5.63350000
-2.58020000 -1.20160000 5.64850000
-2.36540000 -1.18280000 5.66290000
-2.57130000 -1.19940000 5.47430000
-2.35840000 -1.18090000 5.48730000
-2.14490000 -1.16480000 5.49520000
-2.35190000 -1.17880000 5.28770000
-2.14000000 -1.16300000 5.29350000
-1.92770000 -1.14980000 5.29630000
-2.13570000 -1.16110000 5.07340000
-1.92480000 -1.14780000 5.07660000
-1.71350000 -1.13600000 5.07670000
-1.92240000 -1.14580000 4.85280000
-1.71240000 -1.13410000 4.85430000
-1.50210000 -1.12790000 4.85310000
-1.71180000 -1.13230000 4.63010000
-1.50240000 -1.12620000 4.62980000
-1.29290000 -1.12960000 4.62650000
-1.50270000 -1.12430000 4.40550000
-1.29390000 -1.12820000 4.40250000
-1.08580000 -1.14640000 4.39670000
-1.29480000 -1.12620000 4.17850000
-1.08700000 -1.14440000 4.17300000
-0.87960000 -1.16640000 4.16530000
-1.08790000 -1.14250000 3.94950000
-0.88070000 -1.16450000 3.94230000
-0.67340000 -1.18920000 3.93340000
-0.88130000 -1.16250000 3.71970000
-0.67390000 -1.18690000 3.71150000
-0.46660000 -1.21470000 3.70170000
-0.67400000 -1.18460000 3.49010000
-0.46640000 -1.21240000 3.48110000
-0.25850000 -1.24080000 3.47110000
-0.46580000 -1.21010000 3.26110000
-0.25750000 -1.23810000 3.25180000
-0.04870000 -1.26750000 3.24190000
-0.25610000 -1.23550000 3.03310000
-0.04690000 -1.26470000 3.02410000
0.16130000 -1.30470000 3.01440000
-0.04470000 -1.26180000 2.80690000
0.16390000 -1.30180000 2.79820000
0.37170000 -1.35010000 2.78940000
0.16680000 -1.29870000 2.58240000
0.37510000 -1.34710000 2.57480000
0.58270000 -1.40170000 2.56760000
0.37840000 -1.34430000 2.36040000
0.58640000 -1.39890000 2.35430000
0.79420000 -1.45750000 2.34900000
0.59000000 -1.39610000 2.14100000
0.79810000 -1.45490000 2.13680000
1.00440000 -1.52250000 2.13410000
1.00030000 -1.52520000 2.34540000
1.21140000 -1.59040000 2.13360000
1.20710000 -1.59350000 2.34390000
1.41910000 -1.65750000 2.13560000
1.21590000 -1.58710000 1.92290000
1.42330000 -1.65460000 1.92560000
1.62310000 -1.72970000 1.93070000
1.42770000 -1.65150000 1.71510000
1.62600000 -1.72700000 1.72050000
1.80850000 -1.79580000 1.72640000
1.62850000 -1.72410000 1.50980000
1.80730000 -1.79220000 1.51610000
1.92970000 -1.83410000 1.52010000
1.80560000 -1.78810000 1.30460000
1.92550000 -1.82930000 1.30880000
2.00610000 -1.85130000 1.31170000
1.92440000 -1.82600000 1.09580000
2.00630000 -1.84920000 1.09870000
2.07710000 -1.86820000 1.10080000
2.01090000 -1.84850000 0.88330000
2.08200000 -1.86780000 0.88460000
2.14400000 -1.88410000 0.88550000
2.08920000 -1.86830000 0.66810000
2.15110000 -1.88450000 0.66880000
2.20470000 -1.87770000 0.66930000
2.15620000 -1.88570000 0.45300000
2.20790000 -1.87780000 0.45370000
2.23180000 -1.83120000 0.45420000
2.21000000 -1.87800000 0.24100000
2.23330000 -1.83150000 0.24140000
2.23900000 -1.77330000 0.24180000
2.23510000 -1.83180000 0.02870000
2.23910000 -1.77160000 0.02950000
2.24150000 -1.70600000 0.03060000
2.23910000 -1.76930000 -0.18230000
2.24140000 -1.70260000 -0.18070000
2.24350000 -1.63120000 -0.17930000
2.24130000 -1.70470000 -0.39200000
2.24350000 -1.62970000 -0.39080000
2.24560000 -1.55090000 -0.38970000
2.24540000 -1.55560000 -0.17770000
2.24740000 -1.47200000 -0.38890000
2.24720000 -1.47940000 -0.17650000
2.24900000 -1.39630000 -0.38820000
2.24880000 -1.40410000 -0.17580000
2.25060000 -1.32340000 -0.38760000
2.25030000 -1.33160000 -0.17520000
2.25180000 -1.25690000 -0.38700000
2.25090000 -1.31190000 -0.60140000
2.25210000 -1.24250000 -0.60080000
2.25260000 -1.18110000 -0.60010000
2.25270000 -1.19330000 -0.38650000
2.24330000 -1.13130000 -0.59950000
2.24580000 -1.13940000 -0.38560000
2.20240000 -1.10780000 -0.59900000
2.20550000 -1.11040000 -0.38520000
2.15440000 -1.09520000 -0.59850000
2.15530000 -1.09650000 -0.38500000
2.08570000 -1.07570000 -0.59770000
2.08920000 -1.07790000 -0.38410000
2.00690000 -1.03950000 -0.59680000
2.00880000 -1.04410000 -0.38360000
1.94480000 -0.97200000 -0.59570000
1.94360000 -0.97650000 -0.38370000
1.91460000 -0.89850000 -0.59430000
1.91300000 -0.90360000 -0.38200000
1.90520000 -0.84460000 -0.59300000
1.90300000 -0.84860000 -0.37970000
1.90060000 -0.79200000 -0.59190000
1.89860000 -0.79570000 -0.37870000
1.89300000 -0.74090000 -0.59090000
1.89190000 -0.74400000 -0.37790000
1.86700000 -0.69890000 -0.59010000
1.86700000 -0.70060000 -0.37720000
1.82020000 -0.70660000 -0.58970000
1.82030000 -0.70870000 -0.37690000
1.79840000 -0.75280000 -0.58960000
1.79740000 -0.75460000 -0.37680000
1.78500000 -0.80350000 -0.58950000
1.78340000 -0.80600000 -0.37680000
1.77150000 -0.85630000 -0.58940000
1.76950000 -0.85920000 -0.37690000
1.75680000 -0.91330000 -0.58960000
1.75450000 -0.91800000 -0.37690000
1.73740000 -0.97780000 -0.58980000
1.73460000 -0.98410000 -0.37580000
1.69790000 -1.04220000 -0.59020000
1.69220000 -1.04600000 -0.37470000
1.63330000 -1.08440000 -0.58980000
1.62570000 -1.08400000 -0.37440000
1.54970000 -1.08670000 -0.58930000
1.54240000 -1.08610000 -0.37450000
1.44790000 -1.07490000 -0.58890000
1.44000000 -1.07410000 -0.37430000
1.31340000 -1.05710000 -0.58860000
1.30900000 -1.05700000 -0.37450000
1.14640000 -1.03400000 -0.58910000
1.14130000 -1.03420000 -0.37510000
0.95850000 -1.00810000 -0.59010000
0.95190000 -1.00860000 -0.37620000
0.94370000 -1.00960000 -0.16240000
0.74300000 -0.98060000 -0.37800000
0.73500000 -0.98210000 -0.16410000
0.72530000 -0.98360000 0.04970000
0.52030000 -0.95380000 -0.16660000
0.51060000 -0.95530000 0.04730000
0.49970000 -0.95630000 0.26100000
0.29500000 -0.92730000 0.04420000
0.28420000 -0.92850000 0.25790000
0.27210000 -0.92990000 0.47140000
0.06870000 -0.90230000 0.25330000
0.05660000 -0.90400000 0.46670000
0.04330000 -0.90590000 0.67950000
-0.15910000 -0.87870000 0.45970000
-0.17240000 -0.87990000 0.67250000
-0.18660000 -0.88200000 0.88480000
-0.38840000 -0.85430000 0.66250000
-0.40210000 -0.85570000 0.87530000
-0.41530000 -0.85850000 1.08820000
-0.61740000 -0.83250000 0.86600000
-0.62990000 -0.83410000 1.07980000
-0.64100000 -0.83620000 1.29390000
-0.84460000 -0.81560000 1.07320000
-0.85470000 -0.81670000 1.28820000
-0.86270000 -0.81730000 1.50400000
-0.64970000 -0.83770000 1.50810000
-0.86860000 -0.81750000 1.72010000
-0.65570000 -0.83810000 1.72240000
-0.87270000 -0.81790000 1.93600000
-0.65960000 -0.83790000 1.93650000
-0.87550000 -0.81810000 2.15170000
-0.66230000 -0.83750000 2.15060000
-0.87750000 -0.81790000 2.36740000
-0.66460000 -0.83680000 2.36470000
-1.08780000 -0.80440000 2.15220000
-1.08490000 -0.80410000 1.93530000
-1.29710000 -0.79630000 1.93390000
-1.08080000 -0.80350000 1.71830000
-1.29320000 -0.79570000 1.71660000
-1.50620000 -0.79340000 1.71440000
-1.50980000 -0.79410000 1.93130000
-1.72000000 -0.79720000 1.71120000
-1.72330000 -0.79770000 1.92780000
-1.93440000 -0.80720000 1.70720000
-1.93740000 -0.80750000 1.92350000
-2.14880000 -0.82200000 1.70260000
-2.15160000 -0.82210000 1.91890000
-2.36290000 -0.84170000 1.69760000
-2.36530000 -0.84130000 1.91420000
-2.57630000 -0.86510000 1.69240000
-2.57840000 -0.86480000 1.90950000
-2.78900000 -0.89200000 1.68730000
-2.57340000 -0.86530000 1.47560000
-2.78650000 -0.89220000 1.47010000
-2.99920000 -0.92090000 1.46530000
-3.00140000 -0.92050000 1.68260000
-3.21190000 -0.95040000 1.46130000
-3.21380000 -0.94980000 1.67850000
-3.42460000 -0.98070000 1.45790000
-3.42640000 -0.97980000 1.67500000
-3.63740000 -1.01250000 1.45530000
-3.63900000 -1.01170000 1.67220000
-3.84830000 -1.04630000 1.45420000
-3.85020000 -1.04550000 1.67080000
-4.05150000 -1.07980000 1.45450000
-4.05330000 -1.07880000 1.67070000
-4.23790000 -1.11060000 1.45580000
-4.23830000 -1.10930000 1.67170000
-4.40000000 -1.13690000 1.45760000
-4.39960000 -1.13530000 1.67300000
-4.53270000 -1.15510000 1.45890000
-4.52670000 -1.15390000 1.67420000
-4.63460000 -1.14770000 1.45960000
-4.63120000 -1.15230000 1.67510000
-4.71530000 -1.10370000 1.45980000
-4.72280000 -1.10830000 1.67580000
-4.76280000 -1.02430000 1.46050000
-4.76660000 -1.01780000 1.67590000
-4.79220000 -0.94230000 1.46250000
-4.79360000 -0.93600000 1.67740000
-4.81310000 -0.87850000 1.46480000
-4.81270000 -0.87750000 1.67910000
-4.83110000 -0.82520000 1.46540000
-4.83180000 -0.82520000 1.68060000
-4.85330000 -0.77830000 1.46610000
-4.85370000 -0.77880000 1.68160000
-4.88340000 -0.73750000 1.46670000
-4.88310000 -0.73830000 1.68190000
-4.93060000 -0.72900000 1.46730000
-4.92950000 -0.72720000 1.68240000
-4.96170000 -0.76760000 1.46800000
-4.96200000 -0.76360000 1.68290000
-4.96860000 -0.82170000 1.46860000
-4.96920000 -0.81740000 1.68310000
-4.96940000 -0.88590000 1.46920000
-4.97010000 -0.88140000 1.68370000
-4.98680000 -0.96820000 1.47020000
-4.98970000 -0.96520000 1.68580000
-5.04360000 -1.04240000 1.47020000
-5.04320000 -1.04270000 1.68460000
-5.10610000 -1.08980000 1.47120000
-5.10780000 -1.08920000 1.68400000
-5.10980000 -1.07920000 1.90110000
-5.15940000 -1.12620000 1.68790000
-5.15680000 -1.12020000 1.90400000
-5.15830000 -1.10830000 2.11800000
-5.19520000 -1.16740000 1.90620000
-5.19430000 -1.15650000 2.12100000
-5.19220000 -1.14440000 2.33730000
-5.20250000 -1.21740000 2.12430000
-5.20060000 -1.20330000 2.33950000
-5.20110000 -1.20100000 2.55410000
-5.19510000 -1.27080000 2.34180000
-5.19480000 -1.27150000 2.55600000
-5.18580000 -1.34420000 2.34410000
-5.18490000 -1.35180000 2.55820000
-5.18360000 -1.36740000 2.77120000
-5.17400000 -1.43470000 2.56070000
-5.17200000 -1.45750000 2.77350000
-5.17060000 -1.47670000 2.98540000
-5.16050000 -1.54410000 2.77560000
-5.16020000 -1.55630000 2.98720000
-5.16070000 -1.56360000 3.19970000
-5.15020000 -1.63210000 2.98910000
-5.15120000 -1.63540000 3.20200000
-5.15180000 -1.64210000 3.41340000
-5.14210000 -1.70330000 3.20430000
-5.14290000 -1.70730000 3.41560000
-5.14320000 -1.71740000 3.62490000
-5.13370000 -1.76840000 3.41780000
-5.13390000 -1.77560000 3.62580000
-5.13490000 -1.78760000 3.84030000
-5.10560000 -1.82330000 3.62740000
-5.11000000 -1.83510000 3.84190000
-5.10920000 -1.83180000 4.05320000
-5.05520000 -1.82760000 3.84380000
-5.05810000 -1.82400000 4.05440000
-5.05510000 -1.81740000 4.26210000
-5.10840000 -1.82610000 4.26120000
-5.05650000 -1.81300000 4.46990000
-5.10970000 -1.81760000 4.46830000
-5.06850000 -1.81430000 4.67160000
-5.12290000 -1.81940000 4.66910000
-5.07560000 -1.81320000 4.87020000
-5.12900000 -1.81180000 4.86810000
-5.07990000 -1.81090000 5.06110000
-5.13220000 -1.80230000 5.06050000
-5.08470000 -1.80710000 5.23970000
-5.13430000 -1.79320000 5.24070000
-5.09120000 -1.80700000 5.40010000
-5.13780000 -1.78770000 5.40350000
-5.09450000 -1.80330000 5.51380000
-5.13760000 -1.78310000 5.53120000
-5.09190000 -1.79980000 5.60920000
-5.13300000 -1.78420000 5.62750000
-5.06170000 -1.78730000 5.68240000
-5.10210000 -1.77720000 5.70560000
-4.99560000 -1.76420000 5.73280000
-5.01290000 -1.74480000 5.75500000
-4.87070000 -1.72370000 5.75550000
-4.88680000 -1.70150000 5.79290000
-4.70980000 -1.68560000 5.79900000
-4.72690000 -1.66780000 5.84790000
-4.51870000 -1.64080000 5.85100000
-4.53510000 -1.63090000 5.90600000
-4.31260000 -1.59530000 5.90840000
-4.32880000 -1.58820000 5.96670000
-4.10830000 -1.53590000 5.95380000
-4.29830000 -1.59240000 5.84490000
-4.09610000 -1.53550000 5.89070000
-3.88740000 -1.47590000 5.94250000
-4.08290000 -1.53230000 5.82270000
-3.87620000 -1.47280000 5.87310000
-3.66980000 -1.41220000 5.91150000
-3.86410000 -1.46940000 5.79740000
-3.65800000 -1.40910000 5.83070000
-3.44950000 -1.34980000 5.85840000
-3.64150000 -1.40460000 5.70330000
-3.43570000 -1.34650000 5.73280000
-3.22700000 -1.29850000 5.76040000
-3.42070000 -1.34270000 5.57430000
-3.21400000 -1.29550000 5.59830000
-3.00530000 -1.25670000 5.61790000
-3.20130000 -1.29230000 5.42120000
-2.99350000 -1.25430000 5.43980000
-2.78340000 -1.22300000 5.45620000
-2.98260000 -1.25190000 5.24080000
-2.77390000 -1.22040000 5.25710000
-2.56330000 -1.19700000 5.27370000
-2.76550000 -1.21800000 5.04090000
-2.55620000 -1.19490000 5.05530000
-2.34620000 -1.17670000 5.06640000
-2.55050000 -1.19290000 4.83190000
-2.34150000 -1.17490000 4.84170000
-2.13220000 -1.15900000 4.84880000
-2.33810000 -1.17290000 4.61660000
-2.12950000 -1.15730000 4.62340000
-1.92070000 -1.14380000 4.62800000
-2.12780000 -1.15540000 4.39840000
-1.91960000 -1.14170000 4.40300000
-1.71130000 -1.13030000 4.40540000
-1.91910000 -1.13980000 4.17820000
-1.71120000 -1.12800000 4.18080000
-1.50300000 -1.12230000 4.18120000
-1.71140000 -1.12580000 3.95650000
-1.50340000 -1.12040000 3.95700000
-1.29550000 -1.12450000 3.95460000
-1.50390000 -1.11860000 3.73320000
-1.29600000 -1.12270000 3.73110000
-1.08860000 -1.14070000 3.72640000
-1.29660000 -1.12120000 3.50810000
-1.08910000 -1.13910000 3.50380000
-0.88160000 -1.16050000 3.49770000
-1.08940000 -1.13760000 3.28180000
-0.88160000 -1.15870000 3.27630000
-0.67370000 -1.18260000 3.26940000
-0.88140000 -1.15670000 3.05550000
-0.67320000 -1.18070000 3.04920000
-0.46490000 -1.20790000 3.04160000
-0.67240000 -1.17850000 2.82960000
-0.46370000 -1.20570000 2.82270000
-0.25430000 -1.23280000 2.81500000
-0.46220000 -1.20350000 2.60440000
-0.25240000 -1.23010000 2.59750000
-0.04230000 -1.25890000 2.59010000
-0.25040000 -1.22750000 2.38040000
-0.03980000 -1.25610000 2.37390000
0.16970000 -1.29600000 2.36700000
-0.03720000 -1.25320000 2.15800000
0.17270000 -1.29310000 2.15200000
0.38170000 -1.34150000 2.14620000
0.17580000 -1.29000000 1.93730000
0.38500000 -1.33880000 1.93230000
0.59380000 -1.39310000 1.92790000
0.38840000 -1.33590000 1.71850000
0.59740000 -1.39000000 1.71480000
0.80590000 -1.44910000 1.71210000
0.80210000 -1.45190000 1.92450000
1.01270000 -1.51660000 1.71110000
1.00860000 -1.51960000 1.92270000
1.22030000 -1.58380000 1.71190000
1.01670000 -1.51350000 1.49930000
1.22460000 -1.58050000 1.50060000
1.43190000 -1.64910000 1.50410000
1.22850000 -1.57710000 1.28870000
1.43580000 -1.64620000 1.29240000
1.63070000 -1.72120000 1.29820000
1.43870000 -1.64300000 1.08010000
1.63210000 -1.71800000 1.08570000
1.80480000 -1.78470000 1.09190000
1.63210000 -1.71440000 0.87250000
1.80230000 -1.78030000 0.87820000
1.92630000 -1.82420000 0.88160000
1.80090000 -1.77660000 0.66360000
1.92950000 -1.82240000 0.66640000
2.01670000 -1.84810000 0.66730000
1.93190000 -1.82080000 0.45110000
2.02310000 -1.84820000 0.45190000
2.09610000 -1.86900000 0.45240000
2.03000000 -1.84860000 0.23860000
2.09960000 -1.86850000 0.23930000
2.15860000 -1.88450000 0.24010000
2.09890000 -1.86700000 0.02710000
2.15770000 -1.88410000 0.02760000
2.21310000 -1.88240000 0.02830000
2.15300000 -1.88200000 -0.18540000
2.20910000 -1.88010000 -0.18570000
2.23460000 -1.83000000 -0.18420000
2.20030000 -1.87430000 -0.39590000
2.23010000 -1.83020000 -0.39480000
2.23870000 -1.77170000 -0.39340000
2.23060000 -1.83620000 -0.60820000
2.23850000 -1.77990000 -0.60720000
2.24150000 -1.71050000 -0.60580000
2.23860000 -1.77760000 -0.82100000
2.24130000 -1.70820000 -0.82010000
2.24370000 -1.62460000 -0.81890000
2.24370000 -1.62880000 -0.60460000
2.24590000 -1.53650000 -0.81770000
2.24570000 -1.54430000 -0.60380000
2.24780000 -1.45230000 -0.81670000
2.24760000 -1.46280000 -0.60300000
2.24950000 -1.37550000 -0.81600000
2.24930000 -1.38640000 -0.60220000
2.25100000 -1.30240000 -0.81550000
2.24960000 -1.36770000 -1.02970000
2.25100000 -1.29950000 -1.02940000
2.25200000 -1.23730000 -1.02860000
2.25220000 -1.23410000 -0.81490000
2.25240000 -1.18090000 -1.02770000
2.25260000 -1.17670000 -0.81430000
2.24110000 -1.13230000 -1.02700000
2.24110000 -1.12870000 -0.81360000
2.19910000 -1.10790000 -1.02610000
2.19800000 -1.10620000 -0.81290000
2.14910000 -1.09410000 -1.02500000
2.14700000 -1.09310000 -0.81170000
2.08340000 -1.07320000 -1.02390000
2.08300000 -1.07430000 -0.81070000
2.00580000 -1.03470000 -1.02420000
2.00370000 -1.03660000 -0.80990000
1.94580000 -0.97010000 -1.02450000
1.94240000 -0.97190000 -0.80910000
1.91630000 -0.89330000 -1.02270000
1.91300000 -0.89960000 -0.80800000
1.90840000 -0.83810000 -1.01870000
1.90430000 -0.84280000 -0.80650000
1.90420000 -0.78530000 -1.01770000
1.90080000 -0.78920000 -0.80520000
1.89610000 -0.73450000 -1.01690000
1.89400000 -0.73840000 -0.80400000
1.86800000 -0.69450000 -1.01640000
1.86760000 -0.69700000 -0.80310000
1.82290000 -0.70410000 -1.01640000
1.82180000 -0.70500000 -0.80290000
1.80060000 -0.74900000 -1.01650000
1.79990000 -0.74990000 -0.80290000
1.78760000 -0.79880000 -1.01660000
1.78670000 -0.79980000 -0.80290000
1.77470000 -0.85070000 -1.01770000
1.77370000 -0.85120000 -0.80290000
1.76110000 -0.90530000 -1.01860000
1.75970000 -0.90550000 -0.80290000
1.74340000 -0.96710000 -1.01690000
1.74150000 -0.96760000 -0.80360000
1.70490000 -1.03130000 -1.01520000
1.70180000 -1.03180000 -0.80410000
1.64080000 -1.07410000 -1.01510000
1.63680000 -1.07280000 -0.80360000
1.56220000 -1.08710000 -1.01610000
1.55780000 -1.08510000 -0.80330000
1.46200000 -1.07660000 -1.01690000
1.45550000 -1.07570000 -0.80310000
1.32480000 -1.05830000 -1.01770000
1.31660000 -1.05720000 -0.80300000
1.15680000 -1.03470000 -1.01770000
1.15110000 -1.03420000 -0.80340000
0.96760000 -1.00800000 -1.01810000
0.96260000 -1.00780000 -0.80420000
0.75990000 -0.97930000 -1.01920000
0.75470000 -0.97920000 -0.80560000
0.74940000 -0.97960000 -0.59180000
0.54070000 -0.95070000 -0.80780000
0.53520000 -0.95130000 -0.59410000
0.52850000 -0.95240000 -0.38040000
0.31920000 -0.92360000 -0.59710000
0.31260000 -0.92450000 -0.38340000
0.30450000 -0.92580000 -0.16970000
0.09620000 -0.89800000 -0.38720000
0.08850000 -0.89930000 -0.17370000
0.07930000 -0.90070000 0.03980000
-0.12800000 -0.87430000 -0.17870000
-0.13690000 -0.87570000 0.03420000
-0.14720000 -0.87730000 0.24690000
-0.35440000 -0.85230000 0.02720000
-0.36430000 -0.85330000 0.23870000
-0.37560000 -0.85390000 0.45040000
-0.58300000 -0.83110000 0.23050000
-0.59350000 -0.83150000 0.44150000
-0.60500000 -0.83190000 0.65330000
-0.81230000 -0.81300000 0.43490000
-0.82260000 -0.81370000 0.64660000
-0.83360000 -0.81470000 0.85930000
-1.04050000 -0.79950000 0.64210000
-1.05010000 -0.80070000 0.85510000
-1.05950000 -0.80140000 1.06940000
-1.26670000 -0.79150000 0.85270000
-1.27470000 -0.79270000 1.06730000
-1.28200000 -0.79410000 1.28300000
-1.06810000 -0.80210000 1.28490000
-1.28810000 -0.79500000 1.49960000
-1.07530000 -0.80260000 1.50140000
-1.49620000 -0.79150000 1.28130000
-1.50170000 -0.79270000 1.49760000
-1.71110000 -0.79530000 1.27890000
-1.71590000 -0.79640000 1.49490000
-1.92610000 -0.80520000 1.27530000
-1.93050000 -0.80640000 1.49110000
-2.14110000 -0.82040000 1.27060000
-2.14530000 -0.82140000 1.48650000
-2.35570000 -0.84070000 1.26510000
-2.35960000 -0.84140000 1.48120000
-2.56980000 -0.86500000 1.25920000
-2.35140000 -0.83970000 1.04940000
-2.56580000 -0.86430000 1.04310000
-2.77970000 -0.89180000 1.03690000
-2.78330000 -0.89220000 1.25330000
-2.99330000 -0.92090000 1.03160000
-2.99650000 -0.92100000 1.24830000
-3.20670000 -0.95070000 1.02740000
-3.20950000 -0.95070000 1.24420000
-3.42010000 -0.98150000 1.02410000
-3.42250000 -0.98110000 1.24090000
-3.63330000 -1.01380000 1.02180000
-3.63540000 -1.01320000 1.23850000
-3.84490000 -1.04790000 1.02090000
-3.84660000 -1.04710000 1.23750000
-4.04800000 -1.08140000 1.02130000
-4.04990000 -1.08070000 1.23780000
-4.23380000 -1.11230000 1.02280000
-4.23580000 -1.11150000 1.23930000
-4.39690000 -1.13880000 1.02570000
-4.39910000 -1.13810000 1.24160000
-4.53250000 -1.15850000 1.02900000
-4.53320000 -1.15690000 1.24410000
-4.64060000 -1.15070000 1.03090000
-4.63780000 -1.14840000 1.24540000
-4.72100000 -1.10090000 1.03140000
-4.71730000 -1.10230000 1.24580000
-4.76780000 -1.01660000 1.03090000
-4.76420000 -1.02300000 1.24580000
-4.79570000 -0.93860000 1.03160000
-4.79300000 -0.94260000 1.24700000
-4.81490000 -0.88020000 1.03280000
-4.81360000 -0.88050000 1.24830000
-4.83250000 -0.82800000 1.03340000
-4.83170000 -0.82660000 1.24940000
-4.85270000 -0.78010000 1.03380000
-4.85250000 -0.77830000 1.25010000
-4.88270000 -0.73920000 1.03430000
-4.88330000 -0.73790000 1.25080000
-4.92950000 -0.72960000 1.03490000
-4.93030000 -0.72970000 1.25150000
-4.95940000 -0.76980000 1.03610000
-4.96070000 -0.76960000 1.25230000
-4.96530000 -0.82330000 1.03760000
-4.96700000 -0.82360000 1.25330000
-4.96680000 -0.88350000 1.03880000
-4.96880000 -0.88640000 1.25420000
-4.97880000 -0.95890000 1.03950000
-4.98410000 -0.96690000 1.25510000
-5.02590000 -1.03010000 1.04040000
-5.03760000 -1.03840000 1.25580000
-5.08980000 -1.08190000 1.04150000
-5.09970000 -1.08710000 1.25650000
-5.14500000 -1.12360000 1.04140000
-5.15070000 -1.12460000 1.25730000
-5.15770000 -1.12600000 1.47300000
-5.19200000 -1.17010000 1.25830000
-5.19740000 -1.17140000 1.47450000
-5.19340000 -1.17260000 1.69050000
-5.20300000 -1.23300000 1.47600000
-5.20080000 -1.23090000 1.69200000
-5.20490000 -1.22810000 1.90830000
-5.19500000 -1.29630000 1.69380000
-5.19600000 -1.29440000 1.91080000
-5.19520000 -1.28360000 2.12710000
-5.18570000 -1.36390000 1.91300000
-5.18590000 -1.35310000 2.12930000
-5.17510000 -1.43610000 1.91490000
-5.17590000 -1.42460000 2.13140000
-5.17530000 -1.42290000 2.34640000
-5.16450000 -1.50470000 2.13340000
-5.16390000 -1.50660000 2.34860000
-5.16220000 -1.52290000 2.56300000
-5.15120000 -1.59740000 2.35090000
-5.15020000 -1.61240000 2.56530000
-5.14940000 -1.62730000 2.77730000
-5.13930000 -1.69680000 2.56790000
-5.13890000 -1.70500000 2.77920000
-5.14020000 -1.70560000 2.99080000
-5.12860000 -1.77360000 2.78070000
-5.13090000 -1.77070000 2.99240000
-5.13320000 -1.76560000 3.20620000
-5.11380000 -1.82310000 2.99390000
-5.11660000 -1.81990000 3.20810000
-5.11260000 -1.82110000 3.42010000
-5.06620000 -1.83650000 3.21000000
-5.06060000 -1.83250000 3.42170000
-5.05220000 -1.82810000 3.63020000
-5.00530000 -1.81210000 3.42310000
-5.00050000 -1.80800000 3.63290000
-5.00370000 -1.80580000 3.84530000
-4.94640000 -1.78400000 3.63540000
-4.95020000 -1.78250000 3.84680000
-4.95140000 -1.77950000 4.05630000
-5.00700000 -1.80280000 4.05520000
-4.95030000 -1.77560000 4.26490000
-5.00470000 -1.79760000 4.26340000
-4.95180000 -1.77300000 4.47300000
-5.00580000 -1.79400000 4.47130000
-4.95390000 -1.77100000 4.67730000
-5.01300000 -1.79350000 4.67450000
-4.95810000 -1.76940000 4.87460000
-5.01930000 -1.79250000 4.87190000
-4.96350000 -1.76850000 5.06180000
-5.02370000 -1.79070000 5.06110000
-4.96940000 -1.76820000 5.23220000
-5.02860000 -1.78930000 5.23630000
-4.97780000 -1.76900000 5.38380000
-5.03670000 -1.78950000 5.39180000
-4.99110000 -1.77190000 5.49390000
-5.04680000 -1.79060000 5.50250000
-4.90920000 -1.74620000 5.37350000
-4.92490000 -1.74960000 5.49470000
-4.81310000 -1.71870000 5.37180000
-4.82480000 -1.72080000 5.48420000
-4.83340000 -1.72210000 5.57910000
-4.65150000 -1.67660000 5.52190000
-4.66810000 -1.67960000 5.60650000
-4.68250000 -1.68220000 5.67530000
-4.84640000 -1.72470000 5.64900000
-4.69620000 -1.68450000 5.73920000
-4.85820000 -1.72690000 5.70710000
-4.48940000 -1.63670000 5.72630000
-4.50430000 -1.63940000 5.79170000
-4.28370000 -1.58850000 5.77610000
-4.47330000 -1.63360000 5.65730000
-4.26860000 -1.58430000 5.70380000
-4.06890000 -1.52860000 5.75280000
-4.25030000 -1.57960000 5.60800000
-4.04950000 -1.52330000 5.63790000
-3.84620000 -1.46450000 5.67530000
-4.02910000 -1.51790000 5.50080000
-3.82690000 -1.45910000 5.52490000
-3.62450000 -1.39980000 5.54760000
-3.80960000 -1.45440000 5.35500000
-3.60870000 -1.39540000 5.37450000
-3.40650000 -1.33900000 5.39730000
-3.59500000 -1.39150000 5.18390000
-3.39370000 -1.33570000 5.20150000
-3.18950000 -1.28910000 5.22170000
-3.38300000 -1.33300000 4.99140000
-3.17930000 -1.28690000 5.00820000
-2.97320000 -1.24930000 5.02520000
-3.17120000 -1.28520000 4.78930000
-2.96570000 -1.24740000 4.80470000
-2.75880000 -1.21570000 4.81930000
-2.96020000 -1.24570000 4.58260000
-2.75380000 -1.21400000 4.59610000
-2.54620000 -1.19100000 4.60770000
-2.75040000 -1.21250000 4.37250000
-2.54340000 -1.18930000 4.38330000
-2.33570000 -1.17110000 4.39180000
-2.54180000 -1.18770000 4.15920000
-2.33450000 -1.16930000 4.16730000
-2.12680000 -1.15350000 4.17360000
-2.33410000 -1.16760000 3.94320000
-2.12670000 -1.15150000 3.94930000
-1.91910000 -1.13780000 3.95380000
-2.12700000 -1.14980000 3.72550000
-1.91940000 -1.13590000 3.72990000
-1.71180000 -1.12380000 3.73270000
-1.92020000 -1.13400000 3.50660000
-1.71240000 -1.12190000 3.50930000
-1.50450000 -1.11670000 3.51000000
-1.71330000 -1.12000000 3.28660000
-1.50520000 -1.11510000 3.28730000
-1.29700000 -1.11960000 3.28570000
-1.50590000 -1.11330000 3.06530000
-1.29740000 -1.11800000 3.06390000
-1.08950000 -1.13590000 3.06040000
-1.29780000 -1.11650000 2.84270000
-1.08940000 -1.13420000 2.83970000
-0.88100000 -1.15480000 2.83530000
-1.08930000 -1.13240000 2.61960000
-0.88040000 -1.15280000 2.61570000
-0.67140000 -1.17640000 2.61070000
-0.87970000 -1.15090000 2.39680000
-0.67030000 -1.17450000 2.39230000
-0.46070000 -1.20130000 2.38670000
-0.66910000 -1.17240000 2.17440000
-0.45910000 -1.19910000 2.16940000
-0.24830000 -1.22480000 2.16380000
-0.45730000 -1.19690000 1.95260000
-0.24600000 -1.22200000 1.94760000
-0.03450000 -1.25010000 1.94250000
-0.24380000 -1.21920000 1.73190000
-0.03190000 -1.24730000 1.72730000
0.17880000 -1.28730000 1.72280000
-0.02920000 -1.24410000 1.51250000
0.18190000 -1.28390000 1.50850000
0.39170000 -1.33280000 1.50480000
0.18480000 -1.28090000 1.29440000
0.39490000 -1.32990000 1.29120000
0.60440000 -1.38410000 1.28870000
0.60090000 -1.38720000 1.50170000
0.81330000 -1.44290000 1.28710000
0.80970000 -1.44600000 1.49970000
1.02050000 -1.51040000 1.28710000
0.81660000 -1.44010000 1.07440000
1.02390000 -1.50700000 1.07460000
1.23190000 -1.57340000 1.07640000
1.02710000 -1.50360000 0.86200000
1.23490000 -1.56970000 0.86370000
1.44060000 -1.63960000 0.86720000
1.23770000 -1.56580000 0.65090000
1.44250000 -1.63620000 0.65400000
1.63250000 -1.71080000 0.65870000
1.44490000 -1.63310000 0.44100000
1.63310000 -1.70740000 0.44490000
1.80060000 -1.77320000 0.44900000
1.63470000 -1.70430000 0.23210000
1.80260000 -1.77090000 0.23560000
1.93560000 -1.82020000 0.23760000
