1.36090000 -0.19900000 -2.01920000
1.37850000 -0.15370000 -2.10400000
1.41690000 0.20880000 -2.21660000
1.34530000 -0.21180000 -1.88420000
1.31020000 -0.24900000 -1.84690000
1.45600000 0.37080000 -2.60990000
2.18230000 0.18200000 -2.17050000
2.20290000 0.20510000 -2.47070000
2.23390000 0.19850000 -2.91370000
1.80520000 0.28580000 -2.12550000
1.83310000 0.28230000 -2.39570000
1.77930000 0.31030000 -2.25970000
1.82740000 0.27710000 -1.96820000
1.89050000 0.27300000 -2.60060000
2.16280000 0.24320000 -2.19620000
2.12430000 0.26290000 -2.24610000
2.17500000 0.24980000 -2.51270000
2.10450000 0.26550000 -2.47520000
2.07590000 0.26720000 -1.95310000
2.16690000 0.22140000 -2.05030000
2.16240000 0.21260000 -1.93920000
2.15700000 0.18260000 -1.83290000
2.12400000 0.24940000 -1.82090000
2.13930000 0.25140000 -1.95830000
2.13320000 0.18790000 -1.51540000
2.12860000 0.23160000 -1.67040000
2.05800000 0.26520000 -1.59980000
2.12450000 0.26200000 -2.04030000
1.35320000 -0.14250000 -1.81680000
1.33440000 -0.20810000 -1.74910000
1.76530000 0.27970000 -1.43320000
1.89840000 0.26920000 -1.20590000
1.82850000 0.27350000 -1.68370000
1.71090000 0.32910000 -1.53950000
1.71510000 0.29090000 -1.19520000
1.67130000 0.34440000 -1.17270000
1.72920000 0.41610000 -2.21550000
1.76780000 0.34710000 -2.40250000
1.73080000 0.38070000 -2.04200000
1.45020000 0.43230000 -2.33160000
1.42490000 0.39300000 -2.21120000
1.43070000 0.44460000 -2.08240000
1.75250000 0.31600000 -1.88950000
1.69700000 0.43880000 -1.96990000
1.61250000 0.46600000 -1.93760000
1.66440000 0.45510000 -1.85160000
1.37620000 0.41280000 -1.75680000
1.34880000 0.38070000 -1.55150000
1.37280000 0.43670000 -1.64370000
1.38860000 0.39920000 -1.92070000
1.43770000 0.45940000 -1.95180000
1.48590000 0.46970000 -1.94750000
1.41040000 0.45150000 -1.86700000
1.41340000 0.46180000 -1.72780000
1.46130000 0.47110000 -1.68740000
1.75650000 0.29400000 -1.66230000
1.70670000 0.39450000 -1.75750000
2.10400000 0.24810000 -1.50240000
1.67920000 0.43440000 -1.66690000
1.40170000 0.46570000 -1.57730000
1.36850000 0.44500000 -1.51650000
1.33740000 0.41370000 -1.38440000
1.38220000 0.46220000 -1.37020000
1.44350000 0.47190000 -1.40540000
1.66380000 0.40080000 -1.27760000
1.66200000 0.42740000 -1.38880000
1.68810000 0.39440000 -1.52530000
1.63530000 0.45460000 -1.46610000
1.61250000 0.45600000 -1.30100000
1.58720000 0.46490000 -1.48970000
1.25500000 -0.22990000 -1.17860000
1.19450000 -0.24830000 -1.01370000
1.24930000 -0.20150000 -1.00190000
1.25670000 -0.12630000 -0.80840000
1.23390000 -0.19670000 -0.79630000
1.19700000 -0.23820000 -0.81230000
1.14140000 -0.24860000 -0.64330000
1.27790000 0.15820000 -0.88980000
1.31440000 0.37420000 -1.17490000
1.30660000 0.40900000 -1.07340000
1.33110000 0.44740000 -1.10510000
1.34410000 0.44740000 -1.22920000
1.38760000 0.46860000 -1.20070000
1.43770000 0.47240000 -1.09630000
2.01850000 0.12570000 -0.15790000
1.95330000 -0.04110000 0.51520000
2.05080000 0.17720000 -0.53270000
2.01520000 0.23270000 -0.30030000
2.02880000 0.23590000 -0.51360000
2.03670000 0.20660000 -0.41930000
1.99200000 0.26060000 -0.53570000
1.96780000 0.26440000 -0.28060000
1.91080000 0.27070000 -0.31690000
2.00840000 0.19820000 -0.09000000
2.11510000 0.20830000 -1.30830000
2.07550000 0.25750000 -1.29720000
2.02230000 0.26810000 -1.29610000
2.09490000 0.17260000 -1.03360000
2.08980000 0.22930000 -1.15930000
2.05250000 0.25800000 -1.11100000
2.01110000 0.26380000 -0.99630000
1.77770000 0.27230000 -1.18230000
1.63970000 0.41590000 -1.05380000
1.71490000 0.27690000 -0.81310000
1.66060000 0.31460000 -0.89520000
1.63830000 0.36350000 -0.87850000
1.60220000 0.45620000 -1.11370000
1.61280000 0.44320000 -0.97010000
2.06720000 0.23500000 -0.94440000
2.00960000 0.26000000 -0.79150000
2.06440000 0.21820000 -0.78050000
2.03800000 0.23940000 -0.67140000
1.73050000 0.27510000 -0.41870000
1.18700000 -0.20870000 -0.48050000
1.17890000 -0.23260000 -0.63000000
1.22150000 -0.18850000 -0.62280000
1.11380000 -0.24120000 -0.24920000
1.16910000 -0.21580000 -0.32140000
1.22040000 -0.12300000 -0.44670000
1.20320000 -0.13100000 -0.23180000
1.13390000 -0.21840000 -0.03580000
1.15380000 -0.17760000 0.16440000
1.17950000 -0.14980000 -0.01830000
1.19740000 0.19110000 0.02350000
1.24840000 0.33790000 -0.52900000
1.61990000 0.30170000 -0.20610000
1.66160000 0.28710000 -0.44310000
1.60370000 0.33990000 -0.35900000
1.24420000 0.44270000 -0.24940000
1.21440000 0.39370000 -0.08430000
1.22770000 0.44940000 0.03630000
1.27280000 0.47210000 -0.04840000
1.94890000 0.19630000 0.55550000
1.97550000 0.17320000 0.30790000
1.58310000 0.27560000 0.92480000
1.87840000 0.26510000 0.50800000
1.74790000 0.27360000 0.36100000
1.67390000 0.27840000 0.08140000
1.64880000 0.28430000 -0.09940000
1.57430000 0.39070000 -0.16170000
1.58510000 0.33440000 -0.10450000
1.98250000 0.24540000 -0.07290000
1.95080000 0.26190000 0.04510000
1.90740000 0.26850000 0.19090000
1.60050000 0.30280000 0.00560000
1.56040000 0.38280000 -0.02150000
1.53540000 0.43970000 -0.01230000
1.30070000 0.47830000 0.15140000
1.34890000 0.47630000 -0.20340000
1.47230000 0.46830000 0.13840000
1.59360000 0.29710000 0.18730000
1.55340000 0.34390000 0.19120000
1.52790000 0.41760000 0.22130000
1.49470000 0.45390000 0.29640000
1.98150000 0.21350000 0.17530000
1.96380000 0.24510000 0.16200000
1.95330000 0.23410000 0.33130000
1.92230000 0.24520000 0.53970000
1.55260000 0.29620000 0.56520000
1.51060000 0.33690000 0.66550000
1.52290000 0.35770000 0.48120000
1.48440000 0.45080000 0.45520000
1.50690000 0.41530000 0.51150000
1.15270000 0.12020000 0.56050000
1.54500000 0.28460000 0.84990000
1.48760000 0.34750000 0.88900000
1.47250000 0.41680000 0.81920000
1.13910000 0.39550000 0.92410000
1.11780000 0.39790000 1.26190000
1.15510000 0.45390000 1.06850000
1.20240000 0.47610000 1.00080000
1.16330000 0.45300000 0.89710000
1.16660000 0.33430000 0.35790000
1.18800000 0.38490000 0.20690000
1.19270000 0.43120000 0.30700000
1.17120000 0.40190000 0.47290000
1.19780000 0.44990000 0.42610000
1.23710000 0.47350000 0.48440000
1.21090000 0.43560000 0.13250000
1.23500000 0.46660000 0.23400000
1.23460000 0.46960000 0.35310000
1.28790000 0.47980000 0.38320000
1.37490000 0.47730000 0.50320000
1.45120000 0.46590000 0.53080000
1.16140000 0.40150000 0.63140000
1.19790000 0.46030000 0.60780000
1.25900000 0.47910000 0.62140000
1.33480000 0.47540000 1.02840000
1.20300000 0.47270000 0.78820000
1.49270000 0.40100000 0.67120000
1.45870000 0.44690000 0.71840000
1.47970000 0.44400000 0.60430000
1.42770000 0.46620000 0.68310000
1.41620000 0.46070000 0.97200000
1.15550000 0.42760000 0.75120000
1.28920000 0.40100000 -0.89620000
1.36670000 0.47380000 -0.66580000
1.37950000 0.47200000 -1.02050000
1.32730000 0.45330000 -0.98040000
1.31770000 0.45730000 -0.84360000
1.61130000 0.42700000 -0.79570000
1.55290000 0.46510000 -0.93770000
1.57890000 0.45380000 -0.78310000
1.52530000 0.46720000 -0.68940000
1.27950000 0.43390000 -0.70580000
1.33800000 0.46990000 -0.70280000
1.25030000 0.40870000 -0.51460000
1.27640000 0.45060000 -0.52130000
1.64610000 0.30580000 -0.61380000
1.62420000 0.35200000 -0.67470000
1.58660000 0.42930000 -0.50460000
1.60810000 0.41000000 -0.64470000
1.56200000 0.43300000 -0.23250000
1.58820000 0.40220000 -0.36980000
1.54030000 0.46040000 -0.41500000
1.56520000 0.45720000 -0.63320000
1.46490000 0.47210000 -0.38330000
1.28300000 0.46590000 -0.34290000
1.49840000 0.46640000 -0.14380000
-1.24430000 -0.23220000 1.44520000
-2.75620000 -0.23690000 2.73140000
0.59530000 -0.99610000 1.78180000
0.58990000 -1.00610000 2.08460000
0.52550000 -0.97320000 2.20520000
0.55670000 -0.95540000 1.73890000
0.48030000 -0.92480000 2.10880000
0.45180000 -0.90920000 1.89730000
0.53550000 -0.92320000 1.60320000
0.50630000 -0.91090000 1.45220000
-0.23390000 -0.24680000 1.36350000
-0.61240000 -0.23800000 2.98810000
-1.32630000 -0.22800000 3.14700000
1.71030000 -0.93810000 1.38360000
1.75390000 -0.89500000 1.50280000
1.79800000 -0.81730000 1.55550000
1.52310000 -0.95680000 2.42820000
1.62350000 -0.95380000 1.75560000
1.62330000 -0.92390000 2.39400000
1.67260000 -0.92180000 1.95650000
1.67980000 -0.87300000 2.39110000
1.73030000 -0.86620000 1.93910000
1.73600000 -0.80440000 2.20320000
1.73700000 -0.71630000 2.41200000
1.65820000 -0.83090000 2.81060000
1.84150000 0.06710000 1.64400000
1.04270000 -0.21160000 1.53150000
1.07240000 -0.15110000 1.49200000
0.99210000 -0.23580000 1.68070000
1.04000000 -0.18070000 1.69290000
1.68100000 0.05810000 3.14200000
1.84700000 0.16680000 1.61920000
1.85610000 0.21150000 1.43770000
1.84160000 0.20870000 1.61300000
1.71380000 0.26830000 1.34460000
1.52550000 0.27360000 1.50800000
1.55000000 0.26910000 2.35600000
1.81270000 0.24330000 1.67820000
1.79190000 0.25460000 1.60840000
1.75430000 0.26150000 1.76070000
1.43920000 0.29330000 1.77540000
1.46450000 0.27730000 2.01520000
1.76610000 0.17350000 2.34220000
1.73450000 0.22630000 2.53600000
1.73980000 0.18610000 2.60790000
1.81410000 0.22000000 1.80900000
1.80940000 0.17110000 1.95410000
1.77390000 0.25080000 1.90800000
1.76930000 0.21320000 2.19520000
1.78430000 0.22550000 2.02010000
1.73010000 0.25210000 2.18300000
1.65120000 0.26560000 2.51270000
1.70710000 0.26190000 2.03320000
1.71900000 0.24640000 2.42950000
1.90270000 0.19020000 1.02770000
1.90910000 0.24020000 0.73690000
1.88140000 0.25140000 0.87910000
1.86850000 0.24040000 1.13770000
1.80560000 0.26460000 1.20400000
1.50450000 0.29090000 1.13580000
1.48100000 0.28910000 1.40270000
1.45310000 0.33820000 1.28110000
1.46640000 0.34950000 1.08240000
1.45250000 0.42980000 0.97800000
1.44770000 0.40880000 1.13100000
1.16460000 0.47380000 1.39680000
1.22690000 0.47890000 1.51630000
1.14450000 0.45530000 1.26910000
1.42730000 0.42040000 1.27840000
1.40760000 0.45010000 1.23550000
1.40730000 0.41400000 1.50000000
1.38720000 0.45140000 1.41570000
1.33120000 0.47040000 1.40600000
1.10310000 0.43160000 1.46460000
1.82140000 0.25230000 1.44240000
1.44760000 0.30920000 1.48760000
1.40210000 0.34260000 1.78950000
1.33520000 0.46360000 1.61490000
1.37590000 0.41240000 1.82110000
1.33690000 0.45560000 1.79270000
0.86070000 -0.24840000 2.34020000
0.89880000 -0.23750000 2.46630000
0.94120000 -0.22290000 2.33460000
0.95350000 -0.18410000 2.43790000
0.64760000 -0.25030000 2.56410000
0.84070000 -0.24690000 2.56270000
-0.05470000 -0.25520000 3.02230000
0.92130000 -0.20730000 2.56820000
0.88060000 -0.22430000 2.71570000
0.94520000 -0.10930000 2.53690000
0.90200000 -0.16550000 2.76250000
0.82320000 -0.24350000 2.79880000
0.87360000 -0.18550000 2.89720000
0.83350000 -0.22550000 2.97110000
0.87270000 0.09140000 3.00690000
0.63910000 -0.25130000 3.27070000
0.71400000 -0.23830000 3.53590000
0.72470000 -0.24490000 3.30730000
0.77180000 -0.21860000 3.36780000
0.62320000 -0.24600000 3.88990000
0.76970000 -0.19970000 3.53500000
0.72490000 -0.22430000 3.72530000
0.75980000 -0.24870000 2.97560000
0.77210000 -0.23970000 3.12960000
0.85470000 -0.16050000 3.03670000
0.82430000 -0.19670000 3.15800000
0.77710000 -0.22830000 3.25150000
0.82270000 -0.15810000 3.24890000
0.80010000 -0.14940000 3.41060000
0.76590000 -0.16790000 3.71980000
0.79100000 0.03390000 3.56850000
0.96820000 -0.23730000 1.87390000
0.92460000 -0.24720000 1.72730000
0.91410000 -0.24630000 2.05800000
1.01620000 -0.20970000 1.80220000
1.01480000 -0.19130000 1.93220000
1.02900000 -0.10850000 1.92460000
0.95090000 -0.23260000 2.16410000
0.97620000 -0.22570000 2.02590000
1.00520000 -0.17910000 2.06470000
0.98390000 -0.18000000 2.22240000
0.99630000 0.22950000 2.25610000
1.03910000 0.41220000 2.02360000
1.06810000 0.41180000 1.72730000
1.09190000 0.45880000 1.79510000
1.07240000 0.46580000 2.08310000
1.01150000 0.41250000 2.26720000
1.03250000 0.43820000 2.17640000
1.39280000 0.28530000 2.50400000
1.37660000 0.27550000 2.97060000
1.34050000 0.29010000 2.83300000
1.69990000 0.20350000 2.94020000
1.70380000 0.24740000 2.62710000
1.67640000 0.25310000 2.82730000
1.39530000 0.30100000 2.17070000
1.34590000 0.32190000 2.46730000
1.36250000 0.36640000 2.11460000
1.31290000 0.39460000 2.49400000
1.31840000 0.45460000 1.98500000
1.33720000 0.42550000 2.11510000
1.24740000 0.47150000 2.04530000
1.27080000 0.46230000 2.22600000
1.07880000 0.47300000 2.21180000
1.11560000 0.47820000 2.27370000
1.32010000 0.42670000 2.26660000
1.27390000 0.45100000 2.44180000
1.18310000 0.47120000 2.70180000
0.95190000 0.35860000 2.58350000
0.98300000 0.42220000 2.47190000
0.95410000 0.41420000 2.62530000
0.96220000 0.45520000 2.72790000
0.93350000 0.43830000 2.80800000
1.01950000 0.45760000 2.40520000
1.01260000 0.47090000 2.58680000
1.02190000 0.47820000 2.73500000
1.30390000 0.32480000 2.82940000
1.26910000 0.39870000 2.86700000
1.24540000 0.44780000 2.77550000
0.97150000 0.47890000 3.02860000
1.16050000 0.46880000 3.10650000
0.83340000 0.35270000 3.31540000
0.89260000 0.33810000 2.92390000
0.88020000 0.41140000 3.05960000
0.91010000 0.40420000 2.85450000
0.91280000 0.44740000 2.95790000
0.90000000 0.45410000 3.09700000
1.07060000 0.47590000 3.26930000
0.92200000 0.47510000 3.23400000
0.88740000 0.45790000 3.19900000
0.84440000 0.41310000 3.31280000
0.95360000 0.47390000 2.92280000
1.55670000 0.14400000 4.19900000
1.66690000 0.17330000 3.26790000
1.62790000 0.19210000 3.61050000
1.55820000 0.22100000 4.06120000
1.58930000 0.23640000 3.73580000
1.49380000 0.26150000 3.82960000
1.55660000 0.26040000 3.58530000
1.50810000 0.25070000 4.12210000
0.64260000 -0.24230000 4.11050000
0.70210000 -0.22530000 3.97520000
0.72840000 -0.18870000 4.07110000
0.68690000 -0.22530000 4.14500000
0.75090000 -0.17230000 3.88890000
0.73890000 0.02640000 4.10280000
0.73560000 -0.13770000 4.13830000
0.70390000 -0.19190000 4.28020000
0.77660000 0.31590000 3.75500000
0.75920000 0.39510000 4.03850000
0.78050000 0.41790000 3.89880000
1.30030000 0.27500000 3.49460000
1.23780000 0.28990000 3.69160000
1.27740000 0.26770000 3.93110000
1.39740000 0.27050000 3.34750000
1.20890000 0.28310000 3.99900000
1.16310000 0.33420000 4.00790000
1.19710000 0.34660000 3.67270000
1.12720000 0.41140000 4.07180000
0.68150000 0.19720000 4.57350000
0.79470000 0.45750000 4.07960000
0.79950000 0.46220000 4.20240000
0.88010000 0.47350000 4.00760000
0.97770000 0.46460000 4.29020000
1.07950000 0.46290000 3.81230000
0.80850000 0.46820000 4.37690000
1.50450000 0.17900000 4.59330000
1.20530000 0.25840000 4.50470000
1.11680000 0.28090000 4.60110000
1.14020000 0.25380000 4.91030000
1.10660000 0.26560000 4.79750000
1.07320000 0.31690000 4.70270000
1.46660000 0.23760000 4.64430000
1.49270000 0.23000000 4.49870000
1.47370000 0.15640000 4.84340000
1.43210000 0.14920000 5.12920000
1.43820000 0.20330000 4.99840000
1.47610000 0.20450000 4.77120000
1.43740000 0.24200000 4.78700000
1.37690000 0.25310000 4.82440000
1.21520000 0.25110000 5.14550000
1.40060000 0.23840000 5.00180000
1.31590000 0.24840000 5.28870000
1.53650000 0.19920000 4.33390000
1.51610000 0.23190000 4.31970000
1.45480000 0.25400000 4.43990000
1.41150000 0.25940000 4.25850000
1.17100000 0.27400000 4.31410000
1.13590000 0.31000000 4.28120000
1.09940000 0.35730000 4.42380000
1.14650000 0.26880000 4.53100000
1.06080000 0.39370000 4.62430000
1.06570000 0.43070000 4.42450000
1.08950000 0.44960000 4.07660000
1.01200000 0.45560000 4.49880000
1.65480000 0.24520000 3.12190000
1.64220000 0.23000000 3.32350000
1.58980000 0.26460000 3.19430000
1.28350000 0.30610000 3.13550000
1.29120000 0.28760000 3.32430000
1.24550000 0.34540000 3.24580000
1.23550000 0.41530000 3.11000000
1.21470000 0.40440000 3.34440000
1.19020000 0.45530000 3.20280000
1.59550000 0.25110000 3.51860000
1.23860000 0.30550000 3.49530000
1.16340000 0.42390000 3.68940000
1.16340000 0.44900000 3.49670000
1.14040000 0.46420000 3.38180000
0.95400000 0.47820000 3.46970000
0.85910000 0.45470000 3.41070000
0.87950000 0.47320000 3.50250000
0.80580000 0.39860000 3.56920000
0.83140000 0.45160000 3.59500000
0.87030000 0.47490000 3.73800000
0.80690000 0.44420000 3.76910000
0.82210000 0.46630000 3.92910000
0.74780000 0.41530000 4.20780000
0.71560000 0.36550000 4.35970000
0.75810000 0.45170000 4.34730000
0.72430000 0.41220000 4.38480000
0.63320000 0.35890000 4.98750000
0.67500000 0.35820000 4.69350000
0.66810000 0.41210000 4.84190000
0.68090000 0.44590000 4.97870000
0.64500000 0.41040000 5.01560000
1.00370000 0.29530000 5.24210000
1.03350000 0.25810000 5.31670000
1.07840000 0.25300000 5.21690000
1.05220000 0.27770000 5.01920000
1.01380000 0.34620000 5.03720000
1.02420000 0.39650000 4.85300000
1.00820000 0.40000000 4.96880000
0.96640000 0.37470000 5.28970000
0.96040000 0.42710000 5.14880000
0.56650000 0.38150000 5.57990000
0.59870000 0.33030000 5.25270000
0.60530000 0.39380000 5.35240000
0.60750000 0.43210000 5.51570000
0.62620000 0.40490000 5.19130000
0.66980000 0.44620000 5.08280000
0.73380000 0.46160000 5.10020000
0.66670000 0.44610000 5.19690000
0.89610000 0.44380000 5.31330000
0.70440000 0.45650000 5.33520000
0.90370000 0.45330000 5.11300000
0.84230000 0.46260000 4.90710000
0.64020000 0.43630000 5.32910000
0.65340000 0.45220000 5.51570000
0.67390000 0.45700000 5.82540000
0.74480000 0.45210000 4.49740000
0.70190000 0.41420000 4.59550000
0.71200000 0.44580000 4.71340000
0.80750000 0.46680000 4.60220000
0.94640000 0.45990000 4.70410000
1.00360000 0.44330000 4.73410000
0.70670000 0.45500000 4.88570000
0.96660000 0.44860000 4.89860000
1.14740000 0.47730000 1.81820000
0.84970000 -1.03980000 6.58210000
0.78310000 -1.05160000 6.69270000
0.79250000 -1.06050000 6.51480000
0.82750000 -1.00550000 6.72470000
0.66880000 -1.05200000 6.88310000
0.64150000 -1.06010000 6.62270000
0.77950000 -1.03110000 6.78780000
0.74030000 -0.99300000 6.91290000
0.78860000 -0.93310000 6.87720000
0.69300000 -1.02580000 6.95830000
0.58280000 -1.04130000 7.08920000
0.64170000 -0.97030000 7.12570000
0.49400000 -1.02720000 7.20990000
0.49370000 -1.04800000 7.08960000
0.41010000 -1.00800000 7.26120000
0.30190000 -1.00730000 7.09050000
0.22430000 -0.98800000 7.30210000
0.56950000 -1.04530000 6.53660000
0.39880000 -1.03380000 7.00540000
0.45710000 -1.01270000 6.55420000
0.78510000 -0.84430000 7.05960000
0.55710000 -0.99400000 7.22490000
0.36330000 -0.94750000 7.48770000
0.37900000 -0.97650000 7.36640000
0.44150000 -0.90970000 7.48700000
0.57760000 -0.85570000 7.39560000
0.70360000 -0.78270000 7.28890000
0.67020000 -0.68790000 7.37990000
0.53310000 -0.78770000 7.51440000
0.48360000 -0.59850000 7.62180000
1.32970000 -0.11860000 5.72110000
1.10760000 -0.96850000 5.86740000
1.03340000 -1.04810000 5.96100000
0.93960000 -1.05930000 6.09990000
1.07740000 -1.00970000 5.96350000
1.02580000 -1.03350000 6.08540000
1.05710000 -0.96450000 6.08760000
1.08560000 -0.90120000 6.09120000
1.21540000 -0.77570000 5.94760000
1.07820000 -0.80790000 6.38640000
0.89960000 -1.04900000 6.35080000
0.99790000 -1.01280000 6.21560000
0.92960000 -1.01200000 6.39030000
0.98650000 -0.93830000 6.33170000
0.88790000 -0.96860000 6.60100000
0.95040000 -0.86070000 6.63990000
1.15790000 -0.71260000 6.29110000
1.08740000 -0.70370000 6.50450000
0.95590000 -0.77140000 6.80280000
0.97940000 -0.69220000 6.81440000
1.04510000 -0.60850000 6.63840000
1.09320000 -0.49670000 6.57730000
1.23560000 -0.68460000 6.00610000
1.29070000 -0.53650000 5.84300000
1.18300000 -0.59150000 6.29570000
1.25590000 -0.20300000 6.07440000
1.16010000 -0.15520000 6.42490000
0.21310000 -0.22760000 6.52320000
-0.66540000 -0.24120000 6.97750000
0.32090000 -0.18680000 6.47270000
0.30610000 -0.22120000 6.36180000
0.26320000 -0.19410000 6.58030000
0.18670000 -0.21690000 6.67190000
0.08170000 -0.23020000 6.77730000
0.21730000 -0.17230000 6.69590000
0.26500000 -0.13200000 6.62420000
0.16090000 0.06740000 6.78580000
1.00400000 -0.49500000 6.80210000
0.83450000 -0.71830000 7.10130000
0.88030000 -0.59840000 7.05900000
0.89500000 -0.27390000 7.03910000
0.77080000 -0.42480000 7.25650000
0.60820000 -0.50400000 7.49390000
0.64410000 -0.14890000 7.43650000
1.02200000 -0.07440000 6.77210000
0.77440000 0.12210000 7.22590000
0.63500000 0.13870000 7.43430000
1.23240000 0.11410000 6.19970000
1.39850000 0.11660000 5.34770000
1.34780000 0.17380000 5.64830000
1.36400000 0.20140000 5.49460000
1.30910000 0.23100000 5.64730000
1.24570000 0.24900000 5.59690000
0.99330000 0.24700000 5.78790000
1.19940000 0.24430000 5.94110000
1.02670000 0.25160000 5.51170000
0.94360000 0.26480000 5.71930000
0.86350000 0.31330000 5.90730000
0.93220000 0.31870000 5.56870000
1.30090000 0.12280000 5.90740000
1.29440000 0.21450000 5.81310000
1.25190000 0.19260000 6.05900000
1.20520000 0.17960000 6.25950000
1.16660000 0.22820000 6.27240000
1.21310000 0.23540000 6.04610000
1.02560000 0.24780000 6.16690000
0.89480000 0.25880000 6.00110000
0.94580000 0.24450000 6.10450000
0.37110000 -0.18790000 6.30290000
0.41980000 -0.13450000 6.21140000
0.48740000 0.06990000 5.97040000
0.38680000 0.00920000 6.33500000
0.33410000 -0.12300000 6.48930000
0.32710000 0.22920000 6.46110000
0.43950000 0.26970000 6.14820000
0.51970000 0.35660000 5.85320000
0.45930000 0.37120000 6.11190000
0.54850000 0.43690000 5.92510000
0.46060000 0.43360000 6.23340000
0.59240000 0.45320000 5.91210000
0.84830000 0.25690000 6.19220000
0.84620000 0.24760000 6.35490000
0.77320000 0.28690000 6.29520000
0.77490000 0.26380000 6.38250000
0.78730000 0.31030000 6.20840000
0.71170000 0.25540000 6.61060000
0.71050000 0.31360000 6.42990000
0.66330000 0.28870000 6.59340000
0.65680000 0.36710000 6.51940000
0.77830000 0.40370000 6.10660000
0.74210000 0.42290000 6.19680000
0.75490000 0.37910000 6.23870000
0.83400000 0.39840000 5.91260000
0.78190000 0.44270000 5.92160000
0.64520000 0.45480000 6.26760000
0.49130000 0.45590000 6.31990000
0.69170000 0.44190000 6.27600000
0.66180000 0.43040000 6.41180000
0.39950000 0.39360000 6.32430000
0.22860000 0.31960000 6.65350000
0.56450000 0.44640000 6.58100000
0.60430000 0.40940000 6.60420000
0.32010000 0.45430000 6.64670000
0.30000000 0.40440000 6.56250000
0.48060000 0.46100000 6.52120000
0.42980000 0.45910000 6.73750000
1.14010000 0.12680000 6.47650000
1.13330000 0.19560000 6.44730000
1.07460000 0.24400000 6.43940000
0.90730000 0.12440000 6.98560000
1.08100000 0.21630000 6.54940000
0.66330000 0.24890000 6.81630000
1.03680000 0.16340000 6.71080000
1.05050000 0.20470000 6.64230000
0.97250000 0.24340000 6.68030000
0.92300000 0.20970000 6.90260000
0.96580000 0.22900000 6.77230000
0.85440000 0.24110000 6.91590000
0.96710000 0.24880000 6.58010000
0.71230000 0.24390000 7.07520000
0.60700000 0.28890000 6.72330000
0.54610000 0.26550000 6.89930000
0.50400000 0.31070000 6.89500000
0.55610000 0.35880000 6.75780000
0.44920000 0.37450000 6.95680000
0.78330000 0.17620000 7.18650000
0.82020000 0.20740000 7.07790000
0.87760000 0.17940000 7.01540000
0.65920000 0.18120000 7.38120000
0.67040000 0.22900000 7.28550000
0.73360000 0.23180000 7.17380000
0.54700000 0.24280000 7.36840000
0.51920000 0.43270000 6.73090000
0.50720000 0.41440000 6.80720000
0.41160000 0.42490000 6.97080000
0.32520000 0.44550000 7.04270000
1.37910000 0.22830000 5.26230000
1.39290000 0.19040000 5.34870000
0.97420000 0.28360000 5.46380000
0.96770000 0.31970000 5.36470000
1.33080000 0.23690000 5.45940000
0.91240000 0.37990000 5.57740000
0.93380000 0.41310000 5.38620000
0.86100000 0.43320000 5.64930000
0.80700000 0.45300000 5.59870000
0.55210000 0.41790000 5.79160000
0.59420000 0.44190000 5.69700000
2.27550000 0.18250000 -3.60440000
2.26050000 0.22540000 -3.51720000
2.26040000 0.18100000 -3.30760000
2.18540000 0.26430000 -3.49750000
2.23960000 0.25160000 -3.57990000
2.23100000 0.24160000 -3.28040000
2.23270000 0.23620000 -3.18440000
2.17190000 0.26420000 -3.23710000
2.22770000 0.25120000 -3.40030000
2.06130000 0.26540000 -3.12540000
1.87290000 0.28700000 -3.24010000
1.92130000 0.26950000 -3.11320000
1.83530000 0.33500000 -3.30760000
1.81700000 0.34020000 -3.05770000
1.87570000 0.27780000 -2.89730000
1.79970000 0.41330000 -3.22180000
1.48570000 0.40140000 -3.06110000
1.50560000 0.42460000 -3.20220000
1.52040000 0.45120000 -3.12590000
1.51060000 0.44770000 -3.02400000
1.57140000 0.46530000 -3.08210000
1.75650000 0.45020000 -3.10820000
1.79430000 0.40030000 -3.02000000
1.77370000 0.41940000 -2.87760000
1.71930000 0.46070000 -3.18270000
1.60530000 0.46590000 -2.91540000
1.71460000 0.45730000 -2.83700000
1.48180000 0.40660000 -2.92190000
1.51500000 0.45530000 -2.88390000
1.54020000 0.46480000 -2.80740000
2.20840000 0.24920000 -3.01560000
2.15050000 0.26380000 -2.81450000
2.20650000 0.24190000 -2.81550000
1.82330000 0.30000000 -2.70390000
1.79350000 0.34720000 -2.75620000
1.75050000 0.41160000 -2.48390000
1.75330000 0.42910000 -2.67070000
1.71790000 0.45170000 -2.52750000
1.64220000 0.46440000 -2.62770000
1.77980000 0.44180000 -3.29040000
1.55280000 0.45890000 -3.19680000
1.47110000 0.40670000 -2.79320000
1.49980000 0.44990000 -2.74770000
1.47290000 0.43120000 -2.62530000
1.47640000 0.44860000 -2.48650000
1.52920000 0.46390000 -2.62530000
1.54750000 0.46690000 -2.44800000
1.67550000 0.45860000 -2.32730000
1.48480000 0.46170000 -2.22350000
1.71610000 0.44120000 -2.31460000
-5.47010000 -0.96850000 1.20150000
-5.26180000 -0.94340000 4.19560000
-5.92840000 -0.94510000 1.07870000
-6.28300000 -0.82400000 1.96900000
-6.18210000 -0.87840000 2.06360000
-6.16720000 -0.84870000 2.85580000
-6.31980000 -0.76130000 2.21130000
-6.21350000 -0.80170000 2.96050000
-6.28570000 -0.72370000 2.78450000
-6.37660000 -0.68360000 2.03010000
-5.48110000 -0.97770000 -0.91290000
-6.54900000 -0.79730000 -2.18060000
-6.51370000 -0.81810000 -1.65680000
-6.58500000 -0.70440000 -1.63580000
-6.54640000 -0.76090000 -1.31540000
-6.56870000 -0.67820000 -0.99970000
-6.60270000 -0.60390000 -1.47470000
-6.47400000 -0.89680000 -3.51450000
-6.31100000 -0.92380000 -1.83560000
-6.58680000 -0.77810000 -3.45480000
-6.50840000 -0.86120000 -2.89420000
-6.62710000 -0.66760000 -3.06090000
-6.63240000 -0.63370000 -3.56930000
-6.64250000 -0.47300000 -3.67490000
-6.64150000 -0.16220000 -3.72920000
-6.64000000 0.16120000 -3.55600000
-6.63440000 0.09110000 -4.07690000
-6.63030000 0.16980000 -3.87240000
-6.62100000 0.21260000 -3.58450000
-6.59870000 0.22940000 -3.75190000
-6.18580000 -0.94580000 -2.09020000
-6.39850000 -0.89720000 -1.83920000
-6.55620000 -0.81080000 -2.84090000
-6.59620000 -0.72610000 -2.50950000
-6.64460000 -0.42080000 -3.10080000
-6.44520000 -0.86300000 -1.35730000
-6.62730000 -0.43940000 -2.18050000
-6.64460000 -0.48540000 -2.65490000
-6.62170000 -0.62910000 -2.36130000
-6.64730000 -0.16130000 -2.58620000
-6.64380000 -0.05930000 -2.91680000
-5.28010000 -0.90840000 -2.14010000
-5.58370000 -0.31970000 -2.68860000
-5.64410000 -0.31050000 -2.52790000
-5.60880000 -0.30820000 -1.94710000
-5.68270000 -0.28690000 -2.17040000
-5.73230000 -0.21690000 -2.65840000
-5.72420000 -0.21610000 -2.26930000
-5.70130000 -0.27680000 -2.54080000
-5.73810000 0.11380000 -1.97820000
-5.71380000 -0.24370000 -2.06420000
-5.72690000 -0.19320000 -1.90110000
-6.57250000 -0.16100000 -0.46560000
-6.62210000 -0.17610000 -1.84560000
-6.63800000 -0.25430000 -2.17270000
-6.63550000 0.15140000 -2.06040000
-6.61980000 0.13060000 -1.63750000
-5.68870000 -0.30160000 -2.97950000
-5.72840000 -0.25510000 -2.95760000
-5.75300000 0.05730000 -2.72250000
-5.77070000 0.02640000 -3.29280000
-6.57600000 0.24640000 -3.55400000
-6.26190000 0.27190000 -3.71880000
-6.31510000 0.25480000 -3.69730000
-6.28010000 0.26810000 -3.39070000
-6.24660000 0.29220000 -3.45130000
-6.37400000 0.25570000 -3.57740000
-6.51230000 0.25560000 -3.65630000
-6.55650000 0.25450000 -3.29850000
-6.47240000 0.26540000 -2.82810000
-5.80210000 0.27170000 -3.40560000
-6.24270000 0.30110000 -2.86940000
-6.27300000 0.27690000 -3.10320000
-6.31300000 0.26230000 -3.14370000
-6.28270000 0.27130000 -2.87440000
-6.22940000 0.32540000 -3.25220000
-6.21570000 0.37650000 -3.31640000
-6.24630000 0.29660000 -3.23130000
-6.23180000 0.32670000 -3.04990000
-6.19960000 0.41990000 -3.05480000
-6.65050000 0.06690000 -3.27600000
-6.64360000 0.13170000 -2.70470000
-6.63380000 0.20170000 -2.74790000
-6.61260000 0.23890000 -2.63110000
-6.63550000 0.19580000 -2.55690000
-6.64100000 0.16750000 -2.97830000
-6.64060000 0.19610000 -3.20440000
-6.61010000 0.22870000 -3.36700000
-6.59590000 0.24730000 -3.13380000
-6.61870000 0.22620000 -3.02980000
-6.61340000 0.23610000 -2.84820000
-6.55820000 0.26170000 -2.87210000
-6.52360000 0.26230000 -3.09480000
-6.33620000 0.26390000 -2.76370000
-6.59020000 0.25510000 -2.74900000
-6.57950000 0.25770000 -2.60550000
-5.75340000 0.38550000 -1.98040000
-5.77730000 0.31100000 -3.06310000
-5.79510000 0.41660000 -3.04910000
-6.21780000 0.36440000 -2.81250000
-6.18160000 0.44180000 -2.82480000
-6.15980000 0.45720000 -3.02770000
-6.10680000 0.47420000 -2.79370000
-6.10080000 0.47320000 -3.28460000
-5.91400000 0.48580000 -2.88560000
-5.77390000 0.38210000 -2.70640000
-5.81390000 0.45790000 -2.89400000
-5.86510000 0.48070000 -3.02730000
-5.84540000 0.48150000 -2.62240000
-5.76960000 0.41530000 -2.28600000
-5.79210000 0.44420000 -2.60900000
-5.80330000 0.46460000 -2.29760000
-5.88080000 0.48810000 -2.29500000
-6.25950000 0.27900000 -2.27790000
-6.25130000 0.28880000 -2.45530000
-6.29280000 0.26930000 -2.59280000
-6.34080000 0.26670000 -2.20530000
-6.63720000 0.15660000 -2.41650000
-6.63160000 0.19660000 -2.23330000
-6.60330000 0.23890000 -2.06200000
-6.61590000 0.22880000 -2.34480000
-6.60180000 0.24230000 -2.49600000
-6.52960000 0.26600000 -2.25100000
-6.57280000 0.25690000 -2.19200000
-6.30060000 0.26760000 -2.16540000
-6.22040000 0.31690000 -2.21150000
-6.22540000 0.32970000 -2.52210000
-6.19280000 0.40980000 -2.25180000
-6.24480000 0.28750000 -2.09320000
-6.19820000 0.38440000 -2.04920000
-6.21680000 0.32090000 -1.97910000
-6.15240000 0.45680000 -2.06930000
-6.56620000 0.25870000 -1.88760000
-6.62030000 0.21160000 -1.88060000
-6.34120000 0.27390000 -1.63370000
-6.26410000 0.28090000 -1.95960000
-6.49640000 0.27280000 -1.73850000
-6.24660000 0.29500000 -2.71810000
-6.20130000 0.40760000 -2.54730000
-6.17310000 0.44440000 -2.41990000
-6.15240000 0.46080000 -2.57440000
-6.12150000 0.47120000 -2.35090000
-6.06000000 0.48110000 -2.25610000
-6.11570000 0.47350000 -1.84930000
-6.62010000 0.19430000 -1.72160000
-6.58890000 0.24870000 -1.58120000
-6.59790000 0.23870000 -1.74450000
-6.55960000 0.26590000 -1.63920000
-5.22690000 -0.92510000 -0.27540000
-5.22230000 -0.93670000 0.15090000
-5.28790000 -0.95690000 -0.45390000
-5.30660000 -0.96930000 0.17000000
-5.35120000 -0.96050000 -1.73020000
-5.29050000 -0.92710000 -1.70880000
-5.21910000 -0.88420000 -1.97150000
-5.20530000 -0.88480000 -1.39790000
-5.25830000 -0.91620000 -1.16650000
-5.39170000 -0.97310000 -0.83410000
-5.31120000 -0.94970000 -1.35100000
-5.34170000 -0.96240000 -1.22090000
-6.48200000 -0.78780000 -0.26350000
-5.21140000 -0.89930000 -0.77400000
-5.10980000 -0.87400000 -0.66990000
-5.14670000 -0.88160000 -0.26710000
-5.63370000 -0.27680000 -0.58530000
-5.61770000 -0.27750000 -0.13580000
-5.56350000 -0.28210000 -0.15010000
-5.67920000 -0.24420000 -0.23210000
-5.68210000 -0.23840000 -0.56950000
-5.70410000 -0.18090000 -0.51800000
-5.64680000 -0.26500000 0.07690000
-5.70090000 -0.21280000 -0.08640000
-5.71380000 -0.15450000 0.11300000
-5.70940000 0.15820000 0.22810000
-5.71480000 -0.01660000 -0.30640000
-6.06520000 -0.92000000 1.73890000
-6.40140000 -0.82510000 0.48470000
-6.46680000 -0.73670000 0.62000000
-6.29980000 -0.88410000 0.45220000
-6.52110000 -0.66170000 0.20830000
-6.46130000 -0.65700000 1.19530000
-6.49830000 -0.56850000 0.80910000
-6.52320000 -0.71580000 -0.19780000
-6.56350000 -0.56240000 -0.53230000
-6.54120000 -0.27830000 0.27570000
-6.55990000 0.18500000 0.05190000
-6.54950000 0.18360000 0.38590000
-5.18220000 -0.89950000 0.00270000
-5.10060000 -0.87810000 0.42430000
-5.13820000 -0.89910000 0.68600000
-5.30450000 -0.96920000 1.08480000
-5.19700000 -0.94430000 0.78480000
-5.01860000 -0.87140000 0.95460000
-5.20570000 -0.95790000 1.32940000
-5.08750000 -0.88960000 1.21600000
-5.01930000 -0.87260000 1.63790000
-4.62980000 -0.84320000 3.29680000
-5.44970000 -0.26110000 1.89560000
-5.33920000 -0.28780000 -0.70170000
-6.41230000 -0.77730000 1.02730000
-6.37890000 -0.76820000 1.51400000
-6.43500000 -0.71280000 1.30320000
-6.41010000 -0.59230000 1.89550000
-6.44010000 -0.33900000 1.69370000
-6.49880000 -0.13460000 1.03020000
-5.21060000 -0.96290000 2.38280000
-5.09310000 -0.90990000 1.67570000
-5.08370000 -0.92730000 2.07130000
-5.17410000 -0.95890000 1.97010000
-5.63600000 -0.23120000 1.76380000
-5.61020000 -0.24860000 1.55300000
-5.69060000 -0.21280000 1.52830000
-5.56010000 -0.25130000 2.06620000
-6.43740000 -0.01820000 1.94810000
-5.67950000 -0.18410000 1.69220000
-5.65120000 -0.17770000 1.92740000
-5.67540000 -0.00060000 1.69130000
-5.60500000 0.04730000 2.30630000
-5.60470000 -0.26640000 0.63320000
-5.54700000 -0.26760000 0.87680000
-5.68200000 -0.23820000 0.28000000
-5.66370000 -0.24000000 0.67680000
-5.70230000 -0.19630000 0.51720000
-5.69470000 -0.19750000 0.85190000
-5.70460000 -0.13770000 0.76580000
-5.63020000 -0.25020000 1.04560000
-5.69070000 0.02560000 1.00760000
-5.68610000 0.26460000 1.07240000
-6.48810000 0.14780000 1.43360000
-6.53780000 0.20480000 0.60550000
-6.52410000 0.23940000 0.43820000
-6.50380000 0.25280000 0.57350000
-6.19520000 0.27780000 0.57190000
-6.23120000 0.27630000 0.29480000
-6.21070000 0.27230000 0.68780000
-6.52830000 0.20320000 0.77540000
-6.50420000 0.24730000 0.74390000
-6.46460000 0.26570000 0.76510000
-6.44150000 0.27180000 0.52800000
-6.31410000 0.27060000 0.85920000
-6.50340000 0.23700000 0.89980000
-6.13780000 0.30360000 0.65780000
-6.15910000 0.28690000 0.79500000
-6.11310000 0.32710000 0.81200000
-6.19310000 0.27290000 1.14720000
-6.12930000 0.29380000 1.09540000
-6.09310000 0.37170000 0.88910000
-6.09330000 0.33850000 1.07770000
-6.08230000 0.40950000 0.97770000
-6.51700000 0.18590000 1.03920000
-6.46530000 0.26240000 1.03120000
-6.50640000 0.22550000 1.06830000
-6.50610000 0.18110000 1.22230000
-6.49530000 0.22850000 1.19920000
-6.47160000 0.25540000 1.13370000
-6.40260000 0.27270000 1.25890000
-6.40420000 0.27340000 1.07960000
-6.44990000 0.26130000 1.27610000
-6.26830000 0.27030000 1.38150000
-6.49000000 0.19870000 1.39490000
-6.48210000 0.23350000 1.32700000
-6.44510000 0.26860000 0.95020000
-5.68540000 -0.21600000 1.09720000
-5.67670000 -0.22310000 1.30320000
-5.71500000 -0.18510000 1.17370000
-5.71360000 -0.17590000 1.31760000
-5.70700000 -0.16490000 1.46200000
-5.69810000 -0.09020000 1.17750000
-5.70430000 -0.14910000 1.04440000
-5.66330000 0.25170000 1.69870000
-6.47760000 0.21820000 1.56740000
-6.46750000 0.17770000 1.75820000
-6.45630000 0.24920000 1.54110000
-6.14960000 0.27580000 1.44690000
-6.35210000 0.27260000 1.59670000
-6.16780000 0.26960000 2.01110000
-6.45300000 0.22770000 1.84690000
-6.44080000 0.25400000 1.67240000
-6.41210000 0.26790000 1.63090000
-6.40100000 0.26360000 1.89260000
-6.12000000 0.28060000 1.66960000
-6.10420000 0.28050000 1.93320000
-6.05900000 0.30650000 1.93280000
-6.04220000 0.35510000 1.76290000
-6.07380000 0.30720000 1.69900000
-6.02360000 0.35720000 2.02450000
-6.01000000 0.41160000 2.06350000
-6.34050000 0.27180000 2.09900000
-6.11970000 0.29250000 1.28900000
-6.07540000 0.35110000 1.29590000
-6.08800000 0.31390000 1.42820000
-6.05810000 0.34870000 1.58200000
-6.05110000 0.40120000 1.46770000
-6.07660000 0.38320000 1.17810000
-6.05820000 0.44320000 1.12500000
-6.01870000 0.47210000 1.07250000
-6.06190000 0.44700000 1.00670000
-6.00150000 0.47400000 1.23430000
-6.05010000 0.44380000 1.24470000
-5.97360000 0.48060000 1.04660000
-6.05820000 0.41910000 1.32280000
-6.01820000 0.46060000 1.41340000
-5.86190000 0.48600000 1.68210000
-6.44720000 0.25770000 1.41150000
-5.69490000 0.40910000 1.29640000
-5.68760000 0.42350000 1.58130000
-5.67620000 0.42230000 1.82270000
-5.70700000 0.46360000 1.68600000
-5.76220000 0.48330000 1.84680000
-5.75720000 0.48100000 1.55840000
-5.72050000 0.47600000 1.83470000
-5.78710000 0.48370000 1.11310000
-5.72270000 0.46580000 1.39470000
-5.72380000 0.45640000 1.08520000
-5.96780000 0.47470000 1.70310000
-6.02830000 0.42990000 1.68540000
-6.03580000 0.43200000 1.56300000
-6.01610000 0.43490000 1.82600000
-5.98710000 0.45460000 2.00210000
-5.67830000 -0.27810000 -1.60200000
-5.59560000 -0.29610000 -1.26780000
-5.65700000 -0.29640000 -1.93770000
-5.70300000 -0.26320000 -1.89590000
-5.71200000 -0.23420000 -1.60850000
-5.70730000 -0.20690000 -1.26220000
-5.71210000 -0.13180000 -1.23560000
-5.63380000 -0.28620000 -1.15820000
-5.68690000 -0.24750000 -1.17170000
-6.22150000 0.30760000 -1.34800000
-6.24580000 0.29070000 -1.52490000
-6.28390000 0.28120000 -1.39050000
-5.72980000 0.22170000 -1.29400000
-6.24090000 0.28890000 -1.19930000
-5.64830000 -0.27510000 -0.92510000
-5.69050000 -0.21830000 -0.89940000
-5.71290000 0.13930000 -0.59800000
-5.73360000 0.38080000 -0.94790000
-5.74450000 0.44350000 -0.67930000
-5.76290000 0.45530000 -1.14130000
-5.79360000 0.49010000 -0.80870000
-5.72910000 0.39760000 -0.18130000
-5.77390000 0.48170000 -0.52790000
-5.83490000 0.49820000 -0.82300000
-5.77870000 0.45470000 -2.04300000
-5.77850000 0.45630000 -1.83060000
-5.81720000 0.48130000 -2.04820000
-5.83080000 0.48590000 -1.83290000
-6.03820000 0.48870000 -1.31220000
-6.21990000 0.31440000 -1.78270000
-6.19990000 0.37070000 -1.79460000
-6.24330000 0.28910000 -1.71750000
-6.20500000 0.33740000 -1.62620000
-6.17680000 0.43160000 -1.57850000
-6.27600000 0.27710000 -1.57640000
-6.19990000 0.36310000 -1.49400000
-6.18180000 0.42590000 -1.82030000
-6.15520000 0.45700000 -1.67560000
-6.13950000 0.46300000 -1.37380000
-5.75490000 0.41290000 -1.64350000
-5.76120000 0.44110000 -1.43910000
-5.80110000 0.48230000 -1.48400000
-5.85740000 0.49570000 -1.26810000
-6.17360000 0.42320000 -1.28110000
-6.19240000 0.35220000 -1.21920000
-6.09560000 0.47990000 -1.22260000
-6.13410000 0.46120000 -1.06830000
-5.79880000 0.48510000 -1.12240000
-6.57640000 0.17480000 -0.38610000
-6.59120000 0.14240000 -0.76400000
-6.60890000 0.21820000 -1.53490000
-6.59980000 0.23750000 -1.37680000
-6.58590000 0.25620000 -1.44110000
-6.54100000 0.27660000 -1.42440000
-6.60510000 0.17060000 -1.16490000
-6.61050000 0.19630000 -1.32950000
-6.47000000 0.28180000 -1.17860000
-6.59230000 0.24000000 -1.22960000
-6.55530000 0.27320000 -1.27580000
-6.56090000 0.26470000 -1.17410000
-6.59000000 0.22130000 -1.06380000
-6.53470000 0.26970000 -1.06900000
-6.56920000 0.25440000 -0.95650000
-6.54100000 0.26540000 -0.82040000
-6.47030000 0.28170000 -0.76920000
-6.29280000 0.28170000 -0.73420000
-6.25310000 0.28510000 -0.75860000
-6.24740000 0.28710000 -1.01600000
-6.19700000 0.32450000 -0.84560000
-6.29680000 0.27690000 -1.18540000
-6.20060000 0.32530000 -1.09640000
-6.19250000 0.33860000 -0.97840000
-6.17500000 0.40690000 -1.07570000
-6.60040000 0.18610000 -0.90200000
-6.58540000 0.22060000 -0.81810000
-6.56430000 0.24800000 -0.68650000
-6.57890000 0.21490000 -0.57180000
-6.55160000 0.25010000 -0.31410000
-6.53520000 0.27110000 -0.57390000
-6.51110000 0.27550000 -0.21560000
-6.24570000 0.28290000 -0.28220000
-6.20160000 0.30490000 -0.43740000
-6.34760000 0.28460000 -0.33590000
-6.55090000 0.23420000 -0.06990000
-6.17450000 0.33920000 -0.44950000
-6.19610000 0.29860000 -0.16700000
-6.15430000 0.34670000 -0.10130000
-6.16150000 0.30930000 0.15170000
-6.13600000 0.38720000 0.05380000
-6.14000000 0.42020000 -0.21690000
-6.11500000 0.44670000 0.03870000
-6.46490000 0.28570000 -0.37120000
-6.42180000 0.27580000 0.27720000
-6.18470000 0.28950000 0.22420000
-6.21600000 0.30060000 -0.78150000
-6.17920000 0.35140000 -0.67080000
-6.21290000 0.30050000 -0.56780000
-6.16020000 0.41400000 -0.65280000
-6.16140000 0.42660000 -0.88900000
-6.13490000 0.45530000 -0.71690000
-6.13320000 0.45990000 -0.89250000
-6.06150000 0.48730000 -0.66980000
-5.92290000 0.49900000 -0.56310000
-6.10870000 0.47000000 -0.50580000
-6.11980000 0.45680000 -0.27710000
-6.04370000 0.48690000 -0.22900000
-5.81850000 0.49860000 -0.48170000
-5.83210000 0.49940000 -0.16380000
-5.74350000 0.44990000 -0.24640000
-5.78130000 0.48840000 -0.19080000
-6.07920000 0.47820000 -0.12180000
-6.03940000 0.48770000 0.02670000
-6.52320000 0.25810000 0.11350000
-6.48080000 0.27600000 0.11650000
-6.54760000 0.22480000 0.21970000
-6.50570000 0.25900000 0.33260000
-5.72070000 0.40220000 0.26210000
-5.73880000 0.44420000 -0.04670000
-5.74050000 0.45920000 0.35200000
-5.94030000 0.48710000 0.43690000
-5.78530000 0.48740000 0.32760000
-5.77120000 0.48410000 0.05540000
-6.12910000 0.36290000 0.22960000
-6.13870000 0.32190000 0.32600000
-6.12440000 0.35200000 0.42220000
-6.16670000 0.29150000 0.44200000
-6.13490000 0.31150000 0.54590000
-6.11100000 0.35590000 0.59420000
-6.09350000 0.42590000 0.60510000
-6.08250000 0.45180000 0.48620000
-6.07680000 0.47050000 0.18520000
-6.11330000 0.42810000 0.24760000
-6.02400000 0.47960000 0.39100000
-6.03880000 0.46940000 0.68480000
-5.71460000 0.42710000 0.73070000
-5.77130000 0.48030000 0.64370000
-5.74330000 0.46880000 0.82570000
-5.84710000 0.48510000 0.70580000
-6.07820000 0.43470000 0.79110000
-6.02760000 0.47050000 0.88480000
-6.28830000 -0.60680000 3.06400000
-6.33670000 -0.33570000 2.89720000
-6.44490000 0.18610000 2.07880000
-6.42400000 0.24700000 2.03150000
-6.43570000 0.22690000 2.10900000
-6.40400000 0.25640000 2.17330000
-6.34060000 0.27300000 2.27880000
-6.42560000 0.16980000 2.28380000
-6.42670000 0.22500000 2.23000000
-6.38120000 0.26170000 2.31530000
-6.41570000 0.22110000 2.35260000
-6.61540000 0.09160000 -4.88220000
-6.61720000 0.14750000 -4.68560000
-6.59710000 0.18500000 -4.91940000
-6.58520000 0.21770000 -4.71300000
-6.51710000 0.24380000 -4.73060000
-6.62980000 0.12830000 -4.34010000
-6.50930000 0.24770000 -4.47230000
-6.61920000 0.17010000 -4.54800000
-6.62000000 0.17930000 -4.34980000
-6.60550000 0.20390000 -4.40710000
-6.56480000 0.23470000 -4.45350000
-6.60250000 0.20840000 -4.50970000
-6.57040000 0.23210000 -4.57700000
-6.33480000 0.24810000 -4.22350000
-6.57100000 0.23430000 -4.31350000
-6.49730000 0.25240000 -4.21850000
-6.62400000 0.18080000 -4.13170000
-6.60160000 0.21820000 -4.23000000
-6.24810000 0.27690000 -4.10020000
-6.30650000 0.25240000 -3.96990000
-6.51710000 0.24980000 -4.01410000
-6.22340000 0.32470000 -3.97530000
-6.24970000 0.28070000 -3.90850000
-6.28080000 0.25680000 -4.23740000
-6.26540000 0.26450000 -4.35500000
-6.23480000 0.29380000 -4.25680000
-6.21930000 0.33470000 -4.35320000
-6.20740000 0.39190000 -4.09660000
-6.19100000 0.41990000 -4.22630000
-6.16640000 0.44420000 -3.99750000
-6.14260000 0.45660000 -4.19940000
-6.60390000 0.21480000 -3.97040000
-6.57570000 0.23510000 -4.11910000
-6.55430000 0.24680000 -3.87430000
-6.19230000 0.41770000 -4.40060000
-6.21430000 0.36680000 -3.77050000
-6.22420000 0.32560000 -3.63690000
-6.04850000 0.47540000 -3.74250000
-5.92560000 0.47050000 -3.91980000
-6.19600000 0.41840000 -3.88970000
-6.11560000 0.46760000 -3.77180000
-5.90000000 0.46550000 -3.79270000
-5.86870000 0.44560000 -3.73960000
-5.95190000 0.47950000 -3.69790000
-6.17060000 0.44300000 -3.67410000
-6.13480000 0.46480000 -3.50780000
-6.19930000 0.41400000 -3.56000000
-5.82790000 0.38180000 -3.54930000
-5.92470000 0.48200000 -3.33410000
-5.82590000 0.43080000 -3.32160000
-5.85420000 0.43980000 -3.55640000
-5.87810000 0.47290000 -3.35290000
-5.90370000 0.47280000 -3.60170000
-6.18750000 0.43540000 -3.35000000
-6.16400000 0.45450000 -3.25150000
-5.83840000 0.46220000 -3.18520000
-5.06920000 -0.93610000 2.38430000
-5.06890000 -0.94720000 2.94980000
-5.10310000 -0.95130000 2.53620000
-5.04700000 -0.92880000 2.58520000
-4.98920000 -0.88600000 2.67690000
-5.01160000 -0.91870000 2.88500000
-4.99140000 -0.88230000 2.45340000
-5.00940000 -0.87990000 2.15500000
-4.89090000 -0.85740000 2.31610000
-4.93430000 -0.86180000 2.63050000
-5.74400000 -0.92250000 4.09250000
-5.13230000 -0.95250000 3.63320000
-5.00930000 -0.93750000 3.29840000
-4.96440000 -0.89700000 3.15550000
-4.93390000 -0.86670000 2.97170000
-4.80300000 -0.84620000 3.28320000
-4.87770000 -0.85700000 3.35580000
-5.01780000 -0.94300000 3.59510000
-4.98340000 -0.94290000 4.02050000
-4.96180000 -0.91920000 3.53400000
-4.88440000 -0.86830000 3.65390000
-4.91160000 -0.91320000 4.01060000
-5.34130000 -0.21610000 3.56960000
-5.32140000 -0.16020000 3.83250000
-5.28400000 -0.24050000 3.66300000
-5.28790000 -0.21660000 3.82520000
-4.98240000 -0.94730000 4.77470000
-4.91870000 -0.93670000 4.39330000
-4.85280000 -0.92920000 4.66150000
-4.82070000 -0.93660000 4.95890000
-4.79420000 -0.85990000 4.43540000
-4.84650000 -0.90850000 4.48730000
-4.85850000 -0.86920000 4.00620000
-4.76310000 -0.84270000 4.17080000
-4.77700000 -0.87450000 4.66860000
-4.67560000 -0.83870000 4.79890000
-3.94380000 -0.83380000 5.71320000
-4.63510000 -0.89000000 5.45540000
-4.72150000 -0.92200000 5.20190000
-4.58090000 -0.85210000 5.47940000
-4.75510000 -0.90170000 4.91580000
-4.68600000 -0.85460000 4.96160000
-4.49310000 -0.83000000 5.46930000
-4.81840000 -0.25600000 3.52210000
-5.20290000 -0.24980000 3.81410000
-5.06420000 -0.24550000 4.33030000
-5.19840000 -0.23460000 4.06640000
-5.26990000 -0.20220000 4.00810000
-5.28830000 -0.25610000 3.33400000
-3.82910000 -0.25110000 5.48280000
-3.14470000 -0.25320000 3.99790000
-2.31140000 -0.25920000 5.82550000
-5.35020000 -0.96590000 5.83890000
-5.24230000 -0.96570000 6.00200000
-5.28580000 -1.00680000 6.07270000
-5.40280000 -0.97820000 5.87160000
-5.32000000 -1.01700000 6.16540000
-5.45110000 -0.98090000 5.97070000
-5.41780000 -1.00660000 6.19480000
-5.46850000 -0.97810000 6.19360000
-5.53810000 -0.93690000 5.95460000
-5.56160000 -0.90390000 6.10420000
-5.52790000 -0.87180000 6.31370000
-5.95050000 -0.83460000 4.63240000
-6.11680000 -0.82320000 3.59110000
-5.97120000 -0.86730000 4.12340000
-6.05910000 -0.76490000 4.36890000
-5.84500000 -0.89690000 4.41660000
-6.15930000 -0.76360000 3.68780000
-6.16320000 -0.70220000 3.87350000
-6.18870000 -0.42250000 4.04840000
-6.28370000 -0.01520000 3.55950000
-6.09650000 -0.67180000 4.39190000
-5.63320000 -0.90650000 5.45880000
-5.50770000 -0.92130000 5.08770000
-5.79730000 -0.86100000 5.28880000
-5.75860000 -0.83570000 5.65270000
-5.93190000 -0.79550000 4.99790000
-5.85040000 -0.75570000 5.55380000
-5.98290000 -0.72240000 4.95950000
-6.07230000 -0.53860000 4.74810000
-5.94130000 -0.64200000 5.32640000
-5.96420000 -0.49100000 5.38310000
-6.06180000 -0.30890000 4.94900000
-4.69550000 -0.93900000 5.88310000
-4.72960000 -0.93760000 5.49140000
-4.63840000 -0.91730000 5.58600000
-5.42570000 -0.92630000 5.65090000
-5.10590000 -0.92300000 5.95730000
-5.28330000 -0.93360000 5.79180000
-4.54360000 -0.92410000 6.88760000
-5.15700000 -0.93150000 6.03660000
-5.52070000 -0.92970000 5.72810000
-5.66790000 -0.89190000 5.65580000
-5.72410000 -0.79910000 5.92440000
-5.73220000 -0.72920000 6.05550000
-5.86120000 -0.60400000 5.74130000
-5.58750000 -0.77750000 6.39090000
-5.57850000 -0.69000000 6.54130000
-5.77110000 -0.56950000 6.11420000
-5.89150000 -0.39020000 5.77430000
-5.94470000 -0.16840000 5.59700000
-5.72690000 -0.37020000 6.36020000
-5.82060000 -0.04600000 6.14090000
-5.25670000 -0.03130000 4.30010000
-5.33230000 0.17210000 3.92180000
-5.20920000 -0.21270000 4.24510000
-5.27100000 -0.14790000 4.15530000
-5.12980000 -0.21980000 4.58670000
-5.19190000 -0.18810000 4.52480000
-5.23800000 -0.16500000 4.32310000
-5.21620000 -0.12080000 4.53810000
-5.17370000 -0.19050000 4.71090000
-5.20200000 0.04270000 4.75790000
-5.20610000 0.32310000 4.75710000
-6.11490000 0.08600000 4.82480000
-6.19110000 0.13990000 4.34210000
-6.16040000 0.18210000 4.61630000
-6.14230000 0.23510000 4.59820000
-6.13270000 0.15210000 4.78760000
-6.11870000 0.22430000 4.79280000
-5.71430000 0.32000000 4.77670000
-5.78120000 0.28820000 4.71250000
-5.74080000 0.28770000 4.95940000
-5.90090000 0.27940000 4.34060000
-6.01610000 0.27500000 4.81240000
-5.82570000 0.27740000 5.38330000
-6.05790000 0.16570000 5.20580000
-6.10310000 0.18840000 4.96050000
-6.04600000 0.23670000 5.14190000
-6.06440000 0.24930000 4.96830000
-6.10620000 0.26150000 4.60760000
-5.03140000 -0.22170000 5.01180000
-4.66670000 -0.23790000 5.72030000
