31.36540000 -124.90920000 50.73220000
32.33360000 -100.13940000 35.80800000
32.52570000 -71.46980000 49.11710000
32.45170000 -86.03030000 37.22260000
31.92630000 -79.39600000 32.04240000
31.93970000 -91.96900000 23.27030000
31.94110000 -124.23700000 49.48030000
30.24600000 -125.23930000 45.82980000
31.33850000 -124.91490000 46.84870000
32.12890000 -123.64330000 46.13300000
31.60740000 -124.60670000 43.75090000
32.23610000 -122.98940000 42.17850000
30.89100000 -125.04500000 41.50600000
29.85540000 -125.17860000 37.86810000
31.99920000 -123.93600000 40.51290000
17.60780000 -125.11810000 29.39820000
32.14610000 -122.15350000 29.71430000
31.36490000 -124.75690000 39.17130000
31.91170000 -124.00300000 35.78660000
30.75950000 -125.03110000 37.26250000
31.33020000 -124.70910000 34.20980000
30.53490000 -125.04300000 32.78490000
29.90760000 -125.09440000 27.24910000
32.07120000 -122.89280000 30.17540000
31.81830000 -123.97700000 30.84770000
31.21760000 -124.66090000 28.68920000
32.18010000 -113.16600000 22.73210000
32.14120000 -108.26200000 22.91170000
-3.52500000 -106.75940000 58.45260000
-1.80240000 -105.18270000 55.89870000
-3.21000000 -107.33390000 56.90370000
-3.57780000 -107.96370000 54.97990000
-6.59980000 -108.49480000 53.87440000
-2.42100000 -106.89130000 56.04490000
-2.15030000 -107.27210000 51.62470000
-2.70450000 -107.76330000 53.53230000
-3.10420000 -108.30100000 50.17690000
-1.60400000 -106.52190000 47.37510000
0.58560000 -124.91200000 42.91610000
-9.93740000 -124.77700000 43.02340000
-0.62930000 -124.87010000 21.96680000
-26.11990000 -124.63270000 42.09830000
-5.44490000 -108.66630000 49.18590000
-11.71540000 -108.89970000 38.74790000
-3.31470000 -108.57820000 43.62470000
-2.10300000 -107.78710000 46.95820000
-2.45290000 -108.28240000 44.91720000
-3.39590000 -108.57150000 36.55320000
-1.30540000 -106.22850000 41.38120000
-1.80050000 -107.70240000 40.28690000
-0.89940000 -103.92830000 34.50000000
-2.37260000 -108.29690000 36.54770000
-0.21990000 -93.87110000 35.18230000
-1.29380000 -106.89780000 33.44290000
-0.52870000 -98.79100000 12.52920000
-1.80690000 -107.96450000 32.14570000
-1.59370000 -107.70040000 27.66630000
-2.46430000 -108.41060000 26.95940000
-4.27480000 -108.62380000 25.56720000
-1.24030000 -107.04730000 25.77520000
-0.99530000 -105.75030000 18.06250000
-2.15660000 -108.27280000 23.28270000
-1.59010000 -107.75600000 22.18340000
-1.33100000 -107.19880000 18.55960000
0.06760000 -79.88110000 14.98170000
25.08970000 -125.07380000 17.55420000
31.66850000 -124.09110000 25.97790000
31.02490000 -124.77160000 24.92470000
30.40910000 -124.99260000 22.92900000
21.31390000 -124.96660000 -1.99810000
32.18110000 -100.90990000 17.41900000
32.03330000 -109.80600000 2.11960000
31.95700000 -123.11360000 24.11760000
31.50090000 -124.32180000 22.30300000
31.71440000 -123.92490000 20.60420000
31.01460000 -124.71990000 20.39580000
31.94140000 -123.08120000 18.61910000
29.94300000 -125.03620000 19.85680000
31.08900000 -124.63250000 18.71820000
29.30330000 -124.97630000 16.53170000
30.42000000 -124.87710000 16.78000000
31.63380000 -123.97180000 16.85680000
31.13740000 -124.48550000 15.78160000
31.78670000 -123.25710000 11.21410000
31.39750000 -123.99600000 13.02020000
30.35280000 -124.59340000 13.52760000
28.18160000 -124.79990000 13.37480000
30.65850000 -124.20670000 10.88440000
31.87210000 -122.60480000 5.05970000
28.31950000 -124.87160000 10.09150000
30.29460000 -124.68770000 8.23560000
31.07910000 -124.38530000 7.22650000
31.58430000 -123.77910000 6.27970000
28.98980000 -124.90940000 -2.70080000
32.01490000 -102.54260000 -3.28890000
31.54700000 -95.20290000 9.89060000
31.99950000 -113.01300000 -13.05960000
-2.28490000 -124.76580000 -13.02740000
31.22220000 -93.29710000 -3.05700000
32.49970000 -63.37920000 41.71490000
31.68990000 -53.54410000 31.95810000
32.36280000 -39.52170000 37.32960000
31.28940000 -66.84420000 27.74370000
32.19090000 -12.44270000 29.01800000
31.46880000 -26.75790000 21.11650000
30.45730000 -47.05040000 14.80940000
30.27510000 -69.91120000 12.44520000
30.04270000 -58.90570000 6.63070000
30.33520000 -35.74400000 4.49190000
31.26670000 -14.03820000 9.60990000
30.78900000 -81.49590000 15.72900000
30.38820000 -82.15070000 4.02950000
30.07250000 -74.40510000 0.36820000
29.99480000 -58.58260000 -5.47110000
30.46810000 -83.04860000 -6.42850000
31.60390000 -93.21040000 -17.76460000
30.37030000 -70.96450000 -15.24650000
31.66560000 -85.27660000 -26.69380000
30.25440000 -37.76570000 -3.91200000
30.27050000 -54.42650000 -16.74750000
30.84490000 -23.98110000 -12.25900000
31.25580000 -33.49060000 -27.89540000
30.83540000 -59.14910000 -26.62610000
30.01110000 -124.84310000 5.33650000
30.98240000 -124.45700000 4.82860000
31.61240000 -123.62740000 2.33070000
30.58340000 -124.60970000 1.97320000
31.69280000 -123.12940000 -2.51730000
31.09170000 -124.25370000 -0.74580000
31.16550000 -124.05440000 -5.01080000
30.33780000 -124.59560000 -6.04510000
31.76440000 -121.98010000 -13.76650000
31.41920000 -123.52750000 -8.51990000
30.89570000 -124.16430000 -10.96640000
31.62430000 -122.92900000 -14.09490000
23.26410000 -125.03990000 -25.79480000
29.82200000 -124.67840000 -13.69210000
31.32480000 -123.66740000 -14.07490000
32.34720000 -103.64910000 -19.96060000
30.50740000 -124.38550000 -16.49670000
31.14960000 -123.80410000 -18.36430000
31.53770000 -122.98020000 -21.40240000
29.67160000 -124.69860000 -24.46240000
27.92160000 -125.02670000 -29.58070000
30.79260000 -124.08170000 -23.47830000
32.07420000 -112.40970000 -22.76430000
32.07010000 -119.89710000 -27.26030000
32.41290000 -115.91160000 -29.68210000
32.53380000 -107.32550000 -30.85480000
32.57730000 -95.67600000 -33.36450000
-28.13960000 -124.76800000 48.52430000
-30.11950000 -123.64170000 47.28010000
-29.29430000 -124.50400000 47.77700000
-28.75020000 -124.66850000 46.13740000
-25.34830000 -124.57930000 33.55950000
-29.45060000 -124.40760000 45.48940000
-30.33790000 -123.19180000 45.45050000
-30.54580000 -122.23610000 43.24180000
-28.71220000 -124.62800000 43.26640000
-29.84540000 -124.07670000 43.33990000
-30.29340000 -123.43710000 41.99850000
-28.61790000 -124.65850000 40.74520000
-29.80580000 -124.19950000 39.73180000
-30.66390000 -119.42150000 31.55770000
-30.49900000 -122.90220000 38.49310000
-28.78310000 -124.63960000 37.93180000
-30.14050000 -123.76220000 37.90130000
-29.38940000 -124.47440000 35.80130000
-30.67810000 -121.97390000 33.14250000
-30.18180000 -123.79540000 35.19620000
-30.57650000 -122.89180000 34.40250000
-28.82370000 -124.62640000 34.09750000
-29.43960000 -124.46330000 33.40160000
-28.00060000 -124.60530000 30.97910000
-22.05750000 -109.05580000 35.48260000
-30.43480000 -111.37550000 33.90280000
-27.83860000 -109.26340000 33.99420000
-29.48980000 -109.56030000 41.13300000
-29.05890000 -109.48640000 35.27200000
-29.99170000 -110.24810000 36.32290000
-26.58160000 -109.10110000 28.10580000
-21.46800000 -108.86480000 -0.29270000
-20.29500000 -124.64870000 22.32080000
-30.21760000 -123.79130000 32.47150000
-30.52200000 -123.28760000 30.68820000
-29.23150000 -124.53460000 31.03330000
-29.82480000 -124.24820000 30.31390000
-30.40640000 -123.57330000 28.49980000
-30.68340000 -122.67690000 26.90740000
-29.76360000 -109.96520000 31.29490000
-30.56000000 -111.36850000 28.46550000
-30.28260000 -110.51210000 29.47370000
-30.55030000 -111.97570000 23.82900000
-28.76320000 -109.41340000 29.34290000
-29.73370000 -109.78830000 28.35390000
-29.27380000 -109.46220000 26.01140000
-30.26310000 -110.43940000 26.04290000
-28.16220000 -109.14460000 21.73610000
-29.72270000 -109.83390000 22.30900000
-29.10530000 -109.33240000 20.58530000
-29.11120000 -124.61690000 28.43300000
-28.08820000 -124.64010000 24.96920000
-29.83740000 -124.31020000 27.64520000
-29.02250000 -124.60340000 25.68840000
-26.95280000 -124.58040000 16.26500000
-30.23700000 -123.89260000 24.76950000
-30.75330000 -122.64920000 22.57620000
-29.30290000 -124.54120000 22.58340000
-30.13970000 -124.05000000 21.23630000
-29.05610000 -124.59200000 19.15990000
-30.73130000 -111.88480000 16.47760000
-30.49950000 -110.81290000 19.38420000
-29.97920000 -109.74990000 19.30780000
-30.83550000 -122.53870000 17.29940000
-30.63910000 -123.34200000 18.53500000
-29.85320000 -124.32390000 18.20960000
-30.90770000 -122.14240000 10.15710000
-30.88660000 -117.60000000 9.12690000
-30.27210000 -110.05260000 17.20000000
-30.55970000 -112.58870000 11.50730000
-28.73740000 -124.65090000 16.62620000
-30.41080000 -123.84160000 16.23340000
-29.67370000 -124.45590000 15.34670000
-28.38550000 -124.61180000 12.60350000
-29.13710000 -124.59410000 12.85580000
-30.35040000 -123.88530000 12.89510000
-26.19290000 -124.54740000 1.34900000
-30.08680000 -124.16580000 10.54490000
-30.62470000 -123.49880000 9.47750000
-29.53840000 -124.48120000 9.08800000
-30.09650000 -124.22520000 7.20290000
-30.71450000 -123.37800000 6.55640000
-30.79350000 -113.56430000 8.33800000
-12.46210000 -108.98380000 18.90210000
-3.10750000 -108.54300000 20.54900000
-2.30540000 -108.36470000 20.07860000
-1.77170000 -107.82500000 15.29540000
-2.83440000 -108.36950000 14.57270000
-29.05680000 -109.23700000 15.51460000
-27.94430000 -109.05350000 10.85030000
-29.93770000 -109.69110000 13.97390000
-30.54170000 -110.68260000 14.21780000
-29.50750000 -109.52980000 11.77800000
-30.02850000 -110.46810000 10.55090000
-28.96230000 -109.23160000 8.72090000
-29.98580000 -109.79720000 6.57180000
-30.28930000 -111.06010000 8.03840000
-28.07940000 -108.98840000 2.52220000
-29.35110000 -109.20290000 4.49310000
-29.37310000 -124.51680000 6.25120000
-29.43020000 -124.49380000 4.11500000
-1.25500000 -106.83730000 11.15520000
-2.39390000 -108.14920000 11.60330000
-1.76880000 -107.66490000 10.82950000
-3.53380000 -108.33870000 8.26680000
-2.52540000 -108.14740000 8.07860000
-1.21570000 -106.41050000 1.53460000
-1.79530000 -107.60120000 6.48150000
-5.16880000 -108.36890000 3.08490000
-2.65250000 -108.05500000 3.80660000
-1.63860000 -107.29770000 1.57450000
-3.25710000 -108.10800000 -1.31390000
-2.09240000 -107.66400000 -2.66360000
-0.32980000 -88.98860000 -2.22420000
-1.18040000 -105.89430000 -7.57690000
-2.95450000 -107.95560000 -6.24950000
-0.33090000 -90.78410000 -18.16690000
-1.67320000 -107.17010000 -6.40100000
-12.14860000 -108.45210000 -17.65780000
-2.27230000 -107.64150000 -8.32090000
-5.80060000 -107.82040000 -21.94700000
-1.63890000 -106.97430000 -11.57560000
-2.50720000 -107.70190000 -11.26730000
-1.21160000 -105.77610000 -16.14900000
-2.12590000 -107.35430000 -15.01860000
-3.33660000 -107.57560000 -21.04170000
-0.99480000 -103.00720000 -22.81010000
-1.58890000 -106.74360000 -16.06120000
-2.39920000 -107.34610000 -18.86340000
-1.59220000 -106.50940000 -19.92520000
-1.42570000 -105.29420000 -30.12420000
-2.34480000 -107.11710000 -23.86340000
-1.66720000 -106.35150000 -24.50050000
-30.97850000 -112.27130000 0.38830000
-30.60700000 -110.44900000 4.50640000
-31.09620000 -114.49310000 -7.49730000
-30.84420000 -111.01630000 2.20620000
-30.11510000 -109.62000000 2.33500000
-29.51540000 -109.21360000 0.67630000
-30.74880000 -110.50430000 -0.80640000
-30.20450000 -109.57810000 -2.00660000
-30.24980000 -124.10470000 5.00560000
-30.94270000 -122.48270000 4.55370000
-30.68190000 -123.40530000 2.75320000
-29.91030000 -124.24150000 1.61640000
-31.03370000 -121.81780000 -0.18620000
-28.80830000 -124.48110000 -1.69950000
-30.46260000 -123.81000000 -0.45420000
-30.79450000 -123.33100000 -1.81890000
-29.83170000 -124.31230000 -3.34120000
-31.05500000 -122.64210000 -5.07110000
-30.65440000 -123.60600000 -4.03880000
-31.24060000 -121.45830000 -11.88020000
-29.74250000 -124.32020000 -6.33690000
-30.58700000 -123.75060000 -7.59030000
-29.23710000 -124.37370000 -10.87560000
-27.09140000 -124.43830000 -16.18740000
-31.07850000 -122.81720000 -11.20190000
-30.52210000 -123.83790000 -11.16970000
-30.94610000 -123.38140000 -13.95390000
-30.16230000 -124.13730000 -13.44190000
-31.27380000 -122.72680000 -16.67430000
-29.14730000 -124.39780000 -14.88720000
-30.21370000 -124.15170000 -16.33320000
-30.85330000 -123.72500000 -17.19330000
-29.53800000 -124.36570000 -19.74830000
-30.53400000 -124.01430000 -18.82590000
-30.74310000 -110.29250000 -5.51560000
-31.13760000 -111.36580000 -15.02260000
-28.52260000 -108.92270000 -5.12120000
-29.45580000 -109.09930000 -3.90070000
-30.25680000 -109.53200000 -7.27910000
-29.69440000 -109.09910000 -10.55490000
-25.83890000 -108.59680000 -24.91240000
-28.79080000 -108.83600000 -14.21420000
-30.77600000 -110.14140000 -12.99120000
-30.57700000 -109.68520000 -16.22130000
-28.09860000 -108.69760000 -19.48560000
-30.00210000 -109.12850000 -17.84530000
-29.48450000 -108.84100000 -20.84460000
-31.02570000 -110.42740000 -20.53490000
-30.54770000 -109.51840000 -21.58650000
-9.23970000 -124.67550000 -23.61380000
-31.47100000 -122.13000000 -22.34270000
-31.14450000 -123.29680000 -19.61190000
-30.47530000 -124.04180000 -21.80100000
-29.36770000 -124.33530000 -24.94450000
-24.74530000 -124.50080000 -40.63870000
-16.69030000 -124.55940000 -32.38520000
-31.52250000 -116.52880000 -32.16560000
-31.05820000 -123.52490000 -23.06230000
-31.44540000 -122.97500000 -26.25350000
-30.76210000 -123.93860000 -26.44040000
-31.69370000 -121.96720000 -32.37780000
-30.88990000 -110.01600000 -24.20460000
-29.83390000 -108.90200000 -24.29490000
-30.36050000 -109.22220000 -26.28420000
-30.96620000 -110.15770000 -27.08600000
-31.38160000 -111.31610000 -41.72910000
-30.90110000 -109.93640000 -29.91040000
-29.85970000 -124.25750000 -28.98870000
-31.40210000 -123.17460000 -29.19970000
-30.77480000 -123.94130000 -30.15330000
-31.31170000 -123.47670000 -31.86520000
-30.26950000 -124.18640000 -32.92660000
-29.00280000 -124.32230000 -35.24580000
-31.51490000 -123.14800000 -34.77820000
-30.94560000 -123.86660000 -34.02130000
-30.20880000 -124.18100000 -37.01580000
-31.77280000 -122.06390000 -40.36410000
-29.28910000 -108.71810000 -26.59670000
-30.26910000 -109.12330000 -27.82370000
-29.41300000 -108.73030000 -30.08480000
-30.48740000 -109.26610000 -32.97310000
-29.89040000 -108.75710000 -35.83620000
-31.10960000 -110.14130000 -37.92580000
-28.72860000 -108.35840000 -42.90190000
-21.62110000 -108.09240000 -43.09150000
-29.58720000 -108.58140000 -40.70330000
-30.53310000 -109.08070000 -41.16620000
-30.02020000 -108.64160000 -44.44210000
-31.06880000 -109.82920000 -45.29150000
0.13170000 -53.14700000 5.76950000
0.22970000 -11.89430000 10.72320000
0.22640000 -13.60110000 1.53880000
-0.02440000 -73.47140000 -9.10150000
0.10050000 -35.28620000 -16.65750000
-1.35560000 -101.72050000 -41.69520000
-0.24580000 -83.80500000 -33.72170000
32.03130000 -52.04190000 -41.15980000
-0.27650000 -36.12740000 -29.76520000
-0.39270000 -64.24450000 -42.07690000
-1.06310000 -43.75280000 -52.32510000
-14.10910000 -65.94250000 -61.93450000
-6.45290000 -47.74000000 -61.04190000
-19.87510000 -40.16110000 -61.81680000
7.78410000 -124.92970000 -26.48990000
31.37960000 -122.97780000 -29.25370000
31.85160000 -121.77470000 -30.18620000
30.64110000 -123.99610000 -30.89090000
32.34140000 -120.48610000 -39.12840000
30.14150000 -124.41830000 -38.52580000
28.91780000 -124.92820000 -38.20400000
31.33610000 -123.21800000 -39.58310000
32.05420000 -121.96560000 -43.14280000
32.49070000 -118.05290000 -46.58170000
2.39100000 -124.80300000 -29.27350000
3.30030000 -124.93560000 -33.80670000
-2.11250000 -106.75850000 -29.55880000
-3.27990000 -107.31630000 -30.19410000
-1.91230000 -106.09720000 -35.90480000
-2.44530000 -106.90320000 -33.16510000
15.87030000 -125.05410000 -62.37200000
1.88500000 -124.86780000 -39.77280000
-0.46450000 -124.73720000 -35.73610000
31.01330000 -123.68890000 -45.81010000
29.15390000 -124.86140000 -47.25010000
30.18440000 -124.38630000 -47.43000000
32.21520000 -121.99900000 -52.86820000
31.41180000 -123.39890000 -52.66770000
30.42420000 -124.28420000 -56.68760000
32.47850000 -120.28990000 -56.23220000
28.42400000 -125.01800000 -54.89990000
31.93020000 -122.79380000 -58.90250000
25.52230000 -125.17330000 -66.12400000
31.45560000 -123.42520000 -61.39930000
32.21200000 -121.22380000 -63.88790000
29.65690000 -124.60080000 -61.07790000
27.36940000 -125.11950000 -63.63720000
30.28140000 -123.87390000 -64.20740000
31.79150000 -122.55230000 -64.58940000
30.42010000 -123.58100000 -67.72420000
28.02050000 -124.83000000 -67.58850000
28.51160000 -124.48870000 -72.33710000
26.91000000 -125.08290000 -73.54320000
-11.67470000 -124.65060000 -39.17470000
-3.66320000 -107.06420000 -37.23550000
-1.62220000 -104.88530000 -39.66090000
-2.57900000 -106.61590000 -38.54460000
-1.88350000 -105.70250000 -39.82250000
-3.18800000 -106.70740000 -42.02140000
-2.42110000 -106.31880000 -41.84160000
-2.03700000 -105.72350000 -42.82310000
-5.06570000 -106.91590000 -44.56600000
-2.54000000 -106.13610000 -44.87980000
-3.43890000 -106.54140000 -46.04780000
-11.79510000 -107.66620000 -42.25370000
-15.01980000 -107.33800000 -49.76940000
-22.54900000 -124.47700000 -61.94030000
-31.01120000 -123.82620000 -38.46960000
-28.85130000 -124.38740000 -42.26390000
-31.63910000 -122.94950000 -39.18030000
-29.93910000 -124.27480000 -41.50120000
-31.15450000 -123.73770000 -41.31550000
-31.53790000 -123.19070000 -44.32330000
-31.79010000 -121.71940000 -46.82190000
-30.85070000 -123.95130000 -45.02310000
-29.82860000 -124.29720000 -46.31850000
-31.01690000 -123.83780000 -47.56230000
-31.63680000 -122.93160000 -48.10870000
-31.66410000 -116.51350000 -52.77310000
-28.41720000 -124.42580000 -54.37020000
-30.06090000 -124.28510000 -49.59040000
-8.22740000 -106.43250000 -52.47370000
-14.77760000 -106.79740000 -54.10270000
-30.07890000 -108.37420000 -49.61620000
-30.86190000 -109.05640000 -50.29470000
-28.59310000 -107.98220000 -51.08230000
-25.69360000 -107.44770000 -54.10230000
-24.05430000 -106.77850000 -56.18870000
-16.55000000 -106.21270000 -56.37140000
-11.68740000 -124.73210000 -70.18010000
18.85250000 -125.13100000 -74.29680000
25.69860000 -124.89480000 -75.51160000
18.77880000 -124.86330000 -75.77440000
17.26320000 -123.59550000 -78.00190000
22.29340000 -124.04600000 -77.24160000
14.59160000 -124.42300000 -76.81900000
7.43740000 -124.98180000 -75.33350000
0.16590000 -124.94690000 -74.58140000
6.39370000 -124.52270000 -76.73310000
10.02720000 -123.65550000 -78.06140000
0.08880000 -124.77810000 -75.89270000
1.34580000 -123.75250000 -77.88430000
-14.53030000 -124.70830000 -74.49670000
-11.95550000 -124.65740000 -75.65620000
-6.55180000 -124.22220000 -77.02800000
-5.74950000 -123.04410000 -78.33080000
-1.35290000 -122.30670000 -78.84230000
-2.52170000 -119.61420000 -79.88360000
3.40850000 -121.39340000 -79.27600000
-5.43120000 -120.53320000 -79.34100000
-11.74310000 -123.46390000 -77.89300000
-12.20290000 -122.44990000 -78.46290000
-8.24920000 -120.86590000 -78.90460000
-5.36050000 -118.27420000 -79.86050000
-8.47710000 -118.76490000 -79.09770000
4.68930000 -123.16030000 -78.44750000
10.09360000 -122.20860000 -79.08330000
32.62210000 -109.29850000 -46.62530000
32.72470000 -77.52360000 -46.16890000
32.05490000 -71.28620000 -38.32680000
32.75130000 -94.97230000 -57.13500000
32.64600000 -63.58400000 -46.57880000
32.58430000 -50.07890000 -50.52960000
32.43350000 -38.81570000 -45.76270000
32.72430000 -47.92920000 -61.87180000
32.62730000 -116.77270000 -60.58090000
32.49200000 -118.12610000 -69.80070000
32.68780000 -105.97670000 -72.51280000
32.72120000 -82.20180000 -77.14200000
32.44720000 -119.38970000 -66.24030000
31.06130000 -122.93450000 -69.05940000
31.89330000 -120.58200000 -69.51240000
31.93940000 -121.67410000 -71.58650000
31.29670000 -123.02070000 -71.83420000
30.27820000 -123.55840000 -72.67540000
32.51570000 -111.50490000 -77.04390000
31.72920000 -123.15690000 -74.29440000
32.20720000 -122.54270000 -74.78200000
29.24920000 -123.43940000 -74.67160000
30.78460000 -123.18820000 -74.69030000
27.79140000 -124.62250000 -74.79030000
31.95040000 -122.99710000 -75.92010000
30.06070000 -122.20370000 -76.26360000
31.07200000 -122.71400000 -76.60400000
28.18350000 -123.66380000 -76.36820000
29.17930000 -122.69360000 -75.88200000
29.29220000 -122.27490000 -77.57220000
32.24250000 -121.82010000 -76.55810000
32.21070000 -118.72070000 -78.23220000
31.32050000 -121.90180000 -77.98240000
31.76330000 -120.58730000 -78.68250000
30.44210000 -121.90480000 -77.38380000
29.93350000 -121.47400000 -79.47220000
30.85750000 -120.28360000 -79.98510000
32.40030000 -110.54130000 -78.83110000
31.91520000 -117.34500000 -79.59910000
32.06950000 -103.46290000 -79.72760000
31.07200000 -117.21320000 -80.29510000
31.14750000 -106.82080000 -80.41040000
32.51760000 -90.97590000 -78.84280000
31.11360000 -80.36460000 -80.24560000
32.59100000 -25.22390000 -68.91290000
32.25500000 -37.10490000 -78.28510000
32.50040000 -67.11290000 -78.71150000
32.00490000 -71.97110000 -79.62190000
-0.70430000 -90.31290000 -43.72130000
-1.92560000 -105.25770000 -44.52010000
-1.93700000 -104.44870000 -48.38120000
-2.36040000 -105.71640000 -47.29080000
-1.92480000 -103.31290000 -53.15080000
-1.50570000 -96.12520000 -53.23010000
-3.42040000 -106.14210000 -49.35370000
-0.74470000 -81.43480000 -51.03930000
-1.60640000 -91.99900000 -57.84630000
-1.23900000 -81.84800000 -58.97660000
-1.50200000 -79.05840000 -60.07460000
-1.82100000 -91.43880000 -59.53580000
-1.18370000 -67.65550000 -58.82920000
-2.27430000 -61.75460000 -60.55590000
-2.17170000 -86.15870000 -60.70770000
-2.63550000 -105.57810000 -50.17310000
-2.22110000 -104.65580000 -52.97750000
-3.09960000 -105.41240000 -53.09090000
-7.57810000 -105.83780000 -54.83190000
-3.65500000 -105.32610000 -54.41050000
-7.15300000 -105.07480000 -56.57680000
-2.48700000 -104.43130000 -55.19480000
-2.09960000 -103.35690000 -55.68810000
-3.05880000 -104.36300000 -56.11880000
-2.17480000 -100.98410000 -58.14780000
-2.67760000 -103.29550000 -57.33580000
-4.26530000 -103.46950000 -58.09580000
-2.60110000 -102.07720000 -58.49220000
-3.71140000 -101.61430000 -59.51840000
-2.46520000 -97.37950000 -60.17120000
-3.26810000 -99.75870000 -60.20630000
-25.00230000 -105.81340000 -58.19650000
-15.21710000 -104.49760000 -59.14350000
-20.00590000 -104.41120000 -59.94820000
-24.89620000 -104.62560000 -59.79950000
-19.64420000 -102.99670000 -61.10710000
-16.11800000 -97.73940000 -62.60660000
-20.35030000 -100.62120000 -62.18300000
-16.44880000 -100.03990000 -62.21220000
-12.66800000 -94.02370000 -62.56850000
-21.49570000 -91.31010000 -62.99210000
-22.15280000 -97.56960000 -62.79860000
-17.17270000 -87.94170000 -62.79290000
-3.22760000 -53.10180000 -60.76120000
-11.45030000 -85.21780000 -62.25090000
-4.94710000 -87.17740000 -61.54250000
-23.26230000 -71.17680000 -62.58230000
-24.00050000 -84.17100000 -62.74590000
-6.99110000 -103.53380000 -58.79730000
-6.15570000 -101.76380000 -60.11690000
-12.42120000 -102.95180000 -60.39180000
-9.63790000 -101.15220000 -61.06140000
-5.44620000 -99.45820000 -60.95810000
-3.24580000 -95.52140000 -61.01820000
-4.98740000 -96.12210000 -61.49350000
-11.32160000 -99.61790000 -61.84730000
-8.14250000 -96.75470000 -61.98720000
-16.20240000 -101.78560000 -61.58030000
-2.97610000 -86.73120000 -61.19210000
-1.07040000 -92.29130000 -79.95970000
-8.89090000 -92.94670000 -79.71370000
-6.01480000 -90.89770000 -79.55620000
-10.44920000 -88.42280000 -79.80410000
-11.51520000 -85.75680000 -79.90980000
-4.01610000 -86.31900000 -80.03100000
-6.26970000 -89.30050000 -79.54080000
1.73130000 -84.65960000 -80.04820000
-9.87900000 -82.18830000 -79.95840000
1.97020000 -80.32320000 -80.08610000
-1.54870000 -60.68160000 -59.78710000
-1.66470000 -24.30110000 -58.05330000
14.59860000 -51.61010000 -79.72850000
24.57030000 -62.03940000 -80.11720000
10.06360000 -59.68300000 -80.01550000
9.17420000 -52.64120000 -79.85080000
5.48370000 -57.76810000 -79.83140000
11.42530000 -63.73020000 -79.94820000
17.49920000 -66.41710000 -80.11090000
-1.83740000 -61.95100000 -79.89770000
-11.91790000 -55.67470000 -78.94530000
-7.10660000 -52.57300000 -79.26370000
-3.62850000 -48.94050000 -78.92670000
-7.15630000 -49.51500000 -78.90160000
-1.48560000 -47.69260000 -79.21550000
-9.61650000 -50.65730000 -79.05460000
-0.56900000 -70.58030000 -80.07920000
9.64880000 -69.14950000 -80.06710000
2.42690000 -71.77000000 -79.85340000
-0.73200000 -75.91790000 -79.92400000
6.65090000 -72.13730000 -79.72090000
8.83670000 -75.61300000 -80.01620000
-7.22590000 -67.02220000 -79.77190000
-10.30770000 -76.36110000 -79.87450000
-10.18760000 -69.70570000 -79.55900000
-4.05310000 -75.48340000 -80.02810000
0.21420000 -53.93650000 -79.61240000
1.59580000 -50.81150000 -79.30710000
8.64970000 -48.12130000 -79.72980000
-7.93810000 -59.67820000 -79.49520000
13.26220000 -96.92880000 -80.05800000
22.12750000 -99.69660000 -80.19670000
11.80250000 -100.79860000 -79.99040000
8.68360000 -98.05410000 -79.64660000
8.26450000 -99.21570000 -79.64420000
17.52400000 -92.07460000 -80.11460000
22.43590000 -93.98450000 -79.94980000
23.78620000 -81.15150000 -80.14900000
16.94820000 -83.04300000 -80.21130000
14.27820000 -84.75800000 -79.96810000
7.80000000 -93.86350000 -80.05800000
9.50320000 -84.96960000 -80.03850000
22.73600000 -107.71090000 -80.33600000
26.48130000 -106.24510000 -80.34850000
17.91590000 -115.33390000 -80.22220000
26.97130000 -123.80810000 -77.14710000
28.66460000 -122.36380000 -78.62060000
26.04470000 -122.80750000 -78.61290000
26.56480000 -121.66360000 -79.32720000
29.88500000 -120.01020000 -80.26890000
27.56940000 -120.35270000 -79.83020000
29.88170000 -117.05390000 -80.40030000
20.54370000 -119.06690000 -79.88340000
26.36780000 -117.49760000 -79.93940000
18.76650000 -122.65290000 -78.86780000
17.48040000 -121.31240000 -79.47910000
22.65930000 -116.04700000 -80.02490000
28.31310000 -111.66740000 -80.43160000
30.26360000 -107.54970000 -80.57070000
9.21980000 -119.83480000 -79.75230000
17.04500000 -112.50360000 -80.26340000
17.07150000 -108.35420000 -80.15550000
13.05240000 -112.42390000 -80.04290000
13.26370000 -110.37740000 -79.85740000
8.61000000 -112.71060000 -80.16240000
12.24930000 -108.47080000 -80.08290000
12.88590000 -106.28250000 -80.27420000
13.30780000 -103.78700000 -80.11880000
25.19990000 -95.61880000 -79.96360000
27.95980000 -96.19590000 -80.26780000
27.49180000 -91.52610000 -80.24530000
29.86160000 -95.59800000 -80.49550000
25.46670000 -85.32270000 -79.99870000
-0.68270000 -113.07840000 -79.82080000
3.83080000 -112.08430000 -80.16600000
6.79190000 -115.96700000 -80.11880000
4.20510000 -104.46870000 -80.25100000
7.55270000 -109.07030000 -79.90920000
4.15530000 -107.95780000 -80.17790000
0.04150000 -109.73240000 -80.18010000
-2.20780000 -108.06820000 -80.11610000
-1.34320000 -101.51320000 -80.21880000
-9.21140000 -99.82660000 -79.53120000
-3.41640000 -99.58160000 -79.80630000
-8.22560000 -101.84640000 -80.05390000
-8.77170000 -109.01900000 -80.08860000
-5.81680000 -110.15940000 -80.05620000
-7.32910000 -104.64400000 -80.26320000
-3.71450000 -112.76750000 -79.70680000
-2.33890000 -115.16740000 -79.92020000
1.60420000 -118.31880000 -79.91370000
-3.45690000 -116.78600000 -80.06160000
-6.87520000 -113.66260000 -80.02440000
-9.13670000 -117.01920000 -79.60320000
-8.91800000 -115.04690000 -80.11340000
5.31490000 -100.89210000 -80.11040000
-2.36900000 -97.21970000 -79.75900000
5.12710000 -96.42000000 -79.80110000
2.77860000 -87.91820000 -79.83920000
-9.92490000 -97.14160000 -79.87950000
30.11940000 -64.93450000 -80.25740000
27.53520000 -83.53690000 -80.16840000
14.41770000 -71.82680000 -80.03350000
19.98780000 -85.36810000 -80.10470000
-29.09260000 -79.05860000 -62.59180000
-27.60910000 -74.30440000 -62.69660000
-30.04810000 -74.87410000 -62.74180000
-31.21600000 -19.43020000 -62.65860000
-31.01980000 -59.45410000 -63.21790000
-30.27740000 -28.96930000 -62.29640000
-31.43530000 -56.76330000 -64.03640000
-28.95750000 -40.38490000 -62.30060000
-31.78510000 -28.27630000 -69.63380000
-31.45420000 -74.49700000 -68.12710000
-31.73220000 -33.41490000 -64.91620000
-31.60700000 -61.62310000 -73.17830000
-31.62120000 -51.79200000 -74.59270000
-31.62270000 -32.25800000 -74.44590000
-31.35530000 -31.02170000 -75.93450000
-31.31520000 -46.87510000 -75.98260000
-30.56700000 -39.29660000 -77.17890000
-29.77800000 -49.71400000 -77.75700000
-30.88520000 -53.35180000 -76.68650000
-28.95800000 -45.69290000 -78.13590000
-29.82320000 -36.97840000 -77.71560000
-31.12460000 -123.81020000 -50.01180000
-31.76500000 -122.31570000 -52.41830000
-30.32130000 -124.20210000 -51.91960000
-31.44170000 -123.43000000 -52.34010000
-30.76740000 -124.02340000 -54.26540000
-31.49310000 -123.28810000 -54.94590000
-29.99980000 -124.25510000 -55.69960000
-31.68440000 -122.66710000 -56.51580000
-31.76670000 -121.59220000 -63.11780000
-30.76960000 -123.97280000 -56.74410000
-31.36010000 -123.39610000 -59.22730000
-31.41410000 -110.30670000 -52.47800000
-30.20440000 -107.84430000 -54.60840000
-31.09680000 -108.72060000 -54.79630000
-29.31400000 -107.12930000 -55.84650000
-31.71460000 -118.46650000 -68.14760000
-28.81440000 -105.46680000 -58.62860000
-31.51910000 -109.25430000 -57.38160000
-30.96140000 -107.20370000 -57.61880000
-31.64250000 -106.05680000 -66.72890000
-30.10050000 -105.71200000 -58.55830000
-31.14970000 -105.89160000 -59.79470000
-31.53220000 -104.40050000 -62.66670000
-31.21710000 -104.22280000 -61.40520000
-28.19920000 -124.30580000 -61.84760000
-30.57420000 -123.97810000 -60.00870000
-30.04200000 -124.10890000 -63.33380000
-31.32190000 -123.35930000 -63.19220000
-30.95770000 -123.74340000 -65.09110000
-29.85770000 -124.12630000 -67.00830000
-31.54560000 -122.91640000 -65.57590000
-31.62820000 -122.54870000 -67.51730000
-31.02380000 -123.66920000 -67.87460000
-31.25790000 -123.30780000 -69.59130000
-31.57890000 -122.23040000 -70.98090000
-31.48730000 -102.66620000 -70.93590000
-31.29900000 -110.42870000 -74.46470000
-31.59520000 -118.73110000 -73.22450000
-29.10420000 -124.20370000 -72.13320000
-30.50660000 -123.92320000 -70.06160000
-27.16090000 -124.31860000 -74.94640000
-23.79870000 -124.40640000 -75.08570000
-31.09770000 -123.32700000 -72.11430000
-29.91760000 -123.98070000 -73.68560000
-31.40580000 -122.10500000 -73.66940000
-30.57580000 -123.24620000 -74.52360000
-31.34610000 -119.18090000 -74.68510000
-31.00430000 -121.62630000 -75.08110000
-30.38540000 -119.01720000 -76.12310000
-28.63520000 -123.68580000 -75.72790000
-26.02560000 -124.02520000 -76.30790000
-27.42920000 -122.99960000 -77.23810000
-29.64700000 -122.41120000 -76.15850000
-28.72340000 -120.55810000 -77.49930000
-27.07860000 -121.61140000 -78.08650000
-30.70210000 -113.05030000 -75.64020000
-28.84750000 -116.43230000 -77.85220000
-29.51290000 -111.76430000 -77.08960000
-28.73280000 -108.37000000 -78.12600000
-27.73830000 -118.13710000 -78.39860000
-25.33200000 -119.54860000 -78.68060000
-25.79920000 -114.94780000 -78.98930000
-27.25340000 -109.94730000 -78.95100000
-20.00770000 -124.41330000 -75.72110000
-17.17220000 -124.27350000 -76.53690000
-17.35350000 -123.54160000 -77.73550000
-13.49260000 -124.26220000 -76.76920000
-21.33090000 -123.87760000 -77.15080000
-13.48980000 -119.83230000 -78.80210000
-14.50340000 -116.88330000 -78.91100000
-11.54160000 -118.68810000 -78.86270000
-12.82420000 -116.02810000 -79.41170000
-19.62720000 -122.34980000 -78.38090000
-17.98670000 -120.60290000 -78.85670000
-16.37510000 -118.28960000 -79.11220000
-20.24070000 -116.36760000 -79.12690000
-15.75650000 -114.54580000 -79.40000000
-24.51090000 -123.30740000 -77.61980000
-25.43110000 -122.10030000 -78.20770000
-24.35070000 -112.79210000 -79.06230000
-26.51650000 -95.76720000 -62.71980000
-26.10140000 -89.82280000 -62.88790000
-29.64740000 -91.21980000 -62.73320000
-24.36840000 -102.53390000 -61.35490000
-27.70040000 -103.67480000 -60.45180000
-27.73290000 -101.68800000 -61.51220000
-26.63260000 -99.21630000 -62.36080000
-29.29850000 -103.38440000 -60.55230000
-30.07000000 -102.33550000 -61.24390000
-30.55420000 -100.35630000 -62.22810000
-29.33150000 -99.45550000 -62.17480000
-29.71870000 -96.77980000 -62.56550000
-31.00430000 -96.04630000 -63.30720000
-30.93140000 -89.38300000 -63.44060000
-31.23050000 -86.63770000 -64.35790000
-31.16570000 -101.11850000 -62.74950000
-31.35140000 -93.97640000 -65.34230000
-31.40920000 -74.29320000 -73.46160000
-31.42160000 -83.94790000 -73.53440000
-31.26210000 -99.53480000 -74.27780000
-31.02730000 -82.34430000 -75.59090000
-30.84420000 -98.29670000 -75.59610000
-31.26850000 -77.20950000 -75.04390000
-30.96610000 -73.39050000 -74.99630000
-27.62430000 -81.58170000 -78.63220000
-24.26770000 -78.16210000 -78.51790000
-25.12810000 -81.55480000 -78.68810000
-27.17350000 -77.81440000 -78.90160000
-26.09740000 -77.01500000 -78.86870000
-28.53600000 -77.57740000 -78.39550000
-29.22490000 -83.69480000 -77.84050000
-19.64810000 -104.56250000 -80.05610000
-15.24140000 -103.42870000 -80.11630000
-18.49780000 -108.90850000 -79.74700000
-18.23320000 -99.00100000 -80.08540000
-29.64840000 -103.83360000 -77.34350000
-30.24630000 -88.86550000 -76.80790000
-27.77690000 -103.75190000 -78.89670000
-28.97660000 -98.28340000 -78.07290000
-27.56500000 -99.12570000 -78.98670000
-28.08770000 -94.86720000 -78.40680000
-29.32560000 -92.14270000 -77.80300000
-25.43160000 -96.44740000 -78.86770000
-26.82500000 -95.23060000 -78.50550000
-22.66840000 -107.55840000 -79.75160000
-20.36570000 -109.64220000 -79.46610000
-25.89520000 -108.65340000 -79.41110000
-26.66440000 -104.64560000 -79.56760000
-24.01030000 -104.28980000 -79.95010000
-22.97750000 -100.27710000 -79.85720000
-24.22630000 -98.49110000 -79.72780000
-26.86040000 -101.25330000 -79.59050000
-22.78960000 -95.20480000 -79.39760000
-20.74310000 -81.31480000 -79.21650000
-17.65330000 -78.25710000 -79.32880000
-18.27400000 -84.53240000 -79.51100000
-13.19570000 -95.91960000 -80.00840000
-11.24290000 -100.12310000 -79.86020000
-13.17550000 -100.73210000 -80.09970000
-10.23330000 -91.40770000 -79.17090000
-15.00740000 -92.52400000 -79.59620000
-13.60970000 -90.94540000 -79.01810000
-12.49110000 -89.80390000 -79.40450000
-15.99520000 -91.39740000 -79.06770000
-17.20690000 -88.42270000 -79.05180000
-19.52480000 -89.10100000 -78.54080000
-18.60170000 -94.02820000 -79.86100000
-16.35100000 -87.60020000 -79.53000000
-24.56140000 -89.89060000 -78.91480000
-21.77750000 -91.41380000 -78.96870000
-24.29610000 -92.48960000 -78.87650000
-20.84840000 -92.95280000 -79.56090000
-23.69260000 -94.10160000 -78.79420000
-22.80800000 -87.73530000 -78.74870000
-20.86290000 -89.88060000 -78.47650000
-20.47630000 -86.31490000 -78.88630000
-19.58210000 -91.62940000 -79.41800000
-22.85260000 -89.92760000 -78.77950000
-28.57050000 -90.41190000 -78.24300000
-26.88540000 -90.12710000 -78.61120000
-24.19240000 -85.18590000 -78.82370000
-28.07130000 -86.67450000 -78.23870000
-25.69880000 -93.39000000 -78.49550000
-25.22570000 -94.29530000 -78.36340000
-30.43800000 -75.71390000 -76.76310000
-29.91050000 -79.26840000 -77.41110000
-18.37900000 -63.71270000 -78.48750000
-16.16400000 -67.73500000 -78.49420000
-17.76310000 -70.54520000 -78.66730000
-14.80930000 -64.09860000 -78.88140000
-15.47820000 -59.79550000 -78.90830000
-31.15310000 -68.78580000 -74.77260000
-30.34180000 -71.75640000 -76.07120000
-31.43200000 -62.54550000 -75.04540000
-30.85880000 -66.21440000 -76.03780000
-30.22270000 -66.16880000 -76.99760000
-25.84060000 -57.77300000 -78.49840000
-22.44400000 -63.79040000 -78.50920000
-26.27930000 -66.32610000 -78.54140000
-27.94300000 -64.00110000 -78.29900000
-23.33730000 -73.61790000 -78.67830000
-20.94330000 -73.67200000 -78.72410000
-19.62360000 -71.31260000 -78.83730000
-24.30450000 -70.96980000 -78.47180000
-29.51700000 -73.83880000 -77.51290000
-29.08290000 -71.09040000 -77.41710000
-28.13830000 -72.20430000 -78.23630000
-27.16340000 -72.60730000 -78.59980000
-22.75160000 -68.19760000 -78.34200000
-29.07080000 -64.20740000 -77.93970000
-19.40400000 -48.27610000 -78.44000000
-11.48390000 -44.75630000 -78.86410000
-16.91220000 -51.01320000 -78.64050000
-12.28260000 -38.33860000 -78.47670000
-13.01980000 -60.09510000 -79.47980000
-11.54840000 -63.48830000 -79.53800000
-12.56440000 -57.42170000 -79.17770000
-17.77640000 -56.84350000 -78.49280000
-21.48600000 -56.88290000 -78.50880000
-20.05000000 -53.23510000 -78.11160000
-13.01520000 -53.59060000 -79.01230000
-13.66190000 -50.55620000 -79.26700000
-11.64950000 -50.77460000 -79.29460000
-7.68610000 -45.29310000 -78.98220000
-24.95290000 -53.11920000 -78.30940000
-22.68530000 -50.34060000 -77.95430000
-24.81580000 -48.54800000 -78.22380000
-27.71780000 -42.57830000 -78.30350000
-21.09880000 -39.39170000 -78.31220000
-13.14130000 -72.35890000 -79.37250000
-16.15740000 -74.21220000 -79.23320000
-20.11200000 -76.83120000 -78.69350000
-19.03690000 -74.58110000 -78.69160000
-13.37990000 -69.73330000 -78.90680000
-13.50800000 -67.63030000 -78.86910000
-11.75780000 -66.40320000 -79.45920000
-30.20800000 -60.42730000 -77.34090000
-12.48410000 -114.62730000 -79.83820000
-13.76050000 -113.87000000 -79.46800000
-12.30360000 -112.43780000 -79.90620000
-11.67540000 -108.55900000 -79.97880000
-14.33930000 -110.22310000 -80.09440000
-18.42990000 -112.94240000 -79.54010000
-16.62170000 -110.49660000 -79.99900000
-15.05210000 -112.84970000 -79.86000000
-11.71210000 -104.63170000 -80.22570000
6.00230000 16.25920000 79.28210000
-8.75370000 23.88360000 79.85860000
9.36440000 28.78060000 79.31850000
13.96590000 29.85370000 78.94370000
17.86300000 32.97180000 78.96370000
17.96610000 41.74140000 78.93970000
5.55860000 32.32760000 79.28820000
-4.66360000 31.59740000 79.83820000
17.92900000 45.53660000 78.83230000
8.88950000 39.91780000 79.29020000
-4.46950000 36.32310000 79.78370000
-6.19040000 44.76800000 79.87890000
24.49340000 58.63100000 78.51570000
27.36400000 44.69290000 78.47130000
29.04700000 78.90200000 78.19010000
17.05570000 63.17000000 78.90070000
10.20010000 57.83240000 79.18700000
14.78570000 50.36800000 79.00650000
30.99210000 52.23770000 77.76440000
31.48600000 55.95580000 77.01720000
30.87010000 62.02490000 77.69490000
30.07210000 50.97630000 78.16100000
30.09440000 65.54330000 78.01450000
31.31820000 65.73380000 76.45770000
31.49230000 65.13670000 73.83420000
25.18750000 73.26430000 78.49220000
30.61800000 70.05960000 77.79210000
31.13120000 66.73880000 77.23060000
31.03370000 72.32650000 77.36660000
23.35930000 67.69180000 78.50320000
19.57760000 71.40360000 78.57900000
-3.05270000 57.08500000 79.83710000
-1.34150000 67.96030000 79.74270000
11.71450000 71.36370000 79.10250000
13.42080000 73.94780000 78.96970000
13.76400000 80.41870000 79.05860000
18.68400000 74.33170000 78.78110000
3.13500000 79.44930000 79.62410000
6.03060000 46.46900000 79.32380000
1.80350000 48.73660000 79.64520000
-8.30760000 83.34190000 79.80040000
-12.63080000 80.44090000 80.12020000
-8.88990000 78.33340000 79.84530000
-4.95480000 83.20020000 79.92200000
-21.41520000 84.62140000 80.45820000
-17.42710000 82.84300000 80.20680000
-21.24840000 87.73830000 80.16910000
-14.86730000 76.25800000 79.99160000
-14.89230000 73.04350000 80.27490000
-25.60030000 68.06460000 80.57070000
-29.12870000 66.41810000 80.47720000
-30.04260000 75.81240000 80.01070000
-30.59650000 71.00830000 79.23610000
-30.85530000 82.73420000 78.09900000
-25.37590000 87.75760000 80.50550000
-26.12690000 105.34910000 80.52260000
-30.49480000 96.34970000 79.19440000
-31.07860000 88.95570000 75.46190000
-31.31590000 71.98150000 70.95780000
-31.28640000 74.91440000 69.00550000
-31.15300000 95.77240000 70.29320000
-30.76270000 83.82550000 67.57140000
-31.12260000 88.60070000 69.36720000
-29.78310000 78.33010000 66.02380000
-30.45110000 80.32010000 66.83610000
-29.96780000 85.62440000 66.01900000
-28.82110000 77.57280000 65.44860000
-22.19260000 28.19900000 80.27120000
-18.05000000 22.94080000 80.22500000
-26.22830000 23.01920000 80.29440000
-8.62920000 27.02440000 64.33890000
-17.21280000 32.74410000 64.81020000
-8.36820000 34.34530000 64.43770000
-5.75030000 40.92380000 64.48800000
-4.26090000 32.09670000 64.11940000
-3.11410000 35.30730000 63.93020000
-4.16120000 43.71550000 64.22820000
-2.42830000 39.00270000 63.41750000
-9.54660000 41.70230000 64.61000000
-8.81170000 43.86680000 64.95290000
-13.74220000 36.99000000 64.56090000
-28.21420000 34.44220000 80.48610000
-24.91160000 27.59850000 80.14690000
-31.09100000 54.97400000 68.23320000
-30.45170000 43.87630000 65.67100000
-30.42420000 35.92630000 65.57320000
-29.54240000 40.72710000 64.71220000
-30.04330000 46.33420000 64.94550000
-28.94970000 46.74260000 64.56520000
-30.47690000 27.34640000 65.79160000
-30.31350000 21.60150000 65.28560000
-29.77160000 24.42010000 64.74460000
-30.11700000 29.32750000 65.09150000
-29.10940000 29.01210000 64.60430000
-29.94120000 17.47990000 64.84960000
-29.29610000 20.96980000 64.60340000
-26.75620000 26.21850000 64.63980000
-17.01690000 27.21400000 64.57640000
-19.16010000 37.27540000 64.99760000
-17.61760000 42.96940000 65.08010000
-15.09420000 45.08600000 64.92280000
-20.63390000 40.52090000 65.29220000
-21.29670000 46.26350000 65.14020000
-24.47580000 41.87810000 65.01640000
-24.94560000 34.35270000 64.81470000
-29.90110000 33.58740000 64.85220000
-29.13540000 35.32170000 64.59300000
-30.02580000 38.05770000 64.92820000
-25.54910000 46.14640000 65.00000000
-6.60620000 81.07770000 66.50850000
-4.64110000 71.62780000 65.46450000
-6.33430000 69.01690000 65.95230000
-4.16640000 78.95960000 65.20530000
-3.27630000 68.94120000 64.27790000
-8.63950000 67.94310000 66.23050000
-8.67950000 80.19420000 66.81450000
-11.34080000 86.98770000 67.13290000
-11.88640000 69.12510000 66.53650000
-11.92300000 45.54100000 64.87260000
-9.50620000 50.16820000 65.20750000
-7.20370000 53.26270000 65.35980000
-7.61990000 49.15850000 64.76760000
-11.98860000 51.15870000 65.34870000
-3.57420000 57.60760000 64.90300000
-4.49330000 54.71180000 65.10970000
-12.20480000 58.78470000 65.97730000
-6.57080000 44.74900000 64.86070000
-4.20350000 48.17570000 64.36740000
-3.04560000 48.29730000 63.96870000
-7.35700000 47.57080000 64.56080000
-8.83890000 45.82870000 64.80370000
-2.35220000 49.50320000 63.37510000
-1.45370000 45.95000000 62.01320000
-3.36630000 53.10010000 64.59650000
-2.38610000 56.77090000 63.65190000
-1.53020000 56.71840000 62.12130000
-1.01010000 40.72480000 60.95400000
-2.33670000 72.38770000 62.82370000
-1.47570000 71.45200000 60.55650000
-0.85280000 64.60400000 56.35790000
-18.34620000 50.31590000 65.15050000
-23.34810000 55.03750000 65.26820000
-19.84830000 59.38230000 65.90890000
-19.06170000 74.62150000 66.79230000
-30.51910000 53.17890000 65.45110000
-30.80460000 60.77360000 66.72480000
-30.03700000 66.01170000 65.53310000
-30.35770000 59.00380000 65.24470000
-30.66440000 69.53010000 66.92550000
-29.52150000 65.97760000 65.16210000
-29.78930000 59.65690000 64.86630000
-24.95660000 50.86940000 64.86780000
-26.49270000 60.45390000 65.08530000
-30.05410000 56.40930000 64.62290000
-29.85910000 52.49750000 64.61690000
-28.88510000 54.76850000 64.41860000
-22.44000000 75.04060000 66.55570000
-28.44680000 62.28990000 64.82710000
-24.80890000 84.44940000 66.16280000
-26.31030000 72.60150000 65.66140000
-29.61310000 71.73960000 65.88980000
-28.15710000 71.60340000 65.37150000
-27.88990000 81.54780000 65.32220000
-28.69310000 85.23700000 65.35600000
1.48380000 90.07880000 79.67200000
-4.14940000 88.44940000 79.91320000
2.92070000 113.41570000 79.26190000
4.54260000 107.21420000 79.21650000
8.13700000 105.18180000 79.28790000
-7.77800000 116.15460000 79.60350000
3.45630000 116.58890000 79.33380000
-0.25680000 96.37110000 79.54440000
0.81690000 109.12180000 79.53350000
16.14090000 121.47550000 78.71760000
17.11490000 120.39630000 78.81670000
17.23650000 122.13930000 78.35480000
17.79070000 122.84910000 77.56470000
20.97090000 122.19950000 78.17150000
21.58680000 121.08600000 78.56760000
23.04630000 122.85750000 77.21900000
20.68020000 123.11270000 76.20310000
9.91410000 120.15330000 79.14730000
10.55090000 121.41510000 78.95260000
5.14710000 122.17430000 78.78980000
7.28650000 122.64380000 78.22790000
21.61450000 108.88350000 78.54830000
9.65080000 122.08340000 78.69380000
12.34440000 122.35860000 78.32540000
13.86340000 122.84010000 77.55070000
15.08760000 123.04180000 76.80420000
10.37920000 123.16250000 69.89100000
9.46410000 122.96480000 77.20150000
3.43890000 121.16700000 79.29010000
3.95550000 122.99120000 77.22810000
0.73500000 122.68080000 78.27970000
-10.21750000 118.70630000 79.88970000
-6.55000000 120.91210000 79.72190000
-2.19680000 121.91750000 79.22560000
-2.71550000 122.83660000 78.01040000
-2.65770000 123.00290000 76.95330000
21.07840000 79.47680000 78.60680000
21.72480000 95.28810000 78.64680000
13.96210000 89.61670000 79.04120000
14.64100000 83.69190000 78.80430000
30.23940000 93.16820000 77.63860000
29.02840000 96.24500000 78.11140000
29.47200000 91.32950000 78.05100000
27.04560000 86.53150000 78.26820000
26.19390000 104.09060000 78.37150000
30.50790000 94.69550000 77.13120000
30.47900000 98.66790000 77.05110000
29.87660000 99.25420000 77.81110000
30.71430000 95.93390000 75.42510000
30.93300000 99.57230000 75.01120000
30.17510000 106.86630000 77.75310000
29.27320000 106.13990000 78.04890000
30.59460000 103.30330000 77.37100000
30.89220000 103.44250000 76.49090000
30.78260000 107.79040000 76.98360000
30.96380000 109.29400000 69.48490000
30.85190000 110.19170000 75.27690000
25.08530000 88.42420000 78.29610000
30.56460000 76.99980000 77.70860000
30.18620000 81.12760000 77.89890000
31.18070000 77.83120000 76.87190000
30.98680000 82.19930000 77.19410000
30.48860000 86.12030000 77.68780000
31.12100000 86.42180000 76.73560000
30.65040000 88.76480000 77.51100000
30.91010000 90.34100000 76.84810000
31.15350000 89.68920000 72.86020000
31.49980000 74.22580000 66.16560000
31.45780000 87.47130000 59.18860000
30.95140000 93.35720000 75.80490000
31.15290000 95.68720000 73.27850000
31.16410000 98.69550000 69.70180000
31.38980000 95.43280000 52.71710000
8.90850000 85.09710000 79.31710000
11.32640000 86.01800000 78.93120000
10.49930000 89.81050000 79.10170000
2.63700000 92.14980000 79.34070000
31.24310000 106.35840000 51.53540000
29.54390000 116.32820000 77.82560000
26.41090000 118.43680000 78.29670000
30.01950000 111.33670000 77.80730000
30.42810000 115.38680000 77.14890000
29.43310000 120.06910000 77.16620000
28.22480000 120.63400000 77.80230000
30.04150000 118.49960000 76.78580000
29.40160000 121.16100000 75.95950000
30.53970000 117.35650000 74.54770000
29.90340000 121.03280000 73.58340000
28.67430000 121.78760000 76.85390000
30.67630000 111.81540000 76.98770000
25.40560000 121.02920000 78.30000000
25.20020000 122.12530000 77.88970000
26.63430000 122.53050000 77.19780000
28.00740000 122.71050000 75.92860000
26.23180000 123.03210000 76.00810000
26.31920000 123.31280000 66.30290000
27.78910000 123.01400000 73.82490000
29.00610000 122.26790000 74.94690000
28.97700000 122.73030000 72.26090000
29.73970000 122.12720000 71.07550000
28.20240000 123.17060000 67.34220000
30.75300000 118.38520000 65.11330000
30.44410000 120.44850000 68.58380000
30.00140000 121.98000000 68.23030000
29.55120000 122.68560000 66.00070000
30.40410000 121.44950000 62.48050000
29.14030000 123.16170000 61.03000000
29.93050000 122.62250000 60.57450000
31.04040000 114.05290000 58.73260000
28.11790000 123.44170000 58.91490000
21.70440000 123.63740000 47.35960000
30.84550000 117.55810000 50.72490000
30.19450000 122.30880000 57.49170000
30.64100000 120.89640000 54.61810000
29.31150000 123.17050000 57.83900000
28.87120000 123.36860000 54.38130000
29.84100000 122.81270000 51.45760000
30.45910000 121.62330000 48.90580000
27.68990000 123.59530000 51.67280000
28.93470000 123.47240000 48.80450000
29.96380000 122.78270000 46.54600000
30.73100000 117.34740000 42.64660000
30.39310000 121.16200000 43.06610000
29.70300000 120.36640000 39.70300000
29.36330000 123.36010000 44.76890000
30.02710000 122.68470000 43.39260000
28.36580000 123.69770000 42.84530000
28.76160000 123.51220000 40.37840000
29.57030000 122.28300000 40.19160000
27.15690000 123.82120000 39.13500000
28.74270000 122.78380000 38.03620000
27.82330000 123.57840000 37.33110000
