10.91980000 -35.23360000 108.67140000
10.65010000 -38.30150000 107.51940000
11.07860000 -40.16940000 109.01840000
11.64410000 -38.86700000 109.35940000
11.32760000 -35.61280000 109.27640000
10.81030000 -42.93970000 108.56740000
12.12850000 -42.59110000 109.31740000
20.85290000 -34.05910000 109.29540000
11.35270000 -43.55730000 109.23640000
10.91780000 -45.01280000 108.85840000
10.60450000 -44.83530000 107.77540000
11.47940000 -45.50440000 109.22240000
10.62090000 -47.44100000 109.08340000
9.87100000 -47.18110000 108.32940000
10.12650000 -46.77190000 107.67040000
10.55960000 -46.07530000 108.08840000
10.48060000 -46.73910000 108.58940000
10.87340000 -46.16600000 108.93140000
14.26640000 -48.29860000 109.12340000
11.34080000 -32.10440000 109.31640000
12.07100000 -31.29010000 109.50040000
11.37120000 -30.57320000 109.34040000
11.04860000 -31.69320000 108.97940000
11.59350000 -29.92670000 109.48740000
11.19870000 -33.61440000 109.17140000
11.49290000 -33.26300000 109.38840000
11.91620000 -34.32970000 109.45340000
11.90900000 -32.91310000 109.48140000
20.50930000 -56.78300000 108.88040000
11.36450000 -61.87340000 108.72340000
11.92280000 -62.46680000 108.39540000
13.96540000 -62.57470000 108.24140000
14.72260000 -62.28070000 108.48240000
16.04950000 -61.64260000 108.71140000
15.42560000 -62.92980000 106.93740000
17.99730000 -62.96660000 104.12840000
15.31590000 -62.82450000 107.65840000
16.27540000 -62.64230000 108.00640000
17.74230000 -62.79730000 107.33440000
20.07600000 -62.78540000 106.63540000
19.39350000 -61.36960000 108.70940000
16.61440000 -62.17760000 108.46240000
18.01920000 -62.48450000 108.11540000
18.03500000 -62.03210000 108.52540000
19.26230000 -62.28050000 108.20840000
25.21950000 -59.08100000 108.63840000
24.76540000 -53.04820000 108.88340000
25.36570000 -46.93750000 108.98540000
9.38630000 -46.59840000 99.79240000
9.03910000 -46.83000000 99.51140000
9.00600000 -46.71860000 97.19940000
9.35240000 -46.45640000 98.03040000
9.64860000 -46.14090000 99.67540000
25.25980000 -35.46710000 74.52270000
25.29060000 -33.51790000 75.56290000
25.66650000 -38.41930000 76.13680000
26.05940000 -39.10730000 81.63270000
26.23050000 -36.80590000 85.05540000
26.05080000 -34.44490000 86.45540000
26.37290000 -34.35530000 94.78440000
25.77850000 -31.23390000 85.44140000
24.97480000 -25.20920000 83.55640000
25.98410000 -36.52630000 81.06190000
11.17030000 -29.05140000 109.18440000
11.06300000 -27.84890000 109.01240000
11.29180000 -27.57910000 109.30140000
11.47490000 -28.75450000 109.44840000
11.94340000 -28.86260000 109.55040000
19.99860000 -17.24680000 109.58740000
25.03220000 -26.41440000 109.28040000
22.58530000 -12.73860000 109.60040000
25.01400000 -21.11600000 109.25940000
26.03870000 -25.47400000 108.50540000
25.59290000 -22.84350000 109.04840000
25.78380000 -26.83600000 109.04840000
26.50040000 -31.23040000 106.84040000
25.83910000 -20.18180000 107.48940000
25.92140000 -24.19010000 102.62940000
25.27920000 -15.88150000 104.06140000
26.58970000 -31.93460000 103.57040000
26.65270000 -38.37080000 97.94040000
25.66500000 -29.93840000 109.17340000
26.16650000 -30.26910000 108.75540000
25.37690000 -31.71220000 109.21940000
25.48460000 -34.00660000 109.19340000
25.94450000 -33.05100000 109.06740000
25.99460000 -31.71240000 109.02440000
26.34930000 -33.20660000 108.56940000
26.25230000 -34.24710000 108.80240000
26.02190000 -35.66410000 109.05840000
26.60120000 -35.86060000 108.08940000
26.99340000 -39.82720000 103.14240000
23.67400000 -21.92180000 68.33760000
25.98690000 -27.97320000 95.40740000
26.82590000 -46.60790000 89.41540000
26.60130000 -42.50150000 92.50940000
27.09910000 -44.90960000 95.90640000
27.04050000 -42.75030000 99.84240000
27.42870000 -44.64320000 100.55340000
27.49500000 -46.82430000 99.50540000
28.20730000 -54.80320000 94.78040000
28.27050000 -58.46030000 94.37540000
28.23900000 -54.49100000 92.50340000
28.04440000 -55.70080000 87.58540000
28.01530000 -53.20320000 89.56240000
27.60300000 -49.08400000 101.03240000
27.50370000 -47.55870000 102.58640000
27.47060000 -48.77170000 102.86240000
27.88860000 -49.62670000 104.03740000
27.94170000 -50.06620000 100.40140000
28.46320000 -54.60010000 107.16940000
28.42730000 -55.48700000 99.79640000
28.42400000 -53.20850000 102.67240000
28.24570000 -51.22480000 102.60140000
28.23790000 -52.61760000 99.91640000
27.22290000 -47.99740000 96.46540000
26.98470000 -48.71940000 90.31540000
27.46460000 -49.18770000 97.43040000
27.61700000 -50.71340000 89.56240000
28.39310000 -53.43790000 97.88040000
28.06320000 -51.75230000 94.68540000
26.52140000 -45.67920000 81.73800000
26.17910000 -42.52330000 81.10530000
26.52480000 -42.26800000 87.62740000
25.82870000 -41.04890000 77.06650000
25.99430000 -42.32100000 73.30310000
26.16660000 -45.41450000 72.26520000
26.47160000 -48.01240000 78.17660000
27.01310000 -49.98310000 81.52670000
26.39890000 -49.14520000 71.70810000
25.86110000 -39.73620000 109.13740000
26.85870000 -40.14590000 107.84140000
26.34230000 -39.12290000 108.91140000
26.44260000 -36.73110000 108.65040000
26.90720000 -42.39880000 108.34240000
27.04030000 -41.25850000 106.08540000
27.25280000 -43.62230000 104.34040000
27.56620000 -45.44930000 104.17940000
27.37410000 -43.43700000 106.62840000
26.07520000 -44.49850000 108.98340000
26.48930000 -42.73180000 108.84840000
27.10070000 -46.09310000 108.63040000
27.35000000 -44.36570000 107.88640000
26.65500000 -47.75250000 108.92940000
27.38990000 -47.75420000 108.21440000
27.59990000 -46.65880000 107.23340000
26.28720000 -50.05910000 108.77940000
28.12170000 -50.03610000 106.72440000
27.63480000 -48.47350000 105.05040000
27.70260000 -48.69320000 106.93240000
27.00420000 -48.99370000 108.54440000
27.60750000 -49.18570000 107.48440000
27.05690000 -52.91090000 108.54840000
26.47250000 -55.02540000 108.77440000
28.43650000 -51.16710000 105.93940000
28.35980000 -51.57530000 107.12340000
28.35610000 -52.45710000 107.70540000
27.66890000 -51.62780000 108.02340000
6.62370000 -9.83980000 41.14650000
7.33780000 -24.27360000 52.55800000
6.29340000 -34.41650000 41.61160000
5.56180000 -25.02890000 29.15820000
21.79520000 -17.08080000 43.73800000
21.74630000 -12.10660000 49.71110000
22.50600000 -24.71970000 46.30070000
5.28790000 -12.93100000 23.68200000
3.43900000 -3.09340000 2.56490000
20.46460000 -3.12930000 31.39410000
20.87220000 1.10390000 20.21620000
20.48890000 -0.28530000 30.63200000
20.79210000 4.92000000 36.86260000
21.32840000 9.57020000 17.07710000
21.41810000 5.11230000 5.94390000
21.43330000 -3.13340000 8.03500000
20.88970000 -3.27940000 18.21650000
20.74210000 -6.44600000 22.29230000
22.26380000 -14.50170000 1.29400000
21.85740000 -10.18170000 2.79180000
21.34010000 -11.61170000 13.32060000
22.02000000 -18.12560000 10.76710000
22.63290000 -24.38370000 7.91970000
22.57130000 -27.14840000 17.21230000
21.14790000 -12.62760000 19.76250000
21.93050000 -20.61380000 19.67540000
20.80520000 -9.12500000 25.52100000
20.57790000 -6.72930000 32.22410000
21.37030000 -14.47290000 36.69320000
21.35450000 -16.58260000 27.99560000
21.97440000 -23.70780000 32.70700000
21.34510000 2.36570000 52.86420000
22.78970000 -17.23530000 59.84910000
23.02590000 -10.84550000 70.98030000
21.89930000 -8.48090000 55.15840000
22.38110000 -2.06090000 66.04040000
6.93260000 -45.34560000 55.34790000
5.77880000 -47.56260000 55.84810000
5.83210000 -47.48750000 49.95700000
6.17870000 -47.39550000 53.92130000
5.87650000 -47.41310000 47.94560000
6.11670000 -47.03080000 47.42080000
6.45650000 -47.08630000 52.46240000
6.74490000 -46.63300000 54.07890000
6.68690000 -47.03440000 56.35010000
25.83820000 -41.20890000 67.46970000
24.84120000 -36.20020000 60.02850000
25.65960000 -38.81850000 72.10630000
24.89670000 -34.84370000 68.02190000
24.00420000 -30.73070000 60.73660000
22.52160000 -27.94440000 39.71470000
23.25140000 -30.84710000 47.47190000
23.86800000 -34.41480000 47.81470000
23.36470000 -34.24610000 39.71230000
24.26700000 -40.13070000 38.42170000
23.14740000 -33.51150000 33.33440000
24.50430000 -41.86220000 41.77670000
24.65700000 -39.00150000 50.23950000
26.63670000 -56.73630000 52.32480000
27.08910000 -59.90330000 53.87680000
26.53840000 -56.11840000 50.26560000
24.59510000 -47.74120000 37.11280000
24.58500000 -48.26760000 31.80220000
24.41390000 -45.85810000 30.64160000
25.85120000 -53.81050000 34.46800000
25.27780000 -50.13390000 33.10940000
25.41770000 -50.00010000 36.52430000
24.97870000 -49.13740000 36.75210000
25.01610000 -49.57180000 29.65350000
25.60930000 -53.49530000 31.56130000
25.06820000 -48.85850000 46.00340000
25.09710000 -48.19550000 50.43320000
25.45810000 -49.49640000 50.49520000
24.90210000 -45.58270000 45.87960000
24.78790000 -47.83400000 44.18770000
25.39410000 -50.03070000 43.60850000
25.35800000 -49.44100000 44.91680000
25.68930000 -50.44350000 45.74090000
24.84010000 -48.74210000 42.94950000
25.43240000 -50.38170000 40.49470000
25.88170000 -50.57290000 50.31380000
24.28890000 -41.51800000 36.64430000
24.52150000 -43.82350000 32.91920000
24.20610000 -41.11220000 31.21420000
24.61290000 -45.17730000 38.40850000
25.79430000 -52.08630000 39.94200000
24.01730000 -62.62510000 55.04390000
26.61510000 -59.42630000 41.29800000
26.41830000 -60.53530000 37.45270000
26.37460000 -57.96210000 38.34570000
26.23610000 -60.75290000 34.75350000
26.30470000 -59.74310000 34.05130000
26.07320000 -54.76700000 40.15520000
25.78460000 -51.68200000 43.87060000
26.27240000 -55.70260000 46.17970000
25.84840000 -52.04660000 46.61110000
26.25090000 -52.29990000 52.34400000
26.17970000 -53.80880000 47.92050000
26.25000000 -55.00340000 48.86330000
26.64510000 -58.54750000 45.67080000
26.71610000 -59.60690000 44.23170000
26.70380000 -60.35470000 43.33760000
25.33840000 -46.35100000 55.47450000
24.94420000 -41.76420000 51.98280000
25.72050000 -46.16320000 61.61280000
25.53030000 -41.68810000 61.58780000
25.45910000 -49.25880000 55.59980000
25.43910000 -48.56890000 56.99200000
25.63540000 -48.32130000 60.58550000
25.86100000 -49.41250000 60.26410000
25.98190000 -44.42930000 65.71610000
25.97010000 -47.48820000 66.72270000
25.75790000 -48.99470000 62.17380000
25.96700000 -49.00390000 63.83880000
26.80870000 -51.19190000 65.26930000
26.49880000 -51.59930000 58.39580000
26.36540000 -50.45370000 61.78620000
27.14140000 -53.82030000 65.57410000
26.82460000 -54.36140000 60.17530000
27.00940000 -57.20680000 57.57270000
27.22710000 -56.78950000 62.26280000
27.42670000 -58.99810000 62.67590000
27.31580000 -57.77320000 67.70870000
27.33490000 -58.70180000 64.97010000
26.51630000 -53.35930000 55.98960000
26.61520000 -52.73960000 58.33760000
26.45580000 -53.56090000 57.05240000
26.00840000 -50.22260000 57.00280000
26.76590000 -56.35110000 54.56530000
26.70960000 -54.90730000 56.54650000
26.69270000 -55.94850000 56.07020000
23.07790000 -33.19450000 25.24190000
22.49090000 -28.91860000 27.41590000
23.11550000 -31.49980000 14.04440000
23.69170000 -36.79880000 30.04560000
23.73370000 -37.97070000 21.55540000
23.18430000 -26.49850000 -0.12780000
24.26120000 -47.59280000 26.95360000
24.58260000 -48.86120000 26.48920000
10.82900000 1.11730000 108.76340000
10.93560000 3.78240000 109.31340000
10.77310000 10.40470000 109.29140000
11.23220000 6.59010000 109.76740000
11.13980000 4.10530000 109.63540000
11.69680000 6.54270000 109.97440000
11.32500000 10.84590000 109.93140000
12.06700000 9.75590000 110.10140000
11.02530000 9.19630000 109.66440000
15.97920000 3.34400000 110.03040000
11.11640000 -3.05490000 109.37840000
11.79900000 -5.24430000 109.80640000
11.57040000 2.49550000 109.88240000
13.15750000 0.21270000 109.96340000
11.27490000 -0.90270000 109.62140000
11.94820000 -1.77940000 109.87840000
11.47620000 -3.21480000 109.73240000
19.38490000 -0.70240000 109.91340000
22.64550000 0.08010000 109.65840000
23.55650000 10.27750000 109.54540000
24.07140000 4.62210000 109.33840000
24.57040000 2.71180000 108.84340000
24.13360000 11.16200000 109.22140000
23.66050000 2.36070000 109.49940000
24.37100000 8.43460000 108.72440000
24.48070000 1.57540000 106.32840000
23.63500000 6.40650000 96.32940000
23.86410000 12.94740000 105.99040000
23.61260000 20.36220000 108.89040000
23.44260000 21.20270000 109.26340000
23.66490000 15.89870000 109.46340000
23.02730000 21.50350000 109.59840000
23.46830000 19.30430000 106.27640000
23.97620000 15.64940000 109.04940000
12.26710000 -7.71590000 109.81940000
24.41370000 -9.55550000 109.38140000
24.35840000 0.96410000 109.20540000
24.49470000 -2.48360000 109.21140000
24.77100000 -1.77660000 108.91740000
24.85490000 -8.06560000 109.19240000
24.94290000 -5.31150000 108.95040000
24.92630000 -2.65070000 108.39940000
25.26830000 -8.68310000 108.69140000
25.41010000 -12.30910000 106.97640000
25.13780000 -16.69240000 109.15440000
25.41300000 -13.17510000 108.75940000
25.60450000 -14.99920000 108.23340000
25.61050000 -19.93250000 108.79740000
22.73110000 10.25490000 79.88170000
22.96230000 16.67600000 88.63740000
25.14180000 -62.90970000 79.91790000
26.42120000 -62.79110000 83.80540000
24.75330000 -62.95640000 92.90640000
25.70010000 -62.82340000 70.03770000
27.02230000 -62.39140000 76.44600000
26.51440000 -62.65720000 72.80540000
27.10650000 -62.22830000 71.68520000
27.39780000 -61.79020000 74.29290000
27.49020000 -61.74110000 72.54790000
26.61750000 -62.49240000 67.05540000
27.18150000 -62.05960000 69.18790000
27.40690000 -60.80200000 67.14630000
27.32320000 -60.77430000 69.35460000
27.38050000 -61.63530000 67.85960000
26.74690000 -62.29430000 64.62010000
27.31160000 -61.41100000 71.32090000
27.54430000 -60.96570000 72.80060000
27.57740000 -60.27320000 75.15510000
27.89820000 -59.55690000 84.52040000
27.63480000 -61.27510000 77.07180000
27.42170000 -62.00150000 81.45500000
27.36520000 -62.06230000 76.60580000
27.66930000 -61.52640000 83.11540000
28.01970000 -61.28750000 90.21840000
27.02890000 -62.57760000 86.38740000
27.60110000 -62.11660000 87.33540000
21.10170000 -61.81800000 108.52040000
21.21270000 -62.67560000 107.52640000
21.36070000 -62.42110000 108.03540000
22.86620000 -62.14640000 108.20440000
22.87480000 -62.63600000 107.55540000
24.32700000 -62.83000000 103.60740000
24.05050000 -62.81800000 106.59540000
26.00230000 -62.60570000 104.90040000
23.72230000 -61.37330000 108.44840000
24.07050000 -60.43640000 108.63440000
24.29170000 -62.39190000 107.49840000
25.00150000 -62.63470000 106.71940000
25.80130000 -60.65790000 108.11340000
26.38360000 -61.36910000 107.41540000
26.50190000 -59.04550000 108.59940000
27.40740000 -59.70880000 108.23440000
26.28960000 -62.36690000 106.00140000
26.42210000 -62.07430000 106.60440000
27.54150000 -62.21570000 105.52440000
27.39690000 -60.94280000 107.64740000
27.70420000 -61.87050000 106.56940000
28.05240000 -61.91560000 106.22440000
28.25650000 -61.40780000 106.83540000
27.96050000 -60.38740000 107.67840000
28.34650000 -59.67020000 107.39640000
28.01350000 -58.45340000 108.09440000
24.66880000 -62.87780000 100.03540000
26.23080000 -62.90420000 96.29440000
27.49960000 -62.59300000 95.44340000
26.58630000 -62.69570000 97.75840000
26.26030000 -62.76870000 101.54740000
26.20380000 -62.66040000 100.19140000
27.57420000 -62.41540000 99.77440000
27.69100000 -62.33950000 102.92240000
28.07300000 -62.10950000 102.01440000
27.88630000 -62.16100000 97.67040000
28.02810000 -62.18830000 96.08040000
28.32380000 -61.40360000 98.15240000
28.19170000 -61.93120000 99.93440000
28.47720000 -60.35920000 101.35140000
28.41440000 -61.38540000 102.30440000
28.40780000 -58.19550000 97.27640000
26.94650000 -62.79550000 91.78840000
27.65200000 -62.36960000 91.53640000
28.14200000 -61.69460000 93.93640000
28.57780000 -58.78880000 102.86540000
28.47340000 -56.17320000 97.19140000
28.49400000 -56.97530000 107.57140000
28.18630000 -54.19160000 107.86540000
28.55120000 -60.12720000 106.36840000
27.93670000 -56.06180000 108.23640000
28.27050000 -61.90250000 105.29440000
28.47340000 -61.46620000 105.88440000
25.90530000 -62.62480000 61.36310000
25.17960000 -62.52340000 53.54810000
26.44840000 -62.31400000 58.61970000
26.66660000 -61.43480000 46.77960000
26.34510000 -61.73590000 48.73440000
25.80610000 -62.18680000 47.65270000
26.78590000 -61.24400000 48.80500000
26.28560000 -62.08040000 53.01750000
26.74730000 -61.68680000 50.41950000
27.02330000 -61.10550000 50.13140000
27.14260000 -61.06280000 53.92720000
26.91530000 -61.46090000 52.45270000
26.93330000 -60.65320000 48.18900000
27.34930000 -60.33340000 60.49570000
26.97860000 -61.77280000 55.41200000
26.97810000 -61.95660000 60.94120000
27.23220000 -61.40270000 59.47290000
25.24210000 -62.24440000 41.44450000
25.83360000 -61.86640000 41.01180000
26.57480000 -60.97790000 44.56550000
26.26050000 -61.39750000 44.17400000
26.42460000 -61.27410000 42.51540000
26.13840000 -61.82190000 45.28290000
26.23340000 -61.24080000 39.58350000
26.56250000 -60.79230000 41.17600000
26.19230000 -61.23400000 36.79860000
25.83880000 -61.50660000 35.76180000
26.73690000 -61.03150000 45.29170000
27.06200000 -61.87700000 65.56470000
27.28720000 -61.31100000 63.30510000
27.22300000 -60.97140000 64.64120000
-26.34740000 62.34690000 -68.87620000
-26.57850000 62.10380000 -59.97720000
-26.33860000 62.38760000 -62.23880000
-26.64040000 61.83270000 -70.17790000
-26.88530000 61.00130000 -57.54680000
-25.63670000 62.75150000 -66.85900000
-26.71350000 62.05090000 -51.46150000
-26.68050000 62.31920000 -39.03020000
-26.34510000 62.46910000 -51.40360000
-26.09240000 62.69970000 -40.41000000
-26.98460000 61.70470000 -38.01400000
-26.98680000 56.31730000 -61.20170000
-26.99390000 62.10700000 -26.34150000
-26.63280000 62.59280000 -26.47950000
-24.39030000 62.96090000 -54.07930000
-25.21870000 63.05970000 -22.04080000
-21.85290000 63.13760000 -49.01190000
-26.75260000 61.80740000 -55.53220000
-25.74600000 62.69450000 -57.68990000
-23.85100000 63.01110000 -66.86710000
-18.50890000 63.21110000 -28.29770000
-15.59150000 63.05500000 -67.14370000
-26.60160000 58.79660000 -88.81370000
-26.15700000 61.23250000 -102.94790000
-26.20570000 56.08550000 -105.97630000
-25.75480000 62.00810000 -105.29310000
-25.94750000 61.41480000 -106.77360000
-26.01280000 59.64640000 -107.47650000
-25.81850000 56.46530000 -109.36280000
-25.97690000 52.53800000 -108.82690000
-25.72730000 51.67350000 -109.65240000
-25.61240000 54.61090000 -109.83810000
-26.62060000 53.85690000 -91.38850000
-26.21750000 62.04940000 -88.11050000
-25.65650000 62.44060000 -94.35740000
-26.28450000 61.62870000 -93.93300000
-26.58750000 61.26500000 -81.62230000
-24.95380000 62.75710000 -93.58820000
-23.31810000 62.91380000 -94.38780000
-24.91320000 62.66370000 -99.95970000
-25.87680000 62.20710000 -97.39270000
-25.64850000 62.55750000 -87.08930000
-26.13110000 61.81660000 -100.01510000
-25.62580000 62.35920000 -100.67600000
-25.20770000 62.47030000 -104.28440000
-25.31890000 62.27830000 -106.94550000
-24.22870000 62.66310000 -106.47380000
-22.83800000 62.88840000 -104.17720000
-23.60040000 62.87800000 -100.54620000
-21.19770000 62.93430000 -98.44030000
-20.82790000 63.05750000 -96.70980000
-20.54950000 62.97990000 -94.32110000
-20.60770000 63.06200000 -99.81310000
-19.87730000 63.07840000 -101.71070000
-19.60670000 62.95940000 -97.88190000
-18.48930000 63.15330000 -97.45720000
-19.51730000 63.21360000 -100.22540000
-16.61230000 63.06400000 -95.98080000
-25.82950000 60.03830000 -108.52110000
-25.45510000 59.90810000 -109.52520000
-25.26540000 58.44020000 -110.05360000
-25.68590000 61.66390000 -107.76340000
-25.19390000 61.91080000 -108.59280000
-25.40030000 61.13530000 -109.03970000
-24.61520000 61.47990000 -109.69060000
-24.65760000 62.45600000 -108.02220000
-22.30500000 62.74770000 -107.80810000
-24.21360000 62.26060000 -109.13400000
-22.63540000 62.52850000 -109.34220000
-25.02470000 60.34040000 -109.91110000
-24.51490000 59.79830000 -110.32710000
-23.62550000 61.19000000 -110.25210000
-23.80030000 61.65580000 -110.00910000
-23.59360000 60.18960000 -110.41950000
-22.90530000 62.25740000 -109.73340000
-22.70430000 61.69920000 -110.14050000
-18.74210000 59.37710000 -110.52090000
-20.67300000 61.28300000 -110.33980000
-21.80910000 62.17440000 -110.01060000
-20.74520000 61.96980000 -110.07900000
-25.31290000 56.21370000 -110.12730000
-24.79430000 56.83270000 -110.40720000
-24.07730000 58.09510000 -110.51060000
-24.15470000 55.54310000 -110.52320000
-25.28510000 54.14270000 -110.17120000
-24.85710000 54.47370000 -110.40150000
-15.49820000 41.32830000 -110.57610000
-20.32630000 63.02480000 -106.15940000
-19.29620000 63.21340000 -104.41050000
-20.68830000 62.61480000 -109.47090000
-19.67960000 62.76820000 -108.98710000
-18.56580000 62.96250000 -107.24690000
-19.32840000 62.28730000 -109.94120000
-18.05830000 61.67460000 -110.30810000
-18.51550000 62.61190000 -109.54780000
-16.95990000 62.28350000 -109.88850000
-16.10660000 62.59520000 -109.31110000
-16.53880000 60.40260000 -110.48110000
-15.67990000 61.75780000 -110.12450000
-14.59170000 62.02330000 -109.80460000
-15.07730000 61.14980000 -110.21630000
-17.79200000 63.12980000 -104.20250000
-16.18590000 63.21930000 -104.33270000
-17.50980000 63.22680000 -106.24380000
-17.59370000 63.24140000 -101.77070000
-16.15580000 63.04090000 -107.12850000
-13.33410000 62.75460000 -108.71510000
-12.98870000 62.35770000 -109.52680000
-13.73020000 62.91230000 -107.52390000
-13.53420000 63.24930000 -106.06650000
-14.58330000 63.24680000 -101.24390000
-26.34650000 62.15590000 -79.28160000
-25.81670000 62.63940000 -78.62190000
-24.90370000 62.87610000 -79.83480000
-17.87410000 62.99430000 -84.29610000
-21.04890000 63.00920000 -89.91330000
-18.30580000 63.09280000 -91.96160000
-17.77710000 62.98920000 -92.84810000
-13.21210000 62.97710000 -85.85460000
-15.72300000 63.00660000 -92.45110000
-18.92540000 63.04990000 -95.92030000
-17.43750000 63.16320000 -94.36300000
-16.02380000 63.15680000 -97.39230000
-15.69320000 63.03870000 -98.99410000
-13.75690000 63.13250000 -96.72040000
-13.18060000 63.06090000 -97.93960000
-16.11560000 63.10680000 -92.83360000
-19.74470000 -7.07030000 -95.46240000
-23.10510000 -15.00660000 -101.85600000
-21.92540000 -33.76510000 -98.96820000
-16.04850000 -26.65970000 -86.94610000
-15.79370000 -3.00750000 -87.25250000
-25.85260000 10.17130000 -107.12200000
-26.07320000 22.95300000 -107.57170000
-26.12570000 11.29660000 -107.91330000
-26.16460000 19.33720000 -108.42950000
-26.06740000 19.30330000 -109.20770000
-25.83150000 15.68620000 -109.78900000
-25.44680000 19.51630000 -110.18220000
-25.85420000 18.72910000 -109.78090000
-25.96900000 23.14320000 -109.58400000
-25.69700000 22.67280000 -109.99650000
-24.89590000 20.06500000 -110.38340000
-24.20450000 26.84740000 -110.46680000
-21.95340000 23.99590000 -110.49720000
-25.37850000 17.00700000 -110.21200000
-25.12770000 14.09300000 -110.31410000
-26.14310000 8.46960000 -108.70210000
-26.03510000 14.16220000 -109.31260000
-25.96140000 7.54530000 -109.45160000
-25.69250000 12.65950000 -109.96670000
-25.20280000 12.17080000 -110.30060000
-25.51540000 8.85590000 -110.09950000
-24.57060000 12.41970000 -110.43140000
-25.96490000 -10.18260000 -109.22750000
-25.89160000 -4.29570000 -109.48500000
-25.53800000 -12.17430000 -109.90880000
-26.08650000 -6.24630000 -107.66600000
-26.13250000 -2.06900000 -108.37320000
-25.12000000 -9.46690000 -110.18550000
-25.74890000 3.68790000 -109.80540000
-24.89920000 -2.22400000 -105.36400000
-23.38360000 11.25660000 -102.87210000
-18.48460000 11.10210000 -93.00100000
-25.76380000 -9.36740000 -106.76800000
-25.52220000 -0.47580000 -110.02020000
-25.06950000 2.66330000 -110.29590000
-24.61370000 -0.73610000 -110.37260000
-25.26990000 -1.69240000 -110.19550000
-25.53400000 -3.90420000 -109.97760000
-24.67140000 -6.74210000 -110.32910000
-23.88360000 -19.79770000 -110.31740000
-8.93390000 -42.13170000 -110.43150000
-24.78130000 8.44450000 -110.39580000
0.75380000 -1.94250000 -110.50670000
-25.95860000 -19.45530000 -107.21910000
-26.05150000 -15.77590000 -108.66690000
-26.00580000 -29.21020000 -107.54720000
-25.79820000 -17.58170000 -109.54370000
-25.97250000 -24.36670000 -108.85450000
-24.66220000 -16.67530000 -110.29400000
-25.30890000 -17.40090000 -110.05740000
-25.68580000 -23.63930000 -109.65970000
-24.84230000 -21.73290000 -110.22190000
-24.96970000 -24.89370000 -110.17010000
-25.44610000 -27.83810000 -109.87200000
-25.65160000 -30.95200000 -109.64590000
-25.85010000 -29.67610000 -109.26020000
-24.75230000 -30.69680000 -110.17240000
-23.71270000 -37.79810000 -110.20620000
4.95880000 -38.81390000 -110.42140000
-26.77100000 48.16190000 -7.63810000
-26.72370000 48.22120000 -35.45590000
-26.15650000 47.83020000 -35.26460000
-27.22230000 50.65340000 -25.19260000
-27.00350000 49.80220000 -54.54710000
-27.10290000 48.89910000 -22.81710000
-25.78260000 47.90070000 -11.36680000
-24.97540000 47.51880000 -46.45110000
-24.42020000 47.68530000 -25.85430000
-25.72890000 47.46420000 -66.16410000
-26.43960000 47.84530000 -55.17940000
-26.17910000 47.64320000 -76.77340000
-26.81800000 48.41200000 -56.99270000
-25.20760000 47.36470000 -84.68500000
-21.67410000 47.25060000 -83.42490000
-22.31670000 47.26420000 -63.97250000
-26.68420000 48.99520000 -84.04580000
-14.25820000 47.57670000 -46.87000000
-15.83960000 47.43050000 -72.17950000
-21.40990000 47.63320000 -24.95470000
-5.71600000 63.07010000 -45.80720000
-9.40260000 47.69380000 -61.07420000
-9.36230000 40.02550000 -69.29060000
-8.24720000 28.92690000 -67.32090000
-6.77230000 36.09270000 -61.24250000
-4.61780000 35.58290000 -52.14420000
-2.28570000 30.17030000 -40.60590000
-3.81250000 43.95050000 -45.96440000
-9.86160000 47.41230000 -67.05550000
-6.94740000 47.64330000 -56.18360000
-8.00850000 47.29110000 -61.93560000
-5.92680000 45.74640000 -55.92320000
-7.44850000 46.74260000 -61.23610000
-7.78220000 46.07670000 -63.04760000
-6.38910000 47.29160000 -55.88490000
-6.47760000 47.84470000 -51.94670000
-5.14330000 46.75690000 -51.53370000
-6.67870000 48.03920000 -36.44130000
-5.26160000 47.54700000 -50.01600000
-4.96180000 48.03550000 -41.94420000
-5.18470000 47.82440000 -47.38440000
-4.38220000 47.22220000 -46.91610000
-4.11000000 47.68870000 -43.46530000
-3.43850000 46.94950000 -42.38750000
-11.97460000 -2.79280000 -78.60170000
-13.52480000 15.18260000 -82.04170000
-10.32470000 18.90900000 -73.97400000
-7.07100000 12.17950000 -64.64720000
-9.14370000 -2.33320000 -71.37380000
-11.17480000 -24.38580000 -75.97060000
-7.20780000 -21.62350000 -64.69530000
-9.51550000 -24.50210000 -71.62100000
-4.48160000 -0.46820000 -55.47680000
-5.84140000 -5.73470000 -60.71620000
-5.44900000 13.82090000 -58.75690000
-7.54330000 -3.17970000 -66.54680000
-3.81390000 -13.97170000 -52.15210000
-3.07550000 0.06840000 -49.24600000
-2.07700000 -2.47670000 -43.92490000
-0.62250000 -12.65860000 -33.24180000
-0.30490000 0.35990000 -31.88340000
-1.02750000 12.84830000 -35.89860000
-2.26150000 8.04290000 -44.44510000
1.60200000 -1.24420000 -15.82050000
2.35290000 10.11660000 -7.85370000
-0.24150000 33.57390000 -26.01260000
0.31770000 12.11950000 -26.08440000
1.39290000 27.67320000 -13.93820000
-3.93470000 10.35200000 -52.72420000
-4.94720000 22.32280000 -56.00130000
-3.21500000 17.48670000 -48.56110000
-2.64110000 -23.82930000 -45.07770000
-26.18090000 47.77160000 -107.42900000
-26.28770000 48.50880000 -105.26850000
-26.03130000 47.50630000 -105.39730000
-25.12010000 51.41220000 -110.27790000
-25.60600000 49.76310000 -109.95690000
-26.10820000 45.79990000 -108.81990000
-25.95930000 47.05470000 -109.43730000
-24.70170000 48.34960000 -110.46880000
-25.16300000 48.41430000 -110.30770000
-24.31860000 45.71390000 -110.51600000
-25.59500000 46.22590000 -110.00980000
-26.01090000 42.80580000 -109.20180000
-26.12280000 42.55600000 -107.83130000
-26.13710000 44.30950000 -107.62480000
-25.75650000 42.44930000 -106.52770000
-25.85120000 43.65940000 -109.73130000
-25.54400000 42.34770000 -110.07220000
-25.25020000 44.02360000 -110.27580000
-25.65690000 43.76960000 -106.18290000
-25.92540000 46.68510000 -106.36050000
-25.63250000 47.10860000 -104.58680000
-24.26430000 45.34750000 -103.37140000
-24.31280000 46.33080000 -103.06360000
-23.38180000 40.08450000 -101.97870000
-25.45010000 31.25980000 -109.37470000
-24.98230000 33.73740000 -109.49360000
-25.19530000 31.97770000 -109.99290000
-24.72320000 32.15120000 -110.38780000
-24.79660000 33.86390000 -109.94520000
-24.32510000 33.66860000 -110.37520000
-24.75070000 35.65310000 -109.38930000
-25.31190000 33.18790000 -107.40630000
-24.22290000 34.69420000 -110.18070000
-24.34690000 36.52250000 -110.17910000
-23.62820000 35.19120000 -110.44810000
-25.00770000 40.06740000 -105.10510000
-25.13760000 40.09650000 -105.66450000
-25.10620000 37.90140000 -106.30210000
-25.07310000 33.37370000 -105.37470000
-25.31080000 34.39960000 -105.97550000
-23.94380000 26.01810000 -103.56160000
-25.77140000 41.67800000 -108.37570000
-25.71780000 41.82320000 -109.46420000
-25.27410000 41.20720000 -109.43260000
-25.71400000 41.79600000 -107.03880000
-25.16910000 40.83750000 -107.89400000
-24.84060000 40.48990000 -109.80450000
-24.92290000 39.41720000 -107.67090000
-24.70450000 39.30220000 -109.58840000
-24.55750000 39.30360000 -110.11000000
-24.57220000 37.71490000 -109.92520000
-24.05810000 37.80890000 -110.42930000
-25.25420000 41.01770000 -106.18030000
-24.90240000 37.49860000 -107.84300000
-24.84000000 41.00500000 -110.20680000
-23.96410000 39.77550000 -110.49540000
-24.23620000 39.60630000 -110.42530000
-26.47060000 48.15640000 -87.56790000
-26.10350000 47.74720000 -95.58100000
-25.66440000 47.47580000 -96.02100000
-24.34790000 47.24810000 -97.87830000
-21.23920000 47.11230000 -94.31000000
-17.35160000 47.26850000 -85.22940000
-16.94460000 47.37460000 -81.29180000
-16.34480000 46.26860000 -85.95290000
-17.78630000 46.95060000 -88.07370000
-19.23780000 46.73650000 -91.82800000
-18.93100000 46.02960000 -91.90270000
-18.14740000 42.13770000 -90.73870000
-25.85530000 47.50540000 -102.55040000
-25.36520000 47.27590000 -102.29720000
-23.17560000 47.02770000 -99.18870000
-21.77520000 45.86090000 -98.12230000
-22.12260000 46.50210000 -98.45410000
-24.27470000 46.83020000 -102.21800000
-21.28480000 46.84630000 -95.97930000
-26.19700000 47.91880000 -103.87820000
-20.80690000 46.49060000 -95.64680000
-19.77550000 35.35110000 -94.90040000
-20.63060000 22.95900000 -97.28980000
-16.70980000 26.19680000 -88.77430000
-25.78260000 26.94940000 -106.89730000
-25.72730000 29.30460000 -107.89690000
-26.11010000 26.50430000 -108.24450000
-25.38660000 28.55500000 -110.22680000
-25.83720000 27.83850000 -109.84670000
-25.96000000 28.50060000 -109.35520000
-25.57410000 29.69980000 -109.99610000
-26.04750000 26.50130000 -109.35520000
-25.45150000 26.42770000 -110.20600000
-24.96740000 26.17000000 -110.39240000
-25.77720000 25.97040000 -109.93710000
-25.41570000 24.81870000 -110.22240000
-24.90230000 30.17320000 -110.37010000
-13.50410000 31.24860000 -81.19230000
-11.92430000 41.13820000 -76.27740000
-24.08230000 52.62780000 -110.54290000
-24.75680000 52.75530000 -110.43630000
-12.81700000 61.37380000 -110.25770000
-11.68480000 60.79970000 -110.46300000
-8.69340000 62.92630000 -107.42970000
-4.41960000 57.69550000 -110.59340000
-10.69640000 62.62170000 -109.13230000
-10.19320000 61.88660000 -110.14580000
-9.18680000 62.27940000 -109.69840000
-7.54750000 61.42380000 -110.27970000
-6.55220000 60.25200000 -110.50690000
-15.86830000 47.14280000 -83.29940000
-14.45180000 47.37630000 -78.77920000
-14.31750000 47.12660000 -79.96260000
-15.17240000 46.61380000 -83.02910000
-14.26850000 45.94130000 -81.32610000
-13.08470000 46.88870000 -77.70310000
-13.84570000 46.63030000 -79.89270000
-12.08920000 47.49480000 -72.27060000
-12.61070000 47.28860000 -75.40100000
-12.41730000 46.24970000 -76.72770000
-11.49610000 47.02910000 -73.49560000
-10.95600000 46.53130000 -72.82270000
-12.97610000 63.02350000 -91.42490000
-11.00150000 63.05880000 -90.24360000
-10.24760000 63.08800000 -93.00860000
-10.53600000 63.14980000 -98.49520000
-2.05790000 62.97340000 -83.25680000
-10.27290000 45.73630000 -71.13520000
-9.78390000 46.96360000 -68.54250000
-9.58100000 46.51410000 -68.60500000
-9.63050000 63.26550000 -102.36340000
-7.97310000 63.18370000 -105.75930000
0.07800000 63.05000000 -102.47270000
-6.90910000 62.52160000 -109.15700000
-6.68940000 61.97560000 -109.90570000
-4.48070000 62.17960000 -109.57920000
-3.11410000 62.61180000 -108.91990000
-4.58630000 60.76990000 -110.35320000
-4.72040000 61.53970000 -110.06420000
-3.35170000 61.39750000 -110.29820000
-3.08340000 61.96170000 -109.98420000
-1.14220000 62.18430000 -109.70730000
-2.06070000 61.04950000 -110.33330000
1.88560000 62.74860000 -108.16450000
8.35610000 62.82260000 -106.31420000
1.75420000 60.62510000 -110.47450000
1.52320000 62.53220000 -109.24230000
0.88420000 61.45310000 -110.30910000
1.81530000 62.00990000 -109.98830000
4.83260000 62.48780000 -109.35440000
4.24940000 61.77230000 -110.17070000
5.15630000 43.77680000 -110.48010000
5.12560000 62.11760000 -109.88420000
7.78790000 61.17000000 -110.34890000
12.89020000 59.14840000 -110.39190000
9.38270000 61.83750000 -110.01920000
9.27840000 62.24830000 -109.63940000
8.98180000 62.62200000 -108.83610000
12.06350000 62.41280000 -109.21310000
14.65830000 62.56110000 -108.19390000
13.15550000 62.62310000 -79.89370000
18.69370000 62.52590000 -96.62550000
13.43500000 61.09770000 -110.26480000
13.60090000 62.15030000 -109.58550000
15.32950000 62.38770000 -108.95620000
14.05550000 61.72760000 -109.97890000
16.71710000 61.63350000 -109.97420000
18.68970000 60.70880000 -110.22070000
17.96210000 62.12630000 -109.46980000
21.50320000 52.48820000 -110.14470000
20.77570000 62.43130000 -99.80470000
20.52150000 62.51030000 -102.88370000
19.63490000 62.50230000 -89.67610000
20.74760000 62.38090000 -84.92790000
22.35430000 62.28820000 -97.24990000
24.17440000 62.22250000 -99.56910000
21.34590000 62.41600000 -92.61880000
23.48200000 62.19000000 -88.59020000
23.76770000 62.01350000 -91.18370000
24.01800000 62.18930000 -94.65980000
25.78220000 61.92030000 -96.54360000
24.62890000 62.16250000 -92.93830000
25.62120000 61.80970000 -90.85190000
26.21130000 61.92550000 -92.81980000
26.38820000 61.61320000 -91.31460000
26.70570000 61.73390000 -92.71600000
26.55680000 61.10970000 -90.66510000
26.99850000 61.24850000 -92.66340000
25.89380000 61.82840000 -94.09130000
26.69180000 61.58940000 -94.70300000
27.05080000 61.25790000 -94.40060000
27.01770000 61.03210000 -95.85200000
26.85470000 61.56410000 -97.13850000
26.40810000 61.86790000 -97.36660000
27.07140000 60.74490000 -98.21590000
27.37120000 58.30350000 -92.83370000
27.43900000 54.24790000 -98.17670000
27.26590000 59.32460000 -96.24330000
27.17650000 58.27560000 -101.68170000
27.06760000 59.07450000 -91.31950000
26.61290000 59.95280000 -90.30440000
27.18750000 58.49910000 -89.70570000
26.81220000 59.87280000 -89.06760000
27.12770000 60.04460000 -92.19460000
27.33360000 56.94960000 -88.43670000
27.31480000 55.75050000 -86.03500000
27.31060000 60.31050000 -94.60150000
20.72620000 62.44140000 -107.72300000
18.75760000 62.41530000 -108.86270000
21.50610000 62.14030000 -109.21780000
21.24530000 61.65600000 -109.72970000
22.72670000 60.73250000 -109.98880000
22.84120000 62.45010000 -105.02630000
23.71790000 62.43610000 -101.32530000
23.97730000 62.16920000 -108.03890000
24.51120000 57.15540000 -110.06770000
24.32020000 62.44080000 -106.50110000
25.19040000 62.25390000 -102.23620000
25.47520000 62.26230000 -104.80480000
25.14530000 62.24420000 -106.73250000
25.15180000 61.76390000 -107.81360000
25.95440000 61.85410000 -106.04360000
26.70000000 60.00740000 -105.58690000
26.52240000 61.03770000 -105.46110000
26.59650000 61.13250000 -103.46800000
25.97960000 61.11690000 -107.17560000
25.31400000 61.10040000 -108.39000000
26.40780000 59.15310000 -107.35520000
25.70940000 53.92350000 -109.94260000
25.94940000 55.74020000 -109.77800000
26.38200000 51.63030000 -109.65140000
26.58040000 54.89920000 -109.35470000
26.78320000 55.63630000 -108.91940000
26.56580000 57.62150000 -108.73510000
26.88780000 57.03170000 -107.77130000
27.13760000 53.85010000 -107.67180000
27.36570000 52.34030000 -104.98710000
26.96600000 57.19720000 -105.38930000
23.76210000 61.77600000 -109.23660000
24.03730000 60.99960000 -109.72920000
24.51730000 59.75880000 -109.93550000
25.14710000 60.31530000 -109.39360000
25.33550000 59.06430000 -109.70300000
25.37560000 57.78910000 -109.87020000
25.85400000 59.01750000 -109.08990000
24.66750000 61.22360000 -109.30740000
26.33680000 57.08160000 -109.31870000
26.64620000 61.37410000 -100.83890000
26.16250000 61.96810000 -101.98410000
26.99910000 60.22390000 -100.79210000
26.13990000 62.11290000 -99.94750000
26.57420000 61.80280000 -99.84040000
26.89400000 61.48050000 -98.89060000
26.26780000 61.92510000 -103.97830000
3.67980000 5.73990000 -110.47750000
16.12630000 4.41340000 -110.19190000
6.40240000 0.74170000 -110.38510000
5.51450000 1.02020000 -110.53460000
13.53880000 0.75940000 -80.28780000
13.79890000 9.18790000 -79.76620000
14.17940000 6.53130000 -79.45640000
13.49630000 11.29740000 -80.63670000
13.75080000 22.06990000 -93.41050000
13.53790000 22.25260000 -91.15340000
13.63400000 5.26340000 -92.56450000
13.25500000 14.37660000 -88.19130000
14.47040000 19.43410000 -95.35150000
14.13890000 23.13960000 -94.83200000
13.99960000 18.56070000 -94.63690000
14.90210000 21.44190000 -95.51320000
14.43960000 15.60920000 -95.28320000
15.52930000 18.26100000 -95.74080000
14.81240000 18.37930000 -95.61240000
14.10320000 11.58880000 -94.92390000
15.36170000 16.23620000 -95.63240000
14.93070000 13.81020000 -95.66010000
15.94380000 15.16840000 -95.72660000
17.36050000 17.64750000 -95.59100000
16.03230000 22.24320000 -95.59210000
13.90640000 3.83390000 -94.46870000
14.33840000 5.41300000 -95.20490000
14.77160000 7.38790000 -95.51480000
15.42800000 9.27060000 -95.72480000
15.42930000 5.90680000 -95.66570000
14.42660000 11.77670000 -95.43600000
15.41010000 12.49130000 -95.79900000
14.93490000 11.21640000 -95.73710000
16.26880000 11.49550000 -95.78210000
16.99100000 14.53840000 -95.62870000
19.84910000 16.78030000 -95.02990000
18.72270000 11.07950000 -95.23810000
21.09190000 10.51720000 -94.74070000
16.87990000 7.28490000 -95.57430000
22.49310000 22.29950000 -110.04210000
25.50760000 11.29270000 -109.95490000
26.96000000 17.35050000 -108.76510000
27.02570000 27.40480000 -108.71110000
27.28590000 38.61830000 -104.47730000
25.62270000 25.90720000 -109.92920000
26.01350000 20.68620000 -109.89190000
26.35250000 26.90700000 -109.76450000
25.95030000 18.22520000 -109.90680000
26.56720000 20.87280000 -109.64620000
26.79290000 24.05780000 -109.41420000
26.87780000 20.33360000 -109.23300000
26.57840000 18.56130000 -109.65940000
26.84210000 17.50100000 -109.29410000
26.01910000 15.44080000 -109.88530000
26.48410000 13.00860000 -109.69860000
26.45630000 14.90610000 -109.71630000
26.79660000 14.33350000 -109.29160000
26.65910000 -15.01310000 -107.10700000
26.84840000 7.68910000 -108.73150000
14.02310000 26.77610000 -79.52510000
14.33910000 28.27240000 -79.16400000
14.98880000 26.95190000 -78.89740000
13.60630000 39.66350000 -83.01090000
13.42020000 36.24190000 -83.45550000
13.68090000 40.97050000 -85.97680000
13.12940000 11.91500000 -86.21040000
13.39370000 35.36530000 -86.93290000
13.83100000 40.95850000 -88.92170000
14.23030000 43.15410000 -89.94740000
14.58740000 44.66920000 -89.69670000
14.79430000 44.57440000 -91.21490000
14.08510000 40.02560000 -93.06000000
14.35690000 42.02660000 -92.76270000
13.75360000 38.06320000 -91.03750000
13.93900000 34.00950000 -93.81600000
14.36530000 36.79240000 -94.43530000
14.24310000 39.46550000 -93.80700000
13.60660000 32.73270000 -91.89520000
14.35750000 31.36060000 -94.85740000
14.81020000 34.19160000 -94.95530000
14.85680000 30.85900000 -95.20340000
14.03580000 28.23900000 -94.53230000
15.59740000 35.03380000 -95.11930000
14.77110000 27.52940000 -95.35040000
14.45650000 25.29750000 -95.19780000
15.34290000 25.33960000 -95.51290000
16.74390000 31.61900000 -95.15420000
13.46270000 24.20030000 -81.94600000
13.72560000 37.26190000 -80.66640000
13.93820000 32.29930000 -79.70310000
14.11910000 34.92130000 -79.24780000
14.62070000 35.01470000 -78.73880000
15.00760000 32.31870000 -78.71140000
13.76430000 25.03250000 -80.14370000
16.58160000 31.30280000 -78.67030000
14.32340000 43.52280000 -80.32770000
13.96540000 42.53920000 -82.62340000
14.50690000 44.95570000 -82.28810000
13.98980000 40.89350000 -80.39860000
14.97870000 45.49220000 -80.67120000
14.77200000 44.77340000 -79.72900000
14.81500000 44.06600000 -79.01890000
15.45740000 45.87730000 -79.79040000
15.29620000 45.15220000 -78.89350000
15.69000000 46.34640000 -81.40930000
16.00120000 45.63390000 -78.39050000
16.09390000 46.21570000 -79.30830000
16.68340000 46.62830000 -80.13370000
17.01050000 46.43000000 -78.87140000
14.43400000 42.24710000 -79.13200000
14.87010000 42.47990000 -78.46710000
15.37870000 44.36930000 -78.21030000
15.60060000 43.77770000 -77.87280000
16.14150000 44.87450000 -77.71250000
16.46080000 44.52990000 -77.50400000
15.66190000 41.99360000 -77.93150000
17.98650000 44.50920000 -77.24340000
14.12770000 38.66300000 -79.19720000
14.54990000 39.54050000 -78.58460000
15.43590000 37.30520000 -78.33070000
16.53580000 40.94520000 -77.88100000
17.31490000 36.66850000 -78.39480000
19.49260000 42.83190000 -77.65680000
20.26280000 37.94690000 -78.56050000
14.37980000 45.01160000 -85.64890000
14.06020000 43.78200000 -84.44140000
14.89370000 45.95890000 -85.59470000
14.99850000 45.95750000 -82.72550000
15.04920000 45.71740000 -88.51950000
15.36500000 45.66120000 -90.25190000
15.54000000 46.41960000 -86.95670000
16.38180000 46.41180000 -89.31340000
15.40950000 46.43440000 -84.21840000
16.64860000 46.90130000 -86.10150000
17.95030000 46.85870000 -88.37350000
16.43150000 46.78360000 -82.50750000
18.01680000 46.95670000 -81.66250000
18.67390000 47.12220000 -86.30790000
19.47260000 47.13010000 -84.08810000
21.36690000 46.99760000 -87.32640000
17.00720000 45.94250000 -77.96510000
18.32670000 46.72430000 -79.20920000
17.50550000 45.61260000 -77.48740000
18.03100000 45.19980000 -77.18060000
18.29070000 46.34530000 -78.01210000
21.19170000 46.46840000 -77.79730000
19.02200000 45.71830000 -77.19320000
19.68140000 45.43490000 -77.06570000
20.34650000 46.16890000 -77.40290000
20.48230000 44.95880000 -77.08510000
21.91010000 45.73950000 -77.04710000
22.91420000 45.28720000 -77.04110000
22.66680000 43.79670000 -77.56950000
22.07970000 46.81910000 -79.62690000
24.38170000 46.96450000 -83.39400000
22.39940000 46.66310000 -78.30980000
23.91440000 46.95550000 -85.93860000
26.20010000 47.13870000 -85.06760000
25.33670000 46.94760000 -79.79440000
23.67690000 46.22390000 -77.17510000
24.42260000 46.75240000 -77.98060000
24.64510000 46.17420000 -76.85790000
24.71240000 46.57470000 -77.11270000
24.29180000 44.97620000 -77.08260000
25.95570000 47.14150000 -76.98510000
25.21730000 46.01900000 -76.46190000
25.08370000 44.87960000 -76.98160000
25.69450000 44.83870000 -76.62230000
25.82240000 45.43170000 -75.86150000
25.76300000 46.51270000 -75.66410000
25.95810000 46.06430000 -74.39860000
25.85510000 46.99490000 -76.34370000
26.03780000 46.86650000 -75.02710000
26.19910000 47.20240000 -79.86060000
26.64180000 47.47550000 -81.08360000
27.07780000 48.17870000 -84.61510000
26.62710000 47.70340000 -75.84350000
20.71930000 31.24740000 -79.12450000
23.53740000 40.47250000 -78.46720000
24.50820000 36.71330000 -79.04180000
25.33020000 30.22610000 -79.45540000
26.00430000 35.16580000 -79.09880000
26.62640000 40.72360000 -77.07540000
26.30230000 43.93930000 -75.48080000
26.79710000 39.51100000 -75.58150000
26.41000000 44.30270000 -72.98970000
26.76590000 41.92370000 -72.26710000
26.82290000 33.85550000 -74.04040000
24.90650000 43.33130000 -77.68820000
25.83270000 40.35100000 -78.38660000
26.00980000 42.33900000 -77.74750000
26.29350000 42.35300000 -77.35210000
25.64980000 44.02520000 -77.21760000
25.76030000 37.83580000 -78.86780000
26.33360000 38.65890000 -78.50950000
26.38550000 40.05640000 -78.14200000
26.59100000 38.28660000 -78.19470000
26.37770000 37.40170000 -78.66180000
26.74990000 35.08830000 -77.97780000
26.44870000 35.54230000 -78.81770000
13.73740000 18.94530000 -79.93250000
13.93490000 15.65450000 -79.58100000
14.27660000 19.91690000 -79.28030000
14.38170000 17.25360000 -79.23050000
14.88150000 20.66620000 -79.02930000
14.88730000 15.59800000 -79.11820000
15.67390000 14.14600000 -79.10960000
14.38860000 24.18780000 -79.16990000
14.05270000 22.44650000 -79.49130000
15.54690000 23.37430000 -78.88630000
17.49710000 22.53990000 -79.05100000
14.43270000 13.26590000 -79.26430000
14.94290000 7.66280000 -79.24070000
13.09860000 -6.09960000 -84.17510000
19.70580000 11.94360000 -79.55520000
15.63990000 0.65150000 -79.36560000
19.36060000 23.47300000 -94.81320000
22.08830000 19.48960000 -94.29640000
24.64380000 20.69000000 -93.63590000
24.25000000 28.51290000 -93.67340000
23.87520000 13.95670000 -93.83380000
25.16910000 16.86910000 -93.54630000
25.95280000 19.72120000 -93.55870000
25.93490000 15.20360000 -93.54840000
26.39030000 16.49550000 -93.79070000
26.55890000 20.07810000 -93.95160000
26.72130000 18.81440000 -94.46200000
25.26030000 13.52570000 -93.52400000
26.61110000 11.38890000 -94.31010000
26.80760000 20.93510000 -95.24090000
23.72020000 26.82640000 -79.57870000
24.62330000 11.24250000 -79.86280000
25.41900000 21.92450000 -79.66650000
23.05530000 1.11130000 -80.00050000
25.29430000 17.14640000 -79.73660000
25.53910000 14.60110000 -79.71740000
26.10590000 20.25220000 -79.50080000
26.35730000 17.21760000 -79.35370000
25.98650000 16.54010000 -79.58990000
26.54900000 20.65010000 -79.06210000
26.48180000 14.76690000 -79.13520000
26.68200000 19.51630000 -78.54190000
26.58720000 11.52050000 -78.51210000
26.04720000 14.63210000 -79.56830000
26.57600000 21.63100000 -71.03860000
25.98830000 24.28200000 -93.58620000
26.37610000 22.43300000 -93.75040000
26.13390000 30.43470000 -79.27730000
26.53170000 31.64270000 -78.90490000
26.73530000 29.15620000 -78.29460000
25.98670000 27.10610000 -79.43820000
26.46610000 28.22240000 -79.10810000
25.95210000 25.13300000 -79.49320000
26.62280000 26.87580000 -78.83610000
26.33010000 26.04970000 -79.27610000
26.32980000 23.61070000 -79.33230000
26.57280000 24.08640000 -79.02920000
14.74680000 41.31520000 -93.97360000
15.54790000 41.14330000 -94.43350000
14.89350000 39.99610000 -94.44570000
15.22280000 44.74930000 -91.97000000
14.68610000 42.87910000 -92.98910000
15.35770000 43.93760000 -93.00410000
15.96530000 44.87600000 -92.35950000
15.83590000 45.63080000 -91.19700000
15.18060000 43.02740000 -93.55850000
15.56930000 42.62040000 -93.93880000
16.59030000 43.70710000 -93.40570000
16.24050000 42.09200000 -94.15720000
21.00480000 43.13100000 -92.99470000
17.46690000 45.28010000 -92.11060000
21.65130000 44.24770000 -92.35770000
15.56960000 39.42200000 -94.78390000
14.92350000 36.77780000 -94.90530000
16.72760000 40.53930000 -94.50370000
16.27320000 38.83990000 -94.85960000
18.36540000 36.74880000 -94.63730000
20.62130000 41.30270000 -93.51000000
21.51920000 32.51380000 -94.23390000
22.05690000 37.04110000 -93.69480000
23.97570000 35.86950000 -93.24500000
24.86250000 33.14750000 -93.40360000
25.03500000 36.98630000 -93.00680000
27.25130000 44.80010000 -96.05920000
27.03960000 29.96370000 -98.34620000
25.18590000 47.99560000 -109.97850000
26.00770000 47.24490000 -109.85290000
26.76900000 51.41010000 -109.35370000
27.09250000 47.53560000 -108.97910000
26.75300000 46.56350000 -109.45210000
27.12960000 50.26220000 -108.71790000
27.21500000 42.15570000 -108.44150000
26.25000000 42.57080000 -109.79380000
27.03970000 43.10010000 -109.12900000
26.54990000 38.93230000 -109.63860000
26.33760000 34.40450000 -109.75570000
25.81580000 33.89650000 -109.88990000
26.87470000 34.38960000 -109.26500000
26.87970000 39.87580000 -109.35430000
16.82360000 45.95700000 -91.05130000
19.51370000 46.18020000 -90.66270000
17.59970000 46.53440000 -89.81010000
19.59240000 44.81640000 -92.34180000
19.34700000 45.67040000 -91.53470000
20.87740000 46.66800000 -89.24220000
22.11250000 45.52060000 -91.22510000
