4.37125000 1.30937000 5.96062000
4.33250000 1.08566000 5.95913000
4.79299000 1.09363000 5.96491000
2.62446000 -0.37735900 -3.58009000
4.10796000 -0.24876000 -3.66746000
3.62997000 -0.25981300 -3.61424000
2.77376000 -0.33629600 -3.55328000
-2.05218000 -1.31025000 4.40608000
-1.44205000 -1.11998000 4.40139000
-1.51031000 -1.34581000 4.43454000
-0.04571760 -1.51253000 4.53447000
-0.24096000 -1.48221000 4.52157000
-0.32054200 -1.17193000 4.45046000
-9.01600000 1.39562000 1.86673000
-9.02289000 1.39991000 2.19149000
-9.03040000 1.42651000 2.03968000
-9.02289000 1.39991000 2.19149000
-8.99954000 1.35576000 1.78600000
1.94177000 0.02331830 -0.13989800
1.60556000 -0.02300020 -0.56213800
1.71191000 -0.02956330 -0.43609700
1.62479000 -0.02172770 -0.41356800
6.88294000 1.25045000 5.99528000
8.90731000 1.14135000 5.93489000
8.85887000 1.22934000 5.97388000
-0.61703500 1.40551000 -4.54129000
-0.65996000 1.42773000 -4.25564000
-0.32360500 1.41203000 -4.34806000
-1.11745000 1.43849000 -4.22434000
-1.06024000 1.41967000 -4.19693000
-0.86438100 1.41862000 -4.19842000
-2.40631000 -1.99985000 4.56014000
-2.81355000 -1.84065000 4.48358000
-2.36925000 -1.78463000 4.49907000
-3.18602000 -2.05234000 4.53314000
-2.72273000 -2.06830000 4.57793000
-3.10462000 -2.07727000 4.56870000
1.35482000 -0.40272800 -1.31159000
1.61172000 -0.36417400 -1.39189000
1.56678000 -0.34090300 -1.24337000
2.71546000 -0.18660600 -1.39324000
2.79203000 -0.19425300 -1.61505000
0.17335000 -0.37516700 -0.09554750
0.23946400 -0.36629500 -0.10300600
0.29119100 -0.34699400 0.04145220
0.68701300 -0.25586600 -0.25517000
0.70736200 -0.25566500 -0.10892100
0.54548900 -0.29361800 -0.14088800
-8.10875000 -0.62716800 -4.31716000
-7.92391000 -1.02200000 -4.22205000
-8.10875000 -0.62716800 -4.31716000
-7.93010000 -0.95552200 -4.26180000
-7.92391000 -1.02200000 -4.22205000
-9.05098000 1.48017000 -1.08720000
-9.03552000 1.50688000 -1.12985000
-9.04489000 1.49261000 -1.32300000
-8.96985000 1.50526000 1.29846000
-8.74949000 1.51689000 1.20587000
-8.98303000 1.50452000 0.92077400
-0.08211500 -0.46131200 -0.14994900
0.01618970 -0.44492200 -0.08965600
-0.03123650 -0.43174900 -0.04703730
-0.30762800 -0.55014300 -0.60162300
-3.89211000 0.24195000 -3.70391000
-3.64536000 0.23691900 -3.70841000
-3.65589000 0.50789000 -3.78771000
-5.42857000 -0.98045500 -3.31455000
-4.93074000 -0.85058400 -3.36137000
-5.31913000 -0.78025100 -3.37517000
-7.69086000 0.51979100 -0.35367500
-7.58042000 0.17035700 -0.60826800
-7.67115000 0.46787500 -0.54526500
-7.89136000 1.14106000 -1.22549000
-7.88609000 1.11969000 -1.08496000
-7.87223000 1.06394000 -1.32217000
-5.92586000 0.11121900 4.55610000
-6.36442000 0.09122320 4.53560000
-7.08046000 0.99485300 4.76133000
-7.21723000 1.07639000 4.78225000
-7.03293000 1.11022000 4.79748000
3.71434000 0.05542670 5.75444000
3.45659000 0.03153100 5.74897000
3.49611000 -0.19351000 5.70330000
3.66976000 -1.19494000 5.43544000
3.11424000 -1.04852000 5.46816000
3.48665000 -1.31107000 5.40087000
9.96147000 1.15140000 -4.73496000
9.97243000 1.15457000 -4.55329000
9.95148000 1.24661000 -5.12826000
9.93346000 1.20051000 -5.17446000
9.93142000 1.22865000 -5.17007000
-0.69251600 0.18774900 2.05735000
-0.83725700 0.13232200 2.31632000
-0.57740900 0.19558400 2.23624000
-0.34900900 0.21690000 2.51469000
-0.71049700 0.11920800 2.70036000
7.35657000 0.09674930 3.77513000
7.51856000 0.12848100 3.44073000
5.54776000 -0.09300240 4.47003000
5.93275000 -0.08412990 4.50063000
5.37526000 -0.13364200 4.49509000
7.78637000 -2.01881000 5.20592000
7.14462000 -2.02151000 5.18749000
7.54667000 -2.02954000 5.17730000
4.67277000 0.88239700 -2.71576000
4.80889000 0.86371000 -2.97565000
4.37032000 0.77920300 -3.13377000
4.56384000 0.72956100 -3.57381000
4.47552000 0.67442900 -3.77925000
4.03794000 0.99754000 0.70214300
4.31184000 1.03197000 0.82721800
4.06377000 1.00633000 0.41760900
3.42120000 0.93040100 0.39446800
3.15301000 0.90224000 0.48531400
3.42139000 0.92584100 0.66862000
0.89356800 0.29015400 -3.03888000
0.90932100 0.20417400 -3.39101000
0.67625600 0.30933600 -2.68022000
0.57134100 0.31784400 -2.47477000
1.15635000 0.45578600 -2.29183000
2.01188000 0.70527700 1.90778000
1.87709000 0.66073800 2.19430000
2.03147000 0.67454700 2.29319000
2.73397000 0.81761500 1.66756000
2.64167000 0.79248200 1.89642000
2.95117000 0.82103200 2.02978000
-0.70695000 -0.72139600 2.19405000
-0.66919800 -0.72963200 2.52953000
-0.86629000 -0.76089200 2.40514000
0.22686800 -0.60502800 2.89073000
0.10721300 -0.60496900 2.71979000
0.38631400 -0.54823400 2.61540000
-4.89831000 1.14637000 -3.94795000
-4.64788000 1.17544000 -3.97152000
-4.73791000 1.32565000 -4.02676000
-4.28036000 0.66616900 -3.81041000
-4.35227000 0.54181300 -3.77424000
-4.11381000 0.61216800 -3.80120000
-8.98480000 1.50199000 2.74286000
-8.81915000 1.51352000 2.55091000
-8.85671000 1.51203000 2.21551000
-9.04256000 1.45098000 2.97033000
-9.04337000 1.44138000 2.76594000
-9.03925000 1.42010000 2.96311000
-6.92710000 -1.42433000 1.73325000
-6.83342000 -1.40784000 1.52136000
-6.99783000 -1.42013000 1.53731000
-7.08304000 -1.44463000 2.44159000
-7.03174000 -1.45961000 2.43093000
-7.08038000 -1.43969000 2.18584000
-0.29038900 -0.49401000 -0.03196700
-0.20065100 -0.46808700 0.02809040
-0.40960900 -0.51802300 0.11039400
-0.22228400 -0.49884100 0.20846300
-0.07397300 -0.45381800 0.22080000
0.01430440 -0.47647700 0.25923500
-8.24138000 1.52456000 0.77568000
-8.30325000 1.53092000 0.90809600
-8.15043000 1.52736000 0.77446600
-8.19935000 1.53914000 3.37799000
-8.13675000 1.52957000 3.60454000
-8.14178000 1.53328000 3.37664000
-2.46339000 0.24980900 -4.69967000
-2.04602000 0.22518300 -4.70879000
-2.24078000 0.04502240 -4.67166000
-2.74875000 -0.01479930 -4.64641000
-2.96690000 -0.28542900 -4.58468000
-3.29630000 -0.07265330 -4.61512000
6.61551000 0.17613100 2.17512000
6.24279000 0.11186700 2.70384000
6.36149000 0.15473300 2.24994000
6.12478000 0.18178600 1.32291000
6.66742000 0.22625500 1.17421000
6.29123000 0.18059600 1.67006000
-7.61936000 1.50636000 4.90195000
-6.86211000 1.44056000 4.89968000
-6.61267000 1.40335000 4.89823000
-6.76293000 1.32944000 4.87021000
-6.63202000 -1.38224000 1.06676000
-6.82627000 -1.40261000 1.04527000
-6.73386000 -1.39561000 1.18966000
-6.36830000 -1.33017000 2.06652000
-6.10053000 -1.25569000 2.14433000
-6.21273000 -1.28331000 1.96373000
3.05043000 0.86703200 5.92279000
3.81983000 0.99818800 5.95115000
4.13003000 0.90768300 5.93661000
4.01272000 1.04024000 5.95707000
-8.47440000 1.17759000 -4.69759000
-8.10069000 1.18149000 -4.69831000
-8.42321000 0.84411500 -4.65319000
-8.59673000 0.60004400 -4.60415000
-8.54977000 0.55959300 -4.60204000
-8.52605000 0.40894900 -4.56328000
1.22154000 0.43967900 -2.50643000
2.79387000 0.58055500 -3.08896000
-0.80292200 -0.61749400 0.36023800
-0.78164200 -0.63072700 0.29319400
-0.71404300 -0.60115100 0.41354400
-1.49181000 -0.79388400 0.57604200
-1.74891000 -0.85593300 0.42135600
-1.59983000 -0.81725000 0.36589400
5.73400000 -0.12274200 4.51552000
6.20462000 -0.10339500 4.52833000
5.32269000 -0.95612300 4.59130000
5.54046000 -0.52515200 4.55715000
5.82471000 -0.79675900 4.59099000
-7.38111000 -2.11862000 4.75648000
9.56046000 1.27569000 -3.05632000
9.67186000 1.28448000 -2.94894000
9.05051000 1.26343000 -2.96540000
-8.66620000 1.50749000 -4.29462000
-8.34406000 1.52478000 -4.09168000
-8.25283000 1.51245000 -4.35320000
-7.37388000 1.51804000 -4.32551000
-7.23737000 1.51550000 -4.32195000
9.03985000 1.01680000 -4.33543000
7.87646000 0.93201500 -4.24745000
8.96573000 1.01493000 -4.29538000
7.40657000 0.90617500 -4.19073000
7.05163000 0.88840700 -4.15554000
7.50442000 0.94296100 -4.06862000
3.44932000 -1.96153000 -4.16364000
3.73409000 -1.95299000 -4.12765000
3.61953000 -1.94831000 -4.10541000
4.27992000 -1.93999000 -4.10284000
1.15397000 -0.60253000 -3.52476000
1.78875000 -0.48415900 -3.52022000
1.20756000 -0.57666700 -3.47426000
0.58916800 -0.66956300 -3.34196000
4.92539000 0.92905800 3.55743000
4.57028000 0.89795100 3.42040000
4.62149000 0.86915300 3.73095000
5.88105000 0.97992400 4.21184000
5.83637000 0.93656300 4.48403000
6.25138000 0.99151900 4.46236000
-0.37336500 -0.01028650 -3.73834000
-2.54731000 -0.23488000 -3.60678000
-2.08366000 -0.26932200 -3.61008000
9.62341000 1.05701000 -4.39594000
9.85935000 1.05086000 -4.39361000
9.83344000 1.05850000 -4.41913000
-6.12879000 -2.11926000 4.41168000
-6.17967000 -2.15348000 4.43692000
-6.37903000 -2.11032000 4.40482000
-5.81062000 -2.17141000 4.63633000
-6.09179000 -2.16299000 4.47598000
-5.65466000 -2.14784000 4.50091000
-5.63980000 -1.08371000 -0.11428200
-5.74057000 -1.11613000 -0.22467600
-5.73131000 -1.10161000 -0.03528980
-6.26317000 -1.33030000 -0.76783200
-6.14200000 -1.26876000 -0.58824900
-5.99604000 -1.22223000 -0.65881700
7.01667000 -1.31109000 -4.00202000
7.29137000 -1.14030000 -3.96816000
7.15336000 -0.93939100 -3.92521000
7.66759000 -1.85953000 -4.16787000
8.26677000 -1.90070000 -4.14318000
7.85329000 -1.79808000 -4.13611000
9.11685000 1.14164000 5.24712000
9.07539000 1.16621000 5.27440000
9.06668000 1.14857000 5.09880000
9.16754000 1.16013000 5.06115000
-7.67940000 -1.74963000 4.77544000
-7.86189000 -1.38938000 4.86921000
-7.68978000 -1.73637000 4.74021000
-7.86204000 -1.37500000 4.90775000
-7.76713000 -1.53815000 4.88052000
-7.95017000 -1.16420000 4.99513000
1.26931000 0.43158400 3.37197000
1.11988000 0.35138900 3.74776000
1.37361000 0.41342600 3.65379000
2.58419000 0.59444700 3.71155000
2.14653000 0.53712300 3.68222000
2.32610000 0.51875400 4.00552000
7.19162000 1.14904000 -5.22689000
7.10788000 1.24854000 -5.20304000
7.18099000 1.26611000 -5.24346000
7.30180000 0.53296400 -5.12211000
7.24320000 0.91897100 -5.18947000
7.50731000 0.97494000 -5.20566000
-0.79655900 -0.64612700 0.22726800
-0.95540400 -0.67817600 0.26627000
-0.96353400 -0.68208800 0.17686100
-0.43941900 -0.52806200 0.16543200
-0.34829100 -0.53984500 0.22433500
-0.50519200 -0.59681500 0.22360400
9.99187000 1.26989000 -2.29765000
9.98365000 1.29499000 -2.25761000
9.97318000 1.29416000 -1.96576000
9.90997000 1.34510000 -1.81949000
9.92671000 1.32973000 -2.06361000
9.80171000 1.35012000 -1.85130000
-5.26506000 -0.93588000 0.36359700
-5.28820000 -0.95211700 0.07468000
-5.46296000 -1.00335000 0.14805200
-5.44760000 -1.01475000 -0.07459750
-7.37361000 -2.18688000 3.57950000
-7.29875000 -2.18686000 3.47674000
-7.27765000 -2.18588000 3.62703000
-7.18539000 -2.17516000 3.55661000
8.09907000 1.24968000 5.26865000
8.08582000 1.07083000 4.96727000
8.20867000 1.05842000 5.10658000
8.44581000 1.10700000 5.00038000
9.47841000 0.25646600 2.95249000
9.34689000 0.22382800 3.28579000
9.32668000 0.18457900 3.75213000
8.90947000 0.19387600 3.46282000
-1.87972000 -0.88903100 -0.73320200
-1.88381000 -0.89892900 -0.91424600
-1.76246000 -0.86272000 -0.76974100
-1.12636000 -0.69337600 -0.03518370
-1.24876000 -0.72733400 0.04980630
-1.22119000 -0.71713000 -0.13280500
1.60569000 -0.05486120 -0.26697700
1.68882000 -0.04339640 -0.33750900
1.65440000 -0.07446790 -0.20998300
1.86916000 0.01388020 0.05146770
-1.16536000 -0.70313200 -0.18548600
-1.10224000 -0.68889900 -0.41183600
-1.01622000 -0.66155100 -0.28631300
-0.95607600 -0.64874200 -1.00424000
0.29450200 -0.37205700 1.03896000
0.32807100 -0.35741000 1.15451000
0.40190300 -0.33952400 1.18747000
6.85735000 1.24681000 -5.23567000
6.96424000 1.20069000 -5.21745000
6.96563000 1.14104000 -5.21697000
5.97823000 1.04018000 -5.15753000
5.63055000 0.75927800 -4.12517000
5.58671000 0.75170100 -4.10672000
6.22848000 0.81635400 -4.14217000
6.29030000 0.82143300 -4.16407000
6.42211000 0.84015600 -4.20755000
5.63055000 0.75927800 -4.12517000
-7.13323000 -1.33154000 1.70658000
-7.10718000 -1.37656000 1.41758000
-7.12496000 -1.30703000 1.28125000
-7.13323000 -1.33154000 1.70658000
-7.12496000 -1.30703000 1.28125000
-4.64605000 -0.74258100 0.69549700
-4.55666000 -0.72171400 0.84633000
-4.40346000 -0.67353400 0.78938300
-3.63948000 -0.45583300 1.10948000
-1.19892000 -0.72755800 -0.22559500
-1.18357000 -0.74213400 -0.38610200
-1.15281000 -0.70662000 -0.36147600
-1.41575000 -0.76558200 -0.30368100
-1.34060000 -0.74271100 -0.45393600
-1.37308000 -0.74998100 -0.22632600
0.30456400 -0.38922400 1.09114000
0.22829400 -0.44594700 1.09983000
-0.31762000 -0.52049800 1.42384000
-0.42614000 -0.54763400 1.50182000
-0.48156700 -0.56471900 1.35130000
2.72051000 -0.25916500 -2.37984000
2.71443000 -0.22067000 -1.80463000
2.45616000 -0.28863400 -2.24181000
2.49804000 -0.24460100 -1.64766000
-6.32763000 -1.38949000 -1.44569000
-6.19197000 -1.33398000 -1.43580000
-6.15710000 -1.35380000 -1.83923000
-6.38636000 -1.49936000 -3.06382000
-6.23472000 -1.45257000 -3.09328000
4.00741000 1.11176000 -4.25881000
4.05975000 0.78402200 -4.15134000
4.37109000 0.93912000 -4.20952000
4.21881000 0.64497200 -4.06936000
4.45965000 0.81238300 -4.16494000
4.21254000 0.75167800 -4.13476000
-0.10615200 -0.51606700 1.34288000
-0.11733400 -0.47701900 1.20387000
-0.08539060 -0.51269700 1.23711000
0.29899100 -0.36909900 1.19823000
0.25310800 -0.43483600 1.15838000
-2.45437000 1.44488000 5.74585000
-2.81022000 1.43709000 5.74828000
-2.07345000 1.42060000 5.78942000
-2.81022000 1.43709000 5.74828000
-2.37000000 1.41336000 5.78212000
-2.07345000 1.42060000 5.78942000
-1.13014000 -0.02837320 3.15460000
-0.97765000 0.01023930 3.10585000
-1.04141000 0.06444060 2.53679000
-1.34407000 -0.15381400 3.68644000
-1.16074000 -0.15608800 3.94834000
-1.06080000 -0.09879960 3.72651000
6.15716000 1.24921000 5.19389000
6.14850000 1.35662000 5.24024000
6.15680000 1.38543000 5.26476000
6.30619000 1.39498000 5.34639000
9.40075000 0.17689700 4.22643000
9.42022000 0.17350300 4.12395000
9.31855000 0.15070300 4.60979000
9.35810000 1.17802000 4.99995000
9.25803000 1.16867000 5.04322000
9.31552000 1.15662000 5.07031000
-7.46488000 -2.05826000 -1.59109000
-7.45366000 -2.11970000 2.04742000
-7.44798000 -2.13761000 2.43952000
-0.08332860 -0.49600100 1.39480000
-0.06968400 -0.52798000 1.35342000
-0.03981440 -0.45185000 1.44998000
-0.09160020 -0.47746600 1.64582000
-0.14018100 -0.47905700 1.48135000
1.08682000 -1.73405000 5.22377000
1.44563000 -1.76210000 5.22397000
1.34395000 -1.53050000 5.29186000
1.81737000 -1.94445000 5.16987000
0.98565100 -1.99236000 5.13286000
1.96874000 -1.99668000 5.13464000
2.27721000 -0.21199800 -1.10375000
2.12024000 -0.23327800 -1.13723000
2.23437000 -0.23423200 -1.16127000
1.74405000 -0.21938600 -1.12016000
-7.31999000 1.53075000 -4.05848000
-7.04322000 1.53523000 -4.10946000
-7.30623000 1.52665000 -4.15488000
-7.91605000 1.49918000 -3.99154000
-8.04880000 1.52256000 -3.96646000
7.75261000 0.29690500 0.10701200
7.61122000 0.28819800 0.26568100
7.55206000 0.28603000 0.02824360
8.77259000 0.31125700 -0.46817000
8.74376000 0.29108500 -0.69038300
8.98781000 0.32410000 -0.39062600
-6.45288000 -2.00104000 -3.43701000
-6.63039000 -2.02371000 -3.13923000
-6.77093000 -2.04499000 -3.41077000
-5.36675000 -1.80942000 -2.91673000
-5.12374000 -1.75827000 -2.64604000
-5.62313000 -1.85903000 -2.75112000
-1.11413000 -0.72903100 -0.66879700
-1.07850000 -0.67959000 -0.94547100
-1.07693000 -0.68376100 -0.77128500
-1.32502000 -0.73949400 -0.30752200
-1.28239000 -0.74436100 -0.37849000
-1.27446000 -0.75423500 -0.28726700
0.09495830 -0.44231800 1.21635000
0.07582290 -0.51521900 1.19177000
0.07119220 -0.48618600 1.11431000
-0.03280360 -0.53596800 1.09077000
-0.05286980 -0.54242600 1.18980000
-0.12643000 -0.52518700 1.07187000
0.95000800 0.21058400 4.69299000
0.92174000 0.18318900 4.66669000
0.38966000 0.09500550 4.64079000
3.71321000 0.60923500 4.85659000
2.79615000 0.47410800 4.78665000
3.40481000 0.58062600 4.85309000
-4.81583000 -2.11210000 4.61768000
-4.85362000 -2.07255000 4.60750000
-4.82375000 -2.11264000 4.54460000
-3.61507000 -2.06604000 4.52437000
-3.84748000 -2.06687000 4.50809000
-3.53008000 -2.03409000 4.50841000
0.30640200 -0.52915800 -4.64908000
-0.00560866 -0.89083400 -4.56050000
-0.12367300 -0.43485900 -4.64859000
-2.19225000 0.42326500 -4.73380000
-1.76091000 0.62078200 -4.77995000
-1.24241000 -0.73213000 -0.72804100
-1.19415000 -0.72640400 -0.82746500
-1.18149000 -0.75234900 -0.72015900
-1.59114000 -0.81700200 -1.15721000
-1.43017000 -0.76948200 -1.01798000
-1.51414000 -0.79424900 -0.94172400
-7.00478000 -1.62781000 -2.94968000
-6.84834000 -1.63166000 -2.98791000
-6.70477000 -1.61356000 -2.96090000
-6.77348000 -1.61189000 -3.03118000
4.60417000 1.05033000 1.46347000
4.24830000 1.01015000 1.36301000
4.68729000 1.05313000 1.60717000
5.91702000 1.17349000 2.05533000
5.84387000 1.14359000 2.40399000
6.13196000 1.17402000 2.33815000
-7.93200000 1.20228000 -2.39045000
-7.88267000 1.05510000 -2.12307000
-7.86368000 0.99223700 -2.28937000
-8.04535000 1.51121000 -1.68237000
-8.03881000 1.50822000 -2.05437000
-8.05291000 1.52585000 -2.02827000
6.86595000 -1.94328000 -4.23779000
7.13809000 -1.92051000 -4.20354000
6.78556000 -1.93946000 -4.17638000
6.71628000 -1.92694000 -4.12748000
6.72330000 -1.93493000 -4.14680000
7.01796000 -1.91127000 -4.16932000
2.64361000 -0.17963000 1.76914000
2.87210000 -0.17574200 2.14219000
2.69041000 -0.20329000 2.11772000
2.40889000 -0.17827500 1.37845000
-4.89491000 0.07138080 5.52258000
-5.38095000 -0.11907800 5.44536000
-4.76868000 -0.34468500 5.42057000
-5.09591000 0.55629400 5.61494000
-5.11128000 0.67593700 5.63238000
-5.51088000 0.54753900 5.59112000
-0.25811600 -0.50376600 1.44398000
-0.24357600 -0.51369900 1.63104000
-0.36314900 -0.53862000 1.59639000
-0.46966600 -0.58709400 1.76769000
-0.24856000 -0.53748900 1.77728000
-0.48095400 -0.63924600 1.82050000
-1.98972000 -1.08260000 -2.98366000
-1.98737000 -1.07803000 -2.72068000
-2.23215000 -1.12738000 -2.71067000
-3.02172000 -1.30645000 -3.01497000
-7.20474000 -1.01420000 0.21592200
-7.20486000 -1.02955000 -0.15190500
-7.27491000 -0.79512100 -0.13339400
-7.45143000 -0.28275400 1.35548000
-7.48824000 -0.13655200 1.31687000
8.31785000 -1.95142000 -4.46386000
7.71969000 -1.95679000 -4.46646000
7.65654000 -1.89396000 -4.18449000
8.23271000 -1.92550000 -4.16576000
7.47150000 -1.93502000 -4.32354000
7.94060000 -1.93276000 -4.28914000
-6.89861000 0.02817290 5.41254000
-8.56511000 0.40448300 5.40498000
-8.43612000 0.10373700 5.35192000
-8.46219000 0.31799700 5.40419000
2.37761000 -0.38104700 4.22733000
2.52260000 -0.36539900 4.14953000
0.41066900 -0.68233600 4.28078000
0.19533700 -0.71710700 4.13750000
1.88530000 0.03068270 1.03024000
1.85444000 0.01482290 1.20160000
1.85079000 0.03031740 0.81137000
1.69872000 -0.01595400 0.57786800
1.67324000 -0.03586710 0.54351000
1.86645000 -0.00161426 0.54705600
-7.42678000 -2.07443000 -0.75285600
-7.48013000 -2.06165000 1.04112000
-7.45550000 -2.06445000 0.06260250
-7.45459000 -2.08240000 0.97946500
-4.48686000 -1.52071000 0.29145000
-4.73386000 -1.57817000 0.46230200
-4.73618000 -1.57471000 0.25465200
-4.48433000 -1.52518000 -0.14811100
4.95710000 0.03639740 2.22580000
4.79482000 0.02103250 2.12665000
5.17108000 0.07082700 2.07021000
3.60652000 -0.12214100 2.61082000
4.13379000 -0.04271300 2.15434000
4.11077000 -0.07400840 2.54819000
-9.04698000 1.41699000 -2.69663000
-9.05257000 1.44968000 -2.78768000
-9.05025000 1.42725000 -3.22408000
-8.57411000 0.23555200 -1.57511000
-8.81639000 0.84904000 -1.58083000
-8.74277000 0.65316100 -1.92180000
-8.71126000 1.49141000 5.17320000
-8.80016000 1.45912000 5.36268000
-8.60024000 1.46491000 5.36986000
-9.01959000 1.48627000 4.42080000
-9.01615000 1.47694000 4.83467000
-8.98819000 1.49204000 4.63217000
-8.03366000 1.43325000 -4.73117000
-7.85907000 1.38343000 -4.73156000
-8.21018000 1.39683000 -4.73032000
-8.51449000 1.26045000 -4.70525000
-8.33898000 1.32847000 -4.72080000
-0.28762000 -0.50245800 0.89590100
-0.24570900 -0.48858900 0.69292800
-0.20450400 -0.52287800 0.82473200
-0.12711400 -0.46653200 0.98514400
-0.07266510 -0.51124800 1.04065000
9.89017000 1.40526000 -0.44218800
9.83122000 1.41841000 -0.42287600
9.84269000 1.42524000 -0.14086400
9.85594000 1.10341000 -0.34520300
9.92032000 1.36321000 -0.57792700
9.88494000 1.31078000 -0.06059940
-7.58583000 -1.92504000 3.53318000
-7.57920000 -1.94229000 3.32420000
-7.59169000 -1.89608000 2.17067000
-7.66289000 -1.77680000 2.36061000
5.99869000 -1.19377000 4.63518000
6.24935000 -1.36740000 4.66621000
5.58956000 -1.41075000 4.65132000
5.84952000 -1.02456000 4.60953000
1.36573000 -0.16220300 1.83768000
1.61472000 -0.11467100 1.85095000
1.39613000 -0.18467300 1.84957000
1.66448000 -0.04125190 1.60166000
1.75835000 -0.06263790 1.52143000
1.69252000 -0.03911920 1.68505000
-5.07433000 1.09025000 5.70419000
-4.84678000 0.97095800 5.69572000
-4.74922000 1.16970000 5.72433000
-4.86201000 0.66632300 5.64451000
-4.61858000 0.80891900 5.67646000
-5.35048000 0.84372600 5.65103000
8.82694000 1.33069000 -4.87077000
8.87512000 1.33179000 -4.72152000
6.82694000 1.34155000 -4.48345000
7.29771000 1.32218000 -4.47596000
7.57066000 1.33532000 -4.51235000
-4.08720000 -1.47593000 3.88297000
-4.26819000 -1.51243000 3.75961000
-4.17833000 -1.48013000 3.49651000
-4.30420000 -1.48461000 2.86155000
1.74645000 -0.06934230 1.44848000
1.68606000 -0.04416230 1.51765000
1.69466000 -0.03573750 1.17623000
1.82204000 0.00764710 0.84833300
1.82588000 0.00130790 1.07329000
1.80077000 -0.03686870 0.89719700
1.24165000 -1.71369000 4.61272000
1.14267000 -1.55537000 4.58286000
1.56856000 -1.60250000 4.59533000
0.43052300 -1.75446000 4.59837000
0.68674200 -1.54094000 4.56756000
0.93209800 -1.66129000 4.59661000
-0.07751970 -0.45535000 -0.37646300
-0.03256790 -0.46071100 -0.39562200
-0.05433090 -0.45976900 -0.22321500
0.09660790 -0.45008300 -0.31796100
0.14649700 -0.38667900 -0.36912300
0.13524400 -0.39039100 -0.25174100
4.38932000 -1.89771000 4.73764000
4.85876000 -1.78164000 4.70500000
4.89180000 -1.92479000 4.75060000
6.93443000 -1.96540000 4.83094000
6.66867000 -1.90882000 4.79745000
7.02171000 -1.83819000 4.78948000
8.94613000 -0.21521500 5.61412000
8.92172000 -0.17604800 5.53232000
8.95090000 -0.03248540 5.59652000
8.97831000 0.17344400 5.78935000
9.00849000 0.26677700 5.78500000
8.91951000 0.45417200 5.89781000
9.08214000 1.32721000 -4.61274000
9.64415000 1.31646000 -4.58220000
0.02477940 -0.43449400 -0.36165200
-0.01319680 -0.42293500 -0.49359700
0.03942560 -0.40811200 -0.48510200
0.08127840 -0.39251200 -0.89577100
0.13738900 -0.37278700 -0.84855700
0.07098020 -0.39037900 -0.77724700
3.89874000 -1.96219000 5.21586000
4.11118000 -2.00427000 5.18093000
4.42323000 -1.99166000 5.20521000
4.72832000 -2.01576000 5.18076000
-2.31270000 0.40429500 4.69983000
-2.05353000 0.49254900 4.73035000
-1.11490000 0.86677300 4.89029000
-0.80097800 0.93066000 4.92308000
-0.89809200 0.75982000 4.85964000
6.69350000 -1.73577000 4.75693000
6.09341000 -1.67847000 4.71674000
7.32955000 1.21407000 5.22558000
6.76968000 1.15906000 5.19392000
7.26926000 1.30979000 5.26504000
6.66419000 0.93967400 5.04469000
6.67390000 0.95245800 5.08831000
7.19329000 0.98387200 5.07444000
6.94628000 1.28220000 -0.47124500
6.61243000 1.25733000 -0.54488800
6.84506000 1.27942000 -0.27635600
8.35266000 1.37259000 -0.71431400
8.35070000 1.38562000 -0.31498000
8.42820000 1.38587000 -0.49012100
1.76122000 -0.01047500 0.76000800
1.77880000 -0.05421310 0.91418800
1.71902000 -0.02072610 0.85792400
1.58485000 -0.05098460 0.56157300
8.36977000 -1.40327000 -4.07252000
8.90700000 -1.40498000 -4.12704000
8.52340000 -1.30248000 -4.07673000
8.50449000 -1.91833000 -4.16350000
-2.19270000 -1.95562000 -4.20848000
-1.91750000 -1.93259000 -4.23851000
-1.95893000 -1.95043000 -4.19139000
-0.38656100 -1.92401000 -4.31027000
-0.16888400 -1.93872000 -4.31551000
-0.41327300 -1.94483000 -4.27348000
-0.79912800 -0.60420300 -0.58043700
-0.69197400 -0.56801800 -0.50673500
-0.81908800 -0.61293400 -0.41567700
-0.64322800 -0.57055100 -0.23407900
-0.56781800 -0.55341900 -0.40052400
-0.56435300 -0.55918100 -0.15785500
-6.58075000 -2.03117000 -1.60999000
-6.64051000 -2.04679000 -2.04670000
-6.43307000 -2.01439000 -1.90652000
-6.39280000 -2.01072000 -2.12378000
1.15504000 -0.12012700 -0.61274600
1.26062000 -0.09455770 -0.67941300
1.27675000 -0.09385070 -0.55126300
1.37812000 -0.09326160 0.14548300
1.32408000 -0.10989900 0.13797800
1.42362000 -0.08691060 0.02318870
-0.24469500 -0.49826300 -0.44485100
-0.29854300 -0.54343900 -0.34343600
-0.28923500 -0.53754700 -0.53477800
-0.31732500 -0.54941300 -0.50466100
-0.38249600 -0.51850600 -0.43899500
-0.36941700 -0.56292800 -0.52527000
8.92320000 -0.67039900 5.05516000
8.91742000 -0.36510500 5.30261000
8.92139000 -0.48757600 5.32013000
8.94471000 -0.42769500 5.20178000
5.98990000 -1.33335000 -3.99556000
6.48726000 -1.20819000 -3.97423000
7.27955000 -1.85615000 -4.15774000
7.24908000 -1.76383000 -4.11763000
6.92027000 -1.85556000 -4.12467000
9.91018000 1.39154000 -0.83659700
9.88364000 1.40115000 -0.91273800
9.91201000 1.39231000 -0.67167200
9.90771000 1.30923000 -1.29096000
9.82590000 1.36181000 -1.26032000
9.91806000 1.35686000 -1.22429000
9.65911000 0.73975400 4.69592000
9.67876000 0.81267800 4.67075000
9.63746000 0.73205900 4.81795000
9.50625000 0.52825100 4.78451000
0.83447600 -0.21805400 -0.50044300
0.81721400 -0.25032800 -0.36902800
0.74260500 -0.25038600 -0.36786200
8.60441000 -1.96278000 4.86974000
1.71949000 -0.34265800 2.45726000
1.79664000 -0.28971800 2.13030000
1.93781000 -0.28619500 2.17966000
2.18994000 -0.28515800 2.41145000
2.36866000 -0.25280200 2.26144000
2.29263000 -0.27576700 2.44414000
1.04695000 -0.17766200 0.10716500
1.04442000 -0.21386000 -0.08338750
1.09454000 -0.16967400 -0.00546726
0.75746300 -0.24674600 -0.16690500
-4.09967000 -0.79942200 -3.36210000
-3.46232000 -0.62831100 -3.44150000
-4.27620000 -0.81973600 -3.36569000
-5.24340000 -1.13791000 -3.22028000
-4.57180000 -0.93333500 -3.31264000
-4.82691000 -0.98744200 -3.30197000
-7.70064000 0.78160600 4.67198000
-7.62820000 0.67464100 4.64495000
-7.59852000 0.48222700 4.58369000
-7.70064000 0.78160600 4.67198000
9.00876000 -0.05097280 -3.98566000
9.41817000 0.00466603 -4.02150000
9.01057000 -0.01054570 -3.97286000
9.24440000 0.05305840 -3.96662000
9.48343000 0.06477060 -3.98259000
-6.20526000 -1.94257000 1.03739000
-6.42249000 -1.99585000 0.97887600
-6.27876000 -1.96258000 0.78848800
-6.13737000 -1.92317000 0.66867900
-5.90675000 -1.85929000 0.75021700
3.26085000 -0.47607600 -3.66823000
3.33155000 -0.67901300 -3.71436000
3.53043000 -0.59667400 -3.70751000
3.01290000 -1.20171000 -3.84265000
2.87696000 -1.27758000 -3.85757000
3.17814000 -1.47334000 -3.92408000
-6.85777000 -2.05535000 -3.10617000
-6.90229000 -2.06648000 -3.25935000
-7.39480000 -2.13130000 -3.24191000
-4.26089000 -0.66965700 1.95250000
-4.41273000 -0.71221700 1.92449000
-4.45779000 -0.75645000 2.29063000
-4.09110000 -0.71303000 2.85134000
-4.33598000 -0.79201100 2.90374000
-4.00208000 -0.72329300 3.10881000
9.71903000 0.94318500 4.22220000
9.74571000 1.18344000 4.04266000
9.73108000 1.18019000 4.18329000
9.75215000 1.11889000 3.98863000
-5.92222000 -1.86663000 1.20211000
-5.78035000 -1.83766000 1.36948000
-6.15080000 -1.93151000 1.28250000
-4.55080000 -1.54411000 1.38207000
-4.76538000 -1.58334000 0.75515400
-4.47644000 -1.51990000 0.85747600
1.65680000 -0.42093200 3.14154000
1.37377000 -0.47599400 3.30708000
1.27776000 -0.45172100 2.95250000
0.43958400 -0.59569600 3.16683000
0.31377800 -0.59481200 2.97130000
1.24867000 -0.12762100 0.28970600
1.19059000 -0.16049500 0.39234700
1.15648000 -0.14648500 0.29603300
0.78054600 -0.23636500 0.20681300
0.71993500 -0.24734700 0.05460190
0.86756300 -0.21711200 0.05509680
-6.24139000 -2.18782000 4.75210000
-6.23881000 -2.17535000 4.78779000
-6.48550000 -2.18801000 4.76724000
-4.44103000 -2.14643000 4.83208000
5.64870000 0.85059500 4.89861000
5.95022000 0.90986300 4.74562000
5.57861000 0.86630200 4.73235000
6.15211000 0.93908500 4.69982000
-8.92839000 1.25000000 5.41094000
-8.85482000 1.32791000 5.43313000
-8.92643000 1.32576000 5.40364000
-8.70804000 0.60951700 5.40442000
-8.77844000 0.82020700 5.45378000
-8.76015000 0.71458500 5.41178000
5.93590000 0.17492900 0.39033200
6.11980000 0.19154300 0.21763000
6.26525000 0.20560000 0.45183900
6.58393000 0.21983300 -0.25670200
6.85121000 0.23674200 -0.14814600
6.64288000 0.22838800 -0.09094040
-4.65685000 -1.62855000 -1.81425000
-4.65486000 -1.64231000 -1.99903000
-4.44682000 -1.58486000 -1.79668000
-3.70091000 -1.46040000 -2.68144000
-4.18408000 -1.56330000 -2.70760000
-3.90496000 -1.50973000 -2.98461000
-8.96742000 1.31213000 5.37586000
-8.90634000 1.14450000 5.41657000
-8.98169000 1.30359000 5.35137000
9.96734000 1.05949000 -4.18173000
9.95102000 1.07773000 -4.18345000
9.98365000 1.14042000 -3.77005000
9.99510000 1.14197000 -3.65882000
9.98221000 1.18806000 -3.51105000
9.99245000 1.21430000 -3.24121000
-9.01527000 1.47279000 -4.16944000
-8.98160000 1.46820000 -4.38079000
-9.04329000 1.45586000 -3.65390000
-9.02249000 1.47589000 -3.85279000
-9.04196000 1.45272000 -4.02864000
2.45980000 -0.18389600 -0.91452900
2.52703000 -0.17204200 -0.73151700
2.40289000 -0.17078100 -0.68577600
2.31528000 -0.08942040 -0.96790600
2.31324000 -0.11417600 -0.83373400
2.20966000 0.00427719 -0.85357600
-4.55697000 -1.45600000 -4.27077000
-4.69104000 -1.69627000 -4.20589000
-6.18629000 -2.07476000 -4.05489000
-6.05622000 -2.02434000 -4.07883000
-5.26714000 -2.02640000 -4.09486000
7.89080000 -1.54434000 5.36037000
8.05806000 -1.66089000 5.32984000
8.03597000 -1.41554000 5.40545000
6.87403000 -1.58075000 5.33270000
6.61402000 -1.70501000 5.29804000
7.40370000 -1.75668000 5.28727000
7.93541000 1.35763000 1.02376000
8.29269000 1.38310000 0.76957600
8.11132000 1.37185000 0.44517000
8.42629000 1.36188000 2.24873000
8.53225000 1.38752000 1.84461000
8.19757000 1.36041000 1.97986000
-7.88382000 1.00634000 4.43600000
-8.04802000 1.50780000 3.45000000
-8.03230000 1.43134000 3.49714000
-8.02727000 1.44109000 3.39985000
-0.15205800 0.35618500 1.45888000
0.10281800 0.39469200 1.66607000
0.20642500 0.43149000 1.45106000
-1.00320000 0.15822100 1.56295000
-1.21615000 0.13452500 1.18312000
-1.24106000 0.10306500 1.58591000
-1.63356000 -1.00229000 4.06704000
-1.97207000 -1.07423000 4.07341000
-1.64542000 -0.99922500 3.89268000
-2.40924000 -1.15596000 3.98909000
-2.51192000 -1.16599000 4.15574000
-2.60874000 -1.18744000 4.09433000
4.37758000 1.27906000 -5.11739000
4.59678000 1.29149000 -5.12126000
4.98243000 1.24934000 -5.15233000
6.38893000 1.14352000 -5.19727000
-9.00564000 1.48389000 -3.94220000
-8.95835000 1.53346000 -1.66310000
-6.47052000 -2.00745000 -1.53095000
-6.35069000 -1.99456000 -1.68088000
-6.03219000 -1.93859000 -1.87167000
7.77292000 1.26495000 -1.89098000
7.51839000 1.23846000 -2.10492000
7.52313000 1.26089000 -1.70447000
6.88493000 1.03554000 -3.40575000
6.65689000 1.03904000 -3.21513000
7.15239000 1.08287000 -3.21910000
9.00680000 0.14345700 5.56935000
8.98300000 -0.16174400 5.14135000
-6.85920000 -1.24905000 4.17778000
-7.05830000 -1.15344000 4.20259000
-8.05599000 1.49340000 4.56827000
-8.02333000 1.43099000 4.58864000
-8.04332000 1.45499000 4.52953000
-8.05599000 1.49340000 4.56827000
6.18202000 1.33302000 -5.04750000
6.39519000 1.33109000 -5.06554000
6.57218000 1.33287000 -4.96451000
0.06728030 0.42695300 1.06096000
-0.30363300 0.34469700 1.10686000
-0.20430400 0.35461800 1.34673000
-0.15837400 0.39842700 -0.09935340
0.04805060 0.44555800 0.42262900
0.09167090 0.45464300 -0.02889170
1.41610000 -0.19783500 5.66930000
1.11149000 -0.04944100 5.69450000
0.46985500 -0.27576700 5.62488000
3.05126000 -0.72691000 5.56076000
2.67448000 -0.50040800 5.61736000
2.71073000 -0.65695500 5.57636000
-6.58989000 -2.03762000 1.56219000
-6.74888000 -2.06727000 1.64787000
-6.69664000 -2.05133000 1.18206000
-6.38442000 -1.98518000 0.70230800
-7.16423000 0.06891810 4.50169000
-7.61891000 0.88478900 4.70566000
-7.60327000 0.77335800 4.66725000
-8.56169000 0.18870300 -0.30908900
-8.41413000 -0.15754900 -0.35182500
-8.45187000 -0.05374180 -1.83330000
-8.54082000 0.15718400 -1.94511000
-8.44333000 -0.04568230 -2.35137000
3.84306000 0.00000000 -0.50172700
3.73340000 -0.00034170 -0.11610900
3.56390000 -0.01758010 -0.11202000
3.59837000 -0.02758380 -0.66938600
3.78376000 -0.01356210 -0.76985900
0.64448900 -0.28653600 1.62761000
0.53764200 -0.32837700 1.77710000
0.54051700 -0.31426200 1.56000000
0.64291000 -0.28433300 1.46387000
0.54240200 -0.31501600 1.46486000
0.55233500 -0.34718300 1.38752000
-0.44077400 -0.52973500 0.57910600
-0.54889400 -0.55402000 0.44064500
-0.40766500 -0.52529300 0.49438700
-0.64117800 -0.61332300 0.36147600
-5.35349000 -1.83378000 -3.54743000
-5.62268000 -1.87361000 -3.52250000
-5.74704000 -1.92214000 -3.57660000
-6.00793000 -1.98981000 -3.58139000
-5.86561000 -2.05059000 -3.63797000
-5.87221000 -1.97036000 -3.59321000
-8.28784000 1.24901000 5.57935000
-8.41240000 1.34261000 5.55912000
-8.44803000 1.18365000 5.55010000
-7.95600000 1.40748000 5.56282000
-7.83472000 1.40060000 5.56087000
5.96903000 1.21723000 -0.24093700
4.42617000 1.05059000 0.00388835
4.66564000 1.08187000 0.33576500
4.64089000 1.07157000 -0.25945900
-1.16675000 -0.82038400 2.17059000
-0.93524400 -0.77096600 2.27073000
-1.17015000 -0.82698200 2.43737000
-1.94997000 -1.00153000 1.79959000
-2.06323000 -1.02069000 1.91014000
-2.18186000 -1.04878000 1.67717000
8.61767000 0.15780800 5.85047000
7.60047000 -0.70157700 5.61047000
7.33874000 -1.17638000 5.45944000
7.90327000 -1.00918000 5.52766000
7.80492000 0.02440240 -3.55148000
7.74631000 0.05351790 -3.27534000
7.49598000 0.04977090 -3.27989000
7.26933000 0.04221810 -3.26298000
0.60446200 -0.27518900 0.69644000
0.74992200 -0.23649400 0.72786500
0.79499200 -0.25594800 0.86685600
0.80173200 -0.29919100 0.99096500
0.73447500 -0.26149800 0.94266700
9.50803000 0.09957720 -3.45070000
9.38410000 0.07234700 -3.49286000
8.43123000 0.08547310 -3.17369000
-2.43498000 -1.89518000 -3.76696000
-2.14349000 -1.65598000 -3.69144000
-2.67592000 -1.74503000 -3.69575000
-3.14527000 -1.97601000 -4.00234000
4.11463000 1.05872000 -5.06310000
2.56860000 0.94531800 -4.98349000
2.69490000 0.72405900 -4.96905000
2.25986000 0.85246900 -4.96358000
-1.60887000 -0.82358900 -0.44261300
-1.57415000 -0.81157000 -0.58281700
-1.51836000 -0.78561300 -0.54343900
-2.07778000 -0.94950100 -0.01395090
-2.40695000 -1.03225000 -0.04710800
1.21389000 -0.19646800 -1.16604000
1.43811000 -0.24018200 -1.17696000
1.43266000 -0.14827600 -1.14772000
1.27478000 -0.11991500 -1.09910000
1.20720000 -0.12529900 -1.06250000
1.13822000 -0.16577400 -1.13747000
-2.11939000 -0.97360900 -0.24349300
-2.20405000 -0.98120900 -0.23399600
-2.19674000 -1.01315000 -0.31389600
-1.66881000 -0.83539500 -0.58740100
0.74754200 -0.32380600 1.03228000
0.71320700 -0.34773700 1.01792000
0.73068100 -0.27761700 0.97872300
0.72278600 -0.29564500 1.40662000
0.72856000 -0.29808400 1.26697000
0.77008300 -0.30332700 1.33254000
-7.71448000 0.55827300 -1.50529000
-7.68591000 0.48410000 -1.55585000
-7.72472000 0.59976100 -1.73369000
-7.65455000 0.33801600 -2.09746000
-7.71629000 0.56330500 -1.91140000
-2.25137000 -0.99333300 -0.41044500
-2.37887000 -1.02471000 -0.25354400
-2.37702000 -1.03619000 -0.32983900
-2.23154000 -0.99322700 -0.30567200
-2.18851000 -1.00710000 -0.45141400
2.14918000 0.66562700 -1.83262000
1.93714000 0.59388100 -2.21680000
1.83046000 0.60811500 -1.95869000
1.51660000 0.49848700 -2.45293000
1.51548000 0.54352100 -2.10923000
1.66324000 0.53639300 -2.34456000
9.00754000 -1.04128000 4.99861000
8.89851000 -1.08585000 5.25498000
8.92453000 -1.23624000 5.10894000
-1.97202000 -0.93054200 -1.12867000
-1.60364000 -0.82572200 -1.03804000
9.59474000 0.37005400 0.27279800
9.62992000 0.37697000 0.23393800
9.59472000 0.36842800 0.68303100
9.63913000 0.34535700 -0.46740400
9.67753000 0.35913100 -0.47198700
2.44482000 1.37300000 -4.50511000
2.32441000 1.36408000 -4.71000000
2.15786000 1.37396000 -4.55101000
2.35538000 1.23415000 -4.20600000
2.70991000 1.23628000 -4.22370000
2.36755000 1.34200000 -4.23649000
9.28856000 1.12186000 5.14013000
9.24693000 1.06960000 5.21090000
9.37899000 0.83560700 5.21518000
9.39404000 0.86598400 5.10495000
9.34804000 0.90051900 5.17214000
-5.12496000 -1.81755000 4.37049000
-4.58521000 -1.77197000 4.38051000
9.91588000 0.85709900 -4.47930000
9.90603000 0.78161800 -4.32643000
9.86808000 0.63217600 -4.46370000
9.84026000 0.55132200 -4.66368000
1.69333000 0.71980500 0.80587900
1.55451000 0.68650700 1.10796000
1.69846000 0.71304200 1.01627000
2.25850000 0.75625000 1.70318000
2.49543000 0.76230600 2.06229000
-7.08012000 -1.41117000 4.13483000
-7.01886000 -1.52689000 4.10047000
9.95031000 1.21578000 -1.51014000
9.90961000 1.10282000 -1.18448000
9.91588000 1.14159000 -1.27989000
9.95023000 1.30062000 -1.20284000
-1.09573000 -0.69823100 -1.31792000
-1.30791000 -0.74233400 -1.30208000
-1.87102000 -0.89230700 -1.24363000
-1.77823000 -0.87452600 -1.34497000
-1.65894000 -0.83850600 -1.23145000
1.10124000 -0.15092700 -0.40175000
1.26241000 -0.10670600 -0.36316100
1.14648000 -0.15407300 -0.29324100
1.08384000 -0.21911500 -0.29493800
1.11053000 -0.18598100 -0.28241200
-4.45906000 -0.86004500 3.17056000
-4.62066000 -0.92949400 3.35154000
-4.33757000 -0.84291300 3.29820000
-4.61730000 -1.02793000 4.02788000
-4.73891000 -1.03486000 3.87471000
-4.90397000 -1.11988000 4.10531000
5.15882000 1.14353000 0.47036100
4.95162000 1.11598000 -0.15536900
4.91173000 1.11399000 0.23194600
5.11439000 1.13091000 0.79059700
4.94969000 1.11651000 0.42386600
3.67414000 -0.54438100 -4.78420000
4.40793000 -0.22085900 -4.88024000
4.23302000 -0.62099400 -4.80116000
5.26058000 -0.10259400 -4.93847000
5.96528000 -0.16468900 -4.95075000
5.40729000 -0.56758200 -4.85547000
6.94519000 0.10399600 -2.25149000
6.53047000 0.11520100 -1.78194000
6.56630000 0.09542970 -2.08939000
-5.97192000 -1.12127000 4.20653000
-5.69851000 -0.95433200 4.25289000
-5.18751000 -0.76915200 4.30156000
-5.05373000 -0.67137700 4.33702000
-4.90036000 -0.76397900 4.30728000
0.02991680 0.42175700 -0.59258500
0.33944200 0.50062000 -0.27099500
0.24249200 0.47069100 -0.47967000
-0.39987600 0.34859700 -0.11616800
-0.40937300 0.34290600 -0.31600500
-0.57888200 0.30019300 -0.35670400
8.15674000 -2.02025000 4.89113000
8.29147000 -2.02554000 4.90867000
7.90367000 -2.03254000 4.94301000
7.67865000 -2.03273000 4.93149000
7.79181000 -2.02649000 4.89541000
-3.67427000 -1.30664000 -4.33699000
-5.22996000 -0.97089900 -4.37282000
-5.10609000 -1.25019000 -4.30642000
9.57974000 1.41425000 2.05615000
9.41801000 1.41478000 2.06686000
9.29686000 1.34790000 3.21301000
9.09728000 1.33566000 3.30490000
9.19922000 1.32402000 3.49756000
4.14675000 1.41994000 5.38344000
3.96268000 1.42336000 5.41549000
4.26657000 1.42031000 5.45542000
4.51981000 1.41875000 5.58101000
4.08812000 1.41986000 5.75374000
-6.07303000 -1.19611000 1.21493000
-5.91843000 -1.15274000 1.19442000
-6.08251000 -1.18775000 1.06276000
-6.64110000 -1.38086000 1.24161000
-6.55554000 -1.36058000 1.19839000
-4.50101000 -0.78237200 -1.52389000
-4.42476000 -0.78223100 -1.86747000
-4.65404000 -0.83078800 -1.60333000
-3.41201000 -0.46911200 -1.54616000
-3.70479000 -0.55067400 -1.56126000
-3.37349000 -0.45016500 -1.39559000
-4.30629000 -1.35408000 5.15975000
-4.18431000 -0.64930800 5.36478000
-4.24047000 -0.30986700 5.45143000
-4.51557000 -0.50844400 5.38977000
0.59375200 -1.74916000 -3.84083000
0.86685600 -1.75390000 -3.86272000
0.71308900 -1.46762000 -3.75442000
2.89123000 -1.90816000 -4.01228000
3.14357000 -1.91361000 -4.03059000
8.14018000 -1.67840000 -4.71336000
8.18929000 -1.88912000 -4.65970000
1.90116000 -2.00492000 4.74036000
2.72486000 -1.98570000 4.75905000
2.87146000 -2.00259000 4.78818000
4.01221000 -1.99589000 4.79550000
4.87994000 -1.97702000 4.77871000
4.93431000 -1.99910000 4.80377000
1.26692000 0.65721400 -0.48665700
1.83681000 0.65861700 -1.42566000
2.08304000 0.70506500 -1.27284000
4.45380000 1.35997000 5.22696000
4.43908000 1.39758000 5.31441000
4.56665000 1.36735000 5.28801000
4.74542000 1.39315000 5.30811000
4.81530000 1.39423000 5.28836000
5.93734000 0.15203500 1.81413000
5.71714000 0.13642200 1.75981000
5.87546000 0.15482700 1.59142000
5.13390000 0.10337100 1.17005000
5.23001000 0.80551400 -4.18474000
4.54169000 0.68590600 -4.09743000
5.25132000 0.75667400 -4.15511000
8.39451000 1.03642000 -4.37943000
-6.97645000 -2.11238000 2.43492000
-7.13649000 -2.15237000 2.67070000
-7.19592000 -2.14468000 2.43451000
-7.12644000 -2.15570000 3.00717000
-7.02998000 -2.13638000 2.79549000
-6.82693000 -2.09754000 3.02985000
0.99855300 -1.90437000 -3.90175000
1.05670000 -1.89378000 -3.88835000
1.02417000 -1.79419000 -3.88302000
1.01034000 -1.92992000 -3.92142000
1.08614000 -1.94050000 -3.94735000
1.07449000 -1.92404000 -3.90360000
9.38559000 0.94950100 5.07898000
9.34215000 1.03634000 5.14143000
9.30836000 0.94921800 5.20064000
9.43594000 1.13975000 4.94429000
9.37313000 1.08013000 5.06539000
9.42931000 1.03913000 4.95400000
-0.14890000 -0.67392300 -1.36513000
0.10113300 -0.60651300 -1.34100000
0.12989500 -0.53790100 -1.28223000
0.97200600 -0.33026300 -1.23314000
0.88852400 -0.40090100 -1.24551000
1.02120000 -0.43471800 -1.30176000
-4.07487000 -0.62408100 2.11671000
-4.26040000 -0.71867400 2.50430000
-4.04374000 -0.64440600 2.36752000
-3.11086000 -0.38731600 2.15933000
-3.22339000 -0.40284500 2.06267000
-3.10060000 -0.41485200 2.45823000
-5.31906000 -0.01707340 4.52977000
-5.19327000 0.20185300 4.59109000
-4.92877000 0.23389000 4.60824000
-3.90266000 -0.53535600 4.37704000
-4.11902000 -0.46058200 4.40264000
-3.79773000 -0.40257400 4.41990000
2.06743000 0.47029100 -4.90747000
1.99731000 0.66051400 -4.93255000
2.68831000 0.61358200 -4.95538000
-0.03428820 0.35240300 -4.80572000
0.46302100 0.01331470 -4.76796000
-0.09154130 -0.00600928 -4.73597000
-6.36294000 -1.98486000 1.24753000
-6.12344000 -1.92840000 1.66134000
-6.34169000 -1.97764000 1.55614000
-6.05801000 -1.91201000 1.49942000
-4.03784000 -0.66616900 -1.89348000
-3.75059000 -0.57785700 -1.80146000
-4.12110000 -0.70907100 -2.16283000
-4.27646000 -0.82107900 -2.87603000
-1.05522000 -0.07118050 -4.68344000
-0.73197700 0.22347400 -4.75030000
-0.88097200 -0.23327800 -4.65713000
-1.14807000 -0.36016800 -4.62030000
-7.60189000 0.14629600 2.76356000
-7.58202000 0.08727590 2.61138000
-7.61645000 0.22934200 2.58371000
-7.57079000 -0.00286324 4.12629000
9.53570000 0.41059800 4.01549000
9.62431000 0.58191000 3.92734000
9.57976000 0.51197900 4.09084000
9.46885000 0.30910100 4.20760000
9.40346000 0.21788900 4.34764000
9.43539000 0.24680400 4.18104000
-5.18407000 1.50686000 -4.58825000
-4.97390000 1.51907000 -4.39654000
-4.89834000 1.51176000 -4.55619000
-5.65166000 1.48211000 -4.73916000
-5.11019000 1.49090000 -4.76580000
-5.21157000 1.47174000 -4.79095000
8.94766000 1.28320000 5.35913000
8.87713000 1.34750000 5.37910000
8.97391000 1.33923000 5.43963000
7.35574000 1.38758000 5.37075000
7.26995000 1.38643000 5.45035000
7.73726000 1.38073000 5.48641000
-8.34713000 -0.39330100 3.13649000
-8.44324000 -0.17342100 2.80013000
-8.06393000 -1.02133000 2.51522000
-8.09539000 -0.95351900 2.25371000
-7.94757000 -1.24966000 2.36122000
-1.70149000 -0.84881600 -0.42017800
-1.83894000 -0.88758200 -0.47594600
-1.83942000 -0.88362300 -0.57325000
-1.75012000 -0.87729500 -0.35332200
-1.80679000 -0.87723600 -0.24623900
-1.83794000 -0.91087700 -0.37061900
-5.91674000 -1.23443000 4.17757000
-5.76834000 -1.08011000 4.21412000
-5.74627000 -1.23333000 4.17354000
-5.96681000 -1.31336000 4.15035000
-6.03071000 -1.29605000 4.15936000
-4.33224000 1.42947000 5.69755000
-5.03878000 1.32285000 5.71897000
-5.26259000 1.34590000 5.70202000
-5.35300000 1.27476000 5.70352000
-4.85658000 -2.04560000 -3.70349000
-4.50937000 -2.02270000 -3.70963000
-4.92941000 -2.03421000 -3.66661000
-5.63152000 -2.03396000 -3.63790000
-5.76232000 -1.98464000 -3.61236000
-7.57962000 0.18001900 -3.50302000
-7.48372000 -0.14275000 -3.43252000
-7.56418000 0.20960600 -3.55029000
-7.75529000 0.70479400 -2.98597000
-7.69847000 0.49549400 -2.72088000
-7.67434000 0.44390900 -2.92911000
4.60157000 -1.87385000 -4.06767000
4.94072000 -1.79965000 -4.06474000
4.11162000 -1.77915000 -4.04933000
6.14877000 -1.84363000 -4.10031000
6.67527000 -1.69705000 -4.07781000
6.51106000 -1.49917000 -4.03722000
7.62347000 1.37599000 5.59401000
7.36135000 1.37234000 5.77331000
6.34126000 1.38590000 5.84911000
6.93936000 1.37259000 5.88988000
6.89256000 1.38638000 5.62401000
6.79320000 -0.19873000 5.73624000
6.58844000 0.03189630 5.79188000
6.35770000 -0.31016100 5.70007000
5.56832000 -0.42571600 5.65726000
5.37919000 -0.30643800 5.69004000
5.21102000 -0.38914200 5.66690000
0.07425580 -0.39820300 -1.01345000
0.09878780 -0.38200100 -1.08806000
0.18766600 -0.36093400 -1.02884000
-0.58385400 -0.55366600 -1.19417000
-0.51834100 -0.53946800 -1.08376000
-0.59399900 -0.56240900 -1.09972000
6.23950000 0.00599749 4.15821000
6.38111000 0.05258710 3.54335000
6.48085000 0.03355770 3.91527000
4.94969000 -0.10334800 4.01173000
4.84985000 -0.10244000 3.78967000
5.09653000 -0.07991160 3.90650000
-6.64196000 1.29609000 5.66314000
-6.27362000 1.15439000 5.66523000
-5.88232000 1.38220000 5.60591000
-5.95223000 1.28993000 5.67003000
2.66696000 0.47449700 -3.52059000
2.56845000 0.38746900 -3.82502000
2.54330000 0.43173700 -3.61242000
3.80668000 0.54904700 -4.00535000
9.75223000 1.30712000 3.09446000
9.77881000 1.25296000 3.07245000
9.79548000 1.28577000 2.99135000
9.75232000 1.34481000 3.00520000
9.64868000 1.34802000 3.16181000
9.71653000 1.33197000 3.12137000
7.33446000 -0.00565579 -3.72892000
7.68486000 -0.00824803 -3.77919000
8.09371000 0.02219900 -3.81717000
7.68345000 0.00518447 -3.75489000
-7.77012000 0.79115100 -3.66968000
-7.69596000 0.54235500 -3.54862000
-7.68615000 0.53810100 -3.60590000
9.72346000 0.47627600 -0.75143000
9.73015000 0.54034000 -0.42799000
9.71989000 0.46447000 -0.50561600
9.69831000 0.38059900 -0.50953900
5.30724000 -0.06207230 4.00711000
5.05005000 -0.14529500 4.46842000
9.54745000 -0.39568100 -4.97205000
9.54657000 -0.28429800 -4.98738000
9.55338000 -0.31277700 -4.93169000
9.09413000 -1.31246000 -4.80763000
9.27302000 -0.90515000 -4.89174000
9.25570000 -1.07967000 -4.84706000
-5.21754000 1.42501000 5.65573000
-5.61481000 1.43915000 5.55264000
-0.32095400 -0.53973900 -0.43265600
-0.33131100 -0.55386700 -0.30817000
-0.39346600 -0.51501900 -0.35920200
-0.61364100 -0.59005200 -0.07237050
-0.66879700 -0.58068500 -0.08310470
-3.33133000 -1.31244000 4.18572000
-2.95737000 -1.24960000 4.09043000
-4.74855000 -1.63329000 3.95880000
-4.46807000 -1.55660000 3.77324000
1.86027000 -0.06642020 -1.08160000
1.98902000 -0.01151190 -1.06669000
1.83482000 -0.03371090 -1.05029000
2.05437000 0.06074080 -0.10799000
2.10835000 0.02844390 -0.09612490
-6.52145000 1.44571000 5.59315000
-6.65396000 1.45654000 5.48857000
-6.73085000 1.44989000 5.56805000
-6.78575000 1.43490000 5.60898000
-6.79858000 1.39467000 5.63747000
-6.64972000 1.40768000 5.64365000
-6.33306000 -2.10652000 -4.03331000
-7.35922000 -2.14275000 -3.87023000
-1.00064000 -0.88528400 -2.23815000
-0.75171300 -0.86515900 -2.70010000
-0.59944300 -0.82627500 -2.44555000
-2.00136000 -1.07839000 -2.57575000
-1.93565000 -1.05057000 -2.27782000
4.67628000 -0.09633690 3.46325000
4.92848000 -0.04803890 3.26205000
4.18894000 -0.09020980 2.86006000
4.39861000 -0.11906600 3.41209000
4.23971000 -0.11956100 3.25717000
3.57322000 -1.22306000 -4.66088000
1.64371000 -1.80450000 -4.46354000
2.34834000 -1.88886000 -4.47405000
2.28727000 -1.95542000 -4.44807000
3.03011000 1.34053000 -5.00130000
3.24562000 1.34714000 -4.88475000
3.34847000 1.33340000 -5.00907000
2.65999000 1.30775000 -5.03226000
2.46241000 -1.60675000 5.29506000
2.30717000 -1.85188000 5.21810000
2.53326000 -1.78084000 5.24472000
2.70131000 -1.94507000 5.20362000
2.29478000 -1.95701000 5.17354000
2.59887000 -1.98416000 5.17380000
9.73057000 1.31226000 3.45064000
9.73045000 1.30017000 3.35688000
9.67040000 1.32919000 3.32071000
9.77283000 1.23180000 3.36199000
9.76447000 1.28783000 3.43749000
9.77417000 1.20590000 3.47337000
9.33193000 0.26723600 4.81940000
9.29729000 0.28198800 4.91066000
9.25930000 0.14164200 4.77563000
9.22637000 0.17694400 4.90888000
-5.70541000 -1.84967000 4.22206000
-5.94494000 -1.90865000 4.12888000
-4.43790000 -1.55889000 4.00928000
-4.04636000 -1.46591000 4.11888000
