-2.00520468 6.80697536 -3.32989526
0.08390353 7.48923588 -3.82343602
-1.23774052 6.50620127 -3.72307992
-1.23652494 6.24310827 -3.74575901
-1.97193050 7.01442623 -3.30367041
-0.38500872 5.97658205 -3.95871830
-0.45603049 5.85275793 -3.94407487
-0.25053823 5.72604465 -3.96225047
-2.20751309 5.30182981 -2.98665166
1.45333743 6.89516973 -3.76177669
1.43994009 6.62006712 -3.81283259
1.52005076 6.76037169 -3.74993300
-2.05437660 7.11024427 -3.20632029
-0.24478264 5.91665268 -3.97284842
-2.21300054 5.32748604 -3.14900804
-0.44182906 6.78223658 -3.91163206
-0.41709334 6.61753130 -3.93481421
-1.09713590 5.49385357 -3.75811696
-1.13383472 5.71279478 -3.77175021
-1.28813899 5.64512825 -3.71049261
-1.54597783 6.62132025 -3.75561166
-1.43877459 6.70857954 -3.78733587
0.91338789 8.00537491 -3.72763896
0.79745430 7.98046064 -3.75621986
0.75979364 8.01853180 -3.77616286
-2.13266110 5.14095354 -3.16811800
-1.35771072 6.51244164 -3.83903694
0.74764824 6.02260828 -4.05737686
0.45706227 6.01471663 -4.10760689
-0.23701185 5.76228476 -4.13790083
-0.92333072 5.63692522 -3.82942128
-0.32385725 5.92412472 -4.13998842
1.33964384 5.14024782 -3.58122706
1.32032442 5.33400488 -3.65280342
-0.20172673 5.90086889 -4.14949608
-1.25254107 6.50712729 -3.87818313
1.56363761 7.05030823 -3.66843629
0.04517085 7.60963011 -3.92234993
0.30907959 7.49244928 -3.94453049
-1.20900643 6.31333065 -3.91065359
-0.86540467 6.01452875 -4.02024698
-0.54246342 6.00881863 -4.09654093
-0.71265167 5.84386301 -4.04747486
0.63932163 6.18144941 -4.06233835
0.82312948 6.16052532 -4.02402735
-0.82775176 7.06627131 -3.78878856
-0.93322408 6.89069366 -3.78446388
-2.02312613 7.22031546 -3.22994304
-0.69267023 6.18867779 -3.90413666
-0.80077243 6.14099598 -3.88313317
-0.60288167 5.97696638 -3.92420506
-0.64031297 7.02569103 -3.83778501
-2.12057710 7.29260492 -3.12787294
-2.07469440 5.23365927 -3.09843802
-2.01036167 7.35016346 -3.21108055
-1.09010029 6.32282305 -3.79644156
1.62774098 6.95177889 -3.67464924
1.63356113 6.77338457 -3.69883084
1.37140477 5.49581909 -3.67083120
-1.04312456 7.26281214 -3.68546820
-1.07156360 6.99875879 -3.72340012
0.97009134 7.91742277 -3.71112108
1.09850955 7.99173069 -3.66059661
0.25073481 7.30570889 -3.97585034
0.17925745 7.43033934 -3.96866298
1.67616987 6.87769699 -3.68132114
-1.88799620 7.14800644 -3.35140753
1.00601828 8.02954674 -3.72116375
0.97011691 6.07433033 -3.99666452
-0.66387451 7.17201519 -3.80853868
-0.57892919 6.21613550 -3.92990518
0.83915055 8.05362129 -3.79217958
-1.53648877 6.67245102 -3.55620217
-1.62234747 6.65373039 -3.52056193
-0.81740320 7.04623461 -3.93156457
-1.06902850 6.98292971 -3.88541079
-0.97637409 7.09465361 -3.88097930
1.00019944 8.06611443 -3.77234960
-0.97193259 7.79156685 -3.57842231
-1.08366477 7.82403231 -3.53149605
-1.07330954 7.67805719 -3.57691669
-1.91889608 7.32049751 -3.30885601
-1.01539338 5.50684690 -3.77723670
-0.93462700 5.47630787 -3.80222607
-0.50365847 6.19126749 -4.09130430
-0.75452995 6.16362858 -4.03923750
-1.35361636 6.56881237 -3.67433047
0.21805139 7.06422424 -4.01360083
0.47976711 7.02846384 -3.99818158
0.20330378 6.99556160 -4.03095484
0.33886710 7.19224310 -3.99158263
1.67748010 7.00566769 -3.66779637
-0.99254090 7.86313772 -3.70958829
1.67748010 7.00566769 -3.66779637
1.73352563 6.97550964 -3.75543427
1.12558639 5.72757053 -3.79786158
1.63999033 7.08322906 -3.63582850
-0.92394203 5.67727661 -3.98155999
-0.71816146 5.58551216 -4.01485491
-0.61005306 5.54442978 -3.89258933
-1.37158787 6.77654076 -3.63150001
1.71703196 7.10238552 -3.70862722
1.37549520 5.29366064 -3.78795552
1.28150439 5.10285759 -3.72873020
1.24379730 5.26540375 -3.81121659
-1.83098483 7.05106163 -3.30985880
-1.53145373 6.76528358 -3.56020427
-0.87073600 7.70285606 -3.62843108
-0.41824615 6.16574144 -3.95791054
1.00907147 5.64155531 -3.95953846
1.15872312 5.60907602 -3.77286482
-0.89383537 6.89131641 -3.94625258
-0.74532193 5.69295263 -3.88046741
-0.90614253 5.83016634 -3.84678650
-0.12025752 5.99801636 -3.97985053
-1.44358158 6.88458157 -3.76860547
0.98944342 5.12950277 -3.81106615
1.21265924 5.41962481 -3.87078023
1.04894102 5.88641882 -3.83937550
-2.28346801 5.52172804 -2.97138667
-0.09816699 7.62681723 -3.77940178
1.77572560 7.02196360 -3.87186670
1.81294894 6.92546940 -3.94720244
-0.86420196 4.92302036 -3.60325980
-0.94671053 5.04253006 -3.67440391
-0.14606610 7.60951900 -3.92395473
-0.52895045 7.04123926 -3.98439646
-0.83963430 7.73210526 -3.79642487
-0.77091187 5.07593250 -3.73022532
-0.26149958 6.01316977 -4.13890028
-1.25832963 6.65246201 -3.70527387
1.90039563 6.78971577 -3.41364837
1.80847418 6.58750582 -3.49313331
1.94150794 6.64989233 -3.40309072
-0.18721293 6.17864227 -4.12822914
1.35658872 5.61499834 -3.70563340
-2.25572371 5.50132799 -3.15331817
1.36118925 5.80714321 -3.72703552
-0.45251954 7.01735020 -3.87297678
-1.80274129 7.25340271 -3.28423929
-2.08375216 5.32484436 -3.30753231
-0.13803783 7.82366419 -3.86083317
0.05403645 7.80905342 -3.87169671
-0.63643527 4.98430252 -3.71800160
1.65730202 6.74354219 -3.55202508
-1.90013444 7.28254318 -3.20341659
0.04925954 7.74539137 -3.75001669
-0.36336488 6.87081909 -3.90389371
-2.19118357 5.47313499 -3.06283879
-1.37146509 6.71271467 -3.82254767
-0.96092272 5.10905123 -3.70312810
-2.01567006 5.35187769 -3.20565534
1.89955926 6.66363811 -3.59669161
1.87234473 6.89250231 -3.52866840
1.90884984 6.74743366 -3.50390244
1.90574992 6.84045887 -3.49426770
-0.74197924 7.79485416 -3.80379176
1.23099411 5.94772530 -3.77910972
-1.27234161 6.74642372 -3.85091591
-0.25798225 7.05303574 -3.88712549
-1.81874311 7.36296225 -3.38440537
1.23142791 5.62478685 -3.90045881
1.12590456 5.84201956 -3.94918537
-0.82103592 5.14181137 -3.75418901
-1.84846020 6.92785406 -3.44496083
-2.13794637 5.58939552 -3.14789724
-1.09637797 6.60807943 -3.77056861
-0.49947420 7.17678690 -3.83612275
-1.90630364 5.43491793 -3.31334662
-1.87443805 7.00071573 -3.59827828
-1.86728680 6.67594671 -3.59111047
-1.82557535 7.01493597 -3.51182389
-1.82873356 6.91631317 -3.49065566
-1.84701824 6.69559717 -3.49621010
-1.84846020 6.92785406 -3.44496083
-0.97852349 5.25541639 -3.74261808
-0.71310586 5.31067324 -3.82873416
-0.95126891 6.56671572 -3.81993747
1.31369686 5.73359299 -3.89017200
1.17211246 5.92923403 -3.94979453
-1.84970641 6.63204956 -3.55088139
-0.60474002 5.09881306 -3.73775530
0.82650477 8.01832867 -3.57951498
0.95778638 7.87348175 -3.58832073
1.07122409 7.94984531 -3.52724361
-0.66695273 5.17583609 -3.77540350
-0.10233136 5.73533678 -3.96952200
-0.18529043 5.54101419 -3.94655323
-2.05690026 5.14162874 -3.25922036
2.04468656 6.72169590 -3.33475876
1.98131597 6.89468908 -3.34384608
-1.92479908 5.13105536 -3.20659041
-0.56290823 5.22621775 -3.82654214
0.09807315 7.89815140 -3.84145308
1.04442787 5.49374390 -3.78409410
2.00161982 6.86831760 -3.39559507
2.05324292 6.65920210 -3.39710641
1.97323799 6.75224161 -3.45266414
2.04569268 6.85742140 -3.36330390
0.98735666 7.57372665 -3.66444588
1.00572670 7.43632698 -3.68487120
1.21325660 7.62080908 -3.56814528
0.04023469 5.76659155 -3.97453475
-2.05690026 5.14162874 -3.25922036
-0.80325937 7.56897354 -3.68893719
-0.65269035 7.62232304 -3.70908761
-0.87169200 5.42718649 -3.81396866
-0.60565829 5.44881821 -3.87873387
-0.05152847 7.96057415 -3.82581663
-1.23641038 6.17707062 -3.89068580
1.92110324 6.62503338 -3.52185464
1.90190232 6.51100349 -3.56489491
0.85882413 6.00867462 -3.88646722
0.75378811 5.90562916 -3.90444398
-1.97347248 6.78258276 -3.72551608
1.04085028 6.00162411 -3.83793807
-0.81233150 7.30433702 -3.74807596
1.39327741 7.50770569 -3.52005601
1.24298728 7.39752674 -3.61163044
1.33679724 7.66522121 -3.50327420
-0.07659908 6.22165489 -3.98871756
1.88299608 6.83454657 -3.58664370
1.93850243 6.66194868 -3.70563722
-0.84437716 7.95642710 -3.56744552
-0.72804356 7.86260843 -3.62654281
-1.16288304 7.40173244 -3.61291933
-0.99369359 7.41251659 -3.67714286
-0.88609153 7.40662098 -3.70088363
-1.09233272 6.42298651 -3.94393873
1.91435707 6.88141060 -3.65492940
-1.94792068 5.21822023 -3.39585161
-2.00123501 7.11197042 -3.76961112
-0.04112890 6.03028011 -3.98697615
-1.94792068 5.21822023 -3.39585161
-0.56221801 7.65223742 -3.72101164
-0.21352318 8.06922340 -3.94952941
0.04729557 8.06631088 -3.94698167
-0.11526021 8.03349304 -3.87230682
-2.25021005 6.06466675 -3.20659876
0.12610081 8.03951645 -3.87309694
0.84527487 6.17705441 -3.88633466
2.05385590 6.51447582 -3.41655326
-1.95309818 7.05316830 -3.69355941
-0.51859868 7.75575209 -3.70066643
-1.15753198 7.51889801 -3.58667755
-1.00749815 6.26183510 -3.97669482
0.04648555 8.00839520 -3.83552527
1.42695296 6.84489489 -3.64393449
1.73590529 7.01632309 -3.45994067
-0.85031867 6.27390099 -3.87130141
-1.00274789 6.17414713 -3.83001184
1.86646688 6.94847345 -3.39796257
0.05943796 5.81666660 -4.13725233
0.07836470 5.62041521 -4.12347317
-0.94138205 6.03834724 -3.84292078
-2.31932521 6.19363546 -3.12364316
-1.99844813 7.33074427 -3.77460432
-1.96911728 7.28422356 -3.71273541
-1.26922429 7.68968725 -3.49617338
-1.81810439 7.12866402 -3.42953944
-1.81810439 7.12866402 -3.42953944
-2.18594980 6.13295269 -3.25627351
-1.11599791 8.00313282 -3.45359254
1.48976529 7.76688957 -3.39918923
1.87726033 7.01676798 -3.47406220
1.18446660 6.15849543 -3.92720914
1.33154225 6.01207829 -3.90235496
-0.08241104 5.94337749 -4.14965248
1.59201086 7.64507389 -3.38133740
-1.80716431 5.18893528 -3.32713151
1.51281822 7.05237293 -3.56815290
-1.64094448 5.13040543 -3.42583156
-1.84237826 7.27484846 -3.54721189
-1.80690873 7.22937870 -3.48048520
-0.96107894 7.95337772 -3.69841838
-2.27181745 6.21552372 -3.04057837
0.98564076 5.47026300 -3.92697358
-1.88932228 7.24559593 -3.60674405
-1.88421106 5.37208843 -3.48764801
-1.90832162 5.38691616 -3.45971918
-1.83511710 5.14540339 -3.51431894
-0.83101064 6.42985773 -3.87145138
-2.10934782 6.13203144 -3.20751858
1.13259709 6.12299347 -3.81170416
-0.96286404 8.01012897 -3.70769167
-1.72031295 5.27734804 -3.42114425
-0.85479474 6.26372194 -4.01502323
-0.94652456 6.16496897 -3.98630214
1.86318672 7.14066982 -3.50441241
-2.13056135 5.94983959 -3.34342051
-2.26108003 5.95222950 -3.21682429
1.33608663 7.52112722 -3.68821359
1.31435156 7.44791603 -3.73156881
1.04563868 7.46529675 -3.83067942
1.05299747 7.53946924 -3.81566119
1.26793623 7.58637381 -3.72329259
-2.14742732 5.49838972 -3.28373575
1.42018473 6.05869055 -3.70931983
-1.99658322 7.27397013 -3.82431912
1.20582128 5.47840834 -3.73863101
-2.08199763 5.49697590 -3.34903908
-0.66028464 6.25089169 -4.06110573
-1.03589439 7.39447546 -3.83636904
-0.88947922 6.44214249 -3.99891925
-1.95165706 7.00269032 -3.92786622
-2.02134991 6.92685270 -3.91884804
-2.03025436 6.96392870 -3.85584164
0.21302176 5.78456354 -3.97008896
1.34468365 5.92896461 -3.89848232
-1.89498830 6.92892122 -3.99752808
-2.03533077 6.08521891 -3.40174079
1.41298437 7.57365704 -3.64869046
1.96870947 6.96266794 -3.41467786
1.48797655 7.48253393 -3.62741590
-2.18344760 5.93499613 -3.13998508
-0.78135544 7.40865803 -3.73159027
-2.06368184 5.98991442 -3.24784708
2.00374556 7.02071714 -3.35768771
-1.97108519 7.24815989 -3.86626196
-1.99658322 7.27397013 -3.82431912
0.24440037 5.95301294 -4.13287592
1.35657620 6.14237595 -3.87033796
-1.89409435 7.24097109 -3.92307258
-0.80172867 7.29967737 -3.90057278
-1.07369506 7.27238417 -3.84686494
-1.86402929 7.12964535 -3.95184422
-1.19002450 6.68298578 -3.89034653
1.50408626 6.01508904 -3.82157016
0.09495799 5.55328751 -3.95303845
1.39727414 7.70552874 -3.63061619
1.23740137 7.62721777 -3.72745800
-1.94632971 6.12823582 -3.33617616
1.93036556 7.13179302 -3.38107109
0.33403140 5.61060238 -3.94109035
-0.62324953 7.41379023 -3.76702809
0.38377982 5.78474998 -3.95246267
1.28274655 7.79393530 -3.64043236
0.28471813 6.83555746 -3.92738104
0.36677384 6.94486046 -3.89975262
0.23723926 7.07100391 -3.89313602
-0.51035577 7.25711489 -3.95964265
0.19823921 5.99299622 -3.98042083
-2.22742081 6.40206289 -3.19331598
-1.87025297 5.37692976 -3.53505659
1.98551476 6.79355669 -3.78646898
-0.65270066 7.45871258 -3.92126322
1.98062766 7.03308630 -3.76213646
0.79190683 6.27811241 -4.03538275
-1.04107785 6.77736712 -3.92622709
0.24791785 5.75756693 -4.12720442
-1.10116148 6.78691244 -3.90428543
1.89715183 7.10644960 -3.59777284
-1.90832162 5.38691616 -3.45971918
0.94234568 6.28515720 -3.99396563
-2.20107865 6.35344124 -3.10327315
-1.96177340 5.50565147 -3.43942690
-2.16275859 6.27828979 -3.14377666
0.87238157 6.42633390 -4.01272058
0.36124453 6.76113224 -3.92062783
0.28532881 6.63204622 -3.94300961
0.45743954 6.58892488 -3.92500281
-1.73521614 6.82391310 -3.42887855
-1.05980873 6.77847576 -3.76235771
-0.87816751 6.70738029 -3.82705212
-1.79477417 5.40299845 -3.38431048
-1.73105228 6.99251747 -3.40255952
-0.66544193 7.92704821 -3.77620506
1.51312983 7.68141890 -3.56322813
1.60720146 7.41859150 -3.58615637
-0.84764940 8.02105618 -3.75550222
-1.60246861 6.86252165 -3.50934529
1.81831026 6.38593721 -3.99577761
1.83573806 6.59915590 -4.02075863
1.87689972 6.53534365 -4.12579870
-2.19675303 6.26063299 -3.24496102
-1.67133152 5.38497972 -3.48304033
1.84612131 6.75829315 -3.98967600
0.81139469 6.27345037 -3.90088201
1.87606847 6.64774609 -4.03499222
1.93354094 6.63113356 -4.12535286
0.48246932 6.73293066 -3.90189314
-0.49570274 7.29962826 -3.81233239
0.42108604 5.55925655 -4.09839869
0.39127538 5.84943771 -4.12403822
1.96829093 6.65489769 -4.05112076
1.87606847 6.64774609 -4.03499222
1.95305800 6.68290138 -4.00848866
1.89660382 6.74152136 -3.99878788
1.84612131 6.75829315 -3.98967600
1.11672270 6.21065235 -3.94945383
1.55573821 7.86024904 -3.50084615
0.48637182 6.86037302 -3.88468289
-1.61322141 7.00469446 -3.46835542
0.90147573 7.68949986 -3.65743065
1.14441550 7.75320721 -3.55691147
-2.05557275 6.22651815 -3.37217927
1.32045901 5.45076180 -3.85435581
-1.44110811 6.95800829 -3.58245564
1.43706119 5.46492863 -3.80688119
-2.06215000 6.38585854 -3.23373938
-1.90290618 6.29012537 -3.36651945
-0.61844093 7.96140289 -3.62411237
1.07995808 6.27078867 -3.82361913
-1.71091080 7.09216166 -3.38020086
-0.64367819 5.81206465 -3.91181159
1.34163821 7.86046124 -3.44522834
0.59076083 6.53905821 -3.92725635
0.60662997 6.74753523 -3.88753319
1.91178775 6.37119818 -4.23377848
1.98307025 6.46646357 -4.42879248
1.25398779 7.97673130 -3.44747901
1.92415810 6.61084223 -4.19056940
0.98930472 7.77877331 -3.74714780
1.11477363 7.67199993 -3.75618887
1.14872205 6.40167332 -3.93513894
-2.08715463 6.38337135 -3.33057666
0.72356242 6.77844954 -3.87055779
1.96829093 6.65489769 -4.05112076
2.04822516 6.64521933 -4.06363726
1.93354094 6.63113356 -4.12535286
1.07995808 6.27078867 -3.82361913
1.13259709 6.12299347 -3.81170416
1.28337657 6.20547438 -3.75711679
-2.24479008 5.65307903 -3.03786325
-0.51036775 8.00566292 -3.81114030
-2.25508332 5.80930424 -3.06155157
1.99035048 6.65333271 -4.28642321
0.10229753 6.15519190 -4.12596655
-0.34736308 7.10297966 -3.99423814
-1.79192114 7.34096813 -3.42817092
1.42018473 6.05869055 -3.70931983
-2.02179313 5.91074705 -3.43363190
0.05144978 6.11605835 -3.98556900
-1.58801079 7.11059523 -3.46818924
0.53638834 6.70459509 -4.04954147
0.40672535 6.48478603 -4.08652878
0.38289854 6.69862366 -4.07296276
2.05620623 6.67637682 -4.21187639
-0.39616731 7.87675238 -3.68389654
-1.56591046 7.27200556 -3.44841862
2.04822516 6.64521933 -4.06363726
-1.67411375 7.31223631 -3.36936593
-1.98228753 5.76481628 -3.30484271
-1.90409815 5.97681952 -3.37488675
-2.02381587 5.90051794 -3.26932502
0.56642044 6.50110817 -4.06656408
0.65393877 6.69074631 -4.03035498
2.18214822 6.67521763 -4.28210306
2.05620623 6.67637682 -4.21187639
1.31374753 6.36242914 -3.74185276
0.26881608 6.08380175 -4.12286425
-0.33361870 7.19314861 -3.85809255
1.28143406 4.90138292 -3.61656189
1.29291642 7.92996979 -3.58837938
-2.27383327 5.75054741 -3.17983246
1.24882424 6.32059860 -3.92369390
-1.58029318 7.28283787 -3.64932275
-1.60565794 6.96371412 -3.70641136
-1.64215589 7.01103354 -3.71280050
1.32770813 6.27419615 -3.88974452
1.36866558 6.22124720 -3.86929750
1.97204363 6.79055071 -3.96109486
1.85658252 6.93326759 -3.97362351
1.89660382 6.74152136 -3.99878788
-2.27312469 5.87097263 -3.20310712
1.28143406 4.90138292 -3.61656189
1.90211236 6.92435503 -3.96634960
1.97204363 6.79055071 -3.96109486
0.73851049 6.52913523 -3.90114474
-1.42816114 7.13604116 -3.55351973
-1.91300499 6.03638411 -3.51613712
0.39492190 5.97617769 -3.96215296
-0.72591931 7.57890272 -3.87393308
1.16819274 4.93016243 -3.53473210
-1.54513288 7.08220911 -3.68139076
-0.76620579 7.47908115 -3.89765477
0.23916163 6.12946701 -3.98004270
-1.54378247 7.23988104 -3.66050005
1.90211236 6.92435503 -3.96634960
1.99887991 6.94655466 -3.91150522
2.06870914 6.68327618 -4.30595016
0.90470761 6.56913900 -3.85590315
1.02387559 6.48711491 -3.96901917
-0.53496265 7.41964579 -3.93602729
-2.11206412 5.78575897 -3.19988084
1.97266853 6.47657633 -3.77692914
2.04478264 6.59618282 -3.90525246
1.32922065 5.01477766 -3.52699661
1.17045283 5.04510784 -3.59674621
1.15270805 6.48819542 -3.78935957
0.99742424 6.33373785 -3.85210252
0.42415047 6.09035015 -3.96102834
-1.88579917 6.16140413 -3.59874916
-1.89678538 5.83899117 -3.62615323
-1.88482380 5.96878290 -3.57211590
-2.00378847 7.52292585 -3.17480707
2.02788043 6.78160048 -3.88182616
-0.66152894 6.49505615 -3.90576148
-1.95826936 5.96782160 -3.71030569
-1.91155159 6.22227478 -3.64694738
-0.47025037 7.71170712 -3.87510419
-0.63035268 7.56498671 -3.90484428
0.84877348 6.65461588 -3.99957418
2.03181100 6.68960810 -3.95502210
2.03276873 6.72363424 -3.91508532
1.53597820 4.98489380 -3.41601157
2.04202437 6.65566778 -3.98790336
-1.91300499 6.03638411 -3.51613712
-1.91575348 5.71706820 -3.50463057
-2.02179313 5.91074705 -3.43363190
-0.56379128 7.79996109 -3.83420181
-1.90471220 5.87269402 -3.36978555
-1.76155019 5.83422375 -3.47201800
-1.77082741 6.05120564 -3.47415543
2.10402226 6.42416477 -4.01760197
2.12832403 6.55641699 -4.04888916
1.10866535 6.63067484 -3.92618084
-1.62382376 5.82061768 -3.56610036
2.21455359 6.42534590 -4.22714663
-0.62183774 7.49419069 -3.74609041
0.86285573 6.74276590 -3.98051023
0.74983525 6.59678888 -4.02578592
1.38127792 8.02819347 -3.37046933
1.31374753 6.36242914 -3.74185276
2.09134293 6.61710262 -4.02779102
-1.66855597 5.97736025 -3.53265429
2.17619419 6.62083292 -4.17170429
0.39884993 6.17259169 -4.09851789
-0.40287948 7.37255287 -3.81331229
-2.17411733 5.79981232 -3.30373192
1.46191823 7.85119057 -3.53648281
-1.87773740 7.52530432 -3.29833364
-1.78545821 7.50582027 -3.22728109
-1.94769692 7.54209042 -3.06932998
-0.36670002 7.55704689 -3.93935633
-0.42995691 7.51015234 -3.77447701
-1.89213943 5.86377525 -3.54460669
1.24326026 6.58707333 -3.88573623
1.39761221 6.39901781 -3.85850787
2.01678038 6.96630716 -3.85904431
-1.63296020 6.08235788 -3.55974650
-0.41976032 7.38208437 -3.96589303
-0.36000362 7.22921181 -3.99316597
0.49675182 6.95122576 -3.88324237
1.33434701 7.04708004 -3.76120758
1.51319551 7.97216177 -3.49581742
1.39064991 7.97117901 -3.54089427
0.50743318 6.90596008 -4.02824926
1.31793022 7.15998316 -3.75772667
1.43790507 7.15906096 -3.70848560
0.31060964 6.86762524 -4.06025028
0.38184568 6.95952463 -4.03286028
-1.79882002 7.55034399 -3.36606884
-0.95175177 4.88553905 -3.75865102
-1.05136228 5.08312559 -3.81140685
-0.69494390 5.02489233 -3.87508225
0.42858821 7.14469290 -3.86531949
-0.76181424 5.32634449 -3.95345879
1.59702277 7.88749075 -3.30292320
-1.92890048 6.16095304 -3.47762918
1.69792426 7.74952888 -3.29394913
1.84857345 7.64307833 -3.22716594
-0.26779443 7.71236038 -3.88767481
1.42648160 4.99934816 -3.63315892
-0.47743240 6.45152617 -3.94311690
1.56961977 7.27363873 -3.62676930
1.65542006 7.28806734 -3.61475921
-0.52884346 5.43146276 -4.03157854
1.53231192 5.61388397 -3.62759328
-0.50685972 6.39756775 -4.08343649
-0.25247186 7.29747581 -3.84010172
-0.36866787 6.45212364 -4.09807730
0.64170885 6.87962770 -3.87427235
-0.47891062 7.94619131 -3.80226207
-0.30913156 6.27689266 -3.96433854
1.48110425 5.78970337 -3.67385697
-1.99055529 6.28793859 -3.42657566
-1.98436189 6.50854969 -3.39376998
-0.61877173 8.02821636 -3.81141448
-0.73463082 8.02906132 -3.79475403
-1.64706063 7.39911366 -3.35530663
-2.03263164 7.70705938 -3.11783457
-2.02469850 5.59753036 -3.41130614
1.67202568 5.85697556 -3.75168896
1.66440666 5.66718817 -3.74087358
1.55947709 5.53452539 -3.75326848
-2.03225374 5.72096205 -3.41084886
1.60209668 5.88641071 -3.77396846
1.50028396 5.68859243 -3.80434394
1.53920150 4.80326128 -3.50106192
1.43063736 5.94406986 -3.70566320
1.60876262 5.95356321 -3.62427664
1.67594421 4.90383244 -3.67974925
-2.00542045 5.61233187 -3.27372122
-1.76656854 6.21490145 -3.46616673
1.59724188 4.97717571 -3.59991026
-1.77313614 6.38504171 -3.45438695
-0.73525941 4.82595730 -3.78338099
-0.36349204 7.60757446 -3.75878286
1.64936018 7.62982368 -3.56711459
1.66368568 7.42446470 -3.60520434
1.62911773 7.54442358 -3.56300187
-0.23136903 7.97265005 -3.81756091
1.75461900 5.04099941 -3.33569050
1.63132596 5.72541142 -3.59380865
1.59724188 4.97717571 -3.59991026
-1.88631713 5.57792807 -3.36708426
1.65387416 5.03027964 -3.66238499
-1.87666166 5.37976360 -3.59051442
-1.88472998 5.66684866 -3.59386539
-1.91209912 5.63131762 -3.64809036
-0.26861885 7.70241499 -3.74760222
-0.53966564 4.82490587 -3.81909442
-0.36793342 6.34693718 -3.96425390
-1.95712388 7.76144743 -3.15539932
1.73686051 5.92624283 -3.55740690
1.80516291 5.80765820 -3.51395655
1.67202568 5.85697556 -3.75168896
1.70428562 5.71795034 -3.76387310
1.66440666 5.66718817 -3.74087358
-1.85996222 7.65350485 -3.28053331
1.62911773 7.54442358 -3.56300187
1.65542006 7.28806734 -3.61475921
1.55573821 7.86024904 -3.50084615
1.61382580 7.74177074 -3.52142954
-0.57467449 5.01673031 -3.74431825
1.71293378 7.30796957 -3.70280290
1.76965594 7.30737829 -3.83374882
1.62585688 7.48912430 -3.41104960
1.81121123 7.46547890 -3.30830503
-1.89164281 6.18603802 -3.51520395
-0.28386113 6.24521446 -4.12357473
1.64844203 6.11143684 -3.59830022
-1.83136690 7.83972788 -3.06739998
-0.47729608 4.98711014 -3.76475239
-1.68584979 7.77731276 -3.20557451
-1.63356471 7.62171078 -3.30533671
-1.87617493 7.82156563 -3.20309997
-1.85996222 7.65350485 -3.28053331
1.80214262 7.18078089 -3.91390371
1.83163857 7.17083168 -3.93574619
-1.89164281 6.18603802 -3.51520395
-1.76249993 5.47402668 -3.43826795
1.86256146 7.52087116 -3.24794436
-1.88765359 5.65897608 -3.54337025
0.75547415 6.90383911 -3.85271907
-0.07904905 6.25251627 -4.13722277
-1.92337751 7.97254753 -3.16311812
-0.46834114 5.12655926 -3.79121304
1.97088885 7.59140873 -3.16221857
-0.29801044 5.03009033 -3.80638146
-1.96177340 5.50565147 -3.43942690
-2.02469850 5.59753036 -3.41130614
-0.44184157 5.11577654 -3.96786356
1.84233606 7.65393543 -3.38593578
1.85100174 7.47291899 -3.39543772
1.86803174 7.46618128 -3.50093102
-1.72369790 5.62529278 -3.48740554
1.83532500 7.77970648 -3.33894563
1.87201083 7.44912481 -3.36513090
1.89290810 7.58783007 -3.32238317
-1.78146851 5.70527792 -3.45151854
1.71175706 7.50112772 -3.68708515
-1.79765332 7.88963938 -3.24435878
-1.86473942 6.45257044 -3.54444432
-1.90089130 6.38697195 -3.49885082
-1.90089130 6.38697195 -3.49885082
-0.47729608 4.98711014 -3.76475239
1.61638856 6.17138672 -3.75944281
1.64204967 6.03757238 -3.76394153
-1.80950963 7.93773842 -3.23661327
-0.29801044 5.03009033 -3.80638146
-0.30656734 4.93582058 -3.92188001
1.89549100 7.23905468 -3.91655254
-0.21071437 6.33931732 -4.12656641
1.45517182 5.10350847 -3.69052911
1.81507564 7.36531734 -3.89531970
-1.73912406 7.98596764 -3.08748460
0.56914383 6.99923038 -3.87128401
-1.75722110 7.67973089 -3.36481738
-1.79882002 7.55034399 -3.36606884
1.88976443 7.78232193 -3.27995920
1.93383956 7.63114691 -3.29096556
1.87074673 7.37891054 -3.90613627
1.95424056 7.75923443 -3.24380708
-0.23088226 5.01369667 -3.97350430
1.78230476 7.44267225 -3.85437679
0.74891001 7.02323532 -3.95042157
1.72252500 5.98324776 -3.79420948
1.84241378 7.47387505 -3.89762759
1.84241378 7.47387505 -3.89762759
1.87074673 7.37891054 -3.90613627
1.81507564 7.36531734 -3.89531970
1.69053745 6.01885509 -3.76834011
1.64204967 6.03757238 -3.76394153
-1.55897689 7.48242283 -3.39846754
1.57170653 5.08119249 -3.63886237
1.86046159 7.14590549 -3.45962620
0.78607684 6.99575090 -3.82472205
-1.84784925 5.80360651 -3.39319587
-0.15960163 7.83606148 -3.71778035
0.76784623 6.83892488 -3.99437881
1.86716402 7.79070330 -3.46251321
1.83148968 7.78062868 -3.36748862
1.89688575 7.65640593 -3.53194284
0.81820172 6.94733620 -3.95747876
-0.44169810 6.61147356 -4.06630611
-1.99050713 7.47636938 -3.73190808
-1.75797570 7.80853033 -3.32656813
-0.29961783 6.50604486 -3.96457934
-1.90973568 7.56086397 -3.62821627
-1.75797570 7.80853033 -3.32656813
-1.73888588 7.83300638 -3.35746813
-1.75722110 7.67973089 -3.36481738
1.00773001 6.64502287 -3.81571150
-1.81037831 7.75737762 -3.50273442
1.86924839 7.24384594 -3.53468108
1.57512498 5.21845388 -3.68489337
1.48457515 5.26671600 -3.72640562
1.76057208 5.63343859 -3.51697683
-1.75455499 7.91222763 -3.28662419
-1.75518060 7.95964289 -3.30586505
-2.08354378 6.47416258 -3.20594788
1.67513776 7.19081593 -3.45305252
1.85245776 7.22351122 -3.34215498
1.60988259 8.06434727 -3.24270654
1.87140155 7.20480108 -3.41798639
-2.24739790 6.69073772 -3.12652969
1.92097890 5.68735123 -3.43140936
2.01563621 7.12822342 -3.26302695
1.97097194 5.80320501 -3.42383289
2.15774393 7.08905411 -3.18594432
-2.12038660 6.60428476 -3.15960360
-1.75455499 7.91222763 -3.28662419
1.87999845 5.56503963 -3.55926371
1.89831054 5.77347374 -3.64204693
1.89616430 5.88578987 -3.60097122
2.12404013 7.09311962 -3.24658966
1.91010678 5.88070726 -3.56352282
1.89502978 5.44290590 -3.50786757
-1.75518060 7.95964289 -3.30586505
-1.74572003 7.95583677 -3.37035680
1.96826851 5.82448483 -3.50015831
1.92116046 5.62722969 -3.51120996
-1.75175881 7.73214483 -3.41401243
-1.77847815 7.98791790 -3.44844890
2.07268190 5.75885105 -3.42738676
2.02818727 7.17086792 -3.30125928
0.93871015 6.79440212 -3.82517576
1.06511378 6.78099728 -3.78517795
-0.25690058 7.93866253 -3.67624593
1.88315284 5.97709131 -3.47885346
-2.03225374 5.72096205 -3.41084886
1.85075486 7.36907244 -3.44322157
-1.85496795 7.40865088 -3.92114949
-1.83633316 7.11581469 -3.95286512
-1.89409435 7.24097109 -3.92307258
-1.93302560 7.54251671 -3.86619353
1.98248720 7.36526537 -3.30553961
1.78165352 7.90010118 -3.18995500
1.62302959 5.19675398 -3.68054175
1.61337042 5.11256695 -3.44537330
1.91419840 7.33481836 -3.60081387
-1.85496795 7.40865088 -3.92114949
-1.80079055 7.32236004 -3.91706705
-1.83633316 7.11581469 -3.95286512
-2.18136263 6.60301495 -3.20002079
2.14264059 5.64590025 -3.28881741
2.07631254 5.74136066 -3.35634899
-0.36099896 5.25869226 -4.03546095
-1.69460690 7.21212626 -3.75645685
-1.64215589 7.01103354 -3.71280050
-1.68426394 7.05214453 -3.75297022
-0.43193829 5.22370195 -3.85325837
-0.52774578 5.31842995 -3.86496687
2.13421535 5.57456446 -3.38162398
2.16785240 5.85221958 -3.37721372
-0.55276740 5.11709785 -3.74976945
1.99148548 7.27037573 -3.75268364
2.01016498 7.17005444 -3.83040142
-1.65274477 7.47906876 -3.67971015
-2.11824584 6.56088734 -3.27243280
-1.77908993 7.13643932 -3.89969778
-1.75778258 7.55009079 -3.85548830
-1.55075467 7.81011486 -3.29194331
2.04673672 5.91530800 -3.38670731
-0.36033404 5.17837143 -3.83278918
1.15270805 6.48819542 -3.78935957
1.16696393 6.67484999 -3.76707172
-1.73912406 7.98596764 -3.08748460
-1.47976017 7.91715193 -3.29624462
-1.61761653 8.02132607 -3.15679216
-1.98710239 7.51824427 -3.82008362
-1.99050975 7.73963213 -3.72318125
-1.47976017 7.91715193 -3.29624462
-2.00402880 7.71538925 -3.77609134
2.08289528 7.36871910 -3.26322532
-1.94233418 6.56194544 -3.28031635
-1.89748430 6.42054605 -3.36084843
-1.94772923 8.03084564 -3.21858692
2.00915647 7.39550352 -3.78078699
2.01060629 7.39448452 -3.82595539
2.00236344 7.18571520 -3.85743332
1.98128235 7.40895367 -3.86256337
-0.11248484 7.99542618 -3.83408093
1.37222719 6.66973066 -3.69211388
1.45727944 5.26828384 -3.57704091
-1.82640207 7.98712254 -3.26054764
1.95695078 7.41783047 -3.68895245
1.19225252 6.88114738 -3.72932673
1.06511378 6.78099728 -3.78517795
1.37222719 6.66973066 -3.69211388
-0.27115893 6.67736197 -4.07686377
-1.95091712 7.70086193 -3.83053875
-2.03591108 6.57100821 -3.34559655
0.82870930 7.12180471 -3.79873276
-1.77374768 7.57592916 -3.43384624
-2.00746870 6.62474728 -3.24245381
1.98128235 7.40895367 -3.86256337
1.96908021 7.20797825 -3.88593173
0.98860466 6.95399237 -3.78111959
-1.92091107 6.65505362 -3.30583692
-0.00792052 7.88811588 -3.70966029
-1.93620324 5.27773046 -3.68155932
-1.98710239 7.51824427 -3.82008362
-1.87106216 5.24726343 -3.59728980
0.98475379 6.92831326 -3.91828346
0.97959143 6.68800640 -3.96173048
-0.07294516 8.03504848 -3.66541624
-2.15818119 6.76130867 -3.09000087
-1.93302560 7.54251671 -3.86619353
2.02812052 5.96641302 -3.47099543
-1.83841050 7.55665588 -3.90529060
-1.83841050 7.55665588 -3.90529060
1.59912276 5.26693773 -3.51139379
-0.09891951 6.64491034 -4.09761810
-0.07636590 6.42616463 -4.12275410
1.15398455 6.80460548 -3.88160443
1.76331544 5.20300913 -3.40202355
-1.80260789 7.56732368 -3.89948082
1.96908021 7.20797825 -3.88593173
1.93812728 8.01100159 -3.18570876
1.86918283 7.94452000 -3.24265552
1.85614347 8.01038361 -3.27902722
-1.95091712 7.70086193 -3.83053875
1.65644348 7.79869509 -3.56785083
-1.87132514 7.71946287 -3.90169048
-0.07358365 6.40565920 -3.98181105
1.72156405 7.61122274 -3.70894909
1.66291678 7.94248247 -3.57533884
1.05310345 7.07529736 -3.74581099
1.91325951 6.13874149 -3.65727615
1.92673671 5.93702221 -3.68640399
1.92134368 6.05828333 -3.54720306
1.59708214 7.92013216 -3.51295185
-1.69601810 7.60536766 -3.75180030
-0.34913859 5.09456921 -3.98777199
1.51319551 7.97216177 -3.49581742
1.56431448 7.97964430 -3.50612783
1.65373278 8.03939819 -3.58895493
1.78051758 6.23278999 -3.52948594
-0.24591266 5.16228676 -3.83126378
1.74559355 7.90878820 -3.74555779
1.70544183 6.18481207 -3.55658340
1.06043434 7.05630970 -3.85793400
1.14071083 6.98330879 -3.85018182
1.92868972 6.08733749 -3.45726252
1.19225252 6.88114738 -3.72932673
-1.80348027 8.06541061 -2.99680567
1.90659702 6.13231468 -3.58332562
-1.81874311 7.36296225 -3.38440537
-1.77163064 4.95689249 -3.88920689
0.08207012 6.32718468 -3.98907733
-1.82291138 5.13614511 -3.92225814
0.09941905 6.44843054 -3.97896576
1.71670330 8.06648540 -3.64354897
1.17355680 6.99478865 -3.71502399
1.84491587 7.86256218 -3.31934690
-0.36989626 5.33165264 -3.87851214
-0.20627385 6.74740028 -3.93696904
-1.78120005 5.16881037 -3.88863826
1.92868972 6.08733749 -3.45726252
2.04673672 5.91530800 -3.38670731
2.10745382 6.05495262 -3.33989120
1.99157286 7.85815382 -3.16840911
-0.21626046 5.25854158 -3.87747741
1.82758307 4.90452576 -3.21837735
-1.83054030 4.97890568 -3.92867541
-0.00402554 6.55559969 -3.97200727
-1.82291138 5.13614511 -3.92225814
2.23871279 5.98047876 -3.33082724
2.02145433 6.16817236 -3.45684505
-1.76650226 7.59569740 -3.40903854
0.25035515 7.61063051 -3.78629136
1.80706406 5.00134754 -3.42669773
-1.53397191 4.98110962 -3.65166950
-1.40692174 7.42363501 -3.50372648
-1.65261054 5.32801390 -3.73194575
-1.60296047 5.21279001 -3.70240021
0.25511467 7.74416161 -3.88888431
1.84510577 7.94384623 -3.35651302
1.90525377 7.85893917 -3.51844501
-1.82881701 8.06649399 -3.37898540
-1.61410153 7.34968948 -3.65081239
-1.51942647 5.18604898 -3.70980239
-1.42384362 5.07271194 -3.71244764
-0.10679454 4.91039753 -3.77007532
2.13755774 6.18902493 -3.37115836
-1.61410153 7.34968948 -3.65081239
0.31289649 7.28207016 -3.85018802
0.27351707 7.85841560 -3.71836185
0.25035515 7.61063051 -3.78629136
0.34152982 7.71331930 -3.75041127
1.74667633 5.79065037 -3.82736039
1.71531892 5.58445454 -3.76696587
1.82204080 5.69187355 -3.98691392
1.75026143 5.49586439 -3.84086943
0.30198950 7.59301329 -3.92902040
1.81146991 5.52788496 -3.95730186
-1.81043339 8.06772900 -3.52436590
-1.87633598 7.93240166 -3.57780981
-1.82881701 8.06649399 -3.37898540
1.79716539 4.96089411 -3.45661783
-1.80202639 8.06126595 -3.43345881
1.83934128 4.97919893 -3.55235648
0.49220970 7.55502319 -3.77874589
-1.49198127 7.41022301 -3.64672685
-1.41649222 7.17636204 -3.72143006
1.82941687 5.81915474 -4.00474119
-0.05267226 5.01952028 -3.81469512
1.89404809 7.92385244 -3.46502590
-1.95107377 5.50486135 -3.69985056
1.87502849 8.01178074 -3.42928743
-1.35940278 7.33395958 -3.54481602
0.17177822 6.70524693 -4.08842850
-1.28686345 7.20640326 -3.60520577
2.01649857 5.78039598 -3.96492767
2.01386166 5.57670736 -3.92049503
1.98676062 5.43626404 -3.94238281
0.47021967 7.62055016 -3.91401339
1.86366129 5.79575968 -4.03297806
1.89105570 5.65312195 -4.01339245
1.84294713 5.53525400 -3.99601555
-1.85142386 6.70454645 -3.36590934
-1.70668268 5.37845516 -3.78436065
-1.78170037 5.39689589 -3.90894651
-0.24591266 5.16228676 -3.83126378
-0.05982561 5.15190744 -3.83168101
-1.81547248 5.41394711 -3.94272494
-1.81547248 5.41394711 -3.94272494
1.94460475 5.75326633 -4.00637913
0.48701093 7.30563116 -3.82879305
0.47301984 7.72565222 -3.87389636
2.03647161 5.91740036 -3.95042801
-1.79882002 7.55034399 -3.36606884
1.77326226 6.03121519 -3.88441968
1.77034867 5.89282465 -3.89414024
0.00896458 5.23385954 -3.86961913
-1.45818102 8.02951145 -3.25873542
-0.21626046 5.25854158 -3.87747741
0.56724715 7.47362661 -3.78345490
0.49220970 7.55502319 -3.77874589
0.34367144 7.43502903 -3.82093263
-0.00105710 5.12295818 -3.82175517
1.83606052 5.91376734 -4.00017214
-1.60296047 5.21279001 -3.70240021
-0.11221584 5.01197338 -3.98765731
0.02284441 6.26298237 -4.12966919
1.73868906 6.24735832 -3.81107569
0.53163373 7.60547972 -3.91033912
-0.19069330 5.14498520 -4.03024626
-1.41816628 5.28732300 -3.77344680
1.85241592 5.08285856 -3.42053080
-1.60753787 5.44749689 -3.72388196
1.84944999 6.06039047 -4.04142189
-1.55072486 5.45429039 -3.73443007
-1.43237567 7.59492111 -3.43602657
0.43582913 7.27377796 -3.96918941
-2.06659770 7.83589602 -3.93826294
-1.97977841 7.83140469 -3.87702990
1.89550209 5.92906475 -4.04178286
1.88088024 5.86784840 -4.03773928
1.86699009 5.88164473 -4.02580118
1.95105171 5.01690817 -3.31409097
-1.60753787 5.44749689 -3.72388196
-0.22449446 5.25632524 -4.05726480
1.93908024 5.87066936 -4.03381014
1.94460475 5.75326633 -4.00637913
1.90188301 5.83372259 -4.03340006
1.89550209 5.92906475 -4.04178286
1.88088024 5.86784840 -4.03773928
-1.88949597 6.52540970 -3.34454179
0.54438293 7.37267542 -3.95401931
2.04885697 6.08812284 -3.99946785
0.49187693 7.75956964 -3.72126126
1.99563193 5.88931131 -4.00554562
-0.13098535 5.34355736 -4.08885908
-2.04841042 7.82125711 -3.80675006
-2.03136039 7.83427429 -3.76668143
-1.97333837 7.87366009 -3.69241810
0.00043953 4.89932346 -3.94576168
1.93908024 5.87066936 -4.03381014
1.98835433 6.04268360 -4.04400873
-1.92006600 6.61398649 -3.44703746
-1.92006600 6.61398649 -3.44703746
-1.87166059 6.54107189 -3.50035214
-2.07318878 7.83666086 -3.85607338
1.88769436 6.02591610 -4.05207062
1.98835433 6.04268360 -4.04400873
0.57701612 7.83111715 -3.82554984
1.91279542 5.67124987 -3.68317223
-1.79940224 6.60332060 -3.41550422
0.18455020 4.94474745 -3.96113205
1.24612200 8.02414989 -3.62631679
0.06999025 6.38925266 -4.12785578
0.29360026 6.29669952 -4.11705112
0.24718487 6.50659084 -4.10283804
0.27351707 7.85841560 -3.71836185
1.28370512 8.05625916 -3.64580870
1.97056830 5.87837410 -3.78477645
-1.56258559 7.62360287 -3.58706236
0.06936166 4.98008537 -3.79318857
-1.59833682 7.67612314 -3.59825659
-1.56258559 7.62360287 -3.58706236
-1.88382101 6.51699162 -3.61133337
-1.96386874 6.52178717 -3.72443867
1.98868859 5.71024942 -3.81731343
1.94874787 5.00305033 -3.20936418
0.30077466 7.88188696 -3.84318066
0.40796539 7.82836676 -3.85427547
-1.45544112 7.64717197 -3.60802221
0.14158714 5.04987001 -3.99286270
-0.00304700 5.13406992 -4.02620220
-1.42042553 7.54307938 -3.64914966
2.01413703 5.67191315 -3.87676620
2.00682664 5.49295712 -3.86923528
0.36470774 6.24647617 -4.10351992
2.06480932 4.92964506 -3.09693241
-1.97977841 7.83140469 -3.87702990
-2.06659770 7.83589602 -3.93826294
-2.01899505 7.83631372 -3.98663902
-1.89066291 7.83347368 -3.93270659
-1.89066291 7.83347368 -3.93270659
-1.97977841 7.83140469 -3.87702990
2.04216456 5.00917959 -3.14746428
-1.95091712 7.70086193 -3.83053875
-1.39162374 5.11683512 -3.55969834
2.03090334 5.91323423 -3.90965319
0.17693001 7.98560286 -3.82917333
0.26233003 4.97856522 -3.76942086
-1.87132514 7.71946287 -3.90169048
-1.83790445 7.74504423 -3.91393447
-1.50036585 7.79603481 -3.55209541
1.97544789 6.03215933 -3.79813504
0.26279023 6.32276201 -3.97800422
0.15565440 7.93780327 -3.69411540
0.43342465 7.94172335 -3.67692542
0.56993479 7.46771860 -3.92478585
-1.79174352 7.76424837 -3.89255118
0.33924359 4.91233873 -3.73279929
-2.05323195 7.78600550 -4.00397873
0.40478155 6.34787750 -4.10154772
-1.95125830 7.85767460 -4.08955956
-0.68730992 8.07363605 -3.87989831
1.42771471 8.00479507 -3.53498936
0.40618196 6.26203537 -3.96552324
0.29001701 6.46658659 -3.95893669
-1.84295523 7.85407352 -3.96122265
2.05812073 6.11750841 -3.97740293
1.42264521 8.03486824 -3.56335855
-0.51837564 8.06040287 -3.88837862
0.53480589 6.24136114 -4.08565187
-1.77769923 7.96809626 -3.88840747
1.49246538 6.25209618 -3.67146301
-1.31906796 5.14359856 -3.59745765
-1.93145347 6.74821711 -3.40457916
1.53804886 8.02786255 -3.53268218
0.75338322 7.38109016 -3.77204418
-1.37596107 7.68788242 -3.64076042
-1.69639695 7.87912703 -3.75266457
0.34078583 5.10800314 -4.01051426
-1.07148504 5.02213430 -3.63734317
-1.63066912 7.93873072 -3.63742399
-1.59148037 5.21797132 -3.49365211
0.41184595 4.97350550 -3.91428399
0.10405125 6.54195595 -4.10675669
-1.71431279 6.61309719 -3.80645537
-1.84036040 7.92095089 -3.97907281
1.46765482 6.44217777 -3.67319989
1.64844203 6.11143684 -3.59830022
-1.34232843 5.28220558 -3.62937546
1.64553702 6.35890293 -3.59715939
1.64553702 6.35890293 -3.59715939
1.68354535 6.26727486 -3.57298207
0.11498532 5.12697506 -3.83075786
-1.99091232 8.08344078 -3.71583867
-1.85424912 6.93041992 -3.99331713
0.48591462 7.15109396 -3.98158050
-1.13204324 5.18735838 -3.67129540
-1.88626742 8.07204723 -3.61152387
-1.41813016 5.33979750 -3.61157942
0.34869444 7.98801947 -3.82136559
1.85296416 5.20091200 -3.49813533
-1.53075361 5.43243647 -3.57141995
1.85590231 5.19292116 -3.55451012
-1.76688957 6.87127638 -3.88145852
-1.85424912 6.93041992 -3.99331713
0.66727859 7.27280951 -3.95114613
-1.66262662 6.68025208 -3.75199008
0.33114415 5.07148600 -3.80192304
1.44621766 6.33914948 -3.84628177
1.51382923 6.33111048 -3.80659914
-1.82010555 8.09772682 -3.58258510
0.62075549 7.77527952 -3.69984317
-1.57456088 6.76888847 -3.73666215
-1.66262662 6.68025208 -3.75199008
0.63803399 7.10958815 -3.83449888
0.17788988 5.22986174 -3.87606668
-1.26618087 5.43812466 -3.69021749
-1.96661603 8.16816044 -3.77702045
-1.82010555 8.09772682 -3.58258510
-1.71542227 8.10416508 -3.61033177
1.66818333 6.29204655 -3.74965262
1.66818333 6.29204655 -3.74965262
0.38614750 5.19292307 -3.82913685
0.35589892 5.26737118 -3.87171912
0.64308882 7.59939241 -3.88820672
0.74143648 7.78549623 -3.80964708
1.70778060 6.35580301 -3.76500654
0.28520989 5.14907265 -4.03198767
-0.33578363 8.03141975 -3.85102010
-1.84020388 8.09065151 -3.97870803
-1.86402929 7.12964535 -3.95184422
-1.85424912 6.93041992 -3.99331713
1.94114709 5.15466356 -3.29108953
1.90337133 5.33217573 -3.37372398
0.71633905 7.08262110 -3.94704700
-1.22724843 5.20479012 -3.81661916
0.53770572 5.08626127 -3.93972182
0.69442981 7.92808771 -3.77697134
-1.16103721 4.94555998 -3.55924749
1.15270805 6.48819542 -3.78935957
0.73451620 7.65507555 -3.71007419
0.82186264 7.49717903 -3.73114586
1.93342745 5.27206516 -3.43081212
0.64028603 7.27960157 -3.81406546
2.05761576 5.11844015 -3.20354342
-1.78841734 8.13023758 -3.86698985
0.46530744 5.26843023 -4.03833294
-1.64626443 8.06529617 -3.64895868
1.49838352 6.56248045 -3.65175128
-1.74959052 5.77445936 -3.85767603
-1.80241728 6.07281208 -3.93710685
-1.71871400 5.93176603 -3.80470729
0.82141393 7.84507132 -3.63605523
-1.64626443 8.06529617 -3.64895868
-1.78841734 8.13023758 -3.86698985
-1.71468043 8.10520649 -3.71111155
-1.56121647 6.93269253 -3.71801162
-1.67277730 5.66374445 -3.75461102
-1.66375148 5.89385700 -3.75169134
-1.61679280 6.15850735 -3.74751043
-1.62309325 5.71426153 -3.73673844
-1.29209375 6.98520756 -3.64001751
2.12961149 5.05359697 -3.11977625
-0.46428117 5.48527098 -3.90389585
-1.67444277 6.16316652 -3.76606989
-1.45610058 6.99719906 -3.74245620
0.82182389 7.21281099 -3.92867994
-1.59086204 6.08406830 -3.75387454
-1.62309325 5.71426153 -3.73673844
-1.61679280 6.15850735 -3.74751043
2.00765061 5.15311623 -3.34331799
2.19144630 5.07928944 -3.16128659
0.58332372 8.02208424 -3.62707543
-1.81347394 5.72928381 -3.94265771
0.57341582 4.96130514 -3.71859503
-1.26683128 6.88601112 -3.66927600
1.72413516 6.51993799 -3.53921008
-1.44180441 7.70850515 -3.39626193
-0.35637540 5.37942648 -3.90018058
-1.53857744 5.82127333 -3.76600122
-0.38377482 5.48097467 -3.90955997
-1.53170633 6.00008726 -3.77800393
2.03907895 5.26006317 -3.27295423
-1.32915795 8.06442165 -3.32427406
-1.20228457 6.93212223 -3.85450172
-0.26341870 5.46001911 -4.09492445
-0.41251966 5.53935099 -4.08394861
-1.28487289 5.32941818 -3.83375549
-1.57199740 7.89675474 -3.55834007
-1.52426910 7.86853838 -3.53566360
-0.17569374 5.42309713 -3.92723012
-1.72523558 6.27130842 -3.82384944
0.82741845 7.44448805 -3.93075490
-1.52426910 7.86853838 -3.53566360
0.71408409 5.12998724 -3.76200819
0.76009500 4.98261738 -3.66488171
-1.68294954 6.36130476 -3.77519488
1.53804886 8.02786255 -3.53268218
0.73427582 7.58458042 -3.89539933
1.59923840 8.06035709 -3.58686471
1.78981960 6.48901224 -3.90537977
1.89627182 6.28765869 -3.46353197
-1.15317094 5.33685732 -3.70358539
1.84816706 6.45386171 -3.48548174
1.68354535 6.26727486 -3.57298207
1.89627182 6.28765869 -3.46353197
0.59371364 5.21807289 -3.81934071
-1.61961818 6.33046961 -3.75947857
1.90465641 6.32238817 -3.58472800
1.92637038 6.32462978 -3.53529596
1.71808624 4.94225502 -3.76766753
0.87071770 7.30295801 -3.75601077
-1.40490377 7.91693211 -3.54676437
-1.27173185 7.85190248 -3.43860865
-0.45655259 5.73145199 -3.94299674
-1.48177981 6.08306837 -3.63974404
1.84849060 8.02226734 -3.33069706
-1.19703698 7.07704306 -3.82011628
0.78446507 7.61948872 -3.87550259
0.87038970 7.55731010 -3.88050604
-1.49712682 5.82276154 -3.63031411
1.90923512 8.05808258 -3.26077676
1.92734396 6.37953329 -3.70795584
1.90809810 6.33109426 -3.64912558
-1.52189863 7.95207167 -3.52915502
-0.33706298 5.61986589 -3.94512367
-1.57722676 8.00658989 -3.58053970
-1.52728605 8.01191807 -3.55257773
1.91116464 8.06803513 -3.54329848
2.08088541 6.17799473 -3.35748720
-1.35338128 5.97524261 -3.69895744
0.87071770 7.30295801 -3.75601077
0.82870930 7.12180471 -3.79873276
1.05310345 7.07529736 -3.74581099
1.11099482 7.22779179 -3.69541550
1.02936947 7.31763172 -3.70631194
-1.15590262 7.08449173 -3.68022490
0.92140263 7.20139217 -3.90768671
1.77501619 4.79168797 -3.88357091
-1.40615821 5.77707052 -3.66973591
-1.22088385 5.87137651 -3.75199676
-0.00792052 7.88811588 -3.70966029
2.06456161 6.29513788 -3.36228418
1.04543126 7.13452435 -3.86168718
2.11754560 6.28222084 -3.38905787
0.84979260 5.12830639 -3.73130012
0.91544515 5.22359943 -3.75101089
-1.47075987 7.96172190 -3.52882624
-1.52189863 7.95207167 -3.52915502
-1.52728605 8.01191807 -3.55257773
2.00045609 6.42977476 -3.39468956
0.92010373 7.39149809 -3.90148711
-1.35986924 5.99476290 -3.86289382
1.08117032 7.34100294 -3.85121489
1.80038548 4.90133333 -3.91882157
0.94012326 4.93784285 -3.60335541
1.98325241 6.38318014 -3.49501133
0.86774194 5.00901270 -3.65943503
-1.30246127 6.08244276 -3.72710633
1.84664392 4.73309708 -3.97918868
2.07953000 6.40192223 -3.40139651
-0.02082769 5.30382824 -3.89668345
-0.02082769 5.30382824 -3.89668345
1.84816706 6.45386171 -3.48548174
-1.58091426 5.62858677 -3.57726312
1.17355680 6.99478865 -3.71502399
1.32033980 7.16864443 -3.62721753
-1.18968296 7.19586515 -3.81445146
1.86770177 4.77022886 -3.95579982
-0.42202413 6.78007555 -4.05083323
-0.04684101 5.47647667 -3.93734336
-1.44278061 8.03140259 -3.56666279
-1.31314528 8.01145172 -3.60322833
0.54542071 5.34342098 -3.86739039
0.33750579 5.36528444 -3.90067315
1.95235240 4.79110003 -3.91499352
0.65536088 5.33254814 -3.84278965
1.96780765 4.86583900 -3.78921318
0.47290245 5.46702290 -3.89642119
-0.35775900 6.69351625 -3.94152832
1.98920953 4.78593063 -3.87318301
-1.70795178 5.60273790 -3.78836703
2.12137198 6.68440962 -3.28070426
-0.14705229 5.51515579 -4.11929846
0.12015779 5.47918653 -4.10518026
0.08443214 5.36770821 -4.08922720
1.84482992 4.90834856 -3.94108152
1.95035005 4.94452429 -3.89307475
0.81679958 5.35427523 -3.81421590
1.87713671 4.99722004 -3.94257283
1.22132254 7.24907351 -3.78709054
1.95235240 4.79110003 -3.91499352
1.95035005 4.94452429 -3.89307475
0.34644431 5.52178860 -3.91587543
1.98254907 4.97285843 -3.85072255
0.33403140 5.61060238 -3.94109035
-0.30257136 6.90575743 -4.04382086
-1.13853395 6.09019566 -3.78122330
-1.10247362 6.01273632 -3.78357530
0.52062601 5.61605597 -3.92065358
0.69433939 5.55819178 -3.88596225
2.15950727 6.46332741 -3.35136890
-2.01956892 5.82115889 -3.80469203
0.82186264 7.49717903 -3.73114586
-1.19031894 5.95117188 -3.93385768
1.67434430 5.32832384 -3.72647548
1.62302959 5.19675398 -3.68054175
1.70775008 5.14781857 -3.74649620
1.75689745 5.15619183 -3.84943748
-1.96661603 8.16816044 -3.77702045
-1.14129293 6.06170368 -3.93742108
1.82323492 6.20174122 -3.99709415
1.84533775 6.18137598 -4.06818533
1.87942922 7.57032537 -3.90193510
1.91344965 7.49650955 -3.89246368
1.82845092 7.64841986 -3.89919090
1.79893422 7.71411228 -3.87593412
0.15901600 5.43093777 -3.93074417
0.34975767 8.02619267 -3.84713936
1.78834939 6.25878239 -3.91519356
1.78084111 5.09751081 -3.88951302
-1.04149520 5.86621380 -3.80934572
-1.81192136 8.15074921 -3.75381422
1.87942922 7.57032537 -3.90193510
-0.21969636 6.98996592 -4.02916670
0.87419969 4.94129992 -3.75554585
1.01283741 4.83195448 -3.65409136
0.15901600 5.43093777 -3.93074417
1.93429291 6.22502184 -4.27831793
1.92756057 6.21174765 -4.16616869
1.89461672 6.24080515 -4.16543531
0.65386838 5.12272215 -3.91475344
-1.81347394 5.72928381 -3.94265771
1.89449549 6.14269447 -4.10582352
-1.33553004 7.31055927 -3.74912548
1.89449549 6.14269447 -4.10582352
1.97716105 6.12567282 -4.09666538
1.83506358 5.15258598 -3.95738983
1.83013856 7.71203566 -3.89348125
1.88843179 7.66071844 -3.89685893
1.88624477 7.75557232 -3.89545393
1.82674885 7.74028158 -3.89710832
2.09579992 6.20361471 -4.06418705
-1.85674000 5.82162952 -3.97281718
0.60233927 5.18663025 -3.96275902
1.92756057 6.21174765 -4.16616869
1.98066795 6.17414141 -4.14645100
1.94344020 6.20239305 -4.26349020
2.00610352 6.17019272 -4.22454834
0.42392245 8.05836868 -3.64653039
-1.16873932 7.30137157 -3.63451099
-0.95239013 5.87949848 -3.99646258
-1.08110571 5.96539116 -3.97251153
2.03729653 6.17339563 -4.11462688
1.88323021 7.85199404 -4.08194780
1.88534784 7.81358099 -4.02523994
1.85226429 7.80061245 -3.91818166
1.78488529 7.82154226 -3.84491205
-0.19608754 6.85116720 -3.92860484
0.43489346 5.33773422 -4.06358385
0.03427588 6.83854151 -3.93239594
1.97015893 7.58643961 -3.68161249
1.30643022 7.38294268 -3.74870348
0.02106036 6.68722820 -3.95414257
0.28825703 5.42338085 -4.09420252
2.00114632 5.22314215 -3.85848141
1.97535443 5.04428911 -3.79619551
0.85823047 5.19387770 -3.87679577
1.93088329 5.21217299 -3.94447017
1.87713671 4.99722004 -3.94257283
1.87394643 5.28769541 -3.97540998
1.93088329 5.21217299 -3.94447017
1.99917316 5.26538181 -3.89683795
-1.36985695 5.41039562 -3.63035393
0.60668606 8.00552845 -3.79336929
1.10144019 4.98774672 -3.71630383
1.98776460 7.69385910 -3.71476936
-1.28416967 7.45283890 -3.73404598
0.61325556 8.03525257 -3.81534386
1.96527064 6.24224901 -3.77078557
1.97535622 7.55773592 -3.86745691
-1.41145909 5.59466934 -3.65439677
2.01510215 7.65915823 -3.80435014
1.37362874 7.02059889 -3.63619232
2.04184556 6.18689108 -3.91584373
-0.02447672 6.91795254 -4.05652857
1.37362874 7.02059889 -3.63619232
-1.34228337 7.52599335 -3.70361066
0.16827878 6.73518896 -3.94893527
2.12519860 6.27679539 -4.07870150
