-0.20767584 4.78255272 4.44882774
-0.11918058 4.79369116 4.42134762
-0.10042378 4.77227259 4.46216679
-0.13348083 4.81283951 4.38152361
-0.03876001 4.81827497 4.35907841
-0.02858663 4.79947996 4.39879704
-0.13640299 4.83099604 4.34132767
-0.04518584 4.83543205 4.32133102
-0.13937177 4.84915257 4.30113316
-0.05283273 4.85224915 4.28452349
-0.14480597 4.86651325 4.26274967
-0.05671855 4.86890888 4.24571323
-0.22524087 4.86824083 4.26613092
-0.13552107 4.87877083 4.21970272
-0.20676251 4.88645363 4.22097206
-0.28505379 4.89320707 4.21681452
-0.30353397 4.87153530 4.26496172
-0.36333892 4.89901590 4.21349716
-0.37568104 4.87434483 4.26151752
-0.26653492 4.90876913 4.17406034
-0.34480548 4.91694689 4.16407490
-0.42282018 4.92620325 4.14870167
-0.32600701 4.92789698 4.11422968
-0.40446123 4.93822002 4.09880781
-0.48984501 4.94580317 4.08139992
-0.49829140 4.93274069 4.13302279
-0.58383876 4.95704412 4.06499481
-0.59112048 4.94139004 4.11766672
-0.68698925 4.95349216 4.05363178
-0.68474835 4.94478703 4.10724211
-0.68950242 4.91833401 4.15372419
-0.69086176 4.87221956 4.16728640
-0.77830219 4.94157934 4.10103226
-0.77546906 4.91860199 4.14506054
-0.77336836 4.87414122 4.16433287
-0.69086176 4.87221956 4.16728640
-0.77569675 4.82743645 4.14663363
-0.69209230 4.82298851 4.15358257
-0.77336836 4.87414122 4.16433287
-0.85250258 4.87325144 4.16839123
-0.85381532 4.91661549 4.15192413
-0.85250258 4.87325144 4.16839123
-0.85356420 4.82676458 4.15237236
-0.77820992 4.78401136 4.12318993
-0.85631931 4.78629684 4.12728882
-0.69271183 4.75499964 4.08801413
-0.69353652 4.77778673 4.12805319
-0.78105736 4.75365925 4.08858538
-0.85994911 4.76039648 4.09266376
-0.86445153 4.76660967 4.05125761
-0.78213781 4.76537943 4.04261780
-0.93905455 4.76281929 4.05965376
-0.94106811 4.78396606 4.01950121
-0.87055409 4.79061985 4.01230526
-1.01371014 4.75572014 4.06519604
-1.01148570 4.77893591 4.02687073
-1.00955677 4.81978178 4.00503683
-0.94283891 4.82620621 4.00119114
-1.08535266 4.75378084 4.06984472
-1.07712090 4.78054047 4.02866268
-1.07276905 4.81598568 4.00373507
-1.07332587 4.86087227 4.00457001
-1.00954700 4.86576366 4.00685692
-1.00955677 4.81978178 4.00503683
-1.07276905 4.81598568 4.00373507
-1.13202202 4.81363583 3.99364948
-1.13886237 4.77896309 4.02286053
-1.13190174 4.85858440 3.98972559
-1.13202202 4.81363583 3.99364948
-1.13190174 4.85858440 3.98972559
-1.19459581 4.77576828 4.00447273
-1.25059164 4.77869511 3.97897863
-1.30023086 4.78194666 3.95127106
-1.32444930 4.76707697 3.99961138
-1.35162234 4.78798771 3.92423320
-1.37638128 4.77274227 3.97181535
-1.32260263 4.80442810 3.87593365
-1.29235888 4.81998396 3.82723546
-1.25511587 4.83624029 3.78085876
-1.30177414 4.84858370 3.75063324
-1.20989025 4.85134077 3.73291302
-1.34162307 4.87800598 3.73558784
-1.35422993 4.93451834 3.74310875
-1.33469772 4.99215412 3.77000046
-1.35422993 4.93451834 3.74310875
-1.14385760 4.86460924 3.68931746
-1.11406946 4.86459303 3.73697710
-1.17241657 4.85775709 3.77297616
-1.08292556 4.88129616 3.78593230
-1.14649093 4.88092327 3.81268692
-1.14680541 4.93283606 3.83220768
-1.07897794 4.93048191 3.81876373
-1.15987289 4.99094963 3.83983803
-1.09194279 4.99028349 3.82195449
-1.15987289 4.99094963 3.83983803
-1.14680541 4.93283606 3.83220768
-1.09194279 4.99028349 3.82195449
-1.04030371 5.03024340 3.73992634
-0.98308939 4.99390650 3.79079604
-1.07897794 4.93048191 3.81876373
-0.97866839 4.91989613 3.80434513
-0.83978832 4.94523907 3.70926714
-0.98308939 4.99390650 3.79079604
-0.97866839 4.91989613 3.80434513
-0.99889600 4.88088608 3.75327802
-0.83177161 4.92755222 3.72217464
-0.59015542 4.94511604 3.70168543
-0.56180835 4.90464401 3.68622947
-0.84146208 4.90353298 3.64625454
-1.02781892 4.87649345 3.69390869
-0.58496493 4.89513493 3.64021873
-0.61161298 4.89669657 3.58820987
-0.86816198 4.89349222 3.60340714
-0.33063579 4.89604235 3.60212684
-0.07825389 4.88022900 3.62512898
-0.34587586 4.90456772 3.54661369
-0.64300585 4.90676308 3.53839254
-0.07430652 4.89249802 3.56812644
0.19260697 4.87366486 3.58585095
0.20721434 4.88679790 3.52828574
-0.06831437 4.90497017 3.51430297
-0.36586255 4.91724253 3.49375844
0.21840766 4.90089655 3.47248292
0.49649286 4.87914133 3.48507452
0.51175201 4.89325428 3.42497063
-0.06384848 4.91895914 3.45800400
0.22389935 4.91528177 3.41677475
0.52687597 4.90601397 3.37085748
0.81557143 4.88919783 3.27556992
0.80574435 4.87960768 3.35175681
0.22959957 4.93094301 3.35025358
0.53585291 4.92796421 3.28034282
0.82462984 4.90715647 3.18443108
1.08421540 4.90836430 3.07384515
1.08569610 4.88815594 3.16699243
0.55835330 4.94996309 3.12700009
0.84482533 4.94422436 3.01958466
1.08679235 4.93642950 2.90779471
1.27989042 4.93258238 2.80871749
1.30609977 4.90510750 2.96062565
1.12191379 4.96731424 2.64789891
1.25599957 4.96417952 2.58705068
1.44361258 4.93049860 2.72214890
1.37361872 4.96344757 2.52503371
1.61035848 4.92552900 2.63455200
1.50942934 4.96386385 2.45406389
1.81457329 4.92205477 2.52352905
1.62672365 4.95845985 2.39008522
1.87264097 4.95505810 2.24415445
2.15520716 4.94007111 2.03331876
1.92062378 4.88557434 2.61317611
1.69978583 4.89232397 2.74748492
1.50419831 4.90431118 2.85754442
1.74455297 4.86997890 2.83085537
1.54088736 4.87957907 2.94278550
1.32531226 4.88413906 3.05091095
1.57502675 4.85938454 3.01939678
1.34787691 4.86174965 3.12974691
1.08841038 4.86985683 3.24715829
1.39031017 4.83940601 3.19809198
1.09728384 4.85450554 3.31804800
0.79596150 4.86540270 3.42039132
0.91434073 4.97666979 2.74245501
-2.75170922 5.02589273 2.10427403
-3.12240362 4.99632597 1.90373445
-3.03399420 5.02531147 1.78394294
-2.87375283 4.98976231 2.23091817
-3.31785893 4.99993563 1.54951394
-3.19376755 5.02883339 1.46731567
-3.39779902 4.97918701 1.60248172
-3.16240549 4.97744942 2.00099182
-2.92623687 4.96512651 2.33854437
-2.65328074 4.97384787 2.51039433
-2.70935178 4.94796705 2.61099005
-2.51646614 5.01824379 2.34833145
-2.29201937 5.01596212 2.54446030
-2.43749475 4.96855545 2.71610069
-2.10840225 4.97473955 2.90555906
-1.95718515 5.01490641 2.74485683
-1.21560597 5.02147245 3.01127124
-0.81064463 5.01718283 3.07401705
-1.73704624 4.97946167 3.05564070
-1.58236480 5.01617765 2.90726352
-1.85662413 4.94801283 3.15332437
-2.20981431 4.93936729 3.01342559
-2.48854756 4.93854427 2.83186197
-0.39604747 4.97150040 3.27253747
-0.36321285 5.00462627 3.09557319
-0.05683638 4.93343449 3.39854932
-0.45570737 4.94775152 3.37595534
-0.05195715 4.95927286 3.28414488
-0.03236550 4.99291229 3.07191539
0.25337783 4.96102619 3.21451330
0.29299012 4.99359226 2.97218776
0.61745638 4.98271942 2.86004376
-0.40334630 4.93147945 3.43865824
-0.69171739 4.91844988 3.48815846
-0.97567683 4.90979576 3.50852156
-0.90978688 4.90200138 3.55816340
-1.04227161 4.88018751 3.64435387
-0.59024245 4.97878504 3.71030712
-0.33081418 4.97705221 3.73626518
-0.84243572 4.98659515 3.70487952
-0.56918943 5.01043892 3.71632242
-0.25289491 4.99919224 3.74903035
-0.56918943 5.01043892 3.71632242
-0.86582655 5.01317883 3.69541216
-0.84243572 4.98659515 3.70487952
-0.59024245 4.97878504 3.71030712
-0.17946517 4.98756504 3.82114077
-0.33081418 4.97705221 3.73626518
-0.20342113 4.94911289 3.82094336
-0.33209416 4.94703245 3.73245454
-0.08594225 5.00582647 3.89847445
-0.01212986 5.00958729 3.88183260
-0.14158039 4.97447395 3.92199326
-0.06271991 4.96654463 3.96767378
-0.01384303 4.98698997 3.95207214
-0.16586581 4.90552378 3.90481138
-0.20384285 4.89859247 3.81245542
0.03777855 4.97130251 4.00436878
0.04452966 4.99287939 3.93511200
0.08997255 4.97448158 3.98638964
-0.00704006 4.95738316 4.01905966
0.03221158 4.94141722 4.07246208
0.07731795 4.94983816 4.05706215
0.10447834 4.92964077 4.10962391
0.12336217 4.95456600 4.04079628
0.15345427 4.93044853 4.08990288
0.05500766 4.91955376 4.12458611
0.07576300 4.89770555 4.17134857
0.13256222 4.90461826 4.15453434
0.00535342 4.91124630 4.14218092
0.01308814 4.89046907 4.18701029
0.02710290 4.87067842 4.23140812
0.09024465 4.87609386 4.21373701
-0.05840567 4.88173246 4.20178509
-0.05883696 4.89859247 4.15503883
-0.12565732 4.89340162 4.17084026
-0.18222995 4.90808201 4.13050938
-0.19476230 4.90049982 4.17529392
-0.25237256 4.91633892 4.12743044
-0.17086191 4.87144279 4.10539436
-0.24335237 4.89041710 4.09192896
-0.31572285 4.90596247 4.07150555
-0.31178433 4.85671711 4.06039858
-0.24260095 4.84400415 4.08440161
-0.38908011 4.86828470 4.03672838
-0.39323124 4.91797638 4.05263376
-0.47689268 4.87814045 4.01160765
-0.47869572 4.92360067 4.03690767
-0.57782054 4.88567400 3.99018598
-0.58039355 4.93289089 4.01464748
-0.68387467 4.93114567 4.01027632
-0.68740034 4.88612843 3.98794079
-0.78068554 4.92543030 4.01377773
-0.77996707 4.88247013 3.99129963
-0.77530456 4.94937801 4.05544901
-0.86342728 4.92055178 4.01682663
-0.86368990 4.94482422 4.05729246
-0.85755718 4.93853283 4.10487318
-0.93760282 4.94294786 4.05679083
-0.93446618 4.93541622 4.10925102
-1.00985086 4.94146061 4.05573940
-1.00677204 4.93349743 4.10961723
-0.94178969 4.91564274 4.01965189
-1.01030362 4.91023111 4.02206993
-0.94296968 4.87179375 4.00292206
-0.86761200 4.87786102 3.99564147
-0.86966127 4.83071423 3.98874617
-0.94283891 4.82620621 4.00119114
-0.78216034 4.83505869 3.98654032
-0.86966127 4.83071423 3.98874617
-0.78216034 4.83505869 3.98654032
-0.78194135 4.79337120 4.00759649
-0.68726176 4.83650064 3.98507667
-0.68839133 4.79296494 4.00330400
-0.69073236 4.76567364 4.04218912
-0.58864278 4.76189470 4.05268049
-0.58358681 4.78878117 4.00883675
-0.60112292 4.74616432 4.09941721
-0.51399463 4.73951960 4.12266874
-0.49899700 4.75669909 4.07462645
-0.60734141 4.76986074 4.14285994
-0.52726048 4.75898743 4.16677999
-0.43687755 4.72730303 4.14986849
-0.41571587 4.75029516 4.10593176
-0.36431137 4.71559000 4.17882061
-0.34098256 4.73565912 4.13131285
-0.26512551 4.72780514 4.15156412
-0.25158876 4.75559139 4.11246300
-0.18525298 4.72727013 4.16063023
-0.32380819 4.76316738 4.08935356
-0.31561863 4.80713177 4.06716633
-0.24372128 4.79708052 4.09096718
-0.39829066 4.77421093 4.06403875
-0.39078712 4.81774950 4.04035378
-0.31178433 4.85671711 4.06039858
-0.38908011 4.86828470 4.03672838
-0.47523811 4.82502651 4.00768566
-0.48296979 4.78163052 4.03176546
-0.39078712 4.81774950 4.04035378
-0.47523811 4.82502651 4.00768566
-0.57860440 4.83182478 3.98325300
-0.57860440 4.83182478 3.98325300
-0.68726176 4.83650064 3.98507667
-0.24260095 4.84400415 4.08440161
-0.10698977 4.73614693 4.15112782
-0.02507389 4.70828152 4.17550850
0.04059436 4.70932293 4.15582609
0.05711889 4.69007826 4.19551563
-0.01112426 4.68797398 4.21518183
0.07635693 4.67198896 4.23517370
-0.00081249 4.66755724 4.25507164
0.09471221 4.65406227 4.27458334
0.01825657 4.64999628 4.29386997
-0.06338159 4.64362240 4.31734276
0.03753871 4.63310957 4.33305693
-0.03896376 4.62483883 4.35825825
-0.12181200 4.61271763 4.39276695
-0.15038441 4.63003731 4.35416842
-0.19339126 4.59005260 4.44513988
-0.22940932 4.60699606 4.41145420
-0.26468062 4.56511402 4.50450277
-0.30095714 4.58021259 4.47602367
-0.34034073 4.59705257 4.44721413
-0.38696122 4.61769676 4.41735315
-0.35823485 4.54509878 4.54606295
-0.40172604 4.56458139 4.51634455
-0.44527411 4.58321619 4.48820829
-0.49438354 4.53542709 4.57177114
-0.44847316 4.51708889 4.59960651
-0.53246135 4.49155378 4.64638042
-0.58126158 4.51200581 4.61116123
-0.63064194 4.53124619 4.57873726
-0.61581373 4.47472620 4.67698145
-0.56734502 4.45052862 4.71730375
-0.66473186 4.49436522 4.64167643
-0.71474695 4.51769686 4.59961081
-0.68686610 4.54717445 4.54892063
-0.69704306 4.46874189 4.68881035
-0.64919734 4.44330692 4.73498821
-0.74541360 4.49137402 4.64671183
-0.79641688 4.51332331 4.60586929
-0.77025771 4.53761530 4.56324816
-0.77653176 4.47367954 4.68321419
-0.72865593 4.45031786 4.72719908
-0.82513171 4.49664450 4.63868093
-0.87897068 4.51812887 4.59705544
-0.85640144 4.47912693 4.67372322
-0.90515357 4.50229073 4.62766075
-0.93253720 4.53849030 4.55761290
-0.95364624 4.52369213 4.58503771
-0.89171731 4.46472073 4.70154762
-0.94009262 4.48758841 4.65620232
-0.98492879 4.51776314 4.60880947
-1.02902031 4.53881502 4.56318235
-1.06289077 4.54699326 4.58837175
-0.99524492 4.54514313 4.54075432
-0.97413594 4.55994081 4.51332998
-1.03881931 4.56796026 4.49566889
-1.07499325 4.56449223 4.51905060
-1.07583165 4.59325790 4.44501591
-1.11882639 4.58619022 4.46574450
-1.10882390 4.61939287 4.39534283
-1.15251446 4.61677790 4.41266394
-1.17208326 4.64461756 4.34950924
-1.12774837 4.64452982 4.33739138
-1.08576810 4.65206432 4.32784367
-1.05399847 4.67614794 4.33045101
-1.13958919 4.66912317 4.27567339
-1.09088337 4.67520189 4.27198696
-1.05603933 4.69642639 4.27402973
-1.03907037 4.71187592 4.33793163
-1.03873086 4.73492908 4.28819466
-1.01647902 4.69021988 4.38252068
-1.03907037 4.71187592 4.33793163
-1.01789010 4.73033667 4.39514732
-1.03872609 4.75063562 4.35266018
-1.03873086 4.73492908 4.28819466
-1.04000688 4.77769279 4.30523109
-1.05325496 4.78363323 4.36945677
-1.05629110 4.81349993 4.32235003
-1.04000688 4.77769279 4.30523109
-1.08701897 4.79720688 4.39006758
-1.03243625 4.76500607 4.41235018
-1.06447065 4.77874994 4.43452168
-1.09600568 4.82472706 4.33352232
-1.14072585 4.81945658 4.34486485
-1.12782836 4.79282236 4.40310907
-1.10175657 4.85304022 4.27840424
-1.14776039 4.84704733 4.28885794
-1.19197059 4.83560467 4.29585457
-1.18473935 4.80836916 4.35308552
-1.10986710 4.87972164 4.22143888
-1.15802073 4.87226009 4.23018265
-1.20453668 4.86316919 4.23825026
-1.22221386 4.80823374 4.29068089
-1.23136258 4.83315468 4.23725986
-1.17052376 4.89820528 4.16943550
-1.21796107 4.88992357 4.18070507
-1.24567544 4.91227102 4.13073158
-1.27306354 4.93443346 4.08098793
-1.30980575 4.95058870 4.03618526
-1.35534418 4.92634821 4.06831121
-1.39263725 4.89985991 4.11322260
-1.35107672 4.96364784 3.98826623
-1.39381278 4.94017363 4.03591871
-1.43232119 4.91428518 4.08756018
-1.47455060 4.92114115 4.05566168
-1.43738306 4.94643784 4.00187922
-1.51137626 4.90232325 4.10775280
-1.46860671 4.88806105 4.14161777
-1.42683744 4.87188482 4.16212654
-1.45468056 4.84493446 4.21674204
-1.41383457 4.82713079 4.23263216
-1.38949978 4.78304720 4.22817612
-1.43039799 4.80086946 4.28865099
-1.48050809 4.82154465 4.28128481
-1.39711142 4.75824213 4.28167391
-1.39711142 4.75824213 4.28167391
-1.40280354 4.70655155 4.25919056
-1.38744712 4.73334837 4.21089888
-1.38949978 4.78304720 4.22817612
-1.40717697 4.73192120 4.33316135
-1.44010186 4.77462101 4.34435511
-1.40717697 4.73192120 4.33316135
-1.41023743 4.67942476 4.31216717
-1.45120633 4.64465523 4.29313183
-1.43882918 4.66997862 4.23840714
-1.41818166 4.65255260 4.36507845
-1.41381276 4.70568037 4.38712311
-1.46174502 4.61958742 4.34862614
-1.51559889 4.59941292 4.34375286
-1.50747943 4.63095140 4.28098202
-1.46628594 4.58894444 4.40693283
-1.42516029 4.62508917 4.41979170
-1.52175105 4.57084131 4.40305710
-1.58089066 4.55860472 4.40221357
-1.57327795 4.58982134 4.33986616
-1.52098846 4.53992510 4.46342802
-1.46552110 4.55828428 4.46753407
-1.57358432 4.52248430 4.46944571
-1.62893188 4.50703716 4.47862768
-1.63995230 4.54656887 4.40762711
-1.56429100 4.48479748 4.53882599
-1.51213014 4.50359392 4.53055525
-1.61924624 4.46902466 4.54784393
-1.68707633 4.49372911 4.48839951
-1.67585766 4.45520830 4.55804682
-1.59256113 4.43009853 4.61529589
-1.54242432 4.45101833 4.59791851
-1.64593828 4.41438675 4.62717390
-1.70204401 4.39584637 4.64558506
-1.73055661 4.44026279 4.56972361
-1.61527860 4.37614107 4.69305611
-1.56417525 4.39767933 4.67473936
-1.67362607 4.35208941 4.71578741
-1.73190796 4.32926273 4.73788452
-1.75991368 4.37274790 4.67243338
-1.57444239 4.35200691 4.73805809
-1.63590443 4.32419538 4.76311255
-1.69975483 4.29547739 4.79090548
-1.59244502 4.30196571 4.80555296
-1.66210341 4.26796007 4.83542395
-1.55075645 4.28221560 4.84393549
-1.62157428 4.24387455 4.87711287
-1.69203091 4.19784021 4.91835690
-1.75464368 4.13966417 4.97307730
-1.64432395 4.17538309 4.95876837
-1.57860196 4.22995472 4.91025543
-1.69098592 4.11859894 5.01341057
-1.62411451 4.11008978 5.04545212
-1.58908165 4.16525698 4.98939037
-1.53245735 4.16471434 5.02543592
-1.55843675 4.11149454 5.07994509
-1.56342006 4.06170368 5.13837576
-1.54976845 4.01845074 5.20065928
-1.52063143 4.14477205 5.12987471
-1.52351320 4.09384775 5.19286060
-1.51779306 4.04804373 5.24987459
-1.54976845 4.01845074 5.20065928
-1.51779306 4.04804373 5.24987459
-1.52351320 4.09384775 5.19286060
-1.46841180 4.03383780 5.34537125
-1.48473370 4.02387285 5.38663387
-1.38950419 4.01884985 5.37099648
-1.40011501 4.01061440 5.41555929
-1.29775882 4.01217842 5.39467192
-1.30417848 4.00205708 5.43897867
-1.22267210 4.01568890 5.40456533
-1.21309221 4.00039482 5.45541811
-1.21901143 3.98886323 5.36072397
-1.16038322 4.02344894 5.40568733
-1.15791106 3.99671364 5.36113882
-1.20969009 3.94529510 5.34656811
-1.14140153 3.94798946 5.35061312
-1.14140153 3.94798946 5.35061312
-1.19331062 3.89808774 5.36343622
-1.20969009 3.94529510 5.34656811
-1.12340724 3.90413260 5.36605597
-1.09293139 3.96196938 5.34259033
-1.06640494 3.91658378 5.36367273
-1.04414785 3.87462568 5.39441252
-1.01694524 3.93427515 5.34889412
-0.99263734 3.89707017 5.38011932
-1.02332544 3.83597755 5.42757940
-0.97123682 3.85540318 5.41624498
-1.00030577 3.79423642 5.46331978
-0.95010239 3.81521058 5.45090294
-0.97093034 3.74441767 5.50608015
-0.92134660 3.76931691 5.49109316
-1.02042544 3.72090411 5.52036142
-1.07012570 3.69676805 5.53515911
-0.98923922 3.67338943 5.55773544
-0.93561220 3.69409275 5.54716873
-1.03941488 3.65040350 5.57100105
-1.09444535 3.63040519 5.58268929
-1.11964726 3.67322969 5.54909420
-1.00977421 3.60480285 5.60628939
-0.95594114 3.62538862 5.59544230
-1.06933653 3.58758068 5.61626244
-1.03403592 3.53797436 5.64992762
-0.97764009 3.55693817 5.64342642
-1.09135890 3.51608801 5.65953732
-1.15081263 3.50046515 5.66574192
-1.06226158 3.46706319 5.69951391
-1.00468242 3.49234772 5.69215155
-1.13119555 3.44420123 5.69905376
-1.22010648 3.49935818 5.66313171
-1.20905101 3.43332601 5.69713640
-1.04783273 3.43858886 5.75288677
-1.12539709 3.41290760 5.75212765
-1.21359301 3.40314102 5.74727964
-1.30319655 3.40573835 5.73589754
-1.29170585 3.43270707 5.68824148
-1.13291049 3.44036365 5.80332422
-1.22116661 3.42822528 5.79726219
-1.31003320 3.42956662 5.78551149
-1.39347839 3.44879055 5.76527786
-1.38538039 3.42604947 5.71921825
-1.22424650 3.48252916 5.81299114
-1.30610156 3.48065519 5.80029345
-1.38709211 3.49831223 5.77467060
-1.22715819 3.53863263 5.79458046
-1.29903126 3.53240323 5.78411865
-1.22424650 3.48252916 5.81299114
-1.30610156 3.48065519 5.80029345
-1.14544713 3.49644709 5.81631708
-1.15992093 3.54958367 5.79907084
-1.17191505 3.59664512 5.77469921
-1.11162651 3.61763287 5.77033043
-1.09138811 3.57244802 5.79605436
-1.12662792 3.65521383 5.74553537
-1.18464065 3.63831425 5.74440908
-1.14120221 3.69188666 5.71670771
-1.08460248 3.71506238 5.70901918
-1.06887209 3.67766714 5.73760986
-1.10343409 3.74929285 5.68151855
-1.15959823 3.72590494 5.68869543
-1.12266517 3.78400564 5.65332508
-1.17411816 3.75773478 5.65621138
-1.21720886 3.72255182 5.64118385
-1.15047407 3.81671596 5.62542677
-1.19447935 3.78662348 5.62697363
-1.22399080 3.75162172 5.61388969
-1.22399080 3.75162172 5.61388969
-1.25061274 3.75576496 5.54851103
-1.22238815 3.71771049 5.57442284
-1.25604212 3.78240848 5.58893871
-1.25604212 3.78240848 5.58893871
-1.23420084 3.81997681 5.59933805
-1.28383470 3.84596276 5.57396650
-1.23420084 3.81997681 5.59933805
-1.29849100 3.81064725 5.56571627
-1.28383470 3.84596276 5.57396650
-1.36266184 3.82836962 5.54678535
-1.29698598 3.78446007 5.52710676
-1.35972464 3.80117559 5.51043987
-1.35548210 3.86529136 5.55080271
-1.35548210 3.86529136 5.55080271
-1.43545604 3.87899995 5.52806854
-1.43520284 3.83395433 5.53495646
-1.36266184 3.82836962 5.54678535
-1.42281556 3.91523051 5.50443029
-1.51695597 3.92206168 5.47989416
-1.51703262 3.88242054 5.50926304
-1.41902399 3.95195413 5.47620773
-1.51444304 3.95892358 5.45124149
-1.51031280 3.99376345 5.42226171
-1.41129100 3.98226309 5.44636726
-1.58688891 3.81866241 5.52645493
-1.51134551 3.83216691 5.52599001
-1.51134551 3.83216691 5.52599001
-1.58688891 3.81866241 5.52645493
-1.57277775 3.77046800 5.50403261
-1.50176597 3.79252315 5.49831295
-1.43520284 3.83395433 5.53495646
-1.43044841 3.80465627 5.49997711
-1.49853373 3.77199030 5.45220995
-1.42692423 3.78926897 5.45729494
-1.35619724 3.79178691 5.46718597
-1.34900713 3.80259943 5.42602062
-1.43179786 3.79562640 5.41317987
-1.28264892 3.77865243 5.48406076
-1.23037577 3.74664569 5.50728893
-1.19600713 3.70353436 5.53408289
-1.35204589 3.83226919 5.39192104
-1.44500518 3.82678795 5.37449932
-1.36529374 3.85941672 5.35984945
-1.46433675 3.85087323 5.34444809
-1.59223163 3.85994053 5.30352402
-1.55928719 3.82893419 5.33788109
-1.53275764 3.80187726 5.37236309
-1.65096319 3.79604459 5.34167147
-1.61749625 3.77102113 5.37649679
-1.51154876 3.77786374 5.41032553
-1.58640265 3.75025654 5.40966940
-1.66413856 3.71350646 5.42553377
-1.70068073 3.73148894 5.38744116
-1.57162511 3.74580383 5.45669937
-1.64438164 3.70777035 5.47222519
-1.71270287 3.65228558 5.49665689
-1.74620163 3.65429783 5.44853067
-1.64518023 3.73846698 5.51666832
-1.71140575 3.68339586 5.54473925
-1.77109754 3.59804201 5.58780670
-1.77390611 3.57003021 5.53074646
-1.73910868 3.72925329 5.56143141
-1.66456342 3.78491950 5.53029108
-1.71140575 3.68339586 5.54473925
-1.81464589 3.64201975 5.60082197
-1.77109754 3.59804201 5.58780670
-1.73910868 3.72925329 5.56143141
-1.83547878 3.49517798 5.62492752
-1.88600540 3.53452492 5.64125538
-1.86456621 3.67849445 5.58081436
-1.94803953 3.56663084 5.62052345
-1.91058242 3.71204901 5.55441427
-2.00319719 3.59678054 5.59644794
-2.08089089 3.49043965 5.63078690
-2.12712598 3.39584422 5.66326857
-2.06026816 3.62281537 5.56629848
-1.95388842 3.74141288 5.52574253
-1.99317408 3.76729441 5.49346876
-2.11177897 3.64939594 5.53563070
-2.02788448 3.79440403 5.46190882
-2.14609718 3.68889928 5.49923897
-2.06158662 3.82395101 5.43129969
-1.96793687 3.92241764 5.38298655
-1.92914951 3.89557862 5.41413689
-2.00687218 3.94894934 5.35086489
-2.09286070 3.85455680 5.39982891
-2.04050565 3.97549248 5.31797934
-2.12425876 3.88402200 5.36755323
-2.23389959 3.78764987 5.40280342
-2.34626293 3.70482159 5.41617680
-2.25538754 3.83540106 5.36096144
-2.15380859 3.91352534 5.33458900
-2.35774374 3.75974393 5.37767887
-2.45956826 3.71317720 5.36828995
-2.44906497 3.66675806 5.40236139
-2.36992240 3.80942106 5.33439779
-2.27588177 3.87725043 5.31715393
-2.46955132 3.75879693 5.33287477
-2.56657267 3.72284722 5.31702566
-2.55849409 3.67850018 5.35184669
-2.47995043 3.80155420 5.29537153
-2.38201737 3.85232306 5.29380274
-2.57553744 3.76601005 5.28175688
-2.67178035 3.73384953 5.26418304
-2.66426110 3.69372225 5.29536581
-2.48803878 3.83607697 5.25036621
-2.58294797 3.80050015 5.24267960
-2.66816711 3.77162862 5.22329760
-2.74968243 3.75984716 5.19802523
-2.75556612 3.72344470 5.23614073
-2.57340503 3.79652691 5.19189596
-2.65923238 3.77261949 5.17645264
-2.73853731 3.75747585 5.15524054
-2.72519827 3.72070813 5.12489319
-2.64445710 3.73592496 5.14326382
-2.80667305 3.71684194 5.09764671
-2.80021477 3.67028570 5.09058189
-2.71446300 3.67446780 5.11377668
-2.71446300 3.67446780 5.11377668
-2.79663873 3.61528254 5.09991455
-2.80021477 3.67028570 5.09058189
-2.70813274 3.62704778 5.12408161
-2.70139790 3.57940459 5.15420485
-2.79277325 3.56580710 5.12567043
-2.87714767 3.56125116 5.08769751
-2.95833254 3.56663179 5.04172897
-2.78925037 3.51718545 5.15446091
-2.87618232 3.50926304 5.11885023
-2.95805836 3.50592685 5.08003616
-3.03687668 3.55341530 5.00644922
-3.03570890 3.49244046 5.04623365
-2.87651205 3.46029043 5.14990234
-2.95248580 3.45228910 5.11876202
-3.02319694 3.43491840 5.09176207
-3.11223817 3.48396778 5.00997829
-3.10632348 3.42744660 5.05110836
-2.94579840 3.40022564 5.15742302
-2.87305999 3.41007447 5.18679333
-2.95570660 3.37234926 5.20859480
-2.88766313 3.38361406 5.23368597
-2.90716076 3.40326524 5.28355312
-2.97857714 3.39817548 5.24820566
-2.92072797 3.45549822 5.29597759
-2.99583530 3.44826174 5.25773096
-2.99583530 3.44826174 5.25773096
-2.92922544 3.51067162 5.28316164
-3.00917339 3.50463963 5.23996639
-2.92072797 3.45549822 5.29597759
-3.08637762 3.49370337 5.20642328
-3.06477404 3.43659377 5.23105145
-3.09436297 3.54686236 5.17557859
-3.01275969 3.55580592 5.21405840
-3.18519306 3.53689694 5.14249516
-3.17011619 3.48438716 5.17825699
-3.28754830 3.52215099 5.09118080
-3.26860356 3.47494650 5.13104773
-3.40321183 3.50837922 5.02629995
-3.38372493 3.46623588 5.06376553
-3.36209822 3.42075968 5.10246372
-3.51303840 3.46066928 4.98476362
-3.49671650 3.42074490 5.02048111
-3.47927141 3.37747455 5.05519056
-3.46128845 3.32941866 5.08858109
-3.64256883 3.42250395 4.92330980
-3.62909365 3.38204288 4.95425653
-3.61782360 3.33956814 4.98525906
-3.60898447 3.29256678 5.01468801
-3.45026350 3.28152680 5.12423277
-3.78921342 3.39015126 4.83904028
-3.77739024 3.34665513 4.86981297
-3.77033067 3.29887128 4.89993525
-3.77600026 3.25491691 4.94261694
-3.61026382 3.25021696 5.05544329
-3.93965745 3.35400343 4.74768829
-3.93258381 3.30578470 4.78219461
-3.93839884 3.25826478 4.82197809
-3.78568125 3.18922257 4.97795868
-3.94920635 3.18847942 4.85907221
-4.08706284 3.30778980 4.66344309
-4.09393835 3.26009655 4.70126772
-4.10595274 3.18528676 4.73900604
-3.97705913 3.09478450 4.92039013
-4.13818359 3.08428192 4.80193853
-4.24085045 3.25602341 4.58714819
-4.25542021 3.18175864 4.61890125
-4.29110622 3.07712793 4.67961502
-4.40040398 3.17863345 4.49722481
-4.43624926 3.07144642 4.55338860
-6.33392477 2.55905533 1.19158280
-6.29380274 2.55141163 1.37002146
-6.35671568 2.41162896 1.19604886
-6.31617832 2.40765190 1.37888825
-6.37162828 2.56307817 1.00934350
-6.39389610 2.42011976 1.00916362
-6.33470392 2.72210670 1.00220072
-6.29613829 2.72399831 1.18138075
-6.42813492 2.42651749 0.81452316
-6.40430403 2.57043672 0.81299114
-6.37801886 2.71751404 0.80525082
-6.34539843 2.83220291 0.78743607
-6.30522871 2.85600758 0.99018079
-6.43624783 2.57928395 0.59923530
-6.40788698 2.72291851 0.58285147
-6.38217068 2.81737947 0.56881791
-6.32757950 2.89660692 0.77359086
-6.36474609 2.87814212 0.55812854
-6.43278503 2.73498797 0.36319512
-6.40908670 2.83076978 0.34868383
-6.38293695 2.90967178 0.34149033
-6.34862089 2.93700743 0.54778737
-6.36043644 2.98013115 0.32930455
-6.41180325 2.86633730 0.14336048
-6.38182163 2.95007515 0.12817425
-6.35408878 3.02794647 0.10875601
-6.33778286 3.04873729 0.31360587
-6.33332872 3.10661459 0.08174345
-6.34114408 3.06709075 -0.11432237
-6.35408878 3.02794647 0.10875601
-6.36782503 2.99446702 -0.07857929
-6.38182163 2.95007515 0.12817425
-6.35955000 3.00052714 -0.32148534
-6.39543152 2.90277219 -0.28422838
-6.39820051 2.91150403 -0.05838715
-6.34728050 3.00272703 -0.56551468
-6.38750315 2.89431047 -0.51401079
-6.37503672 2.88447475 -0.72557950
-6.33256006 2.99591208 -0.77169698
-6.36033630 2.87740874 -0.91281968
-6.31736040 2.99057221 -0.94972551
-6.34029102 2.87810135 -1.08909714
-6.29669237 2.99380636 -1.11624122
-6.25967598 3.08476353 -1.13934684
-6.23108006 3.15230298 -1.15388548
-6.27474213 2.99124813 -1.27828062
-6.31795835 2.87022686 -1.25959122
-6.29629803 2.85872078 -1.42161798
-6.25178576 2.97320247 -1.43675363
-6.22489834 2.94593167 -1.59775317
-6.26510429 2.83219957 -1.58059645
-6.19288969 2.92106843 -1.76194227
-6.23290968 2.80641532 -1.74730837
-6.16151524 2.99368834 -1.79366946
-6.13444710 3.05597854 -1.82837713
-6.14991045 2.90437317 -1.93735993
-6.12101603 2.97649026 -1.96101773
-6.09357691 3.03585887 -1.98474491
-6.06825018 3.08801031 -2.01014686
-6.07376480 2.97513461 -2.13288331
-6.05057096 3.03238726 -2.15122795
-6.02587748 3.08227849 -2.16397548
-6.04071236 3.13557935 -2.03398585
-6.00086212 3.12904024 -2.17649722
-5.98731899 3.03604007 -2.32333469
-5.96859407 3.08214760 -2.32330179
-5.94645166 3.13100290 -2.32809162
-5.97709751 3.17332697 -2.18852901
-5.92770290 3.17174339 -2.32990289
-5.90020132 3.09664726 -2.48726821
-5.88254166 3.14210224 -2.48434734
-5.86180067 3.18910265 -2.48206592
-5.90649557 3.21554589 -2.33469915
-5.84101391 3.23424459 -2.47682834
-5.95374155 3.21690297 -2.19941664
-5.93252516 3.25850081 -2.20809412
-5.88635826 3.25756407 -2.33966064
-5.82421494 3.27522111 -2.47095084
-5.86783171 3.29944015 -2.33790684
-5.80781031 3.31575918 -2.46506715
-5.74263477 3.31828308 -2.60252452
-5.73450899 3.35079169 -2.58499575
-5.73088264 3.37783527 -2.57483506
-5.79480076 3.35449815 -2.45480657
-5.65685272 3.40330839 -2.69222927
-5.65151548 3.37679482 -2.71930265
-5.65958691 3.42320228 -2.67385387
-5.73088264 3.37783527 -2.57483506
-5.65958691 3.42320228 -2.67385387
-5.73433018 3.41861820 -2.56722593
-5.67479658 3.45911837 -2.66124272
-5.56918001 3.46708369 -2.76908946
-5.58752823 3.49379325 -2.73202777
-5.67479658 3.45911837 -2.66124272
-5.61091900 3.52301073 -2.70998359
-5.61091900 3.52301073 -2.70998359
-5.70229769 3.48592186 -2.66622567
-5.64364862 3.55349755 -2.70907831
-5.51946449 3.57205701 -2.74704814
-5.55011606 3.59936738 -2.71999073
-5.55011606 3.59936738 -2.71999073
-5.58794689 3.63107204 -2.72199273
-5.61357260 3.65013742 -2.75522614
-5.67179155 3.57269907 -2.73591518
-5.49477768 3.67716432 -2.71618843
-5.58794689 3.63107204 -2.72199273
-5.53651667 3.71027708 -2.71985745
-5.53651667 3.71027708 -2.71985745
-5.55028963 3.72709322 -2.76532793
-5.53782701 3.72202730 -2.81612945
-5.60451555 3.64117002 -2.80775809
-5.49193239 3.80058193 -2.76027298
-5.48597383 3.78526759 -2.70994496
-5.47665548 3.79967165 -2.81318855
-5.45955849 3.78849030 -2.86603212
-5.51999331 3.71294999 -2.86966491
-5.43603849 3.87667203 -2.74023676
-5.42115307 3.87940931 -2.78832674
-5.40453529 3.87119889 -2.84058189
-5.38594866 3.85610604 -2.89197612
-5.44142723 3.77525663 -2.91676188
-5.32869959 3.93962646 -2.85873795
-5.27245712 4.01588154 -2.83075380
-5.25088787 4.00651693 -2.88121367
-5.23067760 3.99359369 -2.93022490
-5.19599199 4.06671143 -2.87493205
-5.21862650 4.07489157 -2.82137227
-5.17601252 4.05320978 -2.92365932
-5.20571756 3.98096228 -2.97958064
-5.15879869 4.03885460 -2.96505427
-5.14160776 4.11490583 -2.87476015
-5.12282181 4.10202980 -2.92760777
-5.10566616 4.08551741 -2.97274423
-5.13288641 4.01998472 -3.00000620
-5.07942295 4.06654501 -3.02010131
-5.07070112 4.14527321 -2.93366742
-5.05077600 4.13141775 -2.98336554
-5.02868748 4.10724497 -3.04379821
-5.00413322 4.16782761 -2.99707770
-4.98612309 4.14873743 -3.05011106
-4.95537949 4.20528793 -3.00555229
-4.94160795 4.18298340 -3.06569171
-4.91835785 4.15724897 -3.13094664
-4.89035368 4.22355890 -3.07230687
-4.87360430 4.20515776 -3.12658548
-4.88927794 4.13627911 -3.19303656
-4.84866047 4.18621874 -3.18742347
-4.92300415 4.08526373 -3.24282098
-4.91243458 4.06823969 -3.29346085
-4.96255732 4.03050613 -3.27709031
-4.97385073 4.04639244 -3.22690034
-4.90117073 4.05019331 -3.34414649
-4.94433546 4.01632786 -3.33064318
-4.98533010 3.97958040 -3.31776690
-4.92404652 4.00333023 -3.38396668
-4.96342230 3.96916580 -3.36926603
-4.97400856 3.92923927 -3.35408473
-4.99996376 3.93395305 -3.30323315
-4.99996376 3.93395305 -3.30323315
-4.97400856 3.92923927 -3.35408473
-4.94412518 3.90535522 -3.33421159
-4.96754456 3.91428638 -3.28306103
-4.92287445 3.93809295 -3.27388740
-4.90150356 3.92134738 -3.32207346
-4.94244766 3.95280170 -3.22118354
-4.89661264 3.98165560 -3.22007346
-4.87881851 3.96785212 -3.26949859
-4.84444332 4.01808119 -3.23012447
-4.83323765 4.00400877 -3.27209520
-4.80250597 4.07261276 -3.19089007
-4.73859262 4.12648773 -3.19950771
-4.81312513 4.08866167 -3.14054489
-4.74654436 4.13393259 -3.15288711
-4.82365274 4.10468721 -3.09022331
-4.75450087 4.14894056 -3.10534072
-4.76133537 4.16458559 -3.05950046
-4.83052540 4.12040806 -3.04343295
-4.89932060 4.08368921 -3.00988960
-4.83563995 4.13813782 -2.99748158
-4.90512848 4.10084248 -2.96348786
-4.96984291 4.05071878 -2.97032714
-4.97601509 4.06740236 -2.91775298
-5.04124737 4.03055429 -2.87436366
-5.03592157 4.01875210 -2.92895484
-5.09682083 3.98053217 -2.89628267
-5.10151196 3.98889780 -2.84274149
-5.15063095 3.93419862 -2.87338090
-5.14421940 3.93126464 -2.92189384
-5.20428467 3.87475300 -2.87833357
-5.19251871 3.86623573 -2.92873597
-5.19012976 3.87644601 -2.97803903
-5.14848328 3.93734479 -2.97315240
-5.20546818 3.90067124 -3.01809430
-5.17312527 3.96115041 -3.00072145
-5.20546818 3.90067124 -3.01809430
-5.17312527 3.96115041 -3.00072145
-5.22749567 3.80262280 -2.99502873
-5.23093700 3.82977223 -3.04306555
-5.23093700 3.82977223 -3.04306555
-5.24346352 3.78979373 -2.94473314
-5.29378128 3.70288086 -2.96676707
-5.31427622 3.70279717 -2.92182112
-5.26234770 3.79094481 -2.89858055
-5.33444166 3.70369053 -2.87642026
-5.35606003 3.71016622 -2.82830667
-5.41277170 3.62648606 -2.84260821
-5.39134502 3.61776686 -2.89360404
-5.47827482 3.54338861 -2.83625007
-5.46504641 3.52913880 -2.88016129
-5.55829906 3.44986176 -2.81066632
-5.49789333 3.55313182 -2.78794265
-5.43511581 3.63702703 -2.79330826
-5.45956421 3.65251303 -2.74682641
-5.40704679 3.73286033 -2.73995519
-5.37878609 3.71822667 -2.78265095
-5.44427586 3.75306225 -2.70567822
-5.48597383 3.78526759 -2.70994496
-5.39692163 3.82482576 -2.68598056
-5.35735893 3.80721235 -2.71364093
-5.43845510 3.85416722 -2.69215488
-5.43845510 3.85416722 -2.69215488
-5.35999966 3.88875031 -2.65445828
-5.39935589 3.91560960 -2.66049695
-5.39935589 3.91560960 -2.66049695
-5.33568001 3.94443369 -2.61266613
-5.36922216 3.97168183 -2.62193394
-5.36922216 3.97168183 -2.62193394
-5.33009338 3.98588777 -2.55559802
-5.36064625 4.01864290 -2.56585407
-5.36064625 4.01864290 -2.56585407
-5.33715677 4.01095438 -2.49745870
-5.36328316 4.04609346 -2.51094413
-5.34807730 4.08678865 -2.52828026
-5.36328316 4.04609346 -2.51094413
-5.31774282 4.11655760 -2.53962851
-5.36609077 4.06906605 -2.45649147
-5.34902525 4.10775757 -2.46757174
-5.32057762 4.13856077 -2.47731066
-5.29291773 4.16286564 -2.48085833
-5.28662777 4.14316511 -2.54866886
-5.34915447 4.12513161 -2.41074276
-5.32141829 4.15961647 -2.41771626
-5.28755283 4.18868637 -2.42538214
-5.31960297 4.17953348 -2.36156940
-5.35121918 4.14208460 -2.35507607
-5.35345316 4.15632868 -2.30252099
-5.32073116 4.19463778 -2.30464792
-5.37052917 4.16373301 -2.24949169
-5.33201218 4.20012331 -2.24597716
-5.34384203 4.20398235 -2.19160342
-5.38275099 4.16845131 -2.19495773
-5.40334606 4.17226458 -2.14609432
-5.44793463 4.13555908 -2.14929914
-5.42012739 4.17657328 -2.09865856
-5.46799088 4.13828087 -2.09690952
-5.43405294 4.18296528 -2.05105209
-5.47902298 4.14709234 -2.04753518
-5.44307041 4.19239664 -2.00207019
-5.48723555 4.15780926 -1.99673712
-5.39793634 4.22060680 -2.00412583
-5.34988499 4.22406292 -1.99738061
-5.40654945 4.23162794 -1.95671082
-5.44876003 4.20276070 -1.95161629
-5.35673761 4.23897076 -1.95077038
-5.31704330 4.19557858 -1.98575759
-5.32423306 4.20869446 -1.94038486
-5.36396170 4.25188732 -1.90393591
-5.40986252 4.24116182 -1.90490460
-5.32797289 4.22429800 -1.89322674
-5.32423306 4.20869446 -1.94038486
-5.32797289 4.22429800 -1.89322674
-5.33025408 4.17902803 -1.88177073
-5.32882595 4.16283655 -1.93082929
-5.36935091 4.26717520 -1.85182333
-5.32887316 4.24038410 -1.84220183
-5.33168077 4.19514990 -1.83268869
-5.32887316 4.24038410 -1.84220183
-5.36377192 4.16080666 -1.82275653
-5.36493635 4.14781904 -1.87171984
-5.33265162 4.20759439 -1.77848732
-5.33292770 4.25551844 -1.78852344
-5.36485624 4.17298794 -1.77356005
-5.37128830 4.18130016 -1.71768510
-5.33741665 4.21687603 -1.72300398
-5.41523075 4.17334318 -1.72038066
-5.45209932 4.19634390 -1.72755265
-5.37980461 4.18537951 -1.66076863
-5.42869520 4.16755629 -1.66308069
-5.47351980 4.19283295 -1.67124057
-5.46984053 4.24385309 -1.67472374
-5.45818901 4.23739529 -1.73315966
-5.44171524 4.16907549 -1.60133302
-5.48417568 4.19923019 -1.60750401
-5.47351980 4.19283295 -1.67124057
-5.47835350 4.25066042 -1.61527431
-5.46984053 4.24385309 -1.67472374
-5.48417568 4.19923019 -1.60750401
-5.44548988 4.28490353 -1.61906898
-5.43897486 4.28163815 -1.67954338
-5.48310709 4.21612740 -1.54880464
-5.47676134 4.26069593 -1.55662894
-5.44888353 4.29079771 -1.56000626
-5.47681379 4.27273226 -1.50083315
-5.45205784 4.30228090 -1.50054014
-5.42546129 4.33009863 -1.49883807
-5.39847422 4.35721779 -1.49745953
-5.44026518 4.33631611 -1.43492508
-5.46698952 4.30905294 -1.44073284
-5.48447132 4.31154823 -1.37220609
-5.45737076 4.33902168 -1.35522854
-5.50519037 4.30653620 -1.31496334
-5.47367287 4.33636665 -1.29439962
-5.51824760 4.30478048 -1.25419152
-5.48473883 4.33520985 -1.23395038
-5.44379234 4.36371469 -1.23780262
-5.40227699 4.37553024 -1.23756754
-5.45264912 4.36199951 -1.18448639
-5.49361801 4.33349466 -1.18063378
-5.41109324 4.37692118 -1.18798029
-5.37386560 4.35906601 -1.18828595
-5.37199163 4.35050917 -1.23252773
-5.41042757 4.38605785 -1.13970721
-5.45335340 4.36767292 -1.13061547
-5.37227058 4.37124252 -1.14291453
-5.35526419 4.33066225 -1.13759124
-5.36472321 4.31562042 -1.18308449
-5.40291023 4.40111542 -1.08833194
-5.36373091 4.39117813 -1.09732831
-5.34200335 4.35007572 -1.09285438
-5.35526419 4.33066225 -1.13759124
-5.34200335 4.35007572 -1.09285438
-5.35102654 4.30469608 -1.07823241
-5.36899853 4.28397751 -1.12878525
-5.32485199 4.37635994 -1.04960907
-5.38809443 4.26949930 -1.17888057
-5.39722776 4.24947071 -1.11457372
-5.41731548 4.22904205 -1.17106795
-5.36472321 4.31562042 -1.18308449
-5.37991095 4.26973152 -1.05942214
-5.35765457 4.28795767 -1.00631750
-5.39484358 4.25875473 -0.98364586
-5.43196917 4.23682022 -0.96268964
-5.37568378 4.27429247 -0.92372811
-5.33927202 4.30324841 -0.94516271
-5.42120600 4.24847460 -0.90267402
-5.47866440 4.22576952 -0.94568270
-5.46812677 4.23557568 -0.88463330
-5.53344154 4.22540808 -0.98505348
-5.52165413 4.23555374 -0.93238622
-5.52110529 4.24208212 -0.87855482
-5.55456352 4.27000618 -0.93134218
-5.55458069 4.27810431 -0.87869811
-5.52451324 4.24509048 -0.81778139
-5.55420542 4.28363895 -0.82075554
-5.54082346 4.32587242 -0.81875050
-5.53882933 4.32097435 -0.88177156
-5.55420542 4.28363895 -0.82075554
-5.55458069 4.27810431 -0.87869811
-5.56621265 4.28128576 -0.75906163
-5.53496647 4.24363804 -0.75624597
-5.56621265 4.28128576 -0.75906163
-5.54815102 4.32591152 -0.75518847
-5.50792789 4.36032915 -0.82157302
-5.51527357 4.36020708 -0.74688232
-5.54815102 4.32591152 -0.75518847
-5.57699490 4.27683640 -0.69490820
-5.56242704 4.31972265 -0.68471080
-5.56621265 4.28128576 -0.75906163
-5.53285646 4.35332155 -0.66994953
-5.51527357 4.36020708 -0.74688232
-5.49465704 4.38547087 -0.66239488
-5.48026276 4.39034510 -0.74304259
-5.59042215 4.30275154 -0.61722147
-5.55672455 4.33930445 -0.60015011
-5.51460791 4.37598658 -0.58271283
-5.47232008 4.40965891 -0.57181847
-5.45386028 4.41741180 -0.65460652
-5.49305677 4.39886236 -0.49434686
-5.44063425 4.43894053 -0.48395288
-5.42430592 4.44465256 -0.56371856
-5.50293398 4.39478731 -0.42215899
-5.44939995 4.43560410 -0.41208071
-5.38989544 4.47498083 -0.47458446
-5.40088224 4.47166681 -0.39956343
-5.51096773 4.39050674 -0.35650018
-5.45713711 4.43202543 -0.34172264
-5.40941954 4.46798086 -0.32789966
-5.35076761 4.50757074 -0.38995719
-5.36159849 4.50337267 -0.31544191
-5.46077824 4.42833710 -0.28032547
-5.41310692 4.46415520 -0.26638541
-5.37061310 4.49781942 -0.25312865
-5.31449652 4.53636312 -0.30523482
-5.32416439 4.52963734 -0.23790060
-5.41744518 4.46009779 -0.20495673
-5.37808704 4.49253416 -0.19222099
-5.33374262 4.52540064 -0.17651756
-5.27712059 4.56049824 -0.22341369
-5.28704453 4.55383253 -0.16140972
-5.38525867 4.48724937 -0.13115390
-5.34247303 4.51791286 -0.11590983
-5.29701471 4.54721260 -0.09949823
-5.24216747 4.58255768 -0.14788719
-5.34857321 4.51234579 -0.05162768
-5.30533600 4.54066133 -0.03718427
-5.35364008 4.50745821 0.01410140
-5.31867409 4.53106737 0.03771127
-5.33603430 4.51911926 0.11708500
-5.28995562 4.52402401 0.14722992
-5.37353325 4.49347734 0.09038052
-5.39603662 4.47572088 0.16304307
-5.36021662 4.49681282 0.19194685
-5.40849543 4.46625710 0.06772068
-5.39743233 4.47733784 0.00030043
-5.42819929 4.45163918 0.13129754
-5.42633200 4.45131636 0.23115571
-5.45687103 4.42816544 0.19674745
-5.45568895 4.42207670 0.11004805
-5.47616482 4.40570116 0.17044353
-5.49147844 4.39837980 0.25245920
-5.50754261 4.37997103 0.21564588
-5.47053480 4.37096453 0.15167251
-5.45859289 4.38517618 0.09913137
-5.49866724 4.34755802 0.19108261
-5.54463768 4.34824276 0.24955341
-5.53398991 4.31814051 0.22048567
-5.47053480 4.37096453 0.15167251
-5.46360016 4.32354736 0.19929641
-5.49866724 4.34755802 0.19108261
-5.43941784 4.34412098 0.15117538
-5.53398991 4.31814051 0.22048567
-5.49971819 4.29241467 0.23604332
-5.54228544 4.25517845 0.26282355
-5.57480335 4.28571415 0.23493315
-5.46269798 4.28403187 0.26370788
-5.42443371 4.31032276 0.21320255
-5.51034689 4.23842859 0.30437919
-5.58535957 4.21319246 0.27190256
-5.42359924 4.28950739 0.29091975
-5.38508368 4.32179976 0.23645654
-5.34851694 4.34353781 0.25772277
-5.38511658 4.31263113 0.31904605
-5.31870174 4.37974310 0.28157619
-5.35462666 4.34811354 0.34591162
-5.35347176 4.39767361 0.36411288
-5.31228590 4.43214560 0.29924971
-5.39789724 4.35810661 0.42539698
-5.42966557 4.32315350 0.48566031
-5.39789724 4.35810661 0.42539698
-5.38979864 4.43669891 0.35797146
-5.35347176 4.39767361 0.36411288
-5.42966557 4.32315350 0.48566031
-5.34785461 4.47056150 0.29240993
-5.31228590 4.43214560 0.29924971
-5.43562555 4.43452454 0.32711169
-5.39151001 4.46918297 0.26310247
-5.46510983 4.41915560 0.29545006
-5.53437519 4.36324167 0.29944450
-5.58310270 4.32093716 0.33015874
-5.58715439 4.31194401 0.28177503
-5.63377953 4.27103615 0.27708462
-5.63142443 4.27767134 0.33333388
-5.57480335 4.28571415 0.23493315
-5.61442041 4.25102949 0.24057481
-5.65278149 4.21317482 0.23658083
-5.67563152 4.23265028 0.26892865
-5.61442041 4.25102949 0.24057481
-5.62784290 4.17008686 0.26134771
-5.65278149 4.21317482 0.23658083
-5.69621325 4.17302227 0.21247742
-5.66874504 4.13253260 0.23442312
-5.72793770 4.19245911 0.29576603
-5.67914867 4.23538017 0.32237920
-5.78099728 4.14448738 0.31999299
-5.77544212 4.15180445 0.26469973
-5.79329348 4.13027000 0.37151718
-5.85545015 4.06021595 0.36626509
-5.81350136 4.10252142 0.41139549
-5.87358904 4.02562571 0.40238965
-5.82498789 4.06879473 0.44995975
-5.77812719 4.10924435 0.49230051
-5.74022818 4.14154768 0.54246718
-5.82498789 4.06879473 0.44995975
-5.80488539 4.02687311 0.46755156
-5.75865746 4.06836081 0.50900990
-5.77812719 4.10924435 0.49230051
-5.72120380 4.09633780 0.55665773
-5.74022818 4.14154768 0.54246718
-5.68406153 4.06936073 0.55077684
-5.71772957 4.04094934 0.50129062
-5.63628578 4.07807636 0.52767819
-5.67449236 4.04480171 0.47427446
-5.62383366 4.08249378 0.59106284
-5.58059788 4.11107731 0.57066065
-5.61598635 4.08287764 0.65353960
-5.57068110 4.11453581 0.63590503
-5.52665710 4.15048218 0.61438304
-5.56387758 4.10922718 0.70707405
-5.57068110 4.11453581 0.63590503
-5.52123499 4.14228058 0.68970883
-5.52665710 4.15048218 0.61438304
-5.55981445 4.09810495 0.77860487
-5.51612091 4.13356543 0.76453048
-5.55876637 4.08004665 0.83777982
-5.50831890 4.12654257 0.83609581
-5.60935640 4.03612041 0.83884597
-5.60764551 4.02192211 0.89625204
-5.55822706 4.06877708 0.89608186
-5.66228056 3.98285198 0.83936560
-5.66233587 3.96899080 0.89103556
-5.71973848 3.92511320 0.82857031
-5.72113752 3.91021800 0.87789375
-5.77735853 3.85255814 0.84675556
-5.77402782 3.87000966 0.79528970
-5.78021383 3.89201522 0.74707711
-5.80537891 3.92421842 0.71663153
-5.83023548 3.81646109 0.75445771
-5.83665276 3.84452200 0.71061414
-5.86166000 3.88335609 0.68406665
-5.86166000 3.88335609 0.68406665
-5.84902811 3.95182943 0.72604221
-5.80537891 3.92421842 0.71663153
-5.90773201 3.90411639 0.69838727
-5.91566181 3.84464526 0.64381766
-5.83665276 3.84452200 0.71061414
-5.88510418 3.80323577 0.66402704
-5.96600199 3.85559964 0.66477507
-5.94284582 3.88863182 0.73889822
-6.00156498 3.83055139 0.70312452
-5.96456337 3.80863333 0.59527743
-6.01404381 3.81484222 0.61727715
-6.05326605 3.77517009 0.65568084
-6.09487057 3.73208261 0.59689766
-6.05713177 3.77404308 0.56081086
-6.12925577 3.69636416 0.51707077
-6.09245157 3.73554826 0.49640301
-6.16008043 3.65219092 0.53815866
-6.18453550 3.60044527 0.55460179
-6.19049454 3.62010956 0.44774899
-6.15954208 3.66924024 0.42975879
-6.21829844 3.56714988 0.46573561
-6.18930578 3.54180980 0.56711429
-6.22205353 3.50621748 0.47811475
-6.24434233 3.53511405 0.36879638
-6.21844387 3.58991289 0.35524279
-6.25016212 3.47189736 0.37863469
-6.22205353 3.50621748 0.47811475
-6.20427608 3.42942405 0.37300688
-6.17840958 3.46611476 0.47286290
-6.25016212 3.47189736 0.37863469
-6.26608896 3.44962358 0.27317643
-6.25779343 3.51485324 0.27049053
-6.26608896 3.44962358 0.27317643
-6.21596241 3.41485548 0.26609528
-6.14996672 3.45373774 0.34704044
-6.16188288 3.44080305 0.24545261
-6.21596241 3.41485548 0.26609528
-6.26608896 3.44962358 0.27317643
-6.27306604 3.43886423 0.17934448
-6.21643925 3.40870833 0.16988236
-6.16188288 3.44080305 0.24545261
-6.16663027 3.44071937 0.15035130
-6.13604832 3.48701572 0.12763004
-6.13018179 3.48471689 0.22380279
-6.17138815 3.44706440 0.06369540
-6.13512039 3.49497771 0.04142394
-6.10447454 3.54933310 0.02472458
-6.10617399 3.53956032 0.11039269
-6.13091326 3.49875927 -0.04552666
-6.16873550 3.44205546 -0.01671823
-6.09572172 3.55657005 -0.05732598
-6.06008959 3.61726356 -0.06413995
-6.07240915 3.60454130 0.01118389
-6.13004827 3.50047779 -0.12204885
-6.09162951 3.56307197 -0.13926183
-6.05098963 3.62776947 -0.13870303
-6.02054930 3.67792559 -0.06414879
-6.04876471 3.63239050 -0.20324665
-6.05005217 3.63385034 -0.26602429
-6.05902624 3.62828732 -0.32658061
-6.01572657 3.69101691 -0.33975685
-6.07139158 3.62193584 -0.38772824
-6.03036356 3.68425298 -0.40071973
-5.96491098 3.75863028 -0.34512413
-5.98361206 3.75159097 -0.41757205
-5.91135836 3.82439137 -0.36070445
-5.92827272 3.81736803 -0.43029296
-5.85042620 3.89171267 -0.38097164
-5.86422539 3.88598132 -0.44711873
-5.83875179 3.89866900 -0.31945094
-5.78837681 3.95642686 -0.41368204
-5.77750969 3.96371889 -0.35428914
-5.76521730 3.97175694 -0.29384682
-5.82252741 3.91397190 -0.25324649
-5.74659157 3.99136424 -0.23195612
-5.80451393 3.93250132 -0.18967465
-5.72777748 4.01107168 -0.17252526
-5.78056574 3.95774412 -0.12981333
-5.81972933 3.91668558 -0.08706603
-5.85520124 3.87913013 -0.04683018
-5.75203609 3.99112105 -0.06960282
-5.79145241 3.95131469 -0.02679172
-5.82015181 3.91523480 0.01356101
-5.78534174 3.95587373 0.07237263
-5.84577560 3.88820553 0.04879932
-5.81105852 3.92202902 0.11134057
-5.88047075 3.85440469 -0.01376584
-5.75958204 3.99094224 0.03270130
-5.73554611 4.03077793 0.08697522
-5.75329018 3.99216866 0.12928848
-5.72505426 4.02770710 -0.01183326
-5.71772528 4.07321119 0.03717256
-5.68452168 4.06308556 -0.06155824
-5.70893574 4.03125238 -0.11523034
-5.67354870 4.10786581 -0.00924104
-5.63860798 4.11115599 -0.10491882
-5.65618753 4.08368731 -0.15981390
-5.63560104 4.15223551 -0.05640343
-5.58881140 4.15824366 -0.14151418
-5.59515715 4.19823027 -0.09926258
-5.63560104 4.15223551 -0.05640343
-5.59515715 4.19823027 -0.09926258
-5.66338110 4.20377207 -0.03608462
-5.62519741 4.24134970 -0.08703138
-5.66178465 4.25383759 -0.12149532
-5.70992422 4.21423435 -0.07420435
-5.74093390 4.19715595 -0.12359998
-5.68092203 4.24955320 -0.17260532
-5.79145956 4.14968014 -0.06422957
-5.81569242 4.12641430 -0.11188335
-5.75854874 4.17924643 -0.17343155
-5.83799648 4.10697508 -0.17012638
-5.77180529 4.16698837 -0.22683789
-5.89228392 4.05479383 -0.11871500
-5.94218349 4.00092936 -0.07964142
-5.91813517 4.03177452 -0.17917646
-5.85456038 4.09489489 -0.22533624
-5.96963072 3.97085929 -0.14106461
-6.01229620 3.91408038 -0.10674240
-5.98226118 3.95040870 -0.05242858
-5.99080086 3.94305420 -0.19836049
-5.93266487 4.01376534 -0.23668504
-6.03703356 3.88486314 -0.16082177
-6.08109522 3.82580805 -0.12394629
-6.05572653 3.85576940 -0.06938940
