-86.51770000 -42.08880000 -22.42190000
-85.89490000 -41.24850000 -22.06730000
-88.77250000 -44.46050000 -24.30980000
-88.86680000 -45.84040000 -24.43830000
-88.50470000 -43.52460000 -23.83570000
-88.53070000 -45.30170000 -23.76870000
-27.96560000 22.70570000 -102.57280000
-26.01030000 23.11840000 -103.12160000
-34.75590000 23.03860000 -100.67210000
-32.04340000 22.77410000 -101.48130000
-78.29410000 -92.99430000 -21.25650000
-77.07830000 -93.52140000 -21.30720000
-76.28520000 -91.57240000 -21.38470000
-76.34600000 -95.82910000 -21.30210000
-74.64920000 -94.16540000 -21.45860000
-80.96570000 -92.31660000 -21.53030000
-81.19320000 -89.59250000 -21.59050000
-80.37950000 -93.78060000 -21.37640000
68.12020000 -27.74210000 47.69510000
68.45930000 -28.59690000 45.22570000
69.65350000 -28.41930000 43.61200000
66.18500000 -28.64810000 48.69670000
67.64390000 -29.45340000 44.54220000
67.84760000 -26.99070000 49.65220000
66.76730000 -27.12180000 50.93820000
103.02570000 62.83190000 -51.73210000
104.65800000 62.83770000 -48.79600000
105.76360000 62.67220000 -45.75820000
103.53050000 62.01050000 -44.45110000
103.46870000 61.80260000 -42.72500000
104.72890000 62.36400000 -45.03010000
105.26330000 62.23620000 -42.77530000
-80.30250000 -13.37460000 44.60550000
-79.01830000 -13.75860000 46.29470000
-78.17550000 -14.96790000 46.08940000
-82.41900000 -11.89900000 42.76600000
-81.54880000 -13.03230000 42.85050000
-21.24250000 18.35560000 -103.25640000
-22.00320000 17.62230000 -103.03320000
-19.87440000 18.30500000 -103.47910000
-19.76640000 16.61230000 -103.25220000
-28.06670000 14.51470000 -100.78890000
-26.98720000 15.43440000 -101.35840000
-25.07050000 15.21430000 -101.69200000
-25.04870000 14.72640000 -101.50960000
-25.42630000 16.20030000 -102.01740000
-23.36130000 15.53770000 -102.20560000
-21.48080000 14.59940000 -102.27700000
-77.72980000 -28.61950000 -7.69860000
-77.49940000 -28.95860000 -5.84470000
-76.15310000 -29.91850000 -5.49750000
-74.53930000 -31.09110000 -3.51170000
-73.56390000 -31.78910000 -1.53670000
-74.05280000 -31.54370000 0.04110000
55.11750000 50.54540000 93.74900000
57.42940000 50.80130000 92.38740000
54.48540000 49.86000000 94.20420000
58.27300000 49.66030000 92.08160000
59.34840000 51.17170000 91.13500000
60.56830000 50.76670000 90.43620000
87.76950000 60.00870000 61.41270000
88.59880000 59.68910000 60.19970000
87.34660000 59.17030000 61.71450000
85.15560000 53.95060000 64.99820000
85.73850000 51.93890000 64.48440000
86.00370000 55.82610000 63.68990000
-84.39090000 32.21190000 64.51510000
-83.15140000 32.44050000 66.26750000
-84.56120000 31.74550000 64.11760000
-82.09110000 31.71990000 67.33840000
-76.23710000 32.87960000 74.36070000
-77.96260000 32.62550000 72.44370000
41.28920000 62.56840000 -102.26530000
43.38240000 61.97390000 -99.93740000
41.96090000 62.79230000 -102.68320000
46.32040000 61.90930000 -98.69760000
42.79940000 61.10770000 -98.46100000
43.32830000 60.71880000 -97.67360000
43.72450000 61.37860000 -98.45410000
89.02540000 61.52040000 61.40530000
90.25670000 61.76900000 60.53250000
89.50210000 61.97670000 62.43560000
86.88690000 60.27960000 62.71190000
88.15990000 60.69380000 61.23670000
47.91120000 47.42630000 97.67520000
50.30660000 47.50010000 96.41670000
40.08700000 47.75250000 100.90810000
41.24370000 47.89270000 100.40930000
40.47530000 47.28420000 100.87500000
-2.73990000 -37.96380000 59.41310000
0.09680000 -37.60550000 60.48960000
-3.77670000 -36.84380000 62.44040000
1.00180000 -36.90090000 62.46470000
-5.11440000 -35.56980000 65.27750000
-2.90200000 -35.52140000 65.56250000
-0.83180000 -36.04450000 64.52480000
-83.95330000 -27.63850000 -35.84580000
-85.01550000 -28.44250000 -34.78350000
-86.13960000 -29.30450000 -33.76360000
-86.97080000 -31.04070000 -32.99720000
44.18800000 -16.12150000 80.82440000
45.98180000 -15.81220000 80.11100000
38.23510000 -13.29340000 86.00480000
39.60730000 -14.00850000 84.82350000
91.47360000 -17.55240000 3.67200000
92.80710000 -15.90460000 3.52360000
94.24000000 -13.95420000 3.46900000
95.24720000 -12.44620000 2.75580000
95.53590000 -12.00920000 0.90280000
111.64410000 121.92970000 13.88440000
112.37030000 121.30760000 14.22350000
113.03080000 121.71870000 13.99890000
113.02300000 122.17190000 13.70060000
111.31860000 123.65540000 9.10390000
111.91210000 123.69270000 9.65480000
111.40310000 123.43050000 10.58990000
28.85620000 0.53770000 -96.46890000
29.83080000 -0.08220000 -95.92190000
29.06300000 -0.86580000 -95.77280000
31.24100000 2.37600000 -96.51770000
31.55050000 0.38330000 -95.62800000
33.58980000 3.09440000 -96.01470000
34.50450000 6.79610000 -96.96930000
34.70430000 5.18450000 -96.26220000
34.23530000 2.45050000 -95.44720000
-93.99370000 7.76650000 42.02260000
-93.13980000 5.32600000 41.86720000
-92.42080000 3.84430000 42.09500000
-93.01590000 4.28450000 41.51850000
-91.45150000 0.19730000 41.33630000
-95.45950000 9.96600000 40.17890000
-95.22880000 9.72430000 40.66360000
-95.33990000 10.73230000 41.08480000
-95.05500000 7.77750000 39.82260000
-94.87250000 8.04350000 40.52130000
-32.86580000 -17.23920000 -83.60360000
-33.66030000 -18.78120000 -81.87900000
-33.54520000 -14.41700000 -85.59620000
-31.96190000 -15.69940000 -85.19300000
-62.00140000 22.20110000 83.46550000
-60.80610000 20.43260000 84.15590000
-61.87570000 23.88670000 83.81190000
-59.68890000 18.76440000 84.69300000
-58.60610000 18.95470000 85.50630000
80.12250000 -45.03810000 -68.17660000
81.50630000 -45.07040000 -67.46590000
80.73650000 -44.35880000 -68.10890000
82.31320000 -44.56360000 -67.23260000
77.41250000 -42.83560000 -69.52740000
78.04410000 -43.77500000 -69.29960000
77.29490000 -41.79550000 -69.81080000
78.67540000 -42.72660000 -69.55490000
96.67650000 12.29760000 -38.74270000
97.22680000 11.62730000 -36.78210000
98.04390000 12.07140000 -34.83440000
100.86790000 17.31300000 -30.20290000
100.27240000 15.88770000 -31.11030000
-75.14860000 -38.82020000 -49.42170000
-74.99670000 -38.36360000 -49.18530000
-74.64960000 -39.48140000 -48.68730000
-76.77930000 -37.27110000 -49.64320000
-76.34010000 -37.43600000 -49.78730000
-77.61660000 -35.27720000 -49.89030000
-95.63880000 14.34070000 42.13540000
-95.46240000 13.75200000 42.36800000
-95.11460000 13.33970000 42.93060000
-95.59870000 12.75890000 41.65230000
-95.20010000 11.90820000 42.15690000
-97.66580000 14.90430000 38.26720000
-96.72350000 14.38550000 39.91690000
-96.20180000 14.71290000 41.12350000
-96.37810000 15.28920000 41.16900000
-44.34180000 64.00570000 -107.00470000
-45.23960000 64.52300000 -107.28750000
-43.54710000 64.68390000 -108.03220000
-42.27110000 64.44460000 -108.22070000
-44.60390000 63.43010000 -105.66540000
-43.74880000 63.48730000 -106.06970000
-42.98730000 63.84330000 -107.10680000
-85.34180000 -4.54960000 48.61890000
-84.58500000 -5.73640000 48.85200000
-83.90240000 -7.54340000 48.21160000
-84.42300000 -10.50860000 44.34380000
-83.75480000 -10.28180000 45.62680000
-83.80400000 -11.06660000 44.91710000
-81.82580000 -11.03260000 48.23700000
81.48070000 -63.23310000 -55.67080000
81.21870000 -64.82150000 -54.66200000
81.99830000 -60.66300000 -56.09760000
82.86560000 -57.11170000 -56.35940000
83.87720000 -53.34450000 -56.86560000
84.28270000 -51.70690000 -57.72700000
-82.78900000 -44.70410000 -48.22530000
-81.91400000 -45.15980000 -48.39340000
-85.72490000 -43.39100000 -47.19240000
-84.38300000 -44.02430000 -47.73050000
-86.32680000 -42.33720000 -47.21230000
102.50480000 30.50200000 -36.63570000
103.01430000 30.89420000 -35.17270000
101.46780000 30.73040000 -39.38490000
101.52870000 31.92410000 -39.06730000
99.89740000 31.24440000 -42.99410000
100.40330000 30.65400000 -41.93560000
108.50810000 33.61060000 -9.78930000
108.71550000 33.92180000 -7.50740000
108.34650000 34.51290000 -12.66150000
108.72790000 34.51800000 -7.64890000
108.05160000 33.53060000 -13.73200000
108.27360000 33.31410000 -11.58040000
94.19280000 8.85230000 -46.48710000
94.89790000 10.86080000 -46.38460000
95.31400000 11.33500000 -45.85110000
88.59780000 5.07760000 -54.22560000
89.57000000 5.66620000 -53.04880000
89.77420000 5.17750000 -52.18570000
89.43950000 4.65700000 -52.29400000
90.70680000 6.33440000 -51.57950000
90.44360000 5.40120000 -51.10200000
90.44370000 4.81060000 -50.44120000
-107.90690000 22.62110000 12.93050000
-107.71920000 22.24530000 13.90600000
-107.23430000 22.12600000 16.50490000
-108.59670000 22.48140000 8.16920000
-107.97630000 21.98500000 11.93410000
-105.81660000 22.02640000 22.48710000
-105.28020000 21.78160000 24.40310000
-83.02990000 9.28890000 -63.90170000
-82.99380000 10.54190000 -64.40690000
-83.20530000 12.83330000 -65.16120000
-82.75830000 14.04610000 -66.25770000
-82.07900000 14.18090000 -66.96050000
-101.04620000 44.29640000 34.76180000
-100.69090000 43.48420000 36.06150000
-99.60340000 43.69460000 38.51030000
-99.28910000 44.19350000 39.03250000
-100.38250000 42.75710000 37.21400000
-99.02120000 43.38020000 40.09040000
-97.67420000 43.15040000 43.26830000
-96.46080000 43.16540000 45.78110000
-98.08740000 42.19150000 42.74560000
-96.08990000 42.70410000 46.70640000
-53.48070000 5.04150000 87.34390000
-53.36760000 6.19620000 87.78730000
-52.94040000 3.32240000 86.92180000
-52.19710000 3.85320000 87.42540000
-50.16300000 -0.11170000 86.84670000
-50.40050000 -0.73520000 86.47340000
-49.39980000 -1.08960000 86.91910000
-48.96930000 -0.68770000 87.32790000
-48.61920000 -1.20050000 87.39860000
-47.38150000 -0.59010000 88.37830000
-92.19720000 -12.97720000 -32.85130000
-92.14650000 -13.03480000 -34.07540000
-92.09580000 -12.14030000 -31.95370000
-93.41310000 -16.43490000 -35.93380000
-94.30790000 -18.55060000 -36.27350000
-94.99520000 -19.95190000 -36.92510000
91.38090000 -10.23700000 26.08010000
92.33260000 -8.69300000 26.05720000
87.73140000 -14.20120000 29.04920000
89.47070000 -12.64490000 27.01360000
115.94440000 68.16580000 -25.84910000
116.25000000 67.84060000 -25.13500000
116.07940000 67.73920000 -23.84130000
116.53750000 67.50660000 -23.70380000
114.99400000 67.78900000 -26.07620000
115.39920000 68.10130000 -26.10160000
114.92010000 67.42510000 -25.36100000
-9.72340000 3.17090000 102.63260000
-9.02020000 2.32880000 102.41840000
-8.34900000 2.34000000 102.59560000
-10.38020000 2.71840000 102.21630000
-9.05640000 1.81020000 102.12370000
-7.82080000 1.62570000 102.29760000
-11.21360000 7.60700000 104.03880000
-11.45880000 9.40770000 104.48060000
-11.99210000 10.69210000 104.65610000
-10.37590000 7.71590000 104.23780000
-10.89570000 9.98510000 104.74500000
-11.44540000 12.62110000 105.24980000
-50.00620000 1.16840000 87.83010000
-50.09240000 0.35250000 87.21530000
-49.15330000 -0.21940000 87.51260000
-48.71310000 0.14310000 88.04570000
-52.11570000 6.98260000 88.76940000
-52.25490000 8.50590000 89.28840000
-51.10960000 5.04020000 88.84730000
-51.92280000 8.56710000 89.60470000
60.39490000 33.85060000 91.48490000
61.99150000 32.73420000 90.36980000
62.67270000 33.37870000 90.03500000
62.22660000 34.32720000 90.41080000
63.69590000 31.51540000 89.12800000
63.62690000 33.21900000 89.39070000
63.72060000 35.20490000 89.53480000
64.89110000 43.98340000 88.21180000
65.26280000 42.35680000 87.96510000
64.54550000 40.73750000 88.69880000
65.08890000 39.49000000 88.27190000
42.28030000 24.17970000 101.09130000
41.94340000 23.26950000 100.79260000
41.12290000 21.67800000 100.73280000
-11.43330000 4.99630000 102.89450000
-10.60720000 4.63160000 102.98660000
-10.61970000 5.50300000 103.40810000
-13.54090000 8.54930000 103.90280000
-13.34580000 6.83770000 103.44930000
-12.79210000 5.69150000 103.10510000
-14.24460000 8.87340000 103.93790000
-13.82240000 6.63620000 103.35310000
-51.12110000 1.35470000 86.92680000
-50.87470000 1.41450000 87.19170000
-51.11210000 2.32200000 87.55000000
-51.12130000 0.54430000 86.59820000
-51.64200000 1.08780000 86.61230000
-91.95700000 -49.58010000 -29.92940000
-91.47630000 -49.58740000 -30.19880000
-91.48140000 -51.60550000 -29.96930000
-91.03100000 -50.82100000 -30.33830000
-92.25100000 -50.34970000 -29.10800000
-92.15750000 -49.90410000 -28.64560000
-92.41600000 -48.45120000 -28.45620000
-58.39730000 -40.70200000 5.77990000
-56.66600000 -41.05270000 4.54200000
-54.27050000 -41.65360000 5.25890000
-54.13700000 -41.67080000 6.24460000
-55.59300000 -41.32340000 3.13280000
-52.36900000 -42.11780000 5.08640000
-62.10810000 -40.04010000 3.06640000
-61.31520000 -40.09100000 3.68880000
-61.31430000 -40.24750000 4.54160000
-61.20820000 -39.95160000 1.68830000
-60.39760000 -40.12850000 3.26530000
-59.96090000 -40.28170000 4.46170000
-11.61900000 3.00740000 102.29240000
-10.71680000 1.71280000 102.02220000
-9.64940000 1.20130000 101.90820000
-12.07870000 4.62210000 102.74550000
65.77410000 29.87100000 87.71200000
66.96770000 30.50990000 86.70510000
66.61610000 31.47630000 86.87010000
64.51590000 33.09720000 88.71330000
64.95050000 33.94290000 88.46020000
65.16890000 32.38140000 88.07800000
66.15920000 33.20600000 87.40760000
-91.49990000 52.20490000 -56.95910000
-90.64240000 52.14590000 -58.27690000
-90.37610000 50.96520000 -58.72380000
-89.60050000 50.83610000 -60.12870000
-90.12680000 51.47870000 -58.92690000
-108.80880000 111.07880000 -11.61470000
-109.22430000 115.06900000 -11.34150000
-109.08260000 115.70130000 -10.75720000
-108.77380000 114.10640000 -10.49120000
-109.16560000 117.49020000 -10.13190000
-108.69980000 116.27230000 -9.20210000
-108.59410000 118.85460000 -6.72700000
-108.05240000 119.24910000 -4.41960000
-107.89030000 119.91060000 -3.33040000
106.21100000 105.92610000 -25.28110000
106.71860000 105.86190000 -26.41520000
104.87270000 105.99290000 -24.96040000
104.03160000 106.21360000 -24.06510000
103.51740000 106.24950000 -24.95690000
-36.71850000 3.37690000 -92.38450000
-34.77710000 1.65510000 -92.35850000
-31.42460000 -1.89450000 -91.91260000
-32.56760000 -0.67210000 -92.09780000
23.16670000 58.75870000 106.24500000
23.71800000 59.06610000 106.61490000
22.36690000 60.07100000 109.84110000
23.46340000 59.92780000 109.17400000
23.96090000 59.54720000 107.79700000
65.90330000 34.76440000 87.66660000
66.48120000 34.60240000 87.28980000
66.65610000 35.68370000 87.21760000
67.01020000 33.66920000 86.88220000
67.58440000 34.58730000 86.59520000
65.23780000 34.84750000 88.23570000
64.86260000 36.03330000 88.57240000
102.46140000 106.70850000 -26.02380000
102.36340000 107.11030000 -24.99530000
102.82810000 106.45020000 -25.44150000
101.88400000 113.24160000 -25.95830000
101.30770000 111.91090000 -29.55010000
101.51290000 111.08710000 -28.55310000
101.85330000 111.25380000 -26.74240000
101.38720000 109.96570000 -29.57200000
101.87320000 109.57170000 -27.03020000
31.36580000 -24.66870000 77.74960000
33.08480000 -23.64100000 78.30130000
37.18120000 -21.40810000 78.97650000
40.37020000 -19.77670000 79.15660000
41.13640000 -20.89880000 77.56240000
39.59160000 -22.26160000 76.85200000
-61.21520000 -40.62690000 9.66810000
-60.63450000 -40.83410000 10.21910000
-60.81540000 -40.85860000 10.64500000
-59.99620000 -40.79840000 9.39080000
-59.44090000 -41.01090000 10.67190000
-59.10430000 -41.18230000 11.52870000
-57.83710000 -41.14370000 11.68210000
-57.02070000 -41.28490000 12.59450000
-57.35670000 -41.06730000 11.43310000
107.75170000 116.82190000 -48.92500000
107.85980000 115.05530000 -49.08020000
107.88880000 118.24830000 -48.63190000
107.87780000 112.07830000 -49.28360000
28.72540000 57.20680000 104.04520000
26.57210000 56.70900000 104.51680000
27.09280000 55.60790000 104.31870000
28.66920000 55.51120000 103.94330000
26.31500000 54.67320000 104.52560000
26.13750000 57.51920000 104.91830000
27.10840000 58.00960000 104.87780000
-88.80030000 -87.79280000 -28.91990000
-88.64840000 -89.40830000 -28.88920000
-88.40510000 -90.65740000 -28.22740000
-87.61660000 -90.91140000 -26.36200000
-87.33990000 -90.99350000 -25.97320000
-87.14110000 -89.19810000 -25.52740000
67.59970000 -37.10520000 -69.41470000
67.46840000 -38.78710000 -69.28620000
66.39840000 -40.74820000 -68.90500000
65.06190000 -42.98320000 -68.38800000
65.75220000 -42.66430000 -68.59750000
-26.56230000 58.40140000 -101.07080000
-25.56510000 59.62670000 -101.16010000
-26.15000000 56.40730000 -101.31750000
-28.34560000 45.48940000 -101.24670000
-27.27100000 47.15400000 -101.42490000
-27.39430000 49.59160000 -101.27520000
-116.88070000 64.33030000 16.14750000
-116.97560000 63.43970000 14.89780000
-116.81970000 63.23850000 16.12910000
-116.67370000 63.57490000 17.52440000
-117.00750000 62.55570000 13.19720000
-116.70520000 62.59660000 15.98750000
-115.88550000 61.75400000 18.41600000
-115.54140000 61.30150000 18.18330000
-115.20760000 61.31600000 19.81120000
-115.43860000 60.80840000 16.52280000
-114.56160000 60.33250000 17.98410000
-91.10140000 -75.25750000 -32.19260000
-90.48240000 -78.83300000 -31.53370000
-90.22550000 -80.31670000 -30.50770000
-89.43960000 -84.33060000 -29.63510000
-89.06790000 -86.06470000 -29.07830000
-8.43660000 22.39980000 -105.60250000
-6.91710000 23.32850000 -105.87080000
-4.87880000 22.97070000 -105.94390000
-4.97640000 22.27860000 -105.80520000
-9.49130000 23.63330000 -105.69620000
-11.47640000 23.22360000 -105.46000000
-117.61470000 97.92260000 -13.29240000
-117.52530000 95.50250000 -13.47300000
-117.61730000 93.83040000 -13.52550000
-117.17470000 98.10170000 -13.37770000
-117.23250000 94.66390000 -13.64390000
-117.68510000 89.13020000 -13.48900000
-117.93380000 88.59470000 -12.15250000
-118.03590000 91.20190000 -12.25280000
-117.90800000 92.45110000 -13.11970000
44.56400000 64.03970000 106.42690000
45.40710000 64.16260000 106.99520000
43.13930000 64.28940000 108.27820000
44.53330000 64.37450000 108.51190000
36.73320000 64.30700000 111.76600000
37.36090000 64.36410000 111.19510000
37.34970000 64.21570000 111.85450000
39.88060000 64.36860000 110.92490000
-116.45320000 63.71270000 18.57400000
-116.44910000 64.15700000 18.17520000
-116.13840000 63.45470000 19.85320000
-115.94020000 63.87590000 19.97070000
-115.93600000 64.54990000 16.76460000
-115.53920000 64.08960000 18.52530000
-115.11580000 63.74580000 18.44680000
-115.00220000 63.70070000 17.65160000
-33.52190000 -40.58740000 47.86780000
-34.48760000 -40.73650000 46.55970000
-33.58260000 -41.48610000 46.03710000
-32.73950000 -41.68840000 46.77450000
-35.47700000 -39.82530000 48.13800000
-35.23430000 -39.36850000 49.55800000
64.11470000 -5.90040000 77.23990000
64.07010000 -5.33000000 77.59960000
62.14920000 -5.08440000 79.28810000
65.51030000 -5.09990000 76.47100000
58.11730000 -5.09340000 82.32030000
59.93290000 -4.85850000 81.05460000
-93.76880000 -10.37610000 23.65250000
-94.37520000 -9.25990000 23.64610000
-93.01060000 -10.94910000 25.04630000
-91.65620000 -12.25070000 26.71010000
-90.77360000 -13.30630000 27.24840000
-103.88020000 25.02960000 17.27870000
-103.53170000 23.68890000 18.47550000
-104.89770000 29.86870000 12.40370000
-104.70480000 27.85280000 13.16480000
-116.95010000 63.88760000 14.73360000
-117.00920000 63.49920000 14.31880000
-116.95580000 63.50720000 13.58120000
-117.02840000 63.11840000 13.33910000
-116.14220000 64.17100000 15.36180000
-115.49610000 63.66230000 15.44870000
-115.07020000 63.59460000 16.20290000
-92.22240000 40.16570000 48.99580000
-91.15000000 40.59090000 50.94940000
-90.73570000 39.39910000 51.68530000
-92.27630000 43.28810000 48.78680000
-90.60530000 42.18640000 51.85780000
-94.88340000 29.00270000 43.94160000
-93.57330000 30.43860000 46.23010000
-92.95360000 29.89440000 47.46190000
-93.22180000 29.07120000 47.12810000
-92.28790000 31.86390000 48.26810000
-92.05960000 30.42930000 49.04230000
-65.53600000 -23.79880000 -47.98320000
-63.51810000 -24.14550000 -49.78930000
-62.41900000 -25.11400000 -49.27390000
-67.76140000 -23.41090000 -45.90690000
-68.79760000 -22.31180000 -46.53860000
-101.34290000 -1.05710000 1.26810000
-101.06560000 -1.85820000 0.52980000
-100.93510000 -2.42060000 0.52440000
-101.26450000 -0.95540000 -0.02020000
-100.89960000 -2.14110000 -0.58120000
-100.60160000 -3.21710000 -1.80780000
-100.85040000 -2.22290000 -10.83110000
-100.52180000 -2.81270000 -11.61940000
-101.43640000 -0.52530000 -12.13300000
-100.62310000 -2.32440000 -12.74510000
113.22880000 91.96990000 -0.48220000
114.39930000 91.52510000 -0.67920000
112.44650000 92.56870000 -0.38390000
113.94330000 92.20600000 -0.62060000
112.90440000 96.74630000 -0.51210000
113.90530000 97.31690000 -1.37550000
114.40410000 96.59160000 -1.40740000
114.30980000 95.97790000 -1.04470000
-79.54900000 -1.94100000 59.27030000
-78.73860000 -1.14740000 60.84870000
-80.05300000 6.22260000 63.26370000
-79.82160000 6.28740000 63.60780000
-79.49330000 3.83600000 62.76430000
-116.79470000 63.68030000 -15.78070000
-117.31110000 63.73310000 -14.64800000
-117.18410000 64.00130000 -14.21580000
-116.79390000 64.00950000 -14.58380000
-116.10670000 62.78760000 -21.71630000
-116.41950000 62.95120000 -19.81550000
-84.24930000 41.72920000 61.42910000
-83.42920000 41.30260000 62.47750000
-82.69790000 39.24530000 63.50710000
-83.16230000 42.53180000 62.74940000
-81.26860000 40.30460000 65.23160000
-82.75620000 45.80410000 63.54450000
-83.63710000 45.81930000 62.29330000
-82.08600000 44.13950000 64.37200000
-83.36640000 44.59000000 62.58120000
-97.75580000 56.95510000 -39.72960000
-96.79910000 57.69660000 -41.75400000
-98.87400000 55.13310000 -37.62970000
-99.18520000 53.19170000 -37.15400000
-98.67290000 53.40720000 -38.27310000
-98.31310000 54.91190000 -38.89710000
-101.56820000 -1.03510000 -4.40080000
-101.59690000 -0.92200000 -3.16720000
-101.36610000 -1.35800000 -5.08130000
-101.13810000 -1.72870000 -3.10180000
-100.78500000 -2.17490000 -6.57650000
-101.08650000 -1.27590000 -8.80560000
-100.88960000 -1.90730000 -8.93090000
-100.65260000 -2.70340000 -7.53570000
-101.68350000 0.42290000 -10.79540000
-101.00330000 -1.70650000 -9.94280000
113.73600000 100.67030000 -2.00250000
114.03960000 101.11360000 -2.06230000
112.93060000 98.07090000 -0.94160000
113.62440000 97.94000000 -1.38350000
113.92430000 98.52590000 -1.81130000
4.80150000 -103.87060000 84.89410000
4.95610000 -101.41570000 84.96380000
5.00470000 -102.23560000 84.09870000
4.90170000 -104.27730000 83.84220000
5.11490000 -101.31680000 83.79450000
4.99990000 -100.73410000 86.37130000
5.12180000 -99.77460000 86.94510000
4.86040000 -103.43310000 87.16100000
5.10780000 -101.02440000 87.67540000
-93.45760000 34.77980000 46.79700000
-93.65750000 33.74230000 46.33520000
-92.86330000 35.21590000 47.76340000
-92.94410000 33.96220000 47.46080000
-90.55610000 34.80080000 51.19090000
-90.65720000 36.05420000 51.16810000
-90.36800000 35.89260000 52.00210000
-90.16970000 35.06000000 52.36970000
-90.81230000 37.31360000 51.17700000
-90.24730000 36.36410000 52.44500000
-89.57760000 35.14420000 53.88910000
58.00710000 32.99210000 92.95700000
57.46020000 33.50350000 93.31990000
59.72170000 32.73890000 91.83260000
52.24720000 34.46880000 96.11860000
54.78490000 34.09900000 94.83640000
-103.48190000 5.16360000 -9.67180000
-102.89180000 3.61640000 -10.14800000
-102.28970000 1.58910000 -9.97600000
-104.28690000 8.19130000 -10.03140000
-103.05020000 4.41130000 -10.56360000
-101.63610000 -0.28520000 -9.00790000
-101.29720000 -0.98510000 -8.37050000
-101.20210000 -1.42610000 -6.97520000
115.61900000 92.72620000 -2.23920000
115.89550000 92.06560000 -2.24220000
116.20640000 92.61620000 -2.80100000
116.38190000 91.69390000 -2.55860000
116.40620000 96.76590000 -3.82640000
116.40080000 95.64700000 -3.55110000
116.74510000 97.03730000 -3.92210000
107.81980000 68.14480000 8.73230000
107.74320000 69.51840000 8.60280000
107.72860000 66.07360000 8.54670000
107.56860000 65.14460000 8.45190000
107.36240000 66.02550000 6.96940000
107.27910000 64.82320000 7.46300000
52.84860000 -37.88290000 -31.86620000
54.10250000 -37.43250000 -32.18270000
53.23490000 -37.28310000 -33.42990000
54.83250000 -36.91830000 -33.24790000
53.73130000 -36.72950000 -36.99040000
53.55620000 -36.43460000 -36.73370000
54.65540000 -36.92670000 -36.47930000
55.01200000 -36.52860000 -35.39560000
-78.19880000 55.53090000 -71.12510000
-78.33550000 58.21420000 -70.58060000
-78.23780000 60.30800000 -70.56080000
-77.91920000 59.52490000 -70.92200000
-87.40240000 36.52830000 57.02170000
-86.49290000 37.75410000 58.16810000
-85.92720000 37.31980000 58.81830000
-86.16800000 36.52960000 58.45020000
-87.63850000 33.23740000 56.74310000
-86.66370000 33.00070000 58.17890000
-87.37580000 34.19510000 56.94500000
-86.18080000 33.48290000 58.75190000
115.24470000 94.09290000 -1.50840000
115.48990000 94.13720000 -1.93610000
115.49220000 93.70560000 -2.16010000
115.68790000 94.71800000 -2.25990000
115.92140000 94.36290000 -2.80140000
114.28930000 95.50590000 -0.87250000
113.67400000 95.50770000 -0.60700000
114.79590000 94.87060000 -1.07650000
114.20880000 94.48200000 -0.75470000
107.06900000 62.98430000 2.02660000
106.95340000 62.89950000 2.75730000
107.11470000 63.47060000 3.30040000
106.78840000 62.65680000 3.37500000
106.95210000 63.43090000 4.56200000
107.11200000 64.63200000 5.82200000
107.10620000 64.29620000 6.48580000
106.97200000 63.44430000 5.91140000
-96.91680000 -6.38450000 -22.14250000
-96.31720000 -7.59630000 -22.09280000
-100.52890000 1.13730000 -21.49120000
-100.09420000 0.35340000 -22.27930000
-100.15340000 0.12260000 -22.00950000
-78.77570000 39.94760000 71.72790000
-76.12200000 39.19510000 74.38290000
-74.52590000 39.31780000 76.11540000
-75.40260000 39.77190000 75.28600000
-72.71700000 38.44310000 77.78940000
-71.79680000 39.07590000 78.79110000
-71.65960000 39.70060000 79.02330000
-68.96170000 38.97980000 81.34670000
-67.84730000 39.35010000 82.37910000
-68.21300000 38.57300000 81.97200000
-66.95430000 41.24610000 83.20090000
-65.33700000 40.20830000 84.56200000
-63.62670000 40.75060000 85.91370000
-63.49790000 41.57590000 85.94510000
-69.37420000 40.35020000 81.13850000
-67.39270000 39.91400000 82.83330000
24.82580000 -121.08670000 82.63060000
24.56060000 -121.08880000 81.87000000
23.82830000 -121.02910000 81.05640000
22.64650000 -120.53920000 78.99510000
22.95550000 -120.74950000 79.85350000
-91.24340000 33.39510000 49.92900000
-91.10350000 32.95610000 50.36570000
-91.39460000 31.93500000 50.01340000
-90.60350000 33.56730000 51.35580000
-90.56470000 32.09340000 51.66960000
-92.30830000 35.24470000 48.38150000
-92.22090000 34.32340000 48.31580000
-91.92960000 35.93520000 48.93040000
-91.44700000 34.93190000 49.26770000
17.96460000 -4.58800000 97.14070000
19.97660000 -4.47620000 96.87440000
21.33140000 -2.82270000 97.50100000
28.81930000 -5.31230000 94.44680000
28.84190000 -4.16660000 95.01450000
26.92990000 -2.83310000 96.21570000
-102.72310000 4.90800000 -17.37050000
-102.18270000 3.79460000 -17.72860000
-103.37240000 7.14910000 -17.58140000
-102.94560000 6.78000000 -18.44330000
-104.69040000 10.48210000 -15.22010000
-104.62150000 9.65640000 -14.11690000
-104.40800000 10.09250000 -16.78840000
-74.59590000 37.31030000 76.11290000
-76.31670000 37.71950000 74.22690000
-71.70700000 37.54020000 78.94330000
-68.85440000 37.94600000 81.49960000
-70.69990000 -33.98080000 19.97960000
-69.50320000 -34.36200000 21.55690000
-70.53590000 -34.39420000 18.12240000
-68.19280000 -34.36230000 25.06440000
-67.91770000 -34.05880000 27.01760000
-69.10550000 -33.33570000 27.10300000
50.31500000 -3.02250000 -85.97800000
51.81470000 -2.05260000 -85.53500000
53.12050000 -2.33910000 -84.66320000
53.22150000 -2.89840000 -84.36790000
49.77500000 -6.95220000 -83.89870000
49.61880000 -5.66560000 -84.80470000
-90.25700000 34.11790000 52.21960000
-90.04590000 33.62650000 52.82490000
-88.91270000 33.51920000 54.92080000
-88.40190000 33.77680000 55.65360000
-88.44920000 34.59360000 55.53110000
22.28310000 -1.42110000 97.99190000
24.05030000 -1.49480000 97.57390000
21.39250000 -0.09150000 98.74330000
19.54560000 1.38270000 99.60110000
20.90730000 1.13940000 99.29960000
20.24120000 3.32110000 100.17740000
21.79840000 2.23630000 99.52750000
13.90170000 48.77550000 106.71090000
12.45260000 48.23660000 106.78750000
9.98220000 50.02670000 106.58100000
11.43140000 48.44060000 106.71900000
11.68460000 47.21200000 106.74670000
-103.12810000 7.43830000 -19.29430000
-102.51850000 5.54050000 -19.48580000
-102.12010000 4.45420000 -19.18860000
-104.14680000 11.20800000 -18.81000000
-104.35040000 12.47730000 -19.59050000
-104.05620000 11.14150000 -19.81910000
-103.76970000 9.83580000 -19.49840000
-47.58730000 -42.64360000 27.61000000
-46.62280000 -42.71060000 27.74830000
-44.72870000 -42.78160000 29.56680000
-48.55650000 -42.26390000 27.29260000
-103.39830000 35.06140000 -33.34440000
-103.35440000 34.25010000 -33.51260000
-103.32990000 36.30520000 -33.70820000
-102.87570000 38.91050000 -34.84650000
-102.39540000 39.24290000 -36.27980000
102.75100000 19.50630000 25.54830000
102.94860000 18.31990000 23.60540000
102.66360000 16.52430000 23.21800000
103.38450000 22.50790000 24.88480000
103.31960000 19.07460000 22.48790000
103.25230000 16.22000000 20.01110000
101.05710000 10.20800000 22.90590000
101.78520000 12.07040000 22.03760000
-94.62560000 2.74560000 37.45670000
-94.59160000 1.75700000 36.22120000
-94.28780000 0.73810000 36.14840000
-94.21400000 1.01930000 36.92030000
-94.01420000 -0.22150000 35.68420000
-95.61690000 9.24610000 39.55020000
-95.35760000 7.44580000 39.12960000
-17.09500000 22.60730000 106.67320000
-15.07750000 23.00460000 107.19680000
-17.04730000 21.84630000 106.37490000
-7.79750000 23.83030000 108.37490000
-8.98340000 23.28680000 108.04440000
-10.73950000 23.69940000 108.04160000
-11.47530000 23.06030000 107.71160000
-23.04020000 49.51390000 104.32790000
-20.71100000 49.43640000 104.81420000
-23.05770000 48.56540000 104.43010000
-19.81640000 48.81510000 105.07370000
-28.46270000 49.69580000 102.84750000
-26.68700000 49.58980000 103.39800000
-14.33190000 51.37150000 -105.41850000
-13.04040000 50.69890000 -105.54490000
-13.19320000 51.49410000 -105.38660000
-14.99340000 54.96750000 -104.88230000
-13.74420000 55.24350000 -105.02580000
-11.73620000 54.97490000 -105.22030000
51.15520000 -16.21870000 -73.37680000
52.44700000 -15.35270000 -73.36830000
53.19700000 -16.71570000 -71.56700000
53.96710000 -15.13460000 -72.56430000
49.42480000 -18.12010000 -72.54620000
49.34570000 -17.29050000 -73.44100000
-104.88730000 29.50520000 -26.44720000
-105.21590000 29.21330000 -25.29650000
-104.40180000 29.38270000 -28.59940000
-103.58180000 30.58300000 -32.33090000
-103.47380000 31.29990000 -32.55120000
-103.65650000 30.26720000 -31.62360000
-103.57240000 31.17730000 -31.43890000
-82.38180000 64.29910000 -84.43090000
-82.41120000 63.92720000 -84.12540000
-81.35200000 64.34260000 -85.37110000
-80.06500000 63.76490000 -86.08780000
-82.67180000 62.55580000 -81.74020000
-83.86640000 63.33330000 -81.90520000
-82.47260000 63.47490000 -83.48560000
-81.26640000 63.17690000 -84.14400000
-8.24040000 50.27410000 106.19360000
-11.68520000 49.61310000 106.03150000
-10.09650000 49.31790000 106.24180000
-7.32980000 49.50380000 106.39050000
-11.05190000 48.86430000 106.23490000
-19.40790000 47.96000000 105.11220000
-17.84260000 47.78610000 105.35430000
-14.99740000 48.17060000 105.81020000
-22.58610000 46.98370000 104.50350000
-18.16820000 47.22850000 105.29980000
-13.81840000 47.49930000 105.95570000
-70.29900000 -66.85480000 -35.48820000
-71.10080000 -65.90420000 -35.33920000
-71.48160000 -67.11830000 -34.94510000
-71.70830000 -63.59200000 -35.61390000
-72.30070000 -61.39060000 -35.97540000
-73.26410000 -60.79430000 -35.81550000
-24.29840000 53.66490000 -103.55820000
-21.77520000 53.89030000 -104.00850000
-25.42860000 54.49360000 -103.11270000
-20.86950000 54.37480000 -104.06290000
-33.90740000 53.45500000 -101.05110000
-31.26640000 53.87100000 -101.69470000
-28.59320000 53.61450000 -102.50280000
-31.15780000 54.43320000 -101.60000000
25.92360000 -108.85650000 85.94600000
26.18100000 -109.86980000 86.15660000
26.18870000 -110.34210000 85.60060000
26.08650000 -114.00110000 83.04710000
26.50130000 -114.37610000 83.57660000
26.09010000 -112.08050000 84.03390000
26.70910000 -113.57150000 84.45550000
-8.32620000 45.65890000 106.91800000
-7.60040000 46.17760000 106.86330000
-9.53260000 46.53950000 106.62570000
-18.70740000 46.46330000 105.38990000
-17.11580000 46.78450000 105.59260000
-14.04680000 46.78400000 106.10730000
7.90210000 -113.86460000 75.55360000
7.28380000 -115.47050000 75.33880000
8.52010000 -113.48940000 75.67430000
8.99870000 -116.72180000 75.69060000
9.26430000 -117.23510000 75.97830000
9.87610000 -115.18660000 76.04310000
9.79440000 -116.91350000 76.27990000
-102.20090000 107.01460000 26.65680000
-101.86010000 106.57850000 28.88560000
-102.26620000 108.16910000 26.56680000
-101.49830000 104.68090000 31.50460000
-101.26780000 105.71650000 32.56100000
-101.21350000 105.25650000 33.27530000
-101.35050000 104.34790000 32.80220000
-101.11350000 105.18800000 34.09560000
-101.26310000 103.94050000 33.73350000
-55.87300000 -39.62510000 9.85570000
-56.07820000 -39.44120000 12.52060000
-55.44250000 -39.79040000 5.78850000
-54.62190000 -40.01570000 4.79610000
-54.81820000 -39.89290000 2.31020000
58.54490000 35.21040000 -88.40610000
59.64870000 34.46080000 -87.73250000
61.48490000 34.38480000 -86.57500000
55.50140000 44.12300000 -90.13670000
55.68740000 42.21390000 -90.13780000
54.89200000 41.35480000 -90.62960000
7.38880000 24.50840000 108.41920000
5.22300000 24.95640000 108.65880000
2.28300000 24.81030000 108.78230000
9.97760000 24.05180000 108.06080000
13.12070000 24.09550000 107.84130000
8.85390000 23.55560000 107.97000000
14.26930000 23.00060000 107.38500000
2.73890000 37.82310000 107.69180000
2.19210000 36.31320000 107.85520000
2.55830000 35.31460000 107.80520000
2.98820000 35.59770000 107.73120000
0.78850000 42.47790000 107.65330000
1.47660000 41.98890000 107.68240000
0.69600000 39.45060000 107.97040000
1.70170000 40.41860000 107.80550000
-107.75690000 105.90910000 -7.32330000
-107.49740000 105.27790000 -5.96470000
-109.21250000 106.33760000 -12.74760000
-109.00100000 106.26820000 -12.58750000
12.09230000 -37.51200000 -54.91800000
13.94130000 -37.35210000 -54.93360000
23.78620000 -35.52920000 -57.55760000
23.29300000 -36.07940000 -56.25700000
23.77730000 -88.36310000 89.05520000
23.49580000 -89.28250000 89.85960000
22.96740000 -88.94800000 90.78270000
23.13650000 -90.10000000 90.58180000
17.38210000 29.36630000 107.47140000
18.31240000 29.85560000 107.40860000
17.21950000 28.19030000 107.57240000
18.49220000 28.36250000 107.57530000
17.29220000 27.31910000 107.76860000
18.01520000 27.19730000 107.88600000
63.64880000 26.36060000 -84.60100000
65.66810000 24.18190000 -82.68140000
65.87190000 26.19040000 -82.79890000
64.76860000 28.43420000 -83.97280000
63.06170000 33.57050000 -85.49210000
63.80230000 31.89140000 -84.93800000
-3.52510000 -39.65530000 -54.57260000
-2.01750000 -39.67770000 -54.24130000
-2.41090000 -39.82450000 -52.92890000
-1.54450000 -40.14180000 -51.49380000
1.21280000 -40.22930000 -51.40320000
-68.70100000 -13.26030000 -59.62220000
-65.89520000 -14.79240000 -60.67890000
-63.75430000 -15.06860000 -62.47310000
-65.13190000 -16.15870000 -59.79850000
-60.27750000 -18.01160000 -62.41290000
-74.35090000 -12.20150000 -54.07120000
-72.91960000 -12.97670000 -54.97500000
-71.60350000 -12.62970000 -57.05590000
20.65010000 -90.43190000 93.66020000
21.28340000 -89.56930000 92.99890000
21.66420000 -90.27970000 92.63160000
19.68690000 -91.96850000 94.45190000
19.96410000 -90.69220000 94.21730000
-93.83140000 17.66070000 43.00780000
-93.13150000 18.98360000 44.86490000
-92.39400000 18.69940000 46.20450000
-95.05250000 16.25430000 39.85530000
-95.73270000 14.66960000 37.60880000
-106.63610000 49.05170000 10.32140000
-106.44930000 49.26800000 12.25780000
-106.18730000 48.93710000 13.91150000
-104.91260000 48.85150000 20.81050000
-104.19650000 48.53930000 23.52290000
-44.37060000 36.62890000 -98.10620000
-42.13370000 35.78270000 -98.82410000
-44.22920000 35.48950000 -97.91910000
-45.94750000 35.68550000 -97.26700000
-44.14820000 35.05120000 -97.86450000
-47.44470000 35.02190000 -96.44200000
-39.22060000 36.12870000 -99.94850000
-38.76680000 36.65150000 -100.16380000
-84.49830000 28.69800000 -65.23630000
-83.53600000 29.99250000 -66.51250000
-80.65070000 38.73260000 -70.16000000
-82.42610000 35.86680000 -68.13160000
-81.44810000 34.69220000 -69.19480000
-80.04620000 35.80410000 -70.75560000
-81.91260000 32.67180000 -68.57500000
-91.24330000 -16.39730000 -21.57790000
-91.44580000 -16.62930000 -22.81130000
-91.31970000 -17.46750000 -22.25890000
-91.07810000 -17.92120000 -21.60620000
-89.06610000 -20.47870000 -18.48570000
-88.79680000 -21.02230000 -18.24560000
-88.22700000 -21.51640000 -17.62710000
-65.44080000 -35.16710000 -10.79750000
-64.02020000 -35.60710000 -11.75060000
-66.00140000 -35.21700000 -8.64220000
-70.52950000 -33.15550000 -7.28990000
-69.53670000 -33.82170000 -5.95930000
-68.10200000 -34.51540000 -6.29450000
109.06500000 40.70950000 -7.12170000
108.85280000 41.53330000 -8.67580000
109.02520000 42.05720000 -5.82920000
109.22370000 41.80340000 -3.77760000
108.48320000 42.21100000 -11.66920000
108.96810000 42.67390000 -5.73200000
109.10570000 39.47820000 -0.03660000
109.11270000 39.53570000 -1.62680000
109.20580000 40.12640000 -1.60850000
109.03870000 38.78650000 -1.03830000
109.07110000 39.03640000 -2.77100000
-51.05640000 2.81180000 -85.55010000
-49.23750000 1.50690000 -85.93570000
-54.01470000 3.05440000 -83.90510000
-52.77460000 3.95010000 -85.09320000
-62.30450000 43.90270000 -88.42820000
-62.11740000 43.20210000 -88.56230000
-60.70960000 41.97420000 -89.66260000
-61.53630000 42.08100000 -89.01820000
-69.21270000 47.11530000 -83.21450000
-65.82040000 48.07090000 -85.55320000
-64.89790000 47.85130000 -86.34840000
-66.26350000 47.28290000 -85.48230000
-63.04030000 47.93210000 -87.67270000
-63.88260000 46.95290000 -87.26190000
13.50810000 34.36970000 -105.99250000
14.06170000 35.31740000 -105.79480000
17.34150000 35.41940000 -105.31810000
18.71900000 35.13670000 -105.13830000
14.08340000 35.96370000 -105.69400000
18.16020000 35.92750000 -105.12360000
8.82790000 35.21960000 -106.28650000
10.67420000 35.46990000 -106.09290000
4.80100000 36.02320000 -106.45140000
9.82620000 35.99070000 -106.09200000
-115.65730000 60.07260000 -5.81810000
-116.07000000 60.30430000 -4.12600000
-117.42140000 61.71710000 -1.18760000
-117.15950000 61.38830000 -3.35100000
-116.75080000 60.85710000 -2.72640000
-117.26760000 61.58170000 -5.59770000
5.63200000 2.00470000 102.77710000
6.20790000 2.08660000 102.92260000
6.87420000 -0.34260000 101.96400000
7.24740000 0.67530000 102.48100000
4.14580000 2.51700000 103.05580000
5.01860000 1.52480000 102.64690000
5.39600000 -0.00670000 102.16320000
7.37910000 33.47380000 -106.32970000
8.73530000 33.18830000 -106.19140000
12.20620000 33.37960000 -105.96420000
18.58460000 34.36440000 -105.23000000
18.35940000 33.83160000 -105.22860000
16.49560000 33.55470000 -105.48240000
-59.80320000 42.59700000 -90.03940000
-59.75980000 40.70650000 -90.03970000
-60.20870000 39.38810000 -89.86090000
-59.40070000 40.12080000 -90.19350000
-60.13100000 36.93690000 -89.78330000
-59.01330000 39.55990000 -90.51280000
-59.14030000 37.65940000 -90.52340000
-58.54020000 40.51660000 -90.84890000
-58.53040000 38.31160000 -90.99650000
-77.66110000 -4.54940000 -57.87400000
-76.08830000 -5.61480000 -58.88910000
-74.48990000 -7.38430000 -59.17070000
-74.13600000 -8.45740000 -58.53160000
-72.59360000 -9.33070000 -59.51200000
1.03980000 -36.72130000 96.53000000
1.23430000 -35.14870000 97.06770000
1.61270000 -38.21980000 97.04350000
2.38590000 -36.79320000 98.25510000
2.21050000 -38.90510000 97.89220000
2.90910000 -38.28470000 98.94260000
44.97300000 -41.20550000 -26.49190000
46.67970000 -40.92800000 -25.91540000
47.65330000 -40.47150000 -26.83700000
48.68750000 -39.59210000 -29.63620000
49.23970000 -39.10730000 -31.04010000
51.20320000 -38.45740000 -31.59810000
47.71100000 -39.19370000 -32.17710000
50.75000000 -38.02370000 -33.62970000
-24.12640000 -0.38430000 -96.58920000
-23.65340000 -1.66610000 -96.13890000
-23.98170000 1.03940000 -97.29060000
-22.63190000 -0.70560000 -96.95260000
-26.71740000 -5.07300000 -93.59980000
-25.10320000 -4.64610000 -94.21280000
-103.12820000 58.49530000 -21.43360000
-102.84790000 58.32950000 -22.69890000
-102.47140000 58.51880000 -24.59040000
-103.80070000 58.90230000 -17.46790000
-104.12330000 58.44890000 -13.94190000
-103.91210000 58.21990000 -15.49810000
-103.61500000 58.40940000 -18.19960000
-86.84030000 -41.49830000 -47.23010000
-85.88060000 -41.08780000 -47.83420000
-88.14470000 -41.23540000 -46.64040000
-89.58040000 -41.83330000 -45.90700000
-89.40550000 -42.97600000 -45.67320000
-61.03400000 45.86690000 -89.23300000
-62.17080000 46.51860000 -88.48260000
-62.05550000 47.49640000 -88.42830000
-61.17790000 47.24010000 -88.97060000
-60.38910000 46.32390000 -89.45050000
-60.08770000 45.05290000 -89.76040000
-33.87610000 -24.95680000 -75.01520000
-33.75730000 -26.27150000 -73.38860000
-29.87240000 -31.16240000 -67.68020000
-27.90680000 -31.28420000 -68.43420000
-31.82810000 -30.44530000 -67.98730000
87.34790000 62.40380000 -59.61970000
89.12710000 62.34080000 -56.87630000
90.34630000 62.49840000 -55.28120000
87.22770000 61.93650000 -59.37800000
89.63940000 62.10730000 -55.76950000
85.36380000 62.00130000 -61.99550000
85.81630000 62.37550000 -61.66230000
-76.05730000 -83.40250000 -21.21610000
-75.13850000 -81.67480000 -21.24550000
-74.62130000 -78.38940000 -21.54950000
-74.47620000 -78.39130000 -22.00250000
-74.32570000 -79.53010000 -22.48730000
-105.47680000 60.43240000 -16.01890000
-104.98230000 60.24020000 -16.77300000
-104.70370000 60.14340000 -18.86670000
-107.91060000 61.12780000 -14.83220000
-109.01250000 61.42990000 -16.24590000
-106.74930000 60.77660000 -14.96000000
103.78210000 54.07920000 -23.40030000
104.13360000 53.31100000 -22.27570000
104.51610000 53.52020000 -20.56380000
103.98050000 52.08110000 -23.24730000
104.55930000 51.82640000 -20.88490000
103.27170000 49.85450000 -26.30590000
103.76610000 50.37510000 -24.38630000
103.33890000 46.85890000 -26.42240000
104.00980000 49.56350000 -23.47770000
116.19360000 66.07420000 -4.94460000
117.00850000 66.46560000 -5.19260000
117.16830000 66.47000000 -6.01360000
111.33650000 64.43130000 -3.75710000
112.75680000 64.81480000 -4.71280000
114.05200000 65.25420000 -4.33410000
62.61900000 -39.45300000 7.18050000
61.36930000 -39.93860000 8.60330000
64.25420000 -38.71700000 8.00640000
65.97690000 -37.88620000 8.63830000
66.61010000 -37.49380000 10.65690000
54.97230000 -24.20440000 -65.16390000
54.84140000 -24.88920000 -64.74570000
55.71000000 -23.10380000 -65.90990000
56.05080000 -23.53430000 -65.80260000
60.35370000 -17.61570000 -68.33270000
59.88160000 -18.71290000 -67.83140000
58.76130000 -19.73870000 -67.58800000
60.19080000 -19.00360000 -67.72120000
58.57990000 -20.73560000 -67.23140000
-50.62210000 32.95230000 -95.12570000
-49.13920000 33.22490000 -95.88380000
-47.13620000 32.96070000 -96.78430000
-49.17190000 33.82700000 -95.85200000
-46.01300000 33.77830000 -97.27970000
-52.22970000 32.59720000 -94.22890000
9.10510000 -113.07900000 92.38210000
8.89910000 -112.30900000 91.73090000
8.38310000 -112.97400000 91.09000000
8.10510000 -110.18260000 88.42440000
8.17630000 -110.58760000 89.07650000
7.90910000 -112.44170000 89.29520000
8.74400000 -106.21250000 88.46280000
8.62930000 -108.08910000 89.37510000
-30.51330000 -33.56690000 -58.47810000
-28.19730000 -34.03360000 -58.68250000
-28.07870000 -34.58340000 -57.31460000
-34.83680000 -30.91480000 -61.51880000
-33.33190000 -32.10680000 -59.97730000
-78.70130000 -99.06480000 -39.81830000
-77.92180000 -98.96910000 -40.09120000
-77.62130000 -99.33740000 -40.07030000
-78.75710000 -98.46600000 -40.06320000
-77.77960000 -98.51030000 -40.34030000
-79.86280000 -99.95950000 -38.59260000
-79.29090000 -99.84920000 -38.50070000
-80.03480000 -99.97040000 -38.96660000
62.05090000 -18.41880000 -68.03170000
62.94160000 -17.63540000 -68.03850000
63.57310000 -16.70840000 -67.97120000
60.63380000 -19.74900000 -67.73450000
61.12940000 -19.68480000 -67.85280000
60.97560000 -30.20770000 -42.96940000
59.67050000 -30.40920000 -44.16730000
62.32720000 -29.30820000 -43.41230000
54.85870000 -29.92510000 -50.84180000
56.25800000 -30.03840000 -49.13340000
29.28890000 -32.23320000 75.22890000
29.63070000 -32.43980000 76.39330000
29.70090000 -30.97780000 75.06950000
29.95390000 -31.87880000 76.88770000
29.33190000 -31.98830000 73.95500000
29.69870000 -31.92610000 73.17070000
30.10330000 -31.31520000 73.37640000
29.05950000 -32.86160000 73.38380000
29.58940000 -32.56100000 72.55400000
-67.98670000 -28.63640000 -45.44090000
-68.35870000 -27.73120000 -46.04080000
-68.09560000 -26.58020000 -46.39120000
-65.95170000 -29.83940000 -43.74210000
-65.29950000 -30.14730000 -43.60090000
-79.71320000 -98.76300000 -39.91900000
-79.46860000 -99.17120000 -39.75410000
-79.91300000 -99.58320000 -39.54340000
-81.02790000 -97.30760000 -39.55330000
-80.47570000 -98.08610000 -39.82520000
-81.08810000 -96.13960000 -39.42080000
73.50910000 -102.07880000 -44.63690000
73.20050000 -102.14810000 -45.03700000
71.83790000 -100.21960000 -47.83620000
72.38620000 -100.69910000 -47.71810000
72.54480000 -101.00410000 -47.20910000
71.40020000 -10.94000000 -65.50750000
71.09920000 -11.58530000 -65.71840000
71.75020000 -11.80430000 -65.40720000
67.88350000 -8.66940000 -69.85370000
69.46480000 -8.36450000 -68.73470000
70.89150000 -9.14650000 -66.93840000
66.57330000 -6.28650000 -72.62990000
69.56630000 -7.01080000 -69.57670000
72.13180000 -7.37650000 -67.04560000
5.33070000 27.81480000 -107.14410000
4.51900000 27.41600000 -107.34760000
6.13470000 25.18020000 -106.64500000
7.70250000 25.40290000 -106.72090000
6.81690000 25.85220000 -107.04780000
33.24570000 -20.10540000 84.95700000
32.90200000 -22.02740000 83.50460000
33.07300000 -22.61890000 82.69400000
33.54550000 -21.76890000 83.12270000
32.64670000 -24.32780000 82.13840000
32.98310000 -23.95310000 81.50700000
31.57980000 -28.17860000 77.14670000
32.09150000 -27.62400000 77.37490000
32.21630000 -27.16700000 78.05680000
-68.07730000 -32.90970000 -43.55540000
-67.53510000 -33.93170000 -42.64450000
-67.76690000 -32.33450000 -43.42880000
-66.91070000 -34.51430000 -41.78910000
-67.24520000 -34.88370000 -42.10710000
-66.11640000 -34.64200000 -40.90550000
88.95890000 55.12770000 63.96740000
90.25130000 55.60760000 62.22400000
89.30210000 54.45320000 63.46270000
94.38540000 56.22780000 55.96910000
95.12380000 55.59750000 54.67600000
94.94190000 54.55680000 54.96860000
77.81450000 -98.65780000 -48.78880000
77.99460000 -97.36180000 -49.74980000
77.86780000 -100.52310000 -48.70460000
76.43320000 -101.68620000 -46.82790000
75.87510000 -101.44050000 -45.43500000
77.36130000 -101.60260000 -48.15620000
21.57580000 -111.37910000 81.10240000
21.95510000 -111.58060000 82.08180000
21.77890000 -110.55010000 82.11240000
21.44790000 -110.14940000 81.39280000
22.89650000 -113.61230000 84.02770000
22.60200000 -113.60750000 85.61720000
22.21750000 -113.17840000 86.56540000
-45.59260000 0.20520000 -89.54080000
-44.81920000 0.28860000 -89.86200000
-49.25590000 -0.76910000 -87.16370000
-51.61640000 1.02580000 -86.73530000
-50.53790000 1.49360000 -87.60310000
-49.14520000 1.14630000 -88.19210000
94.75070000 58.88400000 56.16820000
93.81240000 58.59750000 57.29790000
91.33790000 56.36020000 60.69460000
90.68460000 57.18160000 61.56890000
92.82190000 56.44650000 58.56260000
92.65400000 57.85960000 58.81460000
35.01800000 -32.71480000 67.82030000
36.82820000 -32.90860000 66.52900000
42.96340000 -34.07470000 60.85450000
40.94330000 -35.10580000 60.11150000
43.23830000 -34.90380000 59.02280000
45.52840000 -34.15840000 58.91870000
103.19010000 31.99970000 36.03250000
102.33540000 31.76910000 38.56270000
102.90420000 32.77430000 36.58840000
101.73130000 32.02330000 40.03050000
104.30810000 33.55040000 32.48580000
104.65720000 33.21680000 31.11100000
104.18140000 32.68040000 32.50520000
73.29450000 10.99200000 74.68280000
73.99460000 12.73240000 74.55960000
76.95480000 19.23530000 73.17830000
76.45950000 17.36090000 73.29800000
80.01940000 56.22390000 -71.27480000
80.56150000 57.43400000 -70.85070000
80.18110000 58.69110000 -71.30530000
