-4.17960000 -6.80260000 -4.34340000
-6.10420000 -6.24710000 5.58140000
4.97480000 -7.84950000 3.37600000
-5.60930000 -11.51990000 4.80770000
-6.39920000 -6.17860000 5.44260000
-3.97460000 -3.46910000 5.48210000
-4.18880000 -11.45460000 3.92450000
-3.99550000 -11.37170000 3.89450000
-4.17470000 -11.40120000 3.58680000
-4.51150000 -3.46020000 5.73720000
-4.74450000 -3.31440000 5.85310000
-6.59600000 -5.60220000 5.36190000
-5.82670000 -7.71680000 -3.51580000
-5.72520000 -8.06770000 -3.48120000
-5.09050000 -3.37660000 5.89980000
-4.70300000 -3.24340000 5.96230000
-4.26110000 -11.24170000 3.37380000
-4.06340000 -11.30670000 3.66620000
-3.70770000 -3.21650000 5.87820000
-3.86100000 -3.28910000 5.69140000
-3.60550000 -3.30470000 5.46530000
-4.07050000 -10.92200000 3.71870000
-4.08970000 -3.15560000 6.12610000
-4.11430000 -3.24180000 5.89560000
-4.63570000 -3.19960000 6.09960000
-6.35650000 -5.45120000 5.55070000
-4.70840000 -3.06970000 6.19250000
-3.72490000 -3.06980000 6.23130000
-4.39230000 -10.70480000 3.32490000
-4.22180000 -10.56750000 3.54370000
-5.26310000 -7.34940000 -3.40680000
4.70870000 -7.30320000 3.97930000
4.75940000 -7.14670000 3.73890000
-0.17040000 -3.67360000 -3.49920000
0.08940000 -3.83510000 -2.63610000
-3.86720000 -11.12690000 4.26550000
-3.93150000 -11.16230000 3.96960000
5.48380000 -9.87630000 2.92660000
-1.08370000 -4.11120000 -2.12100000
-1.11040000 -4.13960000 -1.50700000
-6.03300000 -8.94300000 3.19330000
-5.71350000 -8.31050000 3.09620000
-5.63100000 -9.31180000 3.06030000
-5.34180000 -9.29740000 3.05410000
-3.88540000 -4.16940000 4.59430000
-3.87430000 -4.00050000 4.30060000
-3.78130000 -3.90980000 4.53630000
-3.61980000 -3.66150000 4.61920000
-3.61730000 -3.73020000 4.42360000
-3.82250000 -3.86380000 4.20830000
-6.20050000 -11.53260000 4.20160000
-6.06860000 -11.49660000 4.12740000
-5.63280000 -11.48970000 4.22130000
-6.11890000 -11.47690000 4.60670000
-5.65960000 -11.51680000 4.42190000
2.76660000 -4.10760000 0.90720000
3.62340000 -4.07830000 -0.33510000
-5.18840000 -7.81020000 3.14990000
-4.99420000 -8.99750000 3.13690000
-5.46470000 -11.49100000 4.64830000
-3.64930000 -3.50100000 4.89310000
-3.31210000 -3.60740000 4.44180000
-6.42990000 -11.48100000 4.34770000
-3.61140000 -3.80100000 3.64600000
-3.69680000 -3.77600000 4.11420000
-3.75390000 -3.84190000 3.81150000
-4.24000000 -6.27970000 -4.07930000
0.38120000 -3.96010000 -1.44910000
-6.75910000 -11.18530000 4.48000000
-6.73480000 -11.38570000 4.31280000
-6.61100000 -11.34800000 4.85970000
-6.49880000 -11.44900000 4.82890000
-3.20260000 -3.76060000 3.91060000
-6.67780000 -11.30200000 -3.99630000
-6.82370000 -11.23220000 -4.26240000
-6.70460000 -11.34810000 -4.21040000
-6.75980000 -10.98070000 3.96800000
-4.51600000 -5.69600000 -3.56360000
-6.34480000 -11.40720000 -3.80780000
-6.35140000 -11.32750000 -3.65360000
-6.78600000 -11.10440000 4.24530000
-0.27220000 -4.14140000 -1.74050000
6.03510000 -7.42940000 2.84440000
-4.28560000 -7.99350000 -5.18700000
-6.67290000 -11.03020000 -3.89820000
-6.32680000 -8.31730000 3.38130000
-6.09500000 -7.79390000 3.24460000
-5.79600000 -11.40860000 -4.32620000
-6.22790000 -11.48640000 4.88210000
-0.68640000 -4.00880000 -0.59960000
-3.17270000 -3.85630000 3.50200000
-6.83940000 -10.83400000 -4.31430000
-4.54530000 -7.43160000 -5.53670000
-4.31690000 -7.14540000 -5.18880000
-5.55550000 -7.62210000 3.11790000
-4.43550000 -7.01530000 -5.42450000
-6.52200000 -11.23960000 -3.73910000
-6.62620000 -11.14100000 4.88950000
-6.72270000 -10.72740000 4.47880000
4.32290000 -3.98310000 0.46270000
-5.81810000 -7.55190000 3.15220000
-6.40750000 -11.05370000 -3.61010000
-6.55420000 -10.75420000 4.90480000
3.89540000 -3.78890000 -0.23610000
3.46340000 -3.87170000 0.59640000
-4.24910000 -6.62190000 -5.02710000
-6.71430000 -10.60590000 -3.99560000
-5.81170000 -11.49650000 5.44340000
-6.02970000 -11.46580000 5.27470000
-6.54820000 -10.48030000 -3.79880000
-6.16130000 -11.38000000 5.37940000
-0.18520000 -4.11660000 -2.25200000
-4.90780000 -11.44300000 5.54550000
-5.57090000 -11.44610000 5.58070000
-6.78250000 -10.17670000 -4.22560000
-5.61010000 -11.33960000 5.71290000
-4.16770000 -6.69970000 -4.74800000
-5.81030000 -11.11110000 5.67190000
-4.61680000 -8.39780000 3.32320000
-4.80580000 -7.04840000 3.27810000
-6.80470000 -10.19500000 -4.98320000
-4.38270000 -8.40820000 3.53070000
-4.53940000 -7.68790000 3.41450000
-4.32920000 -7.82330000 3.68100000
3.83990000 -3.99300000 -1.32580000
4.63130000 -3.91150000 -1.05650000
4.11700000 -4.00910000 -0.34670000
-4.79540000 -7.25130000 -5.77380000
-4.69720000 -5.78530000 -5.79180000
-4.51420000 -6.62890000 -5.57610000
-6.83750000 -9.96040000 -4.73140000
-4.30500000 -6.22090000 -5.28290000
5.27640000 -3.79940000 -0.74670000
-6.81430000 -9.86550000 -4.44700000
-5.33720000 -6.54580000 3.13350000
-4.11230000 -5.72730000 -4.66330000
1.43280000 -4.00550000 0.31820000
-6.71990000 -9.25860000 -5.09360000
-6.32860000 -11.05930000 5.29030000
-6.35730000 -11.23940000 5.28780000
-6.02770000 -11.03560000 5.57910000
-4.12800000 -5.27860000 -4.28280000
-6.38370000 -10.00260000 -3.70210000
4.41420000 -3.70880000 -0.48160000
4.17270000 -3.65930000 -0.71410000
-4.37150000 -11.42430000 5.29900000
-5.87840000 -10.72840000 -3.46010000
-6.10920000 -10.99560000 -3.48060000
-6.02670000 -10.81290000 5.56510000
-6.51880000 -7.74010000 3.58490000
-6.49830000 -8.58680000 3.58600000
-2.74430000 -3.51560000 3.98500000
-3.04210000 -3.66960000 3.15400000
-5.10570000 -3.22750000 4.79130000
-6.25510000 -10.79350000 5.27100000
-6.66050000 -7.77350000 3.85960000
-5.15240000 -11.40140000 5.73150000
-4.61670000 -11.32170000 5.70270000
-6.04160000 -7.45920000 -3.64640000
-6.19830000 -7.86790000 -3.65460000
-3.23270000 -4.04460000 -1.22120000
-2.54620000 -4.12940000 -0.70880000
-3.35650000 -4.05460000 -0.64290000
-5.58540000 -7.29740000 -3.43150000
-5.91420000 -7.20960000 -3.53830000
-6.36690000 -7.13940000 -3.76000000
-6.33060000 -7.42740000 3.44690000
-6.13470000 -6.71830000 -3.61300000
-6.03510000 -9.85710000 -3.56330000
-5.69370000 -10.19820000 -3.44600000
-6.31000000 -10.49380000 5.15930000
-4.20630000 -11.27070000 5.60720000
-4.07790000 -11.35320000 5.23540000
-5.94030000 -10.48270000 5.47870000
-3.92430000 -11.13930000 5.41560000
-4.16150000 -11.07900000 5.61300000
-6.55680000 -7.44020000 3.72560000
-3.84250000 -10.91370000 5.47450000
-3.46810000 -3.40210000 5.20370000
-4.59720000 -11.10270000 5.78930000
-6.67590000 -7.59530000 4.06880000
-5.66960000 -6.80180000 -3.41750000
-6.73630000 -7.17550000 4.21510000
-6.70460000 -7.05380000 3.94310000
1.20120000 -4.19980000 0.63910000
1.26480000 -4.14360000 1.43960000
0.36550000 -4.18630000 0.84480000
-6.59720000 -7.09710000 3.73850000
-6.69660000 -9.81500000 -4.06230000
-5.26680000 -11.47490000 3.92540000
-6.42420000 -7.07570000 3.49970000
-6.59440000 -9.23670000 -3.94410000
-6.22640000 -6.70470000 3.31520000
-4.00880000 -10.71900000 5.62200000
-4.26400000 -10.76340000 5.68120000
-6.62260000 -7.01710000 -3.93750000
-6.54540000 -6.63890000 -3.84950000
-6.69180000 -6.31410000 -3.90900000
-6.76830000 -6.85570000 -4.17100000
-6.01170000 -6.50800000 3.18950000
-4.59170000 -10.61000000 5.76300000
-4.70810000 -10.93970000 5.79600000
-4.33890000 -10.47550000 5.78150000
-4.00400000 -10.58760000 5.71300000
-3.01660000 -3.21180000 5.79640000
-3.47140000 -3.20740000 5.80070000
-4.12920000 -10.42760000 5.70420000
-6.80620000 -8.84810000 -4.38010000
-6.81890000 -9.20560000 -4.72560000
-3.91570000 -11.32580000 4.58240000
-4.01910000 -11.47500000 4.73080000
-6.47010000 -6.05270000 -3.66480000
-6.10270000 -6.02690000 -3.46560000
-3.47930000 -3.97150000 -2.39620000
-5.47420000 -6.62660000 -3.37240000
-5.77120000 -6.14810000 3.10520000
-3.98140000 -11.26740000 4.98780000
-3.91100000 -11.06950000 4.73280000
-5.12530000 -6.09010000 -3.35830000
-6.72280000 -8.96610000 -4.18620000
-5.24220000 -11.29690000 2.84430000
-5.31360000 -11.44840000 3.03860000
-3.92610000 -11.24620000 5.13390000
-3.78310000 -10.95850000 5.23260000
-3.88350000 -10.96460000 4.98820000
-3.87220000 -10.80270000 4.79930000
-2.54030000 -4.09230000 -1.69600000
-6.66120000 -6.69360000 3.80000000
-3.91780000 -10.57210000 4.11070000
-3.81560000 -10.81100000 4.47300000
-6.80960000 -6.46720000 3.98910000
-3.89980000 -10.40450000 4.34360000
-6.41110000 -6.59230000 3.47920000
-5.75800000 -6.25170000 -3.35910000
-4.05230000 -10.39310000 3.88940000
-5.61970000 -9.62070000 -3.44280000
-5.34990000 -9.89010000 -3.43690000
-6.68070000 -10.84430000 3.79210000
-6.57030000 -6.41310000 3.56680000
-6.80720000 -5.64000000 3.73510000
-6.89630000 -5.77520000 3.97300000
-5.57650000 -10.80240000 2.72190000
-5.32750000 -9.43630000 -3.41750000
-5.07810000 -9.94790000 -3.45410000
-5.58130000 -5.63340000 -3.26520000
-5.89060000 -10.61620000 2.90220000
-3.87030000 -10.48140000 4.77480000
-3.89700000 -3.37250000 5.44120000
-6.42830000 -5.45870000 3.31260000
-3.93340000 -10.33650000 4.03830000
0.66520000 -4.14730000 1.57170000
-4.89720000 -6.46970000 -5.86790000
-5.97950000 -9.13440000 -3.56360000
-6.69590000 -5.47230000 3.55390000
-3.95460000 -9.99370000 4.22600000
-6.15780000 -10.30310000 3.06280000
-6.22660000 -8.68180000 -3.67310000
-4.16590000 -7.31290000 4.02250000
-4.25530000 -8.76080000 3.74040000
-3.84760000 -10.66580000 5.52120000
-5.85390000 -10.23360000 2.96130000
-3.82970000 -10.73930000 5.18160000
-4.00420000 -10.49920000 5.34280000
-3.92260000 -10.53560000 5.56260000
-4.42930000 -6.88880000 3.56900000
-6.49620000 -8.54030000 -3.84260000
-4.66980000 -10.73670000 3.13590000
-4.49880000 -4.63410000 -5.69130000
-4.07220000 -10.34560000 5.20830000
-4.27180000 -4.69440000 -5.38290000
-4.60950000 -3.91310000 -0.93220000
-2.65800000 -3.91100000 3.17730000
-3.12870000 -3.99670000 2.52220000
-1.56720000 -4.00180000 2.69290000
-3.95630000 -10.12350000 4.82130000
-4.47450000 -3.56260000 -2.43540000
-4.38630000 -3.70380000 0.55800000
-5.01400000 -9.44080000 -3.46470000
-5.23530000 -11.11900000 2.76490000
-5.02970000 -11.01940000 2.85900000
-4.69490000 -2.92500000 5.54180000
-2.92150000 -2.76790000 5.70290000
-3.28300000 -3.06080000 5.39060000
-4.17940000 -6.06730000 3.93630000
-5.41210000 -10.88590000 2.71500000
-4.35010000 -10.13360000 5.69570000
-5.57620000 -8.86380000 -3.46010000
-5.12380000 -10.71680000 2.92320000
0.95090000 -4.17460000 -1.37580000
-1.29410000 -4.17230000 -1.04140000
-4.94650000 -5.94860000 3.19440000
-5.74490000 -10.82800000 5.75750000
-5.52740000 -11.11190000 5.83240000
-5.21060000 -11.04390000 5.85680000
-5.29880000 -10.78230000 5.80150000
-5.46670000 -10.26060000 2.90170000
-5.10140000 -11.24150000 5.83350000
-4.12070000 -5.33130000 -4.89310000
-5.03220000 -10.44010000 3.02880000
1.24220000 -4.04850000 -2.51350000
-4.19100000 -7.61920000 4.78960000
-4.24230000 -7.42380000 4.88160000
-4.46630000 -7.33340000 5.27710000
-5.01050000 -10.54960000 5.70530000
-5.38420000 -10.46680000 5.63390000
-4.17680000 -7.83300000 4.87790000
-4.06440000 -7.61120000 4.44820000
-5.03300000 -10.38330000 5.61950000
-4.13990000 -7.24500000 4.74940000
-5.24190000 -10.25060000 5.61030000
-4.03780000 -6.72510000 4.54930000
-4.10290000 -7.71050000 4.20610000
-4.68880000 -9.70920000 3.22330000
-4.33610000 -7.11820000 5.15370000
-4.96560000 -10.12870000 3.07530000
-4.09270000 -4.65980000 -4.93260000
-5.72660000 -10.47260000 5.58390000
-2.05930000 -3.93230000 1.33490000
-3.25620000 -3.80390000 1.93680000
-6.22440000 -10.16610000 5.22970000
-4.12120000 -6.84790000 4.74810000
-4.32310000 -6.77070000 5.20670000
-5.71580000 -10.21860000 5.49160000
-5.94100000 -10.01850000 5.42330000
-4.48600000 -9.87160000 3.33990000
-5.47880000 -9.94610000 3.01440000
-5.43740000 -9.85030000 5.58040000
-4.25570000 -5.34530000 -3.90460000
-3.36870000 -3.60310000 -3.19380000
-0.88470000 -4.19480000 -0.09630000
-0.57860000 -4.18400000 0.91510000
-1.76930000 -4.15060000 0.94140000
-5.65750000 -9.91520000 5.53580000
-5.84760000 -9.66960000 5.44290000
-6.67820000 -8.04680000 -4.04220000
-4.06010000 -5.86490000 4.25020000
-4.73600000 -10.34650000 5.66470000
-3.22660000 -4.08250000 -0.17280000
-2.10120000 -4.17190000 -0.20600000
-3.98050000 -5.32630000 4.65200000
-4.57240000 -10.25280000 5.75520000
-4.69090000 -10.06370000 5.63810000
-2.79480000 -4.07910000 1.34910000
-2.97290000 -4.06510000 0.88100000
-4.83800000 -9.93150000 5.55570000
-4.36030000 -10.29460000 5.80740000
-4.70810000 -5.75390000 -3.47520000
-5.07910000 -5.05110000 -3.26030000
-4.52050000 -10.06010000 5.74910000
-6.72830000 -10.37250000 4.19220000
-5.50700000 -5.21860000 -3.24100000
-6.49150000 -7.61580000 -3.86840000
-6.57900000 -10.54040000 4.73020000
-5.11360000 -9.90470000 5.58500000
-6.62260000 -10.24680000 4.60850000
-4.59710000 -5.74100000 3.36560000
-2.30370000 -4.07480000 1.78960000
-6.41440000 -10.13780000 5.03670000
1.71180000 -4.09180000 2.02250000
-0.10050000 -4.10890000 1.79310000
-5.07740000 -9.51820000 5.56770000
-5.21120000 -8.93700000 5.60510000
-5.24100000 -3.76520000 1.39490000
-4.39740000 -3.93620000 1.10390000
-4.56190000 -3.88460000 1.90580000
-5.44190000 -3.68770000 1.75600000
-5.48990000 -8.59860000 5.59480000
-6.57780000 -9.95670000 4.76990000
-3.94660000 -3.94630000 1.97620000
1.19990000 -4.00800000 2.81780000
0.91030000 -4.10160000 2.12930000
2.54670000 -3.94880000 2.86870000
-4.08240000 -9.70520000 4.01860000
-4.35530000 -5.39930000 3.60590000
-2.51550000 -4.13430000 0.46890000
-4.14490000 -10.17040000 5.20980000
-3.99940000 -9.92070000 4.94680000
-6.71510000 -10.30230000 3.97720000
-6.64620000 -10.26260000 3.76660000
-0.77980000 -3.86570000 3.63510000
0.41050000 -3.74690000 4.09240000
-1.42070000 -3.89320000 3.39310000
-1.36020000 -3.96390000 3.12470000
-4.44360000 -9.88990000 5.56780000
-4.26310000 -9.92090000 5.33580000
-4.21890000 -9.68360000 5.23990000
-4.08490000 -9.57700000 4.95150000
-4.53090000 -9.71910000 5.47010000
-4.63420000 -9.73020000 5.53650000
-4.44020000 -9.55180000 5.36290000
0.73830000 -3.93220000 3.19500000
0.70810000 -3.87210000 3.66050000
-1.99710000 -3.97350000 0.13520000
-2.64290000 -3.90730000 0.36730000
-3.61540000 -4.04760000 0.08830000
-4.77970000 -3.89710000 0.13700000
-4.55880000 -3.90020000 0.36560000
-4.34710000 -9.31870000 5.29790000
-3.89450000 -9.89690000 4.61880000
-6.34160000 -10.09460000 3.25800000
-6.60020000 -9.12250000 -5.32430000
-3.98170000 -9.48280000 4.49160000
-5.95870000 -9.80230000 3.10470000
-4.04830000 -4.48310000 -4.46660000
-6.10850000 -9.64950000 3.17190000
-6.39160000 -9.19270000 -5.54580000
-6.44330000 -9.70780000 3.49720000
-5.28160000 -5.19190000 3.08860000
-6.70560000 -8.99520000 4.43170000
-4.17680000 -4.62380000 -3.90630000
-4.10980000 -9.35580000 4.80460000
-4.08960000 -9.07260000 4.73210000
-4.42360000 -4.68950000 -3.46740000
-4.23800000 -4.27030000 -3.64230000
-6.70210000 -9.02360000 4.12130000
-4.76620000 -9.61170000 5.48180000
-4.08140000 -4.27000000 -3.95470000
-4.00000000 -4.05320000 -3.89960000
-4.77570000 -9.43090000 5.51760000
-4.85210000 -8.84500000 5.54210000
-6.59290000 -8.97210000 4.77930000
-4.45800000 -9.21010000 5.29930000
-6.30110000 -9.54310000 3.31880000
-4.21820000 -9.29860000 5.14350000
-6.15620000 -4.26590000 3.05590000
-5.18100000 -9.41200000 -5.89250000
-4.56110000 -8.80590000 5.39860000
-0.75270000 -3.93710000 1.83600000
-3.98260000 -4.03400000 -4.50050000
-3.89860000 -3.89240000 -4.40080000
-3.13000000 -4.11470000 0.44670000
-3.65360000 -4.02890000 0.50560000
4.85960000 -11.28840000 4.97400000
4.72210000 -11.28870000 4.49040000
5.03610000 -11.34780000 5.00670000
4.65480000 -11.23600000 4.60850000
4.68230000 -11.10740000 4.74460000
-5.80960000 -8.74060000 -5.85060000
-6.64520000 -8.63480000 3.87760000
-5.53270000 -9.35730000 -5.92080000
-3.79210000 -4.00510000 0.90840000
4.60960000 -11.23510000 4.17800000
4.73910000 -11.26320000 3.73410000
4.88390000 -11.30220000 4.13760000
4.61560000 -11.17160000 3.89970000
-4.77020000 -5.01410000 3.20300000
-4.31090000 -8.67250000 5.17330000
-4.48370000 -4.86420000 3.39790000
-6.10850000 -8.46370000 -5.73420000
5.24920000 -11.34570000 4.68290000
-4.04400000 -8.84210000 4.39580000
-4.06760000 -8.29230000 4.57400000
-4.18190000 -8.40080000 4.93310000
-5.88260000 -4.31340000 3.00340000
-5.47250000 -4.31930000 2.99910000
-4.96870000 -4.74190000 3.11210000
-4.35180000 -7.93490000 5.18830000
-4.55720000 -8.09600000 5.40780000
0.20020000 -4.01030000 0.79620000
-5.06450000 -7.95410000 -5.87700000
4.54990000 -11.04670000 4.31620000
4.59820000 -10.72200000 4.03100000
4.55680000 -10.82090000 4.40090000
-4.51740000 -6.74100000 5.40030000
-4.24280000 -9.88010000 3.62150000
4.80640000 -10.35030000 4.86200000
-4.50480000 -6.48560000 5.50970000
-4.94410000 -6.29200000 5.74420000
-6.79340000 -8.41540000 -4.93630000
-4.83470000 -6.45340000 5.68910000
0.71740000 -3.86840000 2.48580000
4.60540000 -10.44250000 4.31780000
5.18480000 -11.33620000 5.24840000
-4.49080000 -11.34150000 -3.89360000
-4.33640000 -11.35610000 -4.44900000
-4.26850000 -11.31330000 -4.07420000
-4.36920000 -11.25160000 -3.78090000
-4.16830000 -11.15280000 -4.07940000
-4.52790000 -6.21000000 5.57120000
-4.65090000 -5.48280000 5.68080000
-4.87690000 -5.56860000 5.75980000
4.99940000 -11.25400000 5.16300000
-4.14500000 -11.28740000 -4.49050000
-4.52140000 -11.33840000 -4.81360000
-4.07770000 -11.10590000 -4.38820000
4.80540000 -10.92570000 4.99090000
-5.43380000 -5.93200000 5.78270000
-5.14760000 -6.00990000 5.77120000
-6.44210000 -8.40370000 -5.52000000
-4.41600000 -9.23050000 3.46030000
5.14130000 -10.94540000 5.27160000
-4.74750000 -11.37600000 -4.22490000
-5.28740000 -11.40140000 -4.68210000
5.12430000 -10.47590000 5.26600000
-3.54240000 -3.84100000 0.36230000
5.42100000 -10.62300000 5.42890000
4.93830000 -10.51540000 5.11220000
0.33670000 -4.02270000 2.70280000
-6.63970000 -7.97700000 -5.29850000
-6.29020000 -7.84580000 -5.63260000
-5.67050000 -5.30110000 5.80190000
-4.52110000 -3.94270000 0.51290000
-5.31270000 -5.33550000 5.83410000
-4.10790000 -9.06000000 4.03920000
-6.04720000 -5.20810000 5.70030000
-6.00860000 -11.39590000 -3.90870000
-4.94260000 -3.82880000 0.98850000
-6.03440000 -11.39020000 -3.57040000
-4.20190000 -3.91030000 2.47660000
-3.73170000 -3.92250000 2.73870000
-4.13440000 -6.59660000 4.95170000
5.64500000 -10.49210000 5.46960000
5.44010000 -10.30600000 5.37470000
5.32010000 -10.23770000 5.37920000
-5.45060000 -8.08150000 -5.92310000
-4.23250000 -6.40400000 5.26610000
-5.24440000 -11.40280000 -3.47160000
-5.52250000 -11.38980000 -3.36800000
-5.46670000 -11.39530000 -3.63930000
5.99980000 -10.10350000 5.41000000
-4.99890000 -11.39140000 -3.74200000
-4.14280000 -6.06050000 5.08180000
5.79700000 -10.12410000 5.42650000
-4.02070000 -5.59750000 4.87490000
-4.70730000 -11.38840000 -3.78460000
-5.74070000 -7.92900000 -5.88650000
-4.27260000 -5.81550000 5.33090000
-4.77040000 -11.37270000 -3.51320000
-4.54100000 -11.32770000 -3.59300000
-4.87840000 -11.23490000 -3.37940000
-5.12190000 -11.36360000 -3.37750000
5.50500000 -9.92210000 5.37690000
5.66860000 -9.79540000 5.36730000
-4.44470000 -5.76940000 5.52360000
-5.26390000 -11.21460000 -3.28500000
5.03780000 -10.14980000 5.24290000
4.97280000 -10.04270000 5.11020000
-5.16630000 -7.44740000 -5.90060000
5.19070000 -9.91250000 5.23960000
4.99440000 -9.67190000 5.03130000
-4.59500000 -7.96240000 -5.64660000
-4.70290000 -3.84880000 2.77620000
-5.13780000 -3.78180000 2.67760000
-5.45390000 -3.67920000 2.13670000
-4.93470000 -3.79860000 2.37510000
-4.43580000 -7.83590000 -5.46640000
5.27920000 -9.58570000 5.22970000
-6.24630000 -9.71180000 5.20580000
-4.10840000 -3.86170000 2.91880000
-6.44720000 -9.41610000 4.98250000
5.19050000 -8.61770000 5.14190000
-6.01040000 -9.07760000 5.39430000
4.93540000 -8.67660000 4.91360000
-2.77630000 -4.07200000 -1.47300000
-4.39040000 -3.90000000 -2.23480000
5.59390000 -11.28720000 -4.02510000
5.87650000 -11.30200000 -3.62930000
5.88010000 -11.27010000 -3.47070000
-5.99420000 -11.32190000 -3.46480000
-4.31360000 -3.89200000 3.09490000
-5.60110000 -11.27210000 -3.32520000
5.63970000 -11.14460000 -3.40520000
-5.76740000 -8.73380000 5.51630000
5.17520000 -11.10110000 -3.51730000
-5.47530000 -10.80660000 -3.35930000
6.21900000 -11.19420000 -3.44830000
6.02490000 -10.84870000 -3.40530000
5.78010000 -10.65960000 -3.44500000
5.49990000 -10.92730000 -3.43130000
-3.98910000 -4.88330000 4.44280000
-6.83020000 -8.29400000 -4.55930000
4.95200000 -10.81370000 -3.67280000
-4.59180000 -11.20820000 -3.50480000
-4.40090000 -11.15080000 -3.69440000
0.26730000 -3.58790000 3.80030000
-4.89930000 -11.05810000 -3.39010000
-5.18470000 -10.81760000 -3.38340000
5.31450000 -10.70290000 -3.54510000
-4.77620000 -10.76940000 -3.52530000
-6.80070000 -7.87510000 -4.94570000
5.14900000 -11.18460000 3.09960000
5.12830000 -11.28830000 3.22290000
4.95570000 -11.19580000 3.27760000
5.09010000 -10.98290000 3.07070000
-4.35360000 -10.85280000 -3.87430000
-6.85110000 -7.80530000 -4.60460000
5.28210000 -11.12390000 2.93030000
-4.22160000 -10.68950000 -4.04970000
4.90800000 -11.30010000 3.69030000
-4.40850000 -5.16110000 5.54700000
-4.38690000 -3.64400000 2.41820000
-4.55840000 -10.53740000 -3.67960000
5.07310000 -11.28910000 3.46190000
-6.43910000 -7.56410000 -5.45180000
-5.93350000 -7.47440000 -5.76150000
4.84660000 -11.19760000 3.56250000
4.70300000 -11.11730000 3.64430000
4.85990000 -11.05790000 3.37970000
2.44530000 -4.07120000 -1.89670000
4.87470000 -10.78200000 3.33720000
-6.79310000 -7.72570000 -4.33220000
-6.81430000 -7.47900000 -4.76120000
-4.90160000 -10.35720000 -3.50020000
-6.74440000 -7.36770000 -4.23080000
5.40060000 -10.84650000 2.90060000
-5.36100000 -10.32060000 -3.39380000
-6.55700000 -7.43800000 -5.31610000
5.71050000 -10.84870000 2.78280000
-3.52440000 -3.88430000 3.19640000
-6.75860000 -7.43730000 -4.99980000
-6.68360000 -7.08670000 -5.19140000
5.03870000 -10.41050000 3.17330000
-5.47050000 -4.39120000 5.89580000
5.95970000 -10.41590000 2.77100000
-6.85910000 -7.04040000 -4.80360000
-4.07110000 -4.70210000 4.04480000
-6.61380000 -7.42840000 -4.00360000
-3.82030000 -3.83660000 -3.50210000
-6.74310000 -7.99320000 4.17880000
-6.84820000 -7.12110000 -4.44750000
-4.45700000 -4.04710000 -3.32200000
-4.15960000 -3.89770000 -3.41170000
-4.60000000 -3.98290000 -3.08020000
-4.58580000 -4.35180000 -3.30730000
-4.05860000 -3.96040000 -3.66810000
-3.84360000 -3.84280000 -3.75980000
-4.20030000 -11.17570000 -5.14820000
-4.13590000 -11.25130000 -4.66890000
-4.27300000 -11.31170000 -4.96770000
-4.07570000 -11.16040000 -4.77490000
-4.18490000 -4.42460000 3.72740000
-6.74770000 -7.08560000 -4.08510000
-4.17220000 -3.88510000 -2.99290000
-4.75180000 -3.90330000 -2.79370000
5.25010000 -9.99330000 3.05130000
-4.22240000 -4.23620000 3.56410000
-4.51330000 -4.39590000 3.28780000
-4.89240000 -11.25800000 -5.81950000
-4.93050000 -11.33960000 -5.71190000
-6.87660000 -6.70680000 -4.55070000
-4.66940000 -4.26210000 3.15480000
-4.58390000 -11.29980000 -5.52750000
-4.96480000 -4.15240000 3.01890000
-5.96170000 -7.81580000 -5.81180000
-6.70640000 -7.81870000 4.50710000
-3.82510000 -3.84900000 -4.06230000
-4.66440000 -3.95810000 3.01660000
-5.20430000 -3.96140000 2.88190000
-6.66470000 -7.51960000 4.51620000
-3.59250000 -3.74620000 -4.17060000
-3.62300000 -3.69260000 -4.41570000
-4.46680000 -11.15830000 -5.54500000
-3.52040000 -3.47250000 -4.81320000
-2.77480000 -3.69620000 -4.26330000
-4.09240000 -3.99850000 3.55770000
-4.30330000 -4.02530000 3.24820000
-5.47210000 -7.36580000 -5.91080000
-5.11290000 -10.94950000 -5.96390000
-4.69340000 -11.01480000 -5.77210000
-1.74250000 -3.54700000 -3.90190000
-3.95430000 -3.29850000 -4.48140000
-0.27900000 -4.19340000 -0.72840000
-5.33190000 -7.04000000 -5.94690000
-4.91830000 -8.07170000 5.58600000
-5.25900000 -7.98410000 5.63640000
-5.05440000 -6.93860000 -5.89870000
-3.92690000 -3.98820000 3.92930000
6.59790000 -9.51930000 2.92280000
-3.99370000 -3.87720000 3.37270000
-5.97220000 -7.84340000 5.47210000
-5.64290000 -7.75650000 5.54530000
-5.55840000 -7.83740000 5.61190000
-5.13820000 -7.82010000 5.63630000
-5.69640000 -7.40430000 5.55210000
-5.27140000 -3.37340000 3.86260000
-4.81050000 -7.81730000 5.56720000
6.85780000 -9.45680000 2.99810000
6.64170000 -9.39990000 2.91510000
-4.54690000 -7.80960000 5.42000000
6.79340000 -9.22460000 3.05780000
-4.60510000 -7.59370000 5.37610000
6.97770000 -9.21710000 3.24880000
-4.91880000 -7.70840000 5.53370000
6.89510000 -8.69880000 3.15940000
-2.24560000 -3.86550000 3.59570000
-1.86500000 -4.12700000 -1.35790000
-2.30740000 -4.15650000 -1.17340000
-2.01480000 -4.14040000 -0.99930000
-2.88650000 -3.26730000 4.87930000
2.81110000 -3.86240000 1.90650000
2.09890000 -4.14550000 1.57810000
2.49260000 -4.08700000 1.70020000
2.40010000 -4.08680000 1.97870000
3.41500000 -4.04720000 1.53130000
-4.41180000 -5.30520000 -3.59210000
-4.78420000 -4.98070000 -3.25430000
-4.59120000 -4.76340000 -3.26630000
-5.16750000 -4.44530000 -3.10810000
-4.73990000 -4.70560000 -3.18240000
-4.84120000 -4.43580000 -3.15510000
6.53330000 -11.24370000 -3.63460000
6.57330000 -11.15050000 -3.60820000
6.80560000 -11.10470000 -5.38630000
6.56790000 -11.19770000 -5.42480000
6.51870000 -11.14160000 -5.70050000
6.60240000 -10.99750000 -5.72160000
6.31440000 -11.24050000 -5.12340000
6.86140000 -11.19620000 -4.98980000
6.22450000 -10.49000000 -3.48040000
6.86550000 -10.90120000 -5.38360000
6.76180000 -11.16810000 -3.94100000
6.62320000 -11.24040000 -4.48820000
6.91040000 -11.18300000 -4.48690000
6.95810000 -9.82350000 -5.04960000
6.99960000 -10.83000000 -5.09360000
6.78280000 -10.00500000 -5.38740000
6.89370000 -11.08590000 -4.02200000
6.99610000 -11.10870000 -4.38070000
6.33760000 -11.27140000 -3.68590000
7.02450000 -11.02840000 -4.85500000
6.85740000 -10.34320000 -4.00010000
6.35640000 -11.25360000 -3.95990000
6.26430000 -11.03600000 -5.94420000
5.99540000 -11.13190000 -5.95070000
6.71260000 -10.60250000 -3.81870000
6.46410000 -10.40430000 -3.60900000
6.99680000 -11.16510000 -4.75360000
6.56970000 -10.38700000 -5.68000000
7.03350000 -10.11220000 -4.53190000
7.02710000 -10.03790000 -4.77670000
6.97650000 -9.68680000 -4.28780000
6.98900000 -10.57140000 -4.24730000
6.01580000 -11.29810000 -4.48980000
5.20610000 -11.22640000 -5.73530000
5.35310000 -11.28480000 -4.91390000
4.88930000 -11.25620000 -5.31020000
5.32050000 -2.89510000 -5.23390000
4.22580000 -2.84850000 -5.58110000
3.22320000 -3.12600000 -5.03870000
6.98840000 -7.64170000 -4.71660000
7.06270000 -8.03230000 -4.60510000
7.00290000 -8.04000000 -4.89220000
0.18120000 -1.37390000 -6.52540000
0.23540000 -1.02130000 -6.56510000
0.38880000 -1.40820000 -6.60610000
0.31560000 -1.18910000 -6.66210000
0.10230000 -0.88380000 -6.57380000
0.00450000 -1.33530000 -6.58880000
7.02960000 -8.30530000 -4.37090000
7.01370000 -7.52810000 -4.36170000
6.98260000 -7.67810000 -4.20880000
7.29570000 -2.33560000 -5.47910000
6.92890000 -2.49340000 -5.68310000
6.92230000 -2.64440000 -5.03800000
7.21950000 -2.24360000 -5.82490000
0.15850000 1.38400000 -6.46170000
0.65430000 0.86890000 -6.44240000
1.05010000 1.32460000 -6.49750000
-2.25810000 -3.13950000 -5.74620000
-0.88310000 -3.32750000 -5.38220000
-1.77240000 -3.36490000 -5.21320000
4.41340000 -11.10110000 -5.31650000
4.41560000 -11.24150000 -5.00370000
4.32050000 -11.13930000 -4.94310000
4.40860000 -10.65320000 -5.29820000
4.30360000 -10.86600000 -4.96810000
4.42950000 -11.22250000 -4.55700000
4.61330000 -11.27130000 -5.11070000
0.35950000 -0.87690000 -6.65050000
0.41080000 -1.02370000 -6.82940000
0.40960000 -1.22770000 -6.85970000
-0.39760000 1.18150000 -6.42540000
4.38030000 -11.10720000 -4.56470000
-0.36390000 -3.44430000 -5.05190000
7.35590000 -1.88560000 -5.90550000
7.11770000 -2.01690000 -6.05470000
4.37360000 -10.91990000 -4.68850000
0.52700000 -0.77250000 -6.69320000
4.79040000 -11.18580000 -5.66900000
4.49220000 -11.21280000 -5.35540000
4.61490000 -11.01780000 -5.60480000
7.42930000 -2.05310000 -5.53440000
-0.28160000 -3.11870000 -5.87960000
5.55530000 -8.53560000 -3.51060000
5.27560000 -8.85810000 -3.56950000
5.38050000 -9.29390000 -3.55070000
0.55870000 1.65020000 -6.50410000
1.00960000 -1.51080000 -6.53900000
0.90870000 -1.33180000 -6.65560000
1.01560000 -1.11880000 -6.60770000
0.87430000 -1.07450000 -6.84800000
1.21620000 -1.29920000 -6.55870000
5.84030000 -8.29640000 -3.47040000
5.69350000 -9.70700000 -3.48000000
6.00370000 -9.63430000 -3.47230000
7.33950000 -2.62390000 -3.32060000
7.23480000 -2.59870000 -4.23400000
7.45780000 -2.16120000 -4.78710000
1.05590000 -0.83860000 -6.59990000
-1.72560000 -2.81590000 -5.79510000
-0.20680000 -3.10710000 -5.21550000
0.68480000 -2.90740000 -5.63520000
7.54490000 -1.82120000 -4.45570000
5.02550000 -11.08760000 -5.91390000
5.27830000 -11.17870000 -5.90820000
5.13270000 -8.49730000 -3.65990000
7.53730000 -1.14540000 -5.67660000
4.28780000 -3.86330000 -2.17620000
5.57900000 -3.70000000 -2.00500000
5.35530000 -7.99570000 -3.53200000
4.87110000 -9.05450000 -3.85560000
5.08050000 -8.97350000 -3.69830000
1.46920000 -1.75870000 -6.77320000
1.48830000 -1.99750000 -6.88930000
1.35100000 -1.87660000 -6.78440000
1.72690000 -1.87690000 -6.85970000
1.67950000 -1.73250000 -6.78010000
5.73650000 -2.03460000 -6.92360000
5.80380000 -2.22170000 -6.75520000
5.60130000 -2.13090000 -6.86550000
5.73270000 -3.42120000 -1.56400000
5.33670000 -3.37460000 -2.83850000
5.17360000 -3.57950000 -0.75900000
5.95580000 -2.06570000 -6.76430000
5.89240000 -1.92330000 -6.88220000
1.84440000 -1.65550000 -6.61150000
1.59350000 -1.59590000 -6.64590000
6.03270000 -1.81460000 -6.69420000
1.80130000 -1.46860000 -6.58970000
5.73230000 -1.82490000 -6.91110000
5.08110000 -7.74540000 -3.63540000
4.83430000 -8.23750000 -3.89620000
5.28190000 -8.28630000 -3.54630000
4.48150000 -2.59820000 -6.52510000
4.39340000 -2.26240000 -6.59510000
4.60070000 -2.37330000 -6.58140000
1.52260000 -1.48240000 -6.59110000
1.64310000 -1.44890000 -6.69180000
5.19170000 -2.47640000 -6.55870000
7.71960000 -2.91480000 -6.28060000
7.43740000 -2.94650000 -6.38290000
7.60630000 -2.84100000 -6.49370000
1.35360000 -1.33460000 -6.60760000
1.60520000 -1.31410000 -6.88070000
1.83390000 -1.31590000 -6.78270000
5.30830000 -2.82070000 -6.45970000
1.46380000 -1.37460000 -6.74660000
6.36820000 -2.76700000 -6.49970000
7.01660000 -2.62650000 -6.52560000
1.88330000 -1.36130000 -6.63530000
7.72440000 -2.45790000 -6.52990000
4.54590000 -2.24120000 -6.70940000
4.52350000 -2.08710000 -6.83660000
4.79270000 -2.29150000 -6.64170000
0.93590000 2.07030000 -6.51360000
7.74590000 -2.79870000 -6.41760000
1.84180000 -1.19420000 -6.88320000
4.76940000 -2.15600000 -6.87190000
1.66130000 -1.14160000 -6.94960000
7.83090000 -2.63620000 -6.12690000
1.73750000 -0.98890000 -6.89660000
7.80910000 -2.88680000 -5.27850000
1.36330000 -1.16790000 -6.81710000
1.45660000 -1.19940000 -6.91400000
7.83700000 -2.24960000 -6.44780000
3.28380000 -2.74270000 -6.47910000
4.71960000 -2.88940000 -6.37210000
4.11590000 -2.93330000 -6.26980000
3.56970000 -2.54110000 -6.51710000
1.29390000 -1.09580000 -6.66970000
0.29380000 2.16300000 -6.52650000
1.50750000 -0.92310000 -6.87300000
1.37960000 -0.84360000 -6.74980000
4.84420000 -7.50410000 -3.80700000
4.62840000 -8.13030000 -4.15450000
7.00250000 -2.35980000 -6.58560000
7.26520000 -1.86100000 -6.60620000
3.65400000 -2.33520000 -6.62080000
4.05800000 -2.33100000 -6.54700000
6.16500000 -8.18420000 -3.48740000
7.88980000 -0.15310000 -6.68730000
0.65820000 -2.88300000 -6.35100000
-1.24400000 -2.92220000 -6.28070000
-0.54280000 -2.72590000 -6.43890000
0.77590000 -1.40670000 -6.74740000
0.59120000 -1.36280000 -6.84940000
0.84800000 -1.20950000 -6.87020000
6.38130000 -8.97310000 -3.57440000
0.62100000 -1.22630000 -6.93280000
4.48770000 -3.65890000 -1.22400000
3.95750000 -3.72590000 -1.13440000
0.66830000 -1.08120000 -6.94160000
3.45400000 0.18050000 -6.40540000
3.12150000 0.65240000 -6.46250000
2.50310000 -0.04050000 -6.39970000
7.89890000 -1.99390000 -6.15930000
2.97780000 0.17180000 -6.74630000
3.32590000 0.40020000 -6.75620000
3.45480000 0.16280000 -6.73500000
0.58120000 -0.96860000 -6.90220000
3.42810000 -2.18720000 -6.78970000
3.66320000 -2.14460000 -6.85670000
3.48580000 -2.04050000 -6.90900000
7.92070000 -2.30260000 -5.87470000
3.32250000 -2.26260000 -6.59080000
0.84070000 -0.90070000 -6.77100000
1.24000000 -2.75740000 -5.84580000
3.96670000 -2.11110000 -6.59700000
3.79890000 -2.19090000 -6.71510000
0.78730000 -0.77420000 -6.68780000
0.54080000 -2.61330000 -5.97560000
7.92980000 -0.59530000 -6.60210000
2.74780000 -2.38550000 -6.11440000
3.49970000 -2.67860000 -5.90270000
4.55100000 -2.49290000 -6.05790000
1.27120000 -0.79690000 -6.62810000
-1.73540000 -2.82170000 -6.40060000
2.23980000 0.28270000 -6.71620000
2.66470000 1.39240000 -6.80040000
8.13010000 -2.22640000 -5.64680000
8.13890000 -2.17140000 -5.80530000
5.82220000 -7.23320000 -3.39880000
8.23920000 -2.05620000 -5.68280000
4.63380000 -2.30260000 -6.14360000
8.19900000 -1.98820000 -5.87600000
7.96840000 -2.13560000 -5.95620000
4.41970000 -1.65060000 -6.26110000
0.40930000 -0.64340000 -6.59850000
0.95050000 -0.57120000 -6.63470000
7.98860000 -1.91220000 -6.00820000
6.20310000 -7.60660000 -3.51270000
0.73860000 -0.62180000 -6.66590000
0.49080000 -0.50620000 -6.65370000
8.11690000 -1.80910000 -5.93310000
4.31630000 -1.81030000 -6.60490000
0.70990000 -0.49790000 -6.87540000
0.86860000 -0.51770000 -6.76030000
7.96120000 -1.65740000 -5.98740000
0.90190000 -0.38410000 -6.95330000
5.44520000 -7.46650000 -3.49070000
4.01060000 -3.64580000 -0.88400000
6.99590000 -2.19910000 -6.65090000
2.22430000 0.90160000 -6.45440000
1.49480000 0.52500000 -6.43870000
6.44070000 -2.24050000 -6.59930000
6.62750000 -2.36570000 -6.60100000
6.27260000 -2.34480000 -6.55840000
3.85020000 -2.03860000 -6.80420000
3.95220000 -1.87010000 -6.66350000
6.49880000 -2.15000000 -6.73030000
6.62710000 -2.18070000 -6.80500000
6.83370000 -2.25210000 -6.69590000
6.82970000 -2.12870000 -6.85480000
-0.45060000 -1.70740000 -6.65080000
-0.41970000 -1.84360000 -6.81310000
-0.61630000 -1.88370000 -6.58870000
-0.54540000 -1.64240000 -6.54100000
3.71340000 -1.96890000 -6.91060000
-0.78730000 -1.79240000 -6.53220000
4.37880000 -2.02130000 -6.67560000
5.98600000 -6.71450000 -3.36440000
-0.28580000 -1.55920000 -6.59730000
-0.59940000 -1.41470000 -6.54290000
2.54800000 1.35820000 -6.51390000
6.98350000 -1.99920000 -6.81100000
6.76730000 -8.36120000 -5.35790000
6.49400000 -8.77800000 -5.64220000
6.45150000 -7.88470000 -5.65370000
4.63300000 -1.86430000 -6.94280000
6.85830000 -1.91870000 -6.91640000
4.46320000 -1.84450000 -6.80870000
3.81340000 -1.81600000 -6.82330000
6.49550000 -7.98550000 -3.59320000
3.80500000 -1.68100000 -6.75120000
4.00730000 -1.65650000 -6.67660000
-0.88550000 -1.44190000 -6.51910000
-1.02910000 -1.70030000 -6.66360000
-1.12290000 -1.50290000 -6.57330000
6.54840000 -7.51560000 -3.67340000
6.75630000 -7.92490000 -3.80140000
6.86990000 -7.75230000 -3.99100000
7.07010000 -2.01900000 -6.65110000
-1.12320000 -1.37820000 -6.76820000
-0.96540000 -1.35450000 -6.67160000
6.02170000 -2.48980000 -5.93320000
7.00790000 -1.79780000 -6.72880000
6.79850000 -1.78120000 -6.88170000
7.08100000 -1.72030000 -6.62620000
-0.77640000 -1.16960000 -6.55200000
6.81320000 -7.36060000 -3.91470000
-0.89590000 -1.18400000 -6.70200000
3.55200000 1.20910000 -6.49420000
-0.82820000 -1.00570000 -6.58050000
1.95400000 1.36780000 -6.47690000
1.87950000 0.89660000 -6.39580000
5.72220000 -2.20820000 -6.12580000
5.33720000 -1.80530000 -6.20210000
-3.24340000 -3.37260000 -5.10520000
-1.24670000 -3.59760000 -4.65870000
6.42120000 -1.96630000 -6.73320000
6.61190000 -1.99300000 -6.91780000
6.30940000 -1.89070000 -6.60180000
1.54180000 0.92300000 -6.43520000
6.92650000 -8.19250000 -5.10760000
6.82160000 -7.75370000 -5.21520000
4.43050000 -10.62030000 -4.46370000
6.98020000 -7.50260000 -4.85610000
4.59830000 -10.70720000 -4.11290000
6.60960000 -1.85900000 -6.91200000
6.44490000 -1.81440000 -6.72840000
6.67820000 -1.64650000 -6.75670000
6.14430000 -1.95000000 -6.59870000
5.97400000 -2.20440000 -6.61400000
-0.22580000 -1.75050000 -6.76870000
5.82590000 -1.67810000 -6.75470000
4.91900000 -10.65790000 -3.79370000
5.94680000 -1.56400000 -6.64910000
7.07380000 -7.22400000 -4.42160000
-0.51430000 -1.40700000 -6.66240000
-0.19870000 -1.44410000 -6.69730000
-0.39780000 -1.30680000 -6.84740000
2.01430000 1.93680000 -6.52050000
6.49800000 -1.61120000 -6.65350000
-0.64760000 -1.16820000 -6.63370000
5.07360000 -2.12770000 -6.60760000
5.23940000 -2.30580000 -6.59070000
-0.54400000 -1.21860000 -6.80710000
-0.34690000 -1.16370000 -6.92650000
6.81950000 -1.55480000 -6.66430000
7.07730000 -7.08870000 -4.69510000
6.97240000 -7.22450000 -4.99020000
7.04850000 -1.45430000 -6.64900000
-0.08070000 -1.55930000 -6.55540000
6.95610000 -1.43100000 -6.73110000
6.74200000 -1.43940000 -6.77620000
6.02180000 -11.21180000 -5.78620000
4.90670000 -3.79200000 -2.55080000
5.00630000 -3.81350000 -2.69170000
5.05550000 -3.83110000 -2.49740000
6.14450000 -7.94560000 -5.85020000
6.14610000 -9.30900000 -5.88990000
5.75530000 -8.70890000 -5.99380000
5.02680000 -3.88710000 -2.75030000
5.17650000 -3.83450000 -2.42200000
-0.12100000 -1.29100000 -6.82130000
-0.02480000 -1.15060000 -6.77170000
5.52050000 -11.07780000 -6.02660000
2.96450000 1.88370000 -6.54320000
0.01280000 -1.02880000 -6.66150000
5.83730000 -10.97860000 -6.07060000
6.49010000 -1.39830000 -6.65450000
4.96640000 -2.15350000 -6.74240000
6.13750000 -1.35270000 -6.68310000
-0.12720000 -1.05310000 -6.87900000
5.35980000 -10.79170000 -6.05400000
-0.27150000 -1.01900000 -6.90470000
4.95720000 -1.96600000 -6.88380000
6.68460000 -0.94820000 -6.31720000
5.36020000 -1.56260000 -6.25890000
4.77630000 -1.92390000 -6.95390000
4.40590000 -3.81150000 -3.10100000
4.47500000 -3.88420000 -3.34260000
4.80700000 -3.87480000 -2.96770000
-0.15950000 -0.83550000 -6.69760000
5.11320000 -10.77190000 -5.99540000
6.52920000 -1.28710000 -6.78740000
4.75610000 -4.02070000 -3.21820000
5.80640000 -7.88510000 -5.95630000
6.64240000 -1.27430000 -6.95220000
5.08770000 -1.86910000 -6.69880000
-0.50540000 -1.04750000 -6.82440000
4.92310000 -10.76390000 -5.89980000
-0.60860000 -0.88330000 -6.59960000
6.43570000 -1.10400000 -6.70520000
6.29520000 -1.04400000 -6.66880000
4.93560000 -1.71570000 -6.81430000
-0.74560000 -0.81080000 -6.56690000
-3.77360000 -3.69670000 -4.69080000
-3.68370000 -3.56520000 -4.73090000
6.53940000 -1.09230000 -6.92290000
5.49020000 -7.92360000 -5.95950000
6.79920000 -1.25000000 -7.02040000
6.97060000 -1.36380000 -6.91700000
-0.42230000 -0.89760000 -6.76550000
5.45400000 -2.20810000 -6.65570000
5.45350000 -2.09830000 -6.77850000
4.64460000 -10.20840000 -5.59590000
5.54350000 -1.91850000 -6.91050000
5.37530000 -1.92650000 -6.71160000
5.27820000 -1.92660000 -6.59970000
5.77260000 -7.57810000 -5.89160000
6.75750000 -1.05180000 -7.07180000
6.61190000 -0.92820000 -6.90320000
6.16490000 -7.55800000 -5.75780000
6.77550000 -0.90200000 -7.01800000
3.89510000 -3.82000000 -3.10140000
5.38550000 -1.62810000 -6.64760000
5.48520000 -1.77400000 -6.79660000
5.29590000 -7.58780000 -5.86070000
5.54390000 -7.23750000 -5.93310000
7.49400000 -1.18460000 -6.63940000
5.07600000 -1.66740000 -6.63770000
6.64190000 -1.86810000 -6.16170000
7.13980000 -1.28340000 -6.20900000
4.78280000 -1.57460000 -6.73340000
7.37040000 -1.35780000 -6.05400000
5.04300000 -1.42570000 -6.66000000
-3.66470000 -3.24840000 -5.36200000
6.63220000 -7.77170000 -5.48210000
-1.69750000 -1.09340000 -6.55720000
-1.55180000 -1.04510000 -6.61250000
-1.60990000 -1.37290000 -6.53650000
5.96280000 -10.35830000 -6.04020000
-1.33310000 -0.81930000 -6.71420000
-1.48060000 -1.10390000 -6.76230000
-1.63150000 -0.78620000 -6.58640000
6.29890000 -10.51410000 -5.91180000
-1.33660000 -0.63710000 -6.60470000
3.62430000 -3.53230000 -3.38160000
-1.54410000 -0.53970000 -6.57950000
7.93290000 -1.41980000 -6.27530000
4.95920000 -3.96850000 -2.86130000
5.60280000 -10.19370000 -6.06380000
2.35590000 2.68510000 -6.57830000
6.62030000 -7.49070000 -5.45140000
4.05040000 -1.54040000 -6.25540000
2.91220000 -1.56820000 -6.25680000
0.71940000 3.13380000 -6.57960000
6.62720000 -7.28710000 -5.52270000
6.07140000 -7.30470000 -5.82660000
7.50110000 -1.02220000 -5.95260000
5.59310000 -1.60530000 -6.71870000
4.57930000 -1.62730000 -6.76540000
4.92720000 -1.19770000 -7.00310000
4.83450000 -1.36530000 -6.86090000
4.65790000 -1.29090000 -6.86280000
-1.00990000 -1.15780000 -6.86630000
4.77700000 -1.74870000 -6.92040000
-1.32020000 -1.24550000 -6.87590000
5.00880000 -1.36870000 -6.79730000
5.06990000 -1.22060000 -6.94880000
5.20820000 -1.25250000 -6.67580000
5.15070000 -1.21920000 -6.81660000
-0.95460000 -0.93400000 -6.68680000
-1.18780000 -1.04670000 -6.90530000
4.92230000 -0.95680000 -7.00060000
5.16570000 -1.00850000 -6.83810000
5.05300000 -0.96520000 -6.97270000
4.74340000 -1.08450000 -7.01640000
4.57340000 -1.13770000 -6.86820000
-1.17130000 -0.75820000 -6.67380000
5.83260000 -7.02960000 -5.92990000
-1.33540000 -1.04390000 -6.88410000
4.59390000 -0.97730000 -6.90790000
4.16940000 -1.33730000 -6.64290000
6.19470000 -7.07300000 -5.82690000
4.72290000 -0.84680000 -6.91190000
5.22860000 -3.24450000 -3.96990000
4.88910000 -9.34930000 -5.78520000
4.46510000 -0.97880000 -6.70550000
4.56700000 -0.85220000 -6.76100000
-1.10900000 -0.66710000 -6.60090000
4.51490000 -1.42670000 -6.65400000
5.31290000 -9.55780000 -5.99070000
7.47780000 -0.58180000 -6.68130000
4.00830000 -0.46500000 -6.73170000
3.86390000 -0.49000000 -6.88090000
3.92480000 -0.32500000 -6.96240000
3.55070000 -0.52150000 -6.85410000
3.63880000 -0.33600000 -7.04100000
6.59470000 -7.11910000 -5.61020000
-3.75960000 -3.05290000 -5.87860000
-0.85650000 -0.54940000 -6.58520000
6.59400000 -6.96190000 -5.55900000
-0.47280000 -0.67390000 -6.59950000
6.34600000 -6.69230000 -5.75490000
-1.16730000 -0.57810000 -6.73260000
3.83240000 -0.18670000 -7.05380000
5.98860000 -6.64740000 -5.89720000
3.97340000 -0.14660000 -6.94630000
3.63020000 -0.12090000 -7.05510000
5.57770000 -6.88120000 -5.92590000
-0.97350000 -0.51190000 -6.72040000
-1.21880000 -0.47830000 -6.89550000
3.83880000 -0.04110000 -6.99290000
-1.40200000 -0.50980000 -6.65760000
-1.37900000 -0.42240000 -6.83460000
3.43090000 -0.21820000 -6.98990000
3.39260000 -0.32970000 -6.86170000
4.74420000 -1.44010000 -6.70200000
3.48820000 -0.00840000 -6.91180000
3.38220000 -0.02870000 -6.79820000
-1.23620000 -0.31550000 -6.96640000
3.72020000 0.07790000 -6.86450000
7.16980000 -1.25540000 -6.73500000
-0.84100000 -0.30660000 -6.74300000
-1.01920000 -0.40810000 -6.91900000
-1.14050000 -0.18920000 -6.96950000
5.47470000 -1.32320000 -6.64420000
-0.91580000 -0.26560000 -6.90570000
5.94950000 -1.44420000 -6.67220000
3.76080000 -0.91980000 -6.32950000
5.72940000 -1.42810000 -6.68810000
6.03580000 -1.32600000 -6.84890000
6.89410000 -7.20880000 -5.19650000
-0.96960000 -0.10260000 -6.87740000
5.77260000 -1.38920000 -6.82370000
5.72160000 -1.27160000 -6.93990000
5.93310000 -1.23720000 -6.98060000
6.86550000 -6.87160000 -5.23140000
4.50500000 -1.23210000 -6.68300000
6.67000000 -6.68040000 -5.53070000
6.10950000 -1.15710000 -6.91890000
6.01860000 -1.00240000 -6.97010000
7.36970000 -0.40040000 -6.26770000
5.24570000 -3.74630000 -2.19830000
5.55560000 -1.24060000 -6.78980000
5.25800000 -3.81550000 -2.29030000
5.61650000 -1.08540000 -6.97000000
4.28750000 -0.91710000 -6.65870000
6.98660000 -6.71800000 -5.05820000
5.46790000 -3.75100000 -2.20730000
5.47460000 -3.85970000 -2.23910000
5.31370000 -0.93600000 -6.67310000
5.48370000 -0.84170000 -6.70880000
5.53940000 -1.01490000 -6.82010000
5.80520000 -1.09780000 -7.02540000
2.48310000 -2.53720000 -6.04160000
5.75380000 -0.90280000 -6.95550000
5.65400000 -3.91840000 -2.32010000
5.89550000 -3.88040000 -2.45010000
5.78210000 -3.69200000 -2.22960000
5.64640000 -0.78190000 -6.81390000
6.09070000 -3.59320000 -2.28250000
6.35180000 -3.51080000 -1.34360000
7.05820000 -1.15610000 -6.95980000
-0.47200000 -0.50040000 -6.64290000
-0.18570000 -0.63560000 -6.58920000
7.23340000 -1.09720000 -6.73010000
4.41400000 -9.83840000 -4.75760000
6.19400000 -1.17110000 -6.73510000
6.72540000 -6.27310000 -5.64170000
7.01960000 -0.95410000 -6.94310000
-0.33980000 -0.53830000 -6.71000000
6.59950000 -3.12360000 -2.10780000
-0.31370000 -0.45190000 -6.90620000
-0.15790000 -0.52320000 -6.77680000
6.74070000 -0.74260000 -6.76170000
6.18690000 -0.95590000 -6.75950000
6.10760000 -0.77160000 -6.76470000
0.01500000 -0.54720000 -6.64290000
6.89440000 -0.78980000 -6.84920000
6.98010000 -6.39180000 -5.27090000
5.92670000 -0.88550000 -6.96630000
7.11970000 -0.85860000 -6.72180000
6.25190000 -6.35710000 -5.90300000
5.85570000 -0.73040000 -6.83310000
4.52510000 -9.96050000 -4.36910000
6.54610000 -6.02370000 -5.79820000
4.63400000 -10.21790000 -4.12300000
2.80680000 -2.41370000 -6.52920000
0.20380000 -0.42390000 -6.60430000
4.39440000 -10.02130000 -5.01130000
3.10860000 -1.98150000 -6.55580000
7.04260000 -5.34990000 -5.37640000
2.78550000 -2.26220000 -6.58510000
2.93070000 -1.97880000 -6.62730000
7.02750000 -0.65320000 -6.70280000
6.83710000 -0.60410000 -6.76700000
7.07680000 -0.53530000 -6.81300000
6.85710000 -0.55400000 -6.92920000
6.02880000 -0.55650000 -6.78270000
5.81670000 -0.62360000 -6.82230000
5.91070000 -0.53790000 -6.89710000
1.46860000 -1.99020000 -6.18730000
7.23300000 -0.42710000 -6.74530000
-2.47760000 -3.25500000 -4.81470000
3.31620000 -2.04600000 -6.81150000
7.00280000 -0.39420000 -7.01430000
5.08710000 -0.81300000 -6.81920000
3.20520000 -1.96030000 -6.63000000
7.17160000 -0.32970000 -6.92860000
4.46010000 -9.85220000 -5.26870000
3.37680000 -1.78490000 -6.82920000
3.25590000 -1.81760000 -6.69740000
0.01970000 -0.40450000 -6.83080000
5.07570000 -0.68310000 -6.74500000
0.16380000 -0.19900000 -6.69370000
2.86920000 -2.13400000 -6.65740000
4.46490000 -7.58700000 -4.44820000
4.49400000 -8.61030000 -4.52150000
2.77920000 -1.98030000 -6.83390000
4.87180000 -0.69780000 -6.81440000
2.94990000 -1.76240000 -6.58220000
4.66950000 -0.63070000 -6.70970000
1.38600000 -3.65630000 -4.49070000
3.00060000 -3.73220000 -4.11570000
1.74040000 -3.77510000 -4.10190000
4.85500000 -0.56350000 -6.77890000
2.79090000 -1.74780000 -6.74280000
4.79430000 -0.48560000 -6.92360000
5.03530000 -0.48760000 -6.85960000
4.93270000 -0.35640000 -7.04810000
5.11460000 -0.28280000 -6.97990000
4.42570000 -7.86130000 -4.73050000
4.44290000 -8.78420000 -4.81900000
3.03440000 -1.38500000 -6.59110000
2.82390000 -3.43420000 -5.04300000
2.25020000 -3.51350000 -4.85080000
2.50990000 -3.33670000 -5.25990000
4.45510000 -8.73460000 -5.10630000
4.42220000 -7.62120000 -4.96080000
-0.65520000 -0.10840000 -6.64540000
-0.78220000 -0.17170000 -6.66550000
2.03340000 -3.38870000 -5.14280000
-0.47020000 -0.38610000 -6.86130000
4.51360000 -7.66080000 -5.18390000
4.53580000 -8.36680000 -5.33850000
5.56580000 -0.40410000 -6.83090000
-0.54370000 -0.34380000 -6.71060000
5.71640000 -0.46320000 -6.97350000
-0.36730000 -0.29240000 -6.97930000
5.44500000 -0.27580000 -6.73880000
-0.50310000 -0.19770000 -6.84490000
-0.55960000 -0.12830000 -6.70430000
0.51100000 -3.75580000 -4.17140000
0.71560000 -3.89510000 -3.59480000
-0.11410000 -3.84690000 -3.90340000
5.61460000 -0.30610000 -7.04790000
5.16810000 -0.50900000 -6.72450000
3.33600000 -1.61710000 -6.64380000
3.19140000 -1.31870000 -6.59360000
4.36080000 -6.69400000 -4.73990000
5.10420000 -9.18790000 -5.89620000
-1.78110000 -0.08900000 -6.33790000
-0.22560000 -1.19710000 -6.26440000
0.91480000 -0.03470000 -6.37930000
5.18420000 -0.35200000 -6.79470000
3.50640000 -1.50980000 -6.71690000
3.33720000 -1.34100000 -6.67530000
-0.23640000 -3.93120000 -3.50840000
5.35320000 -0.05970000 -6.73800000
3.53440000 -1.83780000 -6.91260000
-0.88030000 0.04940000 -6.69080000
5.19600000 -0.01300000 -6.83820000
-0.41370000 0.06320000 -6.75340000
5.89200000 -0.43660000 -7.04180000
3.57060000 -1.64520000 -6.79770000
-0.87330000 0.19990000 -6.68220000
4.45830000 -7.15970000 -5.16950000
5.85360000 -0.24770000 -7.11450000
5.63370000 -0.15180000 -7.06580000
3.79650000 -1.54290000 -6.71460000
5.50150000 -0.06190000 -6.84710000
3.67890000 -1.43780000 -6.83770000
3.46240000 -1.31510000 -6.85130000
3.87410000 -1.39380000 -6.80990000
