10.79180800 20.92231200 -1.91132200
10.53212300 20.91395800 -1.86551500
9.48458700 20.90162200 -5.50331700
9.25623300 20.89376300 -5.37142000
7.02782100 20.86273800 -8.43153500
6.85834600 20.85581000 -8.22945600
3.71783300 20.81034700 -10.34279300
3.62768600 20.80467600 -10.09490800
-0.04614900 20.75076900 -11.00655600
-0.04608100 20.74652500 -10.74277000
-3.81012400 20.69119400 -10.34277900
-3.71984700 20.68837800 -10.09489800
-7.12010600 20.63879700 -8.43151300
-6.95050000 20.63724300 -8.22944000
-9.57686400 20.59991300 -5.50328700
-9.34837700 20.59928400 -5.37139400
-10.88407200 20.57922500 -1.91129300
-10.62426000 20.57909000 -1.86548600
-10.88407000 20.57922200 1.91122800
-10.62425500 20.57909200 1.86542200
-9.57685100 20.59991400 5.50322200
-9.34836400 20.59928800 5.37132800
-7.12008600 20.63879800 8.43144000
-6.95048200 20.63724000 8.22936500
-3.81009800 20.69118900 10.34269600
-3.71982300 20.68837500 10.09481500
-0.04612200 20.75076600 11.00646500
-0.04605700 20.74652500 10.74267600
3.71785200 20.81034300 10.34269000
3.62771000 20.80467500 10.09480800
7.02783700 20.86273600 8.43142300
6.85836200 20.85580900 8.22935000
10.15886700 20.91144400 3.71471500
10.43084000 20.91745100 3.81372500
10.81379600 20.92180900 -0.00006000
11.10322300 20.92809400 -0.00006200
10.15885700 20.91144200 -3.71483300
10.43083200 20.91745100 -3.81384600
8.27304700 20.88159400 -6.98154800
8.49475700 20.88680800 -7.16763000
5.38382300 20.83586500 -9.40619100
5.52852800 20.83985400 -9.65690300
1.83967200 20.77976600 -10.69631500
1.88990800 20.78226400 -10.98141200
-1.93194000 20.72006500 -10.69630300
-1.98223000 20.72097100 -10.98139800
-5.47608600 20.66396900 -9.40617600
-5.62084300 20.66338200 -9.65688300
-8.36530300 20.61823500 -6.98152400
-8.58706600 20.61643300 -7.16760900
-10.25110000 20.58838600 -3.71480500
-10.52312900 20.58578400 -3.81381600
-10.90603000 20.57802200 -0.00003200
-11.19551300 20.57514500 -0.00003100
-10.25109100 20.58838900 3.71474100
-10.52312000 20.58578400 3.81375400
-8.36528500 20.61823500 6.98145400
-8.58704900 20.61642900 7.16753700
-5.47606500 20.66396700 9.40609700
-5.62082100 20.66338000 9.65680600
-1.93191400 20.72006500 10.69621900
-1.98220100 20.72097400 10.98131600
1.83969300 20.77976300 10.69621600
1.88993200 20.78226300 10.98131100
5.38384300 20.83586100 9.40608600
5.52854400 20.83985400 9.65679400
8.27306300 20.88159100 6.98143500
8.49477400 20.88680800 7.16751800
9.86118200 20.47467100 5.71680500
11.17296900 20.85154400 1.97820400
11.17296200 20.85154500 -1.97832800
9.81991300 20.83013300 -5.69624800
7.27701400 20.78988600 -8.72712400
3.85098400 20.73566200 -10.70538800
-0.04495200 20.67400000 -11.39242500
-3.94088500 20.61233800 -10.70537400
-7.36691000 20.55811600 -8.72710600
-9.90979700 20.51786800 -5.69622100
-11.26283800 20.49645300 -1.97829600
-11.26283300 20.49645300 1.97823400
-9.90978400 20.51786800 5.69615500
-7.36689300 20.55811600 8.72703300
-3.94086200 20.61233800 10.70529300
-0.04492600 20.67400000 11.39233300
3.85101000 20.73566100 10.70528700
7.27703500 20.78988600 8.72701700
10.67972800 20.71569200 3.90316600
11.36788200 20.72657700 -0.00006200
10.67971900 20.71568900 -3.90328600
8.69823900 20.68433600 -7.33572000
5.66244600 20.63629700 -9.88336900
1.93849400 20.57737100 -11.23893700
-2.02444700 20.51466200 -11.23893200
-5.74839400 20.45573500 -9.88334800
-8.78417800 20.40769800 -7.33569800
-10.76564400 20.37634500 -3.90325600
-11.45379900 20.36545100 -0.00003000
-10.76563600 20.37634500 3.90319300
-8.78416200 20.40769900 7.33562800
-5.74836900 20.45573200 9.88327400
-2.02442100 20.51466200 11.23884700
1.93852100 20.57736900 11.23884200
5.66246800 20.63629700 9.88326400
8.69825500 20.68433300 7.33560800
9.14114900 20.79503600 5.30397200
10.42337400 20.48408900 1.84505500
10.42336800 20.48408900 -1.84517600
9.16138800 20.46412800 -5.31285600
6.78964600 20.42662200 -8.13973300
3.59420700 20.37608400 -9.98484700
-0.03950600 20.31861400 -10.62564200
-3.67321600 20.26114300 -9.98483700
-6.86864700 20.21060700 -8.13971700
-9.24038300 20.17309200 -5.31283200
-10.50235500 20.15313500 -1.84514800
-10.50234800 20.15313800 1.84508300
-9.24037000 20.17309700 5.31276500
-6.86862900 20.21060600 8.13964100
-3.67319600 20.26114500 9.98475200
-0.03948100 20.31861200 10.62555000
3.59422900 20.37608100 9.98474400
6.78966300 20.42662200 8.13962800
9.91584000 20.67740300 3.62495200
10.55494100 20.68751200 -0.00006000
9.91583300 20.67740100 -3.62507100
8.07559000 20.64828300 -6.81284900
5.25617900 20.60367200 -9.17890500
1.79766400 20.54894800 -10.43785200
-1.88280900 20.49071000 -10.43784500
-5.34131800 20.43598600 -9.17889000
-8.16072000 20.39137400 -6.81282800
-10.00095200 20.36225400 -3.62504400
-10.64005500 20.35214200 -0.00003200
-10.00094600 20.36225400 3.62497900
-8.16070400 20.39137400 6.81275800
-5.34129700 20.43598400 9.17881200
-1.88278400 20.49071000 10.43776000
1.79768700 20.54894500 10.43775500
5.25619700 20.60367100 9.17880000
8.07560300 20.64828100 6.81273700
8.24625200 18.57160000 4.76905400
8.64458500 18.16718100 1.52578300
8.64458200 18.16717900 -1.52590100
7.60097200 18.15097500 -4.39354500
5.63962200 18.12051800 -6.73126600
2.99710700 18.07948400 -8.25710300
-0.00784600 18.03282300 -8.78701900
-3.01279700 17.98616300 -8.25709600
-5.65530500 17.94512900 -6.73124900
-7.61664500 17.91467500 -4.39352400
-8.66025300 17.89846900 -1.52587500
-8.66025000 17.89846900 1.52580700
-7.61663600 17.91466900 4.39345100
-5.65528900 17.94513000 6.73117500
-3.01277900 17.98616000 8.25701400
-0.00782300 18.03282600 8.78693000
2.99712800 18.07948600 8.25700700
5.63963800 18.12051800 6.73116200
8.53146800 18.35121600 3.10922900
9.07964800 18.35974800 -0.00005900
8.53145900 18.35121600 -3.10934400
6.95302600 18.32664700 -5.84360600
4.53472400 18.28900400 -7.87304500
1.56823800 18.24282900 -8.95288200
-1.58862600 18.19368800 -8.95287700
-4.55510400 18.14751400 -7.87303100
-6.97340000 18.10987200 -5.84358300
-8.55182700 18.08530500 -3.10932300
-9.10000700 18.07676800 -0.00003400
-8.55182100 18.08530200 3.10925200
-6.97338700 18.10987200 5.84351200
-4.55508500 18.14751500 7.87295200
-1.58860300 18.19369000 8.95279200
1.56825700 18.24282900 8.95278700
4.53473900 18.28900100 7.87294300
6.95303700 18.32664600 5.84349500
5.27917000 18.05753600 -6.88667700
5.28270600 18.23192900 -6.79462200
5.37358800 18.36096400 -6.67622100
5.52749000 18.41007600 -6.56319000
5.70318600 18.36609900 -6.48582200
5.85359000 18.24080800 -6.46484500
5.93837100 18.06776200 -6.50588200
5.93480300 17.89333000 -6.59793400
5.84385400 17.76426200 -6.71633600
5.68991900 17.71515900 -6.82937000
5.51425600 17.75917300 -6.90673600
5.36392000 17.88449800 -6.92771300
5.35948300 18.15433600 -7.05326100
5.36044600 18.33206100 -6.95345100
5.45330800 18.46443700 -6.82926500
5.61321800 18.51600000 -6.71397900
5.79733700 18.47293700 -6.63848000
5.95632200 18.34677200 -6.62300400
6.04754600 18.17129600 -6.67169600
6.04655000 17.99353400 -6.77150500
5.95361800 17.86112600 -6.89568900
5.79367200 17.80956500 -7.01097700
5.60958600 17.85266400 -7.08647500
5.45067100 17.97886500 -7.10195100
5.66677600 18.58116300 -7.64956600
5.65392900 18.73718700 -7.51953100
5.74093200 18.85961600 -7.38195900
5.90448800 18.91565500 -7.27371400
6.10078900 18.89028600 -7.22379900
6.27722700 18.79030100 -7.24559400
6.38650500 18.64248200 -7.33325200
6.39933300 18.48642800 -7.46328900
6.31227700 18.36396900 -7.60085900
6.14869000 18.30793400 -7.70910400
5.95240400 18.33332500 -7.75901400
5.77602300 18.43333700 -7.73722700
5.79765100 19.28305200 -8.21144900
5.77580300 19.39392700 -8.03522700
5.85623600 19.50590000 -7.87722500
6.01740500 19.58897500 -7.77978500
6.21613700 19.62089800 -7.76901600
6.39918400 19.59311000 -7.84780400
6.51749200 19.51305500 -7.99503200
6.53935400 19.40217800 -8.17125600
6.45890500 19.29019400 -8.32925300
6.29771000 19.20710700 -8.42669300
6.09896500 19.17518900 -8.43746100
5.91593400 19.20299000 -8.35867800
5.57711400 20.09599400 -8.47944100
5.55273100 20.21563100 -8.30397500
5.61269100 20.38956300 -8.17336700
5.74090800 20.57117000 -8.12261400
5.90304200 20.71179800 -8.16531800
6.05566800 20.77377600 -8.29003000
6.15790900 20.74050100 -8.46334200
6.18235600 20.62088100 -8.63880600
6.12244100 20.44696300 -8.76941400
5.99419900 20.26534400 -8.82016900
5.83199500 20.12469300 -8.77746400
5.67932800 20.06270100 -8.65275200
5.00242500 20.24825900 -8.81839200
4.92046600 20.37141700 -8.67847800
4.87896100 20.55916900 -8.61138900
4.88902100 20.76119900 -8.63510700
4.94795000 20.92338200 -8.74327300
5.03999200 21.00226900 -8.90690600
5.14050700 20.97673100 -9.08216000
5.22255300 20.85360400 -9.22208100
5.26411300 20.66587200 -9.28916300
5.25403400 20.46383000 -9.26545000
5.19502100 20.30161700 -9.15728300
5.10291800 20.22271200 -8.99364700
4.43457700 20.07592100 -9.13340400
4.29527900 20.19441300 -9.02432400
4.14884400 20.36532500 -9.01229600
4.03448900 20.54285700 -9.10054000
3.98286800 20.67943800 -9.26541100
4.00784200 20.73849100 -9.46273500
4.10272400 20.70418000 -9.63963300
4.24209200 20.58571000 -9.74871100
4.38857400 20.41480800 -9.76074200
4.50289900 20.23726900 -9.67249600
4.55445100 20.10066000 -9.50762300
4.52943600 20.04160100 -9.31030000
4.11342900 19.24725000 -9.14607700
3.97414200 19.35962600 -9.03810800
3.79590800 19.46904400 -9.02648300
3.62648900 19.54618500 -9.11430600
3.51129500 19.57038700 -9.27805300
3.48119300 19.53516600 -9.47384700
3.54424700 19.44995700 -9.64923000
3.68354600 19.33759000 -9.75719800
3.86176600 19.22816900 -9.76882700
4.03115500 19.15101000 -9.68100000
4.14633800 19.12680200 -9.51725200
4.17645500 19.16202800 -9.32145600
3.71170900 18.54512900 -8.72464800
3.60678500 18.70240000 -8.65004600
3.44354900 18.82341300 -8.65575500
3.26575700 18.87574300 -8.74024100
3.12106300 18.84538100 -8.88087100
3.04823000 18.74046300 -9.03996300
3.06675400 18.58909900 -9.17488500
3.17165800 18.43183500 -9.24948900
3.33483900 18.31080700 -9.24377900
3.51259800 18.25845400 -9.15929400
3.65731000 18.28880600 -9.01866200
3.73019900 18.39373900 -8.85957100
3.38423400 18.11400200 -8.19800800
3.29838600 18.29260500 -8.15156600
3.14463700 18.42436000 -8.17098000
2.96421400 18.47397400 -8.25105500
2.80547000 18.42816100 -8.37032400
2.71093000 18.29920100 -8.49684100
2.70590100 18.12165000 -8.59669900
2.79171400 17.94306000 -8.64313600
2.94539000 17.81128300 -8.62372300
3.12577800 17.76163900 -8.54365100
3.28455400 17.80743700 -8.42437700
3.37916400 17.93641600 -8.29786200
3.28756100 18.01390300 -8.04678100
3.20639700 18.19075400 -8.00609000
3.05745100 18.32052900 -8.02716700
2.88065300 18.36846900 -8.10435700
2.72339200 18.32173300 -8.21698700
2.62779400 18.19285100 -8.33487400
2.61944700 18.01635500 -8.42642500
2.70057400 17.83951700 -8.46711600
2.84945200 17.70971900 -8.44604200
3.02621300 17.66175200 -8.36884700
3.18350800 17.70847400 -8.25622000
3.27917500 17.83737400 -8.13833500
3.14516800 18.14699400 -8.04257700
3.20900500 18.00789000 -8.07458100
3.20241400 17.86903300 -8.14659900
3.12716700 17.76764300 -8.23932500
3.00344400 17.73089200 -8.32792000
2.86440300 17.76862100 -8.38863700
2.74729200 17.87071500 -8.40521300
2.68347700 18.00981200 -8.37320800
2.69004500 18.14864900 -8.30119300
2.76524900 18.25002700 -8.20846600
2.88895100 18.28678700 -8.11987400
3.02801400 18.24907600 -8.05915300
2.94624100 18.00885000 -8.22389900
5.35490600 18.05300400 -6.82805500
5.35756000 18.18395200 -6.75893800
5.42580600 18.28083900 -6.67003400
5.54136800 18.31771300 -6.58516600
5.67328800 18.28469000 -6.52707700
5.78620900 18.19061400 -6.51132600
5.84986200 18.06068100 -6.54213700
5.84718600 17.92971100 -6.61125600
5.77890300 17.83280700 -6.70015800
5.66332600 17.79593900 -6.78502700
5.53142400 17.82898100 -6.84311800
5.41854000 17.92307500 -6.85886400
5.60238300 18.05684200 -6.68509700
-3.28836200 17.92459800 7.94833200
-3.20796000 18.09988400 7.90729800
-3.06081300 18.22958600 7.92827500
-2.88631600 18.27894100 8.00564000
-2.73121300 18.23471600 8.11867100
-2.63708000 18.10876100 8.23707400
-2.62916100 17.93482800 8.32912900
-2.70959300 17.75952900 8.37016400
-2.85681100 17.62984700 8.34918800
-3.03134300 17.58052000 8.27181900
-3.18641000 17.62475700 8.15879100
-3.28047600 17.75069200 8.04038700
-3.39310800 18.01835000 8.10218900
-3.30730700 18.19709400 8.05510300
-3.15418900 18.33019500 8.07495600
-2.97475100 18.38198500 8.15643000
-2.81706500 18.33858100 8.27769400
-2.72339300 18.21160700 8.40625600
-2.71885800 18.03508700 8.50766900
-2.80469200 17.85633800 8.55475700
-2.95788200 17.72325500 8.53490300
-3.13735500 17.67149500 8.45343000
-3.29500600 17.71490700 8.33216500
-3.38860900 17.84186800 8.20360100
-3.75872700 18.43397300 8.67106200
-3.65354700 18.59159300 8.59673600
-3.49172500 18.71501700 8.60476100
-3.31660500 18.77116000 8.69298600
-3.17509800 18.74497300 8.83777300
-3.10512400 18.64347000 9.00032600
-3.12545800 18.49385800 9.13708700
-3.23065600 18.33622800 9.21141600
-3.39252700 18.21282300 9.20339000
-3.56768100 18.15670400 9.11516500
-3.70917000 18.18289400 8.97037800
-3.77909100 18.28438200 8.80782600
-4.18468800 19.12613300 9.07338300
-4.04375100 19.23943400 8.96773700
-3.86749300 19.35279500 8.95981900
-3.70314200 19.43583900 9.05174400
-3.59471900 19.46631400 9.21888600
-3.57127500 19.43605000 9.41645800
-3.63909400 19.35315200 9.59152100
-3.78001700 19.23984200 9.69716400
-3.95628800 19.12648600 9.70508400
-4.12066900 19.04345500 9.61315700
-4.22910500 19.01298900 9.44601500
-4.25253400 19.04325400 9.24844300
-4.53283000 19.93627100 9.02635500
-4.39393300 20.05842100 8.91909900
-4.25215300 20.23355700 8.90803400
-4.14550100 20.41475600 8.99612100
-4.10253300 20.55346300 9.15976200
-4.13474700 20.61250600 9.35510500
-4.23349200 20.57605500 9.52981000
-4.37232100 20.45388400 9.63706500
-4.51405700 20.27873500 9.64812900
-4.62073400 20.09754900 9.56004300
-4.66377300 19.95885900 9.39640100
-4.63160200 19.89982900 9.20105800
-5.11475400 20.08832200 8.69993400
-5.03546400 20.21396300 8.56063700
-4.99953200 20.40286800 8.49364400
-5.01660600 20.60442300 8.51690800
-5.08210500 20.76461400 8.62419300
-5.17844700 20.84051600 8.78675600
-5.27979500 20.81178100 8.96103400
-5.35899800 20.68611600 9.10033200
-5.39487100 20.49719200 9.16732300
-5.37782000 20.29564600 9.14405800
-5.31240500 20.13548200 9.03677500
-5.21612600 20.05959300 8.87421200
-5.67011900 19.91628700 8.36330800
-5.64615000 20.03728600 8.18968100
-5.71020700 20.20941400 8.05906700
-5.84514300 20.38654700 8.00646100
-6.01479200 20.52123200 8.04596300
-6.17367000 20.57736300 8.16698400
-6.27919400 20.53988900 8.33710300
-6.30309500 20.41886400 8.51072700
-6.23899500 20.24672200 8.64134100
-6.10408600 20.06959600 8.69394700
-5.93450700 19.93493500 8.65444500
-5.77566700 19.87882500 8.53342200
-5.83568700 19.09086300 8.08122700
-5.81257100 19.20565900 7.90799000
-5.89235000 19.31649900 7.74913800
-6.05363700 19.39369300 7.64723700
-6.25320900 19.41653900 7.62959100
-6.43758600 19.37892700 7.70092700
-6.55736600 19.29094000 7.84213300
-6.58047100 19.17615000 8.01537200
-6.50070800 19.06532100 8.17422400
-6.33945000 18.98813700 8.27612600
-6.13988800 18.96528300 8.29376900
-5.95549500 19.00288200 8.22243300
-5.66673700 18.39868400 7.51450300
-5.65559800 18.55752100 7.38813900
-5.74292800 18.67953300 7.25099900
-5.90531000 18.73203200 7.13983400
-6.09922300 18.70093500 7.08442800
-6.27271500 18.59459200 7.09962900
-6.37931500 18.44151000 7.18136100
-6.39047700 18.28270100 7.30772600
-6.30320000 18.16071900 7.44486600
-6.14085100 18.10822100 7.55603400
-5.94691700 18.13928900 7.61143700
-5.77337400 18.24559900 7.59623600
-5.37151700 17.97798900 6.96291300
-5.37532900 18.15755400 6.86731200
-5.46983300 18.29001300 6.74531500
-5.62967900 18.33986800 6.62961000
-5.81202200 18.29375600 6.55120100
-5.96801600 18.16404700 6.53109500
-6.05589000 17.98551000 6.57468300
-6.05211000 17.80598200 6.67028300
-5.95767800 17.67355300 6.79228000
-5.79787200 17.62369500 6.90798600
-5.61549400 17.66977200 6.98639600
-5.45942900 17.79945000 7.00649900
-5.28822800 17.88086500 6.80252500
-5.29466100 18.05855700 6.71382000
-5.38817900 18.18898100 6.59677500
-5.54370500 18.23716800 6.48275100
-5.71955100 18.19021300 6.40229900
-5.86860700 18.06071000 6.37697600
-5.95096500 17.88337000 6.41357200
-5.94456700 17.70571200 6.50227600
-5.85111900 17.57532300 6.61932300
-5.69562900 17.52713400 6.73334900
-5.51975200 17.57405000 6.81379900
-5.37062400 17.70352100 6.83912000
-5.35658400 18.01486200 6.67854000
-5.35153000 17.87509400 6.74831400
-5.41633900 17.73559700 6.77709800
-5.53363500 17.63375700 6.75718100
-5.67197800 17.59684400 6.69389900
-5.79428600 17.63475100 6.60420800
-5.86779700 17.73731800 6.51214000
-5.87283200 17.87706400 6.44236700
-5.80804500 18.01656000 6.41358200
-5.69079300 18.11842100 6.43349900
-5.55247200 18.15535400 6.49678100
-5.43013800 18.11745300 6.58647300
-5.61218000 17.87607700 6.59533900
-3.19970900 17.92028100 7.98459000
-3.13934100 18.05189000 7.95377800
-3.02884800 18.14927300 7.96953000
-2.89782100 18.18633100 8.02761900
-2.78136700 18.15312500 8.11248700
-2.71069500 18.05855400 8.20138900
-2.70475300 17.92796000 8.27050800
-2.76514200 17.79633900 8.30132000
-2.87567700 17.69896500 8.28556900
-3.00671800 17.66192700 8.22748000
-3.12315100 17.69514000 8.14261300
-3.19378900 17.78970100 8.05370900
-2.95223200 17.92412100 8.12754600
5.27949600 18.16993100 -6.88563300
5.32962400 18.33149200 -6.77311200
5.46009100 18.42644500 -6.64973000
5.63595900 18.42934800 -6.54855000
5.81010500 18.33941600 -6.49667900
5.93584700 18.18073700 -6.50801600
5.97946700 17.99581700 -6.57952800
5.92927700 17.83421300 -6.69204600
5.79874700 17.73924800 -6.81542400
5.62288000 17.73636700 -6.91660800
5.44879500 17.82633800 -6.96848200
5.32311500 17.98503500 -6.95714200
5.49164700 18.41538200 -7.26594600
5.53577600 18.57105200 -7.14185400
5.66629200 18.66580800 -7.01732700
5.84824500 18.67426100 -6.92573300
6.03288200 18.59415100 -6.89161800
6.17071200 18.44691600 -6.92411500
6.22478200 18.27200700 -7.01452600
6.18059800 18.11629600 -7.13861600
6.05002400 18.02152400 -7.26314400
5.86806700 18.01308800 -7.35473700
5.68348400 18.09324300 -7.38885700
5.54571200 18.24049500 -7.35635800
5.74766700 18.96198800 -7.88904100
5.78075100 19.08685100 -7.73076200
5.90860700 19.17565400 -7.59837400
6.09698600 19.20460500 -7.52735000
6.29541700 19.16594600 -7.53672100
6.45073000 19.07002700 -7.62397800
6.52128400 18.94254400 -7.76573500
6.48817700 18.81765700 -7.92401300
6.36028800 18.72883900 -8.05639900
6.17189500 18.69989700 -8.12742300
5.97348000 18.73857700 -8.11805100
5.81820900 18.83451200 -8.03079800
5.71489700 19.78256600 -8.26871100
5.74481600 19.91289800 -8.09635200
5.86404900 20.05451000 -7.97750300
6.04065000 20.16945800 -7.94400900
6.22732100 20.22694700 -8.00485000
6.37404800 20.21157800 -8.14372100
6.44151400 20.12746500 -8.32340900
6.41162600 19.99713900 -8.49576800
6.29238300 19.85552200 -8.61461300
6.11574200 19.74055600 -8.64810800
5.92904200 19.68306400 -8.58726800
5.78232500 19.69843900 -8.44839900
5.28455300 20.28822300 -8.55173500
5.26837500 20.44883800 -8.41668200
5.31672600 20.64961800 -8.35633600
5.41664400 20.83675600 -8.38686000
5.54137700 20.96011600 -8.50007900
5.65753700 20.98665900 -8.66565600
5.73399900 20.90927200 -8.83922100
5.75025800 20.74868000 -8.97427200
5.70192700 20.54790800 -9.03461800
5.60194800 20.36074500 -9.00409600
5.47713400 20.23735600 -8.89087900
5.36095800 20.21080900 -8.72530300
4.63423000 20.27777800 -8.92680800
4.52277800 20.43693300 -8.84676000
4.44123000 20.63564900 -8.86135700
4.41143000 20.82068300 -8.96668900
4.44138200 20.94246600 -9.13453300
4.52309500 20.96836500 -9.31991700
4.63467900 20.89145000 -9.47316100
4.74621200 20.73232100 -9.55321300
4.82777800 20.53360900 -9.53861100
4.85752000 20.34855500 -9.43328000
4.82748400 20.22674800 -9.26543300
4.74575000 20.20084200 -9.08005100
4.19559900 19.75349100 -9.12675200
4.03116600 19.88228100 -9.06564000
3.86456800 20.01944400 -9.10900800
3.74044900 20.12822700 -9.24522800
3.69208500 20.17949000 -9.43781200
3.73244000 20.15949800 -9.63514700
3.85070100 20.07360600 -9.78436100
4.01516700 19.94482500 -9.84547600
4.18175400 19.80765800 -9.80211100
4.30583200 19.69886000 -9.66588700
4.35416900 19.64758600 -9.47330500
4.31382300 19.66758200 -9.27597000
3.86862400 18.92656000 -8.92093900
3.71562200 19.05127800 -8.86947100
3.53491600 19.13643600 -8.91098900
3.37494100 19.15921300 -9.03436500
3.27856500 19.11351900 -9.20653800
3.27160800 19.01158700 -9.38138200
3.35591600 18.88073500 -9.51204400
3.50889500 18.75601300 -9.56351000
3.68956500 18.67084300 -9.52199700
3.84953000 18.64804900 -9.39862500
3.94592700 18.69374500 -9.22644700
3.95292200 18.79569200 -9.05160100
3.48638500 18.37846500 -8.39933400
3.35728400 18.53415000 -8.37686000
3.18340100 18.62705900 -8.42683900
3.01135200 18.63231200 -8.53588500
2.88723300 18.54850000 -8.67477000
2.84428600 18.39808300 -8.80628600
2.89399500 18.22135900 -8.89519200
3.02304200 18.06566900 -8.91766700
3.19686200 17.97272900 -8.86768200
3.36891000 17.96745700 -8.75864100
3.49308300 18.05127500 -8.61975600
3.53608800 18.20171600 -8.48824100
3.28525800 18.12824200 -8.05210000
3.16341500 18.29013000 -8.04137300
2.99119300 18.38403600 -8.09325600
2.81476500 18.38480300 -8.19385300
2.68140200 18.29223700 -8.31620400
2.62681900 18.13113800 -8.42752700
2.66561700 17.94466400 -8.49799200
2.78739800 17.78277200 -8.50871900
2.95955700 17.68883500 -8.45683600
3.13598400 17.68804100 -8.35623900
3.26940700 17.78061500 -8.23388800
3.32405300 17.94174000 -8.12256400
3.23184600 18.09412200 -8.02115900
3.26716800 17.92261300 -8.08534200
3.21666500 17.77437400 -8.18699300
3.09388900 17.68913500 -8.29887400
2.93175700 17.68974100 -8.39100100
2.77371000 17.77601900 -8.43869400
2.66208100 17.92484100 -8.42917500
2.62675600 18.09632800 -8.36498800
2.67720600 18.24454400 -8.26334100
2.79993000 18.32977900 -8.15146200
2.96206300 18.32919700 -8.05933100
3.12016300 18.24294200 -8.01163600
3.12516500 18.06201300 -8.09576600
3.14734900 17.95429500 -8.13607600
3.11563700 17.86119200 -8.19991900
3.03852900 17.80765800 -8.27018900
2.93670000 17.80803600 -8.32805200
2.83743100 17.86222300 -8.35800400
2.76731300 17.95569100 -8.35202500
2.74513000 18.06340100 -8.31171500
2.77682100 18.15649200 -8.24787100
2.85390500 18.21002600 -8.17760400
2.95573500 18.20965700 -8.11974000
3.05502800 18.15548200 -8.08978900
5.29176700 18.13535900 -6.82328900
5.33658900 18.27940600 -6.72337900
5.45279200 18.36397800 -6.61351000
5.60926200 18.36641200 -6.52312700
5.76407000 18.28605800 -6.47643700
5.87572000 18.14442900 -6.48596100
5.91427100 17.97947500 -6.54914000
5.86940200 17.83539500 -6.64905400
5.75314800 17.75081300 -6.75892000
5.59668100 17.74839600 -6.84930700
5.44191900 17.82878500 -6.89599300
5.33032100 17.97042500 -6.88647100
5.41373700 18.10408300 -6.76817700
5.44090900 18.19139100 -6.70762100
5.51134600 18.24264800 -6.64103100
5.60617900 18.24412500 -6.58625100
5.70000400 18.19541700 -6.55795700
5.76766400 18.10957700 -6.56372500
5.79102900 18.00960000 -6.60201900
5.76384000 17.92227700 -6.66257300
5.69338600 17.87101800 -6.72916100
5.59855100 17.86954900 -6.78394500
5.50474800 17.91826600 -6.81224100
5.43710500 18.00411200 -6.80646800
-3.28799700 18.03679500 7.94931300
-3.16651300 18.19919400 7.93828300
-2.99505800 18.29463500 7.99069000
-2.81954500 18.29753100 8.09249000
-2.68700800 18.20710400 8.21640700
-2.63298000 18.04757800 8.32923700
-2.67195900 17.86170900 8.40074600
-2.79350300 17.69932200 8.41177600
-2.96502300 17.60390600 8.35936900
-3.14053500 17.60103300 8.25757100
-3.27301100 17.69145900 8.13365300
-3.32697800 17.85095600 8.02082500
-3.51292400 18.27502700 8.32582100
-3.38440100 18.43176200 8.30378300
-3.21193600 18.52703400 8.35567900
-3.04172300 18.53529800 8.46760500
-2.91936900 18.45433900 8.60956700
-2.87767900 18.30584500 8.74352800
-2.92784200 18.12962000 8.83359600
-3.05641900 17.97288600 8.85563400
-3.22894300 17.87764200 8.80373800
-3.39915900 17.86940100 8.69181400
-3.52145700 17.95035800 8.54985100
-3.56309200 18.09882300 8.41588900
-3.92823600 18.81029800 8.86517300
-3.77546000 18.93686800 8.81620500
-3.59750400 19.02634500 8.86184600
-3.44203700 19.05474800 8.98986300
-3.35071600 19.01446000 9.16595600
-3.34801100 18.91627800 9.34294400
-3.43466500 18.78651500 9.47339700
-3.58746100 18.65995000 9.52236300
-3.76545300 18.57048700 9.47672400
-3.92092900 18.54210500 9.34870500
-4.01223200 18.58238600 9.17261400
-4.01489900 18.68055100 8.99562700
-4.27917300 19.62493100 9.03644200
-4.11588600 19.75725800 8.97786400
-3.95439800 19.89944100 9.02355000
-3.83797800 20.01336800 9.16125600
-3.79780600 20.06851800 9.35408100
-3.84463300 20.05010200 9.55036200
-3.96592200 19.96306100 9.69749900
-4.12917600 19.83072300 9.75607500
-4.29067000 19.68855100 9.71039300
-4.40713000 19.57463500 9.57268400
-4.44733200 19.51949400 9.37985800
-4.40049400 19.53790400 9.18358100
-4.74309000 20.12968100 8.81156200
-4.63542500 20.29218200 8.73216800
-4.56053000 20.49331500 8.74655300
-4.53848000 20.67918500 8.85086100
-4.57516300 20.79998000 9.01714400
-4.66072100 20.82332700 9.20084800
-4.77222100 20.74297000 9.35274800
-4.87980800 20.58044100 9.43214000
-4.95468400 20.37930100 9.41775500
-4.97679200 20.19345500 9.31344600
-4.94019000 20.07268200 9.14716400
-4.85465300 20.04933900 8.96346000
-5.39289800 20.11924400 8.43559400
-5.38047800 20.28028100 8.30114800
-5.43539900 20.47935700 8.24044800
-5.54295800 20.66312800 8.26975900
-5.67431400 20.78233900 8.38122700
-5.79423700 20.80505000 8.54498400
-5.87058700 20.72516600 8.71715200
-5.88292900 20.56409400 8.85159700
-5.82798800 20.36501600 8.91229600
-5.72048700 20.18126900 8.88298500
-5.58921500 20.06207800 8.77151800
-5.46930900 20.03938200 8.60776300
-5.78145800 19.59612700 8.14894000
-5.81164700 19.72692800 7.97760500
-5.93348100 19.86469800 7.85672500
-6.11430500 19.97251700 7.81869500
-6.30565900 20.02149900 7.87370300
-6.45625500 19.99850300 8.00701000
-6.52574700 19.90970400 8.18289800
-6.49553000 19.77889800 8.35423300
-6.37370700 19.64113900 8.47511100
-6.19291900 19.53332800 8.51314300
-6.00159600 19.48435800 8.45813200
-5.85098900 19.50734200 8.32482700
-5.76085200 18.77561100 7.75289100
-5.79359100 18.90204100 7.59611700
-5.92044500 18.98792800 7.46135500
-6.10741100 19.01024700 7.38471700
-6.30438600 18.96303200 7.38673600
-6.45860500 18.85892900 7.46687400
-6.52875100 18.72584300 7.60365700
-6.49603500 18.59943800 7.76043200
-6.36921900 18.51356300 7.89519200
-6.18226600 18.49123500 7.97183000
-5.98526600 18.53843200 7.96980900
-5.83101100 18.64252000 7.88967100
-5.49651600 18.23846100 7.15491000
-5.54258200 18.39518400 7.03361000
-5.67338200 18.48862300 6.90903400
-5.85384800 18.49372700 6.81456100
-6.03562000 18.40914300 6.77550400
-6.17001400 18.25754200 6.80233300
-6.22104200 18.07955400 6.88785100
-6.17503000 17.92286600 7.00915200
-6.04428900 17.82944400 7.13372700
-5.86383100 17.82432000 7.22820000
-5.68200300 17.90886900 7.26725500
-5.54754900 18.06045300 7.24042900
-5.29470000 17.99493200 6.80443200
-5.34733000 18.15762100 6.69531500
-5.47894300 18.25200300 6.57312100
-5.65425300 18.25277800 6.47058100
-5.82627800 18.15975900 6.41517800
-5.94895300 17.99786900 6.42175500
-5.98942700 17.81050500 6.48855000
-5.93685900 17.64785700 6.59766600
-5.80531200 17.55349400 6.71986200
-5.63000700 17.55269100 6.82240100
-5.45791800 17.64567400 6.87780500
-5.33517800 17.80754700 6.87122800
-5.29438300 17.96170800 6.74233500
-5.33125100 17.78939200 6.80315000
-5.44362400 17.64048000 6.80862100
-5.60136600 17.55487000 6.75728500
-5.76219300 17.55549100 6.66289600
-5.88301200 17.64216600 6.55074500
-5.93147100 17.79167100 6.45088600
-5.89460100 17.96396900 6.39007400
-5.78228600 18.11289200 6.38460000
-5.62459700 18.19853600 6.43593700
-5.46376700 18.19793700 6.53032600
-5.34289300 18.11125000 6.64247400
-5.41211300 17.92948100 6.68686500
-5.43527100 17.82125300 6.72506100
-5.50584200 17.72772800 6.72849600
-5.60491200 17.67395400 6.69625400
-5.70592000 17.67434300 6.63697200
-5.78180900 17.72878100 6.56653400
-5.81224900 17.82268800 6.50381500
-5.78909400 17.93090000 6.46562100
-5.71854400 18.02443300 6.46218400
-5.61950200 18.07822100 6.49442700
-5.51848600 18.07784500 6.55370900
-5.44257600 18.02340200 6.62414700
-3.22765200 18.00303400 7.92841200
-3.11962900 18.14781900 7.91888900
-2.96693600 18.23282000 7.96557700
-2.81046700 18.23526000 8.05596300
-2.69214800 18.15446900 8.16583100
-2.64369900 18.01210400 8.26573900
-2.67812500 17.84631100 8.32892200
-2.78619600 17.70153500 8.33844600
-2.93894100 17.61655400 8.29175600
-3.09541000 17.61413700 8.20137300
-3.21368000 17.69492400 8.09150500
-3.26207800 17.83726500 7.99159400
-3.11876300 17.97161100 8.00617800
-3.05328500 18.05936400 8.00040700
-2.96073500 18.11087900 8.02870300
-2.86590100 18.11235100 8.08348400
-2.79419400 18.06339100 8.15007400
-2.76483700 17.97710500 8.21062700
-2.78570200 17.87662500 8.24891900
-2.85119900 17.78887100 8.25469200
-2.94377000 17.73736500 8.22639600
-3.03860300 17.73589700 8.17161300
-3.11029000 17.78486100 8.10502400
-3.13962800 17.87113800 8.04447000
5.28963000 18.07729400 -6.92810600
5.34796000 18.24600800 -7.00828100
5.29299800 18.25668600 -6.83281500
5.26948300 18.14759900 -6.84569700
5.39650900 18.40647800 -6.89236900
5.38650500 18.38950600 -6.71066800
5.31833900 18.30462100 -6.73679100
5.52730900 18.50166100 -6.76844600
5.54512300 18.44017400 -6.59438900
5.44500600 18.39680900 -6.61702900
5.70533800 18.50606200 -6.66971900
5.72636200 18.39511400 -6.51513900
5.61556400 18.39946200 -6.51850000
5.88288800 18.41849500 -6.62264300
5.88164800 18.26638700 -6.49415300
5.78431700 18.31187200 -6.46761100
6.01237000 18.26239900 -6.63982900
5.96934200 18.08847000 -6.53705200
5.90602300 18.15748900 -6.47798900
6.05906000 18.07960600 -6.71667400
5.96594000 17.90904000 -6.63234100
5.94805100 17.97767900 -6.54686100
6.01045300 17.91909600 -6.83258700
5.87236000 17.77618700 -6.75448900
5.89913700 17.82062200 -6.65576900
5.87959000 17.82389500 -6.95651000
5.71370700 17.72552400 -6.87076600
5.77241200 17.72842200 -6.77553000
5.70156000 17.81952000 -7.05523500
5.53250400 17.77062000 -6.95001700
5.60185100 17.72578700 -6.87405700
5.52406800 17.90713100 -7.10231400
5.37728900 17.89938300 -6.97100700
5.43315700 17.81341800 -6.92495000
5.39465000 18.06323800 -7.08512800
5.31150800 17.96781400 -6.91456700
5.50659800 18.32738000 -7.31723400
5.64755100 18.66083000 -7.58780400
5.50145100 18.49853900 -7.20616800
5.68592400 18.80492400 -7.44932200
5.59187700 18.62820800 -7.07743200
5.81558100 18.89727700 -7.32211700
5.75367200 18.68164900 -6.96552700
6.00180000 18.91314800 -7.24027600
5.94349500 18.64454800 -6.90043200
6.19468500 18.84828300 -7.22572400
6.11046800 18.52682800 -6.89959100
6.34254000 18.72004800 -7.28236400
6.20983700 18.36002500 -6.96323700
6.40572700 18.56280000 -7.39501600
6.21495300 18.18882700 -7.07430500
6.36731400 18.41867500 -7.53349700
6.12446200 18.05912900 -7.20303800
6.23760600 18.32630700 -7.66069800
5.96263300 18.00568800 -7.31494700
6.05138200 18.31044900 -7.74254100
5.77283900 18.04282600 -7.38004000
5.85853500 18.37534400 -7.75709500
5.60593000 18.16057500 -7.38087900
5.71073200 18.50359600 -7.70045900
5.77042700 18.89632800 -7.96463600
5.77376100 19.33640700 -8.12403900
5.75103200 19.02698900 -7.80928000
5.80408200 19.45172700 -7.95108800
5.83436400 19.13762200 -7.65877200
5.92910400 19.55266100 -7.81890100
5.99810800 19.19859600 -7.55344600
6.11534400 19.61217000 -7.76290500
6.19839700 19.19357100 -7.52152200
6.31290700 19.61430900 -7.79810100
6.38156900 19.12388600 -7.57155400
6.46885400 19.55850300 -7.91506300
6.49852000 19.00820700 -7.69013700
6.54138800 19.45970100 -8.08243900
6.51791200 18.87753200 -7.84549700
6.51107100 19.34437200 -8.25539700
6.43454600 18.76687600 -7.99600200
6.38602400 19.24342800 -8.38757700
6.27077700 18.70590200 -8.10132900
6.19976200 19.18391500 -8.44357300
6.07048800 18.71094300 -8.13325200
6.00220000 19.18178700 -8.40837500
5.88735400 18.78064800 -8.08321900
5.84627800 19.23760300 -8.29141900
5.73687800 19.73286800 -8.36077900
5.55434300 20.14663800 -8.38892400
5.71745800 19.84391600 -8.17848900
5.57275700 20.29855300 -8.23053400
5.79469000 19.98472400 -8.02770300
5.67013600 20.48253700 -8.13668400
5.94787100 20.11757200 -7.94882100
5.82038100 20.64928700 -8.13252000
6.13597200 20.20685500 -7.96298200
5.98326200 20.75413200 -8.21915700
6.30860100 20.22866600 -8.06639000
6.11514800 20.76898300 -8.37337600
6.41951200 20.17715600 -8.23134100
6.18070900 20.68986500 -8.55386000
6.43897100 20.06612000 -8.41362800
6.16236100 20.53796600 -8.71224600
6.36175300 19.92531100 -8.56441400
6.06499100 20.35398500 -8.80609500
6.20854300 19.79245300 -8.64329700
5.91468900 20.18721400 -8.81026200
6.02040200 19.70315500 -8.62913500
5.75174900 20.08235300 -8.72362800
5.84775900 19.68134600 -8.52572600
5.61985300 20.06750000 -8.56940800
5.31611300 20.23708300 -8.63649000
4.95759700 20.29925800 -8.74137800
5.26818000 20.36033400 -8.47668900
4.89370900 20.46014500 -8.63425700
5.28484000 20.54746800 -8.37551000
4.87744000 20.66185300 -8.61181800
5.36161300 20.74832700 -8.36006800
4.91313700 20.85032300 -8.68006200
5.47793500 20.90910400 -8.43450200
4.99125700 20.97507100 -8.82071300
5.60266300 20.98672000 -8.57885900
5.09090300 21.00267700 -8.99608200
5.70240200 20.96039500 -8.75446600
5.18537500 20.92574700 -9.15917400
5.75041900 20.83717100 -8.91426800
5.24934600 20.76488600 -9.26629900
5.73381400 20.65005600 -9.01544300
5.26563500 20.56318600 -9.28873800
5.65701900 20.44918500 -9.03088600
5.22987800 20.37469300 -9.22049300
5.54061700 20.28838100 -8.95645700
5.15167400 20.24991600 -9.07984100
5.41583000 20.21074600 -8.81209700
5.05201000 20.22230500 -8.90447400
4.69196400 20.22701500 -8.99643500
4.36829200 20.12625700 -9.06810800
4.57651500 20.34926900 -8.87563700
4.22043400 20.27601900 -9.00543800
4.47658200 20.53457100 -8.84174400
4.08548200 20.45633200 -9.04488000
4.41892600 20.73327700 -8.90384700
3.99959000 20.61887600 -9.17586000
4.41899900 20.89214600 -9.04529300
3.98579600 20.72011400 -9.36328600
4.47681600 20.96861200 -9.22819400
4.04782000 20.73291300 -9.55694200
4.57690500 20.94219900 -9.40353700
4.16904200 20.65385500 -9.70492600
4.69244000 20.81997600 -9.52433600
4.31696800 20.50411300 -9.76759900
4.79242700 20.63468600 -9.55822200
4.45192900 20.32380200 -9.72815800
4.85006300 20.43597400 -9.49612500
4.53776600 20.16123600 -9.59717800
4.84990700 20.27707900 -9.35467300
4.55149400 20.05998200 -9.40974700
4.79202600 20.20059300 -9.17176900
4.48945800 20.04717500 -9.21609400
4.26295400 19.70331200 -9.19231600
4.05130100 19.30186100 -9.08141100
4.11659600 19.81448500 -9.08340500
3.88699200 19.41663300 -9.01952400
3.94519000 19.95219400 -9.07421700
3.70708800 19.51317200 -9.05895600
3.79465400 20.07954100 -9.16720500
3.55980400 19.56561200 -9.18913700
3.70534100 20.16241100 -9.33746100
3.48461700 19.55991300 -9.37519200
3.70119600 20.17860500 -9.53936300
3.50166900 19.49759300 -9.56726700
3.78332700 20.12377700 -9.71880300
3.60638500 19.39535300 -9.71389500
3.92972300 20.01262200 -9.82770900
3.77069200 19.28058100 -9.77578200
4.10114100 19.87491300 -9.83689900
3.95057200 19.18403300 -9.73635500
4.25164600 19.74755200 -9.74390900
4.09783200 19.13157600 -9.60617000
4.34092100 19.66466600 -9.57365500
4.17302200 19.13727500 -9.42011400
4.34505800 19.64847200 -9.37175600
4.15599400 19.19960700 -9.22803700
3.92140100 18.85961700 -8.97807600
3.66869000 18.62574600 -8.67817400
3.79852700 18.99195700 -8.88376800
3.52992000 18.76975000 -8.64252300
3.62573200 19.10063000 -8.87861900
3.35344200 18.85945200 -8.68919600
3.44932700 19.15651700 -8.96399700
3.18656200 18.87082000 -8.80569100
3.31658800 19.14464800 -9.11703100
3.07400000 18.80081600 -8.96078900
3.26308600 19.06821100 -9.29671800
3.04589800 18.66819600 -9.11293500
3.30313800 18.94767700 -9.45490800
3.10977000 18.50849000 -9.22136000
3.42600400 18.81533800 -9.54921200
3.24849700 18.36448000 -9.25701100
3.59876800 18.70665700 -9.55436900
3.42492300 18.27475500 -9.21033600
3.77514400 18.65075000 -9.46899000
3.59179700 18.26337100 -9.09384600
3.90788800 18.66261200 -9.31595300
3.70440100 18.33337700 -8.93874500
3.96142400 18.73905900 -9.13626300
3.73255300 18.46602000 -8.78660000
3.52266800 18.28974100 -8.43654500
3.35166900 18.20629500 -8.16700400
3.43008200 18.46187500 -8.37887200
3.22768200 18.36689600 -8.15302100
3.27319400 18.59059900 -8.39311400
3.05475000 18.46075100 -8.20450200
3.09407000 18.64142300 -8.47545700
2.87923900 18.46271600 -8.30766000
2.94071700 18.60074300 -8.60383600
2.74817400 18.37227700 -8.43485100
2.85421200 18.47946100 -8.74384500
2.69665300 18.21366500 -8.55199500
2.85771800 18.31007200 -8.85798300
2.73845600 18.02936800 -8.62769800
2.95027600 18.13794800 -8.91565600
2.86238400 17.86876200 -8.64168400
3.10709500 18.00920500 -8.90141100
3.03525100 17.77487900 -8.59020100
3.28618500 17.95835400 -8.81907000
3.21076100 17.77288800 -8.48704400
3.43956700 17.99902000 -8.69069100
3.34188600 17.86333100 -8.35985300
3.52613700 18.12032300 -8.55068000
3.39347000 18.02197500 -8.24271200
3.31638000 18.03494100 -8.08065000
3.25724200 18.10538000 -8.01909000
3.23319800 18.21533900 -8.03860800
3.13816100 18.26404800 -8.00893800
3.08092700 18.34778500 -8.05991900
2.96959300 18.35601300 -8.05979000
2.90039800 18.39680700 -8.13887500
2.79672600 18.35663600 -8.15802000
2.73999000 18.34927300 -8.25431500
2.66588000 18.26575600 -8.27730600
2.64267500 18.21792600 -8.37531200
2.61209200 18.10773100 -8.38568200
2.63450400 18.03795400 -8.46944000
2.64975600 17.92489000 -8.45411900
2.71764900 17.85757200 -8.51148000
2.76877400 17.76621200 -8.46426700
2.86984600 17.72510000 -8.49017100
2.93728400 17.67422100 -8.41341800
3.05034300 17.67605200 -8.41121900
3.11014900 17.67357600 -8.31518700
3.21078500 17.72357300 -8.29577800
3.24105600 17.76445700 -8.19590500
3.30816900 17.85494000 -8.17478000
3.29490300 17.92251100 -8.08752100
3.18881600 18.08092400 -8.05018300
3.21889300 17.93488400 -8.10483400
3.17589300 17.80865900 -8.19138800
3.07135200 17.73607900 -8.28665500
2.93329700 17.73659300 -8.36510500
2.79871500 17.81006000 -8.40571200
2.70365900 17.93677900 -8.39760900
2.67358100 18.08280400 -8.34295500
2.71654300 18.20901400 -8.25640100
2.82104600 18.28159100 -8.16113600
2.95910400 18.28109500 -8.08268900
3.09372200 18.20764700 -8.04207400
3.18385600 18.17398600 -8.00924400
3.25987900 18.00833200 -8.04735900
3.25202400 17.84297600 -8.13311500
3.16241400 17.72223900 -8.24353900
3.01507700 17.67847400 -8.34904100
2.84950500 17.72340300 -8.42134800
2.71004800 17.84498400 -8.44108700
2.63405700 18.01062400 -8.40297300
2.64187600 18.17595300 -8.31721700
2.73142700 18.29667600 -8.20679400
2.87873200 18.34045200 -8.10128900
3.04433900 18.29554700 -8.02898500
3.07452800 18.09793700 -8.10696900
3.11569400 18.00823200 -8.12760700
3.11144400 17.91868700 -8.17404900
3.06292400 17.85330600 -8.23384800
2.98313800 17.82960300 -8.29097800
2.89347000 17.85393200 -8.33013300
2.81794500 17.91977000 -8.34082200
2.77679100 18.00947400 -8.32018400
2.78103000 18.09900600 -8.27374300
2.82952900 18.16438100 -8.21394500
2.90930400 18.18808700 -8.15681500
2.99898100 18.16376800 -8.11766000
5.34379000 18.12159400 -6.79898000
5.38103300 18.24127300 -6.71597300
5.47757800 18.31153400 -6.62469200
5.60757800 18.31356200 -6.54960200
5.73619200 18.24679500 -6.51081400
5.82894300 18.12912700 -6.51872300
5.86097300 17.99208200 -6.57121700
5.82369500 17.87238100 -6.65422000
5.72711700 17.80211300 -6.74549900
5.59712200 17.80010200 -6.82059600
5.46854100 17.86688600 -6.85938200
5.37582100 17.98456400 -6.85146800
5.30102600 18.05273800 -6.86066600
5.30426500 18.21253000 -6.77632100
5.38754300 18.33076000 -6.66783500
5.52855600 18.37575600 -6.56427100
5.68953600 18.33546100 -6.49338500
5.82733900 18.22066100 -6.47416400
5.90501700 18.06210700 -6.51176200
5.90175100 17.90228700 -6.59610500
5.81842200 17.78403300 -6.70459500
5.67738000 17.73904100 -6.80815800
5.51642500 17.77936400 -6.87904800
5.37867800 17.89419000 -6.89826600
5.44476900 18.05439700 -6.77614700
5.44646200 18.13780200 -6.73212700
5.48993200 18.19951000 -6.67550400
5.56353100 18.22299100 -6.62145200
5.64754900 18.20196000 -6.58445700
5.71946600 18.14204100 -6.57442600
5.76000300 18.05928900 -6.59404800
5.75829900 17.97587700 -6.63806800
5.71481300 17.91416100 -6.69468800
5.64120400 17.89067800 -6.74874200
5.55719500 17.91172100 -6.78573900
5.48529900 17.97164700 -6.79577000
-3.31914100 17.94367900 7.97830700
-3.36048900 18.11054900 8.07073400
-3.23605400 18.12400200 7.93556800
-3.25827400 18.01512200 7.92044100
-3.23685600 18.27192500 8.05664300
-3.08437400 18.25751300 7.95699300
-3.14052500 18.17294900 7.91006200
-3.06476800 18.36760400 8.10907900
-2.90471800 18.30842800 8.03684100
-2.97408300 18.26560800 7.96095300
-2.89031400 18.37194600 8.21399100
-2.74520900 18.26310800 8.15371600
-2.80352300 18.26826400 8.05947800
-2.76023700 18.28377900 8.34327100
-2.64860100 18.13368000 8.27630300
-2.67454400 18.18020100 8.17924000
-2.70941500 18.12672400 8.46227800
-2.64080900 17.95483500 8.37175200
-2.62173100 18.02501300 8.28814700
-2.75148600 17.94288000 8.53912300
-2.72392700 17.77450700 8.41449200
-2.65925700 17.84428800 8.35701900
-2.87517700 17.78151500 8.55321700
-2.87568000 17.64101800 8.39306800
-2.77706400 17.68647300 8.36739900
-3.04732700 17.68586200 8.50078300
-3.05537300 17.59012700 8.31322100
-2.94356400 17.59384100 8.31650800
-3.22178400 17.68154400 8.39586700
-3.21484500 17.63546200 8.19634500
-3.11412600 17.59120400 8.21798300
-3.35179800 17.76970800 8.26658800
-3.31138200 17.76487100 8.07375900
-3.24304300 17.67926700 8.09822200
-3.40256100 17.92673100 8.14758200
-3.29579900 17.83442600 7.98931400
-3.54930900 18.18637600 8.36342000
-3.71536600 18.51448900 8.62445400
-3.45678400 18.35877200 8.30537300
-3.57720000 18.65992100 8.59014400
-3.30093800 18.48926300 8.32083300
-3.40284200 18.75284700 8.63995100
-3.12350100 18.54287200 8.40565900
-3.23899200 18.76835000 8.76053100
-2.97201200 18.50522700 8.53712100
-3.12955300 18.70227800 8.91957400
-2.88706500 18.38641800 8.67999500
-3.10386400 18.57232800 9.07446100
-2.89145100 18.21827800 8.79599700
-3.16882300 18.41333600 9.18369600
-2.98400400 18.04587200 8.85404500
-3.30702900 18.26790400 9.21800600
-3.13991400 17.91540200 8.83858600
-3.48143600 18.17500300 9.16819600
-3.31738500 17.86182200 8.75376000
-3.64528900 18.15951900 9.04762000
-3.46884900 17.89947200 8.62229500
-3.75468800 18.22559000 8.88858000
-3.55372900 18.01826600 8.47942300
-3.78033000 18.35551700 8.73368900
-3.98189100 18.74353700 8.92189800
-4.12129400 19.18079600 9.00965700
-3.85791000 18.87626000 8.82899300
-3.95715000 19.29808800 8.95089000
-3.68666000 18.98813000 8.82726900
-3.78089100 19.39972500 8.99436300
-3.51401600 19.04916800 8.91718900
-3.63974000 19.45846700 9.12842400
-3.38623100 19.04301300 9.07465700
-3.57150000 19.45857600 9.31715600
-3.33754400 18.97131500 9.25748000
-3.59446200 19.40001600 9.50998700
-3.38101000 18.85328200 9.41667200
-3.70248100 19.29848400 9.65524600
-3.50499600 18.72055600 9.50957700
-3.86662300 19.18119000 9.71401100
-3.67627700 18.60869700 9.51130100
-4.04290300 19.07956200 9.67054000
-3.84894900 18.54767900 9.42138100
-4.18408200 19.02083400 9.53647700
-3.97673000 18.55384000 9.26391200
-4.25231900 19.02072600 9.34774500
-4.02538700 18.62552600 9.08108900
-4.22933100 19.07928000 9.15491500
-4.34756700 19.57385100 9.10086500
-4.46618700 19.98829600 8.96205200
-4.20019800 19.68743100 8.99434500
-4.32094300 20.14213200 8.90082300
-4.03202700 19.82957100 8.98767100
-4.19238100 20.32653200 8.94068200
-3.88813100 19.96218400 9.08262800
-4.11495700 20.49208000 9.07094500
-3.80704900 20.04973600 9.25377700
-4.10939600 20.59441000 9.25671200
-3.81049400 20.06875700 9.45525700
-4.17716600 20.60610300 9.44820500
-3.89754500 20.01415100 9.63307800
-4.30010400 20.52401700 9.59411100
-4.04487700 19.90055500 9.73959500
-4.44528500 20.37016100 9.65534000
-4.21303300 19.75841200 9.74626900
-4.57383300 20.18576300 9.61548400
-4.35695700 19.62581100 9.65131100
-4.65131100 20.02023600 9.48521700
-4.43807800 19.53827300 9.48016300
-4.65693800 19.91792300 9.29945200
-4.43464300 19.51925900 9.27868400
-4.58917800 19.90623300 9.10795900
-4.80034300 20.07716600 8.88058300
-5.07083900 20.14069200 8.62328800
-4.68682100 20.20290900 8.76082200
-5.01121300 20.30346200 8.51653600
-4.59229100 20.39119800 8.72715800
-5.00145200 20.50551600 8.49390700
-4.54209300 20.59158600 8.78861700
-5.04418500 20.69271300 8.56146500
-4.54967400 20.75037800 8.92872900
-5.12793600 20.81488800 8.70110400
-4.61297400 20.82501300 9.10995000
-5.23023900 20.83930000 8.87541200
-4.71500800 20.79549500 9.28372500
-5.32366900 20.75939900 9.03768200
-4.82844600 20.66972500 9.40348800
-5.38321400 20.59660100 9.14443300
-4.92292300 20.48142200 9.43714900
-5.39295200 20.39454100 9.16706000
-4.97314200 20.28104000 9.37569000
-5.35028100 20.20736800 9.09950400
-4.96564100 20.12227700 9.23558000
-5.26661200 20.08521700 8.95986300
-4.90240200 20.04765300 9.05435600
-5.16433100 20.06081300 8.78555700
-5.42396600 20.06710900 8.51973100
-5.64707100 19.96800200 8.27391700
-5.37796400 20.19184500 8.36096600
-5.66781200 20.11968900 8.11647800
-5.39996900 20.37831100 8.25992200
-5.77078600 20.30042700 8.02166800
-5.48410200 20.57654500 8.24366700
-5.92840400 20.46178400 8.01488700
-5.60781700 20.73343000 8.31656200
-6.09841300 20.56053000 8.09795600
-5.73793000 20.80692100 8.45907400
-6.23523800 20.57018400 8.24861300
-5.83955700 20.77731600 8.63301600
-6.30220800 20.48816300 8.42649400
-5.88547800 20.65254600 8.79177700
-6.28140500 20.33645000 8.58392900
-5.86341900 20.46606200 8.89282300
-6.17842000 20.15571500 8.67874100
-5.77930500 20.26783700 8.90907700
-6.02085700 19.99437200 8.68552200
-5.65567400 20.11098100 8.83618200
-5.85091000 19.89565400 8.60245500
-5.52562000 20.03751000 8.69367100
-5.71409700 19.88600300 8.45179800
-5.80421500 19.54457200 8.23940900
-5.81110900 19.14677100 7.99576000
-5.78384100 19.65827400 8.05961700
-5.84043200 19.26353300 7.82391000
-5.86255800 19.79734000 7.90830900
-5.96517800 19.36083900 7.68897700
-6.01927600 19.92450400 7.82602700
-6.15191700 19.41260200 7.62711400
-6.21199000 20.00569700 7.83481800
-6.35060200 19.40496600 7.65489600
-6.38905300 20.01914900 7.93232700
-6.50799600 19.33997000 7.76488400
-6.50301300 19.96126400 8.09242800
-6.58193400 19.23503500 7.92760200
-6.52334600 19.84755400 8.27222000
-6.55261500 19.11828000 8.09945000
-6.44461900 19.70849100 8.42352500
-6.42789300 19.02099100 8.23438500
-6.28792900 19.58133700 8.50580900
-6.24117700 18.96922300 8.29624900
-6.09525400 19.50015200 8.49701600
-6.04249100 18.97685200 8.26846200
-5.91820300 19.48670100 8.39950800
-5.88507100 19.04183600 8.15847600
-5.78351100 18.70757900 7.82637300
-5.64851500 18.48012800 7.45493500
-5.76413500 18.84196300 7.67437000
-5.68794200 18.62546300 7.31857800
-5.84677400 18.95190100 7.52341200
-5.81716700 18.71576900 7.19008600
-6.00927000 19.00793300 7.41395100
-6.00154300 18.72684600 7.10388900
-6.20807500 18.99503400 7.37531400
-6.19166400 18.65572000 7.08308200
-6.38992000 18.91668200 7.41785500
-6.33660300 18.52147300 7.13324400
-6.50609300 18.79386900 7.53017500
-6.39754200 18.36007500 7.24093000
-6.52547700 18.65950000 7.68217700
-6.35815600 18.21477600 7.37728800
-6.44287200 18.54959100 7.83313400
-6.22898300 18.12448500 7.50578000
-6.28040500 18.49355900 7.94259700
-6.04461500 18.11339700 7.59197700
-6.08159400 18.50643600 7.98123300
-5.85445300 18.18448300 7.61278200
-5.89971400 18.58476800 7.93869100
-5.70946100 18.31871600 7.56262100
-5.51004000 18.14911300 7.20394400
-5.36152300 18.07077900 6.92022800
-5.50747000 18.32243900 7.09685300
-5.41240300 18.23224700 6.80762500
-5.59905600 18.45197400 6.96954000
-5.54402600 18.32659100 6.68461900
-5.76022900 18.50299900 6.85611700
-5.72110400 18.32852300 6.58417000
-5.94779500 18.46184200 6.78697400
-5.89618100 18.23754100 6.53319100
-6.11150300 18.33954300 6.78064300
-6.02237600 18.07802700 6.54534100
