-13.50277400 15.33371000 -2.68586700
-13.15492900 10.34232400 -2.61667700
-13.15492900 10.34232400 2.61667700
-11.15220900 10.34232400 7.45166900
-11.44709900 15.33371000 7.64870700
-10.98141300 17.70250400 7.33754500
-12.08722200 4.47335500 -2.40429900
-12.08722200 4.47335400 2.40429800
-10.24705000 4.47335400 6.84686200
-11.23471500 1.11051300 -2.23472600
-11.23471500 1.11051200 2.23472300
-9.52432900 1.11051200 6.36395600
-7.45166500 10.34232400 11.15221000
-7.64870400 15.33371100 11.44710000
-7.33754300 17.70250200 10.98141300
-6.84685700 4.47335400 10.24705400
-6.36395100 1.11051200 9.52433200
-2.61667500 10.34232400 13.15492900
-2.68586700 15.33371000 13.50277400
-2.57660200 17.70250200 12.95346100
-2.40429500 4.47335400 12.08722300
-2.23472100 1.11051200 11.23471700
2.61668000 10.34232400 13.15492900
2.68587000 15.33371000 13.50277400
2.57660400 17.70250200 12.95345800
2.40430000 4.47335400 12.08722200
2.23472600 1.11051200 11.23471500
7.45167200 10.34232400 11.15220800
7.64871000 15.33371000 11.44709700
7.33754800 17.70250400 10.98141100
6.84686600 4.47335400 10.24705000
6.36395900 1.11051200 9.52432900
11.15221200 10.34232400 7.45166600
11.44710100 15.33371100 7.64870600
10.98141400 17.70250200 7.33754500
10.24705600 4.47335400 6.84686000
9.52433500 1.11051200 6.36395300
13.15492900 10.34232400 2.61667800
13.50277400 15.33371000 2.68587000
12.95346100 17.70250200 2.57660400
12.08722400 4.47335400 2.40429700
11.23471700 1.11051200 2.23472300
13.15492900 10.34232400 -2.61667800
13.50277400 15.33371000 -2.68586800
12.95346100 17.70250400 -2.57660200
12.08722500 4.47335500 -2.40429900
11.23471700 1.11051300 -2.23472500
-10.98141300 17.70250400 -7.33754500
-11.44709900 15.33371300 -7.64870600
-11.15220900 10.34232600 -7.45166800
-10.24705100 4.47335600 -6.84686400
-9.52432900 1.11051400 -6.36395800
-7.33754400 17.70250400 -10.98141400
-7.64870500 15.33371300 -11.44709900
-7.45166400 10.34232700 -11.15221000
-6.84685700 4.47335700 -10.24705600
-6.36395000 1.11051500 -9.52433500
-2.57660200 17.70250400 -12.95346100
-2.68586700 15.33371300 -13.50277400
-2.61667500 10.34232700 -13.15492900
-2.40429500 4.47335800 -12.08722500
-2.23472100 1.11051600 -11.23471800
2.57660500 17.70250400 -12.95346100
2.68587000 15.33371300 -13.50277400
2.61668000 10.34232700 -13.15492900
2.40430000 4.47335800 -12.08722300
2.23472700 1.11051500 -11.23471500
7.33754700 17.70250400 -10.98141200
7.64871000 15.33371300 -11.44709700
7.45167200 10.34232700 -11.15220700
6.84686600 4.47335700 -10.24705100
6.36395900 1.11051500 -9.52433100
10.98141500 17.70250400 -7.33754400
11.44710200 15.33371100 -7.64870500
11.15221300 10.34232600 -7.45166700
10.24705600 4.47335600 -6.84686100
9.52433500 1.11051400 -6.36395500
-9.88136800 0.90944700 1.96552600
-9.88136800 0.90944700 -1.96552900
-5.86872200 0.57104900 -1.16736400
-5.86872200 0.57104800 1.16736100
-4.97526100 0.57104800 3.32436500
-8.37701800 0.90944700 5.59734700
-4.97526100 0.57104900 -3.32436800
-3.32436100 0.57105000 -4.97526700
-1.16735800 0.57105000 -5.86872600
1.16736400 0.57105000 -5.86872500
3.32436800 0.57105000 -4.97526500
4.97526600 0.57104900 -3.32436600
5.86872600 0.57104900 -1.16736300
5.86872600 0.57104800 1.16736000
4.97526600 0.57104800 3.32436300
3.32436800 0.57104800 4.97526100
1.16736400 0.57104800 5.86872300
-1.16735800 0.57104800 5.86872400
-3.32436100 0.57104800 4.97526400
-5.59734100 0.90944700 8.37702100
-1.96552300 0.90944700 9.88137000
1.96552900 0.90944700 9.88136800
5.59735000 0.90944700 8.37701800
8.37702300 0.90944700 5.59734300
9.88137000 0.90944700 1.96552500
9.88137000 0.90944700 -1.96552800
-8.37701800 0.90944900 -5.59735000
-5.59734100 0.90944900 -8.37702400
-1.96552300 0.90945000 -9.88137100
1.96552900 0.90945000 -9.88137000
5.59735000 0.90944900 -8.37702000
8.37702300 0.90944900 -5.59734600
10.68835300 9.56176800 -2.12604600
6.90961800 3.53204100 -5.48830500
0.00000100 3.53204100 0.00000000
6.90962100 3.53204100 5.48830300
10.68835400 9.56176800 2.12604500
11.79918900 16.04782000 2.34700500
11.79918900 16.04782000 -2.34700400
10.00286900 16.04782000 -6.68370300
9.06114800 9.56176800 -6.05446500
12.43669800 17.14562500 -2.47381200
12.43669900 17.14562500 2.47381400
10.54332500 17.14562500 -7.04482300
6.68370400 16.04782000 -10.00286800
6.05446500 9.56176800 -9.06114700
3.81607700 3.53204100 -9.21282500
7.04482600 17.14562500 -10.54332300
2.34700600 16.04782000 -11.79918700
2.12604600 9.56176800 -10.68835200
2.47381500 17.14562500 -12.43669700
-2.34700400 16.04782000 -11.79918700
-2.12604600 9.56176700 -10.68835200
-3.81607800 3.53204100 -9.21282500
-6.90961900 3.53204100 -5.48830400
-2.47381200 17.14562500 -12.43669800
-6.68370300 16.04782000 -10.00286900
-6.05446600 9.56176700 -9.06114700
-7.04482300 17.14562500 -10.54332400
-10.00286800 16.04782000 -6.68370300
-9.06114800 9.56176800 -6.05446500
-10.54332300 17.14562500 -7.04482400
-11.79918800 16.04782000 -2.34700400
-10.68835300 9.56176800 -2.12604400
-12.43669700 17.14562500 -2.47381300
-11.79918800 16.04782000 2.34700400
-10.68835100 9.56176800 2.12604600
-9.21282300 3.53204100 3.81607700
-5.48830200 3.53204100 6.90961900
-12.43669800 17.14562500 2.47381200
-10.00286600 16.04782000 6.68370300
-9.06114500 9.56176800 6.05446600
-10.54332200 17.14562500 7.04482200
-6.68369900 16.04782000 10.00286900
-6.05446100 9.56176800 9.06114900
-7.04482000 17.14562500 10.54332400
-2.34700200 16.04782000 11.79918800
-2.12604300 9.56176800 10.68835400
-2.47381100 17.14562500 12.43669700
2.34700500 16.04782000 11.79918800
2.12604700 9.56176800 10.68835200
3.81608000 3.53204100 9.21282300
2.47381300 17.14562500 12.43669700
6.68370600 16.04782000 10.00286700
6.05446900 9.56176800 9.06114600
7.04482600 17.14562500 10.54332200
10.00287000 16.04782000 6.68370300
9.06115000 9.56176800 6.05446400
10.54332500 17.14562500 7.04482300
-13.76990100 15.33371000 0.00000000
-13.29423800 17.06800400 2.64438800
-13.48702100 12.94376700 2.68273500
-12.72173100 15.33371000 5.26951200
-13.41517300 10.34232400 0.00000000
-12.64287100 7.52148400 2.51482300
-12.39400400 10.34232400 5.13376400
-12.32634400 4.47335400 -0.00000100
-11.58537200 2.05175600 2.30447400
-11.38805700 4.47335400 4.71708800
-11.27031000 17.06800400 7.53058000
-11.43374300 12.94376700 7.63978300
-9.73678800 15.33371100 9.73679000
-10.71810800 7.52148400 7.16161100
-9.48595700 10.34232400 9.48596000
-9.82160300 2.05175600 6.56258800
-8.71603900 4.47335400 8.71604300
-7.53057800 17.06800500 11.27031200
-7.63978000 12.94376700 11.43374400
-5.26950900 15.33371000 12.72173100
-7.16160800 7.52148400 10.71811000
-5.13376000 10.34232400 12.39400600
-6.56258300 2.05175600 9.82160700
-4.71708400 4.47335400 11.38805900
-2.64438700 17.06800400 13.29423800
-2.68273300 12.94376700 13.48702100
0.00000100 15.33371000 13.76990100
-2.51482100 7.52148400 12.64287200
0.00000100 10.34232400 13.41517300
-2.30447100 2.05175600 11.58537400
0.00000200 4.47335400 12.32634400
2.64438900 17.06800400 13.29423500
2.68273700 12.94376700 13.48702100
5.26951500 15.33371000 12.72172800
2.51482500 7.52148400 12.64287000
5.13376700 10.34232400 12.39400300
2.30447700 2.05175600 11.58537400
4.71709100 4.47335400 11.38805600
7.53058400 17.06800400 11.27030900
7.63978700 12.94376700 11.43374300
9.73679300 15.33371100 9.73678800
7.16161500 7.52148400 10.71810700
9.48596300 10.34232400 9.48595700
6.56259200 2.05175600 9.82160300
8.71604600 4.47335400 8.71603900
11.27031200 17.06800500 7.53058000
11.43374600 12.94376700 7.63978200
12.72173000 15.33371000 5.26951300
10.71811200 7.52148400 7.16160900
12.39400500 10.34232400 5.13376400
9.82160900 2.05175600 6.56258500
11.38806000 4.47335400 4.71708700
13.29423800 17.06800400 2.64438900
13.48702100 12.94376700 2.68273500
13.76990100 15.33371000 0.00000100
12.64287300 7.52148400 2.51482300
13.41517300 10.34232400 0.00000000
11.58537500 2.05175600 2.30447300
12.32634700 4.47335400 -0.00000100
-13.29423800 17.06800400 -2.64438700
-12.72173100 15.33371100 -5.26951100
-13.48702100 12.94376700 -2.68273400
-12.39400400 10.34232600 -5.13376400
-12.64287100 7.52148500 -2.51482400
-11.38805700 4.47335500 -4.71708900
-11.58537200 2.05175700 -2.30447500
-11.27031000 17.06800700 -7.53057900
-9.73678800 15.33371300 -9.73678900
-11.43374300 12.94377000 -7.63978200
-9.48595700 10.34232700 -9.48596000
-10.71810800 7.52148700 -7.16161300
-8.71603900 4.47335700 -8.71604500
-9.82160300 2.05175800 -6.56258900
-7.53057900 17.06800700 -11.27031200
-5.26951000 15.33371300 -12.72172900
-7.63977900 12.94377000 -11.43374300
-5.13376000 10.34232700 -12.39400500
-7.16160700 7.52148800 -10.71811100
-4.71708400 4.47335800 -11.38806100
-6.56258300 2.05175900 -9.82160900
-2.64438700 17.06800700 -13.29423800
0.00000100 15.33371300 -13.76990100
-2.68273300 12.94377000 -13.48702100
0.00000100 10.34232700 -13.41517300
-2.51482100 7.52148800 -12.64287300
0.00000200 4.47335800 -12.32634600
-2.30447100 2.05175900 -11.58537500
2.64439000 17.06800700 -13.29423800
5.26951500 15.33371300 -12.72172600
2.68273700 12.94377000 -13.48701800
5.13376700 10.34232700 -12.39400300
2.51482600 7.52148800 -12.64287100
4.71709100 4.47335800 -11.38805800
2.30447700 2.05175900 -11.58537300
7.53058300 17.06800700 -11.27030900
9.73679300 15.33371100 -9.73678800
7.63978700 12.94377000 -11.43374100
9.48596300 10.34232700 -9.48595700
7.16161500 7.52148800 -10.71810700
8.71604600 4.47335700 -8.71604000
6.56259200 2.05175900 -9.82160400
11.27031300 17.06800700 -7.53057900
12.72173000 15.33371100 -5.26951200
11.43374600 12.94376800 -7.63978100
12.39400600 10.34232600 -5.13376400
10.71811200 7.52148700 -7.16161000
11.38806100 4.47335600 -4.71708800
9.82160900 2.05175800 -6.56258600
13.29423800 17.06800400 -2.64438700
13.48702100 12.94376700 -2.68273500
12.64287300 7.52148500 -2.51482400
11.58537500 2.05175700 -2.30447500
-10.07685200 0.90944700 -0.00000100
-10.75884600 0.95971300 2.14006700
-8.33906500 0.82484700 1.65874300
-9.30979700 0.90944700 3.85624500
-5.22220700 0.48644900 -0.00000200
-4.82469000 0.48644900 1.99845200
-9.12090800 0.95971300 6.09439800
-7.06951600 0.82484800 4.72370200
-7.12540700 0.90944700 7.12541200
-3.69265600 0.48644900 3.69266000
-6.09439300 0.95971300 9.12091100
-4.72369700 0.82484800 7.06952000
-3.85624000 0.90944700 9.30980000
-1.99844900 0.48644900 4.82469200
-2.14006500 0.95971300 10.75884800
-1.65874000 0.82484700 8.33906600
0.00000200 0.90944600 10.07685200
0.00000300 0.48644800 5.22220800
2.14007000 0.95971300 10.75884700
1.65874600 0.82484700 8.33906500
3.85624800 0.90944700 9.30979700
1.99845600 0.48644900 4.82469100
6.09440200 0.95971300 9.12090800
4.72370500 0.82484800 7.06951600
7.12541400 0.90944700 7.12540800
3.69266300 0.48644900 3.69265700
9.12091300 0.95971300 6.09439500
7.06952100 0.82484800 4.72369900
9.30979900 0.90944700 3.85624300
4.82469500 0.48644900 1.99845100
10.75884900 0.95971300 2.14006700
8.33906700 0.82484700 1.65874200
10.07685400 0.90944700 -0.00000100
5.22221100 0.48644900 -0.00000200
-10.75884600 0.95971300 -2.14007000
-9.30979700 0.90944800 -3.85624800
-8.33906500 0.82484800 -1.65874600
-4.82469000 0.48644900 -1.99845600
-9.12090800 0.95971500 -6.09440100
-7.12540700 0.90944900 -7.12541500
-7.06951600 0.82484900 -4.72370500
-3.69265600 0.48645000 -3.69266200
-6.09439300 0.95971500 -9.12091400
-3.85624000 0.90945000 -9.30980100
-4.72369700 0.82485000 -7.06952200
-1.99844900 0.48645000 -4.82469500
-2.14006500 0.95971600 -10.75885000
0.00000200 0.90945000 -10.07685400
-1.65874000 0.82485000 -8.33906800
0.00000300 0.48645000 -5.22221100
2.14007100 0.95971600 -10.75884800
3.85624800 0.90945000 -9.30979800
1.65874600 0.82485000 -8.33906800
1.99845600 0.48645000 -4.82469400
6.09440200 0.95971500 -9.12091000
7.12541400 0.90944900 -7.12541000
4.72370500 0.82485000 -7.06952000
3.69266300 0.48645000 -3.69266100
9.12091300 0.95971500 -6.09439800
9.30979900 0.90944800 -3.85624600
7.06952100 0.82484900 -4.72370200
4.82469500 0.48644900 -1.99845400
10.75884900 0.95971300 -2.14006900
8.33906700 0.82484800 -1.65874500
10.89980100 9.56176800 -0.00000000
9.45207400 5.03947300 -2.90860900
11.25765600 14.19814300 -2.23928600
10.07010300 9.56176800 -4.17117300
13.20972000 17.70250400 0.00000100
12.62082100 17.60558300 -2.51043600
12.20419100 17.70250400 -5.05514000
8.27606400 5.03947300 -5.74775100
9.54378100 14.19814300 -6.37694900
7.70732300 9.56176800 -7.70732300
10.69941600 17.60558300 -7.14911900
9.34068400 17.70250400 -9.34068100
5.32969400 5.03947300 -8.85186500
6.37695000 14.19814300 -9.54377800
4.17117300 9.56176800 -10.07010200
7.14912200 17.60558300 -10.69941400
5.05514300 17.70250400 -12.20418800
2.49055100 5.03947300 -10.02787600
2.23928800 14.19814300 -11.25765500
-0.00000000 9.56176800 -10.89980000
2.51043900 17.60558300 -12.62082000
0.00000100 17.70250400 -13.20972000
-2.49055300 5.03947200 -10.02787600
-2.23928700 14.19814300 -11.25765500
-4.17117400 9.56176700 -10.07010300
-2.51043600 17.60558300 -12.62082100
-5.05513900 17.70250400 -12.20418900
-5.32969400 5.03947200 -8.85186500
-6.37695000 14.19814300 -9.54378000
-7.70732300 9.56176700 -7.70732300
-7.14912000 17.60558300 -10.69941500
-9.34068100 17.70250400 -9.34068200
-8.27606400 5.03947300 -5.74774900
-9.54378000 14.19814300 -6.37694900
-10.07010300 9.56176800 -4.17117200
-10.69941400 17.60558300 -7.14912000
-12.20418900 17.70250400 -5.05514000
-9.45207400 5.03947300 -2.90860700
-11.25765600 14.19814300 -2.23928600
-10.89980000 9.56176800 0.00000100
-12.62082000 17.60558300 -2.51043700
-13.20972000 17.70250200 -0.00000000
-10.02787500 5.03947300 2.49055200
-11.25765500 14.19814300 2.23928700
-10.07010100 9.56176800 4.17117300
-12.62082000 17.60558300 2.51043600
-12.20418900 17.70250400 5.05513900
-8.85186300 5.03947300 5.32969400
-9.54377700 14.19814300 6.37695000
-7.70732000 9.56176800 7.70732300
-10.69941300 17.60558300 7.14911900
-9.34067900 17.70250400 9.34068200
-5.74774600 5.03947300 8.27606400
-6.37694500 14.19814300 9.54378100
-4.17116900 9.56176800 10.07010400
-7.14911700 17.60558300 10.69941500
-5.05513800 17.70250200 12.20418900
-2.90860600 5.03947300 9.45207500
-2.23928500 14.19814300 11.25765600
0.00000200 9.56176800 10.89980100
-2.51043600 17.60558300 12.62081900
0.00000000 17.70250200 13.20972000
2.49055400 5.03947300 10.02787600
2.23928800 14.19814300 11.25765600
4.17117600 9.56176800 10.07010100
2.51043800 17.60558300 12.62081900
5.05514200 17.70250400 12.20418700
5.32969700 5.03947300 8.85186300
6.37695300 14.19814300 9.54377800
7.70732700 9.56176800 7.70732100
7.14912300 17.60558300 10.69941300
9.34068400 17.70250400 9.34068000
8.27606600 5.03947300 5.74774900
9.54378100 14.19814300 6.37694900
10.07010400 9.56176800 4.17117200
10.69941600 17.60558300 7.14912000
12.20419000 17.70250200 5.05514100
9.45207600 5.03947300 2.90860700
11.25765600 14.19814300 2.23928800
12.62082100 17.60558300 2.51043800
4.53846100 3.53204100 -8.15856600
4.35365100 3.53204100 -3.99832300
12.68273400 17.14562500 0.00000100
12.22239000 16.55043500 -2.43118400
11.71731900 17.14562500 -4.85347100
10.36164200 16.55043500 -6.92342600
8.96804900 17.14562500 -8.96804700
6.92342900 16.55043500 -10.36164000
4.85347400 17.14562500 -11.71731800
2.43118600 16.55043500 -12.22238800
0.00000100 17.14562500 -12.68273400
-2.43118400 16.55043500 -12.22239000
-4.85347100 17.14562500 -11.71731900
-6.92342700 16.55043500 -10.36164200
-8.96804600 17.14562500 -8.96804800
-10.36164000 16.55043500 -6.92342800
-11.71731800 17.14562500 -4.85347200
-12.22238800 16.55043500 -2.43118400
-12.68273400 17.14562500 -0.00000100
-12.22238800 16.55043500 2.43118300
-11.71731800 17.14562500 4.85347100
-10.36164000 16.55043500 6.92342600
-8.96804500 17.14562500 8.96804700
-6.92342400 16.55043500 10.36164200
-4.85346900 17.14562500 11.71731900
-2.43118200 16.55043500 12.22238800
0.00000000 17.14562500 12.68273200
2.43118500 16.55043500 12.22238800
4.85347400 17.14562500 11.71731700
6.92342900 16.55043500 10.36164000
8.96804900 17.14562500 8.96804600
10.36164200 16.55043500 6.92342700
11.71731900 17.14562500 4.85347300
12.22239000 16.55043500 2.43118500
12.03261300 16.04782000 0.00000100
11.11668500 16.04782000 -4.60468100
8.50834300 16.04782000 -8.50834100
4.60468300 16.04782000 -11.11668300
0.00000100 16.04782000 -12.03261200
-4.60468100 16.04782000 -11.11668400
-8.50834100 16.04782000 -8.50834100
-11.11668400 16.04782000 -4.60468100
-12.03261200 16.04782000 0.00000000
-11.11668300 16.04782000 4.60468100
-8.50833900 16.04782000 8.50834200
-4.60467800 16.04782000 11.11668500
0.00000100 16.04782000 12.03261200
4.60468300 16.04782000 11.11668400
8.50834400 16.04782000 8.50834000
11.11668500 16.04782000 4.60468200
-11.45697300 1.11051200 -0.00000100
-10.58486100 1.11051200 4.38439400
-8.10129900 1.11051200 8.10130400
-4.38438900 1.11051200 10.58486400
0.00000200 1.11051200 11.45697300
4.38439700 1.11051200 10.58486100
8.10130700 1.11051200 8.10129900
10.58486500 1.11051200 4.38439200
11.45697400 1.11051200 -0.00000100
-10.58486100 1.11051400 -4.38439600
-8.10129900 1.11051500 -8.10130700
-4.38438900 1.11051500 -10.58486600
0.00000200 1.11051600 -11.45697300
4.38439700 1.11051500 -10.58486100
8.10130700 1.11051500 -8.10130200
10.58486500 1.11051400 -4.38439400
-4.35365100 3.53204100 -3.99832200
-3.99832100 3.53204100 4.35365100
4.35365200 3.53204100 3.99832200
-4.53846100 3.53204100 -8.15856600
-8.15856300 3.53204100 4.53846100
4.53846300 3.53204100 8.15856400
-13.55723900 17.06800500 0.00000000
-13.75383600 12.94376800 0.00000000
-12.70688600 12.94376500 5.26336400
-12.52525600 17.06800400 5.18813000
-12.89298700 7.52148500 -0.00000000
-11.91156500 7.52148400 4.93393200
-11.81456700 2.05175600 -0.00000100
-10.91523600 2.05175600 4.52123900
-9.72542700 12.94376500 9.72543000
-9.58641300 17.06800500 9.58641500
-9.11671500 7.52148400 9.11671800
-8.35415800 2.05175600 8.35416300
-5.26336100 12.94376500 12.70688700
-5.18812800 17.06800400 12.52525500
-4.93392800 7.52148400 11.91156600
-4.52123600 2.05175600 10.91523800
0.00000100 12.94376500 13.75383600
0.00000000 17.06800400 13.55723900
0.00000200 7.52148400 12.89298400
0.00000200 2.05175600 11.81456800
5.26336700 12.94376500 12.70688600
5.18813300 17.06800400 12.52525300
4.93393500 7.52148400 11.91156400
4.52124300 2.05175600 10.91523600
9.72543200 12.94376500 9.72542800
9.58641700 17.06800500 9.58641400
9.11672100 7.52148400 9.11671500
8.35416500 2.05175600 8.35415800
12.70688800 12.94376500 5.26336500
12.52525600 17.06800400 5.18813100
11.91156800 7.52148400 4.93393200
10.91523800 2.05175600 4.52123800
13.75383600 12.94376700 0.00000000
13.55723900 17.06800400 0.00000100
12.89298700 7.52148400 -0.00000000
11.81456800 2.05175600 -0.00000100
-12.52525600 17.06800500 -5.18812900
-12.70688600 12.94376800 -5.26336300
-11.91156500 7.52148600 -4.93393300
-10.91523700 2.05175700 -4.52124100
-9.58641400 17.06800700 -9.58641400
-9.72542600 12.94377000 -9.72542900
-9.11671500 7.52148800 -9.11672000
-8.35415700 2.05175800 -8.35416400
-5.18812900 17.06800700 -12.52525500
-5.26336100 12.94377000 -12.70688600
-4.93392800 7.52148900 -11.91156800
-4.52123500 2.05175900 -10.91524000
0.00000100 17.06800700 -13.55723900
0.00000100 12.94377000 -13.75383300
0.00000200 7.52148900 -12.89298700
0.00000200 2.05175900 -11.81456900
5.18813200 17.06800700 -12.52525300
5.26336700 12.94377000 -12.70688500
4.93393500 7.52148900 -11.91156500
4.52124300 2.05175900 -10.91523700
9.58641700 17.06800700 -9.58641300
9.72543300 12.94377000 -9.72542700
9.11672100 7.52148700 -9.11671600
8.35416400 2.05175800 -8.35415900
12.52525600 17.06800500 -5.18812900
12.70688800 12.94376800 -5.26336400
11.91156800 7.52148600 -4.93393200
10.91523900 2.05175700 -4.52123900
-10.97169000 0.95971300 -0.00000100
-8.31338400 0.80369800 -0.00000200
-7.68056400 0.80369700 3.18139500
-10.13651900 0.95971300 4.19868500
0.00000300 0.00000000 -0.00000200
-5.87844600 0.80369800 5.87845100
-7.75815300 0.95971300 7.75815700
-3.18139000 0.80369700 7.68056600
-4.19868000 0.95971300 10.13652100
0.00000200 0.80369700 8.31338500
0.00000200 0.95971300 10.97169100
3.18139700 0.80369700 7.68056300
4.19868700 0.95971300 10.13651900
5.87845300 0.80369800 5.87844700
7.75816000 0.95971300 7.75815400
7.68056800 0.80369700 3.18139300
10.13652200 0.95971300 4.19868300
8.31338600 0.80369700 -0.00000100
10.97169200 0.95971300 -0.00000100
-10.13651900 0.95971400 -4.19868700
-7.68056400 0.80369900 -3.18139700
-7.75815300 0.95971500 -7.75816100
-5.87844700 0.80369900 -5.87845500
-4.19868000 0.95971600 -10.13652500
-3.18139000 0.80370000 -7.68056900
0.00000200 0.95971600 -10.97169300
0.00000200 0.80370000 -8.31338700
4.19868800 0.95971600 -10.13652000
3.18139700 0.80370000 -7.68056700
7.75816100 0.95971500 -7.75815700
5.87845300 0.80369900 -5.87845100
10.13652200 0.95971400 -4.19868500
7.68056800 0.80369900 -3.18139600
8.95595600 4.49679700 -0.00000100
11.48036700 14.19814100 0.00000100
10.60647700 14.19814500 -4.39334500
9.39264900 6.21192000 -4.18236800
12.87049900 17.60558200 0.00000100
11.89079100 17.60558200 -4.92532600
8.11784500 14.19814500 -8.11784400
6.70484000 5.03947300 -7.60986600
9.10081900 17.60558200 -9.10081700
4.39334700 14.19814500 -10.60647500
3.99656500 6.21192000 -9.64856000
4.92532800 17.60558200 -11.89078900
0.00000000 14.19814300 -11.48036600
-0.00000100 4.02426200 -9.47832500
0.00000100 17.60558200 -12.87049900
-4.39334700 14.19814300 -10.60647500
-3.99656600 6.21191900 -9.64856100
-4.92532500 17.60558200 -11.89079000
-8.11784400 14.19814500 -8.11784500
-6.70484100 5.03947300 -7.60986600
-9.10081600 17.60558200 -9.10081800
-10.60647700 14.19814500 -4.39334500
-9.39264900 6.21192000 -4.18236700
-11.89078900 17.60558200 -4.92532600
-11.48036800 14.19814500 0.00000100
-9.26843000 4.20201100 0.35182200
-12.87049900 17.60558200 -0.00000100
-10.60647600 14.19814500 4.39334600
-9.64856000 6.21192000 3.99656500
-11.89078900 17.60558200 4.92532500
-8.11784100 14.19814500 8.11784600
-7.60986300 5.03947300 6.70484100
-9.10081500 17.60558200 9.10081700
-4.39334200 14.19814500 10.60647700
-4.18236400 6.21192000 9.39265100
-4.92532300 17.60558300 11.89078900
0.00000100 14.19814500 11.48036800
0.35182200 4.20201100 9.26843100
0.00000000 17.60558200 12.87049900
4.39334800 14.19814500 10.60647600
3.99656800 6.21192000 9.64856000
4.92532800 17.60558200 11.89078800
8.11784700 14.19814500 8.11784300
6.70484300 5.03947300 7.60986500
9.10081900 17.60558200 9.10081500
10.60647700 14.19814500 4.39334600
9.39265100 6.21192000 4.18236700
11.89079100 17.60558200 4.92532700
12.46418500 16.55043300 0.00000100
11.51540800 16.55043500 -4.76983600
8.81351200 16.55043500 -8.81351000
4.76983900 16.55043500 -11.51540400
0.00000100 16.55043500 -12.46418500
-4.76983700 16.55043500 -11.51540700
-8.81350900 16.55043500 -8.81351100
-11.51540600 16.55043500 -4.76983700
-12.46418500 16.55043500 -0.00000100
-11.51540500 16.55043500 4.76983600
-8.81350800 16.55043500 8.81350900
-4.76983300 16.55043500 11.51540700
0.00000000 16.55043500 12.46418500
4.76983900 16.55043500 11.51540600
8.81351200 16.55043500 8.81350900
11.51540800 16.55043500 4.76983800
-7.51279400 3.72667300 9.89269500
-7.36727200 2.82962900 9.44718200
-6.82323500 2.90493400 9.38548300
-6.68213300 3.98796200 9.89341800
-6.97470400 4.09069400 10.29040100
-7.03113100 5.03566500 10.57816600
-7.36273300 5.25051700 10.66644200
-7.84236500 4.50059300 10.34629800
-8.81696400 4.30668400 9.68702900
-8.40044400 3.63883500 9.21726200
-8.10370900 2.84463600 8.89925000
-8.45211900 6.04971700 10.44866900
-8.14254700 5.18483600 10.48569400
-8.03285000 6.43683400 10.39932500
-8.98271300 6.97008300 9.76110700
-9.16416000 6.16740300 9.97805600
-9.06074400 5.03875300 9.92559800
-9.99884900 4.85418400 8.22614100
-10.03372000 5.98754500 8.49414400
-9.82809700 6.23715000 7.95320000
-9.79981300 5.10046800 7.57252600
-9.93374700 4.66098600 7.91404000
-9.68724700 3.98193500 7.88686300
-9.21469100 3.70313700 8.40006800
-9.53440900 4.21374800 8.76837200
-9.77521100 4.75523900 8.78860400
-9.67294100 5.13717600 9.23111300
-9.78798100 5.99935000 9.21073700
-6.76882000 5.43970300 10.33550700
-7.57967000 6.75133800 10.09741800
-8.64262200 7.33785000 9.37956500
-9.39869200 7.03092100 8.61074200
-9.65000700 6.69638000 9.08155500
-9.42112000 4.05725500 7.53077500
-8.97552900 3.16299400 7.60048600
-8.86083100 2.99536400 8.20375400
-8.43160000 2.39125700 7.79964900
-7.65074800 2.15877200 8.39772700
-8.00678800 2.32526800 8.79837300
-8.62186000 2.41897400 8.23614300
-7.03368100 2.40823400 9.02483200
-7.41488500 2.41231700 9.28636600
-7.14376600 3.85839900 10.14614500
-7.38767100 3.20893100 9.58340600
-7.68392900 4.21363300 10.20400500
-7.96920900 3.66399200 9.56981000
-8.24797900 6.25350200 10.45220900
-8.29399000 5.64969900 10.51724800
-8.81019100 6.15593000 10.25581700
-9.97317200 4.77499900 8.03055500
-10.07581800 5.47116200 8.29972500
-9.81449000 4.36043800 8.35511600
-9.95234000 4.86033300 8.48432000
-8.37856100 4.38820900 10.03347400
-7.42991000 4.75198000 10.57434000
-7.99345400 4.76513200 10.41003900
-7.16267800 5.18433100 10.62734800
-7.58299400 5.85815400 10.61172700
-7.67483900 5.24657000 10.63827600
-7.80924500 6.60201300 10.28330100
-8.55264500 6.85224800 10.09414800
-8.83137200 7.16828300 9.59383200
-9.34213700 6.88618000 9.41773000
-9.09439000 6.66315400 9.88723100
-9.55632100 6.87328700 8.85640600
-9.88697900 6.39779600 8.76841400
-9.71535400 6.42885100 9.22129400
-9.96923100 6.11012200 8.22416100
-9.98536800 5.93032100 8.80803900
-9.82587400 4.25697300 7.89929100
-9.53063600 3.80818800 8.04686100
-9.58218900 3.99953800 7.76051200
-6.96025200 5.28348200 10.50376500
-6.97367800 4.55766000 10.49284700
-6.88215300 3.97557600 10.10547800
-9.92336100 4.93939200 7.79812500
-9.49607400 6.10744000 9.62611700
-9.79735400 5.52856100 9.17297700
-9.62082400 4.44744300 8.84750500
-9.19107800 4.25040200 9.27573600
-9.42826700 3.98777400 8.60222100
-8.81332600 3.65171200 8.82927200
-8.99258200 3.36921100 8.24091300
-9.16271300 5.59015900 10.00152700
-8.92368400 4.58649300 9.80314000
-8.66705800 4.04293000 9.51311600
-8.16377800 3.20315200 8.95934600
-8.58538400 2.37897100 8.04631100
-8.06894800 2.18001000 8.04058600
-8.73502000 2.73731700 7.65844000
-8.21915800 2.42968500 7.52457200
-7.85519700 2.18392700 8.62836400
-7.27349300 2.25802000 8.76212400
-7.41986700 2.19171000 8.13677500
-9.04665100 3.09275900 7.89119300
-9.19145400 3.61930300 7.57489500
-8.77593500 3.21964800 7.32070700
-7.25170800 2.38984000 9.21328600
-6.89552400 2.62025800 9.22092700
-6.78822900 2.44706400 8.77869000
-7.08445700 2.86082800 9.51972000
-6.76828400 3.33619300 9.58686300
-6.57281300 2.95549400 9.14785900
-9.87796100 5.69185700 7.71526100
-9.66380800 6.69671400 8.26035400
-9.64863700 6.36640400 7.68175000
-9.05190800 7.24341800 8.98895000
-9.20909200 7.17892200 8.35482200
-8.15661300 7.20892300 9.75743700
-8.43516600 7.49310000 9.14180100
-7.06575100 6.11247300 10.31745800
-7.34711100 6.89273500 9.87660700
-9.63406400 4.53244600 7.51452200
-9.61968600 5.20287900 7.29208600
-6.65293000 4.73190800 10.18351400
-6.42837900 4.06409800 9.66778900
-6.51711100 5.55012600 10.12032000
-9.23205000 4.13502800 7.24934900
-8.75780200 2.65436200 8.22377100
-8.51440400 2.90219500 8.53937500
-8.09359800 2.55482800 8.89343900
-7.69818800 2.82100700 9.22223600
-7.39515800 2.57025900 9.38213300
-8.38080500 2.33732900 8.46168400
-7.63856200 2.35839500 9.11650000
-9.72261000 4.94278900 8.99894000
-9.40013800 5.03563100 9.57932300
-8.64484900 5.10300000 10.23827400
-7.04230300 3.32391200 9.78164400
-7.17501800 4.48576700 10.50943100
-8.22096000 4.11110200 9.86962800
-7.75204400 3.18719100 9.29901600
-7.88352900 5.75499900 10.61722200
-8.70557900 6.57593300 10.18850200
-8.76406600 5.62757600 10.29713100
-10.03485300 5.48358700 7.98279200
-9.77337600 4.12831700 8.11610200
-9.80468100 4.53885300 8.55162600
-10.01539400 5.38594000 8.65731700
-7.67168500 4.90208700 10.55468800
-8.50039800 4.66296000 10.13260600
-7.26374500 5.89099500 10.54457500
-8.36508800 7.04365200 9.95603600
-9.22336000 7.07759900 9.21964000
-9.42683900 6.58938500 9.56072000
-9.81127200 6.55193300 8.51946700
-9.87545700 6.26051200 8.93384000
-9.77403600 4.41908000 7.75162000
-9.32028100 3.57054600 7.88315200
-6.86033900 4.64149300 10.37023500
-9.50283700 5.55222700 9.62771500
-9.33905600 4.55750200 9.36202900
-9.05767600 4.00364600 9.10160400
-8.58868600 3.26207200 8.59608400
-8.25741400 2.20262000 8.28055500
-8.84335100 2.69327700 7.93897800
-7.48465500 2.26547400 8.97689000
-7.14479000 2.58583900 9.38198300
-7.69718300 2.54991700 9.20591800
-8.48145500 2.58848000 8.53571800
-8.99696000 3.68673300 7.29451200
-7.84794400 2.21345000 7.77120100
-8.52974500 2.78391800 7.38002900
-6.51656300 3.39693800 9.35399400
-9.48047000 6.83682200 7.99615900
-9.69967900 5.80823400 7.43819200
-8.85411800 7.39643800 8.74196200
-6.64680800 2.66409400 8.97941700
-6.82105300 6.23878200 10.10184300
-9.45002100 4.62144100 7.23271000
-6.39848500 4.82561400 9.96473600
-7.03370400 2.29330300 8.50977900
-7.93768100 7.36112700 9.52859700
-4.83729200 3.75276500 -11.47181500
-4.56024900 2.81966100 -11.19449000
-4.75958600 2.87101100 -10.68157600
-5.21764900 3.98423900 -10.72347000
-5.42306800 4.12725600 -11.16061600
-5.60109200 5.09291100 -11.28220400
-5.51080900 5.32532500 -11.60118200
-5.04065600 4.57021600 -11.92319300
-4.00957500 4.36037200 -12.48436900
-3.82771600 3.64434500 -11.94176000
-3.72909800 2.81823400 -11.58434000
-4.76287000 6.14292900 -12.40431200
-4.98618400 5.27317900 -12.20710400
-4.89807500 6.51027600 -11.98615200
-3.86000700 7.02575600 -12.48676100
-4.00601000 6.24889700 -12.80213300
-4.06656500 5.11663400 -12.76201800
-2.13747900 4.83502200 -12.80180700
-2.29868300 5.98612900 -12.88252600
-1.90748200 6.18618000 -12.43070000
-1.64424100 5.02335000 -12.30307500
-1.90369300 4.61629800 -12.61082300
-2.03118800 3.92898900 -12.42653400
-2.72041900 3.67409200 -12.27031600
-2.86690100 4.22228300 -12.69057700
-2.74303300 4.77179000 -12.87579700
-3.16105500 5.18275600 -12.96807900
-3.04458000 6.04430700 -13.00205100
-5.49114200 5.46775600 -10.91026400
-4.83092700 6.78471000 -11.42436100
-3.66658100 7.35109600 -11.98354300
-2.64835100 7.01261700 -12.30846100
-2.96059800 6.72414200 -12.77324400
-1.84010900 3.96745000 -12.01995900
-2.15803800 3.06619200 -11.72033900
-2.75144200 2.94144600 -11.91398900
-2.63008200 2.29352900 -11.38676800
-3.53747900 2.08055100 -10.99594000
-3.71282200 2.28959700 -11.48640500
-2.92250500 2.36126400 -11.75743900
-4.36823600 2.35574000 -10.73065300
-4.41763900 2.39315300 -11.18879500
-5.22808500 3.89061000 -11.25722000
-4.65099000 3.20877600 -11.25104400
-5.00517400 4.26784000 -11.73609700
-4.34055000 3.68143700 -11.72609500
-4.85216200 6.33914800 -12.21263700
-4.91848000 5.74408500 -12.32411300
-4.41838300 6.24644400 -12.62179900
-1.98167300 4.74021900 -12.69262900
-2.13420100 5.45813300 -12.86282000
-2.36341400 4.34650300 -12.73316600
-2.38622900 4.85933600 -12.88173800
-4.51755000 4.45291300 -12.25575300
-5.42352900 4.82383500 -11.65042300
-5.01167800 4.84396900 -12.06842300
-5.57448700 5.24940500 -11.41114900
-5.32736600 5.93427600 -11.72868500
-5.33854500 5.33010500 -11.86294900
-4.89340200 6.65817600 -11.72376200
-4.36245200 6.91891000 -12.27253300
-3.77437500 7.20514800 -12.26169700
-3.39222800 6.92833200 -12.64745900
-3.93378400 6.73348800 -12.66486300
-2.79787300 6.87988100 -12.57317100
-2.58834200 6.41085100 -12.85473000
-3.06625700 6.47056200 -12.91432500
-2.08549100 6.08530900 -12.69072600
-2.60054900 5.95150600 -12.99125100
-1.96244400 4.20883300 -12.53598700
-2.25490200 3.76267800 -12.37546900
-1.96888300 3.93317500 -12.27352200
-5.55652200 5.33167000 -11.16827200
-5.57770300 4.60805700 -11.22355100
-5.31012600 3.99513500 -10.99998600
-1.79242100 4.88445900 -12.52858800
-3.54249400 6.17371200 -12.93298600
-3.03102500 5.57262300 -13.02407800
-2.88364400 4.46422900 -12.78817100
-3.47370100 4.28577100 -12.62424300
-2.78257100 3.98066600 -12.53422200
-3.29045300 3.64179600 -12.12207900
-2.70264400 3.32140500 -12.02239400
-4.05687400 5.67545800 -12.85053100
-4.04687000 4.65181200 -12.61412300
-3.94106300 4.07899100 -12.28837700
-3.73518100 3.18217900 -11.64144300
-2.77486400 2.30556900 -11.63883200
-3.02440100 2.08888300 -11.19486900
-2.34460200 2.63809500 -11.56435200
-2.48673200 2.30331500 -11.06797600
-3.64227600 2.13043400 -11.28256800
-4.03139700 2.19425900 -10.82839600
-3.41555700 2.08530700 -10.66791800
-2.38363900 3.02098900 -11.92421000
-2.01000400 3.52643800 -11.86783800
-2.00353900 3.09422600 -11.40942500
-4.43173800 2.35946500 -11.01233300
-4.59522300 2.57723900 -10.68696400
-4.26593400 2.36699400 -10.39636500
-4.75628200 2.84646100 -10.97752700
-4.94062700 3.31427000 -10.69893100
-4.66652600 2.89443500 -10.34612900
-1.70252900 5.62631000 -12.39932600
-2.23184100 6.66195200 -12.39960900
-1.74706500 6.28789700 -12.13656000
-3.13420000 7.24129200 -12.16664400
-2.50543100 7.13385000 -12.01143600
-4.23549100 7.23468600 -11.74187600
-3.54770900 7.48032500 -11.67884400
-5.30033000 6.14709300 -11.11811800
-4.73955100 6.90056200 -11.10645700
-1.70073100 4.44712300 -12.16795300
-1.47760800 5.09760500 -12.00592400
-5.44852800 4.74677900 -10.78423500
-5.13540600 4.03395300 -10.38901400
-5.41535900 5.55250700 -10.58021800
-1.67810200 4.01676800 -11.71611900
-2.83524900 2.59960300 -11.85553000
-3.21530800 2.86228700 -11.77294500
-3.74360200 2.52865900 -11.59211000
-4.20626200 2.80534100 -11.38068500
-4.50311600 2.55719500 -11.20584300
-3.23911000 2.28881600 -11.65666700
-4.16516000 2.33418500 -11.30949900
-2.94331100 4.97297800 -12.91574700
-3.60158200 5.09878200 -12.89831200
-4.53507500 5.19015300 -12.53850900
-4.98288600 3.32652400 -11.03246000
-5.50068900 4.54470900 -11.41338600
-4.46221400 4.15873000 -12.05860700
-4.22956400 3.17799000 -11.43964400
-5.19525600 5.84238000 -12.00271800
-4.38719600 6.65614500 -12.46997500
-4.50357800 5.72153200 -12.63597600
-1.87422100 5.44477000 -12.67704700
-2.18454500 4.09543800 -12.60023800
-2.53174900 4.53902000 -12.80490100
-2.48164100 5.39854300 -12.98332200
-5.28415100 4.98032300 -11.84396600
-4.53301800 4.73853800 -12.39117400
-5.41770600 5.95072700 -11.41392100
-4.31995000 7.09250300 -12.02974200
-3.26443100 7.09973400 -12.43703600
-3.49308600 6.64651400 -12.80906100
-2.39734300 6.54270000 -12.66082500
-2.74630300 6.28634500 -12.93148800
-1.84880900 4.35722700 -12.41013500
-2.22263200 3.50599200 -12.12930900
-5.51921600 4.67823700 -11.06057500
-3.56910700 5.62083200 -12.97686500
-3.46385100 4.60355300 -12.77447900
-3.39631600 4.02188400 -12.44153700
-3.21161500 3.22782400 -11.84087800
-3.14509800 2.13638900 -11.47198100
-2.54231100 2.61951000 -11.79444700
-4.11996700 2.22552100 -11.11466100
-4.62066700 2.56398400 -10.98434200
-4.20625700 2.53392800 -11.39028200
-3.24373700 2.54825900 -11.76322600
-1.85200900 3.56534100 -11.56040600
-2.89036300 2.09383700 -10.87154500
-2.19450800 2.65601900 -11.24975400
-4.85184200 3.34816400 -10.36389500
-2.07908500 6.77490500 -12.10473500
-1.53727200 5.71480400 -12.10444600
-3.00275400 7.36792400 -11.86627000
-4.49828100 2.59372600 -10.35164200
-5.22004000 6.24788600 -10.79298200
-1.53543100 4.50776900 -11.86760900
-5.37173800 4.81450200 -10.45121200
-3.92114000 2.20170100 -10.49641600
-4.13005400 7.36116300 -11.43146900
