3.68788500 7.44603700 -0.02280600
3.38129300 7.27916900 0.55337000
3.19925500 6.88075900 -0.02280700
3.38129300 7.27916900 -0.59898300
3.04116800 6.84962100 -0.02280700
3.25514400 7.41170600 0.55337000
3.25514400 7.41170600 -0.59898300
3.78130000 8.40653200 -0.02280600
3.56093700 8.47719200 0.55337000
3.17530200 7.85921800 0.55337000
3.17530200 7.85921900 -0.59898300
3.56093700 8.47719200 -0.59898300
3.06033000 8.06161700 -0.02280600
3.34057400 8.54785200 -0.02280600
3.88429500 8.99336900 -0.02280600
3.69387300 9.08917800 0.55337000
3.69387300 9.08917800 -0.59898200
3.50345100 9.18498800 -0.02280600
3.98489600 9.37900300 -0.02280600
3.81363600 9.46642900 0.55337000
3.81363600 9.46642900 -0.59898200
3.64237500 9.55385600 -0.02280600
3.85794800 9.57780900 -0.02280600
2.74540600 7.57168600 -0.55232100
2.74540600 7.57168600 0.55232200
2.59757500 7.11311300 0.52291700
2.59757500 7.11311300 -0.52291600
2.19735200 7.11311300 -1.48913900
2.32267700 7.57168600 -1.57287900
2.30225900 6.24432300 0.46417500
2.30225900 6.24432300 -0.46417400
1.94699600 6.24432300 -1.32185700
2.51714800 5.13324300 0.50691900
2.51714800 5.13324300 -0.50691800
2.12916900 5.13324300 -1.44358200
3.05016100 4.48047600 0.61294200
3.05016100 4.48047600 -0.61294100
2.58103600 4.48047600 -1.74551000
3.11270400 3.75447500 0.62538200
3.11270300 3.75447500 -0.62538200
2.63405700 3.75447500 -1.78093700
2.72156900 2.93873000 0.54758000
2.72156900 2.93873000 -0.54758100
2.30246900 2.93873000 -1.55937700
1.88127700 2.18478500 0.38043600
1.88127700 2.18478500 -0.38043600
1.59010400 2.18478500 -1.08339000
1.03983100 1.74101200 0.21306200
1.03983100 1.74101200 -0.21306200
0.87676000 1.74101200 -0.60674900
0.48755100 1.58700200 0.10320600
0.48755000 1.58700200 -0.10320700
0.40856000 1.58700200 -0.29390700
0.40856000 1.58700200 0.29390700
0.26260400 1.58700200 0.43986300
0.07190300 1.58700200 0.51885400
-0.13451000 1.58700200 0.51885400
-0.32521100 1.58700200 0.43986400
-0.47116700 1.58700200 0.29390800
-0.55015800 1.58700200 0.10320700
-0.55015800 1.58700200 -0.10320600
-0.47116700 1.58700200 -0.29390700
-0.32521100 1.58700200 -0.43986300
-0.13451000 1.58700200 -0.51885400
0.07190300 1.58700200 -0.51885400
0.26260300 1.58700200 -0.43986300
1.45783700 7.11311300 -2.22865500
1.54157600 7.57168600 -2.35398000
1.29055400 6.24432300 -1.97829900
1.41227800 5.13324300 -2.16047300
1.71420600 4.48047600 -2.61234000
1.74963300 3.75447500 -2.66536000
1.52807300 2.93873000 -2.33377300
1.05208600 2.18478500 -1.62140800
0.57544500 1.74101200 -0.90806400
0.49161300 7.11311300 -2.62887800
0.52101900 7.57168600 -2.77670900
0.43287100 6.24432300 -2.33356200
0.47561500 5.13324300 -2.54845200
0.58163800 4.48047600 -3.08146500
0.59407800 3.75447500 -3.14400700
0.51627700 2.93873000 -2.75287200
0.34913200 2.18478500 -1.91258000
0.18175800 1.74101200 -1.07113500
-0.55422000 7.11311300 -2.62887800
-0.58362500 7.57168600 -2.77670900
-0.49547800 6.24432300 -2.33356200
-0.53822200 5.13324300 -2.54845200
-0.64424500 4.48047600 -3.08146500
-0.65668600 3.75447500 -3.14400700
-0.57888400 2.93873000 -2.75287200
-0.41174000 2.18478500 -1.91258000
-0.24436600 1.74101200 -1.07113500
-1.52044300 7.11311300 -2.22865500
-1.60418200 7.57168600 -2.35398000
-1.35316000 6.24432300 -1.97829900
-1.47488600 5.13324300 -2.16047300
-1.77681400 4.48047600 -2.61233900
-1.81224100 3.75447500 -2.66536000
-1.59068100 2.93873000 -2.33377200
-1.11469400 2.18478500 -1.62140700
-0.63805300 1.74101200 -0.90806400
-2.25995900 7.11311400 -1.48914000
-2.38528400 7.57168600 -1.57287900
-2.00960200 6.24432300 -1.32185700
-2.19177700 5.13324300 -1.44358200
-2.64364400 4.48047600 -1.74550900
-2.69666400 3.75447500 -1.78093600
-2.36507700 2.93873000 -1.55937600
-1.65271100 2.18478500 -1.08338900
-0.93936800 1.74101200 -0.60674800
-2.66018200 7.11311300 -0.52291600
-2.80801300 7.57168600 -0.55232200
-2.36486600 6.24432300 -0.46417400
-2.57975600 5.13324300 -0.50691800
-3.11276900 4.48047600 -0.61294100
-3.17531100 3.75447500 -0.62538100
-2.78417600 2.93873000 -0.54758000
-1.94388400 2.18478500 -0.38043500
-1.10243900 1.74101200 -0.21306100
-2.66018200 7.11311300 0.52291600
-2.80801300 7.57168600 0.55232200
-2.36486600 6.24432300 0.46417500
-2.57975600 5.13324400 0.50691900
-3.11276900 4.48047600 0.61294200
-3.17531100 3.75447500 0.62538200
-2.78417600 2.93873000 0.54758100
-1.94388400 2.18478500 0.38043700
-1.10243800 1.74101200 0.21306300
-2.25995900 7.11311300 1.48914000
-2.38528400 7.57168600 1.57287900
-2.00960300 6.24432300 1.32185700
-2.19177700 5.13324300 1.44358200
-2.64364300 4.48047600 1.74551000
-2.69666400 3.75447500 1.78093700
-2.36507600 2.93873000 1.55937700
-1.65271100 2.18478500 1.08339000
-0.93936700 1.74101200 0.60675000
-1.52044300 7.11311300 2.22865500
-1.60418300 7.57168600 2.35398100
-1.35316000 6.24432300 1.97829900
-1.47488500 5.13324300 2.16047400
-1.77681300 4.48047600 2.61234100
-1.81224000 3.75447500 2.66536100
-1.59068000 2.93873000 2.33377300
-1.11469300 2.18478500 1.62140800
-0.63805200 1.74101200 0.90806500
-0.55422000 7.11311400 2.62887800
-0.58362500 7.57168600 2.77670900
-0.49547800 6.24432300 2.33356300
-0.53822200 5.13324400 2.54845200
-0.64424500 4.48047600 3.08146500
-0.65668500 3.75447500 3.14400700
-0.57888300 2.93873000 2.75287300
-0.41173900 2.18478500 1.91258100
-0.24436500 1.74101200 1.07113500
0.49161300 7.11311400 2.62887800
0.52101800 7.57168600 2.77670900
0.43287100 6.24432300 2.33356300
0.47561500 5.13324300 2.54845200
0.58163800 4.48047600 3.08146500
0.59407900 3.75447500 3.14400700
0.51627700 2.93873000 2.75287200
0.34913300 2.18478500 1.91258000
0.18175900 1.74101200 1.07113500
1.45783600 7.11311300 2.22865500
1.54157600 7.57168600 2.35398000
1.29055400 6.24432300 1.97829900
1.41227900 5.13324300 2.16047300
1.71420700 4.48047600 2.61234000
1.74963400 3.75447500 2.66536000
1.52807400 2.93873000 2.33377200
1.05208700 2.18478500 1.62140700
0.57544600 1.74101200 0.90806400
2.19735200 7.11311300 1.48914000
2.32267700 7.57168600 1.57288000
1.94699600 6.24432300 1.32185700
2.12917000 5.13324400 1.44358200
2.58103700 4.48047600 1.74550900
2.63405700 3.75447500 1.78093700
2.30247000 2.93873000 1.55937700
1.59010400 2.18478500 1.08338900
0.87676100 1.74101200 0.60674900
2.19215900 7.46940500 -0.44227300
2.19215900 7.46940500 0.44227500
2.60673200 7.97949000 0.52473900
2.60673200 7.97949000 -0.52473700
2.20511500 7.97949000 -1.49432600
1.85365700 7.46940500 -1.25949000
1.60110600 6.74420400 -1.09074100
1.89425500 6.74420300 -0.38301700
1.89425500 6.74420300 0.38301800
1.46302400 7.97949100 -2.23641800
1.22818700 7.46940500 -1.88496000
1.05943800 6.74420400 -1.63240900
0.49343500 7.97949100 -2.63803500
0.41097100 7.46940500 -2.22346200
0.35171400 6.74420400 -1.92555800
-0.55604100 7.97949100 -2.63803500
-0.47357700 7.46940500 -2.22346200
-0.41432100 6.74420400 -1.92555800
-1.52563000 7.97949100 -2.23641800
-1.29079300 7.46940500 -1.88496000
-1.12204500 6.74420400 -1.63241000
-2.26772200 7.97949000 -1.49432700
-1.91626400 7.46940500 -1.25949000
-1.66371300 6.74420300 -1.09074100
-2.66933900 7.97949000 -0.52473800
-2.25476600 7.46940500 -0.44227400
-1.95686300 6.74420300 -0.38301700
-2.66933900 7.97949000 0.52473800
-2.25476600 7.46940500 0.44227400
-1.95686300 6.74420300 0.38301700
-2.26772200 7.97949100 1.49432700
-1.91626400 7.46940500 1.25949000
-1.66371400 6.74420300 1.09074100
-1.52563000 7.97949100 2.23641900
-1.29079400 7.46940500 1.88496100
-1.12204500 6.74420300 1.63241000
-0.55604100 7.97949000 2.63803600
-0.47357800 7.46940500 2.22346300
-0.41432100 6.74420300 1.92555900
0.49343400 7.97949000 2.63803500
0.41097000 7.46940500 2.22346200
0.35171400 6.74420300 1.92555900
1.46302300 7.97949100 2.23641800
1.22818700 7.46940500 1.88496000
1.05943800 6.74420300 1.63241000
2.20511500 7.97949100 1.49432700
1.85365700 7.46940500 1.25949100
1.60110600 6.74420300 1.09074200
0.60032700 2.10883400 0.12563900
0.60032700 2.10883400 -0.12563900
0.50416700 2.10883400 -0.35779000
0.32648600 2.10883400 -0.53547100
0.09433600 2.10883400 -0.63163100
-0.15694300 2.10883400 -0.63163100
-0.38909300 2.10883400 -0.53547100
-0.56677400 2.10883400 -0.35779000
-0.66293400 2.10883400 -0.12564000
-0.66293400 2.10883400 0.12563900
-0.56677400 2.10883400 0.35779000
-0.38909400 2.10883400 0.53547000
-0.15694300 2.10883400 0.63163000
0.09433500 2.10883400 0.63163000
0.32648600 2.10883400 0.53547000
0.50416700 2.10883400 0.35779000
1.31074300 3.13161800 0.89672700
1.55174800 3.13161700 0.31488900
1.55174800 3.13161800 -0.31488900
1.71234600 5.40905200 -1.16506900
2.02547100 5.40905200 -0.40911800
2.02547100 5.40905200 0.40911800
1.13376600 5.40905200 -1.74364900
0.37781400 5.40905200 -2.05677500
-0.44042100 5.40905200 -2.05677500
-1.19637300 5.40905200 -1.74364900
-1.77495300 5.40905200 -1.16506900
-2.08807900 5.40905200 -0.40911800
-2.08807900 5.40905200 0.40911800
-1.77495300 5.40905200 1.16506900
-1.19637300 5.40905200 1.74365000
-0.44042200 5.40905200 2.05677500
0.37781400 5.40905200 2.05677500
1.13376600 5.40905200 1.74364900
1.71234600 5.40905200 1.16506900
1.31074300 3.13161800 -0.89672700
0.86542300 3.13161800 -1.34204700
0.28358500 3.13161800 -1.58305200
-0.34619200 3.13161800 -1.58305200
-0.92803000 3.13161800 -1.34204700
-1.37335000 3.13161800 -0.89672700
-1.61435600 3.13161800 -0.31488900
-1.61435600 3.13161800 0.31488800
-1.37335100 3.13161800 0.89672600
-0.92803100 3.13161800 1.34204700
-0.34619300 3.13161700 1.58305200
0.28358500 3.13161700 1.58305200
0.86542300 3.13161700 1.34204600
-0.70839700 2.05706000 2.15458100
-0.38627600 2.18595300 2.53104500
-0.38531900 2.55878500 2.43914500
-0.72291300 2.34070300 2.12222000
-0.67231400 2.02497900 1.54624100
-0.65647700 1.88631200 1.53089000
-0.58179700 1.60154700 1.53233600
-0.67639800 1.68777500 2.14003300
-0.37222000 1.74484600 2.45235300
-0.20851900 1.56665100 1.12348400
-0.25685800 1.08549300 1.39271400
-0.58028300 1.05899000 1.71006800
-0.60560600 1.35188000 1.74170200
0.19249500 1.54538600 1.11831600
0.13249900 1.07958900 1.36775400
-0.26106200 0.44141600 1.63132000
-0.55293500 0.45137900 1.89127200
0.07288000 0.45634200 1.61254600
-0.30386000 0.08824700 1.96027600
0.05222900 0.11679000 1.89044400
0.10668800 2.16578600 2.43754300
0.14233800 2.46370100 2.31798000
0.10495400 1.74383500 2.36264300
-0.63556900 1.34485400 2.08994900
-0.35113800 1.34299700 2.32243900
0.11857800 1.34999700 2.24181200
-0.64161500 1.02286200 2.11912900
-0.35645600 1.00755700 2.35682700
0.11272400 1.00928900 2.28435300
-0.61908300 0.50151400 2.24456700
-0.36499900 0.53122600 2.42113900
0.05438300 0.52002300 2.33802400
-0.35977200 0.16705800 2.27017700
0.04342500 0.16977000 2.16402900
0.31587700 0.50417500 2.07722600
0.42496500 1.03369700 1.96084100
0.29658600 0.48016800 1.78827200
0.40647400 1.06218800 1.59929400
0.44142100 1.39825600 1.88449200
0.45714300 1.47777800 1.41762400
0.45116200 1.71940600 1.96277500
0.51954000 1.70153200 1.46881000
0.47924700 2.02135600 2.02167400
0.54447700 1.84543700 1.49751900
0.47461900 2.09035300 1.77208700
-1.53280200 2.02954000 -1.57915800
-2.02139500 2.15843300 -1.49691700
-2.03456300 2.53126500 -1.48380000
-1.54331200 2.31318300 -1.59245000
-1.02992100 1.99745800 -1.23493300
-1.02491900 1.85879200 -1.21345200
-1.06461800 1.57402600 -1.15018100
-1.53681000 1.66025500 -1.54423600
-1.96118000 1.71732600 -1.44434200
-0.90639200 1.53913000 -0.61965200
-1.11227900 1.05797300 -0.79974200
-1.21774800 1.03147000 -1.24041600
-1.23182300 1.32436000 -1.27841400
-1.10848400 1.51786500 -0.27324600
-1.29140200 1.05206800 -0.45313400
-1.31464500 0.41389500 -0.92622800
-1.38715900 0.42385900 -1.31029300
-1.47053200 0.42882200 -0.63030700
-1.57458200 0.06072700 -1.13232600
-1.69810800 0.08926900 -0.79112700
-2.19512300 2.13826600 -1.02619900
-2.15671900 2.43618100 -0.95158100
-2.13002600 1.71631400 -0.98911200
-1.51490600 1.31733400 -1.48344400
-1.86067600 1.31547700 -1.35936600
-2.03346700 1.32247700 -0.91520600
-1.53680600 0.99534200 -1.50365500
-1.88741500 0.98003700 -1.38163300
-2.06691800 0.98176900 -0.94213300
-1.65593400 0.47399400 -1.54894100
-1.93814300 0.50370600 -1.42207700
-2.08287900 0.49250300 -1.01978300
-1.81143200 0.13953800 -1.33985200
-1.92808800 0.14225000 -0.93956900
-1.99399400 0.47665500 -0.66132200
-1.95041000 1.00617600 -0.50787500
-1.73637000 0.45264800 -0.52904700
-1.63097300 1.03466800 -0.33752900
-1.89343900 1.37073600 -0.45444900
-1.50134200 1.45025700 -0.20053500
-1.96555900 1.69188500 -0.48641500
-1.57735200 1.67401100 -0.17340900
-2.03051100 1.99383600 -0.49267300
-1.61480400 1.81791700 -0.16681900
-1.81418300 2.06283300 -0.36810300
-2.50702700 6.73465000 -0.02280700
-2.59565200 6.97297700 0.55337000
-2.87709400 6.92986100 0.55337000
-2.74415700 6.78015900 -0.02280700
-2.87709400 6.92986100 -0.59898300
-2.59565200 6.97297700 -0.59898300
-3.20404500 4.45676900 -0.02280700
-3.15294700 4.59968500 0.55336900
-3.17530200 4.69389800 -0.02280700
-2.92978900 4.80407900 -0.59898300
-2.83877000 4.96815400 0.55336900
-2.99326300 5.02204700 -0.02280700
-2.74894800 5.15378600 -0.59898300
-2.61601200 5.50948000 0.55336900
-2.94056800 5.42524800 0.55336900
-2.96691500 5.22803800 -0.02280700
-2.94056800 5.42524800 -0.59898300
-2.61601200 5.50948000 -0.59898300
-2.32019900 5.52984000 -0.02280700
-2.63397600 5.73104100 -0.02280700
-3.04436100 5.50828300 -0.59898300
-3.18608100 5.76696900 -0.59898300
-3.02200600 5.98972700 -0.02280700
-3.18608100 5.76696900 0.55337000
-3.04436100 5.50828300 0.55336900
-3.12260600 5.35259100 -0.02280700
-3.35015500 5.54421100 -0.02280700
-3.45554600 6.17176600 0.55337000
-3.51782200 5.85559300 -0.02280700
-3.45554600 6.17176600 -0.59898300
-3.43638400 6.97297700 -0.59898300
-3.18488300 6.49991500 -0.02280700
-3.43638400 6.97297700 0.55337000
-3.60644600 6.42326700 -0.02280700
-3.68788500 7.44603700 -0.02280600
-3.38129300 7.27916900 -0.59898300
-3.19925500 6.88075900 -0.02280700
-3.38129300 7.27916900 0.55337000
-3.04116800 6.84962100 -0.02280700
-3.25514400 7.41170600 0.55337000
-3.25514400 7.41170600 -0.59898300
-3.17530200 7.85921800 0.55337000
-3.56093700 8.47719200 0.55337000
-3.78130000 8.40653200 -0.02280600
-3.56093700 8.47719200 -0.59898200
-3.17530200 7.85921800 -0.59898300
-3.06033000 8.06161700 -0.02280600
-3.34057400 8.54785200 -0.02280600
-3.69387300 9.08917800 0.55337000
-3.88429600 8.99336800 -0.02280600
-3.69387300 9.08917800 -0.59898200
-3.50345100 9.18498800 -0.02280600
-3.81363600 9.46643000 0.55337000
-3.98489600 9.37900200 -0.02280600
-3.81363600 9.46643000 -0.59898200
-3.64237500 9.55385700 -0.02280600
-3.85794800 9.57780800 -0.02280600
2.21959500 2.14092900 0.11288100
2.49211700 2.10107700 -0.00618100
1.91332400 1.90649600 0.17270300
2.21210700 1.84108000 0.10131600
1.24765500 1.51086100 -0.00552600
1.26524600 1.29529300 -0.16099300
0.91164700 1.70273600 -0.16766300
1.00989000 1.50765900 -0.32665000
1.53488100 1.02756100 -0.00355700
1.46610000 0.72426300 -0.16473900
1.25889400 1.02908900 -0.31781400
1.73000700 0.38370700 -0.04440800
1.75375100 0.12059500 -0.20116200
1.50728600 0.39157300 -0.32577500
2.52507200 2.45601700 -0.00592700
2.55222800 2.69135500 -0.20642700
2.48479200 2.31626700 -0.19846400
2.41458600 2.49835700 -0.40327900
2.47062200 1.92786900 -0.19776500
2.41278800 2.13748100 -0.39232300
2.41502400 1.67768500 -0.00795800
2.32811200 1.46093600 -0.19969300
2.33796300 1.69378700 -0.39144500
2.29068000 1.29184500 -0.00986700
2.26640100 1.13096000 -0.19917000
2.21215200 1.28703200 -0.39126400
2.32394900 0.95743700 -0.00978500
2.36274600 0.73823100 -0.20020400
2.24836900 0.95022200 -0.39145500
2.41540000 0.47973700 -0.02941500
2.33364600 0.24156100 -0.19727300
2.29805600 0.46962100 -0.37288700
2.04211200 0.45987000 -0.66621600
1.80611300 0.73462900 -0.75789700
1.91386900 0.16152600 -0.63273200
1.70598100 0.43704600 -0.70843700
1.94263600 0.96129500 -0.72821400
1.65766000 1.18082300 -0.78249700
1.52846000 0.99438900 -0.78472700
1.89195900 1.30811200 -0.72741500
1.67387700 1.49413600 -0.78613300
1.41067800 1.38105100 -0.79442100
1.99819500 1.67808900 -0.73730900
1.75776100 1.82917500 -0.81738700
1.45389800 1.65242200 -0.82577700
2.06299600 2.06247900 -0.76120600
1.70522300 2.04459800 -0.82677500
1.48637000 1.87181500 -0.85694200
1.91047900 2.26829200 -0.78920900
1.30243700 1.98131200 -0.74956500
1.26890000 1.85333500 -0.79635700
2.01459600 0.06912400 -0.04416400
1.82613200 0.03374900 -0.33920600
2.08479200 0.05319400 -0.17998100
1.82902000 0.72321300 0.05512900
2.11051300 0.41532000 0.04661100
1.73935100 1.20538500 0.06110600
1.97460400 0.98177800 0.09012000
1.70841000 1.38181700 0.07318500
1.96398200 1.28982200 0.09271200
1.52976500 1.71934900 0.11040600
1.92125400 1.58687600 0.12771400
2.28242800 2.43237900 0.12175900
1.93988000 2.11607400 0.18555600
1.53813500 1.87320100 0.13173700
1.70043400 0.12223000 -0.58850400
1.51315400 0.41244100 -0.56829200
1.48873100 0.73145700 -0.70068500
1.27752500 1.01721600 -0.61355700
1.29020400 1.24061100 -0.72503600
1.01694400 1.46413300 -0.63966500
1.16572600 1.55628500 -0.75806700
1.19625400 1.71434300 -0.78971200
1.87946300 0.07486400 -0.49446000
2.13541400 0.22829300 -0.50089400
2.12765500 0.09996400 -0.34915400
2.31834900 0.15648600 -0.02441700
2.22102500 0.73130700 0.05501000
2.12605400 1.15387800 0.05575400
2.16356300 1.43036100 0.06830500
1.48720500 1.95812000 0.12175900
0.82715300 1.67249700 -0.50294100
1.13316000 1.28235500 -0.47357900
1.34888500 0.72675900 -0.46469200
1.63550400 0.14614700 -0.44789800
2.23987300 2.27350900 -0.58997200
2.14238400 2.52907700 -0.62071400
2.24977200 1.91635300 -0.57754800
2.12096100 1.46764400 -0.56742400
2.06542300 1.13493200 -0.56874500
2.17090800 0.73580600 -0.55725000
2.51323200 6.75133300 0.51303700
2.60822700 6.76998000 -0.02280700
2.42319400 6.68674500 -0.02280700
2.51323200 6.75133300 -0.55865000
3.20046800 4.46677300 0.51303700
3.24476400 4.53880600 -0.02280700
3.10823500 4.41125900 -0.02280700
3.18484700 4.48108100 -0.55865100
3.17373700 4.68730300 0.51303700
3.06751600 4.87174500 -0.02280700
3.15811600 4.70161100 -0.55865100
2.98244900 5.01827500 0.51303700
2.95793300 5.14180900 -0.02280700
2.97616100 5.03126900 -0.55865100
2.34090600 5.52841500 0.51303700
2.26031700 5.41726300 -0.02280700
2.42858300 5.63642800 -0.02280700
2.34090600 5.52841500 -0.55865100
2.63271900 5.71553200 0.51303700
2.85793200 5.84002500 -0.02280700
2.63271900 5.71553200 -0.55865100
2.96507100 5.24184300 0.51303700
3.02140800 5.29390800 -0.02280700
2.96507100 5.24184300 -0.55865100
3.11713000 5.36349000 0.51303700
3.24177000 5.42804100 -0.02280700
3.11713000 5.36349000 -0.55865100
3.33867000 5.55980400 0.51303700
3.44357000 5.69032100 -0.02280700
3.33867000 5.55980400 -0.55865100
3.03349200 5.97413500 0.51303700
3.12979200 6.20230600 -0.02280700
3.03349200 5.97413500 -0.55865100
3.51346400 5.87772600 0.51303700
3.57231400 6.08493800 -0.02280700
3.51346400 5.87772600 -0.55865100
3.59588400 6.40566300 0.51303700
3.63878300 6.87536900 -0.02280700
3.59588400 6.40566300 -0.55865000
3.20248800 6.53302900 0.51303700
3.20284700 6.76518900 -0.02280700
3.20248800 6.53302900 -0.55865000
2.75346300 6.79063900 0.51303700
2.89505800 6.79632600 -0.02280700
2.75346300 6.79063900 -0.55865000
3.02968300 6.85523800 0.51303700
3.15254700 6.89333400 -0.02280700
3.02968300 6.85523800 -0.55865000
3.67028000 7.41292300 0.51303700
3.73998200 8.00113700 -0.02280600
3.67028000 7.41292400 -0.55865000
3.21199700 6.90864800 0.51303700
3.21199700 6.90864800 -0.55865000
3.06837800 8.04744900 0.51303800
2.85912900 7.93706400 -0.02280600
3.23099100 8.24545100 -0.02280600
3.06837800 8.04745000 -0.55865000
3.76587400 8.41147900 0.51303800
3.82501300 8.71851300 -0.02280600
3.76587400 8.41147900 -0.55865000
3.35599900 8.54290600 0.51303800
3.42081500 8.88797700 -0.02280600
3.35599900 8.54290600 -0.55865000
3.87096600 9.00007600 0.51303800
3.94297900 9.21792300 -0.02280600
3.87096600 9.00007600 -0.55865000
3.51678000 9.17828100 0.51303800
3.58009900 9.41493200 -0.02280600
3.51678000 9.17828100 -0.55865000
3.97290800 9.38512300 0.51303800
3.96992600 9.49337600 -0.02280600
3.97290800 9.38512300 -0.55865000
3.85484600 9.57001300 0.51303800
3.72381400 9.60655200 -0.02280600
3.85484600 9.57001300 -0.55865000
3.65436300 9.54773600 0.51303800
3.65436300 9.54773600 -0.55865000
3.03767500 4.71615400 0.55336900
2.68427600 4.91426100 0.55336900
2.66271900 5.26336900 0.55336900
2.68427600 4.91426100 -0.59898300
2.74745100 5.06516200 -0.59898300
3.76153900 9.31642800 0.55337000
3.62291400 8.80324600 0.55337000
3.43578500 8.14964100 0.55337000
3.25274800 7.64614000 0.55337000
2.84715300 7.58735800 0.55337000
2.68427600 7.21130400 0.55337000
2.72469600 6.98076100 0.55337000
2.47828500 6.93585100 0.55337000
3.03807400 7.12517400 0.55337000
3.39167300 7.42208600 0.55337000
3.41961700 6.53015400 0.55337000
3.44416800 7.29204300 0.55337000
3.31273000 5.94481600 0.55337000
3.09136900 5.62565000 0.55336900
2.84505700 5.47824200 0.55336900
2.96771400 5.51267400 0.55336900
2.72469600 6.98076100 -0.59898300
2.47828500 6.93585100 -0.59898300
2.68427600 7.21130400 -0.59898300
3.03807400 7.12517400 -0.59898300
3.76153900 9.31642800 -0.59898200
3.62291400 8.80324500 -0.59898200
3.43578500 8.14964200 -0.59898300
2.84715300 7.58735800 -0.59898300
3.25274800 7.64614100 -0.59898300
3.44416800 7.29204300 -0.59898300
3.39167300 7.42208600 -0.59898300
3.41961700 6.53015500 -0.59898300
3.31272900 5.94481600 -0.59898300
3.09136900 5.62565000 -0.59898300
2.96771400 5.51267400 -0.59898300
2.64026400 5.30977600 -0.59898300
2.84505700 5.47824200 -0.59898300
2.80033700 7.57168600 0.00000100
2.75406800 7.96080900 -0.55404400
2.72760800 7.20494000 -0.54878100
2.58479200 7.57168600 -1.08362200
2.64958200 7.11311300 0.00000100
2.45721800 6.99257200 -0.49499700
2.44551200 7.11311300 -1.02593000
2.34842400 6.24432300 0.00000000
2.18301500 5.47911400 -0.44045500
2.16727800 6.24432300 -0.91068200
2.56756500 5.13324300 0.00000000
2.87355000 4.81945500 -0.57781100
2.36973700 5.13324300 -0.99454400
3.11112200 4.48047600 0.00000000
3.19383900 4.13637000 -0.64152100
2.87191900 4.48047600 -1.20255400
3.17490100 3.75447500 0.00000000
2.99981000 3.36629900 -0.60292600
2.93084400 3.75447500 -1.22696200
2.77602900 2.93873000 -0.00000000
2.41188700 2.51548800 -0.48598100
2.56233300 2.93873000 -1.07432000
1.91911400 2.18478500 -0.00000000
1.35058600 1.87579500 -0.27487500
1.77064700 2.18478500 -0.74639300
1.06102200 1.74101200 -0.00000000
0.74931700 1.62651200 -0.15527500
0.97787300 1.74101200 -0.41801500
0.43039200 1.57865000 -0.00000000
0.39524800 1.57865000 -0.17668300
2.33002100 7.96080900 -1.57778600
2.30758900 7.20494100 -1.56279700
1.97096900 7.57168600 -2.00227200
2.07836300 6.99257200 -1.40963300
1.86436900 7.11311300 -1.89567200
1.84590500 5.47911400 -1.25431000
1.65141800 6.24432300 -1.68272100
2.43131300 4.81945500 -1.64546700
1.80637400 5.13324300 -1.83767700
2.70284000 4.13637000 -1.82689700
2.19072700 4.48047600 -2.22203000
2.53835000 3.36629800 -1.71698800
2.23582600 3.75447500 -2.26712900
2.03993300 2.51548800 -1.38395600
1.95378000 2.93873000 -1.98508400
1.14020600 1.87579500 -0.78277800
1.34784900 2.18478500 -1.37915300
0.63047500 1.62651200 -0.44218700
0.74108700 1.74101200 -0.77239100
0.29516400 1.57865000 -0.32646800
1.54648300 7.96080900 -2.36132400
1.53149400 7.20494000 -2.33889200
1.05231900 7.57168600 -2.61609500
1.37833100 6.99257200 -2.10966600
0.99462700 7.11311300 -2.47681500
1.22300700 5.47911400 -1.87720800
0.87937900 6.24432300 -2.19858200
1.61416400 4.81945500 -2.46261600
0.96324000 5.13324300 -2.40104100
1.79559300 4.13637000 -2.73414400
1.17125100 4.48047600 -2.90322300
1.68568400 3.36629900 -2.56965400
1.19565800 3.75447500 -2.96214700
1.35265200 2.51548800 -2.07123700
1.04301600 2.93873000 -2.59363700
0.75147400 1.87579500 -1.17151000
0.71508800 2.18478500 -1.80195100
0.41088200 1.62651200 -0.66177900
0.38671100 1.74101200 -1.00917700
0.14537900 1.57865000 -0.42655100
0.52274200 7.96080900 -2.78537100
0.51747800 7.20493900 -2.75891100
-0.03130300 7.57168600 -2.83164100
0.46369400 6.99257200 -2.48852100
-0.03130300 7.11311300 -2.68088500
0.40915200 5.47911400 -2.21431800
-0.03130300 6.24432300 -2.37972800
0.54650800 4.81945500 -2.90485400
-0.03130400 5.13324300 -2.59886800
0.61021700 4.13637000 -3.22514300
-0.03130400 4.48047600 -3.14242500
0.57162200 3.36629800 -3.03111400
-0.03130400 3.75447500 -3.20620500
0.45467700 2.51548800 -2.44319000
-0.03130400 2.93873000 -2.80733300
0.24357100 1.87579500 -1.38189000
-0.03130400 2.18478500 -1.95041700
0.12397100 1.62651200 -0.78062100
-0.03130400 1.74101200 -1.09232500
-0.03130400 1.57865000 -0.46169600
-0.58534800 7.96080900 -2.78537200
-0.58008500 7.20493900 -2.75891100
-1.11492500 7.57168600 -2.61609500
-0.52630100 6.99257200 -2.48852100
-1.05723400 7.11311300 -2.47681500
-0.47175900 5.47911400 -2.21431800
-0.94198600 6.24432300 -2.19858100
-0.60911500 4.81945500 -2.90485400
-1.02584700 5.13324300 -2.40104100
-0.67282500 4.13637000 -3.22514300
-1.23385800 4.48047600 -2.90322300
-0.63423000 3.36629800 -3.03111400
-1.25826500 3.75447500 -2.96214700
-0.51728500 2.51548800 -2.44319000
-1.10562400 2.93873000 -2.59363700
-0.30617900 1.87579500 -1.38189000
-0.77769600 2.18478500 -1.80195000
-0.18657900 1.62651200 -0.78062100
-0.44931900 1.74101200 -1.00917700
-0.20798700 1.57865000 -0.42655100
-1.60908900 7.96080900 -2.36132400
-1.59410100 7.20494000 -2.33889200
-2.03357600 7.57168600 -2.00227200
-1.44093700 6.99257200 -2.10966600
-1.92697500 7.11311400 -1.89567200
-1.28561400 5.47911400 -1.87720800
-1.71402500 6.24432300 -1.68272200
-1.67677100 4.81945500 -2.46261600
-1.86898100 5.13324300 -1.83767700
-1.85820100 4.13637000 -2.73414400
-2.25333400 4.48047600 -2.22203000
-1.74829200 3.36629800 -2.56965400
-2.29843300 3.75447500 -2.26712900
-1.41526000 2.51548800 -2.07123600
-2.01638800 2.93873000 -1.98508400
-0.81408200 1.87579500 -1.17151000
-1.41045700 2.18478500 -1.37915300
-0.47349000 1.62651200 -0.66177800
-0.80369400 1.74101200 -0.77239000
-0.35777200 1.57865000 -0.32646800
-2.39262700 7.96080900 -1.57778600
-2.37019500 7.20494100 -1.56279800
-2.64739900 7.57168600 -1.08362200
-2.14097000 6.99257200 -1.40963400
-2.50811900 7.11311300 -1.02593000
-1.90851200 5.47911400 -1.25431100
-2.22988500 6.24432300 -0.91068200
-2.49392000 4.81945500 -1.64546700
-2.43234500 5.13324300 -0.99454300
-2.76544800 4.13637000 -1.82689600
-2.93452700 4.48047600 -1.20255400
-2.60095800 3.36629900 -1.71698800
-2.99345100 3.75447500 -1.22696100
-2.10254100 2.51548800 -1.38395500
-2.62494100 2.93873000 -1.07431900
-1.20281400 1.87579500 -0.78277700
-1.83325500 2.18478500 -0.74639200
-0.69308300 1.62651200 -0.44218600
-1.04048100 1.74101200 -0.41801400
-0.45785500 1.57865000 -0.17668300
-2.81667600 7.96080900 -0.55404500
-2.79021500 7.20494000 -0.54878200
-2.86294500 7.57168600 -0.00000000
-2.51982500 6.99257200 -0.49499800
-2.71218900 7.11311300 0.00000000
-2.24562300 5.47911400 -0.44045500
-2.41103100 6.24432300 0.00000000
-2.93615800 4.81945500 -0.57781100
-2.63017200 5.13324400 0.00000000
-3.25644700 4.13637000 -0.64152000
-3.17373000 4.48047600 0.00000000
-3.06241800 3.36629800 -0.60292500
-3.23750900 3.75447500 0.00000100
-2.47449400 2.51548800 -0.48598000
-2.83863600 2.93873000 0.00000100
-1.41319400 1.87579500 -0.27487400
-1.98172100 2.18478500 0.00000100
-0.81192500 1.62651200 -0.15527400
-1.12362900 1.74101200 0.00000100
-0.49299900 1.57865000 0.00000100
-2.81667600 7.96080900 0.55404500
-2.79021500 7.20494000 0.54878100
-2.64739900 7.57168600 1.08362200
-2.51982500 6.99257200 0.49499800
-2.50811900 7.11311300 1.02593000
-2.24562200 5.47911400 0.44045500
-2.22988500 6.24432300 0.91068200
-2.93615800 4.81945500 0.57781200
-2.43234500 5.13324400 0.99454400
-3.25644700 4.13637000 0.64152100
-2.93452600 4.48047600 1.20255500
-3.06241700 3.36629900 0.60292600
-2.99345100 3.75447500 1.22696200
-2.47449400 2.51548800 0.48598100
-2.62494100 2.93873000 1.07432000
-1.41319400 1.87579500 0.27487600
-1.83325400 2.18478500 0.74639300
-0.81192500 1.62651200 0.15527600
-1.04048000 1.74101200 0.41801500
-0.45785500 1.57865000 0.17668400
-2.39262800 7.96080900 1.57778600
-2.37019600 7.20494000 1.56279800
-2.03357600 7.57168600 2.00227300
-2.14097000 6.99257200 1.40963400
-1.92697600 7.11311300 1.89567200
-1.90851200 5.47911400 1.25431100
-1.71402500 6.24432300 1.68272200
-2.49392000 4.81945500 1.64546800
-1.86898100 5.13324300 1.83767800
-2.76544700 4.13637000 1.82689700
-2.25333400 4.48047600 2.22203100
-2.60095700 3.36629800 1.71698900
-2.29843200 3.75447500 2.26713000
-2.10254000 2.51548800 1.38395700
-2.01638700 2.93873000 1.98508500
-1.20281300 1.87579500 0.78277900
-1.41045600 2.18478500 1.37915400
-0.69308200 1.62651200 0.44218700
-0.80369400 1.74101200 0.77239100
-0.35777200 1.57865000 0.32646900
-1.60909000 7.96080900 2.36132500
-1.59410100 7.20494000 2.33889200
-1.11492500 7.57168600 2.61609500
-1.44093700 6.99257200 2.10966700
-1.05723400 7.11311400 2.47681500
-1.28561400 5.47911400 1.87720900
-0.94198600 6.24432300 2.19858200
-1.67677100 4.81945500 2.46261700
-1.02584700 5.13324400 2.40104100
-1.85820000 4.13637000 2.73414500
-1.23385700 4.48047600 2.90322300
-1.74829100 3.36629900 2.56965500
-1.25826400 3.75447500 2.96214800
-1.41525900 2.51548800 2.07123700
-1.10562200 2.93873000 2.59363800
-0.81408100 1.87579500 1.17151100
-0.77769500 2.18478500 1.80195100
-0.47348900 1.62651200 0.66177900
-0.44931800 1.74101200 1.00917700
-0.20798700 1.57865000 0.42655200
-0.58534900 7.96080900 2.78537200
-0.58008500 7.20494100 2.75891200
-0.03130400 7.57168600 2.83164100
-0.52630100 6.99257200 2.48852200
-0.03130400 7.11311400 2.68088600
-0.47175900 5.47911400 2.21431900
-0.03130400 6.24432300 2.37972800
-0.60911500 4.81945500 2.90485400
-0.03130400 5.13324400 2.59886800
-0.67282400 4.13637000 3.22514300
-0.03130300 4.48047600 3.14242600
-0.63422900 3.36629900 3.03111400
-0.03130300 3.75447500 3.20620500
-0.51728400 2.51548800 2.44319100
-0.03130300 2.93873000 2.80733300
-0.30617800 1.87579500 1.38189100
-0.03130300 2.18478500 1.95041700
-0.18657800 1.62651200 0.78062100
-0.03130300 1.74101200 1.09232500
-0.03130300 1.57865000 0.46169600
0.52274100 7.96080900 2.78537200
0.51747800 7.20494100 2.75891200
1.05231900 7.57168600 2.61609500
0.46369400 6.99257200 2.48852200
0.99462700 7.11311400 2.47681500
0.40915200 5.47911400 2.21431900
0.87937900 6.24432300 2.19858200
0.54650800 4.81945500 2.90485400
0.96324000 5.13324300 2.40104100
0.61021800 4.13637000 3.22514300
1.17125100 4.48047600 2.90322300
0.57162300 3.36629800 3.03111400
1.19565900 3.75447500 2.96214700
0.45467800 2.51548800 2.44319000
1.04301700 2.93873000 2.59363700
0.24357200 1.87579500 1.38189000
0.71508900 2.18478500 1.80195000
0.12397200 1.62651200 0.78062100
0.38671200 1.74101200 1.00917700
0.14538000 1.57865000 0.42655100
1.54648300 7.96080900 2.36132400
1.53149400 7.20494000 2.33889200
1.97096900 7.57168600 2.00227300
1.37833100 6.99257200 2.10966600
1.86436900 7.11311300 1.89567200
1.22300700 5.47911400 1.87720900
1.65141800 6.24432300 1.68272200
1.61416500 4.81945500 2.46261600
1.80637400 5.13324400 1.83767700
1.79559400 4.13637000 2.73414400
2.19072800 4.48047600 2.22203000
1.68568500 3.36629900 2.56965400
2.23582600 3.75447500 2.26712900
1.35265300 2.51548800 2.07123600
1.95378100 2.93873000 1.98508300
0.75147500 1.87579500 1.17151000
1.34785000 2.18478500 1.37915300
0.41088300 1.62651200 0.66177800
0.74108800 1.74101200 0.77239000
0.29516500 1.57865000 0.32646800
2.33002100 7.96080900 1.57778700
2.30758900 7.20494000 1.56279800
2.58479200 7.57168600 1.08362300
2.07836300 6.99257200 1.40963400
2.44551200 7.11311300 1.02593100
1.84590500 5.47911400 1.25431100
2.16727800 6.24432300 0.91068300
2.43131300 4.81945500 1.64546800
2.36973800 5.13324400 0.99454400
2.70284100 4.13637000 1.82689700
2.87192000 4.48047600 1.20255400
2.53835100 3.36629900 1.71698800
2.93084400 3.75447500 1.22696100
2.03993400 2.51548800 1.38395600
2.56233400 2.93873000 1.07432000
1.14020700 1.87579500 0.78277800
1.77064700 2.18478500 0.74639200
0.63047500 1.62651200 0.44218600
0.97787400 1.74101200 0.41801400
0.39524800 1.57865000 0.17668300
2.75406800 7.96080900 0.55404600
2.72760800 7.20494000 0.54878200
2.45721800 6.99257200 0.49499800
2.18301500 5.47911400 0.44045600
2.87355100 4.81945500 0.57781200
3.19383900 4.13637000 0.64152100
2.99981000 3.36629800 0.60292600
2.41188700 2.51548800 0.48598100
1.35058700 1.87579500 0.27487500
0.74931800 1.62651200 0.15527500
2.45100200 7.95985000 -0.49376100
2.23614500 7.46940500 0.00000100
2.06354600 7.46940500 -0.86771500
1.98406400 7.02372100 -0.40088100
2.65892000 7.97949000 0.00000100
2.75406800 7.96080900 -0.55404400
2.45413900 7.97949000 -1.02950300
2.07309400 7.95985000 -1.40611300
1.57202500 7.46940500 -1.60332800
1.67724300 7.02372100 -1.14161400
2.33002100 7.96080900 -1.57778600
1.87097200 7.97949100 -1.90227500
1.37481000 7.95985000 -2.10439700
0.83641200 7.46940500 -2.09484900
1.11031100 7.02372200 -1.70854600
1.54648300 7.96080900 -2.36132400
0.99820100 7.97949100 -2.48544200
0.46245800 7.95985100 -2.48230500
-0.03130300 7.46940500 -2.26744900
0.36957800 7.02372200 -2.01536800
0.52274200 7.96080900 -2.78537100
-0.03130300 7.97949100 -2.69022300
-0.52506400 7.95985100 -2.48230500
-0.89901800 7.46940500 -2.09485000
-0.43218500 7.02372200 -2.01536800
-0.58534800 7.96080900 -2.78537200
-1.06080700 7.97949100 -2.48544200
-1.43741600 7.95985000 -2.10439700
-1.63463200 7.46940500 -1.60332900
-1.17291800 7.02372200 -1.70854600
-1.60908900 7.96080900 -2.36132400
-1.93357800 7.97949000 -1.90227500
-2.13570100 7.95985000 -1.40611300
-2.12615400 7.46940500 -0.86771500
-1.73985000 7.02372100 -1.14161400
-2.39262700 7.96080900 -1.57778600
-2.51674600 7.97949000 -1.02950400
-2.51361000 7.95985000 -0.49376100
-2.29875300 7.46940500 -0.00000000
-2.04667200 7.02372100 -0.40088200
-2.81667600 7.96080900 -0.55404500
-2.72152700 7.97949000 -0.00000000
-2.51361000 7.95985000 0.49376100
-2.12615400 7.46940500 0.86771500
-2.04667200 7.02372100 0.40088200
-2.81667600 7.96080900 0.55404500
-2.51674600 7.97949100 1.02950400
-2.13570100 7.95985000 1.40611300
-1.63463200 7.46940500 1.60332900
-1.73985000 7.02372100 1.14161400
-2.39262800 7.96080900 1.57778600
-1.93357900 7.97949100 1.90227500
-1.43741700 7.95985000 2.10439700
-0.89901900 7.46940500 2.09485000
-1.17291800 7.02372100 1.70854700
-1.60909000 7.96080900 2.36132500
-1.06080700 7.97949000 2.48544300
-0.52506500 7.95985000 2.48230600
-0.03130400 7.46940500 2.26745000
-0.43218500 7.02372100 2.01536900
-0.58534900 7.96080900 2.78537200
-0.03130400 7.97949000 2.69022400
0.46245700 7.95985000 2.48230600
0.83641200 7.46940500 2.09485000
0.36957800 7.02372100 2.01536800
0.52274100 7.96080900 2.78537200
0.99820000 7.97949100 2.48544300
1.37481000 7.95985000 2.10439700
1.57202500 7.46940500 1.60332900
1.11031100 7.02372100 1.70854700
1.54648300 7.96080900 2.36132400
1.87097200 7.97949100 1.90227500
2.07309400 7.95985000 1.40611400
2.06354600 7.46940500 0.86771600
1.67724300 7.02372100 1.14161500
2.33002100 7.96080900 1.57778700
2.45413900 7.97949000 1.02950500
0.48796100 2.13781700 0.21508600
0.53074500 2.13781700 -0.00000000
0.99609000 2.30656300 0.20436100
2.45100200 7.95985000 0.49376200
2.75406800 7.96080900 0.55404600
1.78287400 6.74420300 -0.75145700
1.91172500 6.31219800 -0.38649200
1.93234800 6.74420300 0.00000100
1.35720800 6.74420400 -1.38851100
1.61591700 6.31219900 -1.10063700
0.72015400 6.74420400 -1.81417800
1.06933400 6.31219900 -1.64722000
-0.03130300 6.74420400 -1.96365200
0.35518900 6.31219900 -1.94302900
-0.78276100 6.74420400 -1.81417800
-0.41779600 6.31219900 -1.94302900
-1.41981500 6.74420300 -1.38851200
-1.13194100 6.31219900 -1.64722100
-1.84548200 6.74420300 -0.75145700
-1.67852400 6.31219800 -1.10063800
-1.99495600 6.74420300 -0.00000000
-1.97433300 6.31219800 -0.38649300
-1.84548200 6.74420300 0.75145700
-1.97433300 6.31219800 0.38649200
-1.41981500 6.74420300 1.38851200
-1.67852500 6.31219900 1.10063800
-0.78276100 6.74420300 1.81417900
-1.13194100 6.31219800 1.64722100
-0.03130400 6.74420300 1.96365300
-0.41779700 6.31219800 1.94303000
0.72015400 6.74420300 1.81417800
0.35518900 6.31219800 1.94303000
1.35720800 6.74420300 1.38851200
1.06933400 6.31219800 1.64722100
1.78287400 6.74420300 0.75145800
1.61591700 6.31219800 1.10063800
1.98406400 7.02372100 0.40088200
1.91172500 6.31219800 0.38649300
1.90650000 5.40905200 -0.80266400
1.98798100 4.27033500 -0.40166100
2.06616000 5.40905200 0.00000000
1.45182700 5.40905200 -1.48313100
1.68056400 4.27033500 -1.14383300
0.77136100 5.40905200 -1.93780400
1.11253000 4.27033500 -1.71186800
-0.03130400 5.40905200 -2.09746400
0.37035700 4.27033500 -2.01928600
-0.83396800 5.40905200 -1.93780400
-0.43296400 4.27033500 -2.01928600
-1.51443400 5.40905200 -1.48313100
-1.17513700 4.27033500 -1.71186800
-1.96910800 5.40905200 -0.80266500
-1.74317100 4.27033500 -1.14383400
-2.12876800 5.40905200 -0.00000000
-2.05058900 4.27033500 -0.40166100
-1.96910800 5.40905200 0.80266400
-2.05058900 4.27033500 0.40166000
-1.51443500 5.40905200 1.48313100
-1.74317200 4.27033500 1.14383300
-0.83396900 5.40905200 1.93780500
-1.17513700 4.27033500 1.71186800
-0.03130400 5.40905200 2.09746500
-0.43296500 4.27033400 2.01928600
0.77136100 5.40905200 1.93780400
0.37035700 4.27033400 2.01928600
1.45182700 5.40905200 1.48313100
1.11253000 4.27033500 1.71186800
1.90650000 5.40905200 0.80266500
1.68056400 4.27033500 1.14383300
1.46017900 3.13161800 0.61779200
1.98798100 4.27033500 0.40166100
1.58306500 3.13161800 0.00000000
0.48796100 2.13781700 -0.21508700
0.99609000 2.30656300 -0.20436100
0.36612500 2.13781700 -0.39742900
0.83967900 2.30656300 -0.58197200
0.18378300 2.13781700 -0.51926500
0.55066800 2.30656300 -0.87098200
-0.03130400 2.13781700 -0.56204900
0.17305800 2.30656300 -1.02739400
-0.24639000 2.13781700 -0.51926500
-0.23566500 2.30656300 -1.02739400
-0.42873200 2.13781700 -0.39742900
-0.61327500 2.30656300 -0.87098300
-0.55056900 2.13781700 -0.21508700
-0.90228600 2.30656300 -0.58197200
-0.59335200 2.13781700 -0.00000000
-1.05869700 2.30656300 -0.20436200
-0.55056900 2.13781700 0.21508600
-1.05869700 2.30656300 0.20436100
-0.42873200 2.13781700 0.39742800
-0.90228600 2.30656300 0.58197100
-0.24639000 2.13781700 0.51926500
-0.61327500 2.30656300 0.87098200
-0.03130400 2.13781700 0.56204800
-0.23566500 2.30656300 1.02739300
0.18378300 2.13781700 0.51926500
0.17305800 2.30656300 1.02739300
0.36612500 2.13781700 0.39742800
0.55066800 2.30656300 0.87098200
0.83967900 2.30656300 0.58197100
1.46017900 3.13161800 -0.61779200
1.11022800 3.13161800 -1.14153200
0.58648900 3.13161800 -1.49148300
-0.03130400 3.13161800 -1.61437000
-0.64909600 3.13161800 -1.49148300
-1.17283500 3.13161800 -1.14153200
-1.52278700 3.13161800 -0.61779300
-1.64567300 3.13161800 -0.00000000
-1.52278700 3.13161800 0.61779200
-1.17283600 3.13161800 1.14153100
-0.64909600 3.13161700 1.49148300
-0.03130400 3.13161700 1.61437000
0.58648900 3.13161700 1.49148300
1.11022800 3.13161800 1.14153100
-0.71367800 2.19628000 2.14293100
-0.61495000 2.15642700 2.47414000
-0.73663800 1.96184700 1.82819000
-0.69874500 1.89643000 2.15450500
-0.41990900 1.56621200 1.21602100
-0.23776600 1.35064400 1.28673700
-0.17419300 1.75808600 0.93159300
-0.00055500 1.56301000 1.08503100
-0.46744700 1.08291100 1.50567700
-0.26491600 0.77961300 1.49103500
-0.05024600 1.08444000 1.33371400
-0.44956300 0.43905800 1.71681900
-0.26685700 0.17594500 1.79419300
-0.07986200 0.44692400 1.58749700
-0.62043700 2.51136700 2.38997700
-0.38623800 2.74670500 2.35979300
-0.38509800 2.37161700 2.50179600
-0.13044700 2.55370800 2.42454200
-0.38370100 1.98322000 2.51764600
-0.14319500 2.19283200 2.52543400
-0.60070500 1.73303500 2.39681900
-0.35898300 1.51628600 2.37425400
-0.13246500 1.74913700 2.44950200
-0.57886800 1.34719600 2.27178400
-0.34989400 1.18631000 2.31169900
-0.11288400 1.34238200 2.32227100
-0.58420200 1.01278700 2.30538300
-0.36382400 0.79358100 2.40943600
-0.11835600 1.00557200 2.35894400
-0.57524400 0.53508700 2.40450500
-0.36273100 0.29691200 2.37902400
-0.14825800 0.52497100 2.40284600
0.24089700 0.51522100 2.24401500
0.38707600 0.78998000 2.03668500
0.22125100 0.21687600 2.10298600
0.34400500 0.49239600 1.91863100
0.33029000 1.01664600 2.16457500
0.43969600 1.23617300 1.89500500
0.46267800 1.04974000 1.76517100
0.33731400 1.36346300 2.11307900
0.44146800 1.54948700 1.91263700
0.49274000 1.43640100 1.64941700
0.33236500 1.73343900 2.22383100
0.46544200 1.88452500 2.00806800
0.52323400 1.70777200 1.70378100
0.35059100 2.11782900 2.29746800
0.48487400 2.09994900 1.95815900
0.55519300 1.92716600 1.74721500
0.40789600 2.32364300 2.14858200
0.45642200 2.03666300 1.52473500
0.51735200 1.90868500 1.50676900
-0.49463400 0.12447500 2.00439700
-0.11406000 0.08909900 1.91435800
-0.34414100 0.10854400 2.12159500
-0.58353100 0.77856300 1.78300900
-0.61769300 0.47067100 2.07044200
-0.57653000 1.26073600 1.69033700
-0.64805700 1.03712900 1.91825000
-0.58602800 1.43716800 1.65494900
-0.64946800 1.34517300 1.90663100
-0.60218800 1.77470000 1.46170200
-0.68437600 1.64222700 1.85152400
-0.73412500 2.48772900 2.09697900
-0.75610300 2.17142400 1.83545100
-0.62887500 1.92855100 1.46290000
0.20223100 0.17758000 1.87218800
0.20766000 0.46779100 1.67600400
0.36897100 0.78680800 1.69639700
0.29857500 1.07256600 1.45324500
0.42917200 1.29596100 1.50401800
0.37063100 1.51948400 1.19874100
0.48804700 1.61163600 1.38944400
0.52088100 1.76969400 1.43107700
0.06220600 0.13021500 2.02112800
0.02958400 0.28364400 2.28203200
-0.14967400 0.15531400 2.22252300
-0.56591800 0.21183700 2.30470500
-0.64507300 0.78665700 2.17928600
-0.63101300 1.20922800 2.08303700
-0.65184400 1.48571100 2.11667700
-0.60899400 2.01347000 1.41481800
0.23787900 1.72784800 0.96034700
0.15480400 1.33770500 1.25966000
0.11028800 0.78211000 1.47468700
0.04521300 0.20149800 1.75868200
0.11909500 2.32885900 2.40274500
0.17099900 2.58442800 2.20823200
0.10276000 1.97170400 2.42372600
0.11098800 1.52299400 2.29007700
0.12129900 1.19028200 2.23438900
0.09102700 0.79115600 2.33709900
-1.53152700 2.16875900 -1.58206300
-1.85484900 2.12890700 -1.66362800
-1.23847900 1.93432700 -1.43527400
-1.53770700 1.86891000 -1.57084500
-0.87684800 1.53869200 -0.84851100
-1.03126900 1.32312300 -0.72879800
-0.75958300 1.73056600 -0.49140500
-0.98053100 1.53548900 -0.42158500
-1.10065700 1.05539100 -1.03843200
-1.19240900 0.75209300 -0.85728400
-1.16811000 1.05691900 -0.59225000
-1.29085600 0.41153700 -1.13184100
-1.45127300 0.14842500 -1.01507500
-1.37039800 0.41940300 -0.74833600
-1.86813000 2.48384700 -1.65879300
-2.05752100 2.71918500 -1.47875400
-2.01979300 2.34409700 -1.48960200
-2.14187300 2.52618700 -1.25342600
-2.01123600 1.95570000 -1.48780900
-2.14177200 2.16531200 -1.28566000
-1.79590800 1.70551500 -1.61159800
-1.90105200 1.48876600 -1.39277400
-2.08221000 1.72161700 -1.23735800
-1.69997400 1.31967500 -1.52848600
-1.85211100 1.15879000 -1.35276800
-1.98323300 1.31486200 -1.15505000
-1.72602900 0.98526700 -1.55036200
-1.92871600 0.76606100 -1.41504300
-2.01185100 0.97805200 -1.17862600
-1.81560800 0.50756700 -1.59373100
-1.90321000 0.26939200 -1.39844400
-2.03408300 0.49745100 -1.22686800
-2.09834900 0.48770000 -0.81149000
-1.99591100 0.76245900 -0.57941200
-1.96734300 0.18935600 -0.75570100
-1.87253400 0.46487600 -0.55553400
-2.07629200 0.98912500 -0.69395200
-1.90156300 1.20865300 -0.46134200
-1.80210600 1.02221900 -0.37477700
-2.03576700 1.33594200 -0.66141100
-1.91758900 1.52196600 -0.46890300
-1.71836500 1.40888100 -0.28939500
-2.12815400 1.70591900 -0.72268900
-2.01173800 1.85700500 -0.49749900
-1.78066900 1.68025200 -0.29125300
-2.20066100 2.09030900 -0.74498900
-1.97896400 2.07242900 -0.45513900
-1.83435900 1.89964500 -0.28622700
-2.10575000 2.29612200 -0.62041800
-1.59278500 2.00914200 -0.25631500
-1.60876300 1.88116500 -0.19483400
-1.51415300 0.09695500 -1.31857700
-1.63296800 0.06157900 -0.94598300
-1.69211900 0.08102400 -1.24993400
-1.27860000 0.75104300 -1.28076400
-1.50739100 0.44315100 -1.45807600
-1.20276800 1.23321600 -1.22703700
-1.36129700 1.00960900 -1.40572400
-1.16754200 1.40964800 -1.21695400
-1.35061000 1.31765300 -1.40095000
-0.99357000 1.74718000 -1.13128400
-1.28539500 1.61470700 -1.40249300
-1.56162700 2.46020900 -1.60657800
-1.24610900 2.14390400 -1.46007800
-0.98085300 1.90103100 -1.15477700
-1.75971000 0.15006000 -0.65314400
-1.59433900 0.44027100 -0.54745500
-1.69489500 0.75928700 -0.41968400
-1.45021300 1.04504600 -0.35480300
-1.56099300 1.26844100 -0.26900500
-1.26916300 1.49196400 -0.16196800
-1.49310100 1.58411500 -0.15953200
-1.54569800 1.74217300 -0.15282800
-1.81526700 0.10269400 -0.84987700
-2.02211200 0.25612300 -1.01220500
-1.87878400 0.12779400 -1.13521600
-1.73486400 0.18431600 -1.53434000
-1.58659000 0.75913700 -1.53760000
-1.51132800 1.18170800 -1.47598000
-1.52943600 1.45819100 -1.51116000
-0.94987600 1.98595000 -1.11297200
-0.99644700 1.70032700 -0.15298900
-1.21023200 1.31018500 -0.37834600
-1.37162600 0.75458900 -0.52724400
-1.58155000 0.17397700 -0.72928200
-2.18311500 2.30133900 -1.00202200
-2.12313000 2.55690700 -0.88800900
-2.18125600 1.94418300 -1.02245100
-2.07093100 1.49547400 -0.94656900
-2.02850600 1.16276200 -0.90905200
-2.10095800 0.76363600 -0.98789500
-2.60822700 6.76998000 -0.02280700
-2.51323100 6.75133300 0.51303700
-2.51323100 6.75133300 -0.55865000
-2.42319300 6.68674500 -0.02280700
-3.24476400 4.53880600 -0.02280700
-3.20046800 4.46677300 0.51303700
-3.18484700 4.48108100 -0.55865100
-3.10823500 4.41125900 -0.02280700
-3.06751600 4.87174500 -0.02280700
-3.17373700 4.68730300 0.51303700
-3.15811600 4.70161100 -0.55865100
-2.95793300 5.14180900 -0.02280700
-2.98244900 5.01827500 0.51303700
-2.97616100 5.03126900 -0.55865100
-2.26031800 5.41726300 -0.02280700
-2.34090600 5.52841500 0.51303700
-2.34090600 5.52841500 -0.55865100
-2.42858400 5.63642800 -0.02280700
-2.63271900 5.71553200 0.51303700
-2.63271900 5.71553200 -0.55865100
-2.85793200 5.84002500 -0.02280700
-3.02140700 5.29390800 -0.02280700
-2.96507100 5.24184300 0.51303700
-2.96507100 5.24184300 -0.55865100
-3.24176900 5.42804100 -0.02280700
-3.11712900 5.36349000 0.51303700
-3.11712900 5.36349000 -0.55865100
-3.44357000 5.69032100 -0.02280700
-3.33867000 5.55980400 0.51303700
-3.33867000 5.55980400 -0.55865100
-3.03349200 5.97413500 0.51303700
-3.03349200 5.97413500 -0.55865100
-3.12979200 6.20230500 -0.02280700
-3.57231400 6.08493900 -0.02280700
-3.51346300 5.87772600 0.51303700
-3.51346300 5.87772600 -0.55865100
-3.63878200 6.87536900 -0.02280700
-3.59588300 6.40566300 0.51303700
-3.59588300 6.40566300 -0.55865000
-3.20248800 6.53302900 0.51303700
-3.20248800 6.53302900 -0.55865000
-3.20284700 6.76518900 -0.02280700
-2.89505800 6.79632600 -0.02280700
-2.75346300 6.79063900 0.51303700
-2.75346300 6.79063900 -0.55865000
-3.15254700 6.89333400 -0.02280700
-3.02968300 6.85523800 0.51303700
-3.02968300 6.85523800 -0.55865000
-3.73998100 8.00113700 -0.02280600
-3.67027900 7.41292400 0.51303700
-3.67027900 7.41292400 -0.55865000
-3.21199800 6.90864800 0.51303700
-3.21199800 6.90864800 -0.55865000
-2.85912900 7.93706400 -0.02280600
-3.06837800 8.04744900 0.51303800
-3.06837800 8.04744900 -0.55865000
-3.23099100 8.24545100 -0.02280600
-3.82501300 8.71851300 -0.02280600
-3.76587400 8.41147900 0.51303800
-3.76587400 8.41147900 -0.55865000
-3.35599900 8.54290600 0.51303800
-3.35599900 8.54290600 -0.55865000
-3.42081500 8.88797700 -0.02280600
-3.94297900 9.21792300 -0.02280600
-3.87096600 9.00007600 0.51303800
-3.87096600 9.00007600 -0.55865000
-3.51678000 9.17828100 0.51303800
-3.51678000 9.17828100 -0.55865000
-3.58009900 9.41493200 -0.02280600
-3.96992600 9.49337600 -0.02280600
-3.97290800 9.38512300 0.51303800
-3.97290800 9.38512300 -0.55865000
-3.72381400 9.60655200 -0.02280600
-3.85484600 9.57001300 0.51303800
-3.85484600 9.57001300 -0.55865000
-3.65436400 9.54773600 0.51303800
-3.65436400 9.54773600 -0.55865000
-2.68427700 4.91426100 0.55336900
-3.03767500 4.71615400 0.55336900
-2.66271900 5.26336800 0.55336900
-2.68427700 4.91426100 -0.59898300
-2.74745100 5.06516200 -0.59898300
