12.40755800 136.99212600 1.94945000
48.00712600 68.03746800 24.33597000
44.75164800 59.67503000 19.20679900
31.21687100 -30.45089500 37.10990100
38.61709200 104.63896200 -12.96084700
6.15782500 98.48413100 -9.36796200
-13.11902000 -41.35160100 -54.80644200
42.52731700 51.02912100 -8.45359700
32.24412200 46.84545500 -21.84632700
-17.82881200 -39.41257500 -14.49582200
-38.14030100 58.12284100 -9.64272100
6.36908100 107.22372400 -16.38762100
-16.43509900 55.07811400 -45.74471300
-12.28895000 -48.79081000 -51.30760200
24.75871300 -43.90387000 10.65358600
64.27599300 -19.82025500 -9.98173000
39.25649300 -68.79379300 12.65599200
36.54064900 82.81506300 -20.00835200
-26.16743900 81.33297700 -1.52150400
44.48135400 26.96808600 38.07073600
59.32235000 -34.31232500 7.58500600
-7.96855400 127.94445800 12.60635900
-25.25233300 74.40296200 0.73465900
-48.08946200 87.73915900 15.88650400
2.43714400 -14.16684000 -63.34379600
4.37077500 48.97016500 -38.04056900
-19.07494000 82.63222500 -17.75222400
56.47814600 31.34861400 6.80591300
16.67684600 87.58222200 22.86944000
27.65892600 75.51449600 -22.65067700
-33.16300600 27.58247200 -38.18946500
-2.62176900 121.95711500 -12.03729200
50.28538900 -68.74280500 30.91630600
-46.36495600 14.05985800 33.38145400
59.44688400 -35.60836000 7.14941800
-9.27736900 88.45287300 -12.83516300
-20.06436000 59.31012700 35.29462400
51.74912600 -29.96215600 29.42529900
37.48631700 54.22410600 15.33591300
39.56164900 73.30346700 10.91388200
7.45370500 74.01503000 -5.58376300
5.68238000 -41.25032800 -29.40623500
12.24801000 -96.42078400 -58.84471900
-49.51712400 31.53996700 3.10094000
-42.81917600 -74.07747700 26.87891400
54.86652400 -83.57727800 20.85143500
14.54975200 -37.33293500 -62.53078800
41.15623900 37.87897100 -11.19633500
-27.40932500 -72.40957600 28.20976300
-18.16528300 -35.41731300 31.58025400
-57.00614900 99.88546000 6.04288600
-0.53282100 -44.63576100 19.78316500
58.91877700 91.74261500 7.71609200
26.68481100 78.74935900 -32.71733100
18.49737700 60.60390900 46.59215900
-32.58467100 -49.89755600 9.32008500
-20.37694500 64.94480900 21.90724600
41.53852100 70.71370700 -12.61853700
19.30571900 -21.65279800 -57.10424000
-11.47981100 55.58363300 -36.28442400
35.10299700 60.05984900 -34.21568700
46.93317400 112.42147800 -22.63686000
24.94789300 83.26693000 -14.36967700
-12.39740300 28.65044600 47.93410900
69.70594000 17.37814300 -13.47468700
62.10460300 44.65995000 -16.62235600
26.65947200 80.24021100 29.17787000
-7.92750900 -38.90064200 -26.41878100
-55.84877400 93.49456000 6.19313200
-12.61727400 -25.68026000 -50.73925400
19.71656800 60.82070200 33.86606600
-43.97336600 74.62916600 6.87799100
29.86082500 59.62599200 -39.66345600
32.70795100 32.00925800 24.74032600
10.03730600 -91.76564000 -63.88258700
40.16156800 -54.39892600 26.36285000
-20.71780400 -38.42293900 -1.98832800
9.71443400 86.15974400 -19.27272800
2.94139800 -80.32387500 -62.67977900
-1.80242100 68.74776500 -51.01457600
0.23208300 -82.27956400 -64.35174600
71.77696200 13.46503500 4.60344100
-33.77381900 -9.96939500 -50.87567500
18.63803900 71.65438800 37.45008900
-40.25866300 67.38999200 -19.71203200
-18.18504300 -36.00754900 20.88462400
6.36458300 73.03928400 -45.03906600
60.96054500 -39.25976600 13.75952700
11.75739300 -84.24772600 -49.05184900
68.07202100 94.72839400 -10.63973500
9.24476300 -44.19327900 -64.91050700
32.47908400 -41.96446600 -7.88455200
-25.60096500 -93.81299600 27.61246500
14.07715900 40.10899700 40.25835400
64.47608900 -3.83110000 -33.43970100
60.17283600 -54.12559100 30.83878500
-16.49585200 99.24687200 -1.88376700
70.60251600 -9.61959600 1.32123500
1.13970800 102.34703800 -0.50296800
54.79487200 -97.08998100 10.07360600
30.85076700 -7.46923400 56.77156800
9.08380700 -40.11431900 9.58199600
-52.39404700 95.68583700 -10.44852700
12.71668700 86.39731600 1.57351900
-43.52994500 -48.72301500 35.31558200
-14.21573700 83.24709300 -21.91680700
-17.71465100 37.22876000 11.69141000
-6.43311400 85.59828900 -7.46916300
43.62500400 68.75873600 -28.80510500
-19.08312600 92.57763700 -5.34227300
47.27253700 54.68768300 15.75996100
-46.21656400 88.02292600 8.33828200
-46.84285000 53.42543400 -7.31531000
-55.68662600 95.04163400 14.24601400
21.37275300 105.50626400 1.92714400
34.66283800 75.93125900 6.81008400
5.69300600 39.37908200 40.92249700
48.40888600 88.02115600 -16.33275000
46.21804800 -98.24527700 6.70722800
-53.89611800 -0.42578300 -28.25565700
61.26890900 3.08528000 -40.14051400
5.47789000 105.90269500 10.44637900
31.62243300 102.30006400 -23.90060000
-14.16590500 94.59962500 11.74521400
-20.13413000 -46.21597700 28.45162800
-21.67321600 67.64976500 39.16954400
57.19294400 29.20649100 15.49707600
25.23710400 60.37738400 -37.84787000
-3.99739000 -68.93476100 -62.95897300
-41.00292200 -60.67140600 11.52778900
-44.87048700 -33.62115500 25.57720800
53.45980500 64.19609800 15.45933100
-8.53801400 100.60750600 7.56187500
18.43356100 144.18324300 6.07008000
-9.66639200 97.84893800 13.83234000
56.37810500 -26.82383700 16.02275800
-27.81536100 16.73150300 50.56781400
-34.86821700 5.82647700 48.77802700
12.31385800 43.19202000 39.79146600
33.74957700 -31.59301900 -38.20339600
17.87531700 140.00212100 13.64688400
-15.86936500 28.66456800 46.52008800
-30.24509600 41.07831200 -5.23377100
38.97395300 50.29048900 12.77434000
42.32836500 40.40572000 -14.00204900
27.63118200 29.03592300 31.89555400
39.46022400 -78.71864300 25.50941300
59.37625900 31.45595200 3.56487200
18.01633800 140.86929300 9.96761700
-44.48700000 76.44603700 2.88716800
46.61719100 94.86266300 -21.79666900
-6.86082000 -2.93379200 61.48586300
2.65673300 -28.30450800 -62.47111100
-3.90244600 -40.02746200 -8.79618000
16.18018300 126.37303900 -7.50003600
59.82544300 79.48777800 7.44880100
29.88093200 38.78498800 -39.55061700
-27.10590600 67.42751300 -18.06321300
-36.38101600 -85.69068900 31.54870000
60.46082300 93.76422100 -7.05340100
-43.73657600 24.96154800 22.55034600
-8.25007400 52.29937000 38.76318400
-28.66795500 44.50431400 -9.55338700
61.77084400 100.73135400 -14.72176900
12.06520600 98.94719700 2.67378300
-49.12443200 -90.88887000 18.41009100
-14.43597000 -39.59267000 14.02095400
16.64747400 106.83335100 -22.57902700
-7.95331900 -99.00716400 -57.24704400
68.14448500 44.96209300 -15.78080200
-1.13971400 -88.17033400 -42.20999900
35.40200800 -97.54598200 16.29877500
-40.91659500 -79.40128300 18.57412000
-29.98764600 69.08726500 -5.47869200
9.02530700 71.06992300 34.23885000
-36.28449600 45.97966400 6.65577700
52.70240800 40.25400900 3.29477500
40.99571200 -94.39314300 7.00163000
32.43594400 16.28880300 -60.71297500
-2.45606600 -45.75986100 -69.86821000
-43.39219300 55.73981100 -5.62464300
-17.80574400 89.18479900 -17.01966300
41.67933300 91.68236500 -9.84885800
32.24020800 82.26512100 4.58048900
3.77247300 102.64642300 18.03765300
-30.14798000 -47.97960300 36.22353400
6.31660900 38.60649500 -13.49423900
29.80202500 75.96869700 -12.14143800
-4.54407200 -91.98910500 -45.50283800
19.19309600 46.05736500 31.96825200
60.26457600 90.76003300 -10.52221500
-9.77110700 93.41445200 -14.33455100
12.61991200 54.01689100 -38.63477700
-28.39509200 63.54245000 -28.34317600
16.54807100 61.10853600 42.51052100
3.09499800 98.38359100 11.37085600
-44.67565900 97.37199400 10.44801300
-35.01282500 58.59220500 16.70008900
67.10961900 33.19767000 3.50244100
-33.25278900 75.91872400 4.48416100
16.12476700 129.36500500 -3.86487600
15.71503500 135.50915500 18.16320400
48.47786300 -101.56563600 25.55216400
-35.18013400 66.15767700 18.32681700
-7.77535600 -37.14344000 -61.29309800
16.94866600 59.70922900 39.93317000
37.11907200 81.88256100 -0.89108000
55.75061400 31.74674600 -17.81153900
1.30489600 -39.78359200 -36.20436500
11.14704300 -39.01659800 -15.71628300
36.12486600 64.46505000 -24.83494600
32.89546600 104.56852000 0.58513100
-40.54575700 40.25181200 8.19240100
-14.03666000 66.40963000 -34.16854100
15.19655600 58.20100000 -44.01807400
59.95602800 -51.56806900 31.75893200
28.21542900 -33.41713300 33.59909100
-12.53730300 -51.13552500 -60.33349600
-42.58564000 -89.63465100 9.73664700
35.29696700 -36.80256300 10.97037900
17.40123000 -28.61223000 -3.32450200
-6.99419800 75.00407400 11.75475600
-15.50932500 87.56517800 -22.40825500
41.41806000 56.25240300 -35.81034100
-31.53763400 -88.20195000 33.29723400
22.84920500 133.97482300 10.84880500
8.01427800 94.15918700 21.54179200
19.32774900 -24.24182900 -54.53542700
19.46439900 124.23516100 -12.84325600
18.02713800 92.17739900 5.36076500
55.94577800 42.89193700 -12.27984200
70.62108600 93.78015100 4.80157500
42.98797200 82.94478600 -19.40675000
-30.19017800 36.58788700 -25.90673800
44.21957400 54.00300200 -26.07674800
19.89324800 -36.15490000 -47.98397800
54.10625800 -83.50618000 22.79410900
-31.72207100 76.13208800 -15.74409300
-7.02474000 90.47602100 19.69037100
56.09704200 58.98145300 5.55520200
-50.97243500 87.42490400 8.33600600
58.51535000 94.64321100 3.02352800
51.64058300 62.80894900 -9.28010300
6.55792200 64.04429600 -40.66856800
-22.41708400 -31.79875200 33.69271900
15.49440200 93.95150800 25.32598700
-11.68169100 60.04823300 30.42195900
15.40018500 83.94809000 21.38661800
-9.97711600 -33.01860000 -60.75000400
16.21981400 75.71723200 -0.11900600
40.56158100 -101.20005800 25.16488600
-58.20861400 91.03256200 -6.01993700
-12.92595400 101.07271600 15.33110000
-44.67216900 31.31765600 11.43496100
51.07860900 -24.88271700 -32.52575700
48.35514100 106.22113800 -10.85033400
69.79233600 87.04592900 -5.01263800
7.53813000 -26.23682200 1.12291400
14.88553900 79.62693000 -10.76479100
6.10407900 83.59417700 -24.50707800
3.21187300 130.45155300 15.34521100
-33.50615300 47.76080700 -18.59992400
42.74803900 65.58676900 -1.39636200
25.51121700 77.03960400 32.51487000
-24.25895700 -90.78864300 22.51231400
-5.35842700 19.44269200 -63.33609400
-3.04983800 93.76007100 -11.44924400
-41.31192000 41.26243600 -2.34182000
15.26480200 137.29968300 1.46417400
28.68977000 59.01419100 35.35329100
-11.37881500 122.20796200 -1.18172400
-2.24994800 72.05772400 37.91883900
40.93878600 107.77554300 -13.26178700
50.26581600 -69.20509300 8.76456600
-28.14606100 -99.36981200 24.20736300
41.25418900 110.33120700 -25.51753400
7.17598200 96.39974200 26.74158700
-25.66129900 -87.57440200 14.66182600
41.79340700 -49.00936500 33.21987900
-2.55367700 -31.13345100 -0.93147300
54.71484800 59.84549700 -16.57091300
50.34618400 -100.48895300 25.89590300
-55.02681000 -7.66114000 13.06798000
47.30061300 89.61962100 -22.51571100
69.61077900 66.84211700 -1.10203400
2.72620400 97.67606400 16.47889500
51.00048100 70.62522100 11.94449900
-46.34547400 94.54288500 -1.92338200
-20.78808800 68.25442500 -43.07316600
32.13187800 67.70748900 39.70008500
27.04492400 91.04500600 2.92656900
62.56829800 -53.82908600 12.15638600
-26.27721200 34.85436600 -32.06711200
36.67863100 95.50228900 -22.25798000
-49.94414100 97.30783800 14.79754400
14.16167100 114.51569400 -19.41371900
-5.87946700 -99.67270700 -60.45906800
69.24797100 43.93013000 -2.65742600
69.12822000 73.50373100 -15.91391500
48.70491800 37.49224500 -15.97009200
7.39087200 74.67279100 5.86256800
-1.63514800 149.02153000 0.83415800
33.51101700 -41.12228800 -6.08383900
-8.55761700 139.01036100 8.77298300
23.03825200 76.21691100 1.10684400
-10.78916700 100.73600000 9.12244200
-3.03437400 87.29341100 -0.93463900
14.93020200 27.90145700 25.69689200
-13.33893500 -44.48114000 9.67513000
-49.84948300 11.95452200 -34.47985800
8.42809400 82.54448700 25.14071500
43.18065300 -24.34717000 36.36168300
40.05809800 42.85037200 -19.17329400
19.04293800 67.99729200 -51.28243600
41.68454400 86.91049200 -9.14942500
-57.13319000 79.33786800 3.68718300
2.47574800 100.57360100 -13.40345600
-31.28643800 -35.11698200 3.41890600
-0.78964300 54.19023100 43.22526200
-10.26073600 94.52287300 14.33041300
30.25344300 115.25972700 -8.60311100
48.78805200 60.74466300 -14.80279500
40.87236800 36.76744800 2.67771900
13.97757500 86.04503600 -20.28439700
34.13107300 103.61821000 -25.02937100
-46.29267500 -66.02300300 22.89464000
15.72055400 56.53500400 -51.37450800
22.62007100 84.23889900 -1.53509400
15.13228700 87.12437400 27.42943800
-0.99005200 72.29287000 -38.14098700
-52.85702500 19.71425400 -13.86810100
-53.12836100 34.68059500 13.66552200
0.46293600 87.16305500 14.60692400
10.72378900 6.67976900 -68.34067500
19.96874400 89.60775000 6.35121700
18.48083700 53.03124200 40.17744400
8.33073900 67.85388200 -53.13409400
4.44987200 -98.01296200 -64.97300000
3.26864500 90.53578900 -5.93969600
61.31140500 -37.56342300 14.02677200
70.65045900 100.21817000 -4.56954800
-26.62208600 38.14202100 -18.33653600
-18.19427700 67.26639600 37.57847600
-40.30037700 67.46269200 -13.06437300
35.92043300 -14.25937300 50.85279800
45.46210900 98.70966300 -12.94140700
-28.96645400 60.92704400 7.79272500
-21.14057000 -36.89932600 11.96091100
46.85569400 -87.89440900 4.19830300
-15.59432500 97.97567000 -8.70831400
58.28446200 71.53942100 4.30136400
10.49375000 149.93113700 10.49618100
45.60037600 40.81210700 16.33735300
-11.63732400 -91.87133800 -50.13468600
20.99376500 51.16947600 -43.33034100
58.08393100 -22.36019100 -24.51708200
21.44260000 84.75147200 -12.53887100
38.72532300 68.11164900 15.40566600
45.61230900 -93.61520400 31.20510900
-52.86342200 -15.50896800 -7.51398100
43.40226400 42.68025600 -7.85271300
61.84286900 60.18509300 5.83891800
-5.49777600 83.71907000 -26.11921900
14.23784200 -35.04003100 -63.26898200
17.06114400 84.13870200 26.72275000
-58.65465900 7.54887600 -5.57879400
-8.47286500 93.90985900 -14.39813100
-35.06507900 60.04335400 -22.65202100
-3.81795400 98.17489600 16.23283400
5.40360500 67.53854400 44.01875700
2.47130100 -68.46965000 -65.39479800
53.09683200 67.22164900 -20.85734400
43.64235300 58.16767100 -11.96248800
-44.22619200 57.72693600 -8.45308800
20.31016200 84.68711900 8.07874300
3.85625900 31.74423600 47.54837400
37.42208500 -35.93047700 -22.39955500
9.71396100 75.15226700 37.86782800
13.02427900 -86.98998300 -59.49964900
-31.38869700 -87.10231000 32.51940900
44.87608300 59.00176600 -34.80724000
38.60463300 53.95793200 27.74100900
73.37822700 2.65647600 1.56293300
16.66755300 89.33307600 -20.72290800
-47.12279500 88.96023600 9.39959100
-43.63147000 -82.11859100 18.07531200
-50.84299100 19.49111600 17.92014100
17.79872700 137.87530500 14.71360500
36.30122000 -72.85880300 14.94182900
8.40879300 -79.20099600 -56.04465100
-28.69232600 59.07252100 -38.76401900
-23.66333800 58.84211700 27.93429800
-9.22878400 -36.60342800 29.59845200
-34.01026200 58.45336200 7.26163900
46.74602100 51.75130800 12.15950200
23.26545000 51.77832000 -34.31702400
50.04687100 -41.57476400 2.84377700
11.00050900 30.47018600 36.91947900
-3.33931700 55.56248900 45.10098300
-9.52598200 -15.76568400 55.67554100
-13.63143300 65.67945900 -44.64775500
68.55006400 6.08405200 22.16048000
-0.66340200 76.94834100 -42.22726100
4.14137000 -31.60546700 -8.04719400
-8.67727300 70.77405500 30.31285700
-24.01084900 73.66471900 10.31662300
43.55569100 78.04418200 -3.11501900
57.22577300 -88.60920700 13.32812200
-56.26534300 85.54809600 11.39566400
68.13124100 92.79538700 -11.17876900
5.60733300 -37.27984200 -14.58817100
17.13428100 -41.33595700 5.91149600
-35.45862200 38.27944600 -12.80311300
-54.98314700 57.48176200 11.58808200
12.26492600 -71.18800400 -49.73620600
-11.62329200 60.66565300 -38.37180700
31.51209300 81.61124400 13.69680100
34.76044100 110.88036300 -16.48963400
-32.79357100 8.16452600 49.88617300
-50.74940100 23.02533700 5.32448900
30.76222600 -37.68641700 19.03390500
-43.13219100 -96.39926900 10.74713300
23.58417100 115.62403100 -2.23284100
12.22129400 142.66294900 7.80629300
3.59051400 138.27423100 14.14124200
-40.15620800 -79.44657900 23.17247600
-46.30412700 87.94891400 -4.86200600
0.69261300 -18.97102400 55.69228700
-25.43364900 -37.37655300 36.09572600
39.59008000 113.96051000 -26.52720800
59.38882800 9.35445500 37.31163800
69.55654100 -10.56026200 -12.82583700
23.81418800 22.59643200 54.82616400
18.18981700 72.09172800 32.33574700
39.51078800 71.12137600 -28.22246600
23.69615600 64.59990700 -36.17971000
-19.45849800 37.92588000 24.06895400
69.50816300 83.30236800 7.75034000
16.20940800 138.40060400 0.21422500
-10.10920000 38.12337900 -35.20349900
17.78729200 17.79557800 59.50561500
-47.71181100 -97.79954500 16.71350700
34.25749600 64.59388000 -27.34250500
-35.68274700 34.50090800 12.91117900
-16.97977800 84.00954400 11.66424200
-8.13617400 -41.83987400 -24.27366400
-44.06662400 51.54061500 -5.52534800
68.17126500 21.75906800 -6.95313200
-42.65880200 -41.05986400 31.06090400
30.37996700 77.04055800 29.23248700
69.73969300 5.17191900 19.20695100
19.23241800 34.68370100 33.33865000
-27.51251800 9.45596200 -58.50044600
-12.13929700 102.40116900 13.59982100
55.98768200 -69.29756200 27.68827400
-2.59602200 -40.74209600 4.75893500
36.91986500 65.55465700 31.32327100
39.02312500 110.52748100 -17.59055100
1.46122700 105.44023900 9.20080700
-23.50032600 71.80016300 -22.16178100
-1.34456500 -89.78140300 -67.86898000
58.02875900 -14.58945000 -36.00954400
35.02181600 60.00600400 25.97608600
-5.51094600 107.42778000 -1.63283200
17.01234400 61.16267000 -52.72169900
70.40305300 97.39464600 -11.10323500
11.50821900 134.29441800 -8.83303700
64.15682200 31.72345500 0.10057500
-25.07342900 -63.74677300 16.72394200
13.23953500 76.05983700 -19.12458600
-25.40626700 -33.56124100 -27.27413700
-14.39252900 83.36552400 -16.11815300
37.20101500 -98.62155900 12.89460500
-34.26076100 -33.44829900 -5.64769200
-28.38539100 55.78360400 31.93645500
-13.01368000 -33.54011900 -57.98024400
36.48967700 74.81873300 -13.30162400
-6.11663100 97.44059000 15.31522800
-37.34162500 19.60919400 -45.46263100
4.43375500 89.78305800 7.38768400
-18.69507000 94.99345400 7.53112300
48.79335800 60.11714900 -2.21619200
27.14914300 79.63156100 -3.92046200
-9.88527200 -84.84390300 -60.83299600
9.74964200 -100.51003300 -56.53685000
-5.70542600 126.32196000 9.88875000
-5.20739400 -0.85917800 -67.07032000
29.60461000 -27.10692400 -47.85428600
57.67282900 -64.43714100 11.41412600
-51.85810100 28.99287800 5.05417800
8.76999700 124.31009700 11.50718900
35.01107000 -93.38365200 21.73503300
-2.32621600 69.21392800 46.17118800
-5.41216700 84.72872200 -13.17766300
-28.58039500 78.55838800 9.39770500
55.47115300 66.98196400 -15.69148300
-12.54388600 -89.56849700 -57.66418500
-21.57338500 97.52381900 -6.35384900
7.76610700 139.28839100 10.71092000
42.81029900 76.25636300 -17.94577000
40.04253000 100.69166600 -10.34067300
46.64323800 110.27384200 -16.28705800
7.21273000 -85.67244000 -43.00496700
65.07775900 -48.37139100 25.14756200
34.66888800 106.92403400 -25.54915800
-39.14569900 51.39761400 4.30344500
-17.35928200 -38.21205500 29.62086500
44.73537800 -81.16974600 26.65779700
-22.57261100 0.47462500 56.57370800
16.77491400 129.30554200 21.07066700
12.45552700 91.17324800 27.14734600
5.28769800 73.13221700 0.73730600
56.48197900 -95.21517200 20.64755600
-30.34487200 51.25359000 -6.38779900
-9.95436400 44.53338200 -35.61246900
63.71928000 13.40368700 -34.60524400
58.88514300 -34.33060100 25.93427300
10.33177900 -36.53073900 -35.90901600
-12.25618800 99.22814200 -3.68125900
36.83107000 79.22782100 15.97060600
-4.92553500 -82.19654100 -44.72496800
-35.34115600 41.96155500 9.43297600
42.15470500 -46.14207100 34.10348900
45.30036900 -101.89495800 15.91329800
44.45225500 68.35247000 28.35973000
-23.94319200 44.77447900 20.14796800
-17.44482600 64.58250400 24.18716800
-28.51749000 35.92512900 8.68928700
54.29628800 -38.30858600 32.56713900
60.41490600 28.48428700 -13.16543100
12.19991000 142.50785800 -4.02773200
1.10368700 -44.34584800 -70.31294300
60.18543600 -48.90613200 8.73631700
10.62327500 -83.90280900 -60.34285400
43.86467700 69.93374600 -33.55766700
2.07980300 19.62132600 59.20660000
-42.27348300 -63.81033300 32.11467400
10.74130000 -72.76622800 -44.59185400
-21.96931600 -51.94300500 27.21506900
71.38166800 8.83770300 -17.72600700
-16.66173000 96.66381100 -13.91544900
13.73976100 124.99385800 7.27716200
41.04809200 -8.72630500 -56.48820500
-6.62915300 38.23886500 -22.71243900
-39.71560700 -29.75712800 -4.29976600
-54.98971900 31.85282900 -4.60469600
14.77331300 -29.12674300 -10.25659700
-35.71225000 -43.54201900 36.01424800
-46.91429900 -36.19063600 21.60725800
-10.36651000 130.23643500 -1.40897700
-44.87467600 -39.14959000 11.30589200
-31.78122700 -5.67267600 -54.62042200
8.80748500 75.38761100 -12.27853000
-19.74209200 67.34497800 22.64507100
-15.07769500 53.48120900 28.03749500
-24.68663400 75.97699000 22.59680900
10.34957700 95.78282200 -0.32791700
39.77967800 92.84068300 -18.48882500
-13.96483300 60.48716400 -41.87079200
47.54964800 105.91719800 -13.67537500
-8.88858600 -42.83699800 -61.68985700
27.18458000 -14.22414000 54.97787500
-19.51611300 -39.46444700 29.73791900
-19.86082100 -41.44804000 28.12556500
-22.18120600 84.35526300 -0.21700700
22.19970300 122.24594900 -15.37473100
6.47620800 75.01146700 -35.71698000
4.40075600 -39.64607200 -65.29811100
24.81539200 60.98352100 -36.49309200
-12.94811400 93.61496000 13.80479900
-37.95175600 42.17272200 -4.40844100
-57.73909400 72.62681600 -7.88740000
-46.88849600 -91.20933500 27.36771000
69.30030100 9.68795500 -25.08169900
0.27948200 -15.04949300 -62.60600300
-45.16624500 80.69359600 15.05029900
3.24651200 -35.61741600 35.71448900
-47.32091500 99.76979800 12.03863500
-53.80870400 60.89715200 -7.47311200
1.08810900 125.95968600 14.54861100
13.05595600 91.60275300 19.23396700
-20.40656500 34.34594700 34.89428700
-8.14066700 -70.99848900 -50.54784000
64.67964900 31.15625600 -13.85326100
51.08265700 9.95544300 45.97797400
-45.49283600 65.81386600 -8.41531800
-35.39595000 31.26658600 -27.26326800
-13.27662000 -34.76397300 -43.16992200
0.92777000 55.06209900 34.43761800
60.28962300 102.35578900 -3.97649700
-16.72763100 25.64937200 -53.50548600
69.99477400 75.24710100 -3.57400500
-29.77444500 40.10305000 -9.48149800
26.09466000 -36.27285800 27.51170000
-13.20346200 24.42665700 51.95093500
-32.02918200 -26.59289000 32.19290200
57.45623000 -52.09500500 32.97626100
26.00061600 -30.63999700 39.65153100
51.81732600 93.11499000 -13.90567700
3.66439300 -36.75351000 -33.88137400
-47.15449900 63.70655400 14.97882700
-44.27913300 55.49813500 13.78270900
23.42562300 68.91311600 42.31681400
14.83142200 79.20815300 -37.46561400
9.97030000 47.12886800 35.13423900
-9.35055100 -26.06746700 -53.92371000
2.74133600 -44.78059400 19.58464600
-21.55159600 80.67273700 11.38032300
-46.29242300 95.40553300 -6.57919100
41.09100700 49.12280300 22.33113500
-34.81985900 65.40161100 -31.70401800
44.80490100 101.30442800 -11.95474100
49.29916400 63.34474900 -18.44173000
-20.27944600 95.25312800 0.24219900
18.46047800 81.72821800 30.67199900
17.06475100 91.33354900 22.81890100
-19.04537000 -38.95726800 7.00090300
5.37483200 61.54821000 48.61039400
-0.79083900 86.13217200 -5.68147300
-12.75139900 91.54151200 -14.62861900
29.13795100 30.60302000 29.47135200
56.28067000 -99.37114700 18.14199400
16.09082800 -43.53389400 -59.82266200
38.14134600 60.48622900 -34.46206300
-8.76962600 58.90341600 37.19203600
-33.16241800 58.67954300 -24.59730300
23.74988400 107.81415600 -22.80984500
-41.49912300 -74.38523100 27.70126200
-15.49601400 35.13722200 28.43315900
29.55776200 72.43518800 31.81514000
14.73074300 -29.04332700 2.99847700
-7.69167100 -92.49709300 -64.70287300
44.74424000 76.45550500 8.30266000
-19.99491300 -36.77069900 14.18868900
40.44061300 94.02600900 -4.81133900
-30.05600900 -58.10144400 12.02825100
-29.87972800 67.92103600 28.87874400
48.47057000 18.95035400 -49.26559800
-29.43665500 70.64477500 -4.84999800
27.31896800 56.03826900 28.19846900
4.47406800 -100.79107700 -52.91376500
-27.14431800 -39.96553000 8.12656000
-20.00545300 44.34267800 32.10123400
13.36950100 88.69734200 16.98646200
-21.52237300 77.83015400 -28.89181900
-40.23312800 60.14103300 16.03422500
3.15875300 43.86844300 37.76046000
26.11710900 30.94201500 32.42795600
28.77464300 15.30998800 -62.69712100
-53.53105500 101.21725500 0.41801700
-9.08589600 61.13705100 41.68428400
56.02702700 -27.69883900 6.81749400
-56.85038800 82.69409200 6.82047500
30.89949800 81.25286100 -10.14034700
11.53350700 113.94009400 7.75925600
8.09121200 99.52305600 21.89914700
-35.88135100 -92.58080300 33.84318500
-35.05662900 -98.48589300 32.52821400
50.23970000 -52.67231400 35.32397800
-37.44153200 36.79076400 -8.22428500
-3.19777100 97.21427900 15.46162600
11.83474900 136.00827000 18.98618300
42.97122200 54.53746000 -3.45280700
-55.52958700 0.61662000 19.42629600
25.76067900 118.91168200 -6.73262500
69.53033400 94.66808300 3.11307900
15.48352200 68.85363800 -49.87230700
-40.22269100 53.74744800 -9.77078500
-42.23251300 -28.26369700 15.36770400
-30.66475500 42.68368900 -3.15518500
-7.79167800 9.49193300 61.54141600
62.67339700 90.04744700 0.35141200
62.97617300 56.77808000 -16.94486200
-34.14190700 -56.98307800 37.14246000
0.20688200 60.72089000 -48.34833100
-30.52365300 54.00050000 -32.16502800
-40.69600300 -28.96923300 26.89784600
6.30222400 91.45600900 -9.64268100
-10.98204100 143.26844800 2.18386000
22.88374500 75.68782800 10.09982700
60.89502300 -34.35447300 9.85662300
35.73838000 109.02620700 -10.96594900
13.58063400 137.42204300 6.24136200
-46.07775500 44.18620300 13.65743400
-23.17005900 -76.48931100 18.54115100
-15.36029200 74.75004600 14.27940300
8.74597900 145.79449500 -6.47008800
32.81802700 38.11785900 9.11902700
0.30354000 103.98196400 2.15834600
-57.60910800 -3.98151800 -11.86673100
59.69173000 22.19771800 27.33728400
40.59153000 39.31571200 -14.48129800
48.74342300 56.90060000 20.60192900
54.70826700 37.93613800 -15.43810000
46.43254100 60.65260300 27.08215700
-2.53360400 -27.09240300 -60.02907200
-14.29180800 56.81917600 -36.61095400
61.22818000 94.13149300 8.96082200
17.19642600 2.50441300 62.76868400
14.06178900 34.94702900 41.99199300
12.62952200 28.79457100 -55.41301300
-10.47889600 90.00448600 -21.46796600
2.15437000 -43.72251100 10.95700000
12.98884500 140.40655500 8.76856400
6.47858200 -36.78891000 -15.32726400
-3.77385900 -68.97624200 -42.78478600
-1.36713400 -11.71051100 59.50805300
8.17641700 85.74990100 9.41688300
20.68434000 83.33667000 21.36068200
-11.16855600 -85.17697900 -58.41898000
42.41980000 63.03629300 -10.23527000
-52.87594200 88.19796000 7.41114600
-35.69354200 58.73506900 0.41797100
-0.17315700 -37.72372400 -66.20931200
60.73648500 95.42462900 -17.80168900
-46.68124400 -20.10975100 17.10972400
-47.07937200 90.28207400 -9.48245700
68.86317400 88.01203200 -0.30051600
-4.35070600 97.80982200 -1.36650300
59.81603200 39.02584500 4.49380600
10.65725300 92.66580200 -18.49117500
-34.40494900 28.48464000 -34.39602700
41.15987000 68.89204400 30.34822500
-34.97016500 -19.24016400 -42.43070600
41.40578800 92.74134800 -23.37633700
54.13154200 60.33330200 13.29561600
-5.35170700 117.29882800 -10.61375100
59.36060000 95.03401900 -6.05044200
6.17160900 60.11197300 -45.93327300
-41.83343900 -81.21164700 16.26270500
-3.52532800 63.17627300 33.31539500
57.76297400 80.39627800 -2.65346200
38.29705000 -97.17664300 27.37865100
15.54130200 86.36675300 -12.51299400
14.54557400 88.78210400 -12.43610700
17.29397200 136.23904400 1.94113400
-20.60171100 36.31587600 -7.71973200
-48.21860100 -47.22769500 26.58661500
43.67694100 -72.44899700 8.23527400
-31.44241700 -34.53012800 36.34696600
31.25141300 97.45692400 3.01683600
-34.50278900 67.84529900 24.74467800
19.59658400 -34.31984700 -46.75510000
41.43213300 63.19937900 22.89814400
51.79573100 54.78847500 -0.09642800
-30.09790800 60.39006400 26.76349400
14.60298100 85.60996200 9.79145000
29.55723600 88.24234800 -24.72934900
-55.63509000 57.84695100 6.65917300
27.92576800 81.74268300 -13.49134400
-20.71782100 80.26709000 -20.85825300
36.04532200 -37.01567100 -18.41966800
-35.29081300 51.24914200 13.11057800
64.12585400 94.91724400 -18.19204700
11.15531300 -43.22409400 22.38549800
-38.49603300 -21.36785900 -36.08452200
14.44083100 77.37835700 -11.71714300
-2.48906900 82.91442100 -36.79418900
31.46630500 105.52073700 -22.58745200
9.01870200 50.80845600 40.49116500
-31.72623400 65.18513500 -21.79568700
14.82902900 -51.65246600 -51.76066200
-7.28239100 108.71984100 -8.09002900
-4.52277900 -36.37824200 -37.19049800
-38.27330000 -39.73151000 5.48859600
-1.45921300 98.17208900 13.52755300
27.35870700 -15.69560300 -59.14923100
4.80592700 -30.56249600 7.44602300
-45.34244500 72.60320300 -2.41608800
49.90757800 -32.42768900 -1.25864000
19.44295100 53.18134700 39.92444600
28.74772500 -0.73716700 59.53760100
-8.15628900 55.92647200 -50.01208500
53.38062700 70.90771500 -12.51635900
-25.20796400 -81.84861000 14.27222900
-54.01052900 101.27279700 2.69697400
18.35213500 46.65836300 38.79803800
54.76513700 -31.81345600 31.33840400
-18.14834000 36.32242600 -8.64623500
18.21822500 -30.61892900 -53.75009500
44.91564200 -91.39081600 31.37928400
-17.31293100 99.30529800 5.12753800
-19.46317900 -25.43379000 -47.65146300
-3.82993300 84.97448700 -13.87499200
57.78191400 46.21064400 3.60365800
-37.28120400 -101.63394200 16.71748500
21.24108700 75.19126900 -31.53655600
-25.65597300 62.80493500 37.00891100
-45.44301600 86.70279700 5.59384000
-18.67667000 16.72438600 -60.61242300
5.69126900 74.01032300 -5.56569100
-55.92429700 0.39113100 -22.49339100
41.47666200 -92.96637000 6.39700300
19.85801300 132.49644500 21.69660800
14.47389800 63.67653700 34.33036400
3.29968500 -84.58008600 -40.80303200
8.24031500 88.16519200 -1.02858200
46.88371700 -5.40529200 48.05259300
-46.86982000 94.17731500 -3.36296100
26.55941200 29.34386400 31.83226400
12.16488500 23.53621900 56.23601900
13.02085600 148.97810400 9.83227100
41.53032700 47.38377800 -14.80758300
62.73866700 36.70515800 -16.98387700
27.30736900 -32.18046200 -40.97765000
-54.54235100 90.43326600 10.70222900
7.65788000 -98.79769900 -63.73770900
56.08741400 -98.79740900 15.05375500
-29.33274500 -75.57841500 10.51990700
29.99751500 46.45496700 25.58160800
2.72507300 17.23228800 -65.72581500
-48.10573600 -94.78869600 24.38006000
3.93816000 97.27076700 11.33597900
48.98975000 38.80561100 -14.88620700
24.39816300 78.68457800 -34.45782500
-17.69838900 -35.76841700 27.72165100
13.09060400 140.75418100 5.12209300
-27.82273700 52.74953100 13.17339600
0.21220500 84.42599500 -28.39410400
53.38871800 -30.04886100 2.87925300
-47.24286700 -42.54032500 20.24513100
53.01260400 70.94384000 -6.41745200
-12.26701600 44.97887400 -34.34756100
55.36197700 41.78042200 -10.36519100
34.13724900 -80.91104900 20.13587800
-8.27490700 85.11631000 -23.98355500
24.35452800 118.25298300 -18.74951700
16.13345300 81.05858600 -8.44029800
-26.60120400 59.47121000 -33.91972700
20.66457200 76.15359500 5.29625900
-17.06563400 75.39820100 -21.27920900
-18.83295400 65.38230900 23.35540600
4.65550600 49.87351600 -38.94937500
44.58466000 27.58874700 37.04053100
65.81607800 -9.81576800 -26.74582700
46.32830000 111.53454600 -12.23984500
43.81250400 112.95217100 -19.86773900
-36.91663000 67.20240800 22.16478900
50.92028800 -87.57298300 5.64033600
-19.79200600 66.81225600 -37.00158700
20.74323100 52.09491000 -43.91405100
-30.77293000 -39.05558800 37.51166900
44.21724300 -59.63597900 31.87165100
63.83671600 -57.62017800 18.91936900
-17.28830500 87.68523400 4.33992000
-44.35060100 69.10966500 1.70014100
32.92102400 22.97792600 51.02401700
34.91474500 73.06367500 -23.41750100
-6.19102400 83.25324200 23.47355800
25.93513300 60.21991300 -43.52212100
52.09303300 30.89902500 -29.80828900
50.86079400 60.88775600 -0.92794300
63.17607500 93.82267800 -4.99569100
-40.25067100 62.11178600 -2.23487800
30.46908200 32.14237200 -46.42070000
-12.61994200 100.61749300 -6.81220700
14.88766800 67.98786200 39.24054000
42.34221600 -76.80136100 26.63473500
10.09123000 39.96141800 35.11064100
46.45351800 93.62295500 -25.47910900
36.94334000 68.68800400 18.32672900
35.44810500 -39.34767500 14.63510900
-42.48272300 65.24516300 11.88775800
23.64986400 132.54090900 17.38509900
-0.22464400 106.70667300 6.05388700
56.69789500 -43.07559600 30.86314800
39.11768300 58.24699000 21.91750700
-26.35108600 71.64258600 22.86563300
-12.98627800 53.93453200 -34.10528900
-6.77622700 -39.05997500 -63.35581600
17.10127600 127.70363600 2.07130200
-39.82645800 21.39682800 35.92567800
-55.85582000 94.82163200 -10.50487100
54.62124300 57.63291500 -12.66455700
34.89148300 -85.86676000 12.29713300
2.00757600 -78.17363700 -59.52796900
-35.73204000 50.34957900 10.63832800
62.29611600 31.85326400 -13.22358400
8.10257900 -51.14680500 -44.21141100
-28.97910500 45.83643700 9.89048200
-53.43977400 90.38859600 -0.34910800
-19.77095600 86.18828600 -15.11619500
2.52063000 103.48503100 -14.11504500
39.79769900 81.56926000 -7.05118800
5.63500000 133.11863700 -11.95317300
15.24137500 4.13925200 -67.98502300
-23.11846700 -14.95226700 50.49058500
21.87628000 82.66648900 -8.35746200
30.41867600 88.53763600 1.74498700
20.77579700 139.45326200 10.67822000
-47.12336300 30.42569000 9.60722000
11.07107100 75.17974100 -44.26110500
14.03352500 29.28027700 17.61604100
-4.12371800 -56.46182300 -68.12313800
-55.77531400 66.72028400 12.20085500
40.22006200 42.75811000 24.35595900
69.13199600 44.08375900 3.60832000
-17.47263700 -43.87683100 -5.51235200
-47.59837300 93.85298200 4.43089800
10.93895200 98.26516000 -15.92253700
50.18639400 -80.53582000 23.30929400
11.77990800 43.35562100 35.01860800
-53.88264800 30.13439800 8.40929400
41.40533100 64.38746600 -38.88612700
18.24279400 2.44331300 62.64717100
19.32631300 87.61031300 16.40050100
12.07849700 -64.83322900 -60.78154400
42.58667000 66.43985700 0.76972500
-41.04079400 54.14369200 -6.31986200
-54.91103700 88.67764300 -0.32691400
35.79319800 60.27156100 -43.62049500
-49.08466700 -5.86813900 30.35987100
-0.33814600 97.55929600 16.43466000
-35.35622400 32.55189100 19.07766500
38.04708900 -51.98046900 19.18430300
70.54460100 86.10532400 -9.18737100
0.82195200 83.76431300 -29.03939800
46.82631700 40.16825100 13.76770600
-34.69511000 62.67512500 -32.19613600
-7.97704200 100.87612900 13.19541100
-14.66316900 84.42475900 -21.23141900
-46.44253900 28.62291100 -2.81232000
-29.64342300 -68.89621700 30.96645200
50.87077700 -31.02084200 31.68109900
-50.41857500 17.75029900 -27.33734700
7.83959600 136.91218600 17.57890900
-18.30318100 52.22713900 25.33486200
-25.20363000 34.68644300 6.64761200
10.91452000 -91.57881200 -63.34402500
-58.38693600 96.55765500 -7.78514400
-57.10464100 94.34774000 6.39124700
-30.35931600 58.63137800 19.02661900
-47.09385700 -89.77245300 13.15582800
19.71134600 78.30271100 0.67971300
-12.97029100 62.65247300 -35.59003100
56.60504900 -95.10690300 22.68317600
-48.57405900 93.06273700 6.68905300
-44.52221700 27.98167200 10.44122200
12.02690300 -73.45526900 -47.77652400
64.60646800 25.68933100 -3.39663800
-30.34511200 78.15462500 3.05941300
-2.45951200 98.69872300 7.45084000
44.93589800 56.53815100 -31.98015000
-48.15786000 91.12180300 -3.66723400
43.01720400 95.30822000 -16.12449800
-34.84227000 65.24528500 -13.75113300
64.80435200 33.60889800 4.11954800
-17.90544900 -35.23228800 29.02764500
4.66855700 -93.99155400 -67.16197200
-27.57578700 75.72096300 19.05222100
-12.17325700 -33.22044000 -39.17701300
-29.46633900 51.47959100 -10.97565100
58.07000400 69.07920800 5.38737600
69.20298000 53.45620000 -3.85341100
1.43189000 13.16209700 -67.30785400
7.71389900 68.25058000 34.74427800
45.92561700 -43.32745000 6.18621100
-0.96689300 -98.10302700 -65.46051000
-48.12433600 67.71379100 -8.22102800
-2.01995400 -42.72125600 -14.19563200
-42.49067700 -50.19838000 9.99286100
36.70288500 98.55037700 -25.50900700
-22.98656500 -39.01218000 10.99742800
-8.86169800 21.27333800 56.27970100
15.35980300 -30.21868700 43.65128700
-4.55920100 -36.99565100 -4.66278500
28.76810300 53.12481700 -30.66836900
-13.69198400 83.14199800 22.60012800
31.06181000 -41.74996600 -14.07441100
33.40364800 63.53419100 23.42685900
-22.59508700 8.46740400 56.33244300
13.75533100 134.80612200 18.95706200
-31.29480600 -29.08133900 -32.01374400
-12.97385900 97.52876300 15.72373600
-4.17735500 146.45820600 6.64652300
-2.44150600 99.28756000 -14.18241200
65.58403800 -17.24140500 6.59943600
-43.45462800 -46.05930300 33.40867200
30.14038700 -21.67316800 -53.71236800
13.12598700 67.31987800 -39.74471700
-29.02360700 66.15409900 -32.22497600
-48.95354100 87.23671000 7.16626300
35.46334500 -97.55253600 18.14944800
56.00442100 67.40063500 6.57958100
12.37912800 -19.80337300 -59.45670700
-8.89098600 102.52723700 -7.39492600
-39.43743900 -9.77569900 40.96948600
-1.76657000 145.84112500 -3.90609600
10.14798400 49.44867700 34.14997500
-9.03525700 2.24266500 -66.54946100
-38.02064500 -78.66990700 25.38897500
-0.52808000 133.43263200 13.89650600
35.43967100 56.51602200 20.16496300
15.86225800 61.04990800 -40.75497800
0.85395000 146.01611300 9.51304200
-55.65529300 86.57279200 4.86017100
-10.12916200 -83.20106500 -53.96277600
-18.65475800 -37.10543100 19.95060300
42.06812700 -22.68019100 39.24537700
-36.03351200 57.34342600 24.15202500
51.34089700 -83.66412400 26.35031700
-30.10254900 -36.76355700 5.58770900
2.64211300 102.29962900 14.80784000
34.47539900 -33.69570500 31.82012000
41.37756300 96.62880700 -11.26859700
22.70860300 92.08567000 4.76477000
49.88632600 102.81398800 -12.75531700
17.88580700 -36.87048300 -32.56262200
-28.01498400 -83.89039600 27.32469000
40.85257700 87.68202200 -20.59801300
27.47637900 66.09748100 28.57775500
-26.77764700 65.54344900 -34.71064800
-7.92726400 -39.97856500 19.91659500
-26.21331600 -56.40482300 15.28861100
8.77861300 95.33816500 19.72620200
-45.29766800 -86.75143400 28.02615700
53.09919000 70.67603300 11.10054200
-38.66677100 -83.18804200 10.61016700
28.56328000 103.66240700 -23.97604800
36.00128600 -1.03347700 -61.34642800
7.85777900 59.02287700 42.28312300
-3.52342000 123.98196400 10.77695900
-7.64402700 74.17446900 27.43060100
19.17819800 110.33283200 2.05092800
-29.72897900 19.23048000 -52.42624700
61.34115600 -39.23618700 21.54180300
-24.48510700 39.20902300 -14.41205900
-38.58425100 -34.10783400 33.20338400
10.49531700 96.34799200 -14.86634700
24.41213000 80.97238200 -2.38651100
33.22923300 62.46936800 32.15252700
58.18262500 62.23505400 -16.46323600
-33.59162100 76.03875000 -7.75048600
-52.01337800 -16.64900200 -9.93925800
-40.98176600 39.34001200 10.31042200
34.20795400 84.81138600 0.66830500
67.61792800 87.02807600 8.49427400
-58.43410500 7.77511400 3.20909800
57.62080800 21.87474400 -36.99948100
50.11434200 -92.63850400 5.27005500
70.09616900 97.67732200 -5.86839100
-59.09453600 87.41940300 -6.51834600
5.88727300 -44.75319300 -68.96453100
40.76176100 68.82103000 11.10284700
-10.10461300 138.70445300 2.31908700
-7.20957600 55.67841000 44.49961500
-31.79823300 59.22312200 -13.88737300
-39.64497800 67.49413300 8.74527500
56.41076700 -7.48143800 37.87320300
-54.48634700 90.08364900 15.84798900
-5.89833600 98.06067700 8.98113300
59.33873400 60.25077100 5.78674900
-6.18585900 99.85075400 2.95105600
45.14818600 61.07325400 21.07212300
-6.19624300 86.01830300 -9.79452600
-4.59689700 30.08501600 -52.32074000
21.92003800 62.91610700 45.60377500
-1.02561200 -24.71937000 -58.54653200
58.03554500 -42.69668200 28.39674200
-12.55291500 -29.08433700 -50.37151300
-9.57160000 101.05843400 0.25822900
-23.11694300 48.83236700 -33.89073600
-37.37975300 50.88698600 4.22069500
31.13700500 23.55358700 -56.31884000
57.34574500 -72.28444700 18.61940800
-3.99079400 -57.06821400 -45.51226400
70.14613300 89.77500200 8.48412000
22.12596900 135.33558700 12.27989900
16.59211500 60.90886700 -46.12836100
61.71520600 -45.23897600 13.65787400
-1.17340600 -56.30616800 -68.61582900
-18.12802900 66.84139300 -46.91297500
-41.06414000 -32.11097000 8.18343800
-26.24223100 -96.65731800 23.86451900
32.93532600 81.61328900 -22.61909900
0.86761100 92.04220600 -6.00191900
21.81823000 -43.07965900 -22.15897900
2.30677400 -73.54740100 -40.38092800
10.23673100 103.81689500 -18.10382300
8.82429000 84.59381900 -21.02224000
67.56220200 31.10732700 0.02390400
38.67006300 36.17475500 0.52214200
-27.21365200 34.92952300 -2.74618200
-41.26638400 53.97922100 -3.04283800
14.93549300 138.86952200 1.54757300
60.86586400 89.39875800 8.65102700
28.83354400 44.63262900 -19.22626300
51.70848800 -79.74196600 19.62790100
38.43473400 75.19050600 5.99326300
46.17074200 2.88716900 -55.22915600
28.02551500 56.81858100 -32.79420100
60.39950600 30.72540300 -2.97483600
-12.68047900 76.64679000 32.17117300
45.72511300 92.23389400 -26.37646100
-5.73299600 99.29573800 -4.49675100
3.57627200 42.73737000 37.36158400
8.57392800 -80.36076400 -57.33110800
-50.46625900 101.55829600 5.89524600
35.32566800 112.32888000 -25.59291800
-2.21623500 67.37956200 43.34822800
-12.52348400 93.16303300 -16.37716500
-41.21725500 -37.14744600 31.98821800
50.35872300 53.77848100 0.88132800
-14.80001200 67.07802600 39.81029500
62.84441800 101.86470800 -13.56496900
42.30172000 68.23721300 19.06452200
3.43781500 -39.09877800 26.11460700
-25.34493100 -78.51325200 24.60730900
2.62497700 97.23522900 11.64140500
42.51183300 -94.97813400 6.49900200
-24.18419600 61.31081000 17.40551400
-32.56651700 56.92366400 -17.35041400
3.80270600 -30.43114900 -64.10691100
10.22756300 141.68580600 12.59810500
-56.56288500 52.16009500 -5.92134600
17.39544100 -47.56659700 -55.07757200
27.99541900 -38.73728600 15.78572500
-21.32785200 -38.07187700 -2.12050800
-24.30213000 -84.75975800 24.73931100
36.42660100 76.33311500 24.28390500
47.12104000 -18.05949600 39.67631500
36.38890800 -40.00830500 31.36399300
70.40011600 92.23328400 -14.08346400
-42.07440900 -26.15249100 14.50209900
-42.49163100 -28.86309100 14.10175000
13.32759100 79.99183700 31.31983000
-47.40956500 -35.90126000 16.41151600
-21.19791800 65.98176600 29.83529500
16.02746600 -6.58491100 61.35102800
32.29751600 -43.22628800 0.25376200
-37.09559200 -51.32986100 36.98717900
46.44369100 -101.17408000 10.15822300
6.61688600 94.36759200 26.06706000
-0.79664100 -93.94037600 -67.54332000
16.26070000 -35.26178000 -61.56460600
40.04422000 79.07291400 8.78539200
10.74825700 105.31491100 8.17735400
40.60532400 115.03340900 -26.90509200
10.18251400 137.34054600 -9.32582400
8.60457300 55.40386600 34.88628400
-52.95319000 76.18553200 16.06164900
63.72239300 91.49102000 2.38214900
-20.49765000 99.49549900 -8.31090100
13.18863800 132.68341100 16.69120800
-7.14491100 -28.10271500 45.79009600
-9.97386500 98.26252700 -5.07309100
49.19894000 68.66050000 -17.47677000
64.63752000 -46.89300200 21.84560200
-4.38238400 86.21288300 -24.15155200
-19.83619500 -43.90428500 30.90569100
45.94270700 34.86205700 -28.55366300
-46.06230500 -98.27838100 24.26444600
1.57480300 100.17976400 -3.53489400
-26.69395300 44.36403700 -18.45454200
42.24552900 77.76464800 -13.81123000
56.71877700 -56.28032300 8.85166500
9.91879700 89.89128900 25.06319200
-52.24144000 11.55934300 -30.15849300
7.83086200 -99.46791100 -62.57341000
-52.04051200 20.97413100 -13.32184700
41.09532900 -60.01178000 14.72487000
-28.42163700 39.85852400 8.33385900
38.31712700 108.12281800 -23.63030800
-33.85360700 -102.48337600 20.61681400
25.99431600 28.72515300 27.48271800
-45.45348000 28.62570000 -6.29966900
-28.93605400 70.84257500 -9.02471300
10.08491400 -89.20579500 -48.37965800
-44.07456600 92.70828200 13.50418300
0.16641700 61.22795100 -53.39373800
28.49106200 68.49781800 -47.31243500
49.50964000 41.78818900 5.89348000
9.07907200 91.79731800 -2.41393300
49.14977600 -23.21735600 31.12203400
-0.91049300 117.38150800 10.82394900
43.72715800 67.57862900 23.90637000
16.73831200 82.61200000 -25.85136800
7.11513000 144.45167500 -12.40885400
-27.16638600 -93.43810300 17.60740500
-6.91155500 92.84001200 -14.08523000
41.66350200 100.58990500 -14.04740000
34.69932200 -39.78048700 29.37956800
25.35938300 82.28973400 19.86924400
-14.57218500 -35.75744600 -50.79832500
14.74957800 28.42962600 34.26168800
-2.00974500 -20.49534200 -57.91227300
44.35604900 87.35419500 -10.05895100
51.58476600 -94.19762400 28.82279000
8.38107500 117.14646900 10.05021200
4.50825400 48.25239200 39.23236100
53.08765000 -97.60554500 25.49315800
5.17794600 138.80223100 11.38521400
-16.57273700 -35.09225100 28.99558300
-11.75383300 65.74244700 45.08804300
-11.01468800 -86.44857800 -48.50950600
59.22966000 -69.17482800 19.31588000
63.69671200 89.08832600 -3.81649200
-20.25470700 93.38074500 0.16736100
51.40708500 64.11709600 6.00110500
34.00627900 32.65938600 37.69278300
-14.81317000 87.96870400 15.28278600
-48.03985600 -88.38336900 15.00297500
61.04193900 99.63960300 6.88172300
-1.28113700 -67.97702000 -65.56491100
12.97469000 55.93184300 45.86290700
-42.38110000 -92.08369400 32.46434000
-53.97120300 32.15519300 -5.38485800
-36.77058800 59.45635600 14.15286900
-7.26534100 -97.44757800 -49.39222300
13.94048100 83.67334700 -23.06679000
41.04654700 91.57061000 -18.52129600
-49.52456300 0.20452100 -36.81127500
62.02682100 -35.41724800 21.25566500
-42.15799000 -23.79316900 -25.55188200
15.64501000 78.61443300 -5.50654400
-49.78664800 86.65979800 7.28306300
-40.33450700 -42.23176600 31.78220400
-41.85236700 63.09153000 -18.62221500
-0.80337600 -101.29893500 -57.83189000
65.50189200 53.80039600 -16.86950900
68.04129800 33.36554700 -12.24768500
-41.36477300 30.46809200 -14.14071600
20.92235600 83.95206500 23.38493000
-26.63026800 -93.37904400 30.47066500
6.83686300 41.04414700 38.95876700
34.71679300 -80.76735700 21.93865800
50.72139700 -79.86931600 11.97523200
40.15114600 76.78202100 18.58858100
-3.77499900 -42.13393400 -26.53491600
15.78401700 83.78327200 -12.47832600
-45.30558800 58.71032000 -9.26373400
58.90049400 56.45909500 -16.13607000
-14.57597900 -35.67236700 -54.13700900
0.42309700 75.48445900 10.34692000
14.93396300 11.56492800 -67.35874900
60.09455500 -56.43597800 29.79735200
-10.24593400 97.59152200 -13.50042200
-21.36028700 -46.93787400 18.78439500
-36.54627200 -16.67028600 38.63292700
-57.56176800 3.19888400 11.68173600
-40.39922300 -28.89088400 -12.10583900
43.53585800 19.69201700 -52.36121700
-37.25585900 42.82689300 3.36273100
-19.58912500 84.73202500 -17.06731200
11.43006800 -40.01936700 -64.65166500
-40.10360700 63.11865600 -0.28433300
42.50931500 91.43447100 -13.78354300
13.59412400 144.24586500 8.93755900
-48.30860500 -89.86119100 24.74625000
-23.97348000 -29.22454500 -38.91707600
-11.54241400 -44.61965600 3.98592100
9.92745000 90.87929500 -18.99195300
44.60895200 73.88126400 -18.18367000
39.74712000 55.76889000 30.72313500
65.83477800 89.78218100 2.25289700
-5.87681300 36.30118200 -44.75962800
45.14291400 51.02787000 15.81249200
13.24612700 139.15812700 5.42786800
27.03352900 45.75134300 28.02105900
-48.50978100 30.01391800 7.19483000
14.04748600 145.85742200 0.10077700
6.08053700 125.07444000 13.32954300
27.64368200 60.47159200 -41.07373000
-5.23644300 -37.76199300 -62.96333300
22.45301800 123.33766200 -8.33897100
-8.15331100 112.73832700 2.97553800
-7.32581900 31.43874200 45.99215300
8.17666200 100.76568600 9.37762500
11.52840800 88.44117700 21.49366000
-44.77921700 -67.19121600 15.45518900
46.71696500 48.43639000 -18.95698400
39.42256500 74.30106400 -8.70913200
-4.77084400 137.48838800 -4.95782400
28.22114000 95.67387400 -25.49091700
60.25660700 26.06789000 17.63303900
13.96149000 -37.31373200 -40.63395300
40.74537300 60.36582900 -28.59009900
-48.60786800 23.85607500 12.97238600
13.78556400 -58.62640800 -51.65424300
19.66541700 -36.96453500 -5.92742400
-36.20563900 -90.26116200 34.27744700
46.25282700 -31.97003200 -22.93878600
58.49397700 87.49972500 -7.44720400
62.78425200 -43.02136600 16.77471000
-30.44311000 46.24937800 -5.39832400
54.94752900 15.11237400 40.11368900
72.60201300 11.24403700 3.02431500
-5.99698400 145.98303200 1.89762900
28.48803300 75.21416500 -2.64973700
57.51693300 -90.04621900 13.00092300
15.67357700 38.80970800 33.48273100
16.23627300 76.88155400 36.14954800
-5.31548600 75.87966200 -12.81016900
-6.40212900 -37.29179400 -29.59685300
-6.85562200 67.44052900 46.57675600
33.79897700 38.47770700 2.70798300
15.20786900 64.32311200 42.93751100
12.87196400 -64.35006700 -57.95999500
44.79296100 -34.99714700 36.08640300
11.72569200 98.53384400 -20.60821000
-4.19966300 -98.21179200 -47.75989200
69.71463000 78.81801600 -12.82881500
-19.76826500 35.94263500 -27.95561000
