-43.48760000 25.52420000 61.47750000
51.63450000 2.26173000 -24.91760000
14.00340000 41.82090000 -65.88300000
-7.05282000 -23.25020000 -13.68620000
37.00080000 -1.33175000 39.28090000
-48.84660000 53.28820000 -31.55810000
-10.54190000 -22.88230000 -13.83130000
53.71430000 62.86830000 12.27260000
56.12770000 54.32450000 -17.53680000
-29.01560000 62.67130000 -55.08220000
49.95300000 63.32100000 26.45340000
-62.98780000 22.45140000 28.69630000
-60.54370000 -40.72990000 -24.60840000
16.24230000 35.96320000 72.69120000
50.33670000 -50.90020000 -48.87610000
-26.41610000 -11.69680000 40.93000000
5.35145000 -21.87060000 15.78700000
46.10180000 21.59640000 43.95150000
36.82370000 -8.81494000 -37.86980000
32.35550000 26.49950000 -59.69340000
58.97170000 11.93290000 3.43129000
-51.09260000 -0.37256200 -30.59060000
51.74680000 62.93900000 19.32880000
-43.78130000 25.89860000 61.07730000
-4.05578000 23.37120000 -66.74000000
52.91760000 -13.94500000 -38.37690000
-66.18080000 35.51310000 -25.23970000
59.77010000 14.88700000 -16.00250000
-9.17809000 31.50610000 -66.57410000
45.17220000 21.00130000 -48.69230000
-50.52050000 -20.33780000 -19.09370000
8.90668000 25.32490000 73.68770000
63.68560000 28.63280000 -10.41410000
3.29767000 -3.29061000 77.43940000
-5.32027000 11.07340000 -61.04660000
-52.69510000 -3.97722000 10.78510000
-58.57160000 30.93980000 -26.56270000
2.56032000 -5.35605000 77.85080000
6.82926000 -58.99780000 74.11270000
-10.04150000 -11.84650000 49.96410000
-57.88830000 61.93250000 -11.04330000
41.73980000 21.04480000 -51.83800000
-47.61060000 -0.02052300 -29.60140000
22.12140000 -10.00570000 -36.93120000
31.10080000 -0.35708000 45.98310000
63.53250000 29.48550000 -15.70900000
-55.53430000 51.99290000 -21.11120000
48.91380000 -33.90850000 -46.45230000
-15.74500000 42.12160000 -66.75330000
-61.96710000 29.14240000 -18.81590000
-64.65360000 34.84300000 33.30490000
-50.22330000 8.84994000 -27.98990000
-56.46020000 52.64410000 -18.04540000
-18.37470000 1.37399000 63.59270000
44.19250000 -8.24886000 -49.48860000
-43.14180000 8.62849000 -39.74840000
-65.60050000 35.62030000 30.46340000
54.95850000 13.40830000 -27.49740000
1.50539000 3.92432000 75.27070000
63.47950000 28.80570000 -13.46470000
0.55012500 4.66833000 74.70960000
-60.68900000 -37.20520000 -24.00760000
-5.00000000 21.81630000 -66.33320000
-67.97910000 12.72740000 -16.64640000
-7.32906000 58.10450000 -60.74090000
1.23068000 4.77673000 74.08500000
33.11260000 7.61116000 51.60200000
51.84320000 60.63130000 -25.29300000
30.78110000 1.64079000 -48.49680000
-4.41421000 60.81100000 -60.59900000
-61.73010000 -39.05050000 -22.43150000
-58.20830000 8.04522000 24.81860000
32.64650000 3.83182000 48.79240000
51.24470000 -55.44340000 -42.55510000
51.70100000 -20.55060000 -44.47020000
32.05840000 34.86170000 -61.04510000
63.92800000 31.05250000 -12.31820000
25.13370000 -3.81931000 -43.59530000
-57.17030000 -14.41760000 -12.01070000
63.60800000 29.81010000 -12.90210000
-36.85070000 22.66060000 -53.12080000
49.13700000 -54.45950000 -43.64480000
2.37842000 18.10670000 72.94920000
-18.27200000 58.91430000 -57.66180000
1.67158000 -52.54680000 74.47220000
43.84480000 -57.52060000 -47.43160000
-56.35960000 42.43350000 -29.22660000
69.88210000 9.84382000 29.04460000
-34.55890000 20.30490000 -54.21210000
38.08080000 27.32500000 -54.80740000
-28.11790000 0.00796700 -44.94110000
-76.83660000 13.84870000 -18.85440000
-61.78880000 -57.75950000 -28.42770000
63.70950000 29.14580000 -12.47040000
35.73480000 0.97872200 -50.67250000
-0.48004200 18.71700000 73.18080000
61.76900000 29.10860000 -24.01940000
0.30924500 18.75090000 73.38100000
61.21900000 29.07390000 -25.09260000
-10.67870000 -6.32274000 64.54570000
2.26863000 18.66970000 72.83750000
46.02170000 28.96790000 -49.76550000
-65.46790000 2.71613000 -16.28310000
61.32120000 29.90060000 -25.64890000
-33.96230000 20.26320000 -54.47310000
-65.65240000 -53.40690000 -17.31270000
60.88110000 30.65360000 -26.37390000
44.30880000 -58.39310000 -49.39790000
40.71640000 46.93460000 52.05260000
-8.56213000 42.60670000 -68.27130000
5.98711000 10.64100000 68.40170000
-18.95620000 51.52000000 -60.32290000
-57.45420000 39.95520000 -27.76420000
-34.19740000 60.88530000 62.54730000
-31.98850000 -18.96040000 2.39452000
-58.05050000 28.99970000 44.06500000
7.35638000 25.57780000 73.82520000
43.09270000 60.62780000 -40.46580000
-63.65930000 21.97370000 29.87980000
-2.96626000 27.44060000 75.48450000
36.95320000 61.32710000 50.16200000
44.09100000 -51.01630000 -37.65070000
51.21100000 25.29620000 -43.46270000
-36.38110000 46.38490000 63.32260000
-0.74591700 27.98880000 75.50840000
-65.57880000 -52.44070000 -18.71090000
5.75836000 26.78860000 74.34980000
38.10210000 39.82900000 -57.54810000
74.04920000 34.98560000 26.54460000
4.54753000 -27.49880000 70.72450000
-41.49810000 -10.51610000 -12.33320000
6.38935000 -56.67020000 62.27600000
31.30780000 7.25412000 -52.26350000
4.59351000 41.01350000 -67.53640000
48.66270000 5.51742000 26.42700000
4.73636000 -25.90560000 70.58120000
2.67220000 57.58150000 -62.47410000
-47.89230000 36.48590000 59.36890000
-68.21560000 9.90890000 -27.59710000
43.23680000 4.19770000 -49.51050000
-9.06145000 18.14380000 -64.38450000
52.59520000 2.84927000 -46.54420000
6.54770000 31.14320000 -68.22000000
-78.29690000 23.44650000 -27.68620000
-49.89390000 12.95410000 50.22140000
3.03348000 2.86682000 -56.22760000
-66.46720000 41.33920000 19.76770000
7.07223000 -55.60660000 62.68690000
8.52902000 33.98460000 -68.49180000
-56.19710000 0.62155500 -27.99910000
43.16390000 25.97380000 49.68510000
-45.79680000 29.55490000 58.89670000
32.75220000 8.01265000 -51.96500000
53.97810000 -54.08740000 -35.11940000
-59.41980000 62.42210000 12.04560000
47.99830000 8.58861000 -39.89610000
-1.72332000 19.74740000 73.75560000
-53.80630000 21.63830000 50.36430000
5.57245000 34.65500000 -68.83430000
-52.06980000 -39.71890000 -22.73870000
27.99890000 55.79420000 -54.44680000
-48.13920000 21.57090000 56.25010000
-43.09430000 -8.37884000 -14.99430000
12.53520000 60.41340000 -59.41870000
-7.60848000 26.95560000 -67.03190000
4.61296000 6.30267000 -58.54650000
48.69930000 19.58250000 -44.23590000
25.55860000 40.93100000 67.27580000
-6.46784000 -8.72954000 76.24950000
-45.22750000 6.56038000 -35.48880000
60.93560000 25.45060000 -24.18700000
-58.71670000 32.41160000 45.71900000
61.19580000 43.07840000 11.04740000
-8.00729000 48.19510000 72.25820000
-51.14110000 20.77130000 53.02270000
-58.57890000 31.76440000 46.30620000
14.92540000 17.75490000 -63.75370000
-63.31230000 38.59280000 -10.92080000
-30.16710000 -5.10132000 -37.40380000
-58.53170000 32.96040000 46.51150000
51.53340000 -0.26132100 -48.91540000
15.62710000 22.06720000 70.95950000
60.69620000 22.10720000 -22.23250000
-57.85300000 31.91500000 47.08400000
15.80250000 20.22940000 70.20340000
60.65440000 21.36270000 -21.50880000
55.26310000 62.26050000 -26.28040000
-50.96860000 21.45690000 53.56490000
-63.60490000 -57.75780000 -16.75410000
-38.69960000 48.78560000 -47.84590000
-30.85330000 -1.66946000 54.34050000
60.62250000 25.65880000 -25.11480000
-19.39420000 -21.83540000 21.79470000
17.96420000 21.47830000 69.79090000
55.61140000 -5.04501000 -40.34770000
41.81930000 -35.78380000 -39.41880000
18.39810000 20.06230000 69.24580000
62.03410000 29.09190000 -16.63950000
-22.98860000 -21.13050000 0.88190600
-62.68610000 10.83970000 -18.00700000
31.09730000 -2.20617000 -44.46910000
42.14140000 -30.98530000 -38.41270000
48.87260000 -51.95590000 -50.05570000
-62.19640000 34.00040000 -14.62940000
-53.56800000 -20.34740000 -24.15180000
74.22220000 23.15650000 42.96000000
70.43490000 35.54450000 33.58880000
42.51810000 -58.39900000 -44.28880000
-6.44682000 -58.91960000 74.23590000
49.19560000 -50.92170000 -49.33890000
-4.60821000 -0.91414500 -52.78250000
55.39300000 30.03810000 34.41200000
56.85600000 60.00240000 -5.11435000
43.29290000 -39.12440000 -37.90950000
-57.27440000 29.06790000 47.85670000
-36.20080000 5.48253000 -43.18980000
-27.56640000 4.04676000 59.95160000
-4.93022000 -55.57060000 75.31320000
8.07118000 28.54090000 74.41950000
-55.09030000 6.20021000 -28.18730000
-40.15660000 43.38190000 -52.93560000
11.16730000 18.48520000 71.33810000
44.44150000 6.69378000 -38.84050000
52.95240000 61.26690000 12.55350000
-56.10510000 5.39025000 -27.20380000
-48.56720000 20.25180000 -38.13150000
-41.16010000 44.06450000 -51.36220000
-65.37650000 29.47990000 28.65160000
38.87190000 53.11740000 47.94480000
-64.43240000 27.26830000 30.58520000
19.17820000 58.47030000 61.48530000
-4.22056000 -56.19880000 75.96690000
-21.90560000 53.52130000 -58.49970000
-39.93010000 57.86960000 -41.65650000
37.45490000 -8.65941000 -27.99960000
6.77891000 8.08979000 69.33650000
12.60570000 18.57580000 70.75310000
-8.65232000 -24.85870000 -0.79649600
-62.67700000 -13.11060000 -22.29100000
59.29960000 18.54510000 13.81770000
1.73602000 -35.44670000 62.37960000
54.14620000 31.87010000 -38.53970000
-43.47570000 59.69990000 51.32860000
47.98650000 50.11840000 37.97460000
-60.14730000 -49.35910000 -14.94790000
-64.50170000 27.42890000 31.43450000
-46.24730000 44.01110000 60.70670000
-62.99990000 13.19240000 -26.50130000
10.74860000 19.20000000 71.68400000
-16.67680000 -22.34450000 14.01120000
-64.61220000 28.48040000 30.40960000
-59.02460000 43.45000000 41.32510000
-53.44190000 47.07220000 -31.38980000
3.44763000 21.00680000 73.53580000
-55.27970000 13.21170000 40.07420000
79.09310000 26.12840000 29.96230000
24.86800000 51.31990000 -57.60350000
49.58210000 0.42904500 -24.20370000
12.39210000 19.14430000 71.20320000
-56.18310000 -18.53090000 -25.19050000
55.97200000 49.62920000 -25.49370000
4.05761000 -51.31280000 72.90010000
14.16160000 -4.74539000 55.24470000
44.61330000 8.60738000 -40.18000000
12.13990000 20.32820000 71.62880000
49.43050000 -48.69880000 -47.98820000
-16.73800000 46.92780000 -63.17680000
77.53340000 25.22850000 38.31260000
14.12540000 21.53400000 71.18250000
-17.33100000 -21.75780000 17.31740000
22.71800000 -20.24680000 -5.80590000
7.11105000 40.03390000 -68.96860000
47.34140000 -3.48660000 -20.82160000
-56.39460000 22.19330000 46.81270000
52.53730000 25.71690000 -39.38760000
-61.26830000 49.24280000 30.96250000
-44.92900000 -6.94203000 31.01190000
14.39370000 20.98860000 71.09790000
-64.62380000 21.71270000 17.81910000
-76.52970000 29.04330000 -31.76880000
-18.77860000 48.84630000 -61.43750000
-15.93960000 35.89920000 74.98620000
8.35270000 -10.89650000 47.59250000
-59.98880000 13.64140000 -25.87920000
13.94020000 20.51210000 70.94000000
2.58493000 -44.96150000 72.34390000
28.63240000 -6.84142000 39.77740000
-22.86680000 51.53480000 67.64280000
71.34190000 34.95450000 30.34410000
-37.95360000 60.33730000 -45.44350000
-62.26680000 63.34110000 7.38461000
-14.43870000 25.98840000 -65.62980000
-24.85730000 -19.80180000 16.32240000
33.20600000 59.51160000 -52.01270000
-76.99180000 27.29950000 -31.52960000
-1.48012000 -4.38303000 -51.01370000
-38.17150000 58.97430000 58.17340000
-77.48930000 26.99650000 -29.77540000
-34.16890000 60.42580000 -49.34600000
3.00002000 -37.26070000 63.00560000
-64.31950000 17.38740000 16.12630000
-66.35340000 44.38300000 25.83620000
56.25570000 52.51380000 12.32250000
47.55430000 0.88858400 -49.74890000
58.83240000 36.22650000 22.26630000
-64.50230000 17.28190000 15.40300000
67.89510000 35.58930000 34.75370000
11.89400000 38.67830000 -67.01280000
24.52200000 -16.19490000 -19.61910000
-15.06570000 -16.06600000 38.40630000
44.30010000 -5.81836000 -17.46880000
60.75040000 37.97400000 -25.31270000
68.67970000 11.43420000 34.76010000
56.90190000 -54.39020000 -46.00060000
4.29697000 -35.66310000 65.04760000
-10.57760000 -2.54884000 73.06340000
70.11700000 34.85040000 41.57690000
59.82540000 11.18010000 33.37100000
54.37580000 2.48717000 -31.44700000
-2.69027000 2.30750000 77.09590000
4.64709000 -19.74800000 -21.39380000
-57.22300000 2.39269000 1.53888000
68.04130000 12.00670000 39.10940000
-11.68740000 14.16700000 -62.50190000
-14.85040000 25.22500000 -65.50450000
57.83370000 12.11340000 32.64010000
63.27420000 28.96470000 -17.24000000
-5.92736000 -18.38550000 34.05990000
-16.99100000 11.36140000 69.40650000
-10.37730000 -21.63320000 -18.70640000
53.63630000 2.25211000 4.60727000
-11.48370000 16.70910000 -63.75790000
74.63170000 31.44750000 39.36950000
-12.77350000 9.93985000 69.53590000
-62.28400000 14.57800000 19.64890000
35.81160000 37.38510000 -58.83300000
3.64650000 -36.54300000 63.72540000
28.06960000 23.75640000 65.00990000
8.85940000 -53.14400000 66.95240000
-53.01620000 -2.77467000 -3.79164000
4.64843000 -16.09040000 41.47860000
19.23230000 0.66087300 56.44330000
48.64460000 60.12420000 -36.91620000
8.61209000 -52.74670000 68.74800000
70.66810000 35.04190000 41.57480000
-80.73890000 31.76420000 -17.58900000
50.05100000 59.60040000 -33.87750000
-8.53389000 -9.20566000 73.90800000
7.82856000 -52.85170000 65.11330000
-45.82280000 31.35820000 60.47240000
42.80720000 -1.51025000 -49.93630000
-57.92480000 25.10680000 45.16970000
-2.60969000 -23.08080000 73.85650000
-63.47400000 3.15933000 -23.73790000
-65.96040000 -55.95480000 -27.47870000
9.97056000 -54.75870000 69.61840000
5.90403000 -58.59740000 65.20010000
-61.88240000 52.75700000 22.64560000
-15.12470000 18.29030000 72.46410000
-10.10030000 -7.54227000 72.18490000
3.28412000 -57.34830000 65.02540000
-68.19690000 38.05310000 -26.72330000
-56.23990000 16.05360000 43.46470000
-56.59770000 21.61650000 -24.75510000
46.11220000 -4.93684000 -14.11610000
-44.60230000 31.09720000 61.46830000
-37.25390000 20.51760000 -52.23760000
6.34470000 17.46830000 -65.02670000
-62.69950000 -23.26860000 -19.24740000
26.65780000 -10.62920000 -32.79140000
-66.76740000 36.67750000 24.42510000
-44.04040000 30.89550000 62.11110000
-58.78400000 25.68840000 44.27500000
-9.27514000 -8.72432000 72.15210000
-38.51850000 35.30990000 65.16730000
26.65730000 23.98010000 66.04590000
60.66190000 23.57350000 -23.43560000
5.32253000 15.87480000 -64.59410000
-15.83900000 18.48480000 72.16930000
-31.16580000 20.74870000 -56.62210000
56.99370000 15.80850000 35.66090000
-8.49757000 -9.84128000 72.91770000
-17.20410000 -14.80180000 43.95240000
71.98490000 34.56070000 35.19960000
74.69680000 29.18920000 42.54420000
57.12460000 -53.40470000 -40.98480000
-33.00690000 25.71510000 -56.86640000
-33.26580000 10.22680000 62.39420000
-23.93190000 61.39700000 63.49000000
-51.08510000 -3.96321000 16.58560000
-20.96010000 34.83980000 -64.68230000
49.53100000 -57.97180000 -50.54220000
-64.09980000 -51.54920000 -25.42470000
8.65726000 35.44230000 73.77560000
-0.46377700 -12.06560000 47.51020000
55.57010000 57.46630000 5.53892000
51.14160000 -58.11910000 -49.91890000
-54.96240000 22.63860000 46.71940000
2.97533000 52.55160000 -63.41920000
55.90500000 17.04960000 35.24980000
-32.79770000 32.29600000 -58.21260000
-64.02500000 26.60110000 -10.54790000
-19.62720000 29.37910000 -64.68290000
-38.08100000 25.33280000 -51.54420000
-30.60570000 32.67970000 -59.80550000
-32.85850000 23.41510000 -56.23620000
-12.08340000 -15.18290000 44.34870000
66.72740000 38.91090000 25.44590000
-32.78860000 24.53170000 -56.45630000
-39.12580000 27.42950000 -51.18180000
50.57470000 6.99820000 26.39010000
-62.84110000 -49.67790000 -24.82960000
-19.52280000 27.19760000 -64.37220000
48.62090000 30.99330000 -47.80750000
-62.62100000 -23.33990000 -17.98090000
-37.91740000 32.40830000 -53.20760000
-28.02330000 21.35910000 -58.84780000
6.18273000 14.52450000 -63.99390000
-57.10170000 38.80520000 48.96320000
-33.79930000 23.78340000 -55.89150000
75.85350000 31.85500000 34.32830000
-30.48190000 31.78800000 -59.36690000
-42.55930000 39.01610000 -49.56470000
-62.12230000 -23.57420000 -16.63820000
-34.80950000 22.97700000 -54.81110000
5.59539000 14.28440000 -63.82590000
-59.14430000 32.92080000 -26.63880000
75.35500000 32.39330000 35.43640000
65.12240000 39.49470000 26.22290000
-17.11580000 27.10430000 -65.20880000
46.07960000 19.84440000 -47.10140000
44.40410000 -36.40490000 -46.29350000
13.61280000 23.55930000 72.08920000
-19.73920000 23.44160000 -63.52490000
47.75800000 18.85830000 -44.83410000
-27.13370000 31.16650000 -61.20310000
-53.64960000 10.01930000 -28.12130000
-11.37660000 5.02727000 65.61750000
-53.10490000 -1.11601000 24.93760000
-55.65050000 43.17150000 50.78630000
-56.24090000 -5.66794000 -8.21293000
-59.40420000 -50.97280000 -27.04390000
51.61620000 0.03429000 -3.73612000
-60.79200000 55.84030000 12.48390000
-54.18070000 9.66571000 -27.62070000
57.44210000 23.67050000 -32.74730000
37.05790000 -0.88845600 -50.92850000
4.55136000 -32.67330000 70.20710000
46.81940000 57.26260000 32.32500000
-41.75180000 44.73870000 60.57540000
63.88580000 42.80050000 1.73963000
-59.38970000 45.36550000 43.00310000
-63.94010000 21.62720000 27.86640000
-63.32480000 -7.98382000 -12.33520000
45.87930000 53.13240000 37.64190000
-64.85000000 20.17540000 19.53060000
54.65030000 7.40904000 -26.85210000
48.88140000 -47.73370000 -36.58340000
-56.33020000 17.93590000 41.93110000
-35.29730000 -15.02360000 19.33740000
48.44670000 6.82256000 -44.20350000
47.91980000 -57.82450000 -35.39950000
5.13627000 25.10050000 -67.16250000
31.30780000 -15.07950000 11.14940000
79.32810000 22.02010000 28.94940000
-52.19150000 22.24830000 52.43430000
-66.69360000 12.87430000 -11.88030000
43.80680000 -15.43960000 -34.32660000
-67.74370000 35.84720000 -18.70430000
38.31970000 -6.50852000 -28.46240000
47.31070000 49.23790000 38.61150000
62.51150000 32.65760000 -22.44510000
72.81590000 32.80390000 42.19720000
-55.76010000 18.68510000 46.12810000
51.53930000 45.48640000 39.14380000
-28.40270000 32.11670000 71.26770000
-6.83727000 -54.73910000 72.73230000
47.12590000 50.29240000 37.77020000
0.42299100 -13.79130000 46.79670000
78.64560000 23.54050000 30.51340000
20.90290000 15.60920000 -60.09830000
64.24860000 40.37020000 -11.18000000
-63.16660000 14.18370000 17.04170000
-2.75170000 5.47640000 73.65200000
-0.12978300 45.72050000 -66.29920000
-19.16840000 19.31230000 -62.45500000
-50.22860000 62.24920000 48.74390000
64.21320000 37.39770000 -12.28430000
-41.08180000 -1.69027000 43.51180000
-18.81690000 15.09290000 -60.72240000
-20.50420000 -15.48830000 -29.21000000
78.41090000 22.83590000 30.84220000
4.96844000 -21.45780000 26.62100000
-59.97550000 15.74880000 -23.34340000
9.03322000 -0.44508400 70.67790000
-57.38400000 13.77650000 -22.46220000
53.45040000 -13.88730000 -39.78360000
-62.80020000 21.45690000 -9.64642000
-64.64650000 24.25940000 28.40970000
-55.33210000 -41.92400000 -25.91050000
2.63542000 -8.19199000 58.00910000
-64.07830000 22.87470000 29.40320000
-13.88270000 52.38160000 68.82500000
51.72310000 44.76150000 39.50610000
-8.62085000 -12.08620000 66.70950000
-64.18650000 22.69280000 27.60980000
46.64630000 -43.04780000 -47.44020000
9.79849000 -1.24514000 69.97570000
-61.66680000 1.20910000 -4.36695000
-39.64210000 8.64831000 55.50110000
8.03691000 33.58750000 -68.31290000
-64.06930000 23.79410000 28.96340000
54.83120000 -52.25450000 -46.80090000
55.51350000 21.77570000 -35.26610000
-56.97510000 35.78690000 49.10560000
-9.65703000 -10.73530000 68.24950000
-57.60920000 14.91930000 -24.50340000
-54.77400000 7.16395000 36.57390000
54.23540000 20.93040000 -37.14040000
6.26310000 31.58430000 -68.43440000
-56.32220000 35.65050000 49.82000000
-8.93060000 4.40173000 -56.47520000
-78.51320000 14.50750000 -18.34870000
-53.93220000 49.23380000 -27.74590000
-7.27721000 -15.04310000 71.84390000
-4.08763000 -5.86370000 78.16680000
-23.75190000 -20.96350000 2.83105000
56.07550000 20.88370000 -33.09050000
-64.44160000 24.80330000 28.76740000
-27.59500000 24.39090000 -60.00410000
32.71910000 -1.29304000 -41.53610000
56.54070000 21.84570000 -33.11260000
57.17020000 -54.12410000 -44.94180000
-64.50240000 25.30110000 29.66320000
-21.74320000 52.43490000 -57.86620000
-60.59670000 38.48920000 -22.43010000
47.06060000 -0.24035300 -50.36490000
75.63030000 25.39350000 40.50150000
-64.08510000 18.56700000 23.76220000
-46.23560000 -8.82836000 -3.49678000
64.54000000 34.67140000 22.33240000
-62.56650000 -18.16380000 -20.95820000
25.78260000 -17.70480000 18.28270000
63.36240000 38.78130000 -9.21884000
-76.57020000 37.24830000 -25.26780000
59.26680000 21.20080000 -26.89070000
-50.95800000 -23.62790000 -20.32120000
-64.75440000 -3.79597000 -12.65660000
72.20190000 36.72280000 39.34420000
-56.66160000 50.21870000 -18.46450000
58.93860000 21.64840000 -28.05590000
3.59850000 21.35980000 72.46470000
19.89960000 14.42660000 -61.30250000
-66.16110000 -4.52543000 -15.40910000
43.02510000 -25.71890000 -36.78900000
-26.27680000 37.44580000 -62.39660000
-66.33510000 -2.39914000 -15.90120000
-53.48140000 -15.02560000 -12.56840000
27.90880000 43.29200000 66.86940000
-57.72420000 58.76540000 -8.83409000
15.35700000 -17.35680000 29.38750000
1.00508000 21.87550000 72.87960000
32.94270000 44.68980000 62.42870000
62.93680000 40.63750000 3.09654000
-52.05630000 11.83950000 44.26880000
17.35090000 -18.41910000 -17.27200000
-79.43030000 31.84650000 -30.46830000
3.32051000 -16.08910000 73.90590000
4.54298000 1.94734000 75.59310000
-65.77520000 -3.03452000 -14.94120000
-65.78430000 -54.23430000 -15.46170000
40.13900000 -17.30380000 -38.37390000
-46.46490000 24.50430000 58.75380000
-8.63215000 62.39710000 69.94970000
-1.28237000 24.06030000 74.89150000
-30.28280000 35.34080000 -60.24260000
-54.80890000 50.77990000 -24.11620000
23.89970000 27.82230000 -62.70120000
-30.57470000 36.04610000 -59.78840000
29.83720000 28.05050000 63.57710000
-44.11920000 -4.99668000 -23.50980000
-51.94100000 -0.13527100 -10.35070000
-31.04190000 24.18510000 -57.82740000
54.78330000 3.13298000 -42.28460000
-45.51130000 24.46180000 59.57960000
45.34450000 -0.67582700 26.52490000
-69.90860000 35.51310000 -17.24620000
18.45920000 54.63160000 -59.10760000
-26.98660000 -19.20510000 -5.08859000
36.26630000 15.61010000 53.64100000
54.34980000 3.93321000 -42.23850000
42.92940000 -27.00460000 -37.20340000
45.42240000 1.43604000 29.41920000
-2.16898000 -24.53970000 11.13060000
-45.25740000 25.61900000 59.73660000
10.89600000 8.41535000 -59.09650000
-19.90260000 -0.11203100 -50.66490000
60.89610000 16.13720000 -10.99040000
-19.66900000 -23.21860000 -1.12220000
-34.55720000 1.44371000 -41.04460000
5.74623000 -18.16110000 69.20250000
-12.19820000 -16.42830000 -29.19470000
59.94620000 24.67080000 -26.66940000
-67.32900000 -57.71540000 -22.83020000
-58.46880000 23.32900000 -21.29440000
60.69460000 15.22380000 -11.30840000
-53.42470000 28.66880000 50.78330000
-51.97820000 43.02710000 -37.01560000
9.03179000 3.35062000 70.56470000
-22.73840000 62.21360000 65.64380000
74.22680000 32.04190000 38.07220000
8.67194000 -56.13670000 73.49690000
-7.97774000 58.22900000 68.33150000
53.94180000 27.76030000 33.92790000
72.00100000 33.52350000 38.33690000
62.63210000 45.03160000 9.25312000
-64.28870000 19.06800000 -13.37390000
48.53460000 -2.16250000 -50.14330000
-65.86420000 2.16716000 -17.26480000
40.61310000 32.29980000 -55.49300000
-76.51980000 12.57400000 -16.18470000
25.88540000 37.62380000 68.22580000
20.70030000 3.65457000 58.26140000
78.23600000 27.54670000 35.92700000
-47.32260000 -5.44981000 -23.77330000
35.96720000 29.90280000 -58.34970000
-0.32423600 3.09464000 -56.37610000
16.88710000 0.97010400 58.05540000
-1.39825000 -8.24225000 54.44140000
13.25420000 -11.92730000 43.78290000
38.98910000 31.42860000 -56.29530000
-49.85900000 3.76744000 -32.85310000
-62.34150000 63.63450000 10.27620000
-46.35760000 -9.41074000 -15.06680000
-6.73596000 -16.22450000 -31.33760000
56.48730000 32.78340000 -37.20620000
-0.04898900 -7.76819000 55.09990000
45.79630000 -3.36966000 -50.45030000
37.99590000 24.39160000 55.54790000
-75.54850000 36.54100000 -15.99430000
-25.64710000 52.15840000 -56.08170000
-51.85810000 -17.57910000 -23.21750000
56.17930000 -2.13752000 -41.84680000
38.70120000 22.49590000 53.99770000
-8.81939000 -4.46272000 75.22950000
56.85680000 31.06460000 -35.88960000
37.73840000 29.34780000 -56.83590000
-5.35632000 -17.22450000 -29.31450000
32.33110000 -15.68460000 -12.81400000
52.97730000 41.40900000 -40.77080000
-52.42920000 62.31850000 42.58260000
58.06380000 19.39590000 -27.42940000
30.69740000 -14.77390000 20.68060000
-36.43180000 -7.16273000 42.54060000
39.36900000 30.56980000 -56.05500000
-2.69257000 -56.75690000 69.18690000
-14.98590000 3.51828000 69.69270000
22.31610000 -11.87330000 37.39870000
-4.04384000 -18.65160000 -25.80710000
-53.10690000 -1.46985000 -0.10429800
24.56060000 -10.52800000 37.75920000
-49.33230000 18.05000000 -35.87080000
-55.02690000 8.72080000 -28.23710000
0.84927200 -1.69164000 78.32860000
-46.39900000 42.48360000 60.91380000
-54.18710000 0.46623500 -2.97220000
4.45981000 10.21230000 69.81490000
37.17100000 55.13860000 -48.37740000
-35.86890000 -14.23380000 -12.79340000
4.83109000 -12.00610000 -39.60850000
50.99840000 -34.18770000 -44.56110000
-14.76350000 35.02470000 75.23770000
55.65240000 -5.42241000 -43.34480000
7.96694000 22.99190000 73.30930000
51.54510000 52.53050000 -32.43240000
-58.44810000 -51.35480000 -27.20440000
56.33520000 31.93650000 -37.04750000
-14.02230000 4.50442000 69.83050000
-59.71850000 -53.22010000 -15.03530000
39.40830000 49.04160000 -49.46510000
-15.28100000 36.44890000 75.30740000
-3.91410000 2.72972000 76.62590000
55.24640000 31.68830000 -39.17470000
-42.08970000 13.70280000 -44.13680000
-12.54970000 5.48506000 69.75440000
6.22276000 0.53398500 73.98300000
55.94130000 30.85460000 -37.45510000
-50.73530000 -10.94260000 -23.84530000
40.56680000 -58.00710000 -43.28240000
37.90610000 6.49973000 45.35570000
-39.11650000 -14.96610000 13.77730000
-3.43661000 6.64774000 -59.64990000
-61.01930000 11.42560000 -4.05559000
32.55580000 41.07440000 -59.33760000
-36.59070000 34.47550000 67.48560000
42.45240000 -54.15350000 -39.69930000
76.88410000 34.73840000 27.99190000
54.86450000 -57.34810000 -45.27080000
-1.93526000 -20.13880000 28.33100000
37.25630000 52.16390000 -49.57420000
22.33260000 -18.98130000 6.11242000
-67.48120000 37.85170000 19.65440000
-0.54645300 3.35541000 76.25050000
-43.09960000 -6.94824000 -16.15840000
54.04350000 10.27740000 -28.86160000
-67.50300000 38.77910000 20.56990000
53.77470000 30.03250000 -40.68580000
-4.51190000 23.26230000 74.52380000
55.43490000 22.66090000 26.54710000
58.99440000 21.24930000 26.05700000
-31.51590000 25.74590000 -57.87710000
43.05050000 59.51320000 37.57500000
-4.93866000 23.89980000 74.84330000
-30.46600000 24.30640000 -58.01420000
51.83710000 8.70768000 -34.27950000
-5.38244000 23.16860000 74.42720000
70.65360000 10.78460000 36.56560000
42.63820000 -53.63820000 -39.27890000
42.32300000 36.64890000 53.72430000
-35.77590000 58.85290000 -47.53130000
71.88710000 13.06870000 26.84150000
-62.59710000 -58.18670000 -13.70430000
4.16454000 21.39330000 -65.40190000
-28.86250000 24.99120000 -59.36100000
-3.04376000 -35.09250000 72.05650000
-57.77680000 61.48630000 25.63580000
-58.07760000 7.84661000 -17.86070000
7.74413000 35.21560000 -68.51150000
47.46590000 -54.27190000 -52.44190000
57.25650000 23.85410000 28.45530000
13.05270000 -17.44150000 34.06870000
8.63307000 35.84130000 -68.57850000
-3.80268000 -31.41130000 71.88180000
41.81820000 33.82010000 -54.65230000
52.76170000 26.84720000 -41.79180000
-64.38090000 23.25490000 28.01220000
-49.40720000 60.88330000 44.20190000
37.95860000 -11.18710000 10.21920000
-64.66460000 24.62890000 27.68400000
55.77870000 -5.10600000 -42.29340000
-53.56090000 -39.56450000 -24.42750000
24.35350000 15.93250000 64.69150000
-12.54930000 -4.04926000 62.09170000
-64.69200000 23.45410000 27.38570000
-78.93420000 11.55080000 -19.56380000
55.42580000 5.21044000 -14.03750000
-30.05580000 24.89550000 -58.63670000
57.32890000 -57.76260000 -41.19330000
41.00560000 34.25370000 -55.37510000
-61.88950000 62.37590000 4.79452000
-57.24240000 5.48293000 -25.78540000
47.89410000 -55.59030000 -35.14990000
-64.55470000 26.23580000 -6.04237000
43.49220000 -23.14360000 -46.20330000
-64.44260000 22.30360000 27.13420000
47.82810000 -53.36130000 -35.03820000
-65.44420000 28.99310000 -3.87629000
-60.23210000 60.38200000 24.72980000
-0.43618600 4.83448000 65.94960000
-66.15410000 31.67760000 27.02060000
53.62350000 56.46450000 -24.23520000
-37.76300000 29.14070000 -53.92320000
53.19650000 18.69820000 -37.52260000
36.28460000 -8.28558000 -31.14180000
34.55050000 28.65070000 61.00050000
42.64280000 -15.82100000 -46.84720000
53.24400000 -57.37050000 -50.60060000
40.91590000 33.59730000 -55.08480000
36.73490000 -8.69193000 -32.50340000
-1.01309000 -11.66300000 -42.39420000
-61.84250000 -12.33300000 -24.03060000
-63.46470000 -53.16530000 -18.66710000
44.18840000 -18.74650000 -47.21720000
60.74320000 18.45080000 -6.54868000
54.94250000 25.08080000 -37.67480000
-62.12490000 11.41860000 3.91958000
54.30570000 62.65590000 8.07758000
13.44090000 20.74570000 -64.01760000
44.90130000 -6.48381000 4.60888000
26.22550000 -17.47770000 -3.45981000
23.94220000 21.84520000 67.10650000
43.73670000 -20.16670000 -46.83700000
21.00050000 40.61810000 -64.65910000
61.02830000 36.01050000 20.38220000
39.73050000 32.31480000 -56.08020000
9.71053000 3.79608000 -56.27870000
-23.54320000 30.25440000 -61.99980000
-50.59610000 50.93050000 -30.42460000
-23.87930000 -9.01958000 49.92340000
-18.15640000 60.92460000 -57.34460000
78.00700000 28.15740000 35.23250000
-62.91520000 33.32450000 -21.00420000
4.28426000 -41.73950000 64.46510000
53.54950000 -55.66530000 -50.01750000
40.34130000 8.51376000 43.92170000
16.01810000 21.49620000 70.54190000
56.48200000 23.42840000 -34.54370000
-30.66020000 -10.72330000 -30.05610000
-4.03055000 -58.96900000 64.87950000
-43.48180000 -8.74432000 -13.27570000
55.27360000 56.58400000 -22.22730000
57.45570000 -57.62300000 -39.98660000
22.27280000 46.97180000 67.39450000
-60.46220000 0.82622900 -26.89410000
51.45470000 -55.17160000 -34.61610000
-4.88721000 -39.92730000 69.61270000
51.20440000 -19.82760000 -45.12390000
-22.54170000 57.84940000 -57.28120000
54.43470000 -55.05950000 -49.49900000
-64.81110000 48.02340000 15.91650000
-14.42180000 -2.33395000 68.70030000
-64.29050000 -54.73430000 -13.56520000
-47.79670000 -6.75497000 -1.10291000
35.93290000 49.68480000 -52.92940000
40.53330000 -53.73770000 -42.35760000
-57.27000000 -51.44960000 -30.27910000
-64.04200000 -57.24890000 -30.01550000
61.41440000 23.73240000 -20.95150000
-1.31293000 18.46100000 73.40450000
-57.66030000 -27.03850000 -13.64500000
33.20800000 39.23150000 -60.51380000
-58.48440000 4.46711000 -0.15473800
-0.96359900 17.97530000 72.84710000
-55.51210000 3.30194000 -28.16020000
-66.98060000 30.14980000 21.15960000
-60.39200000 6.89251000 8.43307000
56.02550000 6.70515000 -7.64866000
73.36430000 36.67160000 38.62830000
-41.45620000 33.24200000 64.31540000
44.58020000 60.69550000 -43.86490000
-57.52450000 8.61168000 -10.12320000
51.56650000 -0.81485200 3.40542000
19.72610000 56.88770000 -59.65960000
13.02010000 35.47850000 73.78270000
51.52990000 61.51600000 -26.11940000
52.14260000 17.52010000 34.13310000
-17.58230000 34.80590000 -65.71190000
61.81860000 24.07080000 -19.62450000
45.45680000 43.91160000 -50.76790000
-42.51840000 61.78190000 56.82450000
-2.84993000 -32.73260000 72.38140000
21.55740000 57.19310000 -59.07910000
62.13790000 24.82230000 -19.71470000
-17.15510000 33.71030000 -65.82040000
2.66139000 30.56920000 -68.43220000
59.91170000 32.60350000 26.92460000
70.00690000 16.71950000 41.34500000
-53.97690000 -11.24810000 -26.20300000
43.55410000 24.80640000 49.98030000
-40.82860000 18.71700000 -46.67350000
-66.36300000 12.50360000 -28.59950000
61.23150000 24.25690000 -21.79170000
12.11560000 34.45760000 73.97100000
-65.19380000 43.16070000 -0.12198600
61.59290000 24.66310000 -21.78720000
60.09610000 43.55890000 -29.19980000
12.74040000 34.54680000 73.57520000
60.79660000 33.37860000 25.96620000
57.00280000 15.85750000 33.55360000
-49.79820000 37.21180000 57.68110000
-57.63370000 9.99913000 28.67130000
56.46550000 16.00490000 34.25190000
-12.78610000 3.33040000 70.92720000
12.85450000 17.28980000 70.40310000
22.26680000 -3.85484000 -47.73970000
-40.96930000 21.43610000 -47.65320000
-12.74220000 20.21320000 -64.76910000
53.81940000 59.04350000 15.75950000
21.15540000 53.83650000 -59.76770000
3.73018000 62.90420000 68.99280000
38.58520000 -4.61875000 32.04700000
-61.83250000 37.14720000 -23.30000000
-51.23740000 -47.98560000 -21.82980000
-30.68020000 -9.84654000 43.84680000
-64.33620000 21.57860000 25.38070000
-61.34750000 28.70200000 -20.08990000
6.16364000 -1.60101000 59.47380000
41.82430000 24.46750000 -52.75660000
61.47390000 25.42750000 -22.30510000
-56.12060000 -44.13240000 -15.41400000
1.70960000 -58.67550000 76.99780000
54.13630000 21.28160000 34.23710000
29.51800000 23.59200000 -60.67250000
-12.76220000 22.39610000 -65.37380000
-18.73840000 47.70590000 -60.97430000
-60.05820000 19.03650000 37.96900000
4.40022000 -9.09818000 61.30610000
-59.06460000 27.02490000 41.51990000
-64.96960000 19.07960000 7.42927000
-5.71206000 0.91708900 77.07590000
43.83890000 26.11860000 -51.64880000
-59.39680000 19.85610000 -22.23960000
-53.06510000 35.55930000 -35.70290000
-19.00150000 12.24370000 69.25030000
51.43800000 -58.39670000 -36.70810000
31.95710000 21.91570000 -58.90400000
-9.42051000 3.16859000 72.79290000
44.13390000 27.43000000 -51.43370000
-52.69690000 0.58370200 30.27940000
44.97040000 28.71140000 -50.98080000
-29.03410000 57.36990000 63.79040000
-62.57230000 -1.81260000 -26.34230000
-17.42840000 12.19440000 69.53840000
-54.26410000 -2.14061000 11.38990000
42.04690000 -32.60620000 -43.58420000
-25.96190000 2.46798000 61.01020000
-16.30920000 12.63570000 70.18110000
-58.46870000 12.85030000 -13.04060000
23.49420000 28.61010000 68.63540000
-16.87710000 31.60390000 74.65340000
42.97840000 -8.45491000 11.04770000
-17.12930000 -10.30340000 -40.61300000
11.02280000 -9.25851000 50.84630000
24.46840000 29.33480000 68.40180000
39.90270000 -18.27410000 -39.82730000
-37.91080000 41.78220000 -53.53410000
-33.24140000 51.95000000 62.19710000
23.68900000 -7.24249000 -40.02340000
-50.85640000 53.83090000 -29.38220000
-10.02780000 -1.25596000 73.41370000
40.64010000 4.22912000 -49.82690000
79.18270000 26.49590000 31.48400000
25.92350000 29.94900000 67.59880000
-78.74090000 22.67870000 -33.03120000
2.66155000 11.30620000 -61.48550000
19.75010000 -21.11430000 -5.94065000
55.47780000 7.67834000 7.58331000
52.07120000 21.97730000 -41.01220000
57.26330000 53.66840000 -11.35430000
10.94800000 18.59390000 -64.84980000
54.18750000 29.74230000 -40.24040000
-58.65670000 -29.13840000 -24.81000000
8.21935000 -58.90190000 66.58560000
58.16620000 20.94590000 -25.90360000
-27.83310000 19.67080000 69.21570000
-57.81700000 -57.09300000 -12.10060000
-59.92540000 12.72540000 -14.72540000
-15.91150000 13.37090000 70.42160000
-13.20790000 -13.74160000 43.74570000
-0.45289700 22.35630000 -66.74400000
44.56630000 -58.15940000 -37.73510000
-57.81380000 23.51070000 -24.59380000
-13.98660000 12.44440000 70.40660000
39.34700000 14.72340000 49.63360000
-22.22420000 20.70480000 70.15540000
-13.40880000 11.91690000 70.39670000
-58.77080000 12.67590000 -14.25700000
52.87620000 -19.42500000 -40.77200000
12.52910000 -2.93601000 -49.70410000
-13.28190000 13.75800000 71.20600000
24.40700000 28.27800000 68.01160000
75.07520000 18.88920000 39.26220000
-36.54690000 24.35190000 -53.96290000
-66.08470000 28.52540000 12.31130000
-8.29977000 18.46270000 -65.00160000
-33.52680000 25.00160000 -56.34060000
57.11530000 10.49730000 -15.34460000
-59.60440000 9.43279000 26.33940000
10.51250000 19.54610000 -65.17930000
43.90260000 -58.39440000 -39.11140000
-11.26280000 44.43700000 -66.51310000
-12.69880000 13.86680000 71.12290000
37.19710000 42.19500000 57.60480000
-6.56161000 18.34830000 -65.15030000
7.33345000 -7.93445000 65.70860000
-59.11470000 62.01350000 10.57930000
60.29250000 19.38990000 -22.03190000
30.89010000 -13.51890000 20.58820000
-52.99070000 41.85260000 51.93970000
-48.18100000 7.12078000 47.14470000
-53.37790000 43.66450000 -33.93280000
60.00820000 19.80080000 -22.43880000
21.24070000 -1.84247000 52.58210000
-61.69500000 52.61450000 16.50120000
-27.02410000 45.82330000 -58.40600000
48.57590000 15.65160000 -40.14710000
59.65080000 41.96640000 18.78970000
-20.81880000 -20.87090000 17.73040000
59.10930000 18.68520000 -23.89430000
-43.07180000 45.74910000 -47.21670000
34.95520000 27.98490000 -58.65660000
79.00290000 22.56610000 29.31880000
-2.88384000 -49.89140000 62.24430000
-30.14290000 47.94910000 66.90060000
59.22390000 18.17770000 -23.18230000
57.64890000 10.89310000 -11.12320000
6.72651000 -7.55650000 63.50340000
-78.69380000 28.71520000 -32.57010000
-38.73400000 -12.14350000 23.90060000
-39.23570000 20.93110000 63.31150000
63.34560000 26.60590000 -9.11482000
-83.48160000 27.36080000 -26.90620000
58.47120000 12.59730000 -11.38900000
78.54080000 20.82190000 29.17910000
-45.87600000 16.25920000 -41.12370000
3.89236000 -17.37960000 73.26060000
-43.07460000 -10.28630000 19.20940000
59.37330000 14.62460000 -10.28090000
59.17330000 19.39080000 -25.46970000
63.53060000 33.18270000 -15.95170000
11.98880000 -22.93360000 -6.46749000
48.76000000 6.00809000 -45.96690000
-55.54730000 5.62421000 28.50740000
-41.43000000 -10.85720000 21.73370000
53.90370000 6.75863000 -24.53180000
-11.39700000 -16.82280000 37.81250000
-51.44680000 -4.48358000 18.57810000
-61.58540000 43.09490000 40.60200000
53.03520000 5.10508000 -23.85000000
76.32970000 32.56230000 28.63150000
-16.51770000 -22.39720000 22.22930000
-7.30551000 61.42890000 -63.72880000
47.10110000 -5.01390000 -15.12030000
-45.07200000 -7.32852000 -20.82750000
-5.99560000 -19.98050000 28.98130000
-45.66340000 27.01160000 59.74860000
-28.86290000 -18.89110000 -0.89844000
5.82215000 13.82310000 -62.50180000
39.32680000 8.62828000 -48.11840000
2.30977000 -21.21020000 -22.06140000
-4.07241000 -33.59000000 63.91960000
35.78260000 46.41850000 -55.55550000
-59.47310000 7.78309000 -3.99457000
-15.23670000 -15.04340000 44.30780000
35.81570000 11.27220000 -50.02720000
30.30370000 18.50360000 60.51260000
38.43070000 49.81880000 51.68540000
-62.18240000 -36.70590000 -20.09490000
24.76870000 61.17770000 -59.45430000
-17.17560000 -13.85740000 45.71060000
60.19090000 24.36290000 -25.55930000
24.90140000 10.66400000 60.55080000
40.12140000 52.84830000 -46.81820000
7.74989000 -3.89529000 61.23950000
-54.95810000 35.28620000 51.70220000
26.41290000 -13.04370000 32.46440000
-4.11996000 5.12256000 -57.62880000
-60.00240000 34.89360000 43.92150000
-55.73750000 34.85530000 50.85230000
-19.28440000 -14.48670000 44.07250000
-64.75730000 11.23190000 -14.46400000
54.89730000 61.89560000 1.70087000
-55.89460000 34.31570000 50.33750000
-57.68630000 -46.78000000 -16.86280000
-84.24280000 25.22520000 -25.50350000
-15.19650000 24.74630000 74.00850000
79.19830000 32.70760000 33.99250000
32.67930000 55.71010000 -51.55150000
-59.60530000 63.66260000 -6.49234000
52.78200000 27.05620000 36.19770000
-1.06636000 -0.54736900 78.41830000
-29.95670000 25.73420000 -58.69160000
7.79383000 -4.61491000 60.58220000
-19.21800000 -13.44690000 45.58600000
-15.27020000 28.23120000 74.57300000
74.79020000 12.56320000 29.50060000
-60.29890000 12.08810000 -16.48000000
56.80830000 55.77840000 -15.86830000
27.20050000 16.69470000 -59.54460000
-18.94890000 26.98170000 73.43980000
35.17790000 42.19350000 -59.35820000
0.31060300 -52.05460000 74.18170000
-35.19940000 -13.15490000 31.69720000
-9.57093000 32.77450000 75.74130000
73.51890000 11.13980000 30.69090000
1.31388000 19.12840000 73.14190000
71.92660000 11.93140000 26.52880000
-56.25730000 8.30057000 -21.09190000
-20.68480000 -13.59180000 44.65750000
6.37668000 61.51050000 -61.00870000
2.25332000 19.13880000 73.27280000
4.48404000 -57.58940000 71.67320000
-56.04660000 -0.32858300 -2.44618000
5.71961000 -16.02690000 67.47810000
-58.36490000 5.66485000 16.47700000
62.95440000 26.66390000 -17.06830000
-57.15860000 58.51380000 -7.17268000
7.65696000 50.60560000 69.09460000
-52.69150000 34.55290000 54.39620000
24.87210000 16.07440000 -60.30680000
-26.95060000 -3.73385000 -43.15820000
-57.03510000 3.84577000 18.18610000
-58.72500000 -24.80660000 -13.55420000
-11.11210000 30.14680000 -67.15360000
-54.09550000 33.64470000 52.65490000
53.91070000 61.94170000 -18.37940000
-1.69363000 -11.81740000 77.48650000
-57.98590000 -46.86560000 -17.61170000
-59.64480000 28.26720000 -25.41830000
-26.50710000 32.36050000 -61.88000000
-10.52090000 29.19400000 -66.88680000
-12.38830000 61.27630000 -62.63730000
2.85396000 27.85850000 -68.01050000
8.00596000 -7.99729000 69.06520000
55.34190000 45.11220000 26.58330000
-12.86760000 -13.30080000 47.48920000
25.87540000 -18.48880000 -11.97670000
-57.00910000 60.41070000 35.09600000
-78.04410000 28.86570000 -24.92900000
-77.18730000 20.37660000 -28.78250000
31.13050000 60.41210000 52.22380000
-12.13880000 39.95060000 74.61040000
-41.52020000 7.62409000 54.52780000
-65.70600000 41.01990000 25.35700000
47.60530000 10.84020000 -40.29030000
-76.17960000 12.53460000 -17.06450000
59.97350000 38.90650000 29.81050000
41.88110000 62.54130000 -46.75440000
-53.80560000 -49.78150000 -28.24560000
-78.24100000 13.52040000 -16.80270000
-77.66210000 32.42200000 -19.90510000
43.92480000 51.96110000 41.77040000
11.55890000 47.68490000 -63.17860000
-55.64660000 -52.65980000 -30.75270000
57.93770000 29.11980000 26.49690000
26.33640000 24.70720000 66.14870000
59.14670000 38.15120000 28.24960000
29.34380000 27.70090000 64.84010000
-66.22540000 -54.01740000 -26.00330000
-37.58710000 37.26180000 -53.95130000
14.39130000 46.89670000 -62.98170000
-51.89850000 51.44100000 47.48330000
18.70810000 -17.37620000 -21.31460000
25.16590000 23.81490000 66.70050000
-16.67970000 40.75160000 73.81440000
59.27600000 38.27820000 27.31620000
-66.56440000 -53.54170000 -23.62290000
13.57180000 28.84330000 72.99730000
-59.30500000 -57.89650000 -31.58690000
-4.15775000 -15.36620000 74.70750000
-29.83060000 62.05590000 -54.54110000
-64.27920000 -50.68190000 -22.00100000
22.64860000 25.73430000 68.67010000
52.18780000 -4.24110000 -48.43910000
-31.50570000 35.08210000 -59.45040000
35.14660000 -13.67750000 3.19796000
62.69470000 34.29010000 -22.15320000
-75.61630000 13.48100000 -24.25310000
42.51530000 -48.62830000 -45.22760000
-7.02040000 -1.67376000 -53.00150000
23.76330000 24.99670000 67.85180000
52.11300000 -4.88026000 -47.96330000
-58.14580000 37.07660000 45.46030000
56.05930000 -2.22888000 -40.96350000
-63.93060000 36.78620000 -26.38150000
58.01400000 31.30150000 -34.15720000
56.14730000 -3.30202000 -40.67640000
-7.79572000 -15.86320000 43.56560000
-61.62150000 -17.97440000 -23.17240000
2.30302000 -23.18580000 62.68970000
-62.90150000 -53.15280000 -20.29850000
55.88400000 -3.60002000 -41.36660000
-14.23490000 53.92560000 68.90630000
58.11710000 38.92660000 24.42040000
-5.07255000 -3.88924000 -51.22350000
7.93865000 -5.73583000 71.83300000
7.96851000 62.31480000 -63.98610000
47.73800000 46.52470000 -45.09320000
6.12570000 2.40602000 73.36100000
0.38610900 21.01430000 -66.35020000
-31.56150000 43.63800000 67.42630000
36.05990000 1.78101000 -51.48830000
51.92930000 -55.93160000 -44.93360000
1.16123000 22.99980000 -66.85960000
49.18400000 33.89180000 -45.49320000
56.70420000 -57.85250000 -45.63770000
-16.32210000 -17.86920000 -23.00780000
65.57870000 35.49960000 22.62720000
17.16510000 20.33670000 69.72150000
-30.49120000 6.57629000 60.31230000
30.67910000 25.94910000 63.66480000
3.19956000 62.44950000 -64.36920000
-65.37360000 31.95880000 0.27365700
-31.12800000 40.71000000 -58.52970000
45.41440000 -6.61765000 -30.42490000
73.44690000 26.33450000 42.84240000
-57.57570000 21.18880000 44.39340000
-54.38830000 61.61120000 -20.41250000
59.01380000 43.77220000 23.74550000
-56.46920000 -3.56855000 -5.97861000
-56.06830000 12.78440000 -19.60110000
59.03600000 44.74130000 23.06480000
45.36970000 -19.06380000 -47.56510000
-61.06630000 5.41216000 -2.90806000
-71.92630000 11.60430000 -19.17850000
-30.99150000 27.89470000 -58.41950000
-66.91530000 13.44380000 -16.32450000
-19.06010000 39.41650000 74.60540000
60.22770000 43.84290000 20.29450000
2.69408000 16.58050000 -64.99530000
55.57290000 50.30140000 20.68430000
-10.51310000 50.92540000 -62.88920000
4.54607000 36.27460000 75.71650000
-18.60250000 36.32400000 74.57300000
1.05684000 -23.81100000 62.16020000
-7.19631000 -55.87530000 64.40370000
-58.96250000 -2.71733000 -5.20960000
48.67860000 60.66730000 -32.29790000
-30.02500000 26.30510000 -58.98080000
43.33190000 -31.47410000 -37.26190000
59.24580000 42.30730000 -28.66090000
-18.24570000 35.67510000 74.47830000
-9.88511000 27.75020000 -66.96390000
29.95810000 47.79140000 -58.00330000
-6.94310000 35.56890000 76.02940000
51.61010000 18.33150000 -39.35100000
55.41570000 24.48220000 -36.89430000
50.07830000 -44.36060000 -37.30400000
58.31530000 24.13410000 19.26380000
-58.68960000 30.05560000 45.33550000
-63.25920000 49.53200000 22.08330000
52.07250000 18.93530000 -39.46710000
-13.39100000 -4.52952000 67.93670000
55.70610000 25.08360000 -36.22270000
46.85480000 60.62060000 -35.33170000
-11.67670000 -5.22297000 65.95590000
56.30790000 27.17610000 -36.31320000
-12.91360000 17.77440000 72.66280000
-33.16670000 14.40520000 -52.61530000
50.04280000 20.31120000 -43.06560000
-42.16920000 -2.21656000 -27.38940000
-40.83430000 51.46640000 58.57560000
30.70530000 29.38510000 64.32850000
-54.58270000 -50.49840000 -19.64090000
-75.22710000 33.51180000 -22.81910000
40.31090000 46.76310000 -50.17410000
56.05060000 35.34510000 35.52820000
1.52738000 -7.61810000 -45.93330000
57.13200000 63.53110000 3.16015000
43.10740000 50.17630000 -46.63650000
63.18410000 38.34480000 -18.99660000
56.25380000 -57.39410000 -47.13180000
-64.03320000 26.86420000 31.77860000
56.10160000 25.67220000 -36.16290000
-35.94880000 48.05250000 62.55190000
6.90834000 -50.76220000 69.35180000
56.22680000 25.38320000 -35.22350000
61.12100000 22.86520000 4.99604000
28.40360000 3.90185000 54.31030000
-29.11600000 4.69379000 -48.25140000
-15.38970000 32.20490000 -66.33150000
-3.46110000 28.30100000 -67.74150000
41.07360000 -28.85120000 -40.98260000
-17.05080000 4.52037000 67.79960000
-61.12770000 -16.32810000 -13.34060000
57.65340000 -56.96510000 -44.56060000
21.61540000 -16.64210000 28.61410000
58.87420000 12.23110000 26.98400000
38.01810000 -6.42367000 26.90710000
48.68000000 -18.37250000 -35.37860000
12.39960000 62.25680000 67.08040000
-1.07268000 -32.62470000 72.89250000
55.37410000 62.47460000 -11.66110000
9.91200000 40.50540000 -67.22190000
45.75370000 7.84467000 -43.56060000
-10.96870000 22.31430000 73.94170000
38.65730000 1.43662000 40.49320000
-18.31350000 25.73690000 -64.52380000
-41.20300000 28.00620000 -50.85550000
-13.36160000 31.53890000 -66.66070000
-2.16527000 -31.51090000 72.81840000
-21.29430000 59.78170000 -58.00350000
45.89490000 -55.64940000 -36.41020000
-3.22404000 -17.45280000 61.90420000
-52.96370000 -27.48490000 -15.19590000
-66.46320000 31.73390000 -11.95370000
-40.82500000 -12.93430000 -3.76543000
-4.90203000 -17.68190000 62.64040000
-23.27280000 28.80710000 -62.88730000
-14.93910000 37.95960000 75.26140000
-6.91571000 22.67330000 74.46870000
46.33530000 -54.30320000 -36.09770000
-15.41460000 29.84210000 -66.05730000
-32.89980000 18.33820000 -54.56710000
22.59200000 13.25270000 -58.38120000
-4.30707000 -23.65560000 63.22130000
-50.37360000 25.24980000 55.39150000
-17.46250000 25.86760000 -64.69720000
28.16970000 41.72810000 -61.31430000
58.45240000 62.89130000 -3.49694000
61.76800000 13.45140000 38.08420000
-53.50350000 -54.80310000 -23.81020000
58.30780000 63.46090000 -3.90429000
-55.88990000 -46.73030000 -23.77940000
-8.92829000 23.54900000 74.37640000
13.10310000 1.31625000 68.60130000
-18.37120000 27.17390000 -64.76610000
-0.85934000 61.31960000 -60.95770000
36.65120000 62.60880000 51.05930000
-17.29960000 27.76150000 -65.09860000
37.81390000 -10.99790000 17.70900000
51.26910000 -10.36380000 -48.43060000
-55.46700000 -53.78770000 -17.56260000
-8.55184000 22.72430000 74.33080000
-64.64170000 18.80640000 19.34050000
50.19140000 -11.39700000 -47.93320000
-48.77690000 59.80570000 48.52370000
6.86895000 -57.21810000 75.12490000
