-0.09757030 -1.39131000 6.87616000
-0.16292400 -1.42118000 6.80282000
-0.22265100 -1.38462000 6.87880000
-0.24475600 -1.34020000 6.96122000
-2.62355000 -1.45478000 5.31776000
-2.69031000 -1.42079000 5.32954000
-2.64622000 -1.41493000 5.42159000
-2.57721000 -1.46160000 5.36714000
-2.53509000 -1.49734000 5.28700000
-2.61789000 -1.47505000 5.24664000
-2.71402000 -1.43782000 5.22910000
-0.00788168 -1.58828000 0.76111100
-0.01572460 -1.62781000 0.70918900
0.16547800 -1.61760000 0.69651600
0.16945500 -1.57785000 0.74801700
-0.18614800 -1.59593000 0.78008200
-0.19713400 -1.63576000 0.73182400
-0.19713400 -1.63576000 0.73182400
-0.20546600 -1.69866000 0.70063800
-0.02125350 -1.68767000 0.67472000
-0.01572460 -1.62781000 0.70918900
-0.36502700 -1.60213000 0.81164400
-0.37761700 -1.64428000 0.76746300
-0.37761700 -1.64428000 0.76746300
-0.38631100 -1.70844000 0.74158500
-0.39849200 -1.86207000 0.70317700
-0.21544200 -1.85283000 0.66066800
-0.55786300 -1.65531000 0.81367900
-0.56593700 -1.71923000 0.78996600
-0.57858500 -1.87376000 0.75206500
-0.74502000 -1.73474000 0.84348400
-0.75889700 -1.88898000 0.80348000
-0.77791500 -2.08099000 0.75937900
-0.59486900 -2.06876000 0.70809900
-0.91908800 -1.74549000 0.90772300
-0.93831200 -1.90311000 0.86238900
-0.96092400 -2.08966000 0.81943200
-1.11268000 -1.91662000 0.93752300
-1.14283000 -2.10392000 0.89084200
-1.18903000 -2.36549000 0.82650500
-1.00416000 -2.34713000 0.74707800
-1.28529000 -1.92235000 1.02161000
-1.32163000 -2.11996000 0.97586500
-1.36985000 -2.38064000 0.91742200
-1.49596000 -2.12892000 1.07000000
-1.54782000 -2.39231000 1.01573000
-1.60854000 -2.64599000 0.95197800
-1.42655000 -2.64113000 0.85237800
-1.66473000 -2.13366000 1.17529000
-1.72296000 -2.40013000 1.12058000
-1.78481000 -2.65861000 1.06137000
-1.89069000 -2.40424000 1.23728000
-1.95057000 -2.66544000 1.18708000
-1.98963000 -2.83559000 1.15634000
-1.82606000 -2.83481000 1.02560000
-2.04388000 -2.41205000 1.37388000
-2.10731000 -2.67055000 1.32562000
-2.14722000 -2.83904000 1.29481000
-2.26057000 -2.67426000 1.46689000
-2.30628000 -2.83908000 1.43244000
-2.32883000 -2.97923000 1.41794000
-2.17578000 -2.97678000 1.27379000
-2.40577000 -2.67975000 1.61703000
-2.45321000 -2.84630000 1.58274000
-2.46640000 -2.98964000 1.57713000
-2.59404000 -2.85716000 1.73836000
-2.59547000 -3.00178000 1.74013000
-2.60287000 -3.11922000 1.73822000
-2.47232000 -3.10681000 1.57587000
-2.70978000 -2.86841000 1.91269000
-2.70438000 -3.01570000 1.91713000
-2.72966000 -3.12540000 1.90281000
-2.80454000 -3.02829000 2.10030000
-2.84696000 -3.12629000 2.07879000
-2.91921000 -3.16348000 2.04282000
-2.80414000 -3.16003000 1.86076000
-2.89459000 -3.03424000 2.28760000
-2.93658000 -3.13388000 2.26804000
-3.01230000 -3.17204000 2.23482000
-3.00743000 -3.14085000 2.46187000
-3.08728000 -3.17851000 2.43154000
-3.06991000 -3.14439000 2.65595000
-3.15095000 -3.18296000 2.62996000
-3.26339000 -3.18586000 2.59505000
-3.19621000 -3.17864000 2.39204000
-3.20682000 -3.18595000 2.83091000
-3.32123000 -3.19841000 2.80211000
-3.24751000 -3.19069000 3.03580000
-3.36125000 -3.20318000 3.01453000
-3.33587000 -3.16616000 2.79956000
-3.38320000 -3.17918000 3.01126000
-3.42092000 -3.19246000 3.22461000
-3.39630000 -3.21528000 3.22640000
-3.38261000 -3.14350000 3.01303000
-3.41856000 -3.15577000 3.22662000
-3.41953000 -3.22252000 3.43636000
-3.44418000 -3.19805000 3.43580000
-3.44381000 -3.16065000 3.43775000
-3.42011000 -3.08353000 3.44336000
-3.39922000 -3.08127000 3.23368000
-3.45496000 -3.20062000 3.64538000
-3.45345000 -3.16261000 3.64706000
-3.43049000 -3.08582000 3.65061000
-3.45318000 -3.16784000 3.85319000
-3.42822000 -3.08834000 3.85394000
-3.39082000 -3.00695000 3.85391000
-3.39385000 -3.00431000 3.65561000
-3.44047000 -3.17063000 4.05610000
-3.41551000 -3.08975000 4.05265000
-3.38039000 -3.00601000 4.04770000
-3.39512000 -3.08420000 4.25161000
-3.35897000 -2.99890000 4.24202000
-3.33593000 -2.91105000 4.04193000
-3.31247000 -2.90204000 4.22999000
-3.35659000 -3.07327000 4.45161000
-3.32186000 -2.98589000 4.43779000
-3.28064000 -2.88917000 4.42232000
-3.27150000 -2.97333000 4.63604000
-3.23296000 -2.87434000 4.61768000
-3.19020000 -2.74420000 4.59365000
-3.23094000 -2.76120000 4.39971000
-3.21469000 -2.96375000 4.83549000
-3.17692000 -2.86018000 4.81542000
-3.13726000 -2.72608000 4.79026000
-3.11077000 -2.85573000 5.01301000
-3.07441000 -2.71053000 4.98725000
-3.03855000 -2.59300000 4.96234000
-3.10574000 -2.61298000 4.76794000
-3.03807000 -2.86395000 5.21031000
-2.99822000 -2.69780000 5.18040000
-2.96291000 -2.58080000 5.15514000
-2.95075000 -2.43661000 5.13648000
-3.02572000 -2.45367000 4.94359000
-2.91287000 -2.68777000 5.36865000
-2.88481000 -2.56488000 5.34507000
-2.86016000 -2.41742000 5.31910000
-2.82611000 -2.27101000 5.28942000
-2.91966000 -2.29139000 5.10951000
-2.77829000 -2.54719000 5.51803000
-2.74674000 -2.40161000 5.48806000
-2.72496000 -2.25242000 5.46401000
-2.70887000 -2.10773000 5.44170000
-2.78082000 -2.13294000 5.25313000
-2.64857000 -2.38201000 5.66542000
-2.61769000 -2.23574000 5.63534000
-2.58848000 -2.09494000 5.60732000
-2.66080000 -1.99158000 5.40230000
-2.56259000 -1.97415000 5.57860000
-2.50859000 -2.22207000 5.80602000
-2.46063000 -2.08781000 5.76779000
-2.43139000 -1.96970000 5.73479000
-2.40817000 -1.86728000 5.70317000
-2.52581000 -1.87315000 5.54288000
-2.35522000 -2.08179000 5.94305000
-2.32764000 -1.95382000 5.91059000
-2.28419000 -1.86025000 5.85484000
-2.27764000 -1.77338000 5.83522000
-2.39692000 -1.78234000 5.68311000
-2.19580000 -1.95526000 6.06014000
-2.15167000 -1.85742000 5.99864000
-2.14969000 -1.76667000 5.98049000
-2.13025000 -1.70325000 5.94972000
-2.25866000 -1.70751000 5.80829000
-2.01511000 -1.85523000 6.13639000
-2.01199000 -1.76650000 6.11741000
-1.99369000 -1.70186000 6.08430000
-1.98936000 -1.63549000 6.06712000
-2.12372000 -1.63900000 5.93212000
-1.86212000 -1.76753000 6.24145000
-1.84849000 -1.69853000 6.21049000
-1.84536000 -1.63048000 6.19258000
-1.86241000 -1.56658000 6.19908000
-2.00527000 -1.57207000 6.07126000
-1.69400000 -1.68930000 6.32737000
-1.69201000 -1.62148000 6.30842000
-1.71181000 -1.56023000 6.31990000
-1.75063000 -1.51612000 6.35651000
-1.90311000 -1.52283000 6.23375000
-1.86241000 -1.56658000 6.19908000
-1.71181000 -1.56023000 6.31990000
-1.53577000 -1.60908000 6.42303000
-1.55347000 -1.54887000 6.43376000
-1.55347000 -1.54887000 6.43376000
-1.59002000 -1.50695000 6.47329000
-1.62970000 -1.46721000 6.51812000
-1.79466000 -1.47601000 6.39886000
-1.38484000 -1.53783000 6.53609000
-1.41860000 -1.49671000 6.57995000
-1.45612000 -1.45662000 6.62908000
-1.49567000 -1.41278000 6.68250000
-1.67330000 -1.42497000 6.56669000
-1.23614000 -1.48999000 6.67253000
-1.27249000 -1.44784000 6.72792000
-1.31114000 -1.40249000 6.78798000
-1.35430000 -1.34960000 6.85373000
-1.54155000 -1.36505000 6.74110000
-1.07994000 -1.44108000 6.80858000
-1.11860000 -1.39353000 6.87573000
-1.16102000 -1.33199000 6.94911000
-1.21014000 -1.26531000 7.02641000
-1.40359000 -1.28359000 6.92388000
-0.92038000 -1.38381000 6.94549000
-0.96345800 -1.32109000 7.02524000
-1.01252000 -1.24619000 7.11126000
-1.06741000 -1.15989000 7.20408000
-1.26753000 -1.18383000 7.11252000
-0.75558600 -1.31719000 7.07882000
-0.79889500 -1.24215000 7.16869000
-0.84858300 -1.14956000 7.27156000
-0.90450600 -1.04452000 7.37761000
-1.12933000 -1.06498000 7.30270000
-0.56617200 -1.25369000 7.19772000
-0.61702400 -1.16500000 7.30298000
-0.67598700 -1.06374000 7.42157000
-0.74598300 -0.94009700 7.50637000
-0.97360500 -0.95613200 7.48257000
-0.34395800 -1.19101000 7.30422000
-0.28967600 -1.27225000 7.20125000
0.07579970 -1.27794000 7.19407000
0.01077040 -1.22183000 7.27041000
0.53265900 -1.22579000 7.19868000
0.40783100 -1.19300000 7.26759000
0.32805000 -1.17348000 7.31258000
0.27790100 -1.14756000 7.40615000
0.58185900 -1.10253000 7.34876000
0.32805000 -1.17348000 7.31258000
0.57056200 -1.08732000 7.37309000
0.27790100 -1.14756000 7.40615000
0.72400100 -1.02737000 7.40892000
0.68045400 -1.01921000 7.43182000
0.75125900 -0.93843300 7.48640000
0.80848600 -0.93814300 7.47043000
0.85991500 -0.84392600 7.53534000
0.77965500 -0.85135300 7.55215000
0.88162200 -0.74588800 7.60585000
0.77837800 -0.76141000 7.61868000
0.89428900 -0.93666300 7.44909000
0.95827100 -0.83480600 7.52025000
1.00050000 -0.73710900 7.60554000
1.02042000 -0.63260600 7.68633000
0.88335900 -0.64678600 7.67295000
1.08873000 -0.83160100 7.50810000
1.14805000 -0.71679300 7.58854000
1.17588000 -0.59077400 7.64464000
1.21444000 -0.49965000 7.71995000
1.03410000 -0.52549100 7.75291000
1.30358000 -0.68821300 7.54462000
1.35281000 -0.56286000 7.60058000
1.39684000 -0.48209800 7.67963000
1.42070000 -0.39464100 7.72014000
1.24024000 -0.41076000 7.76986000
1.53470000 -0.55125100 7.55837000
1.57750000 -0.46352800 7.63697000
1.60588000 -0.36557000 7.68299000
1.63524000 -0.24825200 7.71556000
1.44454000 -0.28272600 7.73817000
1.75226000 -0.44722400 7.57477000
1.78638000 -0.33563100 7.61182000
1.81000000 -0.21689700 7.63030000
1.82374000 -0.09024580 7.63408000
1.64511000 -0.11355800 7.72218000
1.98414000 -0.35226300 7.53776000
2.00112000 -0.22644300 7.53007000
2.02320000 -0.10883700 7.56908000
2.04660000 0.01899080 7.58220000
1.85649000 0.02857940 7.67752000
2.17613000 -0.25443900 7.41846000
2.20634000 -0.12762500 7.46235000
2.21680000 0.00968564 7.47135000
2.21598000 0.15257100 7.46935000
2.04589000 0.15452800 7.55982000
2.35764000 -0.13506400 7.32836000
2.37020000 0.00516253 7.35287000
2.37452000 0.14866100 7.37093000
2.37163000 0.29112600 7.38328000
2.21767000 0.29378900 7.47908000
2.52565000 0.00042628 7.24544000
2.52847000 0.14273400 7.26779000
2.52310000 0.28362400 7.28424000
2.51596000 0.41988900 7.30019000
2.37229000 0.42223900 7.40426000
2.67566000 0.13705400 7.15918000
2.66921000 0.27499300 7.17673000
2.65695000 0.41028700 7.19026000
2.63949000 0.54119800 7.20084000
2.52120000 0.54464600 7.33478000
2.81360000 0.27045200 7.07132000
2.79783000 0.40663700 7.08158000
2.77830000 0.54117800 7.09112000
2.75148000 0.67562900 7.09460000
2.61634000 0.67245800 7.20405000
2.93443000 0.40746500 6.97506000
2.91450000 0.54536800 6.98436000
2.89577000 0.68445100 7.00336000
2.86650000 0.82628200 7.01268000
2.72092000 0.81278600 7.09178000
3.04638000 0.55257500 6.88184000
3.02314000 0.69499000 6.89742000
2.99883000 0.83667100 6.91220000
2.96645000 0.96346200 6.89164000
2.82173000 0.95611700 6.97867000
3.14496000 0.71422000 6.79876000
3.11585000 0.84556300 6.79105000
3.08642000 0.97083200 6.77313000
3.04768000 1.08929000 6.74159000
2.94472000 1.08743000 6.87125000
3.20139000 0.84640100 6.64097000
3.17300000 0.97204300 6.62428000
3.14258000 1.09582000 6.60232000
3.11084000 1.21874000 6.57662000
3.00548000 1.20651000 6.70550000
3.28762000 0.98258400 6.49314000
3.25529000 1.10782000 6.47124000
3.22224000 1.23168000 6.44655000
3.18894000 1.35498000 6.41947000
3.07908000 1.34170000 6.54899000
3.36610000 1.11702000 6.33593000
3.33114000 1.24194000 6.31078000
3.29679000 1.36748000 6.28479000
3.25857000 1.49002000 6.25297000
3.15380000 1.47519000 6.38791000
3.43607000 1.25002000 6.17081000
3.39926000 1.37788000 6.14480000
3.35919000 1.50570000 6.11429000
3.31893000 1.62920000 6.07906000
3.22266000 1.61239000 6.22001000
3.49931000 1.38696000 6.00431000
3.45723000 1.51893000 5.97419000
3.41476000 1.64560000 5.93832000
3.39056000 1.76913000 5.91622000
3.29034000 1.75051000 6.05221000
3.55011000 1.52656000 5.83241000
3.51099000 1.65746000 5.80085000
3.49689000 1.78036000 5.78714000
3.48434000 1.89558000 5.78320000
3.40064000 1.88616000 5.92722000
3.59619000 1.66178000 5.66198000
3.57991000 1.78547000 5.64891000
3.56541000 1.90010000 5.63931000
3.43067000 2.00142000 5.75706000
3.51570000 2.00841000 5.61475000
3.65251000 1.78701000 5.50433000
3.64660000 1.90503000 5.49741000
3.61135000 2.01995000 5.47686000
3.59457000 2.15887000 5.47296000
3.49223000 2.14682000 5.60719000
3.72219000 1.90907000 5.35187000
3.69920000 2.03066000 5.33092000
3.66559000 2.16494000 5.31418000
3.55847000 2.29412000 5.45972000
3.63480000 2.30171000 5.30754000
3.75794000 2.03746000 5.17214000
3.74698000 2.17280000 5.16265000
3.70931000 2.30348000 5.15278000
3.70471000 2.56409000 5.18223000
3.63609000 2.56500000 5.33239000
3.82124000 2.16762000 5.00979000
3.77822000 2.29585000 5.00092000
3.76944000 2.55972000 5.03304000
3.84211000 2.28247000 4.85694000
3.82242000 2.55258000 4.88342000
3.92587000 2.75696000 4.94179000
3.87035000 2.76086000 5.09418000
3.87810000 2.26741000 4.71218000
3.86816000 2.54131000 4.73634000
3.97118000 2.75186000 4.78878000
3.90651000 2.52841000 4.59061000
4.00707000 2.74634000 4.63643000
4.13618000 2.85577000 4.68062000
4.09476000 2.86029000 4.83718000
3.93952000 2.51711000 4.44674000
4.03469000 2.73830000 4.48506000
4.16342000 2.85455000 4.52323000
4.05219000 2.72669000 4.33314000
4.18386000 2.85364000 4.36457000
4.29193000 2.94818000 4.39004000
4.26183000 2.95011000 4.55105000
4.06085000 2.71194000 4.17985000
4.19723000 2.85154000 4.20608000
4.30829000 2.95057000 4.22634000
4.20466000 2.85109000 4.04777000
4.32252000 2.95201000 4.06309000
4.34112000 3.05089000 4.06891000
4.32640000 3.04930000 4.23380000
4.21127000 2.85172000 3.88909000
4.33192000 2.95410000 3.90006000
4.34871000 3.05418000 3.90445000
4.33412000 2.95448000 3.73730000
4.35292000 3.05893000 3.74063000
4.32689000 3.12629000 3.74317000
4.32938000 3.12182000 3.90688000
4.32950000 2.95283000 3.57516000
4.34826000 3.05990000 3.57730000
4.32066000 3.13203000 3.58052000
4.33819000 3.05889000 3.41479000
4.30711000 3.13228000 3.41944000
4.30711000 3.13228000 3.41944000
4.24026000 3.10440000 3.42597000
4.25710000 3.10615000 3.58399000
4.32066000 3.13203000 3.58052000
4.31994000 3.05252000 3.25484000
4.29222000 3.13165000 3.25851000
4.29222000 3.13165000 3.25851000
4.22428000 3.10903000 3.26757000
4.28466000 3.12175000 3.09796000
4.21308000 3.11106000 3.10942000
4.14483000 3.05457000 3.12069000
4.15978000 3.05209000 3.27607000
4.25650000 3.11835000 2.93995000
4.18911000 3.11050000 2.95259000
4.12158000 3.05407000 2.96534000
4.15592000 3.10806000 2.79804000
4.08828000 3.04953000 2.81209000
4.07472000 2.97351000 3.13014000
4.09191000 2.97384000 3.28363000
4.05072000 2.97316000 2.97847000
4.01710000 2.96817000 2.82720000
3.97298000 2.85880000 2.99231000
3.99586000 2.86515000 3.14194000
4.01267000 2.86396000 3.29169000
4.02768000 2.86350000 3.44213000
4.10563000 2.97506000 3.43710000
3.91776000 2.69644000 3.15024000
3.93461000 2.70145000 3.29754000
3.89510000 2.68996000 3.00385000
3.94300000 2.85432000 2.84345000
3.86743000 2.68806000 2.85843000
3.84545000 2.45567000 3.01256000
3.86582000 2.45820000 3.15809000
3.87884000 2.46240000 3.30405000
3.89052000 2.46414000 3.45027000
3.94618000 2.70142000 3.44567000
3.85954000 2.17464000 3.01254000
3.88105000 2.17552000 3.15981000
3.90139000 2.17689000 3.30680000
3.91670000 2.17835000 3.45413000
3.94186000 1.88898000 3.00207000
3.96472000 1.89046000 3.15267000
3.98350000 1.89229000 3.30401000
4.00002000 1.89481000 3.45517000
4.04669000 1.60685000 2.98781000
4.07114000 1.61021000 3.14265000
4.08789000 1.61199000 3.29827000
4.10182000 1.61438000 3.45431000
4.19636000 1.33386000 3.29292000
4.17562000 1.32983000 3.13351000
4.15085000 1.32530000 2.97491000
4.01631000 1.60296000 2.83449000
4.11848000 1.31922000 2.81741000
4.29227000 1.05233000 3.28956000
4.26739000 1.04629000 3.12751000
4.24196000 1.04073000 2.96561000
4.21083000 1.03357000 2.80472000
4.32253000 0.75514000 2.95982000
4.35523000 0.76376300 3.12321000
4.37551000 0.76921300 3.28899000
4.38460000 0.77146100 3.45580000
4.30652000 1.05551000 3.45312000
4.36907000 0.46460000 2.96344000
4.39477000 0.47382400 3.12864000
4.41582000 0.48004600 3.29448000
4.42821000 0.48361700 3.46156000
4.37226000 0.17375900 2.97935000
4.40137000 0.18482900 3.14214000
4.42127000 0.19257900 3.30637000
4.42946000 0.19638600 3.47152000
4.34223000 -0.10982200 3.00702000
4.36340000 -0.09681160 3.16648000
4.38056000 -0.08785950 3.32542000
4.38765000 -0.08354580 3.48482000
4.31384000 -0.34855000 3.50108000
4.31564000 -0.35154300 3.65107000
4.39294000 -0.08445330 3.64418000
4.43293000 0.19593200 3.63628000
4.30382000 -0.35167000 3.35050000
4.28868000 -0.36245000 3.19908000
4.20648000 -0.59457200 3.52131000
4.20412000 -0.60124400 3.65457000
4.19939000 -0.59639000 3.38486000
4.18375000 -0.60935300 3.24743000
4.26718000 -0.37984800 3.05016000
4.15965000 -0.62799400 3.10833000
4.02223000 -0.83943700 3.19770000
4.04712000 -0.82012100 3.31546000
4.06830000 -0.80758900 3.42475000
4.07066000 -0.81607700 3.53463000
4.06170000 -0.82927700 3.63644000
4.04882000 -0.85097200 3.74691000
4.19871000 -0.61699900 3.78714000
4.31224000 -0.36217200 3.79910000
4.18400000 -0.63694800 3.91988000
4.30363000 -0.37778700 3.94711000
4.38032000 -0.10103400 3.96143000
4.38909000 -0.08971660 3.80343000
4.42363000 0.18510100 3.96489000
4.43187000 0.19237200 3.80101000
4.43236000 0.48153400 3.79557000
4.43306000 0.48377900 3.62872000
4.38413000 0.76978200 3.78866000
4.38574000 0.77133900 3.62235000
4.31088000 1.05549000 3.78136000
4.31242000 1.05633000 3.61724000
4.21499000 1.33639000 3.77421000
4.21496000 1.33678000 3.61373000
4.20959000 1.33615000 3.45324000
4.11027000 1.61593000 3.61059000
4.11217000 1.61641000 3.76721000
4.01041000 1.89717000 3.75946000
4.00758000 1.89593000 3.60726000
3.93049000 2.18202000 3.75037000
3.92647000 2.17993000 3.60187000
3.89399000 2.46290000 3.74318000
3.89682000 2.46400000 3.59668000
3.94890000 2.69456000 3.74346000
3.95049000 2.69904000 3.59465000
4.03540000 2.86056000 3.74681000
4.03434000 2.86382000 3.59457000
4.12002000 2.97700000 3.74686000
4.11471000 2.97500000 3.59132000
4.19649000 3.05250000 3.74594000
4.18763000 3.05055000 3.58761000
4.17380000 3.04856000 3.43152000
4.26468000 3.10556000 3.74482000
4.32689000 3.12629000 3.74317000
4.26610000 3.10292000 3.90588000
4.32938000 3.12182000 3.90688000
4.26164000 3.10250000 4.06749000
4.32468000 3.12051000 4.07121000
4.32468000 3.12051000 4.07121000
4.31106000 3.12175000 4.23578000
4.28624000 3.12065000 4.39933000
4.30508000 3.04487000 4.39781000
4.27278000 3.03507000 4.55835000
4.23559000 3.03106000 4.72048000
4.22361000 2.94721000 4.71139000
4.17879000 2.94371000 4.87104000
4.12779000 2.94295000 5.03044000
4.04536000 2.86128000 4.99424000
3.98744000 2.86289000 5.14971000
3.92322000 2.86408000 5.30491000
3.80342000 2.75494000 5.24329000
3.73126000 2.75267000 5.39205000
3.65597000 2.75507000 5.54073000
3.55868000 2.56406000 5.47774000
3.47665000 2.56272000 5.62066000
3.47408000 2.28781000 5.60450000
3.39222000 2.55861000 5.76221000
3.39986000 2.28278000 5.75116000
3.42658000 2.14146000 5.75867000
3.32212000 2.27535000 5.89510000
3.32889000 2.13495000 5.89325000
3.34815000 1.99748000 5.90074000
3.24685000 2.12685000 6.03571000
3.27412000 1.99681000 6.04848000
3.28585000 1.87078000 6.05014000
3.14254000 1.98313000 6.15455000
3.16453000 1.85402000 6.16735000
3.19002000 1.73086000 6.18925000
3.06228000 1.84062000 6.29607000
3.09006000 1.71612000 6.32127000
3.12359000 1.59650000 6.35669000
3.00134000 1.70639000 6.45707000
3.02328000 1.58570000 6.48839000
3.04558000 1.46256000 6.51617000
2.91471000 1.57849000 6.60891000
2.93879000 1.45380000 6.63958000
2.96803000 1.32764000 6.66978000
2.82486000 1.44551000 6.74801000
2.86135000 1.31736000 6.78339000
2.91578000 1.20602000 6.83542000
2.74101000 1.30762000 6.87889000
2.79482000 1.20617000 6.93881000
2.81034000 1.08835000 6.97520000
2.66329000 1.21191000 7.03821000
2.67219000 1.08990000 7.06705000
2.68822000 0.95286700 7.07559000
2.53326000 1.08939000 7.15450000
2.55662000 0.94877800 7.17388000
2.58838000 0.80659400 7.19565000
2.42465000 0.94529700 7.27289000
2.46352000 0.80479900 7.30686000
2.49500000 0.67073200 7.32613000
2.30662000 0.79604200 7.36874000
2.33563000 0.65688000 7.38687000
2.37280000 0.53872100 7.43017000
2.19144000 0.67416300 7.47618000
2.22038000 0.55164700 7.51541000
2.21914000 0.42550900 7.49923000
2.06437000 0.55086100 7.58603000
2.05853000 0.42357900 7.56584000
2.06620000 0.29072600 7.58250000
1.89083000 0.41474800 7.65744000
1.89568000 0.28702700 7.68431000
1.88028000 0.15729200 7.68376000
1.69214000 0.27372100 7.73514000
1.67654000 0.14644800 7.72976000
1.65517000 0.01817730 7.71948000
1.51055000 0.10551600 7.82602000
1.49674000 -0.03336380 7.81096000
1.47199000 -0.16709100 7.78961000
1.30264000 -0.07433190 7.82263000
1.27893000 -0.19552600 7.79866000
1.25738000 -0.30785300 7.77788000
1.08395000 -0.22231200 7.85756000
1.06333000 -0.32606900 7.83182000
1.04753000 -0.42639900 7.80860000
0.87553700 -0.54570700 7.73970000
0.74684200 -0.59456000 7.74897000
0.76782200 -0.67788700 7.68642000
-0.40493800 -0.78691200 7.75085000
-0.48746300 -0.73662200 7.70107000
-0.47999000 -0.84755200 7.62838000
-0.40373800 -0.89444500 7.66739000
-0.13890800 -0.47111700 7.93111000
-0.02537980 -0.45313700 7.92206000
-0.03290350 -0.36366600 7.92282000
-0.16478400 -0.38553700 7.91794000
-0.18151100 -0.30086800 7.94513000
-0.31010100 -0.31703100 7.92788000
-0.03744790 -0.28064600 7.95163000
-0.04207540 -0.19073600 7.98125000
-0.19262100 -0.20820400 7.97318000
0.10480700 -0.35721700 7.91955000
0.10910900 -0.27079400 7.95601000
0.10985900 -0.17457300 7.98980000
0.11043400 -0.06633100 8.02595000
-0.04716580 -0.08145440 8.01214000
0.25241100 -0.26182300 7.95248000
0.26208400 -0.16009100 7.98987000
0.26809000 -0.04779760 8.02388000
0.27268500 0.07422400 8.05342000
0.10824200 0.05517920 8.05777000
0.26809000 -0.04779760 8.02388000
0.26208400 -0.16009100 7.98987000
0.41669600 -0.13636100 7.97398000
0.42979100 -0.02283510 8.00635000
0.44014000 0.10157600 8.03437000
0.27268500 0.07422400 8.05342000
0.44560300 0.24223100 8.04473000
0.27316700 0.21450600 8.06784000
0.59437800 0.00839140 7.98244000
0.61108800 0.13704100 8.00460000
0.62179500 0.27748100 8.00814000
0.62660000 0.42070600 8.00266000
0.44402500 0.38737100 8.03855000
0.78812400 0.18135900 7.96608000
0.80485100 0.32254600 7.96581000
0.81572900 0.46727300 7.96330000
0.81602500 0.60942600 7.95637000
0.62133900 0.55956700 7.98745000
0.99667700 0.37441100 7.94080000
1.00717000 0.52176500 7.92765000
1.00790000 0.66801700 7.90692000
0.99150300 0.80789600 7.87120000
0.80288600 0.74626700 7.94453000
1.19374000 0.57360900 7.88168000
1.19625000 0.71968400 7.84844000
1.18909000 0.86720200 7.82243000
1.17219000 1.01902000 7.82122000
0.96346100 0.94608800 7.84342000
1.37367000 0.76961100 7.83222000
1.36361000 0.92397600 7.80087000
1.34508000 1.07265000 7.75396000
1.49358000 0.92873200 7.70098000
1.47766000 1.06924000 7.65968000
1.46263000 1.20675000 7.61577000
1.45734000 1.34193000 7.57220000
1.64457000 1.07268000 7.60132000
1.62852000 1.20643000 7.55685000
1.62072000 1.34141000 7.51134000
1.63154000 1.48542000 7.45314000
1.48258000 1.48826000 7.50827000
1.79262000 1.20286000 7.49373000
1.78097000 1.33673000 7.44885000
1.78039000 1.48106000 7.39097000
1.79297000 1.63264000 7.33365000
1.64931000 1.63601000 7.39106000
1.93092000 1.32966000 7.38386000
1.92351000 1.47562000 7.32882000
1.93328000 1.63084000 7.28091000
1.95198000 1.76085000 7.25947000
1.81148000 1.76562000 7.31301000
2.06157000 1.47097000 7.26359000
2.05844000 1.62560000 7.20870000
2.06594000 1.75923000 7.16839000
2.09831000 1.87189000 7.16066000
1.96401000 1.87480000 7.23278000
2.18661000 1.61566000 7.13364000
2.19259000 1.75496000 7.09075000
2.22776000 1.87414000 7.08179000
2.22849000 1.99608000 7.02157000
2.09031000 1.98658000 7.09613000
2.31782000 1.74700000 7.01301000
2.35290000 1.87736000 7.00063000
2.35393000 2.00322000 6.93090000
2.38010000 2.14603000 6.91903000
2.23036000 2.13194000 6.98923000
2.46630000 1.87563000 6.91988000
2.47022000 2.00510000 6.84061000
2.48206000 2.14213000 6.79015000
2.48621000 2.26835000 6.76031000
2.36297000 2.27538000 6.87273000
2.59175000 2.00189000 6.80169000
2.57192000 1.86276000 6.84924000
2.68087000 1.84020000 6.76921000
2.55744000 1.72501000 6.87303000
2.68163000 1.71077000 6.79795000
2.79438000 1.70099000 6.69594000
2.77155000 1.80781000 6.65250000
2.90555000 1.70094000 6.58410000
2.88225000 1.81236000 6.54258000
2.97148000 1.82688000 6.42285000
2.95101000 1.95783000 6.40867000
3.03944000 1.97286000 6.28289000
3.01831000 2.11126000 6.27909000
2.99840000 2.25174000 6.27653000
3.12047000 2.11575000 6.14663000
3.10203000 2.25601000 6.14289000
3.10249000 2.54136000 6.16140000
2.99514000 2.53598000 6.29095000
3.20821000 2.25985000 6.01506000
3.20439000 2.54869000 6.03023000
3.30241000 2.55459000 5.89951000
3.28951000 2.74839000 6.10333000
3.38843000 2.75148000 5.96652000
3.48519000 2.75554000 5.82880000
3.57310000 2.75746000 5.68615000
3.67982000 2.86390000 5.75637000
3.58925000 2.86031000 5.90270000
3.76860000 2.86406000 5.60847000
3.84866000 2.86652000 5.45721000
3.93546000 2.95313000 5.50517000
3.85329000 2.95060000 5.65996000
4.00773000 2.95060000 5.34821000
4.07033000 2.94537000 5.18921000
4.08045000 3.02507000 5.19865000
4.01546000 3.03387000 5.35655000
4.13947000 3.02254000 5.03984000
4.19162000 3.02916000 4.88110000
4.13641000 3.08958000 5.04323000
4.18033000 3.10867000 4.88312000
4.23167000 3.09992000 4.72394000
4.26262000 3.11538000 4.56265000
4.19540000 3.09506000 4.55060000
4.16323000 3.09795000 4.70965000
4.23167000 3.09992000 4.72394000
4.26262000 3.11538000 4.56265000
4.22187000 3.09515000 4.39066000
4.28624000 3.12065000 4.39933000
4.31106000 3.12175000 4.23578000
4.24607000 3.09892000 4.22961000
4.17747000 3.05085000 4.22256000
4.15372000 3.04855000 4.38135000
4.19221000 3.05320000 4.06334000
4.19906000 3.05402000 3.90449000
4.11920000 2.97505000 3.90219000
4.10987000 2.97399000 4.05832000
4.09375000 2.97118000 4.21385000
4.02804000 2.85492000 3.89884000
4.01478000 2.85523000 4.05116000
3.99724000 2.85706000 4.20309000
3.93957000 2.69042000 3.89283000
3.92539000 2.68952000 4.04259000
3.90473000 2.68999000 4.19070000
3.88576000 2.46183000 3.89001000
3.86991000 2.46118000 4.03681000
3.84773000 2.46100000 4.18323000
3.92067000 2.18185000 3.89896000
3.90561000 2.18103000 4.04677000
3.88376000 2.17935000 4.19452000
4.00228000 1.89656000 3.91100000
3.98686000 1.89542000 4.06235000
3.97174000 1.89557000 4.21373000
4.10588000 1.61579000 3.92360000
4.09268000 1.61464000 4.07916000
4.07619000 1.61389000 4.23438000
4.21046000 1.33607000 3.93463000
4.19962000 1.33469000 4.09470000
4.18097000 1.33185000 4.25362000
4.30454000 1.05361000 3.94513000
4.28955000 1.04976000 4.10790000
4.26799000 1.04473000 4.26956000
4.37259000 0.76554900 3.95408000
4.36541000 0.76222200 4.11963000
4.34991000 0.75714100 4.28433000
4.42384000 0.47669600 3.96180000
4.41054000 0.46977500 4.12715000
4.39035000 0.46096500 4.29131000
4.41026000 0.17490100 4.12742000
4.39115000 0.16282500 4.28907000
4.36379000 0.14948500 4.44948000
4.36324000 0.45050000 4.45396000
4.33309000 0.13447500 4.60888000
4.33096000 0.43943400 4.61549000
4.28506000 0.73992800 4.60715000
4.31881000 0.74841100 4.44622000
4.20452000 1.03195000 4.58827000
4.24224000 1.03969000 4.43032000
4.11882000 1.32248000 4.56627000
4.15521000 1.32815000 4.41112000
4.01865000 1.60775000 4.54008000
4.05195000 1.61175000 4.38825000
3.90312000 1.88661000 4.50944000
3.94372000 1.89275000 4.36305000
3.82474000 2.17470000 4.48784000
3.85774000 2.17737000 4.34174000
3.78912000 2.45873000 4.47509000
3.82227000 2.45964000 4.32963000
3.84804000 2.69517000 4.48480000
3.87911000 2.69182000 4.33804000
3.94543000 2.86379000 4.50417000
3.97625000 2.86104000 4.35466000
4.04214000 2.97506000 4.52255000
4.07075000 2.97280000 4.36832000
4.12560000 3.04752000 4.53807000
4.08955000 3.05118000 4.69355000
4.04715000 3.05112000 4.84897000
4.11826000 3.09788000 4.86780000
4.18033000 3.10867000 4.88312000
4.06981000 3.09812000 5.02501000
4.13641000 3.08958000 5.04323000
4.00855000 3.09525000 5.17846000
4.07200000 3.09755000 5.19999000
4.07200000 3.09755000 5.19999000
4.00256000 3.10456000 5.35509000
3.92354000 3.10544000 5.50786000
3.94344000 3.04005000 5.51369000
3.86349000 3.04367000 5.67007000
3.77639000 3.04755000 5.82425000
3.76580000 2.94858000 5.81275000
3.67394000 2.94811000 5.96340000
3.57789000 2.95080000 6.11059000
3.49392000 2.86371000 6.04651000
3.39504000 2.86363000 6.18911000
3.29247000 2.86218000 6.32973000
3.18731000 2.74411000 6.23921000
3.08045000 2.74067000 6.37225000
2.96705000 2.74342000 6.50233000
2.84550000 2.74127000 6.62531000
2.72023000 2.74095000 6.74406000
2.58984000 2.73574000 6.85397000
2.50575000 2.53387000 6.76504000
2.37350000 2.53624000 6.86615000
2.24478000 2.53910000 6.96764000
2.22341000 2.27074000 6.96133000
2.11010000 2.54351000 7.05675000
2.08731000 2.26753000 7.04904000
2.09956000 2.13141000 7.08956000
1.94520000 2.26956000 7.12047000
1.94664000 2.12698000 7.13984000
1.94701000 1.98359000 7.16501000
1.81675000 2.13346000 7.22973000
1.80383000 1.98977000 7.23393000
1.82204000 1.88014000 7.29828000
1.65651000 2.00353000 7.29770000
1.67781000 1.89005000 7.36316000
1.66472000 1.77042000 7.36555000
1.52997000 1.90214000 7.42156000
1.51597000 1.77480000 7.41424000
1.50345000 1.63792000 7.44525000
1.36585000 1.78452000 7.45652000
1.36045000 1.64497000 7.49239000
1.22031000 1.80358000 7.49531000
1.22053000 1.65716000 7.53195000
1.08993000 1.82703000 7.52524000
1.09168000 1.67770000 7.56230000
0.98604400 1.84754000 7.54540000
0.99169500 1.69661000 7.58185000
0.95110600 1.55175000 7.63995000
0.86397400 1.42300000 7.71101000
0.89524300 1.71545000 7.59735000
0.87266300 1.57046000 7.64345000
0.78021300 1.45461000 7.70754000
0.66984000 1.34788000 7.76564000
0.73450700 1.30618000 7.76876000
0.78074700 1.59713000 7.65554000
0.70841300 1.48659000 7.71996000
0.61178800 1.38306000 7.76603000
0.51922000 1.30124000 7.83276000
0.55406000 1.25482000 7.83149000
0.65404100 1.51392000 7.73815000
0.56484200 1.42316000 7.78302000
0.48765100 1.34943000 7.85074000
0.39499300 1.30024000 7.88885000
0.41511000 1.25032000 7.88375000
-0.28681100 2.28970000 7.61461000
-0.31253700 2.32521000 7.61083000
-0.42204600 2.21996000 7.60423000
-0.38147100 2.18745000 7.61822000
-0.18417700 2.39598000 7.62568000
-0.16992700 2.36246000 7.62422000
-0.19874600 2.43122000 7.62752000
-0.33270900 2.36125000 7.61264000
-0.04494030 2.40559000 7.63890000
-0.05457960 2.44118000 7.63604000
-0.06369180 2.47875000 7.63675000
-0.07008780 2.51841000 7.64341000
-0.21156000 2.47103000 7.62878000
0.07208910 2.46425000 7.63760000
0.07174250 2.50340000 7.64079000
0.07207520 2.54394000 7.65282000
0.07244460 2.58283000 7.66668000
-0.07566600 2.56128000 7.65613000
0.21051400 2.51341000 7.62809000
0.21779900 2.55024000 7.64103000
0.22463100 2.58765000 7.65636000
0.23786400 2.67210000 7.70223000
0.07772740 2.66724000 7.71285000
0.22463100 2.58765000 7.65636000
0.21779900 2.55024000 7.64103000
0.36632000 2.53321000 7.61621000
0.37710000 2.57190000 7.63143000
0.39645600 2.65955000 7.67678000
0.23786400 2.67210000 7.70223000
0.53221500 2.53036000 7.59674000
0.55505400 2.64110000 7.64833000
0.57416000 2.77063000 7.76496000
0.41382700 2.77835000 7.78432000
0.68214900 2.46163000 7.55668000
0.70949200 2.61381000 7.61541000
0.72996000 2.76251000 7.73676000
0.85686100 2.57556000 7.57587000
0.88059900 2.75693000 7.70292000
0.91799400 2.85885000 7.83844000
0.75890000 2.85808000 7.87859000
0.99433100 2.55898000 7.53689000
1.02719000 2.75293000 7.66435000
1.07283000 2.85517000 7.79743000
1.17282000 2.74878000 7.61920000
1.22472000 2.85446000 7.74887000
1.25646000 2.94430000 7.82747000
1.09927000 2.94446000 7.87492000
1.31790000 2.74410000 7.57133000
1.37445000 2.85120000 7.69308000
1.41023000 2.94093000 7.77101000
1.52253000 2.84528000 7.63171000
1.56213000 2.93396000 7.70831000
1.41586000 3.04084000 7.77130000
1.56950000 3.03219000 7.71239000
1.67003000 2.84315000 7.56297000
1.71406000 2.92716000 7.64355000
1.72121000 3.02591000 7.64678000
1.86517000 2.92560000 7.57408000
1.87253000 3.02438000 7.57800000
1.86090000 3.08386000 7.54536000
1.71215000 3.08385000 7.61711000
2.01567000 2.92838000 7.49825000
2.02370000 3.02921000 7.50316000
2.00843000 3.08508000 7.46675000
2.17173000 3.03776000 7.41774000
2.15233000 3.08459000 7.37735000
2.15233000 3.08459000 7.37735000
2.12355000 3.04718000 7.32248000
1.97878000 3.05069000 7.40515000
2.00843000 3.08508000 7.46675000
2.32016000 3.04225000 7.33050000
2.29759000 3.08399000 7.28890000
2.29759000 3.08399000 7.28890000
2.26811000 3.05155000 7.23655000
2.44451000 3.08565000 7.20011000
2.40998000 3.05477000 7.14386000
2.37392000 3.00741000 7.08702000
2.23519000 3.00062000 7.17882000
2.58411000 3.08538000 7.09742000
2.54707000 3.05662000 7.04277000
2.51095000 3.01041000 6.99007000
2.68170000 3.05761000 6.93636000
2.64295000 3.01077000 6.88552000
2.60185000 2.95129000 6.83090000
2.47091000 2.94986000 6.93413000
2.81223000 3.05739000 6.82368000
2.77127000 3.01421000 6.77427000
2.72595000 2.95038000 6.71928000
2.89505000 3.01702000 6.65853000
2.84764000 2.95447000 6.60571000
2.79173000 2.86069000 6.54293000
2.67395000 2.85892000 6.65533000
3.01253000 3.02057000 6.53680000
2.96392000 2.95518000 6.48651000
2.90643000 2.86194000 6.42769000
3.07268000 2.95132000 6.36140000
3.01509000 2.85957000 6.30672000
2.95048000 2.70398000 6.24566000
2.84324000 2.70853000 6.36229000
3.17948000 2.95243000 6.23553000
3.11876000 2.85742000 6.18273000
3.05010000 2.70367000 6.12383000
3.21917000 2.85830000 6.05672000
3.14586000 2.69989000 6.00042000
3.09327000 2.45665000 5.96207000
2.99995000 2.46394000 6.08302000
3.31262000 2.85904000 5.92815000
3.23730000 2.69649000 5.87488000
3.17932000 2.45192000 5.83688000
3.32149000 2.69290000 5.74617000
3.26274000 2.44885000 5.71090000
3.28722000 2.15322000 5.72633000
3.20376000 2.15593000 5.85415000
3.40142000 2.69335000 5.61481000
3.34143000 2.44770000 5.58265000
3.36400000 2.15158000 5.59444000
3.41370000 2.44816000 5.45081000
3.44111000 2.15330000 5.46320000
3.43622000 1.85911000 5.63333000
3.51122000 1.86037000 5.49834000
3.48301000 2.44900000 5.31725000
3.51362000 2.15571000 5.33037000
3.58739000 1.86450000 5.36468000
3.58025000 2.15890000 5.19471000
3.65569000 1.86814000 5.22753000
3.74800000 1.57994000 5.26868000
3.67835000 1.57514000 5.40824000
3.64233000 2.16199000 5.05754000
3.71980000 1.87272000 5.08865000
3.81081000 1.58441000 5.12588000
3.77870000 1.87756000 4.94779000
3.87325000 1.59112000 4.98296000
3.97171000 1.30324000 5.01966000
3.91078000 1.29662000 5.16637000
3.82724000 1.88110000 4.80343000
3.92698000 1.59644000 4.83681000
4.02850000 1.31042000 4.87097000
3.96629000 1.59815000 4.68616000
4.07929000 1.31746000 4.72039000
4.16816000 1.02644000 4.74607000
4.11850000 1.01849000 4.90002000
4.06278000 1.01044000 5.05190000
4.24421000 0.73077800 4.76610000
4.19309000 0.72052100 4.92177000
4.13553000 0.71000200 5.07477000
4.28964000 0.42739300 4.77469000
4.24129000 0.41474900 4.93169000
4.18762000 0.40243800 5.08686000
4.29191000 0.11882700 4.76576000
4.24488000 0.10291800 4.92128000
4.19117000 0.08730430 5.07452000
4.24892000 -0.18753900 4.73541000
4.20408000 -0.20764000 4.88748000
4.28603000 -0.16749800 4.58213000
4.31773000 -0.14830400 4.42781000
4.23373000 -0.43770700 4.38766000
4.19834000 -0.45993700 4.53364000
4.34555000 -0.13117200 4.27357000
4.26222000 -0.41615000 4.24163000
4.36599000 -0.11517300 4.11794000
4.28748000 -0.39687400 4.09442000
4.16300000 -0.66008900 4.05379000
4.13667000 -0.68551200 4.18830000
4.10174000 -0.70877100 4.32251000
4.00037000 -0.90068800 3.97709000
3.96794000 -0.92922500 4.09874000
4.02822000 -0.87502400 3.86097000
4.04882000 -0.85097200 3.74691000
3.96342000 -0.95614900 3.69896000
3.94018000 -0.98209400 3.80666000
4.02822000 -0.87502400 3.86097000
4.06170000 -0.82927700 3.63644000
3.98483000 -0.92688400 3.59407000
3.91182000 -1.00167000 3.52419000
3.88080000 -1.04127000 3.62314000
3.79808000 -1.11694000 3.53257000
3.75880000 -1.15456000 3.63812000
3.84730000 -1.07795000 3.73285000
3.84670000 -1.06248000 3.43065000
3.89561000 -1.00299000 3.34050000
3.84257000 -1.04482000 3.22751000
3.78282000 -1.11364000 3.32098000
3.72522000 -1.16838000 3.42184000
3.72069000 -1.15018000 3.20563000
3.65518000 -1.21318000 3.30752000
3.59273000 -1.26497000 3.41723000
3.67501000 -1.21562000 3.52992000
3.53422000 -1.30677000 3.53005000
3.62383000 -1.25335000 3.64138000
3.71668000 -1.18929000 3.74785000
3.81578000 -1.10968000 3.84222000
3.57146000 -1.28666000 3.75610000
3.67187000 -1.21864000 3.86032000
3.77497000 -1.13684000 3.95432000
3.62287000 -1.24650000 3.97616000
3.72852000 -1.16204000 4.07006000
3.83221000 -1.06610000 4.15239000
3.87369000 -1.03904000 4.03499000
3.91012000 -1.01013000 3.91918000
3.96794000 -0.92922500 4.09874000
4.00037000 -0.90068800 3.97709000
3.92941000 -0.95502400 4.22166000
3.92941000 -0.95502400 4.22166000
3.88349000 -0.97861200 4.34591000
4.06086000 -0.73204900 4.45829000
3.83021000 -0.99937500 4.47025000
4.01378000 -0.75564200 4.59363000
4.15761000 -0.48263900 4.67904000
4.11114000 -0.50609500 4.82412000
4.05669000 -0.52799400 4.96764000
4.15150000 -0.22715600 5.03748000
4.08910000 -0.24443800 5.18455000
4.13232000 0.07234440 5.22633000
4.02245000 -0.26076600 5.33012000
4.06483000 0.05868740 5.37495000
4.05691000 0.37877100 5.38788000
4.12548000 0.39021300 5.23877000
4.00548000 0.69044500 5.37463000
4.06764000 0.69827900 5.22346000
3.93725000 0.99540300 5.34939000
4.00075000 1.00214000 5.20092000
3.84518000 1.29024000 5.31104000
3.77009000 1.28286000 5.45115000
3.69726000 1.27938000 5.59262000
3.60338000 1.57121000 5.54547000
3.52520000 1.56901000 5.68151000
3.44095000 1.56704000 5.81400000
3.35500000 1.85921000 5.76505000
3.26584000 1.85912000 5.89157000
3.18354000 1.86453000 6.02181000
3.11696000 2.16095000 5.97971000
3.02519000 2.16642000 6.10127000
2.93058000 2.17240000 6.22023000
2.90341000 2.46811000 6.20209000
2.80300000 2.47199000 6.31775000
2.69771000 2.47491000 6.42879000
2.73288000 2.71036000 6.47636000
2.61860000 2.71027000 6.58546000
2.49814000 2.70807000 6.68819000
2.55030000 2.85678000 6.76219000
2.42399000 2.85497000 6.86543000
2.29433000 2.85407000 6.96165000
2.33687000 2.94397000 7.02871000
2.19961000 2.93791000 7.11755000
2.06165000 2.93624000 7.20457000
2.09408000 2.99770000 7.26646000
1.95036000 2.99887000 7.34598000
1.80713000 2.99684000 7.42125000
1.83341000 3.05046000 7.48207000
1.86090000 3.08386000 7.54536000
1.68667000 3.04931000 7.55198000
1.71215000 3.08385000 7.61711000
1.53787000 3.04791000 7.61426000
1.55941000 3.08404000 7.67591000
1.55941000 3.08404000 7.67591000
1.40345000 3.07902000 7.72598000
1.24980000 3.08473000 7.78168000
1.26132000 3.04404000 7.82733000
1.10364000 3.04295000 7.87583000
0.94290500 3.04408000 7.91905000
0.94050700 2.94734000 7.92028000
0.77602900 2.95277000 7.95141000
0.60901100 2.95916000 7.97896000
0.59588200 2.86518000 7.90516000
0.42963900 2.87150000 7.92305000
0.26172100 2.87623000 7.92879000
0.25142200 2.78129000 7.79781000
0.08743830 2.77750000 7.80091000
0.25142200 2.78129000 7.79781000
-0.07602350 2.77221000 7.78845000
-0.08082550 2.65169000 7.69723000
-0.23594500 2.62420000 7.67124000
-0.22326000 2.51693000 7.63735000
-0.38900900 2.58116000 7.64228000
-0.36998300 2.45121000 7.61614000
-0.35411800 2.40434000 7.61629000
-0.45793800 2.25964000 7.59999000
-0.54836600 2.12630000 7.59898000
-0.49533500 2.08944000 7.61006000
-0.58884100 1.97130000 7.61723000
-0.53280400 1.95247000 7.62963000
-0.48121200 1.93771000 7.64992000
-0.44782300 2.06661000 7.62672000
-0.54804600 1.81195000 7.66220000
-0.49465400 1.80823000 7.68404000
0.01371730 1.23428000 7.91477000
0.14972000 1.22555000 7.91555000
0.15083800 1.28208000 7.91295000
0.01971910 1.28873000 7.90576000
0.14972000 1.22555000 7.91555000
0.28559100 1.22580000 7.90484000
0.27754000 1.28241000 7.90944000
0.15083800 1.28208000 7.91295000
0.15074200 1.16608000 7.93071000
0.29735500 1.16785000 7.91952000
0.43751600 1.19855000 7.89423000
0.31128400 1.10988000 7.93472000
0.46312500 1.14687000 7.90645000
0.59507600 1.20824000 7.83675000
0.48720400 1.08774000 7.92151000
0.63819900 1.15787000 7.85196000
0.51753400 1.02082000 7.93905000
0.68652900 1.09205000 7.88702000
0.54970900 0.93217800 7.95737000
0.73684000 0.99723200 7.91735000
0.58221800 0.81681200 7.97265000
0.77656900 0.87740800 7.93527000
0.60639000 0.69141000 7.97999000
0.39638000 0.78681700 8.00385000
0.41884500 0.66364300 8.02046000
0.43613500 0.53078800 8.03239000
0.23743200 0.65088800 8.04847000
0.25582700 0.50960300 8.05349000
0.26736900 0.36232900 8.06060000
0.26736900 0.36232900 8.06060000
0.25582700 0.50960300 8.05349000
0.08143000 0.49474600 8.06624000
0.09491620 0.34443000 8.07139000
0.10416900 0.19449700 8.07284000
0.27316700 0.21450600 8.06784000
-0.07273200 0.33236200 8.07297000
-0.06221020 0.18270200 8.07193000
-0.05345190 0.04386600 8.04331000
-0.22341600 0.17519700 8.05462000
-0.21089800 0.03711930 8.03082000
-0.20078800 -0.09174540 8.00212000
-0.36377200 0.03008000 8.01484000
-0.34674300 -0.10131400 7.99067000
-0.33000300 -0.21853300 7.96199000
-0.48890400 -0.10153300 7.95844000
-0.46037100 -0.21437300 7.93569000
-0.43962500 -0.30449800 7.90874000
-0.61946800 -0.20967200 7.91502000
-0.59908900 -0.30668800 7.92294000
-0.81699300 -0.20577800 7.88250000
-0.78730300 -0.30173300 7.86768000
-0.75899700 -0.40916900 7.87272000
-1.01546000 -0.30540200 7.83072000
-0.97775100 -0.41036400 7.82265000
-0.93202400 -0.48735600 7.76467000
-0.70935200 -0.50532400 7.83638000
-0.87769500 -0.57344700 7.70139000
-0.66366500 -0.61293300 7.77744000
-0.83767100 -0.70374900 7.64297000
-0.60189600 -0.73032400 7.72473000
-0.78891800 -0.83831500 7.61885000
-0.60590200 -0.83968500 7.62573000
-1.09602000 -0.71543400 7.57963000
-1.03296000 -0.83585500 7.54444000
-1.27551000 -0.85570000 7.47704000
-1.20031000 -0.95726500 7.38780000
-1.48337000 -0.87171100 7.34790000
-1.39918000 -0.97937700 7.27813000
-1.33275000 -1.09478000 7.20503000
-1.60213000 -1.02563000 7.14758000
-1.52970000 -1.12272000 7.08021000
-1.46260000 -1.20917000 7.00095000
-1.72462000 -1.15660000 6.93767000
-1.65538000 -1.23643000 6.87148000
-1.59444000 -1.30503000 6.80496000
-1.84398000 -1.25615000 6.73476000
-1.78213000 -1.32619000 6.67947000
-1.72271000 -1.37683000 6.61916000
-1.95131000 -1.33236000 6.54039000
-1.89272000 -1.38565000 6.49093000
-1.84111000 -1.43335000 6.44332000
-2.04956000 -1.39503000 6.35650000
-1.99651000 -1.44134000 6.31336000
-1.94861000 -1.48319000 6.27229000
-2.14262000 -1.44544000 6.17689000
-2.09249000 -1.48809000 6.13798000
-2.04646000 -1.52784000 6.10268000
-2.22770000 -1.49271000 5.99656000
-2.17947000 -1.53203000 5.96239000
-2.13771000 -1.57655000 5.93439000
-2.00527000 -1.57207000 6.07126000
-2.30277000 -1.53569000 5.81381000
-2.26225000 -1.58151000 5.79046000
-2.13771000 -1.57655000 5.93439000
-2.26225000 -1.58151000 5.79046000
-2.25195000 -1.64321000 5.79162000
-2.37528000 -1.58617000 5.63645000
-2.37038000 -1.64955000 5.64224000
-2.38096000 -1.71492000 5.65959000
-2.47765000 -1.65714000 5.48343000
-2.49034000 -1.72359000 5.49944000
-2.50878000 -1.79160000 5.52023000
-2.58975000 -1.72813000 5.33137000
-2.61150000 -1.79853000 5.35101000
-2.62734000 -1.88654000 5.37114000
-2.70496000 -1.80229000 5.17835000
-2.72823000 -1.89356000 5.20131000
-2.76831000 -1.99813000 5.23254000
-2.79298000 -1.90929000 5.01548000
-2.84717000 -2.01887000 5.04929000
-2.90513000 -2.14309000 5.08846000
-2.92512000 -2.03922000 4.86459000
-2.94995000 -2.17550000 4.88911000
-2.96334000 -2.32101000 4.91092000
-3.01222000 -2.20168000 4.69006000
-3.02800000 -2.34216000 4.71277000
-3.09000000 -2.47202000 4.74539000
-3.08008000 -2.36561000 4.50352000
-3.12061000 -2.50106000 4.53875000
-3.15890000 -2.63301000 4.57061000
-3.15847000 -2.52634000 4.33557000
-3.19870000 -2.65300000 4.37545000
-3.23582000 -2.67193000 4.19040000
-3.26251000 -2.77708000 4.21135000
-3.28426000 -2.79709000 4.03293000
-3.29760000 -2.80893000 3.85550000
-3.34640000 -2.91413000 3.85464000
-3.34717000 -2.91158000 3.66230000
-3.33930000 -2.90999000 3.46311000
-3.38144000 -2.99915000 3.45314000
-3.36300000 -2.99742000 3.24373000
-3.32559000 -2.98877000 3.03142000
-3.36047000 -3.06857000 3.02060000
-3.30500000 -3.05116000 2.81174000
-3.33239000 -3.12811000 2.80195000
-3.23997000 -3.03554000 2.60819000
-3.26771000 -3.11354000 2.59645000
-3.27555000 -3.15206000 2.59257000
-3.19614000 -3.10468000 2.39441000
-3.20496000 -3.14325000 2.38999000
-3.12121000 -3.13770000 2.19146000
-3.11795000 -3.17460000 2.19089000
-3.02058000 -3.16982000 1.99350000
-2.90714000 -3.16729000 1.80309000
-2.67854000 -3.15061000 1.68861000
-2.54408000 -3.14483000 1.52239000
-2.39810000 -3.14026000 1.36623000
-2.33366000 -3.09485000 1.41933000
-2.18353000 -3.09114000 1.27292000
-2.02683000 -3.09256000 1.13334000
-2.01435000 -2.97429000 1.13866000
-1.84523000 -2.98259000 1.01580000
-1.66874000 -2.99178000 0.90283100
-1.65343000 -2.83367000 0.90661300
-1.46992000 -2.83131000 0.80369700
-1.28625000 -2.82480000 0.70239700
-1.24226000 -2.63405000 0.75824800
-1.05426000 -2.62165000 0.67312000
-0.86168000 -2.60454000 0.60345500
-0.81553500 -2.33026000 0.68189800
-0.62309100 -2.31918000 0.63986200
-0.43264500 -2.30354000 0.59717600
-0.41056500 -2.05703000 0.66383300
-0.22509900 -2.04394000 0.62133700
-0.03772440 -2.02778000 0.58617400
-0.02999380 -1.84082000 0.62823400
0.15773700 -1.82786000 0.61503800
0.16283100 -1.67900000 0.66477400
0.34586600 -1.82335000 0.62288400
0.34602500 -1.67352000 0.66563000
0.34620000 -1.61148000 0.69506900
0.16547800 -1.61760000 0.69651600
0.34620000 -1.61148000 0.69506900
0.34602500 -1.67352000 0.66563000
0.52813800 -1.66665000 0.67338100
0.52603000 -1.60441000 0.70384400
0.52603000 -1.60441000 0.70384400
0.52245700 -1.56841000 0.75685600
0.34679400 -1.57186000 0.74537100
0.34620000 -1.61148000 0.69506900
0.70422900 -1.59381000 0.72350300
0.69640200 -1.56008000 0.77992200
-0.54379200 -1.60952000 0.85519900
-0.55786300 -1.65531000 0.81367900
-0.72128300 -1.62157000 0.90822500
-0.73682700 -1.66823000 0.86843600
-0.73682700 -1.66823000 0.86843600
-0.88653100 -1.63162000 0.98299600
-0.90704000 -1.68054000 0.93821600
-0.90704000 -1.68054000 0.93821600
-1.07009000 -1.69759000 1.01263000
-1.08675000 -1.76078000 0.98312500
-1.25427000 -1.76630000 1.06225000
-1.41772000 -1.76509000 1.15351000
-1.45600000 -1.92006000 1.11027000
-1.62074000 -1.92050000 1.21351000
-1.77757000 -1.92205000 1.32959000
-1.82534000 -2.13750000 1.29298000
-1.97618000 -2.13915000 1.42349000
-2.12142000 -2.14327000 1.56203000
-2.19166000 -2.41925000 1.51643000
-2.33429000 -2.42377000 1.66338000
-2.46767000 -2.42664000 1.81807000
-2.54314000 -2.67833000 1.77194000
-2.66702000 -2.68150000 1.93725000
-2.76981000 -2.68474000 2.11670000
-2.80726000 -2.87340000 2.09789000
-2.91001000 -2.87851000 2.27920000
-2.99241000 -2.88253000 2.46948000
-2.97441000 -3.03483000 2.47574000
-3.04671000 -3.03082000 2.66562000
-3.10861000 -3.02856000 2.85973000
-3.12652000 -3.14377000 2.85255000
-3.16402000 -3.15105000 3.05318000
-3.18405000 -3.16331000 3.25497000
-3.27520000 -3.19839000 3.24203000
-3.28905000 -3.20833000 3.44705000
-3.29282000 -3.21314000 3.65113000
-3.42739000 -3.22254000 3.64549000
-3.45685000 -3.20731000 3.85164000
-3.43205000 -3.23246000 3.85150000
-3.42790000 -3.23896000 4.05677000
-3.44846000 -3.21147000 4.05748000
-3.42563000 -3.20431000 4.26263000
-3.42028000 -3.16494000 4.25929000
-3.38256000 -3.15483000 4.46264000
-3.33218000 -3.14836000 4.66483000
-3.30618000 -3.06433000 4.65206000
-3.24956000 -3.05917000 4.85328000
-3.18093000 -3.05936000 5.05377000
-3.14651000 -2.96327000 5.03428000
-3.07149000 -2.96183000 5.23083000
-2.98431000 -2.95956000 5.42265000
-2.94927000 -2.85035000 5.39804000
-2.85189000 -2.84729000 5.58352000
-2.81435000 -2.67588000 5.54929000
-2.74336000 -2.84926000 5.76441000
-2.70364000 -2.66046000 5.72173000
-2.67779000 -2.52829000 5.69395000
-2.58236000 -2.64273000 5.88813000
-2.55922000 -2.51350000 5.85759000
-2.53991000 -2.36832000 5.83209000
-2.41853000 -2.50172000 6.00827000
-2.39807000 -2.36545000 5.97739000
-2.39072000 -2.21982000 5.97146000
-2.25711000 -2.35467000 6.13502000
-2.22860000 -2.22512000 6.10348000
-2.20471000 -2.09001000 6.07791000
-2.08246000 -2.21896000 6.25546000
-2.07161000 -2.08372000 6.23375000
-2.05096000 -1.95662000 6.19573000
-1.89800000 -2.08590000 6.33935000
