32.45480000 6.63490000 75.04550000
-45.15610000 29.50480000 -36.10610000
-44.88750000 29.63600000 -36.32170000
-45.47830000 29.36420000 -35.84380000
-59.93070000 28.70510000 42.96110000
-50.20930000 28.61890000 51.94600000
-34.64680000 34.58440000 40.55540000
-35.48960000 34.59900000 39.99460000
-40.02690000 34.55130000 36.20330000
-41.38640000 34.56140000 34.89620000
-44.23860000 36.61260000 31.85510000
17.95110000 31.61610000 -45.35800000
17.95600000 31.70340000 -45.30970000
16.93160000 31.58390000 -45.90380000
17.78520000 32.36520000 -45.09480000
18.06740000 31.61310000 -45.29780000
14.27700000 28.70500000 -57.94550000
21.51170000 29.35860000 -53.31820000
13.51390000 27.38100000 -63.72330000
-66.87000000 -31.78880000 -46.17300000
-66.61870000 -32.54570000 -43.76960000
-68.36520000 -29.37070000 -43.26400000
-71.78870000 22.94120000 43.67230000
-68.39640000 26.42610000 43.91240000
-69.41530000 23.93440000 40.96770000
-46.37650000 36.66420000 -33.73960000
-46.05180000 32.78790000 -35.94030000
-43.80050000 36.39460000 -39.49210000
-46.28720000 28.91150000 -35.24570000
-49.69890000 31.08500000 -29.47860000
-46.92120000 28.53620000 -34.75200000
-48.24080000 28.58320000 -33.02290000
-47.34100000 -33.70600000 -58.17080000
-48.02110000 -31.84500000 -59.90840000
-42.71180000 -34.30950000 -58.87370000
-46.60640000 -35.51900000 -56.49640000
-62.06720000 -29.80390000 -54.76990000
-65.15880000 -28.65540000 -52.06290000
-61.29100000 -29.83710000 -55.48220000
-40.73550000 -28.97060000 -66.00110000
-47.64860000 -27.27420000 -63.59910000
-45.94180000 -24.58030000 -66.94180000
-46.51270000 -35.80080000 -56.12640000
-44.43570000 -36.09820000 -54.86140000
-10.51390000 30.76010000 -52.05690000
-6.07490000 30.95570000 -52.08010000
-14.96350000 30.86740000 -51.54770000
-9.98000000 33.45230000 -51.21110000
-48.04560000 -31.72360000 -60.02170000
-48.18700000 -31.70680000 -59.99150000
-42.06280000 -32.01010000 -62.33270000
-48.30580000 39.63120000 32.90220000
-49.23580000 39.04580000 27.86840000
-54.79480000 39.75570000 22.15560000
-45.28920000 -37.60730000 -52.69370000
-45.65060000 -37.03270000 -53.84180000
-43.54690000 -37.70290000 -52.40210000
-44.98620000 -38.01660000 -51.86350000
-45.23240000 33.41540000 -34.00740000
-44.59460000 29.59920000 -37.65600000
-49.78200000 37.28540000 24.43320000
-47.40850000 38.28910000 28.89860000
-37.96150000 35.73470000 37.98280000
-42.28410000 37.83100000 34.80520000
-67.45230000 -29.58260000 -48.08630000
-68.66080000 -25.60080000 -46.61080000
-55.47290000 -30.01440000 -58.19530000
-55.87210000 -27.88230000 -58.63300000
-50.59660000 -28.66810000 -60.97690000
-80.81570000 12.42080000 41.11070000
-82.83240000 11.99710000 33.24510000
-82.56770000 9.05860000 39.65130000
-56.03460000 -22.82820000 -61.64910000
20.37440000 35.91260000 -50.91360000
20.07500000 34.20520000 -50.60990000
14.98580000 33.34280000 -52.88840000
-46.58590000 27.60080000 50.25670000
-60.21540000 -30.18320000 -56.15380000
-59.62530000 -25.18590000 -58.44280000
-58.42960000 -30.57520000 -56.88660000
-63.36370000 -29.75770000 -53.34440000
-64.35080000 -29.86930000 -52.30560000
-66.36060000 -30.89530000 -48.80060000
18.38180000 37.97450000 -51.34700000
13.27600000 35.78620000 -54.52130000
20.11740000 32.90450000 -50.47830000
20.08010000 32.30820000 -50.62450000
15.05860000 31.73730000 -53.15450000
-50.51660000 27.90190000 48.82490000
-63.01350000 29.19500000 44.21460000
20.66600000 30.50510000 -51.71620000
-44.17360000 -39.39670000 -49.15920000
-80.42200000 9.99560000 52.12590000
-63.80350000 27.84530000 41.58030000
-67.12100000 25.94450000 40.80490000
-50.30230000 27.95090000 43.75770000
20.06660000 33.54590000 -50.49250000
-46.07910000 -36.53840000 -54.90920000
-53.71340000 28.37320000 47.54920000
-66.21860000 -33.11460000 -42.12960000
-65.39440000 -34.11150000 -39.20370000
-69.62750000 -28.54470000 -40.75380000
-65.32960000 -34.21120000 -38.28100000
-64.80740000 -34.75970000 -38.02860000
-65.90440000 -33.79110000 -37.17820000
-42.41400000 34.53460000 33.91350000
-45.34750000 34.40110000 30.61910000
14.93060000 31.54160000 -46.91660000
-49.08110000 -31.72930000 -59.65030000
-50.76480000 -31.70530000 -59.14340000
-46.77060000 -35.30860000 -56.70370000
-44.56490000 -38.73750000 -50.49190000
-66.69210000 25.36970000 -37.65340000
-72.13500000 22.23750000 -39.63590000
-72.95400000 24.10120000 -30.52390000
-86.90900000 9.03690000 -23.91010000
-84.82970000 7.20530000 -31.81220000
-86.65060000 2.83760000 -28.44080000
27.40780000 9.88140000 -77.56570000
32.41640000 6.95920000 -75.62420000
30.50400000 2.76960000 -77.31240000
-54.41730000 24.99730000 -53.54440000
-61.86350000 23.28920000 -50.46720000
-58.95950000 25.69370000 -46.82080000
-42.03330000 12.68640000 -75.86220000
-49.99250000 11.55360000 -71.93400000
-46.70440000 15.85790000 -71.75180000
-20.20360000 18.84140000 -79.52800000
-31.24550000 14.80610000 -79.06790000
-30.09700000 18.79900000 -76.93290000
16.52020000 -0.74630000 -82.55190000
23.05000000 2.35900000 -80.37560000
23.40170000 -3.82610000 -80.58990000
-74.82030000 21.84770000 35.16510000
-75.67530000 19.05070000 41.27290000
-72.31280000 21.88310000 38.59890000
-66.64670000 27.68110000 -21.06200000
-66.03980000 28.81260000 -10.47530000
-64.10080000 29.26850000 -15.17270000
-83.63900000 1.81820000 -36.58610000
-50.25740000 18.32260000 -67.75680000
-57.06510000 13.80930000 -66.12920000
-55.74370000 17.50260000 -64.57770000
-76.54710000 4.44870000 -48.51780000
-71.27200000 3.48960000 -55.83900000
-75.72750000 -1.46900000 -50.33560000
-86.25360000 12.18290000 22.79610000
-88.83640000 5.05030000 19.18980000
-85.71390000 7.51470000 28.83730000
-87.22870000 -12.08470000 -23.01040000
-88.62450000 -13.29700000 -14.62610000
-88.60660000 -6.24500000 -22.11840000
-52.48620000 29.30890000 -26.40720000
-58.01240000 39.81150000 13.11520000
-54.85760000 39.37520000 18.89180000
-56.83370000 39.19080000 10.77210000
8.35840000 34.73240000 -48.57980000
2.31030000 34.37670000 -50.15490000
4.62840000 31.25930000 -50.62800000
-23.56980000 35.59530000 -48.17950000
-17.43090000 33.80920000 -50.14090000
-17.42870000 36.37290000 -49.98310000
32.83380000 -12.28830000 -74.88460000
32.63850000 -15.41470000 -73.76490000
29.06260000 -11.69330000 -76.99570000
-63.85420000 28.72350000 17.14550000
-69.42390000 27.49010000 15.82140000
-64.86410000 27.31200000 29.53290000
-39.20890000 -11.65370000 -77.67010000
-35.18860000 -10.02710000 -79.66440000
-34.12730000 -14.48910000 -77.92040000
-1.95540000 6.74720000 -85.03030000
-2.46780000 -0.02820000 -85.57330000
-6.90540000 5.98270000 -85.35390000
-8.29000000 -18.56150000 -81.20510000
-0.42670000 -23.70590000 -77.87140000
-11.74250000 -25.80090000 -76.32750000
-61.75530000 33.29470000 -14.53880000
-62.91180000 33.16570000 -6.96080000
-62.80460000 36.13270000 -12.52960000
-51.06410000 33.55700000 -34.41360000
-50.26840000 35.64980000 -33.31580000
-48.17470000 36.04780000 -37.18990000
4.38320000 -31.99160000 -70.56510000
8.56430000 -34.82690000 -66.57040000
2.09800000 -36.16620000 -65.60550000
-11.87660000 39.76250000 -54.56020000
-15.99020000 39.30220000 -55.98690000
-23.05430000 39.84670000 -53.09980000
-45.59690000 34.80150000 -43.13310000
-45.05350000 32.95940000 -42.71230000
-48.68890000 33.90830000 -38.29180000
-76.15430000 -21.98280000 -38.15890000
-71.04720000 -20.67100000 -47.45740000
-71.82450000 -26.28440000 -38.99380000
-53.81790000 36.15730000 15.30290000
-54.54290000 33.45020000 14.47730000
-56.20670000 35.45390000 6.64550000
-58.34310000 26.88670000 -42.33600000
-45.79200000 28.70700000 -47.08290000
-51.17310000 26.48050000 -51.64030000
-27.52580000 26.42400000 -65.66590000
-41.76030000 26.35790000 -59.23780000
-32.00880000 27.51290000 -59.53520000
-60.48220000 36.44810000 17.33640000
-58.05440000 38.84110000 20.82100000
-61.03900000 38.55160000 12.71380000
-50.45850000 33.30880000 34.03140000
-42.44010000 32.59870000 42.51060000
-46.25500000 35.35260000 39.63210000
-46.92120000 -3.05600000 -73.27060000
-40.97260000 -0.57280000 -75.86460000
-43.36980000 -8.15130000 -75.40790000
-67.16270000 -5.99570000 -60.40910000
-67.91320000 -11.37640000 -58.11760000
-70.99580000 -6.17130000 -55.58720000
-8.20120000 -4.98960000 -85.75720000
-8.26830000 2.73750000 -85.60940000
-43.11690000 5.15770000 -75.25600000
-46.79870000 3.18710000 -73.70920000
22.12560000 22.85770000 -70.98920000
21.61530000 18.75710000 -75.38930000
13.93390000 21.98630000 -75.02630000
4.09060000 10.45770000 -83.56090000
-6.90290000 8.99150000 -84.75590000
-3.97460000 12.84020000 -83.10730000
-82.70370000 15.59830000 -29.98710000
-84.88420000 16.25550000 -21.66980000
-80.68340000 18.65910000 -29.78260000
-72.14480000 8.95790000 -53.17590000
-41.59930000 38.25990000 42.95690000
-14.48180000 35.84570000 -57.79490000
-7.67060000 35.48800000 -58.21180000
-10.30370000 33.33920000 -57.36330000
-19.83740000 27.97540000 -61.56240000
-9.28740000 27.64280000 -64.45020000
-17.04820000 26.77310000 -67.05680000
-60.35890000 -8.88440000 -65.99990000
-64.55480000 -12.32880000 -61.10820000
-16.21140000 33.47290000 -56.82430000
-31.72620000 34.72940000 -52.64410000
-39.19700000 35.34950000 -48.47860000
-32.65690000 36.39870000 -52.20690000
30.84480000 16.98560000 -72.38870000
31.59410000 13.52920000 -73.93410000
26.79080000 16.62910000 -74.68150000
33.04980000 -7.62470000 -76.00480000
24.32970000 -7.92170000 -79.82990000
-0.09500000 -14.88470000 -82.57280000
-2.95730000 -8.53960000 -85.19340000
4.75270000 -9.65310000 -84.35340000
-39.41840000 31.10020000 -41.09570000
-41.59950000 35.79420000 -40.79380000
-42.56150000 33.85950000 -40.31270000
-78.52770000 16.21470000 39.95120000
-78.40290000 21.59430000 26.86830000
-81.74950000 16.62520000 28.77520000
-87.33280000 12.51860000 -18.90970000
-66.21490000 28.97270000 -2.38670000
-72.73990000 26.68350000 -9.51490000
-73.17560000 26.75140000 -1.50000000
-85.97210000 18.14410000 -9.26300000
-84.06430000 20.97850000 -0.25840000
-83.21800000 21.08130000 -10.34040000
-90.27340000 -10.64270000 -4.75430000
-89.15400000 -14.75810000 -2.97470000
-90.22200000 -10.94680000 2.56540000
-91.22030000 0.78250000 -4.48630000
-91.23160000 2.17220000 4.25660000
-90.65490000 6.36720000 -5.09770000
-60.99600000 38.39770000 -16.30940000
-61.14050000 35.93500000 -19.17300000
-60.91300000 39.48310000 8.42570000
-60.64700000 39.81790000 -0.83910000
-55.30170000 0.27940000 -69.89750000
-59.07400000 0.86850000 -67.64080000
-53.80410000 10.09190000 -69.86370000
-58.47120000 7.65950000 -67.34180000
-62.95680000 12.21740000 -61.84720000
-60.72310000 39.86750000 -9.87420000
-61.45160000 39.03290000 -13.56070000
-62.61710000 39.06150000 -3.90230000
-56.36170000 36.67210000 -7.89610000
-56.85060000 36.12230000 -1.01410000
-57.26770000 33.32800000 -1.58080000
-57.43280000 31.29840000 -9.23310000
-56.61460000 33.94290000 -8.27800000
-20.21130000 39.19340000 -51.21460000
-23.70530000 39.74650000 -51.42980000
18.33770000 39.08910000 -46.71380000
7.26700000 39.52260000 -52.76050000
10.45470000 38.64200000 -49.55180000
-20.97190000 16.36800000 -80.82230000
-13.76100000 12.08260000 -83.44530000
-20.54620000 10.67370000 -83.11830000
-17.55120000 -1.08770000 -85.00780000
-23.13920000 5.30770000 -83.78660000
-18.03240000 6.19100000 -84.51370000
-2.10410000 -32.32260000 -70.24040000
-7.49970000 -37.18890000 -65.11200000
-11.37410000 -31.73650000 -71.13470000
17.58450000 37.44430000 -45.08500000
17.94470000 38.53310000 -45.82390000
-61.61880000 34.30680000 14.07320000
-63.57340000 36.19330000 3.52880000
-62.73310000 33.70380000 5.40900000
-61.09860000 28.05840000 28.47280000
7.67570000 27.22910000 -64.69690000
4.40370000 26.31560000 -69.18850000
6.40610000 28.28580000 -61.76970000
4.57530000 15.33840000 -81.53370000
-54.47830000 39.70260000 -24.70510000
-58.46430000 35.81350000 -22.73070000
-59.27840000 38.56720000 -21.57700000
-57.94550000 39.97440000 -16.41960000
-57.45230000 39.70980000 -21.98280000
-87.55900000 16.48290000 0.93170000
-86.24600000 18.02860000 4.93140000
-90.37550000 7.57350000 6.05590000
-90.40860000 8.49070000 -1.14000000
-85.60120000 -7.87710000 -31.18090000
-79.66340000 -15.93060000 -38.63710000
-73.71680000 -15.88170000 -47.59530000
-24.94180000 -4.75110000 -83.81750000
-18.63540000 -13.44820000 -82.34290000
-26.42100000 -12.02450000 -81.24120000
-27.32270000 -7.86620000 -82.70250000
-57.12920000 34.17590000 -24.86340000
-54.14660000 36.53280000 -26.45440000
-55.55260000 34.28300000 -27.21780000
-70.48410000 26.21400000 -24.66490000
-60.20740000 28.60820000 -29.40380000
-65.34530000 26.44820000 -34.39520000
27.77570000 24.30320000 -66.09090000
21.31530000 25.55550000 -67.05200000
13.94680000 -11.22930000 -82.26810000
20.21240000 -14.35830000 -79.63410000
10.48110000 -18.89030000 -79.78420000
12.08570000 -31.74670000 -68.86540000
6.84660000 -27.77220000 -74.17380000
15.00930000 -25.78940000 -73.78410000
-52.13750000 33.93160000 20.04040000
-48.70690000 34.28630000 26.04730000
-24.88640000 21.43390000 -75.95830000
-13.38970000 22.01450000 -77.29500000
-3.61890000 22.38450000 -77.34410000
1.40560000 18.83950000 -80.16550000
-5.89170000 18.77960000 -80.54640000
31.30270000 -23.79600000 -68.46180000
30.40140000 -28.04200000 -65.07540000
27.87570000 -23.00450000 -71.04470000
-51.25700000 28.71010000 -42.12530000
-55.83900000 28.91040000 -35.16550000
-14.63240000 -35.51890000 -66.32560000
-14.63320000 -32.71270000 -69.60660000
-19.33530000 -36.66300000 -63.77970000
-19.20130000 -34.39610000 -67.20100000
-50.77170000 22.40900000 -62.47710000
-58.27690000 21.87830000 -57.28670000
-38.53460000 24.42890000 -65.58500000
-29.13880000 23.25700000 -71.74210000
15.90180000 24.37290000 -70.96870000
7.37960000 24.04860000 -73.54940000
14.15810000 26.47840000 -67.32910000
-53.87940000 39.50100000 26.36470000
-48.51970000 38.94900000 35.38600000
-57.82660000 36.84620000 23.36390000
-53.98300000 38.26920000 29.07850000
-75.97860000 -27.27580000 -30.09740000
-72.63750000 -28.49620000 -34.35900000
-69.83750000 -33.06650000 -31.00620000
-23.47120000 -30.57090000 -70.27730000
-28.18410000 -33.98680000 -65.75620000
-29.82390000 -27.64350000 -71.23900000
-18.39320000 -21.26740000 -78.46720000
-26.50830000 -20.49330000 -77.27440000
-13.69560000 -16.71170000 -81.80910000
-48.41700000 36.57000000 -33.00500000
-47.18480000 38.40830000 -35.20180000
-55.53110000 39.07940000 -17.15530000
-57.39360000 39.18580000 -9.79830000
-77.05750000 10.18660000 -46.06410000
-75.04200000 16.00360000 -45.01080000
-69.52800000 13.98450000 -54.11760000
-68.07810000 22.47480000 -45.03890000
-61.15310000 16.08440000 -61.11170000
-68.93460000 17.51050000 -51.44800000
-64.90040000 16.92710000 -56.91240000
-66.48070000 -35.28710000 -32.24620000
-69.71810000 -30.32330000 -36.07910000
-58.83310000 29.24400000 25.86670000
-59.01820000 31.24970000 20.94100000
-61.55870000 29.29580000 19.67410000
-43.42860000 29.30270000 44.36610000
-49.70940000 30.01520000 37.61620000
-50.46860000 28.90250000 39.14270000
-22.15890000 35.50000000 -56.23110000
-23.23090000 33.37770000 -55.09660000
-39.56870000 28.17290000 -53.22740000
-24.91070000 32.70600000 -48.32370000
-28.62660000 37.47280000 -47.67590000
-30.35280000 34.10610000 -46.79740000
10.53990000 18.37740000 -79.05100000
20.42400000 16.75090000 -77.09450000
11.98660000 13.14240000 -81.36070000
15.45710000 6.22030000 -82.25030000
9.80650000 2.61700000 -83.97810000
23.89780000 27.78850000 -58.17540000
23.42740000 26.82080000 -62.33780000
-31.28240000 39.35770000 -47.21990000
-25.62200000 38.33730000 -48.21280000
-47.11960000 36.79720000 -39.98220000
-79.30600000 22.76230000 19.16390000
-83.27040000 21.14400000 9.31140000
-81.61030000 20.33650000 20.52000000
-78.13770000 24.76090000 -2.90130000
-81.66740000 22.96270000 3.98860000
-76.17940000 25.32560000 10.84400000
-36.83210000 33.61130000 -43.58770000
-39.81010000 38.51040000 -46.05800000
-38.41090000 36.70560000 -43.81950000
19.62950000 -9.92100000 -81.07930000
10.51220000 -7.65910000 -83.82930000
17.03600000 -4.97920000 -82.52010000
11.06770000 -23.29990000 -76.69430000
5.17970000 -24.96770000 -76.68570000
-0.31590000 -19.50540000 -80.62420000
-4.06720000 -14.53530000 -83.01560000
-10.70090000 -12.64300000 -83.76970000
-17.45210000 -8.84420000 -84.49020000
-53.25990000 37.00100000 -20.33820000
-49.96290000 36.62170000 -26.91050000
-51.86430000 38.54400000 -24.85910000
-53.19720000 33.44410000 -21.43510000
-50.59240000 33.94530000 -26.17300000
-54.60500000 37.89480000 -25.08080000
-51.46900000 37.10460000 -26.93930000
-52.07160000 38.70800000 -26.08290000
-81.33380000 -12.22220000 -38.69440000
-84.43700000 -12.54400000 -31.46030000
-79.71760000 -5.94480000 -44.12440000
-78.95960000 -1.53670000 -45.71810000
-63.24600000 29.36890000 13.63900000
-61.14330000 31.85410000 14.10500000
-63.02150000 31.31690000 6.74660000
-63.17270000 31.59610000 -8.31830000
-78.97350000 2.41940000 -45.10150000
-81.59400000 7.87690000 -38.93400000
-81.44700000 13.02020000 -36.22020000
-75.36910000 20.95370000 47.18870000
-4.54390000 38.60300000 -57.11910000
-6.91790000 39.63180000 -55.46890000
9.74060000 38.53160000 -54.59010000
-55.95200000 -16.92270000 -66.11480000
-62.83210000 -16.46460000 -60.34250000
-61.01870000 -22.15920000 -58.38520000
-77.46130000 22.65580000 -26.52720000
-78.47660000 20.40430000 -31.32200000
-81.90320000 20.71680000 -20.29370000
14.79070000 29.95580000 -54.80700000
-9.55070000 29.31830000 -60.03510000
-19.17540000 29.50960000 -58.24000000
-8.44620000 30.82410000 -58.45820000
-53.37230000 -11.90290000 -70.30450000
-60.16290000 -14.04190000 -64.22900000
-46.76990000 -9.00540000 -73.48590000
-49.59410000 -7.24040000 -72.46230000
-58.53030000 29.72930000 -28.19680000
-60.48970000 31.57910000 -20.13240000
-57.35140000 32.27660000 -26.11540000
-62.51530000 29.55790000 -19.39660000
-62.66050000 30.99350000 -13.04170000
-89.99240000 2.36280000 -15.71740000
-86.19760000 -4.38420000 -30.57770000
-88.94680000 -0.21320000 -20.95590000
-62.29810000 27.71350000 39.58690000
-66.34380000 26.25100000 38.54090000
-61.26290000 27.67850000 33.79060000
-36.32580000 -6.83090000 -79.05810000
-37.92610000 7.70920000 -78.57680000
-33.89030000 -0.65410000 -80.40710000
-38.53870000 3.19210000 -77.50320000
-72.94940000 -11.92340000 -51.04800000
-69.26190000 -15.36240000 -54.08500000
16.71880000 39.33650000 -50.46740000
19.27540000 39.38030000 -48.55900000
20.08190000 38.32200000 -50.10800000
-91.16200000 -5.02080000 4.95850000
-91.22450000 -5.10090000 -1.31860000
-57.20380000 38.13500000 -2.94920000
-55.68510000 37.86520000 10.41030000
-53.89810000 38.56900000 17.97800000
-56.35810000 30.84150000 -15.40650000
-54.43280000 30.16710000 -21.56580000
-4.77130000 26.40220000 -69.42950000
-19.67790000 23.70260000 -73.63140000
-56.95100000 33.44240000 23.87970000
-54.15430000 32.30980000 28.82990000
-53.56850000 34.32840000 30.00140000
-56.95710000 31.97530000 24.38900000
-42.24280000 31.50130000 42.73810000
-17.89360000 31.55940000 -56.80220000
-10.54670000 31.72350000 -57.74900000
-30.10480000 31.70000000 -52.76910000
-23.43810000 31.75180000 -55.37480000
-24.49100000 29.76200000 -56.54310000
-56.54170000 32.79500000 7.68410000
-57.68970000 32.06950000 0.02510000
-55.97390000 36.02790000 27.00600000
-10.60370000 39.03840000 -52.68800000
-3.51980000 38.59910000 -52.35190000
-12.73890000 35.51470000 -50.78140000
-0.12740000 31.51530000 -57.34990000
8.46250000 31.77890000 -55.55210000
9.33340000 29.62670000 -56.98300000
8.33010000 33.38500000 -55.27740000
1.35280000 33.35550000 -56.81350000
4.47650000 35.56100000 -57.01370000
-83.67810000 13.18160000 28.72090000
-85.68590000 17.83340000 11.39490000
-84.34240000 17.76970000 18.22140000
-75.38410000 19.39440000 43.93210000
-78.00900000 15.77970000 45.55610000
20.42830000 8.64910000 -80.30430000
13.28990000 10.45840000 -81.96590000
23.01370000 13.88430000 -77.70290000
-42.66510000 38.15910000 -44.93590000
-45.01360000 36.60970000 -43.86520000
-45.73830000 38.59580000 -41.18320000
-38.33330000 37.84290000 -48.41720000
-34.88910000 6.27470000 -80.45820000
-28.55200000 3.06140000 -82.71560000
-30.26710000 -4.19200000 -82.51680000
-38.17230000 16.66580000 -75.54930000
-41.92890000 38.58250000 36.09930000
-63.73630000 35.89300000 -4.46050000
-63.11920000 33.09120000 -1.15050000
-63.25820000 37.02570000 -8.31170000
-50.10930000 29.79650000 -40.29200000
-42.43770000 31.39190000 -45.52690000
-44.36450000 29.54320000 -46.08540000
-30.52120000 29.57730000 -54.50310000
-65.35950000 0.31730000 -62.40170000
-61.78890000 -3.93430000 -65.59960000
-63.81100000 8.03000000 -62.61220000
-63.77270000 3.51380000 -63.69580000
-68.58570000 4.45610000 -58.73790000
-42.65850000 21.59140000 -68.96190000
-83.41130000 -17.18200000 -29.84990000
-80.22770000 -21.83030000 -30.83570000
-86.05960000 -20.88890000 -12.15760000
-85.24530000 -18.28840000 -22.49690000
-81.48750000 -26.13500000 -17.88620000
-49.26800000 31.68570000 -38.66200000
-55.28750000 30.11260000 -32.91050000
19.75950000 -19.05580000 -77.32610000
27.12000000 -16.52550000 -76.07100000
31.93850000 -19.95250000 -71.24210000
8.19610000 36.85550000 -55.96610000
1.86810000 37.91710000 -56.84380000
-2.37770000 35.25860000 -57.94320000
-71.89200000 24.82060000 30.55430000
-71.09620000 26.06640000 24.08440000
-76.16950000 23.90150000 23.76570000
-78.99020000 23.80570000 13.41400000
-45.68170000 -19.87530000 -70.43290000
-37.28080000 -18.68070000 -74.65450000
-38.35660000 -22.29700000 -71.97440000
-21.11560000 -27.08840000 -73.82830000
-71.54230000 27.23890000 4.28830000
-65.08820000 29.31000000 4.48410000
-63.47860000 31.62760000 1.10060000
-64.29190000 30.33560000 -3.16250000
-8.18140000 20.73370000 -78.93080000
-13.03610000 17.62580000 -81.06740000
-41.00830000 39.33260000 39.52220000
-79.91750000 22.58770000 -18.37650000
-88.02590000 -17.56960000 -7.07730000
-42.35080000 37.86610000 -42.46630000
-45.02180000 39.07310000 -37.14980000
-84.12270000 5.85690000 35.33840000
-57.77760000 39.05680000 3.64510000
-10.75750000 37.91130000 -57.64050000
-22.17830000 37.69260000 -55.80280000
-30.81820000 37.96630000 -52.59130000
-33.34110000 39.28720000 -50.19850000
-24.97240000 39.13250000 -54.09820000
-36.82300000 19.27870000 -74.02880000
-29.57250000 21.59790000 -74.38310000
-58.15300000 19.47100000 -60.82140000
-50.56050000 21.01640000 -64.68400000
-90.75610000 1.56650000 10.28730000
-89.59190000 9.15330000 10.62220000
-90.59900000 -4.82860000 11.41720000
-90.03280000 -2.02700000 15.71110000
9.31230000 37.17290000 -48.63490000
-12.26630000 37.42180000 -51.13700000
-5.68850000 35.73180000 -51.07900000
-4.98660000 37.53570000 -51.50640000
-89.46480000 11.48850000 5.12050000
-89.71550000 11.58300000 -1.66470000
-87.15090000 15.71540000 -12.46420000
32.02200000 10.43970000 -74.91490000
-19.48640000 30.81740000 -50.59240000
-25.49970000 30.67550000 -48.69470000
6.95500000 21.87700000 -76.76510000
1.55080000 25.22870000 -72.27480000
-12.34450000 25.85280000 -70.27680000
-9.88990000 24.47700000 -73.59530000
-27.28810000 35.97320000 -54.55980000
-47.59660000 -15.95870000 -71.91590000
-39.81780000 -24.24500000 -70.13600000
-89.27670000 10.78280000 -11.34000000
-88.77240000 7.90460000 -17.26280000
-78.43170000 17.30890000 -37.30750000
-64.86850000 19.97150000 -53.58540000
-70.69090000 19.76740000 -46.02860000
-90.14710000 -7.74480000 -12.43460000
-90.10960000 -3.89850000 -15.35660000
-90.77490000 0.59600000 -9.75300000
-80.97710000 -24.30240000 -24.27440000
-72.85390000 -31.74450000 -27.72610000
-78.43770000 -28.40720000 -21.68560000
1.25130000 -4.64230000 -85.43720000
9.47140000 31.38500000 -49.18150000
-76.61600000 19.25620000 -37.79400000
-42.40000000 39.37750000 40.04720000
12.55390000 39.39630000 -51.29440000
1.72890000 39.57550000 -54.73660000
-66.87250000 -20.62440000 -52.99650000
-66.12180000 -23.09420000 -52.73480000
-83.50450000 16.29410000 25.21130000
-87.03060000 15.38600000 12.92550000
-88.03100000 11.48950000 16.36430000
-70.29640000 -0.73430000 -57.33020000
-21.10650000 -36.09460000 -65.06170000
-25.24780000 -38.48970000 -59.62510000
-51.14150000 36.02880000 34.19950000
-30.42280000 -39.78030000 -56.04160000
-40.58950000 -38.17450000 -53.81240000
-35.95710000 -35.43290000 -60.57180000
-15.70610000 8.74590000 -84.27320000
-32.25700000 11.32260000 -80.14320000
-28.39780000 7.45350000 -82.30090000
-43.44010000 18.23240000 -71.81090000
-56.60660000 37.22570000 3.80090000
-58.01080000 39.10790000 -4.32020000
13.64240000 34.69580000 -46.60150000
17.40530000 35.45610000 -44.64350000
-78.47940000 15.47950000 49.04600000
-76.27810000 -10.64330000 -47.95030000
-83.35410000 -4.15560000 -37.56560000
29.29890000 -3.76240000 -78.27240000
6.69750000 8.03950000 -83.83930000
-32.34500000 37.81740000 -46.44550000
-35.88140000 38.67590000 -47.51210000
-88.30100000 14.59170000 7.02370000
-49.92450000 -20.12510000 -67.81790000
-0.06160000 29.72820000 -58.97710000
-1.15570000 28.54760000 -61.67530000
-55.76230000 33.45040000 -13.77570000
-55.34600000 36.49980000 -13.51030000
-55.95380000 38.28790000 -12.87890000
-30.92090000 33.38540000 -52.38110000
-38.88790000 32.92800000 -47.77820000
-38.69620000 29.55500000 -50.12570000
-37.76930000 31.68820000 -48.76620000
-51.17480000 35.82670000 21.55020000
-32.64460000 39.92770000 -48.45930000
-53.39950000 35.21880000 -28.94140000
-52.60060000 33.75520000 -31.68560000
-51.55640000 36.07930000 -30.40460000
-90.93970000 -5.65800000 -7.30970000
-48.77870000 35.80880000 -28.94460000
-51.02740000 36.31340000 -28.63840000
-40.26440000 11.25380000 -77.10660000
-43.79750000 9.01050000 -75.05930000
-39.85350000 9.07230000 -77.79050000
2.86550000 4.05620000 -84.83810000
-55.06730000 30.12180000 30.42750000
-59.10000000 28.07370000 40.65220000
-56.15810000 27.89710000 39.92930000
-56.92020000 27.96070000 35.87830000
-75.17520000 24.76570000 -20.30230000
-0.97400000 31.05140000 -51.76840000
-83.89320000 11.74930000 -31.21920000
-44.36090000 39.26840000 -41.32240000
-62.93290000 28.75200000 -22.68020000
33.02170000 -3.72640000 -76.38310000
32.84450000 0.76000000 -76.29310000
21.56440000 -23.94130000 -72.90630000
-6.56560000 -30.09860000 -72.70640000
-80.80870000 23.14570000 -9.13440000
-55.30550000 28.90260000 33.14990000
-51.19600000 31.53890000 33.82450000
-46.91810000 31.70480000 38.33330000
3.22930000 38.86930000 -51.88200000
-6.05810000 39.53090000 -54.59450000
-53.46360000 37.56720000 17.16180000
2.26530000 37.17100000 -50.50200000
-19.08940000 37.97510000 -50.16890000
-82.53420000 7.75110000 44.48700000
-80.66570000 10.76720000 47.99630000
-53.63670000 32.28280000 -32.07270000
-42.03730000 36.02600000 43.59560000
-62.16610000 36.97000000 10.78280000
-63.29590000 37.96510000 -0.35740000
-62.29810000 38.73940000 6.09330000
-67.31750000 9.94710000 -58.41880000
28.06230000 20.08950000 -71.60540000
29.20170000 21.97980000 -69.03790000
30.05410000 19.77270000 -70.80300000
-3.17520000 34.28710000 -51.01960000
-86.77020000 2.02530000 27.55560000
-66.14850000 28.70360000 6.50380000
-76.22820000 22.52240000 29.80680000
-86.99290000 -18.28680000 -13.84040000
-31.89140000 31.14870000 -45.75370000
-42.09990000 29.52750000 -40.20580000
-37.13860000 29.56690000 -43.00420000
-58.70810000 33.27900000 21.57280000
-50.29610000 2.21700000 -71.92800000
-52.90570000 -1.05740000 -71.04180000
-46.99960000 9.51450000 -73.39390000
-0.37300000 -26.10770000 -76.02770000
1.82330000 -24.29960000 -76.87890000
2.61140000 -28.79700000 -73.70570000
-42.62790000 -15.16020000 -74.49810000
-4.41530000 33.36280000 -57.35990000
-31.96700000 30.10230000 -46.00800000
6.08810000 -20.02570000 -79.90230000
2.49510000 -21.24780000 -78.93190000
-59.43120000 33.57830000 -21.50520000
-61.91740000 -26.91950000 -56.25270000
-63.76270000 -21.17740000 -56.33930000
-57.53230000 39.50500000 19.19970000
-68.35410000 25.55650000 35.07960000
-36.19070000 36.73490000 -45.05740000
-32.17320000 36.13850000 -45.92200000
-68.79630000 -23.08070000 -48.16290000
-49.36930000 37.55560000 35.95230000
-0.78410000 36.64120000 -57.78260000
-57.62500000 -6.07110000 -68.65330000
-16.04330000 -5.63610000 -85.13030000
-9.76930000 -9.23340000 -85.08070000
-88.33290000 14.85670000 -4.62450000
-83.49750000 18.93720000 -19.96510000
-54.61600000 -6.55930000 -70.55680000
-47.40460000 -12.43270000 -73.58610000
-38.08960000 38.22770000 -47.46980000
-88.20160000 0.59450000 23.33530000
-76.21270000 -5.28040000 -48.96620000
-77.56450000 -5.98350000 -47.38030000
-45.17460000 30.69060000 -37.40800000
-53.41710000 28.37210000 37.81510000
-64.59510000 29.79290000 -7.95980000
-25.47200000 12.58390000 -81.57600000
26.03850000 26.29230000 -62.47760000
-24.95950000 28.36070000 -59.15800000
-53.33260000 39.58940000 -25.09150000
-43.47320000 -11.95910000 -75.33670000
-46.66630000 39.52140000 -37.59900000
24.76290000 18.95070000 -72.96930000
26.05070000 23.17910000 -68.83100000
-59.09390000 39.66630000 -18.18540000
-32.90580000 -28.34460000 -69.71670000
-36.84920000 -32.70250000 -64.16770000
17.57040000 33.39310000 -44.85400000
18.86360000 39.46280000 -47.66080000
-27.09120000 39.89060000 -51.62510000
-85.62250000 -15.13810000 -25.51040000
-41.56350000 34.58020000 34.72390000
-59.83240000 33.16480000 16.96800000
-76.33100000 25.15730000 -11.92610000
-33.79960000 -23.63460000 -73.03120000
-32.05280000 -18.06180000 -76.73120000
-40.64060000 -10.06020000 -77.41330000
-75.01410000 25.09540000 19.84520000
-55.21870000 32.91920000 -28.77470000
-54.07700000 33.36430000 -29.66030000
-73.58030000 -7.70590000 -51.99270000
-2.28610000 -36.78880000 -64.83400000
-88.10870000 3.20100000 -23.04040000
-45.88230000 8.14050000 -74.88130000
-48.78900000 6.18670000 -72.40180000
-47.37240000 34.05190000 -31.10780000
-6.72920000 15.29470000 -82.41030000
22.36360000 -28.90000000 -68.04420000
-64.76400000 21.47690000 -51.31660000
-70.99390000 23.66300000 36.69300000
-77.10730000 20.07760000 34.26810000
-30.22480000 -14.60290000 -79.39980000
-31.57190000 -9.37890000 -81.26590000
-51.83970000 -5.42300000 -71.06480000
-90.10100000 -9.60350000 8.52070000
-11.78690000 -36.21720000 -66.19000000
-35.41190000 -24.95960000 -71.16170000
-80.23660000 12.56230000 44.96410000
-85.84820000 1.68830000 31.50300000
-83.37890000 5.30270000 39.62310000
-42.09830000 31.40590000 -40.07420000
-71.62410000 -32.63120000 -29.03830000
-15.88390000 -34.22990000 -68.32230000
-36.94400000 34.61190000 38.87240000
-37.33900000 -16.65590000 -75.82790000
-35.11710000 -17.06740000 -76.21020000
-36.85260000 -23.77910000 -71.57560000
-71.81270000 4.02500000 45.51130000
-71.86140000 3.15970000 45.71190000
-71.81250000 3.43470000 45.57050000
-71.81650000 3.19000000 45.60790000
-82.00430000 29.58000000 77.94380000
-75.11390000 33.54100000 65.51340000
-74.57800000 33.64040000 66.24220000
-76.05870000 31.56020000 69.17650000
-61.04360000 15.40830000 47.04780000
-61.03480000 15.43940000 47.11210000
-61.47650000 15.85880000 47.80800000
-62.46190000 15.17360000 46.32550000
-60.86050000 15.41360000 47.10810000
-53.54750000 14.62430000 56.32310000
-55.03250000 15.12570000 53.52460000
-55.73900000 15.21880000 50.74740000
-58.80120000 15.74950000 48.81590000
-57.58760000 15.72150000 49.92390000
-58.66580000 18.39960000 53.81430000
-59.13210000 22.14170000 58.79670000
-56.00820000 17.18150000 58.47510000
-79.45680000 28.06390000 78.27640000
-80.58890000 30.20510000 73.99040000
-82.04030000 27.81200000 76.18130000
-78.35210000 29.42920000 72.05110000
-76.79960000 30.02240000 75.04370000
-60.83090000 6.39880000 69.18830000
-62.38210000 5.88600000 69.10250000
-60.91280000 11.16600000 67.08460000
-75.80940000 29.98600000 64.30960000
-76.88900000 29.42430000 68.07320000
-74.30520000 27.33350000 64.61630000
-78.92570000 31.68540000 74.89510000
-77.61770000 31.54160000 71.44460000
-76.28400000 31.51420000 69.61440000
-78.33440000 31.51450000 72.46850000
-65.74970000 4.67550000 67.96570000
-65.70080000 3.71980000 68.31350000
-68.35570000 7.57400000 65.22630000
-52.71770000 14.26870000 58.11990000
-52.57960000 14.20260000 58.44990000
-52.36760000 14.05570000 59.40140000
-63.39450000 24.31810000 55.56370000
-66.52130000 31.55220000 58.78450000
-68.02010000 30.01190000 57.19520000
-75.01590000 31.13210000 70.42460000
-74.40520000 4.71790000 53.44150000
-73.60630000 6.24010000 49.89460000
-72.76570000 12.51060000 56.46500000
-78.29120000 28.03800000 75.52120000
-73.88840000 33.23270000 68.18990000
-77.41340000 28.85790000 73.27410000
-72.20380000 3.18710000 46.35650000
-71.24390000 34.54340000 61.05840000
-72.83400000 34.58540000 63.41260000
-72.82270000 33.85040000 60.96270000
-65.44330000 19.92550000 52.11590000
-66.26610000 25.91030000 55.40940000
-68.55170000 25.71900000 55.26720000
-76.57410000 31.12610000 68.75960000
-71.50440000 13.26230000 52.11840000
-71.70250000 7.95940000 46.16600000
-69.03340000 3.43160000 65.51440000
-70.02700000 3.22820000 64.46350000
-72.70760000 2.61210000 60.13180000
-74.16920000 2.40000000 56.21970000
-72.14500000 11.88050000 59.71380000
-60.31780000 15.52650000 47.53050000
-62.79530000 17.43300000 50.19150000
-68.92600000 34.21160000 65.22170000
-71.54520000 33.44750000 67.56210000
-72.39260000 34.84130000 65.53770000
-57.47410000 11.59280000 66.52440000
-59.12600000 7.28820000 68.76350000
-70.86800000 3.07720000 63.36740000
-70.72320000 9.89750000 62.27790000
-79.99380000 31.16770000 74.63980000
-65.61330000 4.78990000 68.02420000
-64.73220000 4.98280000 68.51180000
-66.81810000 4.27660000 67.28480000
-67.98330000 3.94820000 66.37900000
-61.01770000 16.52110000 65.10570000
-64.48370000 11.56580000 66.55280000
-76.69050000 31.50950000 65.93330000
-70.65750000 34.01620000 60.21490000
-69.47630000 32.64270000 58.86420000
-69.08080000 34.42490000 60.98390000
-62.93450000 25.03370000 63.96940000
-64.09390000 23.51510000 65.53790000
-64.58360000 29.75050000 64.76280000
-71.77630000 2.70040000 61.95060000
-64.88290000 16.62160000 49.15620000
-64.94170000 14.34650000 45.43140000
-71.74670000 5.81120000 45.20010000
-73.82640000 2.92620000 49.52820000
-57.20390000 15.68110000 50.35660000
-57.07480000 15.66140000 50.52880000
-56.16890000 15.45180000 51.72100000
-56.36630000 8.48310000 67.91790000
-77.93000000 31.41020000 75.39420000
-63.78600000 15.07180000 65.82320000
-65.18880000 22.87140000 66.22670000
-72.17690000 17.64440000 61.59800000
-74.41690000 24.92480000 61.52580000
-72.79710000 22.60280000 63.77690000
-70.90580000 19.22070000 64.52030000
-69.50890000 34.90980000 63.11560000
-71.83300000 32.42780000 59.02850000
-57.64780000 19.20410000 60.60980000
-53.48030000 14.36850000 61.26950000
-72.04370000 16.69350000 55.94540000
-70.66990000 17.70430000 53.92300000
-73.50310000 26.35790000 58.34200000
-69.99690000 27.56980000 67.85040000
-69.39140000 19.36110000 65.40590000
-72.01840000 26.78210000 66.66020000
-73.09060000 31.38640000 69.93430000
-66.27000000 32.21660000 65.63720000
-67.35690000 30.30950000 67.06400000
-72.05850000 27.93640000 69.58230000
-67.00180000 21.56400000 66.37320000
-67.30020000 14.82410000 65.32070000
-67.47590000 11.42630000 65.37110000
-74.91880000 28.93610000 61.41410000
-60.06360000 18.52930000 63.99890000
-59.15480000 19.47880000 62.63190000
-64.60120000 30.98010000 60.30440000
-66.47470000 33.32200000 63.29290000
-61.81340000 25.06320000 61.95480000
-63.65500000 30.00650000 62.46630000
-61.38980000 24.72870000 59.26530000
-79.11890000 30.26040000 72.64830000
-63.28910000 18.51150000 51.14930000
-61.68690000 19.21690000 52.23740000
-69.29680000 14.87230000 50.03840000
-71.06010000 8.64710000 44.96540000
-68.84220000 11.64780000 45.02210000
-55.43970000 13.32890000 64.54320000
-53.35670000 10.42580000 66.02570000
-52.56210000 12.16020000 63.96910000
-68.41380000 20.00150000 53.07160000
-71.49930000 26.03530000 56.54310000
-67.25520000 15.51580000 48.87780000
-71.25730000 35.08930000 62.20270000
-72.86610000 18.68320000 58.80130000
-61.69030000 23.71700000 56.92650000
-72.70230000 29.69480000 70.46410000
-74.65490000 27.70520000 69.49980000
-74.94490000 32.64900000 63.00250000
-74.39740000 30.46590000 60.38650000
-69.12960000 13.26210000 64.13700000
-70.84320000 13.70670000 62.50220000
-73.97230000 28.70780000 70.62260000
-69.14120000 28.95650000 67.97310000
-72.29860000 14.90280000 59.54450000
-72.49370000 15.46030000 57.06930000
-67.15520000 13.13050000 44.98650000
-74.46560000 2.58180000 52.52100000
-69.44030000 29.93400000 56.99570000
-72.31860000 29.04730000 57.58810000
-52.20170000 13.45350000 61.31750000
-54.81120000 9.49650000 67.03440000
80.07330000 11.32200000 35.65630000
79.69020000 12.16200000 35.87810000
80.33160000 10.35220000 35.29510000
80.48090000 -0.98170000 36.92550000
80.20210000 -1.29260000 37.26430000
80.46090000 -1.03980000 36.98180000
80.53770000 -1.02350000 36.96960000
80.71300000 1.45770000 35.80940000
80.87420000 3.32580000 35.64440000
80.87420000 5.20250000 35.52980000
80.87480000 4.99210000 35.55050000
80.96000000 5.11800000 35.56840000
76.08210000 -2.30980000 41.82990000
76.35400000 -2.27980000 41.56840000
76.75690000 -2.23740000 41.08400000
78.97280000 -1.98460000 38.98380000
79.78810000 -1.86440000 38.47110000
79.77520000 -1.84780000 38.38710000
76.04990000 -2.31050000 41.97660000
73.27870000 -2.69210000 43.52170000
77.37480000 16.83500000 37.95080000
76.89130000 16.82380000 38.72320000
73.81890000 15.70070000 37.23890000
78.55620000 9.31590000 33.88090000
81.01370000 -1.83430000 38.58270000
80.05130000 -1.58780000 37.72730000
79.49760000 12.78970000 35.95280000
77.14320000 13.34220000 34.21200000
80.79110000 6.49280000 35.31420000
77.07490000 5.69350000 33.84440000
70.49140000 -1.61420000 53.06140000
70.94850000 -2.37650000 52.68670000
68.18170000 -2.62220000 51.05910000
71.09990000 -2.66630000 52.45900000
71.52050000 -3.09450000 51.93380000
77.55320000 -2.14250000 40.12070000
78.12710000 16.54680000 36.98320000
77.96970000 16.62560000 37.12120000
76.06900000 15.07160000 34.72820000
66.14540000 17.82380000 42.85000000
69.81220000 18.19730000 47.77830000
67.98260000 17.84260000 48.35530000
76.71500000 16.76600000 39.36650000
75.43310000 16.35930000 39.93220000
76.20570000 16.57920000 40.05970000
75.80900000 16.46630000 40.00630000
80.45370000 -0.84800000 36.81200000
75.78790000 -2.31160000 42.75990000
70.57460000 18.19360000 46.28750000
70.05870000 18.22420000 47.25490000
73.74010000 16.28200000 40.26130000
73.29760000 16.46330000 41.17110000
74.05730000 16.18970000 39.54870000
70.16620000 1.12740000 42.86330000
67.88560000 -1.99520000 48.56910000
70.87130000 -3.65750000 45.04940000
73.26720000 14.77040000 35.58850000
72.06930000 -3.32030000 50.92710000
69.07250000 -3.57050000 49.08710000
72.34510000 -3.28250000 50.35090000
77.39800000 1.54230000 34.22630000
73.37190000 -2.78670000 47.72290000
77.20740000 -0.24280000 35.44800000
70.12800000 17.12430000 36.29060000
80.60890000 9.05370000 35.07830000
74.93350000 16.26160000 39.81890000
77.84940000 16.71850000 37.32910000
73.95910000 -1.68950000 40.01960000
71.32070000 17.87620000 45.04480000
68.49330000 17.92630000 42.46700000
80.77240000 7.48950000 35.15550000
70.26280000 18.22920000 46.96250000
78.81560000 15.19050000 36.09600000
80.40440000 0.02590000 36.23810000
69.76170000 0.79160000 53.31030000
69.35530000 18.00550000 48.49030000
70.73260000 9.05600000 39.10730000
67.77480000 5.54780000 46.38420000
75.55080000 1.96800000 33.96880000
75.66100000 8.54630000 33.83890000
67.00720000 9.40870000 52.23970000
66.28690000 7.58770000 51.14110000
63.86850000 12.96600000 48.87290000
66.37750000 9.13280000 47.45100000
70.89850000 12.53040000 37.06410000
66.35860000 12.71960000 44.46550000
68.50450000 16.99870000 49.94100000
67.22320000 15.38690000 51.04430000
69.37000000 15.50300000 35.63550000
70.84720000 16.17300000 35.11340000
66.70150000 1.32050000 51.28590000
74.44240000 8.50640000 34.53980000
73.73140000 4.62440000 35.83880000
72.51350000 13.61610000 35.35250000
65.13460000 14.04400000 50.19920000
67.60600000 13.64530000 52.01020000
68.07680000 9.85800000 52.97880000
74.85030000 0.96100000 35.93520000
72.75100000 -0.06750000 38.92110000
71.70840000 1.88190000 39.04450000
64.13960000 16.19070000 43.85860000
69.13850000 16.53710000 36.16890000
64.66920000 17.16760000 46.43170000
80.60880000 7.96800000 35.02110000
66.28700000 6.04490000 49.99780000
74.62450000 12.56970000 33.51440000
64.46220000 15.57060000 47.46750000
64.72890000 13.97920000 46.56470000
71.73950000 -1.54220000 42.75040000
65.31390000 9.74520000 49.69200000
67.73130000 15.01150000 51.48880000
83.32200000 -1.52520000 37.83630000
83.38160000 0.07370000 36.62120000
83.69680000 7.38120000 36.43900000
79.62940000 16.98920000 37.88860000
78.41180000 17.20140000 39.09520000
85.82610000 10.25120000 37.72570000
127.75200000 3.76420000 59.20190000
124.20400000 7.85690000 57.52990000
120.58700000 4.05350000 55.48820000
83.59400000 -1.74950000 39.03510000
75.96920000 16.31660000 42.26670000
124.48000000 1.60410000 61.53120000
125.42000000 2.55930000 58.92370000
120.20500000 1.09850000 55.65760000
128.32800000 1.47570000 63.64930000
129.77600000 2.89260000 60.25370000
129.14300000 2.07020000 61.89950000
129.62000000 2.44550000 60.74920000
129.81000000 2.41630000 60.74920000
75.59580000 -2.21550000 47.55640000
73.19700000 -3.10200000 52.60490000
72.76400000 -2.15620000 53.94260000
78.29910000 -1.93050000 55.03530000
102.45500000 0.97930000 70.85910000
101.43300000 3.63070000 71.80640000
106.79000000 2.55680000 74.23450000
129.75600000 3.85200000 59.72540000
129.99100000 4.93250000 59.52560000
116.92800000 3.80250000 81.36590000
117.26900000 2.80210000 80.89500000
117.72000000 1.90790000 80.30430000
73.77220000 18.60340000 49.46030000
126.60000000 0.81200000 66.79230000
121.07100000 0.72010000 70.84410000
120.92200000 0.44880000 75.61690000
117.04000000 3.53070000 81.28770000
106.16400000 17.50490000 74.53690000
109.06300000 9.70770000 76.83600000
99.67880000 11.50680000 71.51600000
79.93100000 -1.85720000 38.48710000
127.45100000 1.05270000 65.21050000
127.18100000 0.93660000 65.79670000
82.52370000 -1.73800000 47.93810000
85.73560000 -1.45610000 42.01740000
105.76400000 -0.61720000 64.32060000
116.00800000 0.17840000 63.88260000
110.15100000 -0.79610000 59.45660000
78.19280000 -2.32240000 52.33680000
78.98090000 18.95290000 52.87510000
72.84930000 18.27990000 50.82670000
83.10170000 19.89530000 51.03620000
71.36070000 6.86760000 55.31370000
70.87650000 13.40330000 54.21230000
104.71200000 22.97950000 58.79380000
98.85320000 21.77030000 55.36010000
103.61000000 21.37060000 51.96330000
117.76400000 22.95160000 56.25150000
108.53900000 23.19710000 59.92360000
110.42400000 22.16550000 54.02190000
109.93700000 8.02380000 49.66810000
117.04200000 19.05810000 52.12330000
111.90900000 19.02280000 49.09510000
78.89660000 0.62740000 57.75300000
71.82940000 0.18960000 54.89040000
78.46470000 3.89680000 59.04130000
71.68230000 3.68030000 54.79500000
74.16250000 4.77330000 56.89180000
93.34980000 21.25900000 63.40170000
95.63310000 22.14360000 61.10810000
99.13370000 23.23690000 65.70840000
115.17100000 0.63490000 74.31840000
106.10500000 0.09850000 71.01940000
82.99710000 15.40430000 38.54200000
102.69700000 11.83440000 45.12480000
103.92200000 18.79590000 44.85570000
89.77740000 19.05210000 44.38960000
81.79070000 17.01590000 43.60930000
82.81740000 16.66420000 40.43930000
84.80160000 15.73860000 39.16060000
90.16620000 14.84980000 39.57030000
95.68940000 18.14420000 40.98840000
73.53920000 17.32880000 53.04980000
123.91300000 3.27350000 57.52250000
93.66380000 -1.78550000 45.08800000
86.08950000 -1.70460000 54.10100000
97.23890000 -1.35940000 50.46260000
124.46400000 16.86530000 56.49270000
128.58800000 8.91470000 59.13270000
126.80700000 20.50810000 56.90040000
126.83600000 22.45760000 57.16290000
127.19000000 24.54840000 58.35690000
123.72900000 23.22990000 57.77410000
122.34300000 26.09250000 66.82380000
120.29400000 24.56290000 63.59220000
124.99300000 24.41410000 59.89600000
101.54200000 18.55050000 71.25310000
107.17500000 22.77200000 73.32440000
101.03300000 21.51630000 69.14300000
116.09000000 26.07200000 77.52210000
114.48800000 25.57070000 74.05510000
117.11400000 26.92170000 75.57140000
116.73100000 25.93240000 72.04270000
88.46480000 2.99460000 64.71010000
94.59490000 -1.32480000 65.95590000
84.59320000 -0.19390000 60.21960000
91.34560000 -1.80400000 58.66100000
99.24100000 -1.60360000 61.73740000
101.60700000 -1.50020000 54.11960000
82.83960000 4.36790000 61.32020000
89.80000000 11.00070000 65.38430000
83.20780000 9.28880000 61.83480000
97.53160000 8.73250000 70.58070000
93.37010000 3.13480000 67.26820000
93.19170000 10.25790000 67.33510000
101.16800000 6.85290000 72.35800000
105.77200000 0.18790000 47.06330000
111.45600000 0.90840000 50.81080000
104.72300000 3.40130000 46.64320000
104.23400000 -0.75170000 46.89400000
114.35900000 0.19400000 53.33060000
114.63100000 1.05320000 52.91800000
93.37780000 19.87890000 65.51920000
78.52070000 16.30870000 57.04240000
76.45610000 13.85560000 57.19940000
121.86300000 22.28340000 56.04280000
123.49300000 20.54220000 55.98130000
114.60800000 21.74580000 51.60130000
76.65110000 17.77570000 45.57540000
83.26770000 18.82110000 46.27720000
83.83970000 14.75150000 61.19350000
88.10240000 15.19060000 63.98800000
84.96050000 18.33690000 59.71870000
87.68680000 17.75900000 62.91700000
117.07800000 0.78870000 77.14290000
113.74300000 1.31680000 75.80330000
114.56100000 3.04770000 78.49010000
122.39900000 0.95580000 63.62330000
95.53890000 2.47880000 41.70730000
93.36760000 -0.78840000 40.95010000
99.54610000 -0.73800000 43.80350000
98.45700000 -1.44060000 43.58210000
101.73000000 23.26330000 67.37940000
107.78200000 24.21920000 70.55050000
100.36000000 23.31100000 63.24260000
95.74660000 9.30990000 41.68440000
90.92790000 5.12050000 38.97890000
91.35720000 1.42190000 40.00850000
98.26020000 20.81680000 68.64370000
95.65080000 15.31660000 68.90970000
92.42090000 20.69500000 50.82390000
86.98230000 20.23260000 56.79110000
85.06870000 19.75490000 48.30000000
113.85900000 14.10350000 79.40280000
116.24300000 6.95120000 81.70960000
112.09200000 7.23150000 78.58590000
87.72280000 -1.11900000 40.16400000
93.03680000 -1.45870000 41.46600000
113.88400000 4.17440000 78.96740000
106.54100000 5.58530000 75.32840000
91.36140000 8.56370000 38.88080000
93.76340000 12.31180000 40.64870000
94.22290000 -2.31010000 63.91490000
84.83110000 -1.64060000 57.78610000
98.91620000 -2.37060000 44.65300000
102.51100000 -1.51940000 47.32940000
113.38000000 23.71720000 76.73020000
115.44400000 21.17210000 80.02730000
115.72400000 12.36170000 81.39670000
115.59400000 24.63070000 78.81940000
113.16100000 21.11070000 77.75460000
91.80030000 18.83540000 41.56670000
104.44900000 21.03510000 47.14200000
104.44100000 20.21210000 45.31450000
100.24500000 -1.68160000 65.67910000
101.13900000 -0.99330000 68.04610000
103.10200000 -1.09860000 64.48090000
85.64770000 -1.30010000 59.72040000
106.96000000 23.96720000 65.08150000
112.00500000 25.08110000 70.89460000
100.52000000 20.89710000 49.52660000
98.45670000 20.17010000 44.22700000
95.11100000 21.11660000 51.12570000
88.48140000 20.98420000 59.08600000
85.34790000 19.22400000 58.67950000
91.66560000 21.69750000 58.64560000
120.88800000 23.41690000 59.30740000
86.12450000 5.05300000 37.40220000
88.98030000 0.25660000 39.39630000
77.94310000 7.02270000 58.67940000
74.68660000 6.99300000 57.50730000
75.42670000 10.30840000 56.98690000
95.90400000 18.33510000 68.16050000
98.51090000 22.42990000 67.32860000
98.72100000 18.82620000 42.82860000
101.00100000 15.28380000 44.01350000
88.81150000 19.92450000 62.15080000
80.00140000 16.76200000 41.93810000
110.50700000 1.03240000 74.81050000
110.65200000 0.13420000 72.65790000
106.97300000 -0.36150000 69.04070000
107.19400000 -1.20490000 49.52330000
111.05900000 -0.84840000 53.92460000
115.82700000 -0.02820000 60.22350000
101.01100000 -1.50900000 48.73690000
92.73870000 14.06730000 66.58990000
90.42940000 17.00260000 64.67200000
78.83820000 -1.18040000 56.43850000
119.50800000 2.00730000 54.92280000
118.26600000 5.44100000 54.46520000
120.41000000 11.50250000 54.80760000
123.83900000 12.70250000 56.84990000
118.96500000 22.60330000 53.85660000
97.85260000 0.54290000 68.99610000
95.93330000 3.83210000 69.51860000
