6.24650000 -1.30215000 4.20557000
6.35323000 -1.46031000 3.94665000
6.30240000 -1.46490000 4.06042000
6.35057000 -1.31136000 4.06700000
4.53126000 -4.79914000 1.31541000
4.50792000 -4.83261000 1.32283000
4.82434000 -4.73884000 1.41461000
5.36165000 -5.80582000 1.82025000
5.38670000 -6.03847000 1.81333000
5.43248000 -6.40165000 1.81325000
6.70879000 -8.22179000 1.83563000
7.24775000 4.90522000 2.92301000
7.27442000 4.85445000 2.95132000
6.71755000 -5.01700000 -0.42165700
6.90820000 -4.98186000 -0.26570000
6.85343000 -4.78801000 -0.31185600
-0.08060680 -1.80611000 7.58157000
5.14480000 -5.66360000 -0.15578800
-2.85890000 -9.01722000 4.91367000
-2.80260000 -9.16522000 4.85789000
-2.84873000 -9.01851000 4.83269000
6.99563000 -4.88518000 -0.18253600
-0.88424100 -5.57609000 -1.09266000
-0.26900300 -5.25368000 3.35430000
-0.24297500 -5.16834000 3.54901000
-0.44825400 -5.24064000 3.25789000
5.14462000 -5.73232000 -0.19540800
-0.84681500 -5.60927000 -0.98517200
-0.70762300 -1.58620000 7.63323000
-0.94255700 -1.64337000 7.61591000
5.06161000 -8.45352000 1.43348000
-4.85066000 3.15115000 -6.66543000
-2.83927000 -9.09877000 4.92894000
-7.75244000 -0.44635900 0.71921100
4.79864000 -3.45913000 4.55920000
4.72304000 -3.66300000 4.40498000
6.27436000 8.61099000 4.86500000
6.20016000 8.61280000 4.92420000
-1.26025000 -1.90430000 -7.61844000
-3.13916000 1.85136000 -7.67870000
-2.99292000 1.78904000 -7.72905000
-3.34145000 1.92749000 -7.71395000
-3.30801000 -5.06425000 -4.68327000
5.39761000 -6.18876000 1.82249000
-1.62815000 -8.87035000 -6.53109000
-7.70567000 -0.74059000 -0.00059242
-7.73174000 -0.58714400 0.54010200
-7.73527000 -0.73424400 0.22788300
6.45213000 3.93350000 4.62405000
7.19762000 -2.86810000 -0.36524500
7.26940000 -2.82230000 -0.28099400
-5.60276000 -2.67974000 4.19831000
3.05326000 -5.27277000 1.17076000
3.09521000 -5.25691000 1.43259000
3.14356000 -5.19749000 1.57108000
-2.14506000 -5.14907000 0.40324100
2.94807000 -5.26656000 -1.26661000
3.25780000 -5.21263000 1.39040000
-5.35549000 -2.89341000 4.33951000
-5.26917000 -2.90323000 4.42225000
-5.00363000 -3.13305000 4.45207000
-1.27867000 -5.23602000 0.37747400
3.47555000 -5.10062000 1.49758000
4.87059000 -6.65391000 0.83769500
4.82841000 -6.86819000 0.86311400
-0.96048700 5.02669000 -8.00910000
-0.96908100 4.96814000 -8.01783000
-1.11189000 4.92981000 -8.08500000
-5.86238000 4.60655000 5.66497000
-5.74556000 4.76537000 5.66110000
-1.24653000 4.92701000 -8.08921000
-0.19101000 -5.29715000 0.07403960
-8.37887000 2.20890000 -1.39694000
-8.42605000 2.28481000 -1.26724000
-3.82180000 -4.74336000 3.04551000
-3.71624000 -4.73754000 3.06867000
-0.21028600 -5.31264000 0.32902400
-0.12549500 -5.29626000 0.26140000
-0.15803100 -5.32014000 0.16782800
-5.16347000 -2.97181000 4.49541000
-3.65717000 -8.22947000 -5.21116000
-3.60081000 -8.39518000 -5.18063000
-2.78840000 -9.67640000 5.31177000
-5.19345000 -5.31809000 4.67166000
-5.90150000 4.80097000 5.58918000
-1.09957000 4.96169000 -8.01855000
8.13457000 1.07739000 -0.28671700
8.14560000 0.95986400 -0.12099400
8.12911000 0.87818900 -0.35178500
8.12573000 0.55674700 -0.04571250
8.13340000 0.60432500 0.13490500
-3.58250000 -8.23711000 -5.15629000
-7.68819000 -0.88828700 0.12951400
-5.98650000 4.80973000 5.52912000
8.17205000 1.10472000 -0.17240200
-1.56997000 -9.46318000 -5.83765000
-1.71256000 -9.24400000 -6.70176000
-8.33430000 2.28869000 -1.40568000
-8.34634000 2.84450000 -1.37825000
6.41767000 -9.90874000 1.42464000
2.50909000 -5.09252000 -1.21507000
-8.05475000 2.65530000 -0.96678400
-6.45646000 -2.74839000 2.86792000
-6.44463000 -2.88370000 2.75265000
-6.36188000 -2.99388000 2.76030000
-6.54965000 -2.79180000 2.66142000
-2.88187000 -9.37479000 5.44757000
-2.83796000 -9.48661000 5.44529000
-2.70658000 -4.46801000 3.90201000
-2.82944000 -4.38121000 4.11029000
-2.36422000 -4.44639000 4.19629000
-2.47973000 -4.18867000 4.78537000
-2.58600000 -4.33251000 4.39236000
4.75660000 -4.64982000 1.60114000
4.70222000 -4.65235000 1.54844000
4.68209000 -4.67438000 1.56590000
-2.84894000 -9.41929000 5.43591000
-2.34126000 -5.12867000 0.30765400
-2.51653000 -5.11700000 0.34870300
-7.59203000 -1.15132000 0.76140200
-7.61318000 -0.96632000 0.85483700
-3.13145000 -4.25157000 4.12080000
-3.30061000 -4.38859000 3.62931000
-0.45106600 6.21598000 -7.59746000
5.86953000 -9.07340000 1.88307000
5.79421000 -9.08176000 1.82225000
-3.10238000 -2.03528000 -6.85608000
-2.47483000 -5.11253000 -0.03414460
5.79829000 -9.17640000 1.85754000
-5.42128000 0.25776800 -6.06155000
-3.56636000 -1.81742000 -6.69350000
-3.67096000 -1.68850000 -6.69762000
-3.89784000 -1.18318000 -6.71488000
3.68991000 0.31281700 6.78970000
3.73169000 0.51476000 6.80139000
4.03005000 0.08401350 6.55953000
-3.81490000 -1.66391000 -6.58885000
-3.25221000 -4.24967000 4.07066000
-2.87695000 -9.58170000 5.50315000
-2.64118000 -5.07865000 0.38670500
3.32624000 0.80984100 7.03944000
3.26697000 1.03440000 7.08497000
-5.15907000 -5.17222000 4.96822000
-1.48892000 -5.18966000 0.61509900
-5.62304000 3.52223000 6.45643000
-5.58763000 3.37825000 6.34218000
-5.63913000 3.20275000 6.47295000
-3.97375000 -1.33359000 -6.63875000
-3.27167000 -9.76702000 -6.92516000
-2.85785000 -6.55671000 5.47108000
8.14451000 4.90564000 1.13024000
-5.20603000 -4.26731000 -0.56659300
-1.65024000 -9.38746000 -5.40089000
-1.57144000 -9.24036000 -5.48612000
-1.59989000 -9.24576000 -5.40709000
-3.22727000 -8.95202000 -7.08398000
-3.20436000 -8.85837000 -7.05163000
-5.38353000 -4.13569000 0.08491120
-5.50405000 3.51643000 6.21601000
-4.20019000 -1.07701000 -6.55293000
-4.48583000 -1.06765000 -6.36913000
-4.58814000 0.77636600 -6.53522000
-1.66998000 -9.26279000 -5.29096000
-0.55733600 -5.29069000 -0.32446000
-1.05490000 -5.23573000 -1.20543000
-0.88998400 -5.23771000 -1.41580000
-1.19016000 -5.21846000 -1.45364000
-0.97105700 -5.25444000 -0.97571600
-0.06284570 -4.47261000 4.76391000
0.16091400 -4.37646000 4.98654000
-3.94847000 -5.29830000 3.45947000
-3.88567000 -5.38796000 3.48829000
-4.00835000 -5.18470000 3.46198000
3.30105000 -5.28866000 0.62659100
-5.21821000 -4.21618000 0.03466050
-7.15351000 -1.77969000 -2.08574000
4.31981000 2.29009000 6.80515000
-3.17332000 -6.38100000 5.80942000
-3.16654000 -6.18772000 5.80720000
-3.43881000 -6.66978000 5.96629000
-3.26069000 -6.46899000 5.87220000
-1.77570000 5.25405000 -7.47277000
-1.92794000 4.95749000 -7.47699000
-2.05761000 4.87615000 -7.45485000
-1.82684000 4.82764000 -7.54231000
4.61914000 -3.99262000 4.09768000
3.95931000 -3.27946000 5.06324000
3.90727000 -3.45423000 4.92362000
-0.28488300 -3.81959000 -6.38076000
-2.02832000 4.67992000 -7.50783000
-2.47037000 4.58736000 -7.38458000
-0.00062807 -5.27316000 -1.29686000
-1.00431000 -5.21964000 -1.52638000
-3.46150000 4.78413000 -7.69794000
-3.97572000 -0.95325300 -6.98970000
-3.76570000 -1.06710000 -7.10698000
4.65269000 -3.75671000 4.29987000
5.98382000 -5.19849000 -0.53637500
5.86789000 -5.16361000 -0.49519300
-3.06707000 -3.98865000 -4.93160000
-3.03877000 -3.93585000 -5.14654000
-3.05166000 -6.20160000 5.70653000
-3.03511000 -6.44198000 5.67505000
-3.12175000 -6.31035000 5.78456000
-1.80528000 -9.75352000 -6.82306000
-6.97434000 -2.53599000 1.70011000
-6.93522000 -2.50263000 1.87647000
-6.57267000 1.51943000 4.61314000
-0.21859900 -3.01746000 -6.85747000
-0.36887700 -3.04759000 -6.83299000
-1.83738000 -9.79774000 -6.83424000
-3.92345000 -2.79921000 5.87835000
-4.21927000 -2.88773000 5.56376000
-3.99045000 -3.04397000 5.60114000
-0.84885500 -2.94947000 -6.88152000
-3.84492000 -2.88483000 5.83385000
-0.54485400 -3.09555000 -6.80537000
-1.10464000 -2.93464000 -6.86498000
-0.90554800 -3.03316000 -6.83462000
-1.83972000 -9.69997000 -6.82401000
-1.77842000 -9.57702000 -6.77718000
7.75142000 4.96265000 1.18182000
7.69246000 5.02097000 1.23232000
-1.31036000 -5.21925000 -0.37496100
-1.21505000 -5.21679000 -0.40718200
-1.05272000 -5.25065000 -0.45798000
-2.23421000 -4.97142000 3.60704000
-2.27310000 -4.89323000 3.81329000
7.69988000 5.08023000 1.20543000
6.94594000 9.70572000 3.23158000
-0.86065100 -3.30246000 -6.62318000
-0.67679800 -3.12175000 -6.75192000
-0.78379000 -3.13104000 -6.76426000
-0.63734700 -3.32529000 -6.61596000
-1.87242000 -2.95124000 6.83598000
-1.75900000 -2.77264000 6.98099000
7.46399000 6.08815000 -0.22289200
2.39737000 4.07401000 7.69811000
2.39842000 3.96787000 7.73749000
2.38524000 3.73640000 7.76315000
-7.24469000 -1.38353000 2.55060000
-7.24007000 -1.51818000 2.37302000
7.66436000 5.03261000 1.33227000
-3.50989000 -7.71036000 -6.65998000
-4.96794000 3.84560000 -6.51528000
-4.97240000 -4.20358000 1.66178000
-4.86465000 -4.28984000 1.49453000
0.21854400 -2.72470000 -7.20919000
-7.25552000 -1.64471000 2.23996000
-3.64976000 -4.81883000 -3.06049000
-3.86141000 -4.76354000 -2.94133000
-0.68488400 -3.22075000 -6.69314000
-4.85218000 -0.95160300 6.31889000
-7.27291000 -1.51927000 2.27198000
-1.37395000 -5.25163000 -0.25135800
5.91750000 -8.08158000 1.90392000
6.11801000 -8.18329000 1.94061000
6.07525000 -8.02760000 1.93914000
6.21957000 -8.17118000 1.96108000
-0.48836900 -3.44086000 -6.50125000
8.05924000 1.94943000 1.01027000
8.00454000 1.87390000 1.16987000
-7.57100000 2.83535000 -2.73478000
-1.33010000 -5.22259000 -0.48025500
-3.02100000 -9.84690000 5.11864000
-7.29835000 -1.52901000 2.15158000
0.18913900 -2.42099000 -7.40303000
0.17058100 -2.31241000 -7.44957000
4.26045000 -3.43923000 -4.92624000
-6.30132000 -2.95241000 2.35019000
-6.32068000 -2.87546000 2.49825000
-6.44398000 -2.66443000 2.50828000
4.49387000 -3.65856000 -4.48164000
-5.09561000 -8.33673000 5.35983000
-5.12960000 -8.45650000 5.28999000
-3.36913000 1.91201000 -7.63817000
-1.14835000 -4.14878000 -5.49625000
-1.19529000 -4.26863000 -5.26626000
-1.06269000 -4.23023000 -5.40132000
-4.72191000 -9.91660000 4.27340000
8.08663000 2.33628000 -0.17763300
-3.53882000 -4.83768000 0.90001800
-5.02629000 -6.03848000 5.35717000
-4.98612000 -6.05871000 5.42271000
-5.01030000 -5.94404000 5.43264000
-3.75399000 -4.95897000 3.41933000
-3.90696000 -4.97047000 3.43112000
-3.83569000 -5.05164000 3.45307000
-0.93803100 -4.23979000 -5.38786000
6.21990000 -3.71288000 0.70950600
-6.55326000 -2.56960000 2.38158000
5.41519000 -0.29052300 -5.73905000
-3.36432000 -1.30409000 -7.28118000
6.76461000 8.74648000 4.69341000
-5.67820000 -0.25355600 5.75625000
3.70316000 -3.06371000 -5.70711000
7.11951000 8.60240000 4.06264000
-3.66792000 -5.00274000 3.43901000
-3.55148000 -4.94778000 3.44249000
-3.48596000 -4.95440000 3.45804000
6.55623000 6.39157000 -4.77449000
4.94658000 -2.52074000 -5.14694000
-7.60196000 -0.13303800 2.24304000
-7.54665000 -0.47452400 2.16958000
4.74164000 -1.89708000 -5.67524000
4.86541000 -2.15427000 -5.45325000
4.69059000 -2.10375000 -5.57821000
-5.07795000 -0.46044300 6.25198000
-1.63573000 -0.16252200 -7.98223000
-7.65542000 -0.74341700 1.19127000
7.91922000 4.65769000 1.15713000
-5.05327000 -0.36541300 6.30062000
-7.62854000 -0.70215700 1.33388000
2.87018000 -5.08530000 -2.86013000
2.98736000 -5.07417000 -3.01036000
-2.23258000 -0.68338400 -7.79538000
3.56458000 -0.81736800 -6.91754000
3.40423000 -1.00312000 -6.95448000
3.42608000 -0.88585900 -6.99274000
3.06332000 -0.31949900 -7.31859000
3.00762000 -0.07486410 -7.41424000
7.53503000 -2.07378000 0.95133700
7.59731000 -1.97305000 0.82288700
-5.48156000 -0.65190600 5.86993000
5.40356000 0.64153100 -5.98971000
-3.37347000 -6.53389000 3.82502000
7.70457000 -1.54941000 0.97594300
-0.07548580 -4.99759000 4.09710000
6.91012000 8.71123000 4.27931000
-5.24452000 -4.23518000 -0.65344900
0.04869740 3.21780000 -8.20325000
-0.72780700 -5.27456000 3.20270000
-0.84469100 -5.23434000 3.05948000
6.70032000 -2.05419000 3.37792000
6.69645000 -2.17016000 3.28236000
6.78423000 -2.00534000 3.26736000
6.79577000 -1.84731000 3.36717000
6.74673000 -1.80888000 3.43778000
6.67048000 -1.96922000 3.49661000
4.80813000 -2.39499000 -5.34934000
6.65539000 -1.84653000 3.56933000
6.79242000 -1.58089000 3.49482000
-2.19694000 -1.44735000 -7.58622000
-2.23644000 -1.25300000 -7.65407000
2.37195000 -0.47803200 -7.55064000
2.47624000 -0.65648500 -7.47911000
2.34399000 -0.78723000 -7.26401000
-2.01259000 -0.94336400 -7.76208000
-2.45713000 -1.29884000 -7.57257000
-2.33138000 -1.29255000 -7.63067000
6.44197000 -3.33133000 -2.10911000
6.38309000 -3.34129000 -2.17824000
4.90150000 -2.40346000 -5.27957000
4.85764000 -2.51620000 -5.22107000
-6.55826000 -3.00337000 1.18082000
6.73419000 -1.72523000 3.55222000
2.25179000 -0.55429700 -7.59558000
2.35769000 -0.59885900 -7.55726000
7.12652000 4.26695000 -2.99815000
2.07948000 -1.20698000 -7.24063000
-7.30198000 -1.83651000 1.49211000
-7.29313000 -1.97345000 1.47354000
2.23356000 -0.78558300 -7.32640000
2.03227000 -0.78267000 -7.38164000
1.91253000 -0.80471100 -7.42839000
2.06093000 -1.51322000 -7.38133000
2.04494000 -1.35100000 -7.41814000
6.99249000 -3.05295000 1.70136000
6.96371000 -3.20318000 1.67689000
6.58652000 4.80130000 -3.95197000
-4.42203000 -4.14275000 -3.93685000
6.54624000 -3.11219000 -2.22156000
2.05911000 -1.19559000 -7.47851000
4.77984000 -2.52131000 -5.30860000
0.65808800 -4.76188000 4.73659000
-4.19111000 -3.67429000 -4.67284000
2.18424000 -0.94621400 -7.52718000
3.39863000 6.28437000 -7.61717000
3.31373000 6.33869000 -7.60987000
6.46683000 -3.29300000 -2.02953000
4.25892000 0.08219470 6.41734000
4.48428000 0.31194200 6.28004000
-3.10915000 -4.97691000 -0.05700950
3.24089000 -0.12404800 -7.29975000
3.55703000 -0.05305440 -7.15308000
-3.92188000 -4.45351000 2.81538000
2.00730000 -0.12737500 -7.75520000
2.10528000 -0.15615300 -7.70696000
-4.43904000 -4.26576000 2.69194000
-4.34111000 -4.35375000 2.52349000
-4.44172000 -4.27853000 2.53897000
-4.20695000 -4.39677000 2.50245000
6.64822000 -0.88157700 -3.80128000
6.73274000 -0.68881500 -3.71120000
6.50033000 -3.71276000 2.02449000
4.25325000 0.30888100 6.46029000
3.85605000 0.40056300 6.70622000
6.76916000 -0.57038900 -3.73405000
7.00273000 -0.27932700 -3.44312000
6.68061000 -0.41851500 -3.89753000
-4.12382000 -4.64247000 1.11137000
-4.41526000 -4.34581000 2.38974000
-4.56658000 -4.21306000 2.70432000
1.92003000 -0.81532300 -7.62447000
2.07496000 -1.04641000 -7.53634000
-0.38983700 -4.80784000 -5.05691000
3.30440000 -0.24138800 -7.21580000
3.43533000 -0.15181800 -7.20225000
3.47191000 -0.51817900 -7.07420000
-4.64153000 -4.22893000 2.43280000
3.29060000 -0.36325000 -7.20909000
3.14525000 -0.38207700 -7.25460000
6.69504000 -0.56905700 -3.83571000
-2.59970000 2.25737000 -7.96622000
6.82400000 -0.82174600 -3.50416000
-1.60547000 -8.20843000 -6.41639000
-3.74816000 -4.74332000 1.20870000
-4.83490000 -4.21056000 2.13493000
-4.93247000 -4.14477000 2.13264000
3.22323000 -0.48294100 -7.18560000
3.04230000 -0.54842900 -7.28131000
1.72510000 -0.82117700 -7.67205000
3.36720000 -0.60128500 -7.10834000
8.05656000 3.78714000 -0.02569230
3.24390000 -0.65610200 -7.13693000
3.06986000 -0.77178800 -7.20289000
6.67724000 -6.01719000 -0.42384200
6.85647000 -6.03451000 -0.30188700
6.91892000 -6.12478000 -0.26935400
6.96537000 -6.01262000 -0.19662300
-6.27585000 -3.45382000 -0.97716500
-3.86656000 -4.72205000 1.21432000
-5.17752000 -9.68756000 5.31832000
-2.08165000 -2.15835000 -7.42005000
-2.16549000 -2.18704000 -7.36095000
-4.62577000 -4.06683000 3.00835000
-4.75055000 -3.99763000 3.04753000
-6.71969000 -1.80491000 3.50308000
-5.08210000 -3.71471000 3.28386000
-4.99799000 -3.82215000 3.11931000
6.43870000 -1.23645000 4.19208000
7.36544000 -6.82032000 0.44209300
7.16919000 4.58539000 -3.66156000
7.13078000 4.67019000 -3.64023000
7.32955000 -6.81766000 0.36112400
-6.37260000 -3.57274000 0.75045200
-6.40588000 -3.36845000 1.62203000
-6.16914000 -3.65601000 1.40245000
-0.31539600 -4.81560000 -5.06996000
7.13418000 4.56934000 -3.79272000
-7.04236000 6.79877000 -2.75305000
5.59170000 -1.93451000 -4.61015000
4.84115000 -1.67201000 -5.48126000
4.97822000 -1.79953000 -5.28111000
5.11499000 -1.64587000 -5.22345000
-6.16084000 -3.74084000 1.09081000
-5.51985000 -4.24361000 1.07300000
5.16008000 -1.22585000 -5.39896000
5.14662000 -1.37886000 -5.35981000
-7.29192000 -2.12212000 0.24227000
-3.83192000 -3.36282000 -6.14755000
4.36053000 4.48776000 -6.92967000
-4.37693000 -2.61349000 -5.97714000
-4.42362000 1.76693000 6.75306000
-7.24393000 -2.23805000 0.38747800
-3.87702000 -8.08994000 6.09907000
1.65778000 -0.66530500 -7.74012000
1.61782000 -0.38328200 -7.81055000
4.96602000 -6.68398000 0.32892800
6.42807000 -2.26293000 -3.53242000
8.17112000 1.10685000 -0.07098440
4.47637000 -4.84454000 -0.70587200
-0.66635000 -4.39749000 5.47898000
4.31530000 4.56647000 -6.97758000
8.12343000 0.74521200 0.23708200
8.10803000 0.71440600 0.08793040
-0.77186400 -4.40424000 5.49243000
-4.33602000 -9.92845000 4.16565000
-5.35331000 -3.47741000 -3.44907000
-5.03986000 -3.58845000 -3.67321000
-1.34024000 -5.20181000 -1.56454000
-1.57869000 -5.15138000 -1.56944000
-1.46367000 -5.20455000 -1.37272000
-5.04870000 -1.24584000 6.11530000
-5.16401000 -4.08279000 1.81250000
-5.29481000 -3.97432000 1.87289000
-5.43579000 -3.87922000 1.94186000
-6.21786000 4.66996000 -5.05322000
-3.59597000 -6.62646000 6.02019000
-1.64769000 -5.15081000 -1.73658000
8.06989000 0.89852200 0.94388200
8.09008000 1.36649000 0.90330100
8.11098000 1.12901000 0.78488900
8.06190000 1.55903000 0.90371700
-4.97004000 -4.08368000 2.29464000
-6.18438000 4.59707000 -5.19022000
-6.27887000 4.66038000 -4.94524000
-6.25877000 4.58977000 -5.08758000
-5.29208000 -3.86316000 2.40003000
-5.57229000 -3.68705000 2.28497000
8.06516000 1.03240000 0.90850200
8.11256000 0.82261100 0.52094400
-4.36296000 -4.86359000 5.96747000
4.34596000 -2.78006000 5.50018000
4.47474000 -2.65704000 5.46049000
4.54478000 -2.54804000 5.52007000
-2.07598000 4.14649000 7.90006000
4.97733000 -0.90337900 5.67576000
4.94387000 -1.15143000 5.64199000
-5.75323000 8.92213000 -6.17879000
-3.25838000 -4.80592000 3.48710000
4.94633000 -1.51477000 5.52167000
4.83346000 -1.16021000 5.71662000
4.74689000 -1.16686000 5.80623000
-2.44011000 -7.62907000 -4.66858000
-2.38898000 -7.63224000 -4.73423000
4.29010000 -2.89429000 5.45005000
4.24584000 -2.77383000 5.55531000
-4.42331000 -5.20653000 5.94833000
-2.44768000 -7.51962000 -4.72036000
-4.97051000 -3.71971000 -3.55939000
-5.11486000 -3.59511000 -3.60956000
8.11979000 0.85954400 0.67627500
8.08543000 0.74399300 0.76381700
8.10085000 0.69058700 0.57991300
-4.89685000 -4.12942000 2.21943000
-5.10146000 -4.04582000 2.09975000
-1.98178000 -9.93858000 -6.37116000
-1.91127000 -9.90907000 -6.32123000
-2.03692000 -9.96872000 -6.29672000
4.62691000 -2.53859000 5.43992000
4.49470000 -2.85278000 5.31823000
8.11607000 0.34585600 0.45585100
8.12045000 0.60106800 0.64827500
7.22156000 -8.76112000 -0.09367870
-5.03668000 -4.09035000 2.17890000
-5.00718000 -4.01129000 2.46956000
6.05077000 -3.49238000 -2.74774000
-5.13898000 5.87609000 -6.45527000
-0.94313200 -0.06543140 7.98939000
0.33569600 -2.92119000 -7.07893000
4.34199000 -3.02303000 5.35518000
-4.59417000 -3.26445000 -5.17388000
-4.63237000 -3.24338000 -5.11412000
1.33363000 6.36658000 8.16394000
3.85821000 -4.98293000 1.76027000
4.37178000 -2.88519000 5.37207000
-3.71119000 -6.46573000 -5.18647000
-2.17469000 -5.06711000 -3.72834000
0.34004300 -2.82801000 -7.16593000
0.33753500 -2.70307000 -7.20057000
4.24090000 -3.34860000 -5.09901000
-3.46869000 -1.90542000 6.65894000
-3.47152000 -1.45864000 6.82695000
6.09197000 -9.92588000 -0.26010800
-5.74211000 -2.11555000 4.88726000
-5.74544000 -2.22896000 4.83869000
-1.95056000 -9.96112000 -6.21009000
-2.07611000 -5.07411000 -3.76417000
-1.45942000 -5.21882000 0.70827400
-1.42443000 -5.19453000 0.79987200
2.71847000 -5.23188000 -2.49808000
-5.03092000 -4.29741000 0.65304300
-1.33854000 -3.36734000 -6.47116000
-1.44355000 -3.27214000 -6.54628000
1.19619000 -1.76501000 -7.51254000
-3.42329000 0.07407510 -7.50376000
-3.28035000 -0.60691700 -7.44332000
-3.01000000 -4.80782000 2.21008000
7.55685000 6.32622000 -3.41005000
7.48546000 6.36318000 -3.45458000
-1.63176000 -3.28223000 -6.51292000
-1.97496000 -5.08285000 -3.86301000
5.62793000 -7.43525000 1.80081000
8.14371000 2.05218000 1.17556000
-3.47023000 -4.75162000 1.94150000
-3.44972000 -4.71094000 2.23175000
-3.19755000 -4.77626000 2.15753000
-3.38105000 -4.71090000 2.11124000
-3.97905000 -9.95313000 5.33464000
-4.03301000 -9.92981000 5.39161000
-4.00254000 -9.93839000 5.46431000
-4.09379000 -9.97054000 5.52358000
-4.09977000 -9.93308000 5.47277000
2.65558000 -5.24259000 -2.26883000
1.19903000 -1.91571000 -7.45574000
1.20029000 -2.06268000 -7.40067000
-3.51593000 -4.69130000 2.06218000
-3.49336000 -4.69431000 2.14487000
4.80722000 5.01573000 -6.69430000
6.39716000 -9.95420000 0.70854000
1.07220000 -1.95766000 -7.48976000
0.93523500 -1.98510000 -7.47885000
8.03686000 1.85342000 1.01222000
0.78836400 -1.89913000 -7.55387000
-4.42413000 -9.95524000 5.49500000
6.68754000 -2.93474000 -2.12426000
-3.79664000 -4.59179000 2.23420000
-3.54130000 -4.66113000 2.26167000
-3.68049000 -4.65116000 2.21706000
8.08742000 0.53121900 0.69914200
6.02269000 -8.19507000 1.90060000
2.65107000 -5.05943000 -0.34235300
-2.87943000 -8.74736000 4.41067000
1.86062000 -4.74225000 -3.87850000
1.29150000 -4.55208000 -4.58598000
0.99168500 -3.82450000 -6.21299000
8.08464000 0.59963200 0.83925800
6.24031000 -8.28250000 1.94733000
6.13806000 -8.29390000 1.93499000
8.10195000 0.99518400 0.67975300
8.08095000 0.88157300 0.82353800
1.44950000 -4.33971000 -4.99073000
1.43056000 -4.28825000 -5.10198000
1.15036000 -4.38323000 -5.01800000
1.19252000 -4.45985000 -4.80240000
3.96259000 -4.81178000 2.52115000
0.42537900 4.29047000 -8.17997000
0.41492900 4.19188000 -8.15745000
0.26086000 4.20923000 -8.13627000
-7.95624000 3.89978000 0.88142600
1.10818000 -4.45703000 -4.79944000
1.01329000 -4.49271000 -4.77440000
5.81497000 -2.01221000 -4.59911000
-4.28812000 -0.31357400 6.88619000
-4.15351000 -0.34389900 6.95309000
-7.99080000 3.99214000 0.89487800
4.23652000 -4.61786000 2.76480000
4.16092000 -4.70207000 2.65689000
1.24410000 4.73881000 8.02663000
-3.31632000 -6.41691000 3.87920000
5.12590000 -0.90917700 -5.79412000
4.97744000 -0.84889400 -5.96920000
5.02665000 -0.71592300 -5.96519000
8.05390000 0.78056000 0.91932400
-7.91246000 3.99260000 1.01612000
-3.19259000 -4.96920000 3.69896000
-1.08506000 -3.42864000 6.61091000
7.33161000 -6.02473000 0.60667600
-3.52819000 2.16057000 -7.94748000
-3.43953000 2.15292000 -8.00216000
-4.94133000 -1.23084000 5.99268000
8.09285000 1.00626000 0.82200600
7.38075000 0.03217230 3.00000000
0.98309300 -4.43316000 -4.97170000
1.05545000 -4.44992000 -4.87580000
1.06313000 -4.35037000 -5.09072000
0.90801500 -4.43040000 -4.97659000
0.84072800 -4.35738000 -5.09660000
8.12154000 0.92448400 0.45049600
-6.52106000 -1.57862000 4.02320000
0.01401200 -4.38635000 4.91096000
7.24723000 -0.28149700 3.20231000
7.34386000 -0.13673100 3.04229000
6.93690000 -5.76190000 1.69984000
-4.87761000 -4.42402000 0.09452280
8.05625000 1.60898000 1.04714000
-4.33036000 3.89940000 -6.95619000
2.62147000 -1.69004000 -7.07057000
8.06052000 1.59007000 0.97960700
-1.41532000 -3.43524000 6.55836000
-2.56502000 -0.49172900 -7.50916000
5.53505000 -9.45745000 1.73590000
7.91393000 6.41166000 1.84381000
7.71321000 4.22632000 1.75495000
7.21245000 -0.19661000 3.35107000
6.02193000 3.70434000 -5.53119000
7.23362000 -6.14069000 1.22666000
5.19405000 2.49246000 -6.48925000
3.33057000 -4.91928000 -0.01988400
-5.69591000 -4.15897000 1.06258000
-5.67814000 -4.14525000 0.95849000
5.95304000 1.66480000 5.30503000
-6.27067000 -2.06057000 4.20148000
3.35947000 -4.92715000 0.10775300
7.30890000 -6.30454000 0.92899700
-6.24640000 -2.26161000 3.97599000
3.25894000 -4.97118000 0.11704200
-5.55692000 -4.26581000 0.85195200
-2.32717000 -1.69805000 7.17362000
-2.46059000 -1.59220000 7.16836000
-2.75205000 -4.34544000 -4.47278000
-5.56020000 -4.26235000 0.95325500
5.78166000 1.34023000 5.52358000
5.88143000 1.46495000 5.37981000
1.91997000 -1.74649000 -7.31678000
1.79612000 -1.75458000 -7.36214000
1.82195000 -1.50156000 -7.45760000
5.75938000 1.44736000 5.49763000
5.78763000 1.76500000 5.49643000
7.10808000 -4.76874000 -0.02666210
7.17798000 -4.62517000 0.14515500
7.19363000 -4.83100000 0.12380800
7.25304000 -4.95112000 0.30160200
1.92570000 -1.07848000 7.46946000
-2.43845000 -4.04533000 5.59941000
-3.11058000 2.34220000 -7.89572000
-3.17672000 2.16484000 -8.02611000
-3.21475000 2.21619000 -8.06609000
-3.25028000 2.12108000 -8.08096000
5.75916000 -3.97593000 -1.05336000
5.79825000 0.21268000 -5.49505000
5.74863000 0.55054100 -5.62628000
-3.32322000 -1.56721000 6.84717000
-3.32666000 2.15651000 -8.05226000
3.98136000 -4.31623000 3.19333000
3.90386000 -4.51249000 2.55458000
-2.89493000 2.82076000 -7.78017000
1.85442000 -2.21975000 -7.11620000
1.79457000 -2.09457000 -7.23809000
5.52010000 -0.82352700 -5.44757000
5.61733000 -0.68414600 -5.42444000
5.37261000 -0.70945300 -5.66086000
5.87451000 1.65232000 5.41930000
7.24067000 -5.18970000 0.28155100
7.27841000 -5.32308000 0.40252500
7.19383000 -5.34835000 0.15017000
7.22195000 -5.09845000 0.22834800
4.70134000 -4.61546000 2.18020000
1.41423000 -2.42960000 -7.14472000
5.01831000 -5.50401000 -0.03024130
3.88696000 -4.14279000 3.78467000
4.09281000 -4.17632000 3.45885000
4.11328000 -4.13203000 3.59798000
5.96006000 -0.19604200 -5.22829000
5.82692000 0.04975030 -5.43926000
-2.33995000 6.40420000 -7.94888000
-2.58549000 -0.81812100 7.35754000
-2.24584000 -0.66672700 7.49386000
-2.90439000 -0.87845200 7.22418000
-2.72692000 -1.10363000 7.21692000
1.52134000 -1.37410000 7.48746000
1.76256000 -1.27971000 7.45658000
7.30572000 -5.08250000 0.63472500
7.28614000 -4.77708000 0.62220700
7.30270000 -4.63731000 0.81098200
7.29773000 -4.89249000 0.48382600
7.29052000 -5.23698000 0.45086600
4.54726000 -4.65724000 2.07366000
-2.97254000 2.80396000 -7.76045000
-4.12218000 -8.44453000 3.73739000
-3.36863000 -4.90026000 -0.88427600
-3.24873000 -4.93694000 -0.82684700
4.41057000 -4.70474000 2.12094000
1.88591000 -1.28922000 7.40097000
-2.47022000 6.38530000 -7.90746000
7.29671000 -5.42632000 0.49064800
-5.54115000 -3.95823000 -1.57104000
6.71727000 -1.58054000 -3.60240000
5.72095000 0.07408240 -5.54370000
5.62977000 0.31592100 -5.67294000
5.48520000 0.54320200 -5.87806000
5.52871000 0.04324670 -5.71310000
5.48426000 -0.09527100 -5.74426000
-6.00519000 -0.64847900 5.25676000
-5.91333000 -0.67109800 5.36629000
-6.06118000 -0.86296300 5.15311000
6.90334000 -1.62368000 -3.22842000
-7.75280000 6.83511000 -2.93917000
-7.67183000 7.18983000 -3.20945000
6.83544000 -1.64586000 -3.30343000
-3.39452000 -1.30596000 6.91540000
4.92830000 -0.70980800 -6.02997000
5.04241000 -0.59630600 -6.00551000
2.78779000 -0.36483500 -7.43522000
2.90581000 -0.48755400 -7.34153000
-3.29893000 2.28531000 -8.04840000
-3.23454000 2.29947000 -8.06240000
3.01783000 -0.66397000 -7.24708000
7.32867000 -5.21580000 0.58754800
5.38905000 8.72944000 6.23677000
4.75103000 -0.12119500 -6.33925000
4.53607000 -0.20584200 -6.51746000
-3.11186000 5.54060000 6.95244000
-2.86862000 5.72671000 7.02204000
-3.08944000 -1.10190000 7.10264000
-3.04842000 -0.96718700 7.13385000
-3.23734000 2.39222000 -8.05216000
-3.19371000 2.49786000 -8.00245000
-5.63370000 -2.65981000 -4.20850000
-0.74187900 -0.46802300 7.95195000
-0.80114200 -0.68535000 7.91151000
-4.76040000 -3.79784000 3.58128000
-4.50970000 -3.91473000 3.64233000
-5.12966000 -9.72884000 5.39343000
7.30203000 -5.44962000 0.41038700
-4.25235000 -3.94403000 3.90650000
-3.88883000 -4.14482000 3.84933000
-4.12567000 -4.08987000 3.67552000
-2.21287000 -5.58086000 -4.58258000
7.11561000 -0.23122000 -3.60261000
7.18150000 -0.15974400 -3.44252000
7.28131000 -0.10899200 -3.27100000
3.61440000 1.74430000 7.17200000
3.95082000 1.75111000 6.97497000
-4.49080000 -3.98814000 3.43802000
-3.29373000 2.71976000 -8.00199000
-3.29318000 2.38485000 -8.04004000
6.75292000 -0.19121400 -4.20405000
6.90691000 0.17392500 -4.06081000
-3.90295000 0.42844800 7.20606000
6.90719000 8.81107000 2.46638000
-2.04083000 5.42660000 7.35925000
-3.81892000 -4.73474000 0.70901400
7.22413000 -9.82178000 0.19504500
7.17643000 -9.85027000 0.16968600
-3.23539000 2.50151000 -8.03922000
-8.18882000 6.44532000 -0.50185300
-4.06166000 -4.69999000 0.69079200
-3.90219000 -5.48383000 3.50147000
-0.10952900 -1.87634000 -7.64543000
-0.17874800 -2.07274000 -7.57119000
-0.33374300 -2.23959000 -7.49787000
-0.40105100 -2.14364000 -7.56624000
-6.11595000 -1.55810000 4.44971000
-4.67860000 -2.80727000 5.80238000
6.12900000 -1.47073000 -4.50932000
6.31691000 -1.16766000 -4.43589000
-4.88295000 -4.30643000 1.10007000
-5.13478000 -4.23046000 0.91802300
-3.52651000 -4.82819000 0.59868700
-3.68691000 -4.80692000 0.45587800
-7.49208000 -1.26086000 1.36802000
-7.47436000 -1.38456000 1.34613000
-7.45895000 -1.36448000 1.47191000
-7.52446000 -1.16001000 1.40112000
-7.45686000 -1.34993000 1.59950000
-7.46456000 -1.25189000 1.71513000
7.66754000 3.29226000 -2.45204000
6.60895000 -4.32593000 -0.47305900
-3.66246000 -4.83143000 0.54609700
8.29135000 2.09066000 1.10600000
8.25733000 2.04037000 1.04596000
8.30721000 2.06626000 1.05211000
-4.93266000 -9.91896000 4.36775000
2.19163000 4.48271000 7.83981000
6.56587000 -2.03846000 3.59680000
3.54125000 -4.40632000 -3.58693000
-2.60509000 -4.61010000 3.52981000
-2.38771000 -4.68121000 3.36713000
0.65610600 -3.10564000 -6.90722000
0.76433500 -3.08171000 -6.92474000
0.55841600 -3.01295000 -7.00337000
3.84456000 -4.15465000 -3.82791000
3.85673000 -4.06498000 -3.95985000
-6.67590000 -0.83582400 4.23921000
-6.76006000 -0.92800700 4.05899000
-6.66730000 -0.93319800 4.16821000
-6.61640000 -0.95134600 4.30048000
-0.02543620 -3.48467000 -6.74856000
3.83431000 -5.12797000 -0.84865900
6.67432000 -2.17797000 3.38293000
6.59959000 -2.15731000 3.45992000
-6.87996000 -0.52142500 4.00781000
-1.58307000 -9.31646000 -5.51874000
3.84365000 -5.08341000 -1.02871000
6.48547000 -2.15403000 3.61777000
5.87947000 -9.15642000 -0.50565100
-2.90531000 -5.06301000 5.58526000
-2.29537000 4.62569000 -7.86808000
-2.35226000 4.68850000 -7.75377000
-7.01612000 -0.68432100 3.66594000
8.24706000 2.05292000 1.09778000
8.11370000 2.23691000 1.17519000
-3.94024000 -3.94062000 -5.43709000
-5.51643000 0.40930200 6.04139000
6.33540000 -4.16820000 -0.60297300
3.88427000 -5.06882000 -1.33784000
3.84818000 -5.06588000 -1.48128000
3.13490000 3.44268000 7.58341000
-5.56966000 4.19026000 6.29509000
-5.46050000 4.31982000 6.11320000
6.94317000 -9.91433000 1.11898000
4.14194000 -0.15552000 -6.77893000
4.10597000 -0.30558200 -6.76270000
0.08696840 -4.23868000 -5.39822000
0.28897500 -4.22835000 -5.41713000
0.22723200 -4.28471000 -5.30052000
-0.00063734 -4.20253000 -5.50345000
4.98469000 0.29578400 5.90321000
7.34387000 -6.72753000 0.78919500
5.45591000 0.63437100 5.49505000
7.70547000 5.21816000 0.71734600
5.57474000 0.94401600 5.39902000
5.48758000 1.14225000 5.52152000
5.77614000 0.67860200 5.17415000
6.15768000 0.33618400 4.71477000
-5.30939000 2.70658000 6.47620000
0.42450500 -4.24564000 -5.37177000
0.38359700 -4.31874000 -5.29271000
0.40560900 -4.42776000 -5.03333000
0.32944900 -4.17293000 -5.48826000
-5.25392000 -0.54376400 6.10130000
-3.78672000 6.44762000 -6.96325000
4.50119000 -2.06842000 5.80050000
4.60129000 -2.19310000 5.68544000
-1.48981000 -6.26898000 -6.10986000
0.51709800 -2.80090000 -6.95277000
7.00921000 5.49694000 -2.72407000
-5.55766000 7.52701000 -5.74928000
-6.16442000 -1.48150000 -4.67508000
4.86124000 -2.19180000 5.45533000
-1.81600000 -4.84111000 -6.70385000
4.66429000 -2.32498000 5.56191000
5.31956000 4.61040000 -6.15357000
-1.75521000 -6.28391000 -6.60891000
-7.28252000 -1.42188000 -2.12416000
-3.25236000 -6.15558000 -4.74995000
-3.14226000 -6.40312000 -4.70863000
5.72224000 -3.61404000 -2.99044000
-3.75842000 0.48911800 7.32685000
7.02733000 5.36417000 -2.71969000
-3.14521000 -6.29813000 -4.67408000
-3.06454000 -6.19860000 -4.62422000
-5.92409000 -1.36503000 -5.07085000
-6.01994000 -1.24819000 -5.00790000
-6.04918000 -1.09717000 -5.05533000
-6.08230000 -0.90153700 -5.08425000
5.86295000 -2.60795000 -4.12932000
5.89967000 -2.48552000 -4.17584000
5.81805000 -2.48557000 -4.25178000
-2.39250000 -4.41026000 4.94389000
7.84440000 3.75718000 1.38926000
-4.20953000 0.25697200 -7.07498000
-4.19511000 0.13587300 -7.05090000
-6.95736000 3.12707000 4.33697000
7.88526000 3.87732000 1.20887000
7.08060000 4.85082000 -2.85149000
4.43886000 5.34403000 -6.23846000
1.75707000 0.74223700 -7.94652000
1.53209000 0.91288300 -8.03020000
1.51244000 0.68119900 -8.00221000
1.32721000 0.62358300 -8.03577000
4.13990000 -0.04845060 6.46910000
4.25785000 -0.05000880 6.41838000
4.25139000 -0.16465300 6.40768000
4.34275000 -0.15918400 6.31754000
4.35846000 -0.04759560 6.34094000
-7.73363000 3.28727000 2.19919000
-1.50311000 0.91538600 8.02060000
-1.27528000 0.72765700 8.06625000
0.72375300 -4.70058000 4.89877000
5.23890000 -3.17964000 -4.23170000
7.18643000 -4.52472000 1.29919000
7.21477000 -4.64053000 1.20261000
-1.67726000 -5.93229000 -6.54250000
-1.66213000 -6.03898000 -6.48792000
-1.78912000 -6.01086000 -6.66106000
-3.88627000 -8.96041000 -5.79147000
5.15223000 -3.09846000 -4.47437000
5.07449000 -3.27908000 -4.38092000
-4.70762000 -2.88438000 -5.13879000
-4.58486000 -2.99569000 -5.18785000
-4.76127000 -2.74336000 -5.23408000
-4.11426000 0.00382208 -7.11464000
-4.45654000 -3.01406000 -5.22844000
-4.16879000 -9.60920000 6.13146000
0.37661900 -5.37999000 -3.07191000
2.42133000 -0.73906600 7.21702000
2.53676000 -0.73393600 7.18008000
-1.94456000 -3.90389000 -6.84436000
-2.20280000 -3.92832000 -6.98487000
-1.97734000 -3.81738000 -6.87851000
-1.79576000 -3.79181000 -6.75060000
2.85321000 0.14929500 7.19383000
-3.36720000 -4.94855000 -3.00654000
4.54246000 5.48951000 6.49491000
-0.83259200 -3.16067000 6.63893000
-0.78546200 -2.92669000 6.84023000
-4.60035000 -2.89610000 -5.24381000
2.41293000 -0.85355500 7.19332000
2.52400000 -0.85222100 7.13677000
6.58878000 7.76620000 3.05541000
-3.57673000 -3.13347000 -6.57157000
-2.27089000 -4.93205000 2.39483000
-2.03391000 -4.97363000 2.39211000
-1.71768000 -5.20703000 0.27898400
-3.36259000 -3.16434000 -6.77405000
-3.47082000 -3.19750000 -6.69403000
-6.92002000 0.77612200 -3.76028000
-7.22008000 0.94913900 -3.01673000
-3.12453000 -4.80160000 -3.70568000
-3.18108000 -4.81251000 -3.67818000
-1.90065000 -5.79853000 -6.78889000
-7.20430000 0.77816300 -3.10634000
-6.94378000 0.92946100 -3.68474000
-7.13986000 0.98365600 -3.25718000
4.43251000 -2.77120000 -5.10549000
0.75137400 -5.13795000 3.61947000
-2.16862000 -5.01809000 1.95597000
-2.45591000 -4.97282000 2.02673000
-2.30086000 -4.93604000 2.24179000
-2.31838000 -4.99554000 1.86524000
-3.55026000 -3.23575000 -6.59006000
2.54719000 -0.39014300 7.20323000
-7.06169000 1.15213000 -3.46605000
4.85440000 -2.64859000 -4.85582000
4.77246000 -2.23956000 -5.23291000
4.47022000 -2.45925000 -5.29451000
1.73127000 -0.49719600 7.48238000
-1.86414000 -5.10515000 1.46543000
-1.37233000 5.72807000 8.15960000
-4.52081000 -2.92001000 -5.30980000
1.70763000 -5.08397000 -2.44203000
2.11029000 -5.00306000 -2.56179000
3.62411000 2.62779000 7.32431000
-2.32104000 -4.45925000 -7.01730000
-2.12040000 -5.09006000 1.22528000
-2.02781000 -5.12678000 1.19685000
-2.05846000 -5.11123000 1.10483000
8.17792000 2.28808000 0.35700300
-1.77030000 -9.50214000 -6.76660000
-1.71045000 -9.44876000 -6.69186000
4.00181000 -2.20910000 -5.85073000
-2.15172000 -5.36054000 -6.95428000
-5.29385000 7.62622000 -5.52450000
-5.45351000 7.52227000 -5.65171000
-2.08889000 -5.09947000 1.31652000
0.20067500 5.51898000 -7.64083000
0.34007600 5.67202000 -7.60924000
4.31595000 -3.16163000 -4.85729000
4.40456000 -3.20427000 -4.71845000
4.55314000 -3.20041000 -4.60152000
-5.95300000 -3.15733000 -2.96258000
-2.08587000 -9.31699000 -4.98161000
0.34325200 5.51767000 -7.62122000
-1.89283000 -5.09365000 1.55788000
-1.98643000 -5.06538000 1.58516000
6.39209000 -9.31465000 1.92949000
4.56262000 -2.47440000 -5.21594000
1.71713000 -3.56561000 -6.32171000
1.57565000 -3.64584000 -6.24060000
-6.03361000 -3.02841000 -2.95028000
1.80298000 -5.01817000 -2.77317000
4.52870000 -2.58140000 -5.18995000
-2.49828000 -4.99601000 1.64100000
-2.32807000 -5.04452000 1.57456000
4.63375000 -4.79578000 0.12603300
-6.29527000 -1.60691000 -4.35595000
7.48200000 -8.67160000 0.60734000
4.39367000 -1.82125000 -5.73078000
4.52055000 -1.83453000 -5.67337000
3.23546000 0.29873500 7.27551000
4.38144000 -1.92056000 -5.70893000
-3.66900000 -9.69995000 -5.38249000
1.99859000 -5.04843000 -2.50191000
-7.97406000 3.39898000 1.41558000
1.45135000 0.27251300 7.86691000
1.77256000 0.57603400 7.83226000
1.56834000 0.45826200 7.87126000
1.84125000 -5.04846000 -2.63671000
5.30369000 -1.72112000 -5.02296000
5.47322000 -1.82225000 -4.79242000
-6.27523000 -1.73440000 -4.34193000
1.76820000 -5.04599000 -2.52625000
5.50444000 -7.59960000 -0.29525400
5.40847000 -7.43004000 -0.25482900
-3.43079000 4.43998000 -7.74960000
-4.32381000 -9.95620000 5.07786000
1.72198000 -5.21281000 -0.92919300
1.59190000 -5.21154000 -0.86319500
-4.64528000 -4.49955000 -0.68608800
5.90791000 -4.32998000 -0.62466100
6.00263000 -4.26633000 -0.64855200
4.31112000 -4.87697000 0.65049100
-3.70993000 -9.64717000 -5.55051000
-3.80493000 -9.65622000 -5.69043000
-3.21571000 -1.59261000 7.10483000
-3.44383000 -1.63251000 7.03404000
4.36517000 -4.87485000 0.51709500
4.33725000 -4.90097000 0.51972500
4.81602000 7.83688000 5.82464000
1.66213000 -4.10066000 -5.31756000
0.27784100 -1.65368000 7.60238000
0.38923100 -1.77401000 7.54806000
-6.55592000 5.35069000 3.85183000
-6.38421000 5.40056000 4.07951000
4.27796000 -4.91334000 0.41741000
4.95904000 -7.31060000 1.19284000
-1.53596000 -8.48155000 -5.74413000
-1.52541000 -8.36992000 -5.74301000
0.41150300 -1.67783000 7.61137000
-1.77123000 -4.93071000 2.72110000
-1.96582000 -4.95480000 2.47331000
-2.16262000 -4.92711000 2.45993000
-1.70652000 -5.01812000 2.32111000
-1.85321000 -4.96076000 2.44414000
-2.44213000 -7.90671000 -7.11047000
-2.36512000 -7.79854000 -7.07327000
5.28602000 -1.86585000 -4.97999000
5.41483000 -1.94081000 -4.80312000
5.06174000 -1.90982000 -5.13244000
4.99105000 -2.10557000 -5.09777000
5.14867000 -2.13377000 -4.95794000
7.11226000 -2.63324000 1.85031000
7.14397000 -2.50523000 1.91027000
7.07370000 -2.59796000 2.01447000
6.20275000 -1.93833000 -4.07695000
5.25240000 -2.11275000 -4.83785000
7.25280000 -2.38235000 1.71204000
6.01345000 6.60798000 5.59643000
-6.17083000 5.41270000 4.41695000
-2.44551000 -7.79876000 -7.07333000
7.16971000 -6.46745000 0.02689480
7.26798000 -6.03028000 0.32400600
6.96083000 -2.89025000 1.88203000
7.30660000 -5.60062000 0.52193900
2.72065000 -4.97905000 -2.10085000
1.65099000 0.75403700 -8.00371000
2.36985000 3.14056000 -7.91263000
2.53588000 -4.99853000 -2.20114000
2.61522000 -4.98909000 -2.05346000
2.42950000 -5.00387000 -2.18382000
2.52860000 -4.96922000 -2.34019000
-0.88871800 3.75971000 -8.21527000
-0.79494100 -5.28743000 -3.70257000
-0.81363800 -5.26660000 -3.57444000
-1.02741000 3.77884000 -8.20983000
4.98577000 -8.97598000 0.87006200
5.05123000 -1.47262000 -5.40554000
4.91810000 -1.43526000 -5.52227000
3.61954000 -1.74254000 -6.34179000
3.50199000 -1.72383000 -6.38805000
4.50397000 -1.49972000 -5.82208000
4.30315000 -4.43938000 -2.46729000
5.79787000 -2.37966000 -4.39354000
6.13869000 -0.25714600 -4.96990000
6.22578000 -0.43900400 -4.81545000
6.34275000 -0.43538600 -4.70058000
6.50920000 -0.24136800 -4.53616000
-5.91651000 -3.28881000 -3.10851000
-5.91783000 -3.14485000 -3.37545000
-6.06690000 -3.20132000 -3.04006000
-6.09185000 -3.19868000 -2.91036000
-6.17542000 -3.06140000 -2.95645000
-0.59571800 -5.52616000 -1.99160000
6.34224000 -0.29613100 -4.71806000
-3.15797000 -4.82795000 3.48886000
-3.23154000 -4.83093000 3.41961000
6.34362000 -0.12543600 -4.79903000
4.54878000 -1.38985000 -5.81172000
4.55912000 -1.28558000 -5.87263000
-4.58454000 -4.79204000 -0.07510470
-4.06544000 -1.57402000 -6.79238000
-4.01065000 -1.66615000 -6.78515000
5.65879000 -2.02531000 -4.76010000
6.24686000 -0.31952600 -4.85654000
4.82624000 -1.30769000 -5.67271000
5.43333000 -1.85796000 4.93582000
5.48226000 -1.51599000 5.03730000
5.30918000 -1.66247000 5.12749000
6.20053000 -0.70742400 -4.74322000
4.72708000 -1.41387000 -5.68744000
6.22596000 -0.57859200 -4.78252000
2.43268000 4.40324000 -7.82322000
-1.82710000 -7.01820000 -4.94731000
-1.75964000 -7.31391000 -5.03055000
-1.73379000 -7.05206000 -5.04395000
-6.24850000 -3.29797000 -1.84585000
5.30186000 -7.24073000 1.69110000
3.24709000 4.95463000 -7.45335000
-2.92463000 -7.23665000 5.46139000
-2.56530000 -5.00799000 -3.67262000
5.14142000 -2.16779000 -5.21229000
5.20401000 -2.29593000 -5.10144000
-5.67455000 -2.00180000 -4.72142000
-5.68487000 -2.09414000 -4.63998000
-5.51324000 -2.31625000 -4.72301000
-5.89023000 -1.92918000 -4.46407000
-0.78920800 -2.68138000 7.00416000
-4.67055000 0.70576500 -6.78789000
-4.49961000 0.96633000 -6.92394000
4.64903000 -1.43784000 5.79575000
4.77747000 -1.27186000 5.73744000
-2.77342000 -5.88119000 5.27769000
-4.52881000 -3.06589000 5.88553000
7.29980000 -9.80098000 0.77260200
-2.86889000 -7.47091000 5.40916000
4.89322000 -1.37830000 5.59431000
4.92289000 -1.27257000 5.63042000
-5.17962000 -2.40944000 -5.07045000
-5.24632000 -2.39510000 -4.98238000
-4.96147000 -2.61062000 -5.11446000
-5.35461000 -2.32692000 -4.90826000
4.00672000 -4.80394000 2.43176000
-4.77897000 0.40794400 -6.70294000
-3.44697000 -9.58364000 -5.13315000
-0.90934800 -2.23537000 7.20782000
-6.27954000 8.74578000 -5.55946000
-6.28407000 8.93027000 -5.58880000
-5.27164000 -2.54535000 -4.81279000
5.27876000 1.47428000 -5.95400000
4.98891000 1.46987000 -6.19625000
4.87152000 1.05386000 -6.24784000
7.21422000 -8.85876000 -0.08426260
-4.64487000 0.07682110 -6.74826000
-1.58744000 -1.72315000 -7.47220000
-1.94932000 -1.45324000 -7.49595000
6.94040000 -2.83478000 -0.95367200
7.08328000 -2.52286000 -1.16543000
3.95386000 1.90270000 -7.19059000
-3.45088000 1.96765000 -7.70584000
4.99141000 -1.37713000 5.52052000
5.00162000 -1.26384000 5.53294000
5.07594000 -1.43998000 5.44557000
7.57182000 -2.02003000 -0.31911300
0.50958800 -4.49600000 -4.85831000
0.59088500 -4.66886000 -4.48301000
0.56943600 -4.71115000 -4.32573000
0.98646800 -4.64765000 -4.43009000
-4.30569000 -3.90136000 -4.51966000
8.03417000 1.06904000 1.22336000
-4.51938000 -0.20245300 -6.80916000
-3.62192000 -5.80808000 3.61370000
7.02671000 -0.80317700 -3.52105000
0.81206000 -4.61253000 -4.55278000
3.06224000 2.59426000 7.16981000
1.41390000 -4.76807000 -3.98458000
1.40444000 -4.68053000 -4.25634000
1.01195000 -4.72032000 -4.24970000
1.56012000 -4.71011000 -4.12274000
1.79672000 -4.63616000 -4.23687000
1.58878000 -4.64092000 -4.28969000
5.85243000 -7.52290000 1.89361000
4.17428000 -3.06435000 5.15611000
-4.26490000 -4.00164000 -4.37642000
-4.37215000 -3.89794000 -4.43518000
2.05564000 -4.49181000 -4.44949000
1.96377000 -4.56516000 -4.34524000
1.93702000 -4.64164000 -4.13603000
1.71816000 -4.68482000 -4.09695000
5.72733000 -7.54388000 1.84950000
-3.86720000 -5.85015000 -5.61513000
0.84228100 -4.31020000 -5.22907000
1.81869000 -4.70949000 -3.95649000
1.85397000 -4.68618000 -4.07736000
1.51208000 -4.72715000 -4.01899000
4.90665000 8.17642000 5.38998000
0.54385500 -4.60152000 -4.66065000
-7.61242000 0.86149100 -2.38411000
3.25593000 0.01576480 -7.32532000
3.46792000 0.16355700 -7.23462000
3.34505000 -0.00335226 -7.24594000
3.34008000 -0.13000400 -7.26341000
3.97397000 -5.04461000 0.89053000
6.33595000 5.41224000 3.93287000
6.18040000 5.53295000 4.16246000
5.21180000 -2.09868000 5.01861000
-1.45293000 -6.09185000 -5.84737000
-1.70559000 -2.78871000 -7.18423000
6.23722000 5.47511000 4.03560000
6.31875000 5.52937000 3.92960000
7.10527000 -3.04423000 -0.67942800
-4.32931000 -9.92294000 4.25664000
3.95769000 0.59467600 -7.05425000
-4.08488000 4.25413000 -7.04946000
-4.17549000 4.17428000 -6.99777000
-4.00630000 4.32521000 -7.05998000
-4.00377000 -4.07578000 -4.45785000
-3.99895000 -4.06232000 -4.52322000
4.13907000 0.72473200 -6.97786000
4.33374000 -4.79997000 -1.92336000
4.51144000 -4.84148000 -0.13288300
3.45151000 -0.02907500 -7.20094000
5.68998000 -3.35085000 3.57148000
5.83765000 -3.22049000 3.54513000
-1.42174000 -5.92963000 -5.75109000
-1.43898000 -4.43601000 -6.08996000
-5.13336000 -6.30569000 5.10103000
5.77342000 -3.26098000 3.63254000
-1.45175000 -5.88242000 -5.83752000
5.59051000 -9.82916000 1.32809000
-5.12445000 -6.19807000 5.00602000
-4.94639000 -4.30876000 0.92268400
-1.73802000 -5.13789000 1.41046000
-1.80031000 -5.12884000 1.53133000
3.90160000 0.25646800 -7.01021000
3.93839000 0.37204000 -7.05446000
-5.07005000 -4.25324000 0.86897500
5.82458000 -3.14100000 3.66691000
-3.23229000 -2.16891000 -6.99053000
5.63251000 -9.89931000 1.13514000
5.57388000 -9.86150000 1.25449000
5.65000000 -9.86073000 1.35298000
5.64639000 -9.86425000 1.24468000
-2.00665000 -0.62671800 7.53861000
-2.31325000 -0.44959900 7.49621000
-2.13150000 -0.53435500 7.55176000
-4.21969000 0.78433800 -7.10606000
-3.94177000 0.78257300 -7.24807000
7.52930000 1.10556000 2.28593000
7.40612000 1.15419000 2.62023000
7.53993000 3.51556000 -2.04590000
7.54711000 3.51660000 -1.91551000
7.56849000 3.65345000 -1.86007000
6.20797000 4.95456000 -5.15775000
6.18627000 4.99339000 -5.16959000
7.18741000 3.25462000 2.76636000
-3.66592000 0.75544500 -7.39874000
-6.74106000 -0.11330100 4.34462000
5.83165000 -8.38989000 -0.50270800
5.94468000 -8.50357000 -0.49964700
5.84975000 -8.50626000 -0.49767800
3.84755000 0.65063500 -7.11525000
3.38398000 -0.29494900 -6.94717000
3.19170000 0.15436200 -7.11799000
-3.78211000 -4.75566000 -0.92362000
3.84798000 1.09699000 -7.19852000
3.90235000 0.76176000 -7.12857000
6.25491000 4.90978000 -5.19203000
-4.34337000 0.41250300 -6.72807000
5.92811000 -8.38786000 -0.50481400
-1.01644000 6.43276000 -8.11477000
5.51618000 -9.85108000 1.24996000
-6.74936000 -0.03142320 4.38881000
3.28284000 0.03906990 -7.03013000
7.81903000 -1.23085000 0.89565300
7.93594000 -0.80194300 0.69029700
7.88605000 -0.97974800 0.90347800
-2.15813000 0.33595100 7.68658000
-2.00663000 0.38135700 7.70234000
-2.00276000 0.18208300 7.69152000
4.12546000 -2.33839000 5.91590000
4.24850000 -2.06934000 5.97166000
7.86070000 -0.95170800 1.01805000
7.83191000 -1.08773000 0.94134700
-1.13537000 -3.54749000 -6.59264000
4.54556000 1.30484000 -6.80621000
4.62899000 1.43062000 -6.72975000
-7.12344000 -0.25656300 3.57486000
7.85496000 -1.10847000 0.84805000
-5.76607000 -1.54778000 5.27256000
4.21433000 -2.19587000 5.96015000
-4.29903000 -8.07735000 6.04562000
7.81417000 -1.22944000 0.78143900
-1.14730000 6.41429000 -8.08900000
-3.85230000 -9.69180000 -5.85326000
7.87196000 -1.12899000 0.75299200
7.89377000 -0.99041300 0.61064100
1.72729000 4.89966000 7.81205000
6.87974000 -5.71518000 1.72592000
-2.96194000 -9.91824000 -6.59480000
-3.07346000 -9.90420000 -6.62118000
-3.85663000 -9.72911000 -5.93939000
4.76105000 7.74357000 5.71866000
-5.25436000 -1.27415000 5.86299000
-5.40268000 -1.34599000 5.72866000
-5.31430000 -1.37171000 5.80404000
-3.11021000 -9.90390000 -6.48203000
-2.06604000 -3.84071000 -5.71807000
-2.26241000 -3.78190000 -7.02070000
-4.06471000 -4.84981000 1.85653000
4.34198000 -2.06417000 5.89469000
-3.01400000 -9.91081000 -6.56458000
-3.07339000 -9.91892000 -6.54467000
-3.10263000 -9.87304000 5.14393000
-3.24164000 -9.90012000 5.14326000
-5.80989000 -3.18372000 3.62126000
-6.37522000 -1.18398000 -4.11209000
-6.18231000 -1.29911000 -4.42433000
-6.61361000 -1.42914000 -3.55712000
-6.43734000 -1.64772000 -3.70280000
-6.55411000 -1.43651000 -3.67837000
-3.33413000 -9.91093000 -6.56443000
-3.18484000 -9.89874000 -6.67739000
-3.17734000 -9.89963000 -6.59404000
-6.13639000 -1.56228000 -4.30177000
-6.24505000 -1.43050000 -4.24129000
3.49012000 -3.60047000 -5.03031000
3.74926000 -3.54904000 -4.88217000
-3.36675000 -9.90250000 -6.59099000
-3.38826000 -9.86378000 -6.61026000
-3.41537000 -4.94358000 -4.74841000
-6.21757000 -1.77243000 -4.06695000
-4.83501000 -5.52526000 5.66291000
-7.68905000 3.68842000 2.34573000
-6.27227000 -1.54350000 -4.10342000
-6.28630000 -1.65935000 -3.95819000
-6.40471000 -1.51044000 -3.87680000
