0.44953700 -5.91319000 -6.02874000
0.45214200 -5.94236000 -5.93746000
0.44331000 -5.82044000 -6.06476000
-3.14869000 -1.08248000 -2.04213000
6.60386000 6.58468000 -0.89380400
-1.23650000 -1.49544000 2.34861000
-4.73802000 -5.05273000 2.50914000
-4.79418000 -5.08492000 2.53063000
3.48201000 -2.69221000 1.22914000
3.47328000 -2.71386000 1.33509000
3.56679000 -2.69593000 1.42853000
3.54509000 -2.67765000 1.31239000
-4.61721000 -4.36356000 1.42575000
-4.53808000 -4.31523000 1.37383000
-4.34984000 -4.44476000 1.29455000
-3.63644000 -7.75176000 1.35098000
-3.60140000 -7.76407000 1.35153000
-1.58872000 0.48320400 -6.27670000
4.26744000 -6.16258000 2.13049000
4.08362000 -6.11468000 2.12124000
-6.71032000 1.09427000 -0.29376500
-6.68646000 1.19074000 -0.62418300
-6.68197000 1.10519000 -0.50549900
0.61808400 -1.37247000 2.07783000
0.54303100 -1.34323000 2.21835000
0.43680900 -1.41307000 1.92205000
6.24352000 4.57210000 -3.86026000
6.11568000 4.56041000 -3.76360000
-3.66852000 2.87006000 -5.97929000
-3.46673000 2.93189000 -6.15039000
-3.53446000 2.79127000 -6.05323000
-3.66562000 2.73822000 -5.94978000
-7.24567000 6.33607000 -1.21438000
-0.11059200 -6.54454000 -3.26759000
-0.08617260 -6.40456000 -3.30376000
-5.95970000 2.36228000 3.03829000
-5.91360000 2.30173000 3.11534000
0.45862800 -5.18746000 -5.09083000
0.44839400 -5.04336000 -5.03771000
0.45449500 -5.43548000 -5.05205000
0.34044700 -9.09212000 -3.77169000
-0.26430600 -9.81382000 -5.93007000
-0.26044900 -9.82868000 -5.60950000
-0.27354200 -9.81103000 -5.57602000
-0.26118900 -9.82535000 -5.40081000
-5.51841000 0.29014100 2.21031000
-2.99121000 1.39118000 5.51274000
-2.90472000 1.59271000 5.62019000
-6.59488000 2.39481000 2.12238000
-6.63063000 2.22398000 1.98954000
-6.57364000 2.19176000 2.13995000
-6.56530000 2.35844000 2.20746000
0.19280400 -5.65274000 -5.83711000
0.24481100 -5.67523000 -5.79678000
4.59657000 -2.61911000 2.01496000
4.70383000 -2.57667000 2.08006000
3.25203000 3.67843000 5.69683000
3.48789000 3.79376000 5.53162000
3.23429000 3.78751000 5.67658000
3.74432000 -0.23266300 3.65051000
3.95683000 -0.19925700 3.53804000
3.83943000 -0.28653500 3.46789000
0.28968600 1.72650000 -7.09757000
5.15671000 -9.00881000 3.39471000
5.09076000 -8.64124000 3.36130000
3.96165000 -7.48393000 2.69021000
3.92499000 -7.50679000 2.61660000
5.99122000 -0.09118870 0.85399200
6.04711000 -0.02579390 0.89759400
6.09631000 0.01431930 0.81230800
-5.13706000 -9.66953000 2.95303000
-5.17840000 -9.62268000 2.97755000
-3.91638000 -0.59951300 -2.91671000
-4.35129000 -3.68275000 1.36041000
-0.15649600 -7.45798000 -5.96796000
-4.46849000 -7.97194000 2.32922000
-4.20562000 -0.66337700 -2.18119000
-0.25527100 -8.24264000 -3.60318000
4.91919000 -1.01289000 0.52656900
5.20321000 0.39044500 -2.99343000
-4.40740000 -9.77281000 2.49779000
-5.00068000 -9.77610000 2.80816000
-6.41043000 3.79543000 2.29339000
-6.50997000 3.78091000 1.95495000
-0.99783300 -1.73930000 -3.90112000
-1.05789000 -1.61993000 -3.78678000
0.31622700 -6.63121000 -4.73512000
0.29414600 -6.85992000 -4.75327000
-0.27658900 -1.74051000 -5.99987000
3.11607000 -9.39025000 2.16065000
-0.15325700 1.05401000 -7.14435000
-0.18814400 1.00670000 -7.11002000
-0.14579600 0.93329700 -7.10570000
-0.10469500 0.97874800 -7.12791000
-0.05693490 0.92616700 -7.11744000
-5.90077000 2.47449000 -3.60453000
-6.10451000 2.44319000 -3.29091000
-5.65539000 -3.86964000 1.94761000
-4.47871000 -2.87339000 2.59569000
0.66801200 -3.70971000 -3.28039000
0.63652700 2.46181000 6.55569000
0.51389200 2.44840000 6.56385000
-3.89874000 4.49202000 -5.20363000
-4.09854000 4.51383000 -5.04057000
-1.96640000 3.39351000 -6.67002000
6.23318000 4.64499000 3.45598000
6.14894000 4.63671000 3.42409000
-2.68279000 0.92602600 -5.76725000
4.16346000 -8.20112000 2.80658000
4.17464000 -8.11455000 2.87633000
4.18168000 -8.07102000 2.91146000
6.55255000 1.59150000 -2.12710000
-0.07964570 -8.66645000 -6.47392000
-2.41486000 4.48942000 6.77123000
-0.43454500 -0.18339700 -6.05204000
5.19149000 1.00333000 -4.11631000
5.09809000 0.98248500 -4.21087000
5.36032000 1.23811000 -4.04634000
4.14262000 -0.47216400 -3.51145000
4.30434000 -0.43554800 -3.40711000
4.62096000 -0.36415700 -3.15408000
0.70858400 -1.15621000 -5.17657000
0.64813900 -1.22625000 -5.09418000
0.67772600 -1.18754000 -5.11837000
6.90677000 2.59031000 1.03414000
4.08849000 -0.91190800 0.49036700
3.92156000 -0.95126700 0.68993900
4.73179000 -9.69426000 3.27943000
4.74789000 -9.71022000 3.24739000
-0.37070100 -2.95018000 -6.41096000
-0.39954800 -2.90889000 -6.38364000
4.02768000 1.16044000 4.78285000
5.06320000 0.07093560 -3.46466000
4.92855000 0.08033170 -3.60341000
5.07770000 0.12722700 -3.52020000
4.96904000 0.16242000 -3.64837000
5.71408000 -0.17406600 -1.51913000
-6.18798000 1.04987000 -1.78359000
3.00755000 0.20651700 -5.46708000
2.94786000 0.15270600 -5.44335000
-4.45170000 -5.01569000 1.60428000
-4.63063000 -4.82217000 1.55193000
3.69090000 4.05048000 -5.87600000
3.90623000 4.04985000 -5.74166000
5.10589000 -0.64748300 1.07194000
5.25632000 -0.53441200 1.15603000
2.88679000 2.30802000 5.69601000
1.47042000 -0.29895100 -5.43689000
1.58648000 -0.34992700 -5.32213000
0.19920000 -0.40277300 -6.81974000
0.21907800 -0.22006800 -6.79929000
-0.23335600 -0.45920000 4.63205000
6.50669000 5.74941000 0.62728500
6.52029000 6.02299000 0.64976200
-5.31442000 -5.91477000 2.50716000
-5.24893000 -5.94424000 2.47966000
-5.26453000 -5.94040000 2.43341000
-6.00966000 4.72216000 -4.12402000
-6.14967000 4.73662000 -3.86524000
4.63852000 2.97331000 4.58283000
6.49730000 4.09543000 2.68582000
0.48526300 -8.67016000 -4.73371000
2.63839000 -3.58175000 2.23859000
-2.50810000 -1.55910000 -0.35306300
0.51152100 -9.73550000 -6.33673000
-4.93280000 1.70562000 -4.88851000
0.95720000 -1.49313000 -3.10136000
-5.89838000 2.02934000 3.59109000
-6.72389000 3.06762000 1.64341000
4.56616000 1.88621000 4.59504000
4.44661000 1.72732000 4.66136000
-5.73030000 2.64303000 -3.89071000
-6.32843000 -0.07021160 2.94738000
-3.22578000 -0.38431300 -4.18413000
-3.10247000 -0.28365500 -4.43819000
-6.75896000 2.25009000 -1.35435000
-4.75922000 -1.51662000 2.52850000
0.23937300 -9.88455000 -5.30459000
0.21220900 -9.88626000 -5.49967000
-3.58620000 -1.05112000 0.60680300
-0.38000400 -9.12565000 -3.97955000
3.65466000 -5.90702000 2.46819000
3.62334000 -5.97537000 2.46962000
5.02334000 1.13196000 4.30935000
5.05482000 1.05832000 4.22807000
4.82613000 1.01658000 4.40805000
2.42531000 -0.53243400 -4.22454000
-0.67732800 -4.13533000 -3.40959000
6.42203000 3.77726000 -2.46013000
6.04539000 3.09525000 -3.56551000
6.15045000 3.13796000 -3.32769000
0.28439600 -7.33683000 -3.53659000
0.21018900 -7.27256000 -3.52803000
-3.70639000 -6.63541000 1.32232000
-3.63429000 -6.74442000 1.30027000
-3.55538000 -6.86846000 1.27392000
0.50411800 -4.85086000 -4.43067000
0.52705900 -4.86368000 -4.34483000
0.50127000 -4.92806000 -4.37215000
0.47794800 -4.94304000 -4.43242000
6.51601000 5.45245000 1.50175000
6.51967000 5.08077000 1.53058000
6.58759000 5.07925000 1.54846000
-5.47711000 3.61475000 4.06859000
-5.10889000 -0.57179300 2.75848000
0.82379100 -1.95168000 -4.08213000
0.81789400 -1.90902000 -4.18987000
-5.68001000 2.27420000 3.94553000
-5.76671000 2.43261000 3.84020000
3.99020000 4.53631000 4.99232000
6.41506000 4.06294000 -3.48359000
6.21878000 4.06971000 -3.80998000
4.05334000 2.15867000 5.02842000
3.89502000 2.24005000 5.14249000
1.73924000 -1.81263000 -0.08337280
5.81429000 2.59657000 -3.77532000
5.91856000 2.62328000 -3.62315000
6.01618000 2.53273000 -3.42179000
6.01546000 2.61801000 -3.45790000
6.12436000 2.60760000 -3.25647000
-0.29229000 -7.72737000 -5.27830000
-0.22593500 -7.80440000 -5.23880000
-0.22853000 -7.76954000 -5.19284000
-7.26703000 4.86345000 0.43343600
-7.27102000 4.76162000 0.24808600
-2.94597000 -1.11004000 2.64880000
-2.79360000 -1.19762000 2.53379000
4.39972000 1.72898000 -4.88478000
4.76660000 -5.40210000 2.73259000
2.90359000 -6.41709000 2.22234000
2.95868000 -6.75789000 2.26953000
0.59045500 -3.79071000 -5.63601000
0.56621300 -3.88872000 -5.69258000
0.56196100 -4.08957000 -5.47416000
6.91010000 1.56329000 0.10810400
6.87584000 1.56031000 -0.12139800
0.85173400 -2.03932000 -3.73738000
0.84996100 -2.05495000 -3.78506000
6.64172000 7.36329000 -0.51143300
6.65021000 7.46806000 -0.41814300
6.63527000 7.23820000 -0.55999900
-1.63852000 4.40860000 6.95184000
-4.52993000 -7.95394000 2.49722000
-4.54883000 -8.02992000 2.42892000
-4.80938000 1.29002000 4.62246000
-0.91300600 4.57678000 -7.43847000
-1.00206000 4.60114000 -7.41365000
4.35583000 -2.77863000 1.90273000
-4.84976000 4.12014000 -4.83388000
-0.57494500 -4.86484000 -4.43597000
0.48680300 -2.60703000 -3.47702000
0.50628900 -2.74328000 -3.43122000
-4.44350000 -0.08855820 -3.51710000
-4.59733000 -0.01450100 -3.45306000
6.34327000 0.26808200 0.06001180
6.35917000 0.28007300 -0.04737220
3.72725000 1.80619000 -5.72170000
-6.23366000 3.97814000 -1.71278000
-6.36714000 6.67238000 1.20507000
-6.35187000 6.62156000 1.18161000
1.17981000 -1.74325000 1.47026000
1.03219000 -1.80938000 1.14739000
-4.35664000 -5.65407000 2.15858000
-0.33547500 -7.53543000 -5.14485000
-0.33861400 -7.58739000 -5.19994000
5.44794000 -0.87457100 -0.29115100
-4.58890000 -8.11405000 2.40341000
5.27369000 -0.89097800 2.45049000
4.33581000 0.36762100 3.98943000
-5.79866000 3.16725000 -3.24087000
-5.71295000 3.03481000 -3.42625000
5.57871000 -3.24806000 2.78981000
0.58944800 -2.64491000 -4.07389000
0.63400100 -2.69317000 -3.84949000
-5.58330000 -2.09483000 2.22049000
-5.00524000 4.03044000 4.13713000
0.48932000 -9.74595000 -6.37800000
0.49206500 -7.06082000 -5.85823000
-5.85153000 0.34884000 1.39070000
-5.93284000 1.03276000 -3.17699000
-2.66041000 -0.12405600 -5.41324000
2.35782000 3.30843000 6.17521000
0.10959400 0.14057100 -6.83390000
0.12755900 0.19375700 -6.86321000
4.96539000 -8.37820000 3.36052000
4.94189000 -8.44753000 3.37093000
4.99332000 -8.54628000 3.38539000
0.10285300 2.67614000 -7.13232000
0.41303200 -5.70831000 -6.10890000
0.38088700 -5.65745000 -6.10881000
-6.71838000 6.87840000 0.21732700
4.30088000 -1.18879000 0.49298400
4.10060000 -1.26776000 0.40617600
-6.93925000 2.43599000 2.63891000
-6.90500000 2.26346000 2.61719000
-4.06082000 -7.19822000 2.31403000
-4.03666000 -7.29099000 2.33503000
-0.86511600 -2.63278000 -3.68484000
-0.85827700 -2.60260000 -3.65789000
-0.71892200 -2.57588000 -3.61342000
6.38320000 1.74121000 3.53065000
6.36823000 1.74462000 3.57303000
6.33250000 1.65325000 3.57595000
-4.26562000 -2.11234000 2.51024000
-4.14189000 -2.16887000 2.50921000
-4.04910000 -2.21891000 2.49913000
7.43277000 4.52208000 -0.63165000
5.04146000 -6.80818000 3.15665000
-6.76944000 1.69901000 2.62934000
-6.81699000 1.74246000 2.68490000
-6.60580000 1.17428000 3.13998000
-4.68250000 -3.28364000 2.66250000
-4.83900000 -3.20616000 2.69439000
0.39698900 -7.56096000 -4.64865000
-2.12391000 4.20654000 -7.09835000
-2.59758000 4.17240000 -6.87046000
1.94771000 2.23770000 6.05452000
-4.42905000 -2.34687000 1.21329000
-4.45587000 -2.28176000 1.22024000
-4.26470000 -2.37614000 1.08599000
7.10872000 4.18979000 1.80570000
-0.81570700 4.39067000 6.21499000
6.82971000 2.33024000 -1.19489000
-4.87266000 2.60096000 -4.92407000
5.99675000 4.53854000 2.69945000
5.96367000 4.50865000 2.67693000
-5.58435000 0.25061000 3.07315000
-4.84170000 -6.69652000 2.56506000
3.25109000 2.08872000 -6.05572000
-6.56529000 4.20225000 -1.60657000
-6.50340000 4.13924000 -1.59966000
-6.45262000 4.16618000 -1.86230000
0.25041800 0.34389800 -6.93043000
0.26923800 0.43201900 -6.96562000
-6.49870000 2.14567000 -1.33491000
-6.48544000 2.28162000 -1.43140000
-0.33910500 4.45263000 6.25312000
7.58468000 6.76560000 0.32033800
7.58845000 6.81142000 0.22720000
-0.61882000 -0.37606600 -5.61724000
6.44167000 2.23058000 2.50134000
-6.91839000 1.99228000 2.84645000
-4.82532000 -9.54743000 2.88673000
-4.75126000 -9.48180000 2.85831000
-4.41800000 -2.07520000 2.51539000
-4.53545000 -2.02733000 2.54289000
2.61183000 -5.20963000 1.43831000
-6.49695000 2.55986000 -2.29542000
-6.49376000 2.46636000 -2.32096000
-3.45120000 -1.24304000 -1.56257000
-4.21332000 -6.37770000 2.14568000
-4.25024000 -6.41790000 2.14159000
4.03711000 -1.11336000 -1.21207000
3.95490000 -1.16339000 -1.12486000
3.97942000 -1.09755000 -1.25264000
-6.31438000 6.81000000 -0.94072400
2.60334000 0.17576100 -5.58504000
2.42888000 0.34751100 -5.79043000
-6.22631000 0.11654000 0.10263900
-7.17825000 5.02225000 1.53147000
-7.18047000 5.09101000 1.50602000
-4.99949000 -1.10327000 2.68644000
-5.05561000 -1.08439000 2.69637000
-4.98823000 -1.05136000 2.73157000
-5.04708000 -1.02875000 2.73790000
4.83902000 3.54497000 -4.87012000
4.48719000 3.71157000 -5.17231000
-6.52190000 1.33952000 -0.24662900
7.48453000 7.00429000 1.26513000
7.58986000 7.41711000 0.95160800
6.61564000 7.17723000 1.25390000
6.61386000 7.04352000 1.31492000
3.80294000 -0.64416200 3.22118000
6.02607000 -0.24268000 -0.04055700
-3.97294000 1.70029000 -5.67263000
-4.09429000 1.49278000 -5.54857000
5.18061000 -9.57223000 2.68265000
4.95681000 -9.62555000 2.58012000
5.18009000 -9.61779000 2.70663000
0.65557600 -1.32965000 3.09887000
0.32066400 -1.31081000 3.19730000
0.88824100 -1.33458000 3.04117000
5.38503000 -9.30718000 2.77627000
0.39281600 -7.02011000 -5.08146000
4.85749000 -7.59197000 2.51987000
7.40657000 5.42816000 1.14702000
7.44035000 5.39704000 0.90456600
5.77127000 4.14853000 4.32543000
5.04458000 -3.34894000 3.36488000
5.54670000 0.76676200 -3.39924000
5.62334000 0.67156400 -3.16732000
-4.55390000 -6.12211000 1.68952000
-4.47790000 -6.10384000 1.69682000
3.33042000 3.71126000 -5.73003000
5.32026000 0.63095600 -3.11203000
5.45554000 0.72319000 -2.98223000
3.95076000 -0.69193800 -3.13284000
-6.91326000 2.36732000 0.03569730
0.37900100 0.71636900 -6.22817000
2.96650000 -0.80600600 -3.75542000
4.54094000 4.57992000 5.62124000
3.27361000 -9.43664000 2.60412000
-3.85020000 -8.64435000 2.40301000
-3.99659000 -8.62971000 2.46651000
0.45603300 -4.87645000 -4.50683000
0.40246100 -4.96425000 -4.53903000
0.45706700 -9.30564000 -6.47004000
-3.31486000 -4.15607000 2.17988000
-3.45163000 -4.20803000 2.23143000
6.85998000 7.87319000 0.46431800
4.90014000 -8.96378000 3.40940000
4.70460000 -8.70042000 3.31144000
4.70198000 -8.85102000 3.31846000
6.31195000 4.51121000 -1.98757000
4.06379000 -3.19211000 1.82893000
4.12408000 -3.12476000 1.85437000
3.22529000 1.32511000 -5.59057000
2.24287000 4.73646000 6.64992000
1.36229000 4.74794000 6.76875000
1.78581000 4.74748000 6.76370000
-3.63460000 4.49238000 -5.40660000
-5.53881000 -9.22994000 3.07414000
-5.34832000 -9.28599000 3.01377000
-5.62875000 -9.29751000 3.10426000
3.42755000 -6.31883000 2.53594000
3.46798000 -6.27620000 2.52642000
-5.36591000 -0.55962600 1.66362000
6.61641000 3.16332000 0.64660600
-3.54740000 2.77024000 -5.64488000
-3.70707000 3.01638000 -5.51919000
-3.70854000 2.76393000 -5.52790000
-3.79920000 2.77578000 -5.46512000
-7.22027000 5.99258000 -1.24706000
-7.21237000 5.81154000 -1.24489000
0.56319500 -3.61110000 -3.90908000
2.32769000 -6.48460000 1.81274000
0.41538800 -5.57551000 -5.53886000
2.69697000 -4.44958000 2.33346000
2.80134000 -4.46746000 2.38343000
2.78002000 -4.32649000 2.40070000
2.96420000 -4.57541000 2.44654000
5.44742000 0.18535300 3.42099000
5.24296000 -0.20008200 3.34168000
0.41806000 -6.00462000 -3.79697000
0.41255400 -6.12479000 -3.76613000
0.59568600 -1.81042000 -5.91286000
3.98044000 -8.05228000 2.56179000
7.30491000 4.79319000 -1.91824000
7.32567000 4.90945000 -1.86993000
4.91978000 4.02568000 -4.94965000
-4.35186000 0.35881500 3.93065000
0.38213000 -6.72454000 -5.37056000
0.43053300 -6.83787000 -5.35535000
-5.54728000 -7.35432000 2.44966000
-5.50685000 -7.37299000 2.51728000
-1.71340000 4.65982000 -6.91360000
-1.90151000 4.66707000 -6.96176000
-7.04304000 7.52776000 -1.88041000
-7.10748000 7.59148000 -1.82768000
-0.48382500 -3.29133000 -3.36363000
-0.53515000 -3.27557000 -3.39919000
-0.52370900 -3.32125000 -3.40172000
3.13479000 0.34437100 4.82653000
0.52798900 3.08411000 6.35807000
0.37791900 3.01793000 6.36990000
0.16710400 2.99473000 6.37952000
3.13601000 -8.57135000 1.62685000
3.18492000 4.44427000 -5.80456000
-6.28531000 3.64404000 -2.63576000
-3.59274000 -0.90418400 1.64105000
-3.46287000 -0.97666200 1.48532000
2.49010000 -6.17108000 1.43714000
2.50676000 -6.37211000 1.42962000
-0.26280400 -9.70325000 -6.36186000
-3.94950000 -9.52995000 1.55083000
-3.91149000 -9.47666000 1.52780000
-3.98079000 -9.51333000 1.51649000
-0.25976300 -4.85774000 -3.22717000
2.88308000 -8.76147000 2.34851000
2.93304000 -8.68433000 2.37268000
2.22305000 -0.97583000 3.55004000
0.30542800 3.53607000 -6.86066000
0.13078000 3.57867000 -6.87095000
0.15162500 3.69157000 -6.81664000
0.02521540 3.59823000 -6.87277000
-3.16894000 -5.46907000 1.87956000
-3.18796000 -5.39915000 1.91995000
-3.10730000 -5.47167000 1.82611000
6.66388000 0.98461100 1.11596000
6.70683000 1.06000000 1.06540000
0.47041300 -9.58350000 -4.42853000
1.81502000 2.81761000 -6.64500000
-4.97752000 -2.82872000 2.74768000
-4.85533000 -2.65977000 2.71473000
-3.21042000 -2.75699000 1.92979000
-3.26042000 -2.69573000 1.94286000
-3.26112000 -2.74017000 1.97973000
-7.24407000 6.72710000 1.31307000
-7.28330000 6.86293000 1.25215000
6.66526000 4.65115000 0.47647600
6.37505000 0.42014200 0.96304100
-3.74334000 -9.49866000 2.33645000
-2.65184000 4.25823000 5.75780000
-2.55578000 4.43779000 5.77279000
-3.51975000 -8.87503000 2.25273000
1.03240000 -1.42359000 -3.33639000
1.05361000 -1.38239000 -3.41695000
6.56038000 4.48744000 0.30809500
6.56729000 4.40060000 0.16060900
2.65070000 1.75545000 5.72042000
2.39792000 1.72824000 5.81607000
5.00498000 -6.29573000 2.99186000
7.62203000 7.91365000 -0.10910800
3.45524000 3.52859000 -5.87899000
5.54183000 0.28131100 -2.88254000
5.45679000 0.23833100 -2.99880000
0.86206300 -1.68894000 -4.02435000
-2.98779000 3.29993000 -5.93825000
-2.88244000 2.75732000 -6.02509000
0.59922100 -1.88712000 -5.62129000
0.62085400 -1.82287000 -5.71562000
-5.62997000 -6.04474000 2.34178000
-5.61412000 -6.03908000 2.41824000
3.08927000 0.88703200 -5.80830000
-6.68823000 4.61001000 -3.06319000
4.32470000 -0.62821700 1.86269000
0.53421700 -3.24742000 -4.88796000
0.54855200 -3.16741000 -4.89441000
-5.87059000 3.13434000 -3.86176000
-0.04683730 0.48163600 -6.07446000
3.93217000 -3.48600000 2.90975000
3.88948000 -3.64674000 2.90101000
-5.49490000 -9.79338000 2.27462000
6.09412000 4.13622000 3.83294000
-4.10678000 -8.58815000 1.48661000
-3.95545000 -8.62335000 1.44735000
3.99002000 -1.22031000 0.72913700
3.78819000 -1.32061000 0.67132500
-5.79150000 -8.29885000 2.55808000
-5.78301000 -8.42891000 2.68298000
-5.77238000 1.75532000 3.77158000
-5.82490000 1.75222000 3.68001000
2.87857000 -8.37695000 1.95250000
2.92429000 -8.43323000 1.88099000
2.97841000 -8.47933000 1.80469000
2.62743000 -3.15896000 2.02251000
5.87237000 1.27482000 -2.66471000
2.00009000 1.20010000 5.80389000
-6.75092000 1.89464000 2.56026000
-5.36234000 -3.99035000 1.74072000
-4.23613000 -1.50506000 2.57241000
7.36546000 7.88666000 0.46236400
7.31257000 7.86107000 0.57944200
4.69466000 -6.86050000 2.39428000
-4.42561000 -6.42116000 1.72359000
4.23505000 3.72958000 -5.36626000
-0.17200600 1.81198000 -7.16166000
-5.11111000 -1.57764000 2.61495000
-0.62176100 -3.84170000 -3.31001000
-0.62656800 -4.11938000 -3.29130000
0.38609100 -1.83061000 1.02922000
0.07171620 -1.77801000 1.21040000
-0.23399100 -1.73123000 1.40536000
-5.82493000 -2.54382000 2.00527000
-5.91507000 -2.81177000 2.06231000
-2.66080000 2.96929000 6.10210000
-4.73498000 -9.20760000 2.93260000
-3.49166000 -8.79457000 2.23283000
-0.86245100 4.53446000 6.21571000
-1.47436000 4.52009000 6.10037000
6.25290000 1.11138000 1.46408000
-6.88695000 4.81537000 -0.33657500
-6.67228000 4.80624000 -0.38968500
-5.66824000 -1.98520000 2.05130000
-5.60832000 -2.00030000 2.03201000
0.67961300 -1.93520000 -4.77282000
0.66348600 -2.01553000 -4.76164000
-6.48118000 3.68657000 -0.51327500
-6.48848000 3.77033000 -0.29370200
1.42660000 -1.06037000 -3.34919000
1.17776000 -1.05364000 -3.46385000
-4.46263000 -7.62150000 1.82165000
-4.40689000 -7.48678000 1.80490000
2.68881000 -6.64959000 2.09694000
7.36004000 6.80947000 -0.49541100
0.29730200 -6.98574000 -4.69929000
4.04211000 -6.78239000 2.83630000
6.37588000 4.54979000 -2.40588000
2.63253000 -0.99422000 -3.45686000
2.53554000 -0.94992600 -3.65627000
-6.43803000 6.91928000 0.18057100
-6.46087000 6.86832000 0.20147300
-6.45993000 6.97579000 0.10484200
-0.26337200 -1.62985000 -0.49962300
5.82310000 0.70011700 -2.18057000
-5.88556000 3.41756000 -3.68576000
-2.86477000 -1.46053000 1.14757000
-2.88764000 -1.50744000 0.69997800
1.92414000 0.84286600 -6.26958000
2.01792000 0.99232000 -6.33072000
2.13905000 1.00498000 -6.28350000
1.98714000 0.91693200 -6.28827000
1.87677000 0.90599800 -6.31805000
5.91555000 0.86137500 -2.87214000
5.34045000 -3.89392000 2.57201000
-5.89299000 4.62988000 4.38718000
-4.81781000 0.60986100 -4.40235000
-4.83313000 0.52250100 -4.32192000
-4.99524000 0.65655000 -4.23121000
4.90424000 -0.96076200 -1.10624000
-3.12934000 -6.08666000 1.16697000
0.47414400 -4.74282000 -5.04649000
0.31306700 -6.77832000 -3.32940000
0.28582600 -6.82728000 -3.34775000
0.32372400 -6.83029000 -3.36907000
-1.62067000 3.47223000 -6.73992000
-1.41382000 3.46895000 -6.78122000
3.25209000 2.01250000 -5.73942000
1.51127000 4.43209000 -6.43998000
4.23625000 -2.39407000 1.74496000
-3.70762000 -9.48463000 2.28855000
-2.00594000 2.69708000 6.31054000
-2.11023000 2.83014000 6.27713000
2.73760000 -1.19996000 -1.62310000
2.99040000 -1.13455000 -1.63878000
-6.25785000 0.18623900 -0.89011700
-6.25213000 0.14547100 -0.77426900
-6.35913000 0.22084300 -0.69330600
-7.25754000 6.35126000 1.28022000
-7.26391000 6.29653000 1.24099000
7.02862000 6.65090000 -0.73187800
6.48606000 6.13268000 0.81207000
6.50016000 6.36176000 0.79571100
0.21082700 2.63096000 -7.14061000
0.20317100 2.64146000 -7.10227000
0.13380000 2.66735000 -7.13517000
4.63763000 1.47571000 4.42204000
4.64013000 1.58344000 4.45484000
6.28684000 3.98622000 -3.17313000
6.41042000 3.99921000 -3.07475000
0.43303200 -5.76193000 -6.12466000
-2.58211000 4.49036000 -7.01511000
2.88606000 -2.59178000 2.61262000
2.76944000 -2.63953000 2.54688000
3.02263000 -2.60280000 2.56805000
-5.04246000 2.46282000 4.28433000
-1.06600000 0.22125100 5.43391000
-5.99257000 -9.49719000 2.72503000
5.81575000 -1.17975000 2.90239000
5.84213000 -1.03072000 2.91894000
-5.58650000 4.81774000 4.69861000
-5.69881000 4.83572000 4.54135000
-4.71817000 -5.99850000 1.72150000
-5.12517000 1.74669000 4.56640000
-5.11548000 1.66027000 4.53660000
-5.05264000 1.67257000 4.61311000
4.94756000 -2.19015000 2.25537000
7.22541000 4.11750000 0.95478000
7.19076000 4.15646000 1.18957000
7.23956000 4.09396000 0.71823100
-6.34948000 -0.78384900 2.90158000
-0.55987400 0.24138700 -6.44540000
-4.74628000 -8.02655000 1.87272000
5.42139000 -2.37861000 2.96356000
-4.15279000 -5.28627000 1.40058000
-3.71122000 -0.84310600 -3.08759000
0.55274600 -3.52917000 -6.00232000
6.50114000 5.02590000 -1.03031000
6.48724000 5.03503000 -1.05641000
1.13220000 0.10094900 -6.04059000
7.17035000 4.53091000 -2.33766000
7.13032000 4.49541000 -2.44869000
0.86590200 -1.56149000 -1.10829000
0.32753100 -1.56715000 -1.17143000
0.46049000 -1.57137000 -1.08122000
5.10948000 -7.20532000 2.78331000
5.08687000 -7.19893000 2.86683000
-2.32621000 -1.06941000 2.41915000
-3.33267000 -3.92552000 1.03204000
-3.28746000 -3.96466000 1.05933000
1.59444000 -1.17909000 2.55387000
1.64687000 -1.13750000 2.67613000
3.26704000 -1.09018000 1.33084000
-5.36423000 4.51259000 -5.07396000
-3.31022000 0.37008800 5.16683000
-3.11740000 0.45723000 5.30881000
-3.22043000 0.32676400 5.17651000
0.28760900 0.27544700 -6.82999000
0.24554200 0.13589500 -6.76212000
5.46494000 -2.81915000 3.15057000
0.08203560 -1.91104000 -6.07618000
-0.33608500 -4.29064000 -6.07715000
-2.87798000 1.87828000 6.02413000
-3.17796000 0.82420500 -5.48476000
6.66779000 6.33784000 -0.78056700
6.63576000 6.15370000 -0.82657300
3.95185000 -1.05033000 -1.40414000
3.43955000 -1.85191000 0.99422600
-0.69238500 -1.06610000 3.78231000
-0.55246200 -0.97400300 4.02016000
-6.05092000 -1.62359000 2.82504000
6.89776000 1.83940000 1.39230000
-6.29994000 4.57639000 3.76156000
5.99343000 4.02037000 2.55809000
5.92132000 3.91081000 2.73401000
5.70018000 4.03624000 3.08789000
5.82306000 4.07008000 2.86337000
5.44156000 1.70649000 3.60802000
-4.99974000 -0.82356800 2.87045000
-0.53696200 -0.99077100 3.43288000
2.37156000 -1.35870000 -2.22777000
2.18130000 -1.42037000 -2.08920000
2.17081000 -1.47091000 -1.79782000
2.00619000 -1.51808000 -1.70306000
-6.98702000 2.31325000 2.83722000
-5.07975000 -5.98227000 2.00333000
-5.06577000 -5.93285000 2.04219000
-5.04987000 -5.91317000 1.95483000
-5.09215000 -5.97570000 2.07379000
-6.43318000 8.01602000 -1.19837000
-6.44511000 7.94237000 -1.38062000
-1.88584000 -1.33344000 -2.18860000
-4.95793000 -0.35457000 -1.79428000
-4.85650000 -0.37606300 -1.99897000
7.41198000 5.14137000 0.63503100
7.42870000 5.16678000 0.65427700
7.38879000 5.15106000 0.61639800
-4.84031000 0.26139800 3.28071000
-5.99275000 -8.75787000 2.30473000
-5.96173000 -8.62744000 2.33174000
-6.06555000 2.61670000 -2.78801000
-5.93920000 2.81551000 -3.03517000
3.66296000 -8.47383000 2.75777000
3.65317000 -8.38857000 2.72620000
3.73945000 -8.44757000 2.76560000
-6.11857000 5.18999000 -1.84429000
-6.14396000 4.99990000 -1.87905000
-6.17359000 5.00088000 -1.90036000
-0.37921400 -6.95803000 -3.59681000
-0.34709200 -6.95112000 -3.56573000
-0.39762800 -6.88398000 -3.55676000
-0.40643000 -6.95749000 -3.62371000
3.44326000 0.74192800 -5.17434000
2.49894000 -5.06757000 2.02418000
6.45929000 3.45646000 -2.44032000
1.82820000 4.68997000 6.35509000
2.34081000 4.65962000 6.11256000
5.69925000 -0.01818370 2.64398000
0.51318000 -3.95171000 -6.11638000
-6.20630000 1.98925000 -3.05634000
-6.67270000 3.87880000 0.20244300
-6.69463000 3.81514000 0.29504800
-6.64622000 3.91121000 0.50401800
-3.13815000 -6.69749000 1.92608000
-6.77201000 7.90070000 -1.55014000
0.61689400 -2.89695000 -4.85860000
0.62628600 -2.79680000 -4.87885000
-6.05815000 4.25518000 -3.91466000
-5.98937000 4.24611000 -3.93842000
-6.37323000 4.34955000 -0.33265900
-6.38328000 4.34705000 -0.14054800
2.85367000 2.43487000 -6.25400000
2.78257000 2.19876000 -6.29395000
-5.35257000 -0.40384000 1.60169000
-5.26973000 -0.45399800 1.48975000
-5.22033000 -0.51458100 1.49542000
-5.40528000 -0.34892700 1.60650000
-5.57292000 1.51600000 -3.93123000
-5.44541000 1.49313000 -4.11166000
-3.41145000 -2.38651000 1.58221000
-6.03890000 -3.22200000 2.20790000
3.50635000 4.23965000 6.21491000
-4.54027000 -7.66547000 1.82499000
-4.56655000 -7.56524000 1.82369000
-4.28707000 -7.76763000 2.24507000
3.76335000 -8.38253000 2.72682000
0.07784430 -4.70079000 -6.10343000
-6.81465000 3.40959000 0.70002400
-6.82517000 3.43282000 0.47420600
-6.77033000 3.49248000 0.94036500
2.87961000 -0.33601900 -4.77962000
6.56385000 6.45162000 -1.04691000
6.47209000 5.66802000 -1.31319000
6.45557000 5.43483000 -1.31224000
6.48276000 5.61646000 -1.20411000
5.28488000 -8.98159000 3.19779000
0.17852800 2.09306000 -7.36621000
0.54852100 4.18437000 -6.97657000
0.54206400 4.19065000 -7.04843000
5.28910000 -2.06684000 2.88508000
5.23634000 -2.07242000 2.96905000
6.74030000 1.18385000 -0.34196300
4.95713000 -6.92553000 2.56309000
-1.03143000 -2.32753000 -3.71064000
-4.35295000 -6.29255000 2.18810000
-3.18223000 -0.28973500 3.85527000
-2.92549000 -0.35262900 3.89962000
-3.06985000 -0.37223700 3.76246000
1.50809000 -0.79479600 3.71778000
-0.63306800 -4.85945000 -3.84986000
-3.76482000 -7.63606000 1.37719000
-3.73066000 -7.52653000 1.36398000
-3.67446000 -7.71257000 1.35726000
-3.67493000 -7.81331000 1.36000000
0.64756000 0.47235500 5.99108000
6.82333000 3.82853000 -0.70400200
6.81798000 3.77273000 -0.70277400
-3.25274000 -3.90512000 2.14546000
6.91680000 4.72486000 -0.90420000
6.91885000 4.76810000 -0.91532200
6.84485000 4.83903000 -0.92224700
3.82676000 -3.10727000 2.90671000
3.70223000 -3.08621000 2.75360000
3.77758000 -3.13275000 2.84432000
4.78185000 -8.29849000 2.41239000
4.90214000 -8.53583000 2.47885000
0.39361000 4.49882000 6.25562000
-6.04156000 -0.45708100 2.15734000
6.58402000 6.86858000 -1.52003000
6.56519000 6.59791000 -1.57385000
5.41726000 2.26409000 -3.83320000
-2.71802000 0.06139040 4.70678000
-6.72696000 4.43166000 2.75650000
-6.37522000 2.38989000 -1.93086000
-6.39681000 2.47534000 -1.83824000
-6.00908000 4.85701000 4.04944000
6.85468000 5.60710000 1.56783000
7.09376000 5.70368000 1.59108000
-3.41057000 -1.80370000 1.73051000
-3.42356000 -1.91497000 1.73835000
-3.65469000 -3.10430000 1.06664000
-3.78691000 -3.07467000 1.13608000
-3.61104000 -3.07597000 1.02098000
-3.60775000 -3.10786000 1.04060000
4.25058000 -0.15021500 -3.47701000
4.68023000 -0.05888310 -3.07882000
-5.97796000 4.58184000 -2.21869000
-5.90451000 4.54431000 -2.41668000
4.93924000 -0.04507320 3.52263000
4.90371000 0.00120153 3.59171000
4.93801000 0.12472500 3.68524000
-4.74927000 -8.93893000 2.92754000
-4.76175000 -8.86103000 2.89876000
-6.55205000 4.81742000 -0.79213400
3.30383000 1.23735000 5.25760000
3.05154000 1.10542000 5.33474000
2.83433000 1.07586000 5.42722000
-5.52272000 -5.91663000 2.39044000
-4.67949000 -8.44150000 2.55104000
6.21018000 0.63157600 0.54348000
-2.74960000 2.22176000 -6.42484000
-2.75082000 2.29037000 -6.42809000
-2.34477000 -0.07420860 -5.13307000
4.94834000 -8.47111000 3.37479000
5.28515000 -0.92755700 -0.69446200
-6.85820000 4.75405000 -2.59450000
-6.93743000 4.79879000 -2.35546000
5.78632000 4.50801000 -4.77251000
5.66169000 4.50322000 -4.91689000
0.35014800 -7.19515000 -5.42386000
0.40003700 -7.23665000 -5.38087000
0.30452800 -7.17304000 -5.45776000
1.82183000 -0.69333300 4.36435000
1.97218000 -0.70679900 4.27829000
-6.98853000 5.03129000 1.58796000
-7.08942000 4.99090000 1.61736000
4.51649000 3.30859000 -4.89092000
4.47993000 3.12206000 -4.93313000
-4.95183000 0.61071400 -3.83736000
-0.38353400 -4.58248000 -5.80941000
-0.35773600 -4.62550000 -5.89786000
-0.42553500 -4.57022000 -5.61248000
-4.98317000 3.44439000 4.63129000
-0.15773100 4.66542000 -7.21019000
3.23597000 -0.78683500 -2.94869000
4.17515000 -1.09632000 0.97520600
4.14856000 -1.12218000 0.87122700
5.59120000 1.82223000 -4.00269000
5.49385000 1.80968000 -4.12500000
0.80417400 -1.35527000 -4.46352000
0.56421600 0.87888400 5.94375000
0.55259000 0.77321700 5.88955000
0.37066700 0.92381100 5.97749000
-5.98975000 -9.65560000 2.31039000
-5.97769000 -9.62537000 2.28538000
-5.93059000 -9.68781000 2.27844000
0.40396800 -7.46056000 -5.84710000
0.33419500 -7.39906000 -4.91837000
3.22736000 -2.73137000 1.28996000
0.37334900 -2.04686000 -6.14788000
4.28414000 -7.68414000 2.18847000
6.03888000 2.43495000 3.63023000
2.95775000 1.12531000 5.66617000
3.02082000 1.23241000 5.67079000
0.61043700 -4.36825000 -3.51479000
0.60819100 -4.46542000 -3.58757000
3.29540000 -2.68795000 1.10299000
-0.92027200 -1.08116000 -4.36414000
-0.87791300 -1.08846000 -4.40886000
-1.07320000 -1.14351000 -4.12171000
-1.00138000 -1.09880000 -4.25533000
3.29343000 -1.96672000 2.76251000
-0.50717000 -4.33213000 -3.24155000
-0.44949100 -4.33731000 -3.23291000
3.35157000 4.16550000 -5.66796000
3.38530000 4.26112000 -5.64227000
0.12115800 -1.90220000 -0.13700200
-5.49220000 -1.28471000 1.88271000
4.23431000 -3.57390000 1.86211000
4.35782000 -3.56235000 1.92192000
-0.29945800 -2.07000000 -6.14780000
5.14897000 -9.56995000 3.40901000
5.14802000 -9.46439000 3.44498000
-6.93033000 6.75889000 1.34148000
-7.02426000 6.72307000 1.35547000
2.07980000 4.61256000 -7.14988000
2.38442000 4.59288000 -7.06477000
2.06017000 4.59997000 -7.17370000
0.69766400 -4.07893000 -3.22727000
0.71011400 -4.08157000 -3.25869000
-6.31931000 7.73188000 -1.53417000
6.61412000 3.84308000 -1.93501000
3.42008000 0.19507100 -5.15622000
-0.43305700 4.34921000 7.05429000
-0.05079060 4.35585000 7.06641000
-0.41218200 4.32438000 7.00390000
-0.01261400 4.33395000 7.03182000
2.41376000 1.07126000 5.86884000
-0.41069100 -8.13734000 -4.66074000
3.99841000 -9.11637000 2.05102000
4.25785000 -9.37766000 2.18853000
4.21159000 -9.44724000 2.15845000
-6.19977000 0.25101000 1.73368000
0.02980960 -1.77588000 -6.14482000
0.00102123 -1.72241000 -6.21058000
0.12099700 -1.73067000 -6.20439000
0.10645800 -1.60783000 -6.35964000
-3.37063000 -2.07602000 2.38593000
-3.38116000 -2.24834000 2.38266000
2.85298000 4.63198000 -6.73267000
2.67045000 4.62900000 -6.87067000
-3.07988000 4.24811000 5.85397000
-3.51079000 4.23176000 5.60889000
-1.39358000 0.70088500 -6.06908000
6.79217000 7.92347000 -0.05598610
7.40711000 6.38817000 -0.80734000
7.49114000 6.28657000 -0.83392000
3.68053000 -7.38941000 2.44289000
0.18063200 0.95377400 -7.11941000
5.40016000 -3.41237000 2.57137000
-6.10687000 4.87816000 -1.64305000
-6.12790000 4.97110000 -1.52964000
-6.18364000 4.95438000 -1.27622000
4.35626000 -0.21843600 3.73144000
-2.53854000 0.57680000 5.62402000
-2.48010000 0.65083200 5.68697000
-4.41023000 -4.90374000 2.42587000
0.34235200 -5.19499000 -5.66473000
5.48278000 -2.77181000 2.61882000
-5.38973000 -0.13182400 -2.55690000
3.94230000 -5.31675000 2.74774000
3.93421000 -5.74834000 2.75262000
-6.63209000 2.30527000 -0.27456000
-6.62396000 2.44473000 -0.37782600
-3.32702000 -2.56831000 1.73562000
2.55859000 -4.62951000 1.58090000
5.50241000 1.43584000 3.42048000
0.72205800 -4.71045000 -3.48754000
0.72227200 -4.66975000 -3.47432000
0.69399500 -4.62074000 -3.48174000
3.46822000 -0.20967900 -4.61416000
1.86605000 -1.13488000 -3.50336000
1.64433000 -1.17120000 -3.51104000
-5.49300000 -6.13352000 2.63081000
-5.45244000 -6.29967000 2.59883000
-5.40335000 -6.33460000 2.64445000
4.96890000 -6.01704000 3.14521000
4.23851000 -8.26108000 3.05368000
4.20090000 -8.33521000 3.03956000
4.17312000 -8.34653000 3.01764000
-0.58268000 -4.84987000 -3.34353000
-0.56954300 -4.93043000 -3.36493000
-4.55961000 3.86361000 -5.00997000
-4.54669000 3.93326000 -5.02119000
-4.37620000 3.90521000 -5.17238000
6.82572000 5.94419000 1.54063000
6.87281000 4.23444000 2.59636000
7.50366000 6.66389000 0.31577000
-5.80370000 3.36242000 -3.17472000
-5.86065000 3.28628000 -3.08805000
-5.81592000 3.63157000 -3.05826000
2.26163000 1.20595000 -6.35332000
0.49734300 -4.43431000 -3.24865000
0.51620300 -4.23744000 -3.20531000
0.56334200 -4.13400000 -3.18827000
5.75821000 0.51065100 -2.04511000
-6.31898000 3.51689000 3.01588000
6.93991000 6.06785000 0.50566900
-5.11714000 4.35420000 4.97955000
-3.55116000 -6.63070000 2.12580000
1.10801000 -1.72662000 1.57077000
7.08577000 4.61935000 2.10073000
7.10474000 4.64529000 1.99593000
2.46534000 3.87678000 6.01703000
2.22925000 3.86013000 6.10523000
7.02136000 4.52278000 2.31225000
7.07477000 4.52915000 2.15164000
6.49634000 2.41246000 3.45203000
-1.19175000 0.86731200 -6.54210000
0.49978600 -5.35104000 -3.82777000
0.52532900 -5.18979000 -3.96116000
3.46473000 -1.07610000 1.00013000
-1.94591000 4.16364000 -7.07197000
-1.76353000 4.16609000 -7.12392000
4.69145000 -5.90262000 3.05958000
0.25181600 2.51688000 -7.33447000
0.21396900 2.51242000 -7.38002000
-2.09287000 -1.56556000 -1.62984000
6.46129000 5.11626000 -1.81003000
0.24900300 -6.78090000 -3.30605000
0.13436800 -6.82320000 -3.31522000
0.23145700 -6.82499000 -3.33057000
6.70722000 1.41090000 -1.43297000
4.29308000 -4.89072000 2.09005000
4.20830000 -4.89419000 2.08408000
-3.19952000 -5.96442000 1.11575000
-4.62995000 -8.91935000 2.82138000
2.70351000 1.86960000 -6.30601000
-0.15045900 -9.87176000 -5.30814000
4.59924000 -5.33912000 3.00823000
2.67999000 -3.24304000 1.79226000
2.66974000 -3.28624000 1.83154000
6.09074000 4.43390000 -2.60749000
2.30075000 4.07090000 -6.46214000
2.30491000 4.09735000 -6.50468000
-4.27844000 -1.30446000 1.02279000
-4.27188000 -1.25080000 1.01698000
-2.95901000 -1.50512000 0.51345800
6.72822000 1.22406000 1.49161000
6.73791000 1.16454000 1.37102000
-0.16109400 -7.28894000 -4.90976000
-0.63327000 0.06391240 -5.69897000
-2.22439000 2.15645000 -6.65764000
-0.28908900 -2.51923000 -6.39225000
6.90439000 3.95828000 -0.30460100
-6.13483000 0.21028700 1.53303000
5.60330000 -0.37672500 0.96614600
5.69923000 -0.33587200 0.86314800
5.66734000 -0.31877000 0.98721400
-0.34172100 -3.07775000 -6.42491000
-0.31853800 -3.18407000 -6.42622000
7.37452000 7.86736000 -0.90792500
6.50675000 4.14825000 3.30046000
6.47131000 4.21401000 3.42256000
6.45164000 4.16711000 3.43211000
6.54502000 4.08458000 3.22329000
6.46836000 4.11873000 3.35886000
-0.87652700 -1.59137000 -3.15239000
-0.96555400 -1.53889000 -3.11914000
-0.85460800 -1.63961000 -3.22719000
-2.94067000 -5.21553000 1.77751000
0.00916252 -5.74853000 -6.30155000
4.58661000 -5.99229000 3.07446000
0.70203100 -4.09201000 -3.29940000
4.09610000 -9.70506000 2.21080000
-6.37106000 0.98671100 0.86652300
0.43016900 4.55190000 7.16232000
-5.36756000 -6.36350000 2.67267000
-5.37583000 -6.43636000 2.67390000
3.45756000 3.19822000 -6.01207000
-4.27714000 -2.93673000 1.38108000
-6.85870000 2.87101000 0.79074700
-6.82932000 2.76259000 1.01894000
4.21662000 -1.97386000 1.62265000
4.10652000 -8.44081000 2.97542000
4.15289000 -8.44555000 3.02007000
2.60004000 -3.08820000 2.13833000
-5.49748000 3.22630000 -4.26080000
5.73428000 3.74177000 -3.79194000
5.83060000 3.70777000 -3.64666000
5.65230000 3.72586000 -3.90239000
-1.09901000 3.57237000 -6.54034000
-1.34852000 3.51959000 -6.49732000
-3.81222000 -3.36403000 2.18543000
0.00903918 -5.66520000 -5.79725000
-5.89839000 -9.49903000 2.95104000
5.05756000 4.64489000 5.11522000
3.31368000 2.64529000 5.49747000
3.64992000 3.66929000 -5.53485000
-1.38636000 2.19997000 -6.84136000
-1.50458000 2.30997000 -6.81113000
6.44412000 3.57580000 2.11089000
6.51609000 3.45344000 2.04610000
6.45846000 3.40911000 2.22436000
6.40180000 3.53859000 2.24651000
-5.82494000 3.18414000 3.23216000
2.88361000 -5.84730000 2.19773000
2.81704000 -6.13980000 2.17201000
-2.91227000 -1.10680000 -2.27552000
5.58654000 3.75414000 3.65228000
3.81632000 -5.54358000 2.48174000
3.85034000 -5.43516000 2.50804000
-6.74725000 2.63215000 3.22398000
-4.45261000 -6.40919000 2.35544000
-4.74052000 -2.47328000 1.54692000
-5.58712000 -8.00045000 2.10270000
-5.53913000 -8.05107000 2.07275000
-5.52163000 -7.84504000 2.07589000
2.53088000 -1.25981000 -2.54713000
2.64232000 -1.26782000 -2.39129000
5.37588000 1.31458000 -4.06879000
0.38658400 -5.73387000 -4.59355000
0.39793100 -5.82701000 -4.59394000
6.00016000 0.64290000 2.59654000
5.92962000 0.40154200 2.56585000
-0.60651800 -1.77240000 -1.34473000
-0.58661000 -1.78964000 -1.15724000
2.49181000 -5.61642000 1.78757000
2.50834000 -5.59575000 1.72375000
-6.72115000 6.28965000 1.38942000
-6.11529000 3.68271000 -2.30377000
6.81302000 3.90625000 -1.06821000
-0.06468210 -0.55217200 -4.88271000
5.61036000 4.33970000 -3.49141000
5.71433000 4.38793000 -3.34877000
-5.00804000 -7.18222000 2.55104000
-6.39802000 6.96314000 0.23700600
-6.41103000 6.92855000 0.21466300
0.74606200 -1.80207000 -4.70240000
0.77931900 -1.72584000 -4.65834000
0.82095800 -1.80305000 -4.32057000
3.12527000 -9.32119000 2.05189000
-2.01121000 0.25762900 -6.00363000
0.62830400 -3.02332000 -4.97894000
-4.84871000 -3.36775000 1.49727000
-7.13837000 4.36612000 0.86676400
-0.46727800 -6.70285000 -3.48719000
-3.37895000 -1.12117000 0.52184100
-3.27755000 -1.16892000 0.11456600
-0.98254600 -1.58051000 -1.02872000
-6.37370000 7.38728000 -0.44746400
-5.51230000 -1.17845000 2.75708000
5.05008000 -1.76410000 3.22683000
5.01639000 -1.84037000 3.16767000
4.98019000 -1.90359000 3.13190000
-5.83753000 0.94240500 2.57058000
-7.39387000 7.76167000 0.82428600
1.02235000 0.02244970 5.64135000
3.59003000 -2.65902000 2.63138000
3.64417000 -2.69975000 2.67699000
3.38379000 -3.04656000 2.50313000
3.29845000 -3.12736000 2.43925000
-3.33643000 -3.05100000 1.02950000
-0.34016000 -7.47776000 -3.60845000
-0.30062100 -7.46804000 -3.59158000
-6.04036000 4.74436000 -3.62992000
2.50939000 -5.23490000 1.94955000
2.45278000 -5.22638000 1.88748000
0.71320700 0.00945647 -6.13065000
3.76470000 1.98741000 -5.72496000
3.50328000 -9.64097000 2.18615000
-5.54672000 0.37949200 -2.53289000
-5.66921000 0.48075800 -2.42360000
3.83965000 3.11005000 -5.75827000
4.04576000 3.11347000 -5.60969000
1.20397000 4.53932000 6.18475000
1.51564000 4.53028000 6.10597000
0.08616220 -9.29371000 -3.86169000
0.20177700 -9.29573000 -3.84960000
-5.06840000 -8.16170000 1.86964000
6.28707000 2.46173000 3.25124000
5.83210000 0.21382500 1.13560000
5.73964000 0.15644100 1.31795000
-6.40251000 0.67126700 3.07105000
-6.38533000 0.50970500 3.06897000
3.79863000 -2.49273000 1.34010000
3.74614000 -2.14700000 2.87327000
-0.80637500 0.05397670 5.68744000
-0.82819300 -0.01675950 5.60902000
7.33301000 4.11325000 -0.91871000
-0.76745000 2.10951000 -6.59582000
-0.11665000 4.44201000 -6.57843000
-0.11610700 4.36751000 -6.57448000
3.81947000 -8.54466000 1.90379000
3.53729000 -8.44561000 1.76385000
3.69627000 -8.37109000 1.83070000
-3.24277000 -3.50243000 1.40934000
-3.37433000 -3.48347000 1.27938000
0.34508300 -9.78153000 -6.45922000
0.36268800 -9.75792000 -6.46719000
-6.26798000 4.81443000 1.57667000
6.47521000 0.93813200 -1.41155000
6.59878000 1.06183000 -1.18391000
6.30482000 0.76917500 -1.72503000
-0.37531800 -9.40254000 -4.48866000
1.22353000 1.38670000 -6.36436000
4.76065000 -7.87199000 3.22516000
3.78184000 -7.57320000 2.46181000
1.34686000 -0.89913100 -4.36752000
4.19718000 3.11450000 5.19482000
4.17231000 3.32374000 5.18757000
-3.53661000 -0.27788300 4.20120000
-3.19996000 -5.39926000 1.13715000
-3.14503000 -5.34237000 1.13502000
6.04087000 3.12652000 3.47040000
6.03475000 2.99440000 3.47388000
6.09221000 3.11483000 3.40756000
5.53918000 -1.47639000 3.31821000
-6.16101000 0.30303700 2.02542000
-6.21651000 0.34055900 1.91218000
-6.72555000 1.31895000 -0.61226800
-6.59591000 1.21776000 -1.31268000
-0.26423100 -5.39357000 -3.30936000
-0.23899900 -5.42202000 -3.32220000
-6.74032000 4.22335000 -0.29430100
4.82848000 -4.67087000 2.33979000
4.74964000 -4.77918000 2.30008000
6.44824000 2.41520000 3.35355000
1.75500000 0.59324100 5.85914000
-0.43555000 -0.72751200 -5.88783000
-0.47358300 -0.87716200 -5.82507000
-0.44436400 -0.82265100 -5.86931000
-0.44717600 -0.94504100 -5.84410000
-4.48640000 -6.98824000 2.26045000
-4.46575000 -7.06822000 2.22716000
5.91797000 0.53135500 -1.64088000
-5.43522000 -2.00593000 2.70657000
-5.41331000 -1.97603000 2.72731000
0.55386000 -2.48604000 -6.18501000
0.54974400 -2.60658000 -6.11521000
0.55297800 -2.65234000 -6.26112000
4.45854000 -6.13757000 2.20742000
4.40604000 -6.25323000 2.18534000
-6.80106000 3.36101000 -1.08036000
-6.82134000 3.41597000 -0.94130500
-6.84608000 3.34383000 -0.94326900
3.40336000 4.34111000 -6.64602000
3.59553000 4.33364000 -6.54224000
1.83111000 3.97546000 6.22537000
-1.75494000 4.11676000 6.25618000
-6.70618000 2.12962000 1.75070000
-6.74187000 1.97204000 1.61502000
-3.88880000 -5.09431000 2.27010000
-4.00026000 -5.10620000 2.26261000
0.47336400 -8.77344000 -4.69655000
0.43876200 -8.79624000 -4.33721000
6.64923000 3.39120000 0.03924300
6.64886000 3.17701000 0.24351600
4.53505000 -8.16365000 3.20359000
-4.94255000 -2.02954000 2.67476000
5.64385000 -0.04562220 -0.76287900
3.58677000 3.98096000 -5.83376000
3.85313000 4.33025000 6.07618000
3.05974000 -5.00209000 2.39671000
-4.48674000 1.69636000 5.03777000
4.96581000 1.39592000 -4.17524000
-0.03169410 -0.77845900 4.48207000
-0.36648600 -8.35770000 -5.23609000
-0.34904600 -8.29002000 -5.28373000
2.71119000 0.11203300 5.27768000
2.87745000 0.15623300 5.28771000
2.74554000 0.06521620 5.21272000
2.89363000 -3.01041000 2.28819000
2.78483000 -8.24977000 2.15081000
-0.73157900 1.34425000 -6.79582000
0.34955300 2.96368000 -6.93787000
-4.93330000 3.71513000 4.59393000
-4.75359000 -6.81061000 2.51995000
-6.01564000 3.50565000 2.82025000
-5.31473000 4.44433000 4.97739000
-5.34591000 4.41162000 4.90032000
-5.22371000 -7.48055000 2.72471000
-5.23354000 -7.40466000 2.72910000
4.96294000 -2.32037000 3.29576000
4.81977000 -2.26025000 3.24389000
4.19544000 0.65186000 -4.91157000
-3.73989000 -2.58843000 0.91011300
6.71140000 6.74380000 -0.66197600
6.68103000 6.79297000 -0.64667000
2.94375000 4.27631000 6.50866000
-3.30788000 -5.78095000 1.18753000
-3.38484000 -5.76893000 1.20032000
-3.39316000 -5.68440000 1.22819000
4.74212000 -8.09742000 2.39611000
4.99643000 -4.24536000 3.01897000
5.09048000 -4.25076000 2.82985000
-7.20395000 4.78604000 -0.37937600
6.53879000 6.82530000 0.72104600
6.51691000 6.78932000 0.95976600
6.76209000 4.09055000 2.57389000
-5.05481000 0.07092290 2.61137000
-5.14177000 0.05241700 2.40952000
0.61775700 -1.45610000 -4.95082000
6.23502000 3.21051000 2.91271000
6.21524000 3.18532000 2.98472000
6.26440000 3.04782000 2.90144000
-4.47348000 -5.93867000 2.39896000
-0.35068400 -1.35647000 -6.25747000
-3.05240000 -0.90562700 -3.59144000
4.31421000 -5.44407000 2.94979000
-0.07712450 -8.72019000 -3.65873000
6.09304000 0.22154200 3.13051000
-0.34607800 -5.05720000 -5.26951000
-0.32206000 -5.04177000 -5.17068000
-0.24467600 -5.08803000 -5.03152000
-0.29847500 -5.08324000 -5.12786000
5.97507000 0.71894900 3.61181000
6.03063000 0.77107700 3.59326000
6.58222000 5.36622000 -0.93940900
6.90249000 1.96465000 1.08237000
-3.42008000 -3.53303000 2.14424000
0.55977700 -0.52093100 -5.66732000
0.55551800 -0.43673300 -5.68216000
-7.34711000 7.15771000 -0.94794000
-4.97534000 -1.27401000 2.60378000
-4.89946000 -1.25168000 2.59248000
-5.17160000 -1.17782000 2.66258000
2.77041000 4.58412000 6.64257000
-3.62444000 -2.31551000 1.21745000
-3.54578000 -2.40394000 1.26273000
-3.59027000 -2.40907000 1.19699000
0.06559760 0.89646200 -7.11603000
0.07003720 0.98140600 -7.14141000
-6.47376000 3.36347000 -1.04526000
-6.47807000 3.21096000 -1.15385000
3.83664000 2.13903000 -5.40070000
4.03277000 2.14333000 -5.26164000
5.34546000 -3.23820000 3.30962000
5.29624000 -3.37635000 3.32458000
-3.41389000 4.16226000 -6.41402000
-3.91599000 4.17954000 -6.13076000
5.09868000 -0.95011500 2.17685000
5.07743000 -0.99882600 2.19839000
2.98919000 -3.33298000 1.47375000
4.00361000 -5.61214000 2.11878000
3.98279000 -5.61536000 2.10442000
0.82389200 4.19801000 -6.55873000
0.51125500 -3.44086000 -4.43520000
-5.05702000 -7.43786000 2.64497000
-4.96528000 -7.38072000 2.54707000
-4.90655000 -7.39848000 2.51188000
-4.84196000 -0.56531900 0.11275400
-4.82788000 -0.54819800 0.51703000
-5.18374000 -1.84318000 2.65910000
-5.07092000 -1.80187000 2.62468000
-4.89228000 -1.86667000 2.59297000
7.62088000 6.98385000 0.40763400
-6.46084000 1.29339000 -2.07659000
2.27451000 -0.26560800 -5.18559000
5.72157000 1.32432000 3.59527000
-5.88401000 0.23766400 2.92032000
0.03103030 -1.84627000 -0.78633500
-0.02383720 -1.79604000 -1.30698000
-5.58710000 -7.78663000 2.40787000
4.95496000 -7.95447000 3.15158000
5.00242000 -8.04771000 3.17464000
-3.22533000 -3.26613000 1.60458000
-3.24381000 -3.21494000 1.68168000
-0.84601700 1.96057000 -6.90003000
-6.94632000 4.29593000 -1.83267000
-7.00386000 4.30509000 -1.61943000
-0.15312100 2.64069000 -7.18100000
0.54454500 -9.57951000 -6.22674000
0.54301200 -9.53436000 -6.30790000
4.34823000 -7.32297000 2.24214000
4.42035000 -7.40963000 2.25635000
4.43657000 -7.54239000 2.24168000
-7.22026000 8.14263000 -0.90970200
7.16196000 4.74013000 1.76280000
7.11163000 4.70427000 1.82503000
-3.82646000 -2.68013000 0.93615200
-5.10856000 -0.64181200 -0.67962700
-4.25716000 3.35927000 5.30103000
-4.13306000 3.37772000 5.40162000
0.13470100 -8.60993000 -3.61814000
-0.95314100 -0.67164500 -4.63752000
-0.86827400 -0.61633700 -4.75137000
0.64626800 -4.10256000 -3.44017000
-4.77716000 -0.44914000 -2.78096000
2.43724000 -2.17836000 2.39246000
0.54275000 -2.56452000 -6.29027000
-6.12871000 3.05961000 -2.53521000
-6.06865000 3.12773000 -2.66996000
-0.08439010 -9.12787000 -6.52763000
1.37991000 0.29321500 5.44871000
6.11216000 2.26836000 2.54851000
3.88445000 -6.16442000 2.67288000
3.92020000 -6.21830000 2.71113000
4.71043000 -3.88911000 3.22297000
4.61987000 -3.88410000 3.19652000
4.21473000 2.89324000 4.93012000
3.97285000 -0.90082400 -2.32872000
4.01342000 -0.82331800 -2.59348000
