-22.01790000 36.79180000 40.83390000
40.93430000 35.60190000 -18.81160000
-21.01180000 35.96100000 40.94450000
-21.12750000 38.16350000 40.85700000
-20.26010000 37.53710000 40.91890000
-21.56030000 37.46580000 40.81520000
-40.85330000 46.24990000 -11.96720000
39.25420000 26.49690000 -34.85410000
-40.47490000 24.59360000 31.69940000
-40.27280000 25.01690000 31.64140000
-40.32230000 24.95590000 31.25540000
39.00710000 28.99740000 -34.91760000
-40.04540000 46.52750000 -25.51720000
39.34360000 27.77420000 30.49210000
39.13210000 28.08140000 31.10980000
39.21490000 27.34900000 30.52350000
39.45760000 28.65560000 29.03400000
-27.73270000 9.95280000 -39.83410000
-28.03960000 10.22270000 -39.82170000
-26.97840000 10.01610000 -39.94790000
39.32150000 28.52760000 30.47130000
39.35580000 28.95490000 30.09720000
39.35520000 28.09410000 29.24760000
-29.14620000 9.06320000 -39.53610000
-27.86000000 9.26960000 -39.78280000
-27.24000000 9.72230000 -39.88930000
39.37220000 21.58190000 -31.75710000
-25.81450000 9.64020000 -40.04580000
39.03180000 20.49660000 -32.48780000
39.15780000 20.17960000 -32.49550000
34.53770000 30.71720000 38.50060000
38.89260000 44.09000000 35.57310000
38.68870000 43.16590000 35.82990000
-17.39310000 24.98650000 40.75980000
-16.74050000 25.42290000 40.94270000
38.69000000 43.56740000 35.53440000
38.49620000 42.88410000 35.49790000
38.46770000 42.23190000 35.39390000
15.43900000 29.37860000 41.23570000
17.01830000 29.74640000 41.14930000
32.92340000 24.75450000 -39.01160000
32.22220000 24.49680000 -39.16100000
33.53490000 22.29900000 -38.77040000
-38.54570000 52.60770000 37.98060000
39.82490000 16.12130000 -26.34690000
40.49510000 52.47590000 -30.78290000
-12.47250000 47.33990000 41.39690000
-9.21410000 47.19890000 41.38860000
-8.57900000 46.81210000 41.36620000
-21.88230000 46.68270000 41.00980000
-41.52750000 40.46580000 14.74550000
-41.44790000 41.41510000 16.15300000
-41.58360000 41.41660000 15.19000000
-41.59360000 39.00570000 15.39420000
-41.51300000 39.67150000 15.46390000
-41.63850000 40.24850000 12.74160000
-41.52400000 42.51220000 15.64640000
-33.79440000 3.61360000 4.62430000
8.24390000 45.52860000 41.49970000
9.50290000 45.55730000 41.46300000
-40.56700000 33.38490000 29.21010000
-19.58990000 28.80690000 -40.90240000
-38.29590000 53.70590000 -38.26070000
-27.04360000 18.47550000 -40.11750000
11.96540000 11.50110000 -40.83400000
-9.92020000 59.95250000 31.64540000
10.74410000 12.32540000 -40.88170000
13.70770000 13.73950000 -40.69830000
12.46110000 12.40790000 -40.80170000
12.43270000 13.85130000 -40.84000000
12.14760000 11.93310000 -40.69260000
11.17950000 12.52390000 -40.79120000
10.67920000 13.89270000 -40.85660000
-40.92740000 30.74880000 -17.90780000
-40.78360000 29.38910000 -19.00460000
11.17080000 13.29890000 -40.73640000
11.96360000 13.24170000 -40.83970000
11.62200000 14.19790000 -40.79180000
12.94930000 14.51080000 -40.81010000
23.17850000 33.26230000 40.90520000
22.45110000 34.56240000 40.98680000
22.30660000 33.90070000 40.89520000
12.77770000 14.17880000 -40.72630000
23.79790000 35.38780000 40.89070000
23.51160000 35.03340000 40.84060000
19.71210000 24.15590000 -40.65610000
29.81350000 33.59940000 40.05810000
25.24950000 34.30840000 40.61160000
26.21120000 33.49550000 40.54030000
39.86230000 39.17290000 28.21720000
39.75030000 40.09930000 29.45970000
27.45210000 33.05300000 40.47170000
26.02370000 33.08070000 40.66860000
28.65010000 32.99610000 40.31710000
26.00750000 33.95430000 40.64010000
25.21750000 34.57370000 40.74820000
26.58900000 34.76210000 40.61610000
26.58310000 36.23900000 40.65660000
26.36470000 35.22850000 40.66880000
26.31490000 34.92140000 40.53050000
-24.26390000 30.05460000 40.34770000
-22.86420000 29.72620000 40.40820000
9.27600000 49.81500000 41.58560000
-41.51850000 27.04020000 17.33130000
-41.59110000 26.85710000 17.06250000
-41.51960000 25.79350000 17.62640000
-41.54540000 28.32250000 16.57700000
-41.67240000 27.66580000 16.34280000
38.18220000 31.92240000 35.53370000
-24.04780000 36.74570000 40.60700000
38.30300000 31.99490000 36.14360000
-24.42650000 33.13440000 40.49220000
-8.27840000 31.40770000 41.19430000
-31.46510000 57.80340000 5.22750000
-27.18410000 55.01780000 -40.58960000
15.07390000 23.53340000 -40.82110000
18.90870000 44.02490000 -40.97960000
20.31530000 44.04210000 -40.85530000
18.72110000 43.41200000 -40.99710000
20.23510000 43.28140000 -40.85260000
41.08360000 34.94010000 11.22140000
41.26980000 37.02120000 9.48190000
37.58800000 32.83240000 38.49150000
37.57920000 33.02490000 38.36100000
36.81730000 33.05860000 38.64250000
17.06010000 40.22160000 -41.06500000
17.68040000 41.06650000 -41.02880000
18.54430000 38.91310000 -40.93240000
15.88000000 39.81690000 -41.07100000
17.10040000 39.81160000 -40.96660000
18.54300000 38.59730000 -40.82440000
23.45050000 26.14660000 -40.18130000
18.96850000 39.23260000 -40.90240000
-40.48720000 28.11760000 29.32680000
-40.61090000 28.28130000 29.77550000
-40.44830000 26.42050000 30.77550000
-40.63690000 28.02960000 29.04360000
38.97240000 10.13250000 -27.32390000
-21.27070000 37.96370000 -40.97880000
-21.11590000 38.32380000 -41.11780000
-22.48470000 37.31260000 -40.89430000
-24.51390000 39.44530000 -40.76890000
-22.68820000 38.00950000 -40.99510000
-19.96030000 36.77820000 -41.14940000
39.38170000 9.94100000 -23.25630000
39.47740000 10.03120000 -22.01480000
-12.68860000 50.69130000 -41.42580000
-12.26970000 50.55610000 -41.33920000
-11.53850000 50.09720000 -41.46220000
-8.54900000 49.43710000 -41.50680000
-41.08610000 52.18030000 -11.57880000
-41.18530000 51.28910000 -11.72960000
-41.16220000 52.38780000 -10.85890000
-9.17520000 50.29100000 -41.50160000
-9.95350000 51.01820000 -41.46600000
-9.39560000 51.00930000 -41.34690000
-9.97200000 50.26070000 -41.49500000
-10.68110000 50.66710000 -41.48520000
-40.84900000 50.57030000 -12.77060000
-41.03690000 50.42070000 -14.52810000
-41.15910000 50.39700000 -12.13250000
-10.35610000 51.12780000 -41.44730000
-10.12580000 51.28030000 -41.29140000
-8.85250000 51.24590000 -41.48150000
-9.18170000 51.37870000 -41.49750000
-41.16770000 50.67060000 -11.82800000
-41.07920000 50.72390000 -13.64900000
-9.89060000 51.57840000 -41.47160000
-41.01610000 50.71440000 -15.53100000
-41.03750000 51.51680000 -14.17560000
31.39960000 4.76590000 -7.29700000
-18.83900000 61.67480000 -37.14460000
24.45840000 10.67640000 -39.79450000
21.91990000 11.23230000 -40.08110000
21.83990000 11.50350000 -40.09970000
21.95530000 11.06170000 -39.89090000
-34.22170000 1.70960000 -25.47760000
25.42770000 11.91040000 -39.73450000
23.91890000 11.26430000 -39.87460000
-32.59310000 51.55070000 39.84800000
-36.81100000 50.63350000 39.36280000
-34.99880000 51.04840000 39.48550000
-9.96790000 13.73840000 -41.17140000
-11.01390000 11.56100000 -41.05040000
-11.45590000 11.82390000 -41.14060000
-12.40280000 11.45110000 -41.10290000
-15.47910000 43.42420000 -41.20370000
-13.69880000 44.19770000 -41.36660000
-13.62030000 11.39300000 -40.92150000
-14.48980000 12.23260000 -40.90080000
-12.35690000 42.74490000 -41.42360000
-12.95120000 43.80050000 -41.38950000
-14.48140000 43.21800000 -41.19810000
-15.99220000 42.95050000 -41.22140000
-39.80410000 17.95580000 33.44380000
-10.60110000 46.75040000 -30.53700000
40.44810000 36.23260000 -27.30090000
40.66280000 37.17260000 -24.63680000
15.34380000 47.04950000 41.32870000
-29.08980000 16.36680000 39.34480000
-14.22490000 9.57770000 40.67230000
-17.86850000 8.87300000 40.15990000
-9.31540000 46.68810000 -41.53440000
-18.12110000 9.19550000 40.32550000
39.14670000 26.31150000 29.98360000
41.79210000 52.83680000 -8.42980000
-41.84210000 19.06580000 13.88900000
-41.88480000 18.75210000 12.29450000
-41.23050000 16.76970000 -16.69900000
-41.23000000 17.90170000 -15.22530000
-40.98680000 16.48700000 -17.80750000
40.62170000 24.35760000 10.51230000
40.57110000 25.06710000 11.99630000
-15.55820000 13.61510000 40.68450000
-16.18740000 12.78610000 40.53720000
-16.79000000 14.22060000 40.55710000
-13.65340000 16.99990000 40.84860000
-16.18670000 15.58430000 40.69530000
-15.84850000 14.82550000 40.58680000
-14.79160000 16.99450000 40.76070000
40.39510000 18.15530000 -19.52670000
-12.60160000 16.40120000 40.94060000
-14.09080000 15.95510000 40.78430000
-13.45430000 15.64560000 40.88960000
-41.16950000 34.98010000 -13.94220000
-41.33400000 35.67080000 -11.17420000
-41.17850000 35.54590000 -12.47630000
13.61130000 2.13900000 -36.73610000
39.26290000 25.94880000 29.18930000
-12.41380000 10.00860000 -40.94300000
-14.46150000 11.01270000 -40.82940000
39.88060000 16.05590000 -22.70270000
40.02200000 16.72650000 -21.43600000
-12.39640000 10.22970000 -40.88990000
-13.76560000 10.31910000 -40.91810000
-11.70190000 10.32040000 -41.08590000
39.96470000 16.23060000 -22.75990000
-14.17600000 8.81840000 -40.82680000
-11.83430000 9.80790000 -41.06890000
-41.21050000 26.78580000 23.53330000
25.00730000 40.00030000 -40.37840000
-14.13340000 9.22020000 -40.80190000
-10.03140000 43.31600000 41.37790000
-8.31930000 38.48910000 41.42520000
-9.03950000 39.98500000 41.45000000
38.24550000 8.45080000 -32.62450000
38.07560000 8.49490000 -32.77410000
38.27720000 9.40090000 -32.60030000
26.58450000 41.79520000 -40.18980000
26.74560000 40.11790000 -40.16070000
-8.72170000 43.33130000 41.37940000
38.17800000 8.50130000 -33.19780000
38.41580000 9.41590000 -32.80240000
-11.25470000 41.33260000 41.32520000
-9.64780000 41.10420000 41.37660000
-9.19190000 42.80640000 41.32330000
38.45160000 9.61730000 -33.15130000
-28.01580000 50.02360000 40.42540000
-31.26070000 50.54110000 40.05810000
-9.01420000 38.39710000 41.37900000
-32.35310000 50.52140000 39.93960000
-29.47840000 49.47430000 40.13850000
38.29720000 9.65620000 -33.30480000
-30.65570000 50.52690000 40.06390000
-26.95050000 49.54940000 40.40450000
-28.95870000 49.80000000 40.27920000
38.26620000 9.23710000 -33.56220000
38.14270000 8.57190000 -33.61500000
-29.66740000 51.00940000 40.15510000
-29.66020000 50.50120000 40.26620000
41.01640000 33.49800000 -17.86500000
41.07030000 34.50880000 -17.67270000
-30.46150000 34.66720000 -10.64010000
40.95240000 35.25630000 -18.04210000
-31.37410000 42.68540000 -6.25360000
-13.57770000 26.42250000 41.14410000
-13.59960000 27.16850000 41.07250000
-40.35580000 52.40360000 -22.15960000
-40.34200000 52.22290000 -23.64150000
-40.45600000 51.61190000 -22.69780000
-40.56850000 52.01030000 -21.67400000
-41.66440000 14.43000000 17.53900000
-41.60080000 15.30340000 17.94630000
-22.87880000 12.30870000 -40.27040000
-34.64610000 61.66630000 20.74550000
41.68660000 49.66110000 14.84550000
41.56300000 49.67960000 17.31080000
41.66790000 48.68280000 14.69000000
41.55880000 50.59470000 15.99670000
41.17240000 49.25800000 -22.67540000
41.30100000 49.71300000 -20.78870000
40.94400000 38.20370000 -19.71720000
-4.22670000 1.95980000 -33.51570000
-41.39700000 19.97480000 -7.64720000
38.40670000 8.74790000 24.42140000
38.51810000 7.88120000 24.08300000
14.30880000 17.68870000 41.11790000
11.89510000 55.92220000 -40.35490000
22.05460000 40.84300000 -40.55700000
22.01080000 41.34050000 -40.68920000
22.07360000 41.81910000 -40.58860000
23.13970000 41.57110000 -40.50150000
-22.33500000 35.48530000 -40.95160000
-22.41340000 34.69190000 -40.85220000
24.51440000 16.30250000 -39.77980000
-36.65410000 30.52230000 38.01530000
-34.79860000 8.45850000 -38.10120000
-20.43350000 52.40470000 41.11810000
19.84190000 49.25970000 41.30150000
18.92390000 48.53230000 41.29930000
17.42820000 49.11650000 41.38020000
17.74660000 48.36870000 41.24920000
12.08640000 50.10090000 41.51180000
13.04090000 49.62670000 41.53070000
14.54140000 50.07300000 41.51310000
17.51130000 49.74790000 41.42330000
16.53500000 51.10470000 41.03180000
17.49220000 50.52880000 41.35760000
15.75280000 49.99140000 41.37970000
17.04790000 49.98220000 41.22600000
16.16430000 50.35230000 41.43060000
15.04070000 49.69810000 41.50730000
13.78090000 49.65240000 41.53110000
14.61460000 49.75310000 41.38500000
40.03130000 31.96050000 24.95740000
40.15470000 32.05210000 24.19060000
40.51050000 34.97210000 22.66940000
13.99270000 49.25880000 41.46820000
14.92910000 48.68810000 41.45000000
16.13410000 48.64200000 41.38840000
16.68330000 49.08990000 41.40960000
11.00690000 48.93630000 41.52920000
12.31100000 49.59250000 41.50090000
40.35630000 34.63880000 23.36010000
12.30220000 49.22170000 41.27580000
13.10040000 48.90760000 41.53500000
13.15550000 49.29900000 41.51160000
-40.78570000 12.57520000 -22.09080000
11.84440000 48.94770000 41.44140000
11.42700000 50.08530000 41.56550000
11.64530000 49.48360000 41.56690000
-34.61190000 50.21650000 39.64970000
-36.40680000 50.35540000 39.33740000
-34.50390000 51.26380000 39.63230000
-37.09680000 51.30420000 39.29690000
19.16790000 34.35630000 41.03750000
22.68290000 33.48220000 40.86530000
-31.84410000 50.83680000 39.89610000
7.66460000 38.43290000 41.44540000
8.78320000 38.18070000 41.50320000
26.40880000 27.56270000 -39.87350000
28.64880000 27.49130000 -39.68080000
29.39830000 26.78700000 -39.43190000
27.93980000 27.31850000 -39.67930000
-39.39060000 26.37740000 37.64790000
-39.80350000 54.34710000 33.44820000
-39.69190000 53.90480000 34.16370000
36.46720000 22.60900000 38.94890000
36.05230000 22.24290000 38.94160000
-40.41100000 9.79960000 -24.63670000
-40.43320000 10.46630000 -25.07670000
-40.26720000 10.14240000 -25.94000000
-41.34190000 10.82280000 22.24100000
38.53900000 28.82620000 35.26040000
38.44580000 29.05380000 35.59840000
38.40980000 27.25520000 35.72940000
38.50240000 29.38660000 35.07360000
-40.24920000 10.76280000 -26.45940000
-40.13740000 10.88020000 -27.39350000
38.32660000 27.38120000 35.43700000
38.50290000 26.88390000 35.50590000
38.59880000 26.41250000 34.83740000
39.00450000 8.93670000 -27.76420000
38.89630000 8.21580000 -27.69790000
38.74240000 8.28490000 -28.28140000
38.80800000 9.49140000 -30.31680000
38.93610000 9.19120000 -28.47580000
38.59840000 7.79050000 -29.25240000
38.53810000 8.00510000 -28.89480000
38.65640000 8.96890000 -28.21880000
38.46050000 28.75550000 34.98520000
38.24330000 28.01860000 35.18450000
38.19650000 29.62010000 34.70420000
39.55970000 25.35600000 -31.70200000
39.46540000 24.90610000 -33.20050000
38.99720000 23.59860000 -34.84360000
19.97330000 1.67090000 35.49900000
39.05180000 22.93040000 -35.50660000
39.14250000 23.15610000 -34.78890000
39.18860000 23.53840000 -34.69950000
9.06510000 5.99740000 40.05580000
39.76860000 11.46890000 11.92420000
40.79710000 34.88400000 -22.78130000
40.69160000 32.47940000 -23.16490000
40.83380000 34.18540000 -22.23560000
40.65130000 33.77460000 -23.09720000
40.75770000 34.47200000 -22.38360000
40.48450000 31.95520000 -24.07540000
39.36160000 15.57690000 -27.68500000
37.36660000 27.39450000 38.56100000
-32.33800000 14.96900000 -8.55400000
-32.13460000 16.00220000 -8.70340000
-31.89500000 22.73020000 -8.36950000
33.62230000 60.82130000 -13.82660000
-31.75600000 22.92470000 -8.50350000
-32.14760000 17.32620000 -8.34010000
38.26900000 7.84340000 24.26960000
29.49340000 29.12560000 40.10510000
30.85590000 29.08170000 39.91550000
29.47410000 29.46050000 39.85200000
-31.83570000 22.89260000 -8.22340000
-39.42070000 50.11480000 35.53600000
30.21740000 29.00200000 39.83680000
29.43760000 28.23290000 40.14290000
31.28900000 28.42450000 39.88590000
30.27980000 28.81990000 39.97570000
-38.93410000 50.91990000 38.14740000
-38.84480000 51.70790000 38.11860000
-39.60640000 50.43600000 35.40160000
31.97780000 28.93550000 39.75580000
31.54640000 28.16460000 39.74940000
-39.61070000 52.05270000 34.81110000
-39.48520000 51.76350000 35.07750000
36.77010000 24.69230000 38.90350000
40.20880000 13.07230000 -15.90890000
-25.16530000 62.66450000 -32.72800000
40.66310000 35.70600000 19.77240000
41.20420000 35.39650000 -7.05740000
41.25960000 33.90470000 -8.32510000
41.24350000 35.30450000 -8.23390000
40.67130000 35.03920000 20.66470000
40.53750000 35.74860000 21.46860000
40.62720000 35.46790000 21.73070000
40.87730000 34.33340000 -6.35200000
39.48920000 24.81070000 -31.91730000
39.25430000 23.14540000 -33.02440000
39.56040000 24.66340000 -32.37280000
39.49030000 25.30850000 -32.97640000
40.59040000 35.24840000 20.38570000
-7.28910000 51.59980000 40.96520000
-21.05520000 14.79890000 40.16350000
-40.20270000 8.63680000 30.29020000
-40.14950000 8.90290000 29.98380000
-40.47550000 8.67840000 28.65590000
-40.67920000 8.81260000 27.25810000
-41.01330000 8.77340000 24.36800000
41.38370000 47.09760000 17.26320000
41.67330000 47.09110000 11.45670000
-41.20290000 8.86440000 22.45990000
-40.49410000 8.99060000 26.68580000
-40.85410000 8.94450000 24.37240000
41.72370000 47.11680000 8.56600000
-40.82680000 9.07510000 26.32800000
-39.30130000 25.78270000 -33.14600000
-39.20030000 26.04570000 -33.14860000
-40.47960000 8.98700000 28.28950000
-40.74040000 9.10270000 26.95600000
-40.50560000 9.45600000 28.62980000
-41.38630000 42.41940000 -0.10960000
-41.38580000 41.64230000 2.01770000
32.17060000 53.90080000 -39.85450000
33.06850000 53.94690000 -39.81750000
-40.35870000 43.86740000 -22.46900000
-40.43980000 43.23060000 -22.70320000
-40.38850000 42.73880000 -23.45920000
-40.91590000 6.47790000 10.38680000
-40.63530000 6.22890000 11.62530000
-40.39180000 45.25910000 -22.67050000
-40.26620000 45.30430000 -23.92810000
-40.35980000 45.66090000 -21.98050000
-39.97630000 43.71810000 -26.33940000
-40.27670000 42.03130000 -24.05350000
-39.85080000 40.37340000 -28.21090000
-39.66700000 40.84480000 -29.42350000
-39.97210000 42.90760000 -26.01820000
-39.98570000 41.46970000 -26.26410000
-39.86380000 40.72700000 -27.22230000
-38.37200000 55.86910000 -37.03230000
-40.02470000 41.32400000 -26.88230000
-40.07190000 42.32300000 -26.32750000
31.41970000 26.94820000 3.70930000
40.26490000 26.92700000 17.64750000
40.27270000 28.03050000 18.18930000
40.42810000 29.16320000 16.59240000
34.59680000 6.09480000 23.32010000
40.33810000 25.84630000 16.78220000
40.29380000 24.26400000 16.40870000
40.32840000 25.60170000 16.40760000
40.60350000 29.63220000 14.53460000
40.48600000 26.21870000 15.14470000
-7.02660000 1.76050000 -39.99530000
40.39810000 27.05930000 17.10900000
40.40580000 28.35760000 16.68400000
38.35810000 42.18570000 36.04310000
25.87090000 51.52320000 -40.46080000
28.04570000 51.45830000 -40.20210000
27.06090000 51.27050000 -40.23530000
23.05570000 41.02290000 41.00640000
22.39430000 40.14970000 41.06010000
24.05540000 40.72620000 40.88540000
22.62080000 40.58680000 40.95990000
26.83610000 51.10030000 -40.03670000
40.46490000 49.32530000 29.88730000
40.37170000 49.74530000 30.73090000
40.28770000 49.00870000 30.05320000
40.40910000 50.19520000 29.17960000
40.69480000 49.87330000 27.76370000
40.52310000 50.46980000 29.04370000
27.15930000 50.94920000 -40.25520000
28.61720000 51.20990000 -40.04240000
27.91150000 51.32860000 -39.97950000
30.94550000 52.81180000 40.40470000
40.45850000 49.61850000 29.15500000
40.49480000 50.11240000 29.53050000
40.30720000 50.74670000 29.99350000
40.32280000 50.48820000 30.61630000
40.27450000 50.32700000 29.58720000
22.94530000 16.12800000 -39.87820000
21.83220000 17.16900000 -40.11400000
-40.17400000 39.54820000 -25.33970000
-39.90860000 38.48320000 -26.62690000
-39.90560000 37.99630000 -27.88870000
-40.15930000 37.88110000 -25.92090000
-39.83560000 36.32830000 -28.50390000
-39.90010000 36.83160000 -27.93810000
-39.96490000 37.38720000 -27.40140000
-39.86120000 37.72470000 -27.59450000
23.59890000 28.58620000 40.71970000
38.95650000 25.48140000 32.60770000
-40.77340000 54.56940000 -6.85030000
40.73170000 33.78380000 -23.57310000
40.47690000 33.07610000 -25.01540000
40.62490000 34.35000000 -23.62280000
27.11510000 42.90390000 -40.15080000
27.09880000 42.58030000 -40.01170000
39.74480000 27.93510000 -31.10500000
28.45890000 43.34060000 -39.99250000
29.36790000 42.74980000 -39.71700000
28.11190000 42.97640000 -39.93360000
39.70200000 28.08920000 -31.64440000
39.52040000 28.99130000 -31.11370000
29.56210000 42.06800000 -39.80900000
-41.53310000 46.49320000 7.95030000
-41.59960000 10.67040000 5.96320000
20.55610000 35.80320000 -40.61740000
24.33230000 38.33390000 -40.33460000
22.59040000 36.81360000 -40.45330000
-41.88450000 29.60640000 9.19330000
-41.76570000 28.41220000 9.13090000
-41.71460000 29.65550000 7.41650000
-41.51350000 30.93830000 -0.99990000
-41.72400000 28.29860000 8.42090000
-41.79500000 29.39990000 8.13870000
-41.80910000 27.52170000 8.10370000
-41.81760000 29.02370000 10.36290000
-41.75990000 29.10530000 8.84320000
-38.70020000 33.81450000 -34.58380000
-19.04310000 17.68890000 -40.79980000
-41.77700000 28.19220000 12.20090000
-41.76580000 29.57390000 10.86710000
-41.84920000 28.35340000 11.22420000
-20.50710000 19.42280000 -41.02570000
-10.08000000 34.95830000 -41.47580000
-12.00820000 34.27490000 -41.41380000
-9.69850000 37.37450000 -41.54920000
-9.83520000 35.55030000 -41.56820000
40.05090000 21.26970000 20.50620000
-9.48850000 34.81880000 -41.58130000
-20.42480000 29.65190000 40.60970000
-24.04720000 30.30400000 40.18650000
40.03110000 7.89110000 -13.91530000
39.96300000 8.27530000 -13.82800000
40.13930000 8.73900000 -12.08720000
-30.29770000 30.33430000 39.33340000
39.93880000 7.70190000 -15.53160000
39.75810000 7.87590000 -15.95000000
-32.17470000 29.05450000 39.51800000
39.70040000 8.04140000 -17.59960000
39.90030000 8.12410000 -17.14440000
39.78120000 8.63720000 -18.24830000
-30.77950000 30.24860000 39.50110000
-29.92980000 29.73050000 39.62360000
-31.43510000 29.87480000 39.31910000
-15.41080000 6.14190000 39.09580000
-29.69060000 29.86880000 39.72460000
-31.45390000 30.08530000 39.42510000
40.96470000 36.80440000 -6.28830000
41.28980000 38.41130000 -5.31200000
41.21030000 36.14510000 -6.90480000
-39.49040000 10.77930000 -30.44060000
-39.69290000 10.58390000 -30.49780000
-40.15780000 10.66940000 -27.17620000
41.02620000 35.40930000 -6.48300000
-39.89690000 10.77360000 -27.49500000
-27.48320000 43.85910000 -40.29560000
-26.53110000 43.42900000 -40.45280000
35.85140000 16.52190000 37.34700000
38.63120000 49.25600000 -38.65010000
11.54910000 24.05370000 -40.93280000
10.82210000 24.36150000 -41.10460000
13.41230000 24.87370000 -40.97110000
12.85930000 24.40430000 -40.97580000
-35.33470000 41.96740000 38.87550000
-35.35450000 42.71300000 38.76260000
11.08230000 25.17860000 -40.96360000
-41.97700000 9.60020000 8.63470000
-42.00870000 10.41240000 7.84520000
8.49450000 22.51930000 -41.16840000
38.53480000 8.91640000 25.39770000
38.61090000 8.91600000 24.75640000
30.36810000 39.91600000 40.20900000
30.39500000 41.62380000 40.10480000
-3.31970000 5.31340000 40.92730000
30.12730000 40.13490000 40.13050000
29.33570000 42.81900000 40.42390000
28.99880000 39.35820000 40.26600000
33.73210000 40.10750000 39.54500000
32.24790000 41.36530000 39.86220000
30.83370000 38.98170000 39.94430000
-41.33050000 41.57850000 18.70500000
33.88170000 39.16850000 39.46370000
-41.26770000 42.72770000 20.05060000
41.16740000 43.12380000 -19.84640000
41.02520000 42.03160000 19.49390000
41.07700000 42.68800000 17.77970000
41.00280000 42.21170000 19.13130000
40.60940000 39.97670000 23.81500000
40.59030000 40.87760000 24.28470000
39.09910000 8.56230000 -26.34310000
39.17300000 9.09030000 -26.07230000
39.17730000 8.52190000 -25.69160000
40.70500000 41.89270000 23.65170000
40.67680000 43.93820000 24.57710000
40.63500000 40.48140000 23.07620000
38.95350000 8.40750000 -26.21880000
39.27230000 7.84470000 -23.86430000
39.25230000 8.46440000 -24.31940000
38.98810000 7.79600000 -26.35140000
38.65130000 7.73850000 -26.75090000
40.57010000 41.13270000 23.99780000
40.74510000 40.95330000 22.74030000
38.97080000 7.68320000 -24.27410000
40.72270000 40.47560000 21.68510000
40.81940000 39.89310000 21.40010000
41.00620000 40.63450000 18.35120000
40.84220000 39.04040000 19.51260000
38.90420000 8.00770000 -26.44370000
38.93440000 7.80490000 -26.90740000
38.88650000 8.62570000 -26.93020000
38.97420000 8.16920000 -26.95370000
20.83130000 8.42220000 -40.07050000
22.71890000 8.60660000 -39.86210000
23.03610000 7.97610000 -39.80880000
23.08140000 8.92630000 -39.66080000
23.57820000 8.60410000 -39.76950000
24.17570000 9.21420000 -39.71870000
22.38330000 9.61690000 -39.97640000
19.99900000 7.62600000 -40.10020000
-34.07290000 62.68890000 -20.12820000
22.33080000 9.28100000 -39.90920000
23.28390000 9.16230000 -39.85350000
22.04310000 8.83590000 -39.96950000
20.36570000 8.58130000 -39.96860000
22.00950000 8.65990000 -39.74470000
39.19350000 42.36190000 -33.99330000
39.33040000 43.92450000 -33.23140000
39.30910000 43.02320000 -34.02100000
-27.09400000 10.83450000 -40.00400000
-27.87540000 11.00200000 -39.93310000
26.86010000 11.03270000 40.05010000
-28.14790000 10.95290000 -39.64390000
-27.87310000 10.77330000 -39.93340000
-31.08500000 11.07980000 -39.43380000
30.26970000 53.89870000 40.20840000
28.38640000 53.97920000 40.56190000
30.41140000 53.62980000 40.45410000
-38.92510000 27.88920000 -36.56810000
32.77590000 54.01990000 38.35140000
32.26510000 53.97060000 39.67430000
-38.50100000 30.11950000 -36.15490000
-38.57040000 28.83420000 -36.51870000
41.49440000 39.88200000 -8.99640000
41.47200000 38.79780000 -7.83960000
41.28760000 40.23340000 -13.04430000
8.96620000 17.42790000 41.29320000
40.49210000 32.25390000 -25.52900000
40.24630000 32.58890000 -26.78900000
40.44280000 32.57890000 -25.63130000
40.59460000 33.75390000 -25.29740000
9.28800000 28.21800000 -41.28090000
8.96750000 28.52400000 -41.27660000
-16.51620000 34.78280000 -41.28840000
-16.80050000 36.07980000 -41.24760000
-36.88880000 7.63520000 26.20290000
-15.41430000 56.14090000 38.61700000
-41.48690000 34.63990000 19.28760000
-18.80010000 27.21680000 40.80680000
-18.84820000 25.37380000 40.75050000
-41.52710000 15.12070000 20.17960000
-18.51270000 26.51740000 40.66770000
-39.91380000 33.44550000 -26.29850000
-28.51580000 12.22410000 -39.98350000
-39.61750000 35.05180000 -29.79760000
-39.75210000 34.85570000 -28.47850000
-39.41350000 34.83410000 -30.07480000
-32.54580000 25.54740000 -39.65390000
38.83770000 25.89200000 33.74200000
38.61630000 26.22060000 35.39010000
38.69620000 26.12670000 34.51380000
36.41940000 6.86980000 -29.39370000
36.60780000 6.79730000 -26.66360000
34.74890000 49.87240000 39.98070000
36.06600000 49.38940000 39.76950000
35.90870000 50.26750000 39.73360000
-39.38250000 23.09180000 37.81710000
-41.96710000 17.24260000 9.43300000
-41.86690000 18.29650000 11.65130000
-41.89030000 17.76830000 9.47480000
-41.90200000 20.00830000 9.13790000
-41.97950000 17.45970000 8.44360000
35.67030000 27.05720000 39.04550000
-41.86750000 21.97430000 9.81830000
-41.96060000 18.60470000 10.15080000
35.76410000 26.59210000 39.31070000
-39.92430000 8.81770000 -28.20210000
-40.16450000 9.04540000 -24.63160000
-40.46880000 9.15800000 -24.11850000
-39.72240000 8.96010000 -27.86450000
19.17060000 27.99040000 -40.64970000
17.85780000 28.62980000 -40.68590000
19.21210000 27.54130000 -40.52390000
-41.90830000 14.60990000 11.23020000
-41.97740000 14.47290000 12.38000000
-41.84130000 14.97900000 12.28430000
-41.84980000 14.35480000 13.26270000
-41.83420000 15.69420000 12.13920000
-41.92380000 15.97850000 11.61230000
-41.92150000 15.19750000 10.36740000
-36.36990000 24.15750000 -39.31040000
-36.04700000 26.32080000 -39.42630000
-36.59950000 24.85500000 38.99520000
-36.63110000 26.26900000 38.94850000
-36.94480000 24.36980000 38.92440000
-37.36810000 23.84140000 38.80930000
-36.06700000 24.22800000 38.97400000
-34.80460000 24.61700000 -39.44110000
-35.25580000 24.73850000 -39.28860000
-35.83040000 25.51430000 -39.37460000
-35.80390000 26.02110000 -39.26440000
-35.26420000 24.55170000 39.11470000
-37.85160000 26.15010000 38.81180000
-37.00890000 26.19480000 38.91560000
39.65400000 50.48280000 -34.09750000
39.83890000 50.66960000 -34.02630000
-40.43440000 36.81480000 -23.03060000
-40.28100000 34.30930000 -24.56420000
-40.30740000 38.05230000 -24.07990000
-40.20400000 38.00160000 -23.68320000
-36.81610000 24.72230000 38.80050000
-11.35830000 50.03930000 41.40890000
-17.18370000 50.70390000 41.28260000
-16.93900000 50.55050000 41.17470000
40.50960000 31.57550000 -23.77790000
-14.21310000 50.68140000 41.35990000
-14.52700000 50.52550000 41.25580000
-12.76080000 49.85920000 41.39900000
-13.50370000 49.97490000 41.28010000
-13.81910000 49.61750000 41.39180000
41.58410000 48.74460000 -9.44450000
41.82420000 49.58840000 -9.76930000
18.09480000 38.22000000 41.16030000
16.22300000 39.80050000 41.29690000
16.95960000 40.18030000 41.32110000
-15.07270000 24.10910000 40.89390000
17.43400000 38.17090000 41.24350000
-40.23270000 40.89030000 -25.16590000
-40.39650000 38.25760000 -23.41350000
-40.39780000 38.34190000 -23.00650000
18.59540000 37.39170000 41.20150000
19.85960000 38.31540000 41.18220000
17.26900000 36.97100000 41.18860000
12.98130000 54.22970000 -41.41830000
40.41980000 33.98110000 21.44280000
40.59850000 34.12610000 20.26110000
25.32050000 28.46290000 -40.06720000
23.44280000 28.80410000 -40.17900000
29.34390000 28.58010000 -39.51870000
36.39130000 27.30420000 38.72390000
36.67310000 26.48830000 38.92720000
36.83760000 26.72130000 39.03690000
36.96740000 25.58960000 39.12830000
-29.96630000 8.74770000 38.86370000
-29.14810000 8.78970000 39.01230000
-29.24350000 9.36340000 39.05910000
36.19550000 28.87810000 38.89250000
40.59770000 32.08850000 -22.24620000
-36.85010000 29.86480000 38.53240000
-18.75530000 15.39960000 -40.68760000
41.59710000 50.30230000 16.15220000
41.55710000 50.02300000 16.38760000
41.43840000 49.85310000 17.61910000
41.40810000 49.91320000 15.81890000
41.38570000 49.96640000 19.01100000
41.49860000 50.66090000 18.18860000
41.43320000 49.92810000 19.44680000
41.57090000 49.85260000 15.28830000
41.71050000 50.00520000 14.41410000
41.74270000 49.53630000 13.80100000
41.78310000 50.07030000 12.74510000
41.56430000 49.82320000 14.62950000
-32.53580000 12.01730000 -8.47540000
-32.59110000 13.26350000 -8.57430000
6.95710000 30.09960000 -40.91210000
-0.58070000 2.09150000 -40.46100000
-13.91750000 56.38960000 28.95220000
-33.25520000 53.41360000 39.77520000
-41.53710000 14.78400000 19.83260000
-41.31470000 15.02200000 19.60650000
-41.10520000 27.44600000 -14.72970000
-41.06830000 25.96980000 -14.55110000
-41.38540000 15.01570000 18.93920000
-41.53150000 19.21680000 -10.22510000
-41.60280000 18.27420000 -8.89660000
-41.59890000 19.36930000 -9.04220000
-41.58940000 17.62940000 -8.39410000
-41.49690000 17.69400000 -7.78380000
-41.48160000 22.88870000 -9.85300000
-41.52160000 20.67210000 -10.26870000
-41.41440000 21.59550000 -10.76800000
15.63580000 26.00420000 41.07880000
-11.73160000 12.18620000 -41.04480000
-12.70510000 11.90480000 -40.96990000
-11.64150000 12.84740000 -41.15550000
-12.64460000 12.35230000 -41.09950000
-13.56010000 12.62560000 -40.98680000
40.74640000 44.19050000 23.94930000
40.84380000 43.18680000 22.49370000
-9.85710000 14.96570000 -41.12960000
-9.50900000 15.66670000 -41.29130000
40.86940000 40.01600000 19.57030000
40.80570000 41.44310000 21.34320000
40.76700000 42.56220000 22.16880000
-12.80100000 15.77230000 -41.06290000
-12.64900000 16.16390000 -41.15980000
-13.33720000 16.67130000 -41.07100000
-39.15770000 9.50600000 -32.92040000
-38.16920000 9.59590000 -35.88120000
-38.65170000 9.47530000 -33.82870000
-40.16230000 23.69200000 32.86960000
-40.08780000 22.93280000 33.22320000
-39.84820000 23.79070000 34.64580000
-39.84690000 23.73120000 33.75800000
-39.98510000 23.35470000 33.66550000
-38.78440000 9.41570000 -33.14360000
-39.25820000 9.25080000 -31.03500000
-40.05250000 24.14240000 33.43850000
-39.46660000 9.08300000 -31.05070000
-40.22050000 25.79720000 32.18750000
29.09920000 51.20030000 40.28040000
29.26430000 50.88800000 40.51480000
-41.28830000 41.79510000 -3.05110000
-41.16470000 41.74670000 -4.54050000
39.00050000 10.52160000 -32.68130000
-33.24200000 42.00990000 -39.27140000
-32.83340000 41.00380000 -39.58170000
-33.72790000 40.61350000 -39.48770000
-33.34150000 40.21320000 -39.63870000
-32.71430000 40.45090000 -39.56860000
-31.84610000 39.98500000 -39.90360000
-29.98600000 39.92960000 -40.10550000
-41.88490000 26.21650000 8.23690000
-41.87410000 26.63140000 9.19900000
-41.73720000 26.45650000 7.37280000
-41.84390000 24.45980000 8.16740000
-41.83520000 25.62620000 9.96070000
-41.79920000 24.89900000 8.24430000
-29.73730000 39.74960000 -40.26230000
-30.36960000 40.18100000 -40.11900000
-41.79070000 28.68850000 7.86090000
-32.27500000 60.90080000 1.05720000
10.53010000 9.83230000 41.10960000
-28.23530000 1.95470000 -20.45540000
27.46530000 36.75330000 40.54400000
26.41390000 37.13930000 40.54580000
25.83100000 37.40510000 40.71610000
27.95940000 36.03650000 40.48940000
40.34960000 13.80210000 -13.13460000
40.27110000 12.65880000 -13.47830000
40.23200000 13.02600000 -13.95270000
-40.32400000 10.34710000 30.74950000
-40.71680000 10.49000000 28.10460000
-40.23410000 10.45100000 30.28520000
-40.99450000 25.49350000 -17.55940000
-41.04990000 24.66360000 -16.04100000
-41.11200000 25.66930000 -15.07560000
-41.08690000 25.13820000 -16.38110000
-41.66240000 28.90150000 16.30190000
-41.16880000 29.42940000 -14.45380000
-41.03740000 29.76210000 -15.22180000
-23.65700000 44.91630000 -40.79320000
-22.25780000 44.22450000 -40.89110000
-22.55070000 42.70250000 -40.89900000
-41.15360000 28.80490000 -15.57290000
-21.34820000 41.30390000 -40.92670000
-20.96850000 41.52560000 -41.02150000
-41.48150000 29.22070000 19.60070000
-41.58130000 29.17620000 18.43070000
-21.75050000 42.48570000 -40.86280000
-41.20790000 29.63200000 21.74120000
-41.27110000 29.86580000 22.03450000
23.10950000 54.86620000 -40.67380000
21.95490000 54.55590000 -40.95160000
-41.21080000 29.77800000 23.23050000
33.80060000 40.97180000 -38.79130000
20.50240000 14.98670000 -40.02830000
19.22270000 14.96900000 -40.34200000
18.18410000 14.36140000 -40.34850000
-40.64090000 39.70250000 26.76810000
18.56170000 14.28150000 -40.24940000
19.12660000 14.31170000 -40.34240000
19.76790000 14.00310000 -40.05990000
18.98400000 13.93320000 -40.21350000
-39.98210000 41.56380000 30.93520000
-40.13040000 42.10960000 30.10280000
-40.12570000 41.64750000 29.70240000
-40.21190000 40.64180000 30.10580000
-40.18960000 43.17730000 29.09680000
-28.37750000 9.16470000 -39.43660000
-29.14010000 9.23400000 -39.60550000
13.70540000 19.31550000 -40.73500000
-29.55900000 8.83060000 -39.49500000
-29.53860000 9.41530000 -39.56290000
-29.32110000 9.06390000 -39.31590000
-41.78060000 14.14090000 15.99740000
-41.60960000 15.13430000 16.88700000
-29.17930000 10.37530000 -39.52210000
-29.27270000 9.96960000 -39.66040000
-29.43380000 10.41740000 -39.67940000
-31.49030000 10.68220000 -39.49970000
-28.26850000 9.45950000 -39.72540000
-29.23190000 9.63280000 -39.38030000
-29.49110000 9.75500000 -39.54190000
19.10770000 49.54130000 -41.14460000
18.06880000 49.81690000 -41.12910000
-28.46510000 9.55430000 -39.46500000
22.96580000 49.46630000 -40.62560000
24.45350000 49.40630000 -40.62830000
-30.12020000 9.85180000 -39.55660000
-29.71560000 9.82740000 -39.35640000
-30.56160000 8.99680000 -39.39790000
-30.63200000 9.77290000 -39.48310000
22.67660000 49.60910000 -40.90030000
-41.37900000 37.58760000 20.68920000
-41.17050000 37.83310000 21.45580000
-41.21800000 37.30540000 21.79250000
-41.37610000 16.97310000 23.00740000
-39.47070000 40.50230000 -30.25370000
-29.62660000 54.52460000 12.21020000
-41.24310000 51.93390000 -9.01130000
-41.27840000 51.86620000 -8.52970000
-41.25880000 50.88870000 -8.99410000
39.61800000 15.72170000 19.80150000
39.43580000 15.39000000 19.87940000
-41.48770000 18.32170000 19.17490000
-41.58010000 19.16890000 19.93350000
40.77300000 38.53830000 -24.28610000
-21.25870000 50.45660000 -40.93140000
-21.19380000 50.88730000 -41.02890000
-20.33750000 51.28650000 -41.00560000
-22.74490000 50.44850000 -40.88600000
40.84170000 35.68590000 -21.90670000
40.74790000 35.82200000 -22.19730000
40.85830000 37.30830000 -23.04310000
40.67650000 37.94130000 -24.14880000
-41.08780000 14.99470000 -17.89970000
-40.61560000 43.07860000 -20.41340000
-40.55130000 44.41120000 -21.23210000
-41.36950000 25.98910000 -11.10740000
-41.48990000 26.67410000 -8.64560000
17.99260000 50.47450000 41.26210000
21.59020000 50.04170000 41.22600000
19.16250000 49.99990000 41.29800000
17.93730000 49.98280000 41.37660000
-39.43150000 23.44750000 37.38260000
-41.28000000 25.45040000 -11.72620000
-13.94660000 45.43820000 28.28210000
-41.41830000 13.81790000 -13.14200000
-41.36510000 15.46680000 -13.24680000
-41.42380000 16.86560000 -13.09530000
0.68120000 27.90790000 31.31440000
-41.54680000 16.71310000 -9.92600000
-41.41970000 17.10650000 -12.02350000
-41.33730000 16.12160000 -13.66810000
39.59520000 47.26950000 35.72120000
-17.75790000 13.41770000 -40.77420000
-38.21170000 42.74120000 -34.56240000
-41.53480000 18.90010000 -3.10560000
-23.26560000 15.05090000 -40.50530000
7.66000000 25.05860000 41.42880000
24.58370000 44.28110000 40.85340000
8.40130000 28.71330000 41.48810000
7.84680000 29.72360000 41.49150000
7.78070000 26.99230000 41.44240000
24.00020000 43.17640000 40.81180000
8.83770000 26.21150000 41.45450000
8.20410000 27.43500000 41.36680000
7.92890000 25.90580000 41.48410000
2.73050000 13.84480000 -41.00330000
3.97710000 13.47180000 -40.84920000
-39.33470000 52.80000000 -31.27550000
-39.15820000 52.98280000 -30.77490000
6.92040000 10.89070000 41.13000000
7.04240000 9.70050000 41.13550000
7.49680000 9.09830000 41.03260000
-41.55310000 29.27980000 16.33830000
-41.60670000 29.04360000 14.45550000
7.22330000 13.97320000 41.26300000
-40.56290000 12.88500000 -22.58790000
-40.79860000 12.85870000 -22.02070000
21.80670000 14.96690000 -40.14600000
19.31070000 15.75580000 -40.25550000
15.35080000 24.32030000 -27.63920000
-40.73980000 52.95950000 -7.01500000
21.38150000 14.94930000 -40.04550000
22.68730000 15.85120000 -40.09360000
-40.98940000 51.87620000 -15.23930000
-40.82750000 50.78680000 -18.66340000
-40.79490000 51.16180000 -19.22800000
-39.36010000 49.36620000 -31.78930000
-39.30970000 49.76220000 -30.83040000
-40.33930000 21.85920000 32.41300000
-40.31610000 50.93290000 -22.99420000
-40.36450000 50.72620000 -23.84550000
-40.59030000 50.71440000 -21.86320000
-40.62660000 51.80330000 -20.90670000
-40.21570000 50.73850000 -25.40330000
-40.19490000 50.46740000 -25.06840000
-38.85070000 52.65090000 -35.09510000
-38.57860000 51.00490000 -36.54080000
-38.90590000 51.66750000 -34.68440000
-38.61110000 51.96210000 -36.64430000
-33.13740000 26.03960000 -39.69160000
29.20810000 54.74490000 -39.56670000
26.25350000 54.82640000 -40.21380000
-6.67800000 1.64790000 -39.36940000
-8.74330000 1.53590000 -37.62660000
23.08660000 40.70510000 -40.48160000
-31.80710000 57.86940000 -0.74090000
41.01150000 48.26570000 23.05050000
41.13880000 48.94750000 21.50930000
14.94030000 42.51430000 41.38220000
15.52600000 42.82760000 41.29280000
13.85250000 41.78470000 41.35610000
14.49660000 43.01710000 41.31670000
-28.93900000 10.02870000 38.99590000
-31.43760000 10.12800000 38.72720000
-30.48790000 52.47040000 -39.92940000
-31.58950000 51.75880000 -39.88650000
-29.07660000 52.36030000 -40.30280000
-29.59650000 52.49570000 -39.96330000
22.13700000 33.57420000 -40.49870000
-29.80120000 52.03440000 -40.10690000
41.32250000 42.92000000 -16.45820000
41.16830000 43.43710000 -17.49870000
-34.73100000 10.23440000 38.50590000
41.20490000 42.81110000 -16.77590000
41.25640000 42.09690000 -17.22380000
-41.59140000 41.16980000 12.60050000
-41.65480000 39.54030000 11.59770000
-41.61990000 41.11250000 10.79740000
-41.51920000 41.79120000 14.37620000
18.44580000 43.99690000 -40.91050000
-41.55030000 41.56570000 12.37900000
18.92210000 41.88460000 -40.95140000
-41.63500000 42.04730000 12.21460000
-41.03940000 11.91440000 23.21250000
-18.76100000 38.82700000 -41.19630000
-17.50460000 37.28230000 -41.26500000
-40.86480000 12.21240000 26.55920000
-41.15790000 12.17760000 23.91510000
39.90760000 11.45430000 11.18070000
-41.01530000 12.30040000 23.91230000
-41.20480000 12.66100000 22.11910000
-39.41490000 29.24570000 -32.75870000
-40.14050000 52.41390000 -25.47700000
-39.91790000 52.49350000 -25.71000000
-40.38770000 51.67310000 -23.70670000
39.99620000 38.94380000 -30.61770000
40.23930000 38.56500000 -29.59240000
39.97870000 38.43260000 -31.67140000
39.51090000 38.99620000 -33.77030000
-41.91720000 13.02350000 8.31960000
-42.00060000 12.75650000 7.84300000
-41.98670000 14.08510000 8.55720000
-41.90060000 10.38900000 8.37200000
-21.81880000 9.63000000 -40.37450000
-24.61400000 9.45070000 -39.90290000
-24.42270000 9.94820000 -40.17270000
-42.03520000 11.42590000 8.32530000
-24.40670000 9.17340000 -40.08680000
41.27200000 48.21220000 -18.35640000
41.10910000 48.12620000 -20.83380000
16.73990000 11.98030000 -26.87050000
28.01930000 54.57130000 35.15810000
-13.95660000 2.10840000 37.87120000
-15.44200000 2.09180000 36.54110000
-11.22950000 44.66030000 -41.44910000
-13.50250000 43.95880000 -41.27550000
-21.07850000 28.63940000 -40.83250000
-23.10670000 29.56650000 -40.77690000
-20.39620000 28.67450000 -40.95360000
-20.63330000 29.27650000 -40.93540000
-40.90130000 10.88230000 -18.51210000
39.23640000 13.30660000 21.19980000
-23.57490000 29.44390000 -40.68350000
-41.08320000 12.24980000 -17.59590000
-40.71640000 10.58170000 -22.40230000
-40.71880000 9.54830000 -22.35660000
-40.09260000 56.16280000 -20.30790000
-39.79920000 55.83710000 -27.87370000
38.59430000 28.77850000 -37.04330000
37.77320000 7.31170000 29.00360000
37.85040000 8.04030000 29.23740000
38.84150000 27.39620000 -36.46550000
37.87800000 7.83280000 28.70930000
37.67890000 7.94980000 28.89910000
37.88850000 8.18910000 28.83260000
38.90620000 28.77710000 -35.87040000
38.62850000 27.47770000 -36.20280000
18.49910000 17.00790000 40.76690000
17.50220000 15.98230000 40.79120000
19.97230000 17.89590000 40.91650000
38.98830000 27.41190000 -35.67250000
38.91680000 27.24660000 -36.16480000
-14.94240000 21.58180000 40.90470000
41.30670000 33.21370000 -8.15190000
41.31030000 34.95760000 -7.75240000
41.25570000 32.14370000 -10.24550000
-17.79780000 23.85800000 40.78140000
-15.49640000 24.09990000 40.91380000
-16.64400000 23.61310000 40.87100000
-22.82410000 5.44860000 -36.00810000
-16.43370000 18.16900000 40.70730000
-40.34120000 37.65370000 -23.24250000
-40.39180000 37.36580000 -23.46370000
-40.15950000 38.91190000 -24.47850000
-19.29200000 40.90750000 -41.00020000
-21.97300000 44.05880000 -40.83000000
-21.55620000 43.34050000 -40.95740000
-17.87630000 15.99790000 40.51260000
-21.18970000 43.54400000 -40.88310000
-20.64260000 42.27890000 -40.91390000
-20.94250000 42.24300000 -40.97020000
-40.42070000 36.90810000 -22.55860000
-40.44680000 36.35630000 -22.04510000
-40.68310000 36.38790000 -20.68840000
-19.34120000 41.17790000 -41.07090000
-18.83890000 41.54550000 -41.14710000
-40.92030000 19.73660000 -20.18390000
-19.52420000 42.33900000 -40.98050000
40.36440000 38.40590000 -27.36480000
-20.67230000 42.93190000 -41.00860000
-32.90050000 42.48970000 -39.28990000
-32.65360000 42.93430000 -39.35140000
-31.35000000 42.35300000 -39.61840000
-32.27720000 43.41840000 -39.45440000
40.42910000 38.93410000 -27.85750000
-40.52740000 27.77800000 -23.57660000
35.59550000 41.98670000 -38.16650000
-17.50600000 42.70380000 41.20780000
-15.99250000 43.37630000 41.26490000
-20.08140000 44.16750000 40.98220000
-17.80960000 43.64020000 41.10610000
-18.76240000 42.98630000 41.16480000
-18.31840000 42.56400000 41.09950000
-13.72580000 43.92790000 41.30810000
-15.68110000 41.85010000 41.28540000
-14.18960000 43.11590000 41.25360000
25.29320000 38.70150000 40.79450000
-13.39030000 41.65310000 41.29210000
-15.29780000 40.26970000 41.22740000
-14.38190000 40.64550000 41.32780000
38.32170000 9.80710000 27.89800000
-23.83420000 30.66170000 -40.39320000
38.70100000 42.03720000 -35.19150000
-41.71770000 33.34320000 14.76980000
-41.57550000 34.51570000 16.67930000
-41.65860000 33.72550000 14.52920000
-41.84860000 33.96970000 9.27170000
-40.83780000 29.88270000 -19.31370000
-40.77880000 30.46420000 -20.21970000
-41.50420000 35.45610000 17.44090000
-17.57770000 28.34420000 -41.02600000
-18.42040000 26.75770000 -40.94590000
-41.72870000 34.15240000 10.21120000
39.69180000 14.87400000 16.32030000
33.02450000 20.51260000 -38.78330000
33.19530000 20.81600000 -38.57770000
-40.63980000 17.56030000 28.75820000
26.35810000 25.93680000 40.54680000
17.66430000 22.41750000 41.13490000
18.21220000 25.61990000 40.99050000
11.26360000 26.71290000 41.32240000
12.90620000 28.55190000 41.27870000
2.14480000 34.85170000 -41.44730000
0.73450000 34.04320000 -41.49790000
41.41830000 38.46170000 -4.33600000
-41.32680000 38.83390000 -10.60220000
-41.35690000 37.36450000 -9.98120000
-41.07940000 39.82950000 -13.86100000
-41.55410000 24.18720000 16.50720000
-41.70250000 24.46380000 15.66130000
-29.91730000 8.35440000 38.71640000
-29.35590000 8.58350000 38.76020000
-40.54500000 34.01230000 29.29330000
-40.19880000 33.52470000 31.21600000
39.73170000 43.75320000 32.06200000
39.61490000 44.25910000 32.59330000
-40.57410000 33.71450000 28.38910000
39.43160000 42.31210000 32.01990000
39.27640000 41.97880000 32.93880000
39.32520000 41.60200000 32.45110000
39.11510000 41.74860000 33.04920000
39.19550000 41.39340000 32.98450000
12.50650000 8.04770000 40.83910000
39.59080000 43.21380000 31.42400000
39.73910000 43.91660000 31.61230000
39.67100000 43.03380000 31.69670000
39.19510000 42.25510000 32.67050000
39.86730000 20.95550000 18.21570000
-39.83270000 10.38150000 33.82680000
-3.87170000 11.21120000 41.04380000
-42.00360000 13.08550000 10.39150000
-41.97550000 14.53790000 10.37140000
-41.91120000 15.32600000 12.35820000
-39.99510000 39.25580000 -27.21760000
-39.88740000 38.39270000 -27.49740000
-39.88950000 38.98460000 -27.54030000
-39.68290000 40.90080000 -28.74900000
-40.51380000 43.52240000 -20.47990000
-40.70480000 42.53010000 -18.77620000
-40.76140000 43.71250000 -17.42550000
-41.04030000 45.17990000 -12.29740000
-40.97330000 45.05970000 -13.68790000
40.60660000 26.63660000 8.09660000
-41.03260000 45.11220000 -14.38810000
41.35900000 48.29060000 17.62520000
41.34110000 48.52430000 19.45000000
41.56560000 49.00760000 16.78210000
41.39580000 49.10460000 19.48400000
41.48420000 48.40450000 16.32560000
-40.18780000 40.13980000 -24.69110000
-40.26580000 41.36400000 -24.78330000
-40.19180000 40.94500000 -24.63430000
13.63320000 50.38470000 -41.49820000
16.16650000 24.53300000 40.95070000
-40.47830000 39.27320000 -22.93820000
-40.56920000 39.13900000 -21.92220000
-40.42620000 38.78350000 -21.83660000
-40.60440000 38.60680000 -21.46730000
-40.65390000 37.29710000 -21.00890000
-40.46290000 38.59030000 -22.73880000
-40.49960000 38.25300000 -22.17680000
-40.50910000 37.78940000 -22.46830000
19.78570000 43.15750000 41.07500000
20.28410000 42.32780000 41.06600000
-40.39340000 39.40260000 -22.23530000
-40.45380000 39.53870000 -21.30930000
18.50380000 41.34580000 41.16970000
19.04060000 41.17990000 41.24250000
-17.02360000 1.61270000 -37.96790000
20.87680000 42.16630000 41.13960000
21.11780000 43.62800000 41.13420000
-40.48210000 52.16670000 27.43010000
-40.54300000 51.08170000 28.32700000
-40.40280000 51.41950000 28.94880000
-40.38700000 51.41110000 28.33470000
-40.17760000 51.08680000 31.05240000
-40.40690000 50.87610000 29.41790000
-40.25230000 50.66290000 30.37070000
-40.49900000 49.90380000 28.59880000
-40.63370000 51.34620000 27.05690000
-40.49330000 50.40490000 27.03230000
-40.60580000 50.64950000 27.63210000
-40.50570000 50.33020000 28.10700000
-40.67060000 50.73760000 26.52610000
-40.87240000 50.67100000 24.11890000
-40.84020000 50.78000000 23.06090000
19.83930000 28.10740000 40.95660000
18.69860000 28.24860000 40.90350000
-41.05090000 51.28310000 20.70940000
38.89240000 22.61200000 -35.23240000
39.16100000 22.67020000 -34.14920000
39.14350000 22.45010000 -33.31360000
38.89900000 24.60370000 -35.90730000
-38.43120000 52.39570000 -37.63750000
-38.53110000 51.98870000 -37.11020000
-38.40330000 52.05870000 -36.84970000
-38.80080000 52.38920000 -35.50750000
-38.63770000 52.44680000 -36.54800000
41.25780000 41.33380000 13.63240000
-30.02700000 28.85570000 -40.06440000
-29.04550000 29.17090000 -40.24320000
