-1.40025449 9.98721886 0.39358354
-1.41054964 9.97265816 0.39608565
-1.41054964 9.97265720 0.54011840
-0.79544121 9.98721981 -0.83844203
-0.62179404 9.98721981 -0.83844203
-0.62399304 9.97265720 -0.84875321
-0.79944605 9.97265720 -0.84875333
0.57890588 9.98721981 -0.23362836
0.57890588 9.98721981 -0.05580427
0.58919454 9.97265720 -0.05797621
0.58919454 9.97265720 -0.23764977
-1.40025485 9.98721981 -0.04704243
-1.40025449 9.98721981 -0.23362865
-1.41054964 9.97265816 -0.23764992
-1.41054964 9.97265720 -0.04912303
0.57890588 9.98721981 0.37868550
0.58919454 9.97265816 0.38103271
0.57890588 9.98721886 0.53613377
0.58919454 9.97265720 0.54011840
-0.65315199 9.98721886 1.14094710
-0.65567696 9.97265720 1.15122199
-0.15763824 9.98721886 -0.83844185
-0.02590743 9.98721981 -0.83844215
-0.02190902 9.97265720 -0.84875333
-0.15500988 9.97265720 -0.84875321
-0.79544139 9.98721886 1.14094710
-0.79944605 9.97265720 1.15122199
-0.17047100 0.53543746 1.27285981
-0.17046210 0.53222018 1.27290106
-0.03691900 0.53222013 1.26440108
-0.03693283 0.53543746 1.26430535
-1.53217399 0.53543705 0.42586908
-1.53221548 0.53221965 0.42587924
-1.52399027 0.53221965 0.52512294
-1.52389586 0.53543705 0.52510917
-0.64994138 0.53543699 -0.97039074
-0.64995021 0.53222024 -0.97043264
-0.78443772 0.53221965 -0.96206838
-0.78442383 0.53543699 -0.96197331
0.71081722 0.53543687 -0.07349450
0.71085870 0.53221953 -0.07350288
0.70015395 0.53221893 -0.22265454
0.70004386 0.53543627 -0.22264078
-1.52389586 0.53543705 -0.22264078
-1.52399027 0.53221965 -0.22265454
-1.53221548 0.53221965 -0.07350288
-1.53217399 0.53543705 -0.07349450
0.71081722 0.53543687 0.42586908
0.71085870 0.53221953 0.42587924
0.71090019 0.52900153 0.42588940
0.71090019 0.52900153 -0.07351124
-1.53225672 0.52900171 -0.07351065
-1.53225672 0.52900171 0.42588940
0.70004386 0.53543687 0.52510917
0.70015395 0.53222013 0.52512294
-0.64994127 0.53543764 1.27285981
-0.64995009 0.53222018 1.27290106
-0.64995873 0.52900219 1.27294230
-0.17045321 0.52900219 1.27294230
-0.03693276 0.53543752 -0.96197271
-0.03691900 0.53221953 -0.96206838
-0.17046240 0.53221953 -0.97043198
-0.17047122 0.53543693 -0.97039074
-0.17045358 0.52900159 -0.97047389
-0.64995903 0.52900165 -0.97047389
-0.78442365 0.53543705 1.26430535
-0.78443789 0.53221905 1.26440108
-0.03654855 0.01669677 1.27280772
0.19181323 0.01669730 1.25204754
0.19502003 0.03346941 1.25843859
-0.03477708 0.03346948 1.27932918
-0.78442365 0.53543705 1.26430535
-1.01778591 0.53543645 1.25883806
-1.01536679 0.53222024 1.25443923
-0.78443789 0.53221905 1.26440108
-0.03693276 0.53543752 -0.96197271
0.19643320 0.53543752 -0.95006824
0.19401217 0.53221893 -0.94573033
-0.03691900 0.53221953 -0.96206838
0.19181323 0.01669730 1.25204754
0.37865472 0.01669730 1.18976688
0.38303593 0.03346881 1.19576705
0.19502003 0.03346941 1.25843859
0.37865472 0.01669730 1.18976688
0.52397579 0.01669550 1.08596587
0.52927047 0.03347000 1.09131372
0.38303593 0.03346881 1.19576705
0.52397579 0.01669550 1.08596587
0.62777668 0.01669670 0.94064510
0.63372380 0.03346941 0.94507861
0.52927047 0.03347000 1.09131372
0.62777668 0.01669670 0.94064510
0.69005716 0.01669606 0.75380385
0.69639581 0.03346877 0.75706309
0.63372380 0.03346941 0.94507861
0.69005716 0.01669606 0.75380385
0.71081734 0.01669726 0.52544165
0.71728635 0.03346937 0.52726585
0.69639581 0.03346877 0.75706309
-1.01778591 0.53543645 1.25883806
-1.20623982 0.53543705 1.19819510
-1.20306957 0.53221959 1.19402409
-1.01536679 0.53222024 1.25443923
-1.20623982 0.53543705 1.19819510
-1.35281503 0.53543645 1.09349847
-1.34906042 0.53221977 1.08974469
-1.20306957 0.53221959 1.19402409
-1.35281503 0.53543645 1.09349847
-1.45751143 0.53543711 0.94692320
-1.45333982 0.53222024 0.94375366
-1.34906042 0.53221977 1.08974469
-1.45751143 0.53543711 0.94692320
-1.51198387 0.53543645 0.75846940
-1.50764811 0.53221971 0.75605142
-1.45333982 0.53222024 0.94375366
-1.51198387 0.53543645 0.75846940
-1.52389586 0.53543705 0.52510917
-1.52399027 0.53221965 0.52512294
-1.50764811 0.53221971 0.75605142
-1.51198387 0.53543711 -0.45601055
-1.45751166 0.53543645 -0.64446437
-1.45333982 0.53221965 -0.64129061
-1.50757897 0.53221971 -0.45348856
-1.45751166 0.53543645 -0.64446437
-1.35281467 0.53543705 -0.79104018
-1.34906042 0.53222024 -0.78728169
-1.45333982 0.53221965 -0.64129061
-1.35281467 0.53543705 -0.79104018
-1.20623982 0.53543705 -0.89573628
-1.20301843 0.53221965 -0.89147496
-1.34906042 0.53222024 -0.78728169
-1.20623982 0.53543705 -0.89573628
-1.01778591 0.53543699 -0.95006883
-1.01536691 0.53221965 -0.94572973
-1.20301843 0.53221965 -0.89147496
-1.01778591 0.53543699 -0.95006883
-0.78442383 0.53543699 -0.96197331
-0.78443772 0.53221965 -0.96206838
-1.01536691 0.53221965 -0.94572973
0.19643320 0.53543752 -0.95006824
0.38488701 0.53543627 -0.89573687
0.38171470 0.53221953 -0.89156103
0.19401217 0.53221893 -0.94573033
0.38488701 0.53543627 -0.89573687
0.53146201 0.53543687 -0.79104018
0.52770561 0.53222013 -0.78728169
0.38171470 0.53221953 -0.89156103
0.53146201 0.53543687 -0.79104018
0.63615870 0.53543746 -0.64446437
0.63198477 0.53221953 -0.64129061
0.52770561 0.53222013 -0.78728169
0.63615870 0.53543746 -0.64446437
0.68811566 0.53543687 -0.45601055
0.68380392 0.53221953 -0.45358780
0.63198477 0.53221953 -0.64129061
0.68811566 0.53543687 -0.45601055
0.70004386 0.53543627 -0.22264078
0.70015395 0.53221893 -0.22265454
0.68380392 0.53221953 -0.45358780
-0.79544139 9.98721886 1.14094710
-0.98024523 9.98721981 1.12414670
-0.98617250 9.97265720 1.13424683
-0.79944605 9.97265720 1.15122199
-1.40025449 9.98721981 -0.23362865
-1.38345397 9.98721981 -0.41843277
-1.39357460 9.97265816 -0.42437592
-1.41054964 9.97265816 -0.23764992
-0.02590743 9.98721981 -0.83844215
0.15889655 9.98721981 -0.82164150
0.16481711 9.97265720 -0.83177841
-0.02190902 9.97265720 -0.84875333
-0.01929983 9.45198441 1.15135729
0.17154044 9.45198345 1.13907850
0.17007685 9.45641899 1.13665330
-0.01932218 9.45641899 1.15135646
-0.98024523 9.98721981 1.12414670
-1.13144851 9.98721981 1.07374561
-1.13894808 9.97265720 1.08332169
-0.98617250 9.97265720 1.13424683
-1.13144851 9.98721981 1.07374561
-1.24905121 9.98721981 0.98974371
-1.25777376 9.97265720 0.99844617
-1.13894808 9.97265720 1.08332169
-1.24905121 9.98721981 0.98974371
-1.33305299 9.98721886 0.87214118
-1.34264922 9.97265720 0.87962031
-1.25777376 9.97265720 0.99844617
-1.33305299 9.98721886 0.87214118
-1.38345397 9.98721981 0.72093785
-1.39357483 9.97265720 0.72684461
-1.34264922 9.97265720 0.87962031
-1.38345397 9.98721981 0.72093785
-1.40025449 9.98721981 0.53613383
-1.41054964 9.97265720 0.54011840
-1.39357483 9.97265720 0.72684461
-1.38345397 9.98721981 -0.41843277
-1.33305299 9.98721981 -0.56963605
-1.34264922 9.97265816 -0.57715201
-1.39357460 9.97265816 -0.42437592
-1.33305299 9.98721981 -0.56963605
-1.24905121 9.98721981 -0.68723857
-1.25777376 9.97265816 -0.69597739
-1.34264922 9.97265816 -0.57715201
-1.24905121 9.98721981 -0.68723857
-1.13144851 9.98721981 -0.77124053
-1.13894808 9.97265720 -0.78085291
-1.25777376 9.97265816 -0.69597739
-1.13144851 9.98721981 -0.77124053
-0.98024523 9.98721981 -0.82164150
-0.98617250 9.97265720 -0.83177841
-1.13894808 9.97265720 -0.78085291
-0.98024523 9.98721981 -0.82164150
-0.79544121 9.98721981 -0.83844203
-0.79944605 9.97265720 -0.84875333
-0.98617250 9.97265720 -0.83177841
0.15889655 9.98721981 -0.82164150
0.31010005 9.98721981 -0.77124053
0.31759310 9.97265720 -0.78085309
0.16481711 9.97265720 -0.83177841
0.31010005 9.98721981 -0.77124053
0.42770249 9.98721981 -0.68723845
0.43641868 9.97265720 -0.69597739
0.31759310 9.97265720 -0.78085309
0.42770249 9.98721981 -0.68723845
0.51170439 9.98721886 -0.56963605
0.52129418 9.97265720 -0.57715172
0.43641868 9.97265720 -0.69597739
0.51170439 9.98721886 -0.56963605
0.56210542 9.98721981 -0.41843265
0.57221949 9.97265720 -0.42437592
0.52129418 9.97265720 -0.57715172
0.56210542 9.98721981 -0.41843265
0.57890588 9.98721981 -0.23362836
0.58919454 9.97265720 -0.23764977
0.57221949 9.97265720 -0.42437592
0.17154044 9.45198345 1.13907850
0.32610092 9.45198345 1.09420800
0.32424903 9.45641899 1.09183908
0.17007685 9.45641899 1.13665330
0.32610092 9.45198345 1.09420800
0.44631469 9.45198345 1.00834095
0.44416064 9.45641899 1.00618780
0.32424903 9.45641899 1.09183908
0.44631469 9.45198345 1.00834095
0.53218162 9.45198345 0.88812715
0.52981186 9.45641899 0.88627619
0.44416064 9.45641899 1.00618780
0.53218162 9.45198345 0.88812715
0.57408434 9.45198345 0.73356676
0.57169062 9.45641804 0.73210418
0.52981186 9.45641899 0.88627619
0.57408434 9.45198345 0.73356676
0.58523774 9.45198345 0.54272830
0.58527195 9.45641899 0.54270607
0.57169062 9.45641804 0.73210418
-0.19508310 9.45198441 1.15793300
0.07692508 9.44908142 1.15217209
0.07414933 9.45198345 1.14633667
-1.41725981 9.45198345 0.39772886
-1.41138470 9.44958878 0.60666829
-1.40544856 9.45198345 0.60403138
-0.62542480 9.45198345 -0.85546416
-0.82738477 9.44898796 -0.84964859
-0.82486218 9.45198345 -0.84375596
0.58441424 9.45198345 -0.05688637
0.59020954 9.44807529 -0.25297984
0.58441424 9.45198345 -0.25057867
-1.38329136 9.45198345 -0.82062083
-1.38910460 9.44898891 -0.82637697
-1.39323831 9.44898891 -0.81916761
-1.38740051 9.45198441 -0.81345391
0.58441424 9.45198345 0.37995318
0.60623914 8.65009117 0.38495010
0.60663319 8.61952114 0.38504061
0.61714733 7.80368662 0.40293080
0.61756885 7.77097845 0.40303409
0.62780374 6.97680712 0.40554026
0.62828761 6.93925810 0.40565893
0.63778430 6.20237684 0.40798452
0.63835377 6.15819407 0.40812385
0.64855719 5.36646175 0.41062254
0.64903122 5.32967472 0.41073853
0.65908206 4.54979944 0.41319984
0.65943158 4.52267361 0.41328534
0.66917992 3.76625204 0.41567284
0.66957897 3.73528981 0.41577029
0.67963624 2.95491028 0.41823310
0.68008399 2.92016554 0.41834310
0.69001603 2.14949036 0.42077544
0.69043839 2.11671543 0.42087826
0.70016485 1.36200702 0.42326036
0.70082974 1.31041825 0.42342299
0.71070439 0.54419518 0.42584157
0.71076989 0.53910393 0.42585832
0.71076989 0.53910387 -0.07348434
0.71070439 0.54419571 -0.07347178
0.70110524 1.28904057 -0.07154829
0.70080161 1.31259894 -0.07148730
0.69093466 2.07821155 -0.06951059
0.69048595 2.11302829 -0.06942031
0.68030721 2.90284562 -0.07955198
0.67988646 2.93549395 -0.07946289
0.66976076 3.72118211 -0.08037890
0.66923112 3.76227832 -0.08026529
0.65937686 4.52691936 -0.08434188
0.65907866 4.55005646 -0.08427610
0.64945287 5.29696274 -0.08230418
0.64903301 5.32953691 -0.08221180
0.63882416 6.12169170 -0.07713341
0.63836598 6.15723896 -0.07703386
0.62842423 6.92865753 -0.08091373
0.62784845 6.97333860 -0.08078488
0.61802500 7.73558712 -0.07284337
0.61770445 7.76045656 -0.07277357
0.60710657 8.58278751 -0.07376297
0.60664469 8.61862850 -0.07366102
-1.41725981 9.45198345 -0.05046760
-1.42761600 8.64842892 -0.05254282
-1.42803061 8.61624527 -0.05262593
-1.43827951 7.82099819 -0.05467962
-1.43864477 7.79267025 -0.05475301
-1.44900966 6.98839378 -0.05682972
-1.44933462 6.96319866 -0.05689489
-1.45884061 6.22560120 -0.05879985
-1.45929050 6.19071674 -0.05888983
-1.46991098 5.36662197 -0.06101811
-1.47030771 5.33582735 -0.06109734
-1.47987616 4.59338570 -0.06301485
-1.48031354 4.55945444 -0.06310214
-1.49032736 3.78244090 -0.06510934
-1.49073994 3.75041366 -0.06519186
-1.50110984 2.94581151 -0.06726961
-1.50154042 2.91240454 -0.06735571
-1.51142538 2.14538908 -0.06933660
-1.51185048 2.11241651 -0.06942210
-1.52192843 1.33041978 -0.07144126
-1.52233911 1.29854321 -0.07152378
-1.53206098 0.54419595 -0.07347178
-1.53212667 0.53910410 -0.07348434
-1.53212667 0.53910404 0.42585832
-1.53206098 0.54419529 0.42584157
-1.52237141 1.29604220 0.42346844
-1.52183187 1.33791900 0.42333630
-1.51188254 2.10992217 0.42090040
-1.51148999 2.14038825 0.42080414
-1.50162554 2.90579939 0.41838855
-1.50112867 2.94434500 0.41826656
-1.49102426 3.72837067 0.41579241
-1.49061763 3.75990820 0.41569316
-1.48041093 4.55188465 0.41319329
-1.47971535 4.60587168 0.41302317
-1.47030795 5.33582735 0.41071939
-1.46991098 5.36662149 0.41062224
-1.45983756 6.14824390 0.40815553
-1.45916283 6.20060205 0.40799022
-1.44949603 6.95069981 0.40562278
-1.44910777 6.98082495 0.40552771
-1.43871808 7.78697824 0.40298358
-1.43827951 7.82099819 0.40287626
-1.42809427 8.61131191 0.40038198
-1.42777526 8.63605022 0.40030387
0.56181300 9.45198345 1.12366211
0.56746233 9.44908047 1.12936401
0.57205105 9.44908047 1.12251198
0.56637472 9.45198441 1.11685026
-0.65732116 9.45198441 1.15793300
-0.65989035 8.63840294 1.16841936
-0.65997690 8.61100483 1.16877258
-0.66251272 7.80814838 1.17912066
-0.66261286 7.77635479 1.17953050
-0.66510099 6.98839474 1.18968666
-0.66520238 6.95633268 1.19009984
-0.66450769 6.15054703 1.20048571
-0.66466612 6.09973335 1.20114076
-0.65480798 5.35789633 1.21070230
-0.65489858 5.32738161 1.21109569
-0.63877887 4.59508848 1.22053409
-0.63888425 4.55679798 1.22102773
-0.64106852 3.76236033 1.23126733
-0.64117599 3.72325611 1.23177159
-0.64327669 2.95927620 1.24161875
-0.64335442 2.93098831 1.24198282
-0.64563316 2.10229564 1.25266397
-0.64569968 2.07812738 1.25297546
-0.64772141 1.34268427 1.26245487
-0.64778018 1.32141042 1.26272929
-0.64991707 0.54419643 1.27274680
-0.64993107 0.53910398 1.27281308
-0.17048116 0.53910398 1.27281308
-0.17049521 0.54419643 1.27274680
-0.17256409 1.29372334 1.26308620
-0.17269927 1.34268367 1.26245487
-0.17477652 2.09527731 1.25275481
-0.17488451 2.13437915 1.25225079
-0.17701796 2.90731263 1.24228835
-0.17711392 2.94207907 1.24183989
-0.17921762 3.70418787 1.23201740
-0.17931364 3.73898005 1.23156893
-0.18152311 4.53944111 1.22125161
-0.18161130 4.57141829 1.22083938
-0.18363838 5.30578089 1.21137404
-0.18375206 5.34695673 1.21084344
-0.18581636 6.09485149 1.20120358
-0.18590972 6.12866831 1.20076764
-0.18812416 6.93093300 1.19042718
-0.18826042 6.98028326 1.18979108
-0.19040446 7.75703859 1.17977941
-0.19049834 7.79099083 1.17934179
-0.19281526 8.63038826 1.16852272
-0.19290793 8.66395664 1.16808999
0.56254506 9.45198345 -0.82228982
0.56821138 9.44807434 -0.82806730
0.56334686 9.44807434 -0.83144444
0.55770916 9.45198345 -0.82564706
-0.15329415 9.45198345 -0.85546434
-0.16054198 8.62627316 -0.86610705
-0.16045901 8.60007000 -0.86644489
-0.16327953 7.79725599 -0.87679225
-0.16316622 7.76073503 -0.87726313
-0.15620695 6.98839331 -0.88721782
-0.15611614 6.95965528 -0.88758820
-0.15872058 6.20482254 -0.89731747
-0.15862350 6.17350912 -0.89772075
-0.16517791 5.34275484 -0.90842855
-0.16507955 5.30977821 -0.90885365
-0.15619947 4.58296919 -0.91822147
-0.15611605 4.55576706 -0.91857249
-0.16753046 3.77488852 -0.92863715
-0.16741985 3.73678207 -0.92912865
-0.17713544 2.94976521 -0.93927228
-0.17703612 2.91376901 -0.93973625
-0.17487346 2.13026071 -0.94983506
-0.17481202 2.10802913 -0.95012146
-0.17267887 1.33521092 -0.96008271
-0.17258149 1.29992735 -0.96053714
-0.17049551 0.54419577 -0.97027773
-0.17048146 0.53910393 -0.97034353
-0.64993137 0.53910345 -0.97034293
-0.64991736 0.54419589 -0.97027773
-0.64789903 1.27824521 -0.96081692
-0.64778286 1.32049739 -0.96027225
-0.64567751 2.08617640 -0.95040303
-0.64559144 2.11745930 -0.95000005
-0.64348280 2.88441610 -0.94011474
-0.64337891 2.92214584 -0.93962801
-0.64113265 3.73907161 -0.92909873
-0.64103860 3.77328849 -0.92865747
-0.63889784 4.55190039 -0.91862208
-0.63881773 4.58103514 -0.91824663
-0.63677341 5.32459164 -0.90866292
-0.63669807 5.35199594 -0.90830958
-0.63453645 6.13812065 -0.89817697
-0.63440973 6.18415022 -0.89758384
-0.63230717 6.94886637 -0.88772720
-0.63222826 6.97758150 -0.88735712
-0.63014084 7.73678923 -0.87757182
-0.63004088 7.77317047 -0.87710255
-0.62773627 8.61128807 -0.86630005
-0.62765348 8.64138794 -0.86591202
-1.38422203 9.45198441 1.12454879
-1.39003372 9.44958878 1.13024950
-1.38564920 9.44958973 1.13386261
-1.37986350 9.45198441 1.12814081
-1.06148565 0.00000007 -0.37951392
-1.16314113 0.00000007 -0.23536502
-1.34607947 0.00188590 -0.49041277
-1.19597101 0.00188530 -0.56984037
-1.23169386 0.00179920 -0.07218865
-1.23169386 0.00179920 -0.07218865
-1.47945344 0.00393678 -0.40222752
-1.25421202 0.00000007 0.11703646
-1.51058805 0.00000011 -0.19074263
-1.48778689 0.00416100 -0.34550869
-1.25421202 0.00000007 0.13067909
-1.51058805 0.00000009 -0.05432117
-1.23462367 0.00000007 0.34613174
-1.50862956 0.00000009 0.41941637
-1.17883611 0.00000007 0.51112217
-1.50305068 0.00000011 0.52578062
-1.08941698 0.00000007 0.66960311
-1.47529995 0.00000067 0.74852544
-1.08371735 0.00000007 0.68670225
-1.41830409 0.00000007 0.91951418
-0.95943373 0.00000007 0.81478518
-1.31183159 0.00000007 1.06398416
-0.80855262 -0.00000120 0.91180408
-1.16508210 0.00000007 1.16773021
-0.63554043 0.00000000 0.97329122
-0.97850198 0.00000007 1.23030496
-0.59959090 0.00960132 0.95148826
-0.41067877 0.02476623 0.96605051
-0.42710820 0.01083781 0.98937273
-0.22397688 0.02476623 0.94450939
-0.21831709 0.00784106 0.97854453
-0.05252083 0.02476563 0.88316095
-0.04799384 0.00784046 0.92795074
0.09877685 0.02476556 0.78691697
0.11162394 0.00784158 0.83480936
0.12471877 0.00784158 0.82373059
0.22500375 0.02476560 0.66068995
0.26100495 0.00784158 0.70842808
0.32124788 0.02476676 0.50939238
0.36311042 0.00784158 0.56202686
0.38259640 0.02476556 0.33793670
0.43657333 0.00784158 0.40232199
0.40413761 0.02476556 0.15123419
0.46211049 0.00784158 0.21209715
0.46405977 0.00784038 0.19757798
0.38259655 0.02476616 -0.03546771
0.43545079 0.00784098 -0.04291175
0.32124773 0.02476616 -0.20692399
0.36428046 0.00783978 -0.21220060
0.23100360 0.00784038 -0.36335886
0.26863375 -0.00000007 -0.36725187
0.25629801 -0.00000007 -0.38327360
0.59700429 0.00000052 -0.61705774
0.65400058 0.00000052 -0.44606844
0.13140772 -0.00000007 -0.50456184
0.49047452 -0.00000007 -0.76151574
-0.01280491 0.00000000 -0.60933566
0.34372497 -0.00000007 -0.86526120
-0.18581691 0.00000000 -0.67082286
0.15714474 -0.00000007 -0.92783654
-0.37649277 0.00000000 -0.69231069
-0.06881924 0.00000000 -0.94879466
-0.38870728 0.00000000 -0.69231069
-0.19096480 0.00000000 -0.94879466
-0.60234076 0.00000000 -0.67272180
-0.64650649 0.00000000 -0.94683468
-0.77055484 0.00000000 -0.61693513
-0.78510690 0.00000000 -0.94125617
-0.92903572 0.00000007 -0.52751577
-1.00785160 0.00000007 -0.91350573
-0.94537723 0.00192895 -0.52055246
-1.17129552 0.01033683 -0.84390843
-0.03693283 0.53543746 1.26430535
0.19643325 0.53543687 1.25883806
0.38488692 0.53543627 1.19819510
0.53146201 0.53543687 1.09349847
0.63615870 0.53543800 0.94692320
0.68811566 0.53543687 0.75846940
0.70004386 0.53543687 0.52510917
0.71081722 0.53543687 0.42586908
0.70067436 0.53543687 0.65696555
0.70067436 0.53543800 1.24991775
0.69601327 0.53543621 1.25796449
0.68724388 0.53543627 1.26270473
0.13072318 0.53543687 1.26270473
-0.17047100 0.53543746 1.27285981
-1.52389586 0.53543705 0.52510917
-1.51198387 0.53543645 0.75846940
-1.45751143 0.53543711 0.94692320
-1.35281503 0.53543645 1.09349847
-1.20623982 0.53543705 1.19819510
-1.01778591 0.53543645 1.25883806
-0.78442365 0.53543705 1.26430535
-0.64994127 0.53543764 1.27285981
-0.87344718 0.53543705 1.26270473
-1.51369035 0.53543705 1.26270473
-1.51881981 0.53543645 1.25895524
-1.52194512 0.53543711 1.25284755
-1.52194512 0.53543711 0.65696555
-1.53217399 0.53543705 0.42586908
-0.78442383 0.53543699 -0.96197331
-1.01778591 0.53543699 -0.95006883
-1.20623982 0.53543705 -0.89573628
-1.35281467 0.53543705 -0.79104018
-1.45751166 0.53543645 -0.64446437
-1.51198387 0.53543711 -0.45601055
-1.52389586 0.53543705 -0.22264078
-1.53217399 0.53543705 -0.07349450
-1.52194512 0.53543705 -0.29760975
-1.52194512 0.53543770 -0.94648433
-1.51778007 0.53543711 -0.95491672
-1.50941491 0.53543711 -0.96017122
-0.87344718 0.53543639 -0.96017182
-0.64994138 0.53543699 -0.97039074
0.70004386 0.53543627 -0.22264078
0.68811566 0.53543687 -0.45601055
0.63615870 0.53543746 -0.64446437
0.53146201 0.53543687 -0.79104018
0.38488701 0.53543627 -0.89573687
0.19643320 0.53543752 -0.95006824
-0.03693276 0.53543752 -0.96197271
-0.17047122 0.53543693 -0.97039074
0.13072325 0.53543633 -0.96017182
0.69107413 0.53543627 -0.96017182
0.69683111 0.53543687 -0.95678103
0.70067436 0.53543627 -0.95165986
0.70067436 0.53543627 -0.29760975
0.71081722 0.53543687 -0.07349450
-0.99969524 9.99999905 -0.33611903
-0.88722205 9.99999905 -0.44550681
-1.11354446 9.99999905 -0.74702263
-1.23169732 10.00000000 -0.65972286
-0.75146967 9.99999905 -0.52765805
-0.96251959 9.99999905 -0.80105436
-0.59639430 9.99999905 -0.57861662
-0.77901769 9.99999905 -0.82142252
-0.43006322 9.99999905 -0.59596777
-0.60453236 9.99999905 -0.82315779
-0.38744354 9.99999905 -0.59596777
-0.17833433 9.99999905 -0.82315779
-0.22496107 9.99999905 -0.57861662
-0.04233753 9.99999905 -0.82142252
-0.06988601 9.99999905 -0.52765810
0.14116423 9.99999905 -0.80105424
0.06586653 9.99999905 -0.44550654
0.29218936 9.99999905 -0.74702263
0.07666510 9.99999905 -0.43779343
0.40017465 9.99999905 -0.66989022
0.18605265 9.99999905 -0.32532012
0.48747447 9.99999905 -0.55173761
0.26820415 9.99999905 -0.18956786
0.54150617 9.99999905 -0.40071255
0.31916264 9.99999905 -0.03449265
0.56187433 9.99999905 -0.21721080
0.33651367 9.99999905 0.13222188
0.56360936 9.99999905 -0.03889001
0.33651367 9.99999905 0.17211773
0.56360936 9.99999905 0.36006838
0.31916264 9.99999905 0.33696160
0.56187421 9.99999905 0.51967943
0.26820430 9.99999905 0.49203673
0.54150611 9.99999905 0.70318115
0.18605262 9.99999905 0.62778920
0.48747441 9.99999905 0.85420620
0.17833941 10.00000000 0.63858765
0.41034213 9.99999905 0.96219164
0.06586631 9.99999905 0.74797547
0.29218936 9.99999905 1.04949141
-0.06988609 9.99999905 0.83012682
0.14116430 9.99999905 1.10352302
-0.22496122 10.00000000 0.88108528
-0.04233753 10.00000000 1.12389123
-0.39121580 9.99999905 0.89843649
-0.21605775 10.00000000 1.12562633
-0.43294278 9.99999905 0.89843649
-0.63332587 10.00000000 1.12562633
-0.59639448 10.00000000 0.88108528
-0.77901787 10.00000000 1.12389123
-0.75146967 9.99999905 0.83012688
-0.96251959 9.99999905 1.10352302
-0.88722205 9.99999905 0.74797541
-1.11354434 10.00000000 1.04949141
-0.89802057 10.00000000 0.74026203
-1.22152972 9.99999905 0.97235900
-1.00740850 9.99999905 0.62778896
-1.30882967 9.99999905 0.85420626
-1.08955956 9.99999905 0.49203661
-1.36286151 9.99999905 0.70318127
-1.14051843 9.99999905 0.33696148
-1.38322949 9.99999905 0.51967943
-1.15786934 9.99999905 0.17348577
-1.38496435 9.99999905 0.37374797
-1.15786934 9.99999905 0.13302636
-1.38496459 9.99999905 -0.03084462
-1.14051819 9.99999905 -0.03449280
-1.38322949 10.00000000 -0.21721081
-1.08955979 9.99999905 -0.18956800
-1.36286151 9.99999905 -0.40071252
-1.00740838 9.99999905 -0.32532036
-1.30882967 9.99999905 -0.55173790
-1.41725981 9.45198345 0.39772886
-1.40544856 9.45198345 0.60403138
-1.39873576 9.45198345 0.79485542
-1.38731980 9.45198441 1.11938155
-1.38422203 9.45198441 1.12454879
-1.37986350 9.45198441 1.12814081
-1.03276622 9.45198345 1.13952029
-0.82486230 9.45198345 1.14633667
-0.65732116 9.45198441 1.15793300
-0.80205542 9.45198345 1.14991772
-0.99289423 9.45198345 1.13907850
-1.14745462 9.45198345 1.09420800
-1.26766837 9.45198345 1.00834095
-1.35353518 9.45198441 0.88812715
-1.39798927 9.45198345 0.73356676
-1.41022825 9.45198441 0.54272825
-0.62542480 9.45198345 -0.85546416
-0.82486218 9.45198345 -0.84375596
-1.07294941 9.45198345 -0.83693957
-1.37620068 9.45198345 -0.82572556
-1.38329136 9.45198345 -0.82062083
-1.38740051 9.45198441 -0.81345391
-1.39833069 9.45198345 -0.47257110
-1.40544856 9.45198345 -0.25057861
-1.41725981 9.45198345 -0.05046760
-1.41022825 9.45198345 -0.24025984
-1.39798903 9.45198345 -0.43110171
-1.35353553 9.45198345 -0.58566236
-1.26766837 9.45198345 -0.70587605
-1.14745450 9.45198345 -0.79174292
-0.99289441 9.45198345 -0.82968193
-0.80205530 9.45198345 -0.84194964
0.58441424 9.45198345 -0.05688637
0.58441424 9.45198345 -0.25057867
0.57729638 9.45198345 -0.47257102
0.56622255 9.45198345 -0.81794465
0.56254506 9.45198345 -0.82228982
0.55770916 9.45198345 -0.82564706
0.27598608 9.45198345 -0.83659416
0.07414941 9.45198345 -0.84375584
-0.15329415 9.45198345 -0.85546434
-0.01929976 9.45198345 -0.84194982
0.17154039 9.45198345 -0.83198434
0.32610092 9.45198345 -0.79174292
0.44631475 9.45198345 -0.70587587
0.53218162 9.45198345 -0.58566195
0.57425833 9.45198345 -0.43110153
0.58199435 9.45198345 -0.24025954
0.13558714 0.54419583 1.27274680
0.13377771 0.83241290 1.26903188
0.13377771 0.83241230 1.26903188
0.13091548 1.28834629 1.26315498
-1.53206122 0.54419595 0.66151690
-1.52834666 0.83241123 0.65982658
-1.52834666 0.83241123 0.65982658
-1.52251852 1.28463030 0.65717483
-0.87768519 0.54419529 -0.97027832
-0.87613791 0.83241230 -0.96656352
-0.87613791 0.83241290 -0.96656293
-0.87371695 1.28347874 -0.96074939
0.71070427 0.54419518 -0.30171025
0.70699012 0.83241218 -0.30021009
0.70699012 0.83241218 -0.30021009
0.70119601 1.28199410 -0.29786983
-1.49758303 1.29850984 -0.93470597
-1.49901474 1.18488622 -0.93613678
-1.50363433 1.18488622 -0.92814028
-1.50219631 1.29851043 -0.92672026
0.67598563 1.27824521 1.23794508
0.67716140 1.18488669 1.23912060
0.68231511 1.18488550 1.23154867
0.68112671 1.27879035 1.23037434
0.67701679 1.26134670 -0.93703967
0.67798054 1.18488550 -0.93800408
0.67252165 1.18488669 -0.94171000
0.67155814 1.26172578 -0.94073778
-1.49917114 1.25503182 1.23922825
-1.50005579 1.18488693 1.24011254
-1.49517858 1.18488622 1.24413109
-1.49428976 1.25565910 1.24323606
0.64455712 1.29391575 1.22003400
0.64370680 1.32726562 1.21917832
-1.47690451 1.27122033 1.20772529
-1.47574329 1.30450082 1.20656776
-1.46490765 1.31352055 -0.91565526
-1.46479547 1.34453142 -0.91553867
0.66022176 1.27707911 -0.91127729
0.65937001 1.32080579 -0.91042948
-1.47748542 1.34498942 -0.91076010
-1.47734094 1.31418419 -0.91088086
-1.48073506 1.31400716 -0.90526170
-1.48085940 1.34482849 -0.90539086
0.65266198 1.32701111 1.21371639
0.65320492 1.29391873 1.21459055
0.65849316 1.29415977 1.20774269
0.65793020 1.32750607 1.20718479
0.65700668 1.32084882 -0.91177416
0.65787405 1.27702165 -0.91234696
0.64690197 1.27738225 -0.91608036
0.64631975 1.32107067 -0.91549259
-1.47320521 1.30379581 1.22035921
-1.47439170 1.27070606 1.22130811
-1.47511578 1.27075768 1.22406030
-1.47415853 1.30382466 1.22310007
0.13057430 1.34268367 1.26245487
0.12881382 1.62310040 1.25884044
0.12881382 1.62310040 1.25884044
0.12592424 2.08338237 1.25290799
-1.52189815 1.33278418 0.65689200
-1.51815677 1.62309933 0.65518975
-1.51815677 1.62309933 0.65518975
-1.51206124 2.09605527 0.65241605
-0.87346268 1.33086765 -0.96013832
-0.87189424 1.62309921 -0.95637202
-0.87189424 1.62309921 -0.95637202
-0.86941063 2.08585119 -0.95040727
0.70072317 1.31868756 -0.29767910
0.69679999 1.62310040 -0.29609403
0.69679999 1.62310040 -0.29609403
0.69103169 2.07068157 -0.29376456
-1.48767352 2.08491850 -0.92480570
-1.48904395 1.97616613 -0.92617494
-1.49359977 1.97616613 -0.91823047
-1.49221826 2.08534169 -0.91686600
0.66612649 2.06103301 1.22808552
0.66719544 1.97616601 1.22915399
0.67225236 1.97616601 1.22160232
0.67116779 2.06188130 1.22053027
0.66709363 2.04862499 -0.92711127
0.66800696 1.97616553 -0.92802489
0.66257095 1.97616613 -0.93167037
0.66165560 2.04915786 -0.93074661
-1.48901701 2.06009436 1.22907925
-1.49007535 1.97616684 1.23013699
-1.48524296 1.97616696 1.23411906
-1.48418713 2.06026411 1.23305476
0.63362718 2.07707977 1.20898092
0.63253003 2.11281943 1.20787776
-1.46897948 2.07624817 1.19989085
-1.46861982 2.09694862 1.19953322
-1.45783186 2.10041451 -0.90846413
-1.45726717 2.12955761 -0.90789491
0.64599246 2.06452847 -0.89712465
0.64494509 2.10022211 -0.89608067
-1.46497905 2.12971425 -0.90345597
-1.46510887 2.10059166 -0.90404910
-1.46875966 2.10079670 -0.89340979
-1.46860158 2.12997842 -0.89325672
0.64479727 2.11236882 1.20225322
0.64558804 2.07670593 1.20338380
0.65062213 2.07711864 1.19998705
0.64981651 2.11273527 1.19918644
0.64203280 2.10000157 -0.90732270
0.64311075 2.06429887 -0.90799356
0.64205027 2.06446862 -0.91113979
0.64136493 2.10010433 -0.91045040
-1.46648765 2.09636188 1.20737433
-1.46681345 2.07576799 1.20833039
-1.46245313 2.07578444 1.21131933
-1.46153390 2.09640861 1.21039796
0.12561780 2.13217759 1.25227892
0.12352327 2.46581578 1.24797869
0.12352327 2.46581602 1.24797869
0.12084940 2.89174175 1.24248862
-1.51159167 2.13249803 0.65220255
-1.50729585 2.46581554 0.65024740
-1.50729585 2.46581674 0.65024740
-1.50170183 2.89987731 0.64770204
-0.86920226 2.12467146 -0.94990677
-0.86737114 2.46581531 -0.94551033
-0.86737114 2.46581531 -0.94551033
-0.86510205 2.88858485 -0.94006091
0.69047725 2.11370158 -0.29354033
0.68593949 2.46581602 -0.29170713
0.68593937 2.46581650 -0.29170713
0.68041503 2.89447975 -0.28947571
-1.47739625 2.90056229 -0.91453713
-1.47896218 2.77628136 -0.91610128
-1.48347557 2.77628136 -0.90823209
-1.48190033 2.90074468 -0.90667635
0.65603250 2.86248398 1.21799088
0.65711820 2.77628183 1.21907675
0.66212791 2.77628064 1.21159506
0.66102600 2.86336231 1.21050620
0.65675920 2.86854982 -0.91677153
0.65792209 2.77628136 -0.91793507
0.65255922 2.77628136 -0.92156804
0.65139645 2.86898637 -0.92039549
-1.47861874 2.88451791 1.21868563
-1.47998440 2.77628183 1.22005010
-1.47521722 2.77628207 1.22401488
-1.47385216 2.88499022 1.22263908
0.62496406 2.87865877 1.20019162
0.62380826 2.91621470 1.19902980
-1.45828032 2.90027738 1.18928444
-1.45745254 2.92245841 1.18845928
-1.44649720 2.91574264 -0.89700985
-1.44619262 2.94412327 -0.89670074
0.63902003 2.88437676 -0.89023250
0.63807452 2.92283821 -0.88929015
-1.45637119 2.94448042 -0.89215177
-1.45625818 2.91623545 -0.89247888
-1.45972729 2.91618156 -0.88450569
-1.45981038 2.94449878 -0.88459355
0.63348162 2.91575527 1.19361508
0.63441986 2.87815785 1.19480014
0.63954538 2.87871766 1.18902791
0.63859940 2.91626477 1.18808734
0.63561094 2.92273045 -0.89322025
0.63657045 2.88422370 -0.89396286
0.62846678 2.88459373 -0.89746368
0.62771988 2.92306113 -0.89671272
-1.45521033 2.92210507 1.19822025
-1.45606053 2.90019107 1.19873929
-1.45285153 2.90037131 1.20163739
-1.45231915 2.92230892 1.20110345
0.12055653 2.93837929 1.24188781
0.11872269 3.23049045 1.23812270
0.11872269 3.23048997 1.23812270
0.11577710 3.69970131 1.23207474
-1.50115228 2.94251800 0.64745212
-1.49744081 3.23049045 0.64576304
-1.49744081 3.23049045 0.64576304
-1.49111390 3.72141337 0.64288408
-0.86486930 2.93195939 -0.93950188
-0.86326689 3.23049045 -0.93565369
-0.86326706 3.23049045 -0.93565428
-0.86054248 3.73812389 -0.92911071
0.67987728 2.93620396 -0.28925866
0.67608464 3.23049045 -0.28772682
0.67608464 3.23049116 -0.28772682
0.66986436 3.71314120 -0.28521436
-1.46687591 3.73540211 -0.90402699
-1.46858537 3.59976315 -0.90573466
-1.47305453 3.59976315 -0.89794081
-1.47133517 3.73563290 -0.89624274
0.64559394 3.69127059 1.20755196
0.64674646 3.59976268 1.20870471
0.65170741 3.59976268 1.20129597
0.65054095 3.69194078 1.20014250
0.64643240 3.68785000 -0.90643895
0.64754277 3.59976268 -0.90754992
0.64221221 3.59976268 -0.91112900
0.64110190 3.68829918 -0.91000855
-1.46829069 3.70337176 1.20836270
-1.46959734 3.59976268 1.20966852
-1.46485651 3.59976387 1.21357465
-1.46355367 3.70356011 1.21226168
0.61401898 3.70689297 1.18911636
0.61316067 3.74249721 1.18825245
-1.45175624 3.71909666 1.18285263
-1.45125186 3.74478459 1.18235159
-1.43671560 3.75090003 -0.88710541
-1.43635714 3.77917647 -0.88674307
0.62754428 3.70373082 -0.87883621
0.62654567 3.73526430 -0.87784070
-1.44544935 3.77926588 -0.88230056
-1.44564581 3.75107551 -0.88266945
-1.44912207 3.75106573 -0.87403196
-1.44891310 3.77931333 -0.87382752
0.62436664 3.74256730 1.18278503
0.62475300 3.70694494 1.18368137
0.62975115 3.70727229 1.17935538
0.62933779 3.74282646 1.17894709
0.62393928 3.73493600 -0.88460314
0.62495530 3.70352364 -0.88537264
0.61977762 3.70382643 -0.88868213
0.61900133 3.73528981 -0.88790244
-1.44951367 3.74470139 1.18391037
-1.45001686 3.71904445 1.18444252
-1.43906033 3.71911073 1.18776631
-1.43853235 3.74497366 1.18723595
0.11548842 3.74567008 1.23148227
0.11346478 4.06800318 1.22732794
0.11346478 4.06800318 1.22732794
0.11059818 4.52463531 1.22144234
-1.49061584 3.76003790 0.64265746
-1.48664725 4.06800318 0.64085174
-1.48664725 4.06800318 0.64085174
-1.48048484 4.54615068 0.63804752
-0.86032367 3.77887893 -0.92858577
-0.85877180 4.06800318 -0.92485893
-0.85877180 4.06800318 -0.92485893
-0.85615742 4.55512333 -0.91858023
0.66926742 3.75946307 -0.28497282
0.66529125 4.06800270 -0.28336683
0.66529131 4.06800318 -0.28336683
0.65945822 4.52060890 -0.28101102
-1.45643044 4.56438255 -0.89359039
-1.45843017 4.40571928 -0.89558804
-1.46285617 4.40571928 -0.88786894
-1.46084929 4.56430769 -0.88588685
0.63544840 4.49681664 1.19740558
0.63659573 4.40571880 1.19855297
0.64150918 4.40571833 1.19121563
0.64035130 4.49720955 1.19007123
0.63619423 4.50013447 -0.89619488
0.63738418 4.40571880 -0.89738536
0.63213634 4.40571928 -0.90096205
0.63094503 4.50071239 -0.89975965
-1.45784831 4.53128147 1.19792521
-1.45943224 4.40571928 1.19950819
-1.45475566 4.40572023 1.20339525
-1.45317566 4.53154039 1.20180297
0.60379642 4.51302958 1.17876709
0.60325503 4.54565859 1.17822027
-1.43744993 4.54703712 1.16863966
-1.43680501 4.58627653 1.16799986
-1.42780936 4.57974815 -0.87807751
-1.42774308 4.61235476 -0.87800634
0.61880994 4.51590061 -0.87018025
0.61780924 4.54463577 -0.86918288
-1.43384385 4.61270952 -0.87377608
-1.43374574 4.58005619 -0.87385082
-1.43737125 4.57967091 -0.86241090
-1.43744898 4.61235189 -0.86249465
0.61449951 4.54514122 1.17280257
0.61534876 4.51248932 1.17333412
0.62024796 4.51259518 1.16997027
0.61941773 4.54519320 1.16914487
0.61536998 4.54458618 -0.87335455
0.61640251 4.51580906 -0.87384963
0.60848385 4.51632309 -0.87729663
0.60796529 4.54505682 -0.87677521
-1.43457985 4.58594847 1.17801702
-1.43522024 4.54695463 1.17871630
-1.43289137 4.54700232 1.18151724
-1.43219841 4.58599281 1.18082035
0.11032756 4.56773567 1.22088695
0.10840298 4.87429953 1.21693563
0.10840298 4.87430000 1.21693563
0.10572028 5.30162477 1.21142757
-1.47973049 4.60468864 0.63770401
-1.47625577 4.87429905 0.63612312
-1.47625577 4.87429953 0.63612312
-1.47043002 5.32636356 0.63347197
-0.85595274 4.59325981 -0.91808933
-0.85444438 4.87429905 -0.91446656
-0.85444438 4.87429953 -0.91446656
-0.85202938 5.32425499 -0.90866709
0.65904772 4.55246067 -0.28084540
0.65490001 4.87429905 -0.27917004
0.65490001 4.87429953 -0.27917004
0.64954531 5.28978825 -0.27700710
-1.44686759 5.32329178 -0.88403600
-1.44831097 5.20875597 -0.88547820
-1.45271528 5.20875597 -0.87785417
-1.45126319 5.32349443 -0.87642008
0.62541014 5.29381752 1.18736720
0.62648147 5.20875549 1.18843842
0.63134748 5.20875454 1.18117189
0.63026428 5.29436350 1.18010128
0.62653470 5.26648998 -0.88653052
0.62726235 5.20875597 -0.88725877
0.62209290 5.20875597 -0.89082801
0.62136263 5.26697779 -0.89009076
-1.44812989 5.30181885 1.18821120
-1.44930351 5.20875645 1.18938422
-1.44465411 5.20875645 1.19321573
-1.44348252 5.30206537 1.19203484
0.59435940 5.30942154 1.16920459
0.59356588 5.35186958 1.16840458
-1.42990685 5.31769466 1.16118360
-1.42931163 5.35942221 1.16059291
-1.41831779 5.33879709 -0.86847466
-1.41795695 5.38047028 -0.86810786
0.60855418 5.28231573 -0.85999924
0.60770124 5.31317568 -0.85914958
-1.42468917 5.38081837 -0.86387730
-1.42484760 5.33896637 -0.86425310
-1.42839324 5.33890963 -0.85355282
-1.42821836 5.38056660 -0.85338449
0.60451567 5.35196733 1.16304517
0.60496783 5.30949259 1.16386735
0.60986733 5.30972290 1.15970671
0.60939443 5.35212612 1.15923977
0.60521513 5.31300163 -0.86450452
0.60608292 5.28216362 -0.86514759
0.59974515 5.28246403 -0.86847168
0.59909546 5.31331730 -0.86781907
-1.42737317 5.35934448 1.16621959
-1.42796242 5.31749249 1.16695762
-1.42142332 5.31759548 1.16997409
-1.42069924 5.35932875 1.16924584
0.10539053 5.35414124 1.21075070
0.10337373 5.67539215 1.20661020
0.10337373 5.67539215 1.20661020
0.10068540 6.10360861 1.20109081
-1.46988106 5.36895800 0.63322204
-1.46593153 5.67539120 0.63142502
-1.46593153 5.67539215 0.63142502
-1.45992339 6.14159155 0.62869108
-0.85181892 5.36348486 -0.90816158
-0.85014474 5.67539215 -0.90414149
-0.85014492 5.67539215 -0.90414149
-0.84760350 6.14887619 -0.89803857
0.64903569 5.32933378 -0.27680111
0.64457572 5.67539263 -0.27499989
0.64457572 5.67539263 -0.27499989
0.63887781 6.11752510 -0.27269822
-1.43607533 6.17977667 -0.87325352
-1.43811953 6.01756001 -0.87529570
-1.44251001 6.01756001 -0.86777627
-1.44045496 6.17996645 -0.86574668
0.61500388 6.12006378 1.17696023
0.61629486 6.01756001 1.17825139
0.62106764 6.01756001 1.17101061
0.61976415 6.12058020 1.16972244
0.61597615 6.10418987 -0.87596625
0.61706817 6.01755953 -0.87705892
0.61192173 6.01756001 -0.88056540
0.61082619 6.10491323 -0.87946016
-1.43775570 6.12433958 1.17784154
-1.43910253 6.01756096 1.17918777
-1.43452370 6.01756001 1.18300664
-1.43318617 6.12407398 1.18165863
0.58688074 6.13526630 1.16159618
0.58607328 6.16415739 1.16078389
-1.41884124 6.14011812 1.15021098
-1.41891658 6.17276144 1.15029025
-1.40535295 6.19441748 -0.85538423
-1.40503037 6.23151016 -0.85505599
0.59727514 6.11988735 -0.84880209
0.59602189 6.15366316 -0.84755182
-1.41715550 6.23242521 -0.85053331
-1.41674733 6.19545126 -0.85089505
-1.41996717 6.19539547 -0.84526122
-1.42032826 6.23235130 -0.84562832
0.59177041 6.16462040 1.15578687
0.59149468 6.13573790 1.15665829
0.59671122 6.13616848 1.14667165
0.59691024 6.16529226 1.14687490
0.59339958 6.15361214 -0.85553068
0.59470624 6.11986446 -0.85599351
0.59053230 6.12030411 -0.85916424
0.59003150 6.15397930 -0.85865992
-1.41696084 6.17243195 1.15653038
-1.41683233 6.14001322 1.15724218
-1.41169381 6.13966036 1.16016471
-1.41102827 6.17221689 1.15949595
0.10041543 6.14660072 1.20053661
0.09831178 6.48168802 1.19621766
0.09831171 6.48168850 1.19621754
0.09552471 6.92564201 1.19049549
-1.45920765 6.19712496 0.62836522
-1.45554006 6.48168802 0.62669641
-1.45554042 6.48168898 0.62669641
-1.44954932 6.94656181 0.62397039
-0.84732544 6.20066166 -0.89737099
-0.84581721 6.48168850 -0.89374912
-0.84581721 6.48168802 -0.89374912
-0.84331328 6.94818354 -0.88773590
0.63832909 6.16010714 -0.27247640
0.63418472 6.48168802 -0.27080253
0.63418472 6.48168850 -0.27080253
0.62847543 6.92468357 -0.26849666
-1.42641807 6.94621944 -0.86360466
-1.42789125 6.82928467 -0.86507642
-1.43222797 6.82928562 -0.85762191
-1.43074453 6.94650650 -0.85615671
0.60498285 6.91570139 1.16693878
0.60607129 6.82928419 1.16802716
0.61079657 6.82928467 1.16085875
0.60969907 6.91602135 1.15977407
0.60579973 6.91156054 -0.86578465
0.60683686 6.82928467 -0.86682200
0.60180134 6.82928419 -0.87035364
0.60076195 6.91216564 -0.86930460
-1.42752063 6.93583059 1.16761124
-1.42886472 6.82928467 1.16895437
-1.42431545 6.82928467 1.17271888
-1.42297471 6.93604040 1.17136824
0.57344872 6.93136549 1.14803898
0.57283139 6.97654009 1.14741468
-1.40974879 6.95149708 1.14120984
-1.40932786 6.97048235 1.14079094
-1.39719737 6.96169662 -0.84711564
-1.39681828 7.00097179 -0.84673089
0.58543456 6.92725992 -0.83703989
0.58450985 6.96866894 -0.83611912
-1.40605092 7.00133753 -0.84242862
-1.40623927 6.96189356 -0.84282202
-1.40955472 6.96191311 -0.83496958
-1.40935326 7.00115204 -0.83477408
0.58565420 6.97645617 1.14202845
0.58623910 6.93137503 1.14265239
0.59090734 6.93143845 1.14098465
0.59031862 6.97645950 1.14040267
0.58168060 6.96857977 -0.84762657
0.58263206 6.92723465 -0.84819013
0.58257449 6.92732430 -0.85111570
0.58199620 6.96862459 -0.85053271
-1.40743661 6.97037172 1.14615023
-1.40786350 6.95150566 1.14646471
-1.40106344 6.95155859 1.14945555
-1.40074360 6.97056961 1.14913356
0.09515580 6.98439789 1.18973804
0.09315204 7.30359268 1.18562400
0.09315196 7.30359268 1.18562400
0.09030537 7.75703859 1.17977941
-1.44908893 6.98227739 0.62376082
-1.44494808 7.30359316 0.62187648
-1.44494772 7.30359268 0.62187648
-1.43869889 7.78845835 0.61903292
-0.84310091 6.98776245 -0.88722616
-0.84140593 7.30359268 -0.88315499
-0.84140593 7.30359268 -0.88315529
-0.83902848 7.74651289 -0.87744623
0.62781572 6.97587490 -0.26822999
0.62359220 7.30359268 -0.26652414
0.62359220 7.30359221 -0.26652414
0.61814910 7.72596264 -0.26432577
-1.41598141 7.77444744 -0.85317749
-1.41747808 7.65568733 -0.85467255
-1.42176688 7.65568686 -0.84729069
-1.42026007 7.77475357 -0.84580308
0.59438646 7.75703859 1.15634179
0.59566289 7.65568686 1.15761828
0.60038429 7.65568686 1.15056777
0.59909904 7.75725079 1.14929748
0.59592354 7.69512701 -0.85590291
0.59642065 7.65568686 -0.85640025
0.59140432 7.65568686 -0.85986334
0.59090030 7.69587326 -0.85935467
-1.41671813 7.79229832 1.15681374
-1.41844130 7.65568733 1.15853608
-1.41393030 7.65568733 1.16225350
-1.41221702 7.79214048 1.16052687
0.56454802 7.77243423 1.13900578
0.56416142 7.81181717 1.13861310
-1.39797103 7.80769539 1.12952888
-1.39811575 7.83301258 1.12967610
-1.38615179 7.78919744 -0.83594882
-1.38581002 7.81678057 -0.83560312
0.58057523 7.71092129 -0.83225685
0.57933551 7.74350643 -0.83101994
-1.39721024 7.81759501 -0.83119917
-1.39676452 7.79012108 -0.83158481
-1.39995110 7.79015303 -0.82549608
-1.40034711 7.81763363 -0.82589686
0.57370234 7.81220007 1.13348186
0.57389277 7.77271223 1.13388228
0.57870644 7.77269030 1.12890697
0.57850039 7.81209421 1.12870693
0.57713521 7.74341297 -0.83242726
0.57840371 7.71080017 -0.83316869
0.56818962 7.71161938 -0.83664227
0.56742823 7.74425936 -0.83587712
-1.39614201 7.83317041 1.13667130
-1.39597905 7.80797148 1.13670492
-1.39124298 7.80770540 1.13955152
-1.39121819 7.83295298 1.13952410
0.09001157 7.80380154 1.17917669
0.08783638 8.15028000 1.17471087
0.08783646 8.15028000 1.17471087
0.08486404 8.62376213 1.16860819
-1.43817997 7.82874727 0.61879677
-1.43403614 8.15028000 0.61691099
-1.43403614 8.15028000 0.61691099
-1.42805815 8.61411572 0.61419088
-0.83880204 7.78868818 -0.87690270
-0.83686149 8.15028000 -0.87224215
-0.83686149 8.15028000 -0.87224227
-0.83440751 8.60751057 -0.86634892
0.61770874 7.76013088 -0.26414743
0.61268055 8.15028000 -0.26211676
0.61268055 8.15028000 -0.26211691
0.60718274 8.57687759 -0.25989595
-1.40562105 8.59666061 -0.84282637
-1.40658641 8.52005672 -0.84379077
-1.41079366 8.52005672 -0.83645350
-1.40982056 8.59696198 -0.83549261
0.58362699 8.61131191 1.14558172
0.58477628 8.52005672 1.14673114
0.58947277 8.52005672 1.13978314
0.58831632 8.61144257 1.13864017
0.58505249 8.55760670 -0.84502608
0.58552587 8.52005577 -0.84549963
0.58059347 8.52005672 -0.84895498
0.58011574 8.55813885 -0.84847307
-1.40626109 8.62138844 1.14636147
-1.40753913 8.52005672 1.14763892
-1.40307701 8.52005672 1.15131617
-1.40180576 8.62128544 1.15003526
0.55411375 8.62704659 1.12843728
0.55380684 8.66779804 1.12812412
-1.38885760 8.63680840 1.12050867
-1.38900447 8.65023232 1.12065697
-1.37804675 8.61232185 -0.82772261
-1.37759018 8.64582825 -0.82726187
0.56573915 8.57343483 -0.81750482
0.56495029 8.60880089 -0.81671917
-1.38442945 8.64588356 -0.82317948
-1.38479924 8.61233425 -0.82364452
-1.38817120 8.61240196 -0.81384575
-1.38779509 8.64592743 -0.81347471
0.56294227 8.66786671 1.12307024
0.56344271 8.62698555 1.12336874
0.56819075 8.62689304 1.11851680
0.56769925 8.66764259 1.11803138
0.56228900 8.60863590 -0.82634068
0.56309372 8.57328033 -0.82693559
0.56152481 8.57341194 -0.82988048
0.56092381 8.60871792 -0.82927549
-1.38718462 8.65037441 1.12534285
-1.38703454 8.63706207 1.12517512
-1.37991166 8.63675594 1.12813926
-1.38007307 8.65023422 1.12829971
0.67598563 1.27824521 1.23794508
0.65320492 1.29391873 1.21459055
0.64455712 1.29391575 1.22003400
0.66769111 1.27848303 1.24317026
0.67598563 1.27824521 1.23794508
0.68112671 1.27879035 1.23037434
0.65849316 1.29415977 1.20774269
0.65320492 1.29391873 1.21459055
0.69575381 1.34268308 1.25771582
0.65266198 1.32701111 1.21371639
0.65793020 1.32750607 1.20718479
0.70041007 1.34297907 1.24966729
0.69575381 1.34268308 1.25771582
0.68698603 1.34268367 1.26245487
0.64370680 1.32726562 1.21917832
0.65266198 1.32701111 1.21371639
-1.49917114 1.25503182 1.23922825
-1.47439170 1.27070606 1.22130811
-1.47690451 1.27122033 1.20772529
-1.50262856 1.25551248 1.23344696
-1.49917114 1.25503182 1.23922825
-1.49428976 1.25565910 1.24323606
-1.47511578 1.27075768 1.22406030
-1.47439170 1.27070606 1.22130811
-1.51894414 1.31946957 1.25900424
-1.47320521 1.30379581 1.22035921
-1.47415853 1.30382466 1.22310007
-1.51381171 1.31968904 1.26275146
-1.51894414 1.31946957 1.25900424
-1.52206707 1.31968617 1.25289297
-1.47574329 1.30450082 1.20656776
-1.47320521 1.30379581 1.22035921
-1.49758303 1.29850984 -0.93470597
-1.47734094 1.31418419 -0.91088086
-1.46490765 1.31352055 -0.91565526
-1.48963773 1.29820311 -0.94038737
-1.49758303 1.29850984 -0.93470597
-1.50219631 1.29851043 -0.92672026
-1.48073506 1.31400716 -0.90526170
-1.47734094 1.31418419 -0.91088086
-1.51737559 1.36066306 -0.95450175
-1.47748542 1.34498942 -0.91076010
-1.48085940 1.34482849 -0.90539086
-1.52154481 1.36019790 -0.94607896
-1.51737559 1.36066306 -0.95450175
-1.50902092 1.36008728 -0.95976162
-1.46479547 1.34453142 -0.91553867
-1.47748542 1.34498942 -0.91076010
0.67701679 1.26134670 -0.93703967
0.65787405 1.27702165 -0.91234696
0.66022176 1.27707911 -0.91127729
0.68114638 1.26163435 -0.93220073
0.67701679 1.26134670 -0.93703967
0.67155814 1.26172578 -0.94073778
0.64690197 1.27738225 -0.91608036
0.65787405 1.27702165 -0.91234696
0.69665051 1.33652318 -0.95667517
0.65700668 1.32084882 -0.91177416
0.64631975 1.32107067 -0.91549259
0.69089425 1.33650827 -0.96006536
0.69665051 1.33652318 -0.95667517
0.70049626 1.33629298 -0.95155704
0.65937001 1.32080579 -0.91042948
0.65700668 1.32084882 -0.91177416
0.66612649 2.06103301 1.22808552
0.64558804 2.07670593 1.20338380
0.63362718 2.07707977 1.20898092
0.65790337 2.06155968 1.23325920
0.66612649 2.06103301 1.22808552
0.67116779 2.06188130 1.22053027
0.65062213 2.07711864 1.19998705
0.64558804 2.07670593 1.20338380
0.68567497 2.12804341 1.24763608
0.64479727 2.11236882 1.20225322
0.64981651 2.11273527 1.19918644
0.69028825 2.12836933 1.23966050
0.68567497 2.12804341 1.24763608
0.67698556 2.12813997 1.25233090
0.63253003 2.11281943 1.20787776
0.64479727 2.11236882 1.20225322
-1.48901701 2.06009436 1.22907925
-1.46681345 2.07576799 1.20833039
-1.46897948 2.07624817 1.19989085
-1.49246609 2.06072521 1.22337568
-1.48901701 2.06009436 1.22907925
-1.48418713 2.06026411 1.23305476
-1.46245313 2.07578444 1.21131933
-1.46681345 2.07576799 1.20833039
-1.50875843 2.11203623 1.24882293
-1.46648765 2.09636188 1.20737433
-1.46153390 2.09640861 1.21039796
-1.50367701 2.11194444 1.25253963
-1.50875843 2.11203623 1.24882293
-1.51185083 2.11236811 1.24276674
-1.46861982 2.09694862 1.19953322
-1.46648765 2.09636188 1.20737433
-1.48767352 2.08491850 -0.92480570
-1.46510887 2.10059166 -0.90404910
-1.45783186 2.10041451 -0.90846413
-1.47979689 2.08493757 -0.93043149
-1.48767352 2.08491850 -0.92480570
-1.49221826 2.08534169 -0.91686600
-1.46875966 2.10079670 -0.89340979
-1.46510887 2.10059166 -0.90404910
-1.50730014 2.14538860 -0.94443464
-1.46497905 2.12971425 -0.90345597
-1.46860158 2.12997842 -0.89325672
-1.51142538 2.14538860 -0.93608302
-1.50730014 2.14538860 -0.94443464
-1.49901986 2.14498806 -0.94964492
-1.45726717 2.12955761 -0.90789491
-1.46497905 2.12971425 -0.90345597
0.66709363 2.04862499 -0.92711127
0.64311075 2.06429887 -0.90799356
0.64599246 2.06452847 -0.89712465
0.67120433 2.04895377 -0.92233515
0.66709363 2.04862499 -0.92711127
0.66165560 2.04915786 -0.93074661
0.64205027 2.06446862 -0.91113979
0.64311075 2.06429887 -0.90799356
0.68664384 2.11567521 -0.94666368
0.64203280 2.10000157 -0.90732270
0.64136493 2.10010433 -0.91045040
0.68093729 2.11583495 -0.95002097
0.68664384 2.11567521 -0.94666368
0.69045216 2.11565065 -0.94158918
0.64494509 2.10022211 -0.89608067
0.64203280 2.10000157 -0.90732270
0.65603250 2.86248398 1.21799088
0.63441986 2.87815785 1.19480014
0.62496406 2.87865877 1.20019162
0.64788461 2.86317372 1.22311449
0.65603250 2.86248398 1.21799088
0.66102600 2.86336231 1.21050620
0.63954538 2.87871766 1.18902791
0.63441986 2.87815785 1.19480014
0.67536473 2.93142867 1.23732567
