11.99900000 -1.46500000 -13.32620000
14.50740000 -2.19750000 -10.54030000
13.32600000 -2.19750000 -11.99880000
13.32600000 -1.46500000 -11.99880000
14.50740000 -1.46500000 -10.54030000
16.38190000 -2.19750000 -7.29370000
15.52950000 -2.19750000 -8.96590000
15.52950000 -1.46500000 -8.96590000
16.38190000 -1.46500000 -7.29370000
17.54030000 -2.19750000 -3.72830000
17.05430000 -2.19750000 -5.54130000
17.05430000 -1.46500000 -5.54130000
17.54030000 -1.46500000 -3.72830000
17.83370000 -2.19750000 -1.87440000
17.83370000 -1.46500000 -1.87440000
17.54030000 -0.73250000 3.72830000
17.83370000 -0.73250000 1.87440000
17.93220000 -0.73250000 0.00000000
17.83370000 -0.00000000 1.87440000
17.93220000 -0.00000000 0.00000000
17.54030000 -0.00000000 3.72830000
16.38180000 -0.73250000 7.29370000
17.05420000 -0.73250000 5.54130000
17.05420000 -0.00000000 5.54130000
16.38180000 -0.00000000 7.29370000
14.50740000 -0.73250000 10.54030000
15.52950000 -0.73250000 8.96600000
15.52950000 -0.00000000 8.96600000
14.50740000 -0.00000000 10.54030000
11.99900000 -0.73250000 13.32620000
13.32600000 -0.73250000 11.99880000
13.32600000 -0.00000000 11.99880000
11.99900000 -0.00000000 13.32620000
8.96610000 -0.73250000 15.52970000
10.54010000 -0.73250000 14.50720000
10.54010000 -0.00000000 14.50720000
8.96610000 -0.00000000 15.52970000
5.54130000 -0.73250000 17.05450000
7.29360000 -0.73250000 16.38160000
7.29360000 -0.00000000 16.38160000
5.54130000 -0.00000000 17.05450000
1.87440000 -0.73250000 17.83390000
3.72830000 -0.73250000 17.54000000
3.72830000 -0.00000000 17.54000000
1.87440000 -0.00000000 17.83390000
-1.87440000 -0.73250000 17.83390000
0.00000000 -0.73250000 17.93190000
0.00000000 -0.00000000 17.93190000
-1.87440000 -0.00000000 17.83390000
-5.54130000 -0.73250000 17.05450000
-3.72830000 -0.73250000 17.54000000
-3.72830000 -0.00000000 17.54000000
-5.54130000 -0.00000000 17.05450000
-8.96610000 -0.73250000 15.52970000
-7.29360000 -0.73250000 16.38160000
-7.29360000 -0.00000000 16.38160000
-8.96610000 -0.00000000 15.52970000
-11.99900000 -0.73250000 13.32620000
-10.54010000 -0.73250000 14.50720000
-10.54010000 -0.00000000 14.50720000
-11.99900000 -0.00000000 13.32620000
-14.50740000 -0.73250000 10.54030000
-13.32600000 -0.73250000 11.99880000
-13.32600000 -0.00000000 11.99880000
-14.50740000 -0.00000000 10.54030000
-16.38180000 -0.73250000 7.29370000
-15.52950000 -0.73250000 8.96600000
-15.52950000 -0.00000000 8.96600000
-16.38180000 -0.00000000 7.29370000
-17.54030000 -0.73250000 3.72830000
-17.05420000 -0.73250000 5.54130000
-17.05420000 -0.00000000 5.54130000
-17.54030000 -0.00000000 3.72830000
-17.93220000 -0.73250000 0.00000000
-17.83370000 -0.73250000 1.87440000
-17.83370000 -0.00000000 1.87440000
-17.93220000 -0.00000000 0.00000000
-17.54030000 -0.73250000 -3.72830000
-17.83370000 -0.73250000 -1.87440000
-17.83370000 0.00000000 -1.87440000
-17.54030000 0.00000000 -3.72830000
-16.38190000 -0.73250000 -7.29370000
-17.05420000 -0.73250000 -5.54130000
-17.05420000 0.00000000 -5.54130000
-16.38190000 0.00000000 -7.29370000
-14.50740000 -0.73250000 -10.54030000
-15.52950000 -0.73250000 -8.96590000
-15.52950000 0.00000000 -8.96590000
-14.50740000 0.00000000 -10.54030000
-11.99900000 -0.73250000 -13.32620000
-13.32600000 -0.73250000 -11.99880000
-13.32600000 0.00000000 -11.99880000
-11.99900000 0.00000000 -13.32620000
-8.96610000 -0.73250000 -15.52970000
-10.54010000 -0.73250000 -14.50720000
-10.54010000 0.00000000 -14.50720000
-8.96610000 0.00000000 -15.52970000
-5.54130000 -0.73250000 -17.05450000
-7.29360000 -0.73250000 -16.38160000
-7.29360000 0.00000000 -16.38160000
-5.54130000 0.00000000 -17.05450000
-1.87440000 -0.73250000 -17.83390000
-3.72820000 -0.73250000 -17.54000000
-3.72820000 0.00000000 -17.54000000
-1.87440000 0.00000000 -17.83390000
1.87440000 -0.73250000 -17.83390000
0.00000000 -0.73250000 -17.93190000
0.00000000 0.00000000 -17.93190000
1.87440000 0.00000000 -17.83390000
5.54140000 -0.73250000 -17.05450000
3.72830000 -0.73250000 -17.54000000
3.72830000 0.00000000 -17.54000000
5.54140000 0.00000000 -17.05450000
8.96610000 -0.73250000 -15.52970000
7.29360000 -0.73250000 -16.38160000
7.29360000 0.00000000 -16.38160000
8.96610000 0.00000000 -15.52970000
11.99900000 -0.73250000 -13.32620000
10.54010000 -0.73250000 -14.50720000
10.54010000 0.00000000 -14.50720000
11.99900000 0.00000000 -13.32620000
14.50740000 -0.73250000 -10.54030000
13.32600000 -0.73250000 -11.99880000
13.32600000 0.00000000 -11.99880000
14.50740000 0.00000000 -10.54030000
16.38190000 -0.73250000 -7.29370000
15.52950000 -0.73250000 -8.96590000
15.52950000 0.00000000 -8.96590000
16.38190000 0.00000000 -7.29370000
17.54030000 -0.73250000 -3.72830000
17.05430000 -0.73250000 -5.54130000
17.05430000 0.00000000 -5.54130000
17.54030000 0.00000000 -3.72830000
17.83370000 -0.73250000 -1.87440000
17.83370000 0.00000000 -1.87440000
17.54030000 0.73250000 3.72830000
17.83370000 0.73250000 1.87440000
17.93220000 0.73250000 0.00000000
17.83370000 1.46500000 1.87440000
17.93220000 1.46500000 0.00000000
17.54030000 1.46500000 3.72830000
16.38180000 0.73250000 7.29370000
17.05420000 0.73250000 5.54130000
17.05420000 1.46500000 5.54130000
16.38180000 1.46500000 7.29370000
14.50740000 0.73250000 10.54030000
15.52950000 0.73250000 8.96600000
15.52950000 1.46500000 8.96600000
14.50740000 1.46500000 10.54030000
11.99900000 0.73250000 13.32620000
13.32600000 0.73250000 11.99880000
13.32600000 1.46500000 11.99880000
11.99900000 1.46500000 13.32620000
8.96610000 0.73250000 15.52970000
10.54010000 0.73250000 14.50720000
10.54010000 1.46500000 14.50720000
8.96610000 1.46500000 15.52970000
5.54130000 0.73250000 17.05450000
7.29360000 0.73250000 16.38160000
7.29360000 1.46500000 16.38160000
5.54130000 1.46500000 17.05450000
1.87440000 0.73250000 17.83390000
3.72830000 0.73250000 17.54000000
3.72830000 1.46500000 17.54000000
1.87440000 1.46500000 17.83390000
-1.87440000 0.73250000 17.83390000
0.00000000 0.73250000 17.93190000
0.00000000 1.46500000 17.93190000
-1.87440000 1.46500000 17.83390000
-5.54130000 0.73250000 17.05450000
-3.72830000 0.73250000 17.54000000
-3.72830000 1.46500000 17.54000000
-5.54130000 1.46500000 17.05450000
-8.96610000 0.73250000 15.52970000
-7.29360000 0.73250000 16.38160000
-7.29360000 1.46500000 16.38160000
-8.96610000 1.46500000 15.52970000
-11.99900000 0.73250000 13.32620000
-10.54010000 0.73250000 14.50720000
-10.54010000 1.46500000 14.50720000
-11.99900000 1.46500000 13.32620000
-14.50740000 0.73250000 10.54030000
-13.32600000 0.73250000 11.99880000
-13.32600000 1.46500000 11.99880000
-14.50740000 1.46500000 10.54030000
-16.38180000 0.73250000 7.29370000
-15.52950000 0.73250000 8.96600000
-15.52950000 1.46500000 8.96600000
-16.38180000 1.46500000 7.29370000
-17.54030000 0.73250000 3.72830000
-17.05420000 0.73250000 5.54130000
-17.05420000 1.46500000 5.54130000
-17.54030000 1.46500000 3.72830000
-17.93220000 0.73250000 0.00000000
-17.83370000 0.73250000 1.87440000
-17.83370000 1.46500000 1.87440000
-17.93220000 1.46500000 0.00000000
-17.54030000 0.73250000 -3.72830000
-17.83370000 0.73250000 -1.87440000
-17.83370000 1.46500000 -1.87440000
-17.54030000 1.46500000 -3.72830000
-16.38190000 0.73250000 -7.29370000
-17.05420000 0.73250000 -5.54130000
-17.05420000 1.46500000 -5.54130000
-16.38190000 1.46500000 -7.29370000
-14.50740000 0.73250000 -10.54030000
-15.52950000 0.73250000 -8.96590000
-15.52950000 1.46500000 -8.96590000
-14.50740000 1.46500000 -10.54030000
-11.99900000 0.73250000 -13.32620000
-13.32600000 0.73250000 -11.99880000
-13.32600000 1.46500000 -11.99880000
-11.99900000 1.46500000 -13.32620000
-8.96610000 0.73250000 -15.52970000
-10.54010000 0.73250000 -14.50720000
-10.54010000 1.46500000 -14.50720000
-8.96610000 1.46500000 -15.52970000
-5.54130000 0.73250000 -17.05450000
-7.29360000 0.73250000 -16.38160000
-7.29360000 1.46500000 -16.38160000
-5.54130000 1.46500000 -17.05450000
-1.87440000 0.73250000 -17.83390000
-3.72820000 0.73250000 -17.54000000
-3.72820000 1.46500000 -17.54000000
-1.87440000 1.46500000 -17.83390000
1.87440000 0.73250000 -17.83390000
0.00000000 0.73250000 -17.93190000
0.00000000 1.46500000 -17.93190000
1.87440000 1.46500000 -17.83390000
5.54140000 0.73250000 -17.05450000
3.72830000 0.73250000 -17.54000000
3.72830000 1.46500000 -17.54000000
5.54140000 1.46500000 -17.05450000
8.96610000 0.73250000 -15.52970000
7.29360000 0.73250000 -16.38160000
7.29360000 1.46500000 -16.38160000
8.96610000 1.46500000 -15.52970000
11.99900000 0.73250000 -13.32620000
10.54010000 0.73250000 -14.50720000
10.54010000 1.46500000 -14.50720000
11.99900000 1.46500000 -13.32620000
14.50740000 0.73250000 -10.54030000
13.32600000 0.73250000 -11.99880000
13.32600000 1.46500000 -11.99880000
14.50740000 1.46500000 -10.54030000
16.38190000 0.73250000 -7.29370000
15.52950000 0.73250000 -8.96590000
15.52950000 1.46500000 -8.96590000
16.38190000 1.46500000 -7.29370000
17.54030000 0.73250000 -3.72830000
17.05430000 0.73250000 -5.54130000
17.05430000 1.46500000 -5.54130000
17.54030000 1.46500000 -3.72830000
17.83370000 0.73250000 -1.87440000
17.83370000 1.46500000 -1.87440000
17.54030000 2.19750000 3.72830000
17.83370000 2.19750000 1.87440000
17.93220000 2.19750000 0.00000000
17.83370000 2.93000000 1.87440000
17.93220000 2.93000000 0.00000000
17.54030000 2.93000000 3.72830000
16.38180000 2.19750000 7.29370000
17.05420000 2.19750000 5.54130000
17.05420000 2.93000000 5.54130000
16.38180000 2.93000000 7.29370000
14.50740000 2.19750000 10.54030000
15.52950000 2.19750000 8.96600000
15.52950000 2.93000000 8.96600000
14.50740000 2.93000000 10.54030000
11.99900000 2.19750000 13.32620000
13.32600000 2.19750000 11.99880000
13.32600000 2.93000000 11.99880000
11.99900000 2.93000000 13.32620000
8.96610000 2.19750000 15.52970000
10.54010000 2.19750000 14.50720000
10.54010000 2.93000000 14.50720000
8.96610000 2.93000000 15.52970000
5.54130000 2.19750000 17.05450000
7.29360000 2.19750000 16.38160000
7.29360000 2.93000000 16.38160000
5.54130000 2.93000000 17.05450000
1.87440000 2.19750000 17.83390000
3.72830000 2.19750000 17.54000000
3.72830000 2.93000000 17.54000000
1.87440000 2.93000000 17.83390000
-1.87440000 2.19750000 17.83390000
0.00000000 2.19750000 17.93190000
0.00000000 2.93000000 17.93190000
-1.87440000 2.93000000 17.83390000
-5.54130000 2.19750000 17.05450000
-3.72830000 2.19750000 17.54000000
-3.72830000 2.93000000 17.54000000
-5.54130000 2.93000000 17.05450000
-8.96610000 2.19750000 15.52970000
-7.29360000 2.19750000 16.38160000
-7.29360000 2.93000000 16.38160000
-8.96610000 2.93000000 15.52970000
-11.99900000 2.19750000 13.32620000
-10.54010000 2.19750000 14.50720000
-10.54010000 2.93000000 14.50720000
-11.99900000 2.93000000 13.32620000
-14.50740000 2.19750000 10.54030000
-13.32600000 2.19750000 11.99880000
-13.32600000 2.93000000 11.99880000
-14.50740000 2.93000000 10.54030000
-16.38180000 2.19750000 7.29370000
-15.52950000 2.19750000 8.96600000
-15.52950000 2.93000000 8.96600000
-16.38180000 2.93000000 7.29370000
-17.54030000 2.19750000 3.72830000
-17.05420000 2.19750000 5.54130000
-17.05420000 2.93000000 5.54130000
-17.54030000 2.93000000 3.72830000
-17.93220000 2.19750000 0.00000000
-17.83370000 2.19750000 1.87440000
-17.83370000 2.93000000 1.87440000
-17.93220000 2.93000000 0.00000000
-17.54030000 2.19750000 -3.72830000
-17.83370000 2.19750000 -1.87440000
-17.83370000 2.93000000 -1.87440000
-17.54030000 2.93000000 -3.72830000
-16.38190000 2.19750000 -7.29370000
-17.05420000 2.19750000 -5.54130000
-17.05420000 2.93000000 -5.54130000
-16.38190000 2.93000000 -7.29370000
-14.50740000 2.19750000 -10.54030000
-15.52950000 2.19750000 -8.96590000
-15.52950000 2.93000000 -8.96590000
-14.50740000 2.93000000 -10.54030000
-11.99900000 2.19750000 -13.32620000
-13.32600000 2.19750000 -11.99880000
-13.32600000 2.93000000 -11.99880000
-11.99900000 2.93000000 -13.32620000
-8.96610000 2.19750000 -15.52970000
-10.54010000 2.19750000 -14.50720000
-10.54010000 2.93000000 -14.50720000
-8.96610000 2.93000000 -15.52970000
-5.54130000 2.19750000 -17.05450000
-7.29360000 2.19750000 -16.38160000
-7.29360000 2.93000000 -16.38160000
-5.54130000 2.93000000 -17.05450000
-1.87440000 2.19750000 -17.83390000
-3.72820000 2.19750000 -17.54000000
-3.72820000 2.93000000 -17.54000000
-1.87440000 2.93000000 -17.83390000
1.87440000 2.19750000 -17.83390000
0.00000000 2.19750000 -17.93190000
0.00000000 2.93000000 -17.93190000
1.87440000 2.93000000 -17.83390000
5.54140000 2.19750000 -17.05450000
3.72830000 2.19750000 -17.54000000
3.72830000 2.93000000 -17.54000000
5.54140000 2.93000000 -17.05450000
8.96610000 2.19750000 -15.52970000
7.29360000 2.19750000 -16.38160000
7.29360000 2.93000000 -16.38160000
8.96610000 2.93000000 -15.52970000
11.99900000 2.19750000 -13.32620000
10.54010000 2.19750000 -14.50720000
10.54010000 2.93000000 -14.50720000
11.99900000 2.93000000 -13.32620000
14.50740000 2.19750000 -10.54030000
13.32600000 2.19750000 -11.99880000
13.32600000 2.93000000 -11.99880000
14.50740000 2.93000000 -10.54030000
16.38190000 2.19750000 -7.29370000
15.52950000 2.19750000 -8.96590000
15.52950000 2.93000000 -8.96590000
16.38190000 2.93000000 -7.29370000
17.54030000 2.19750000 -3.72830000
17.05430000 2.19750000 -5.54130000
17.05430000 2.93000000 -5.54130000
17.54030000 2.93000000 -3.72830000
17.83370000 2.19750000 -1.87440000
17.83370000 2.93000000 -1.87440000
17.54030000 3.66250000 3.72830000
17.83370000 3.66250000 1.87440000
17.93220000 3.66250000 0.00000000
17.83370000 4.39500000 1.87440000
17.93220000 4.39500000 0.00000000
17.54030000 4.39500000 3.72830000
16.38180000 3.66250000 7.29370000
17.05420000 3.66250000 5.54130000
17.05420000 4.39500000 5.54130000
16.38180000 4.39500000 7.29370000
14.50740000 3.66250000 10.54030000
15.52950000 3.66250000 8.96600000
15.52950000 4.39500000 8.96600000
14.50740000 4.39500000 10.54030000
11.99900000 3.66250000 13.32620000
13.32600000 3.66250000 11.99880000
13.32600000 4.39500000 11.99880000
11.99900000 4.39500000 13.32620000
8.96610000 3.66250000 15.52970000
10.54010000 3.66250000 14.50720000
10.54010000 4.39500000 14.50720000
8.96610000 4.39500000 15.52970000
5.54130000 3.66250000 17.05450000
7.29360000 3.66250000 16.38160000
7.29360000 4.39500000 16.38160000
5.54130000 4.39500000 17.05450000
1.87440000 3.66250000 17.83390000
3.72830000 3.66250000 17.54000000
3.72830000 4.39500000 17.54000000
1.87440000 4.39500000 17.83390000
-1.87440000 3.66250000 17.83390000
0.00000000 3.66250000 17.93190000
0.00000000 4.39500000 17.93190000
-1.87440000 4.39500000 17.83390000
-5.54130000 3.66250000 17.05450000
-3.72830000 3.66250000 17.54000000
-3.72830000 4.39500000 17.54000000
-5.54130000 4.39500000 17.05450000
-8.96610000 3.66250000 15.52970000
-7.29360000 3.66250000 16.38160000
-7.29360000 4.39500000 16.38160000
-8.96610000 4.39500000 15.52970000
-11.99900000 3.66250000 13.32620000
-10.54010000 3.66250000 14.50720000
-10.54010000 4.39500000 14.50720000
-11.99900000 4.39500000 13.32620000
-14.50740000 3.66250000 10.54030000
-13.32600000 3.66250000 11.99880000
-13.32600000 4.39500000 11.99880000
-14.50740000 4.39500000 10.54030000
-16.38180000 3.66250000 7.29370000
-15.52950000 3.66250000 8.96600000
-15.52950000 4.39500000 8.96600000
-16.38180000 4.39500000 7.29370000
-17.54030000 3.66250000 3.72830000
-17.05420000 3.66250000 5.54130000
-17.05420000 4.39500000 5.54130000
-17.54030000 4.39500000 3.72830000
-17.93220000 3.66250000 0.00000000
-17.83370000 3.66250000 1.87440000
-17.83370000 4.39500000 1.87440000
-17.93220000 4.39500000 0.00000000
-17.54030000 3.66250000 -3.72830000
-17.83370000 3.66250000 -1.87440000
-17.83370000 4.39500000 -1.87440000
-17.54030000 4.39500000 -3.72830000
-16.38190000 3.66250000 -7.29370000
-17.05420000 3.66250000 -5.54130000
-17.05420000 4.39500000 -5.54130000
-16.38190000 4.39500000 -7.29370000
-14.50740000 3.66250000 -10.54030000
-15.52950000 3.66250000 -8.96590000
-15.52950000 4.39500000 -8.96590000
-14.50740000 4.39500000 -10.54030000
-11.99900000 3.66250000 -13.32620000
-13.32600000 3.66250000 -11.99880000
-13.32600000 4.39500000 -11.99880000
-11.99900000 4.39500000 -13.32620000
-8.96610000 3.66250000 -15.52970000
-10.54010000 3.66250000 -14.50720000
-10.54010000 4.39500000 -14.50720000
-8.96610000 4.39500000 -15.52970000
-5.54130000 3.66250000 -17.05450000
-7.29360000 3.66250000 -16.38160000
-7.29360000 4.39500000 -16.38160000
-5.54130000 4.39500000 -17.05450000
-1.87440000 3.66250000 -17.83390000
-3.72820000 3.66250000 -17.54000000
-3.72820000 4.39500000 -17.54000000
-1.87440000 4.39500000 -17.83390000
1.87440000 3.66250000 -17.83390000
0.00000000 3.66250000 -17.93190000
0.00000000 4.39500000 -17.93190000
1.87440000 4.39500000 -17.83390000
5.54140000 3.66250000 -17.05450000
3.72830000 3.66250000 -17.54000000
3.72830000 4.39500000 -17.54000000
5.54140000 4.39500000 -17.05450000
8.96610000 3.66250000 -15.52970000
7.29360000 3.66250000 -16.38160000
7.29360000 4.39500000 -16.38160000
8.96610000 4.39500000 -15.52970000
11.99900000 3.66250000 -13.32620000
10.54010000 3.66250000 -14.50720000
10.54010000 4.39500000 -14.50720000
11.99900000 4.39500000 -13.32620000
14.50740000 3.66250000 -10.54030000
13.32600000 3.66250000 -11.99880000
13.32600000 4.39500000 -11.99880000
14.50740000 4.39500000 -10.54030000
16.38190000 3.66250000 -7.29370000
15.52950000 3.66250000 -8.96590000
15.52950000 4.39500000 -8.96590000
16.38190000 4.39500000 -7.29370000
17.54030000 3.66250000 -3.72830000
17.05430000 3.66250000 -5.54130000
17.05430000 4.39500000 -5.54130000
17.54030000 4.39500000 -3.72830000
17.83370000 3.66250000 -1.87440000
17.83370000 4.39500000 -1.87440000
17.54030000 5.12750000 3.72830000
17.83370000 5.12750000 1.87440000
17.93220000 5.12750000 0.00000000
17.83370000 5.86000000 1.87440000
17.93220000 5.86000000 0.00000000
17.54030000 5.86000000 3.72830000
16.38180000 5.12750000 7.29370000
17.05420000 5.12750000 5.54130000
17.05420000 5.86000000 5.54130000
16.38180000 5.86000000 7.29370000
14.50740000 5.12750000 10.54030000
15.52950000 5.12750000 8.96600000
15.52950000 5.86000000 8.96600000
14.50740000 5.86000000 10.54030000
11.99900000 5.12750000 13.32620000
13.32600000 5.12750000 11.99880000
13.32600000 5.86000000 11.99880000
11.99900000 5.86000000 13.32620000
8.96610000 5.12750000 15.52970000
10.54010000 5.12750000 14.50720000
10.54010000 5.86000000 14.50720000
8.96610000 5.86000000 15.52970000
5.54130000 5.12750000 17.05450000
7.29360000 5.12750000 16.38160000
7.29360000 5.86000000 16.38160000
5.54130000 5.86000000 17.05450000
1.87440000 5.12750000 17.83390000
3.72830000 5.12750000 17.54000000
3.72830000 5.86000000 17.54000000
1.87440000 5.86000000 17.83390000
-1.87440000 5.12750000 17.83390000
0.00000000 5.12750000 17.93190000
0.00000000 5.86000000 17.93190000
-1.87440000 5.86000000 17.83390000
-5.54130000 5.12750000 17.05450000
-3.72830000 5.12750000 17.54000000
-3.72830000 5.86000000 17.54000000
-5.54130000 5.86000000 17.05450000
-8.96610000 5.12750000 15.52970000
-7.29360000 5.12750000 16.38160000
-7.29360000 5.86000000 16.38160000
-8.96610000 5.86000000 15.52970000
-11.99900000 5.12750000 13.32620000
-10.54010000 5.12750000 14.50720000
-10.54010000 5.86000000 14.50720000
-11.99900000 5.86000000 13.32620000
-14.50740000 5.12750000 10.54030000
-13.32600000 5.12750000 11.99880000
-13.32600000 5.86000000 11.99880000
-14.50740000 5.86000000 10.54030000
-16.38180000 5.12750000 7.29370000
-15.52950000 5.12750000 8.96600000
-15.52950000 5.86000000 8.96600000
-16.38180000 5.86000000 7.29370000
-17.54030000 5.12750000 3.72830000
-17.05420000 5.12750000 5.54130000
-17.05420000 5.86000000 5.54130000
-17.54030000 5.86000000 3.72830000
-17.93220000 5.12750000 0.00000000
-17.83370000 5.12750000 1.87440000
-17.83370000 5.86000000 1.87440000
-17.93220000 5.86000000 0.00000000
-17.54030000 5.12750000 -3.72830000
-17.83370000 5.12750000 -1.87440000
-17.83370000 5.86000000 -1.87440000
-17.54030000 5.86000000 -3.72830000
-16.38190000 5.12750000 -7.29370000
-17.05420000 5.12750000 -5.54130000
-17.05420000 5.86000000 -5.54130000
-16.38190000 5.86000000 -7.29370000
-14.50740000 5.12750000 -10.54030000
-15.52950000 5.12750000 -8.96590000
-15.52950000 5.86000000 -8.96590000
-14.50740000 5.86000000 -10.54030000
-11.99900000 5.12750000 -13.32620000
-13.32600000 5.12750000 -11.99880000
-13.32600000 5.86000000 -11.99880000
-11.99900000 5.86000000 -13.32620000
-8.96610000 5.12750000 -15.52970000
-10.54010000 5.12750000 -14.50720000
-10.54010000 5.86000000 -14.50720000
-8.96610000 5.86000000 -15.52970000
-5.54130000 5.12750000 -17.05450000
-7.29360000 5.12750000 -16.38160000
-7.29360000 5.86000000 -16.38160000
-5.54130000 5.86000000 -17.05450000
-1.87440000 5.12750000 -17.83390000
-3.72820000 5.12750000 -17.54000000
-3.72820000 5.86000000 -17.54000000
-1.87440000 5.86000000 -17.83390000
1.87440000 5.12750000 -17.83390000
0.00000000 5.12750000 -17.93190000
0.00000000 5.86000000 -17.93190000
1.87440000 5.86000000 -17.83390000
5.54140000 5.12750000 -17.05450000
3.72830000 5.12750000 -17.54000000
3.72830000 5.86000000 -17.54000000
5.54140000 5.86000000 -17.05450000
8.96610000 5.12750000 -15.52970000
7.29360000 5.12750000 -16.38160000
7.29360000 5.86000000 -16.38160000
8.96610000 5.86000000 -15.52970000
11.99900000 5.12750000 -13.32620000
10.54010000 5.12750000 -14.50720000
10.54010000 5.86000000 -14.50720000
11.99900000 5.86000000 -13.32620000
14.50740000 5.12750000 -10.54030000
13.32600000 5.12750000 -11.99880000
13.32600000 5.86000000 -11.99880000
14.50740000 5.86000000 -10.54030000
16.38190000 5.12750000 -7.29370000
15.52950000 5.12750000 -8.96590000
15.52950000 5.86000000 -8.96590000
16.38190000 5.86000000 -7.29370000
17.54030000 5.12750000 -3.72830000
17.05430000 5.12750000 -5.54130000
17.05430000 5.86000000 -5.54130000
17.54030000 5.86000000 -3.72830000
17.83370000 5.12750000 -1.87440000
17.83370000 5.86000000 -1.87440000
17.54030000 6.59250000 3.72830000
17.83370000 6.59250000 1.87440000
17.93220000 6.59250000 0.00000000
17.83370000 7.32500000 1.87440000
17.93220000 7.32500000 0.00000000
17.54030000 7.32500000 3.72830000
16.38180000 6.59250000 7.29370000
17.05420000 6.59250000 5.54130000
17.05420000 7.32500000 5.54130000
16.38180000 7.32500000 7.29370000
14.50740000 6.59250000 10.54030000
15.52950000 6.59250000 8.96600000
15.52950000 7.32500000 8.96600000
14.50740000 7.32500000 10.54030000
11.99900000 6.59250000 13.32620000
13.32600000 6.59250000 11.99880000
13.32600000 7.32500000 11.99880000
11.99900000 7.32500000 13.32620000
8.96610000 6.59250000 15.52970000
10.54010000 6.59250000 14.50720000
10.54010000 7.32500000 14.50720000
8.96610000 7.32500000 15.52970000
5.54130000 6.59250000 17.05450000
7.29360000 6.59250000 16.38160000
7.29360000 7.32500000 16.38160000
5.54130000 7.32500000 17.05450000
1.87440000 6.59250000 17.83390000
3.72830000 6.59250000 17.54000000
3.72830000 7.32500000 17.54000000
1.87440000 7.32490000 17.83390000
-1.87440000 6.59250000 17.83390000
0.00000000 6.59250000 17.93190000
0.00000000 7.32490000 17.93190000
-1.87440000 7.32490000 17.83390000
-5.54130000 6.59250000 17.05450000
-3.72830000 6.59250000 17.54000000
-3.72830000 7.32500000 17.54000000
-5.54130000 7.32500000 17.05450000
-8.96610000 6.59250000 15.52970000
-7.29360000 6.59250000 16.38160000
-7.29360000 7.32500000 16.38160000
-8.96610000 7.32500000 15.52970000
-11.99900000 6.59250000 13.32620000
-10.54010000 6.59250000 14.50720000
-10.54010000 7.32500000 14.50720000
-11.99900000 7.32500000 13.32620000
-14.50740000 6.59250000 10.54030000
-13.32600000 6.59250000 11.99880000
-13.32600000 7.32500000 11.99880000
-14.50740000 7.32500000 10.54030000
-16.38180000 6.59250000 7.29370000
-15.52950000 6.59250000 8.96600000
-15.52950000 7.32500000 8.96600000
-16.38180000 7.32500000 7.29370000
-17.54030000 6.59250000 3.72830000
-17.05420000 6.59250000 5.54130000
-17.05420000 7.32500000 5.54130000
-17.54030000 7.32500000 3.72830000
-17.93220000 6.59250000 0.00000000
-17.83370000 6.59250000 1.87440000
-17.83370000 7.32500000 1.87440000
-17.93220000 7.32500000 0.00000000
-17.54030000 6.59250000 -3.72830000
-17.83370000 6.59250000 -1.87440000
-17.83370000 7.32500000 -1.87440000
-17.54030000 7.32500000 -3.72830000
-16.38190000 6.59250000 -7.29370000
-17.05420000 6.59250000 -5.54130000
-17.05420000 7.32500000 -5.54130000
-16.38190000 7.32500000 -7.29370000
-14.50740000 6.59250000 -10.54030000
-15.52950000 6.59250000 -8.96590000
-15.52950000 7.32500000 -8.96590000
-14.50740000 7.32500000 -10.54030000
-11.99900000 6.59250000 -13.32620000
-13.32600000 6.59250000 -11.99880000
-13.32600000 7.32500000 -11.99880000
-11.99900000 7.32500000 -13.32620000
-8.96610000 6.59250000 -15.52970000
-10.54010000 6.59250000 -14.50720000
-10.54010000 7.32500000 -14.50720000
-8.96610000 7.32500000 -15.52970000
-5.54130000 6.59250000 -17.05450000
-7.29360000 6.59250000 -16.38160000
-7.29360000 7.32500000 -16.38160000
-5.54130000 7.32500000 -17.05450000
-1.87440000 6.59250000 -17.83390000
-3.72820000 6.59250000 -17.54000000
-3.72820000 7.32500000 -17.54000000
-1.87440000 7.32500000 -17.83390000
1.87440000 6.59250000 -17.83390000
0.00000000 6.59250000 -17.93190000
0.00000000 7.32500000 -17.93190000
1.87440000 7.32500000 -17.83390000
5.54140000 6.59250000 -17.05450000
3.72830000 6.59250000 -17.54000000
3.72830000 7.32500000 -17.54000000
5.54140000 7.32500000 -17.05450000
8.96610000 6.59250000 -15.52970000
7.29360000 6.59250000 -16.38160000
7.29360000 7.32500000 -16.38160000
8.96610000 7.32500000 -15.52970000
11.99900000 6.59250000 -13.32620000
10.54010000 6.59250000 -14.50720000
10.54010000 7.32500000 -14.50720000
11.99900000 7.32500000 -13.32620000
14.50740000 6.59250000 -10.54030000
13.32600000 6.59250000 -11.99880000
13.32600000 7.32500000 -11.99880000
14.50740000 7.32500000 -10.54030000
16.38190000 6.59250000 -7.29370000
15.52950000 6.59250000 -8.96590000
15.52950000 7.32500000 -8.96590000
16.38190000 7.32500000 -7.29370000
17.54030000 6.59250000 -3.72830000
17.05430000 6.59250000 -5.54130000
17.05430000 7.32500000 -5.54130000
17.54030000 7.32500000 -3.72830000
17.83370000 6.59250000 -1.87440000
17.83370000 7.32500000 -1.87440000
17.54030000 8.05750000 3.72830000
17.83370000 8.05750000 1.87440000
17.93220000 8.05750000 0.00000000
17.83370000 8.78990000 1.87440000
17.93220000 8.78990000 0.00000000
17.54030000 8.78990000 3.72830000
16.38180000 8.05740000 7.29370000
17.05420000 8.05750000 5.54130000
17.05420000 8.78990000 5.54130000
16.38180000 8.78990000 7.29370000
14.50740000 8.05740000 10.54030000
15.52950000 8.05740000 8.96600000
15.52950000 8.78990000 8.96600000
14.50740000 8.78990000 10.54030000
11.99900000 8.05740000 13.32620000
13.32600000 8.05740000 11.99880000
13.32600000 8.78990000 11.99880000
11.99900000 8.78990000 13.32620000
8.96610000 8.05740000 15.52970000
10.54010000 8.05740000 14.50720000
10.54010000 8.78990000 14.50720000
8.96610000 8.78990000 15.52970000
5.54130000 8.05740000 17.05450000
7.29360000 8.05740000 16.38160000
7.29360000 8.78990000 16.38160000
5.54130000 8.78990000 17.05450000
1.87440000 8.05740000 17.83390000
3.72830000 8.05740000 17.54000000
3.72830000 8.78990000 17.54000000
1.87440000 8.78990000 17.83390000
-1.87440000 8.05740000 17.83390000
0.00000000 8.05740000 17.93190000
0.00000000 8.78990000 17.93190000
-1.87440000 8.78990000 17.83390000
-5.54130000 8.05740000 17.05450000
-3.72830000 8.05740000 17.54010000
-3.72830000 8.78990000 17.54000000
-5.54130000 8.78990000 17.05450000
-8.96610000 8.05740000 15.52970000
-7.29360000 8.05740000 16.38160000
-7.29360000 8.78990000 16.38160000
-8.96610000 8.78990000 15.52970000
-11.99900000 8.05740000 13.32620000
-10.54010000 8.05740000 14.50720000
-10.54010000 8.78990000 14.50720000
-11.99900000 8.78990000 13.32620000
-14.50740000 8.05740000 10.54030000
-13.32600000 8.05740000 11.99880000
-13.32600000 8.78990000 11.99880000
-14.50740000 8.78990000 10.54030000
-16.38180000 8.05740000 7.29370000
-15.52950000 8.05740000 8.96600000
-15.52950000 8.78990000 8.96600000
-16.38180000 8.78990000 7.29370000
-17.54030000 8.05750000 3.72830000
-17.05420000 8.05750000 5.54130000
-17.05420000 8.78990000 5.54130000
-17.54030000 8.78990000 3.72830000
-17.93220000 8.05750000 0.00000000
-17.83370000 8.05750000 1.87440000
-17.83370000 8.78990000 1.87440000
-17.93220000 8.78990000 0.00000000
-17.54030000 8.05750000 -3.72830000
-17.83370000 8.05750000 -1.87440000
-17.83370000 8.79000000 -1.87440000
-17.54030000 8.79000000 -3.72830000
-16.38190000 8.05750000 -7.29370000
-17.05420000 8.05750000 -5.54130000
-17.05420000 8.79000000 -5.54130000
-16.38190000 8.79000000 -7.29370000
-14.50740000 8.05750000 -10.54030000
-15.52950000 8.05750000 -8.96590000
-15.52950000 8.79000000 -8.96590000
-14.50740000 8.79000000 -10.54030000
-11.99900000 8.05750000 -13.32620000
-13.32600000 8.05750000 -11.99880000
-13.32600000 8.79000000 -11.99880000
-11.99900000 8.79000000 -13.32620000
-8.96610000 8.05750000 -15.52970000
-10.54010000 8.05750000 -14.50720000
-10.54010000 8.79000000 -14.50720000
-8.96610000 8.79000000 -15.52970000
-5.54130000 8.05750000 -17.05450000
-7.29360000 8.05750000 -16.38160000
-7.29360000 8.79000000 -16.38160000
-5.54130000 8.79000000 -17.05450000
-1.87440000 8.05750000 -17.83390000
-3.72820000 8.05750000 -17.54000000
-3.72820000 8.79000000 -17.54000000
-1.87440000 8.79000000 -17.83390000
1.87440000 8.05750000 -17.83390000
0.00000000 8.05750000 -17.93190000
0.00000000 8.79000000 -17.93190000
1.87440000 8.79000000 -17.83390000
5.54140000 8.05750000 -17.05450000
3.72830000 8.05750000 -17.54000000
3.72830000 8.79000000 -17.54000000
5.54140000 8.79000000 -17.05450000
8.96610000 8.05750000 -15.52970000
7.29360000 8.05750000 -16.38160000
7.29360000 8.79000000 -16.38160000
8.96610000 8.79000000 -15.52970000
11.99900000 8.05750000 -13.32620000
10.54010000 8.05750000 -14.50720000
10.54010000 8.79000000 -14.50720000
11.99900000 8.79000000 -13.32620000
14.50740000 8.05750000 -10.54030000
13.32600000 8.05750000 -11.99880000
13.32600000 8.79000000 -11.99880000
14.50740000 8.79000000 -10.54030000
16.38190000 8.05750000 -7.29370000
15.52950000 8.05750000 -8.96590000
15.52950000 8.79000000 -8.96590000
16.38190000 8.79000000 -7.29370000
17.54030000 8.05750000 -3.72830000
17.05430000 8.05750000 -5.54130000
17.05430000 8.79000000 -5.54130000
17.54030000 8.79000000 -3.72830000
17.83370000 8.05750000 -1.87440000
17.83370000 8.79000000 -1.87440000
17.54030000 9.52240000 3.72830000
17.83370000 9.52240000 1.87440000
17.93220000 9.52240000 0.00000000
17.83370000 10.25490000 1.87440000
17.93220000 10.25490000 0.00000000
17.54030000 10.25490000 3.72830000
16.38180000 9.52240000 7.29370000
17.05420000 9.52240000 5.54130000
17.05420000 10.25490000 5.54130000
16.38180000 10.25490000 7.29370000
14.50740000 9.52240000 10.54030000
15.52950000 9.52240000 8.96600000
15.52950000 10.25490000 8.96600000
14.50740000 10.25490000 10.54030000
11.99900000 9.52240000 13.32620000
13.32600000 9.52240000 11.99880000
13.32600000 10.25490000 11.99880000
11.99900000 10.25490000 13.32620000
8.96610000 9.52240000 15.52970000
10.54010000 9.52240000 14.50720000
10.54010000 10.25490000 14.50720000
8.96610000 10.25490000 15.52970000
5.54130000 9.52240000 17.05450000
7.29360000 9.52240000 16.38160000
7.29360000 10.25490000 16.38160000
5.54130000 10.25490000 17.05450000
1.87440000 9.52240000 17.83390000
3.72830000 9.52240000 17.54000000
3.72830000 10.25490000 17.54000000
1.87440000 10.25490000 17.83390000
-1.87440000 9.52240000 17.83390000
0.00000000 9.52240000 17.93190000
0.00000000 10.25490000 17.93190000
-1.87440000 10.25490000 17.83390000
-5.54130000 9.52240000 17.05450000
-3.72830000 9.52240000 17.54010000
-3.72830000 10.25490000 17.54000000
-5.54130000 10.25490000 17.05450000
-8.96610000 9.52240000 15.52970000
-7.29360000 9.52240000 16.38160000
-7.29360000 10.25490000 16.38160000
-8.96610000 10.25490000 15.52970000
-11.99900000 9.52240000 13.32620000
-10.54010000 9.52240000 14.50720000
-10.54010000 10.25490000 14.50720000
-11.99900000 10.25490000 13.32620000
-14.50740000 9.52240000 10.54030000
-13.32600000 9.52240000 11.99880000
-13.32600000 10.25490000 11.99880000
-14.50740000 10.25490000 10.54030000
-16.38180000 9.52240000 7.29370000
-15.52950000 9.52240000 8.96600000
-15.52950000 10.25490000 8.96600000
-16.38180000 10.25490000 7.29370000
-17.54030000 9.52240000 3.72830000
-17.05420000 9.52240000 5.54130000
-17.05420000 10.25490000 5.54130000
-17.54030000 10.25490000 3.72830000
-17.93220000 9.52240000 0.00000000
-17.83370000 9.52240000 1.87440000
-17.83370000 10.25490000 1.87440000
-17.93220000 10.25490000 0.00000000
-17.54030000 9.52240000 -3.72830000
-17.83370000 9.52240000 -1.87440000
-17.83370000 10.25490000 -1.87440000
-17.54030000 10.25490000 -3.72830000
-16.38190000 9.52240000 -7.29370000
-17.05420000 9.52240000 -5.54130000
-17.05420000 10.25490000 -5.54130000
-16.38190000 10.25490000 -7.29370000
-14.50740000 9.52240000 -10.54030000
-15.52950000 9.52240000 -8.96590000
-15.52950000 10.25490000 -8.96590000
-14.50740000 10.25490000 -10.54030000
-11.99900000 9.52250000 -13.32620000
-13.32600000 9.52250000 -11.99880000
-13.32600000 10.25490000 -11.99880000
-11.99900000 10.25490000 -13.32620000
-8.96610000 9.52250000 -15.52970000
-10.54010000 9.52250000 -14.50720000
-10.54010000 10.25490000 -14.50720000
-8.96610000 10.25490000 -15.52970000
-5.54130000 9.52250000 -17.05450000
-7.29360000 9.52250000 -16.38160000
-7.29360000 10.25490000 -16.38160000
-5.54130000 10.25490000 -17.05450000
-1.87440000 9.52250000 -17.83390000
-3.72820000 9.52250000 -17.54000000
-3.72820000 10.25490000 -17.54000000
-1.87440000 10.25490000 -17.83390000
1.87440000 9.52250000 -17.83390000
0.00000000 9.52250000 -17.93190000
0.00000000 10.25490000 -17.93190000
1.87440000 10.25490000 -17.83390000
5.54140000 9.52250000 -17.05450000
3.72830000 9.52250000 -17.54000000
3.72830000 10.25490000 -17.54000000
5.54140000 10.25490000 -17.05450000
8.96610000 9.52250000 -15.52970000
7.29360000 9.52250000 -16.38160000
7.29360000 10.25490000 -16.38160000
8.96610000 10.25490000 -15.52970000
11.99900000 9.52250000 -13.32620000
10.54010000 9.52250000 -14.50720000
10.54010000 10.25490000 -14.50720000
11.99900000 10.25490000 -13.32620000
14.50740000 9.52240000 -10.54030000
13.32600000 9.52250000 -11.99880000
13.32600000 10.25490000 -11.99880000
14.50740000 10.25490000 -10.54030000
16.38190000 9.52240000 -7.29370000
15.52950000 9.52240000 -8.96590000
15.52950000 10.25490000 -8.96590000
16.38190000 10.25490000 -7.29370000
17.54030000 9.52240000 -3.72830000
17.05430000 9.52240000 -5.54130000
17.05430000 10.25490000 -5.54130000
17.54030000 10.25490000 -3.72830000
17.83370000 9.52240000 -1.87440000
17.83370000 10.25490000 -1.87440000
17.54030000 10.98740000 3.72830000
17.83370000 10.98740000 1.87440000
17.93220000 10.98740000 0.00000000
17.83370000 11.71990000 1.87440000
17.93220000 11.71990000 0.00000000
17.54030000 11.71990000 3.72830000
16.38180000 10.98740000 7.29370000
17.05420000 10.98740000 5.54130000
17.05420000 11.71990000 5.54130000
16.38180000 11.71990000 7.29370000
14.50740000 10.98740000 10.54030000
15.52950000 10.98740000 8.96600000
15.52950000 11.71990000 8.96600000
14.50740000 11.71990000 10.54030000
11.99900000 10.98740000 13.32620000
13.32600000 10.98740000 11.99880000
13.32600000 11.71990000 11.99880000
11.99900000 11.71990000 13.32620000
8.96610000 10.98740000 15.52970000
10.54010000 10.98740000 14.50720000
10.54010000 11.71990000 14.50720000
8.96610000 11.71990000 15.52970000
5.54130000 10.98740000 17.05450000
7.29360000 10.98740000 16.38160000
7.29360000 11.71990000 16.38160000
5.54130000 11.71990000 17.05450000
1.87440000 10.98740000 17.83390000
3.72830000 10.98740000 17.54000000
3.72830000 11.71990000 17.54000000
1.87440000 11.71990000 17.83390000
-1.87440000 10.98740000 17.83390000
0.00000000 10.98740000 17.93190000
0.00000000 11.71990000 17.93190000
-1.87440000 11.71990000 17.83390000
-5.54130000 10.98740000 17.05450000
-3.72830000 10.98740000 17.54010000
-3.72830000 11.71990000 17.54000000
-5.54130000 11.71990000 17.05450000
-8.96610000 10.98740000 15.52970000
-7.29360000 10.98740000 16.38160000
-7.29360000 11.71990000 16.38160000
-8.96610000 11.71990000 15.52970000
-11.99900000 10.98740000 13.32620000
-10.54010000 10.98740000 14.50720000
-10.54010000 11.71990000 14.50720000
-11.99900000 11.71990000 13.32620000
-14.50740000 10.98740000 10.54030000
-13.32600000 10.98740000 11.99880000
-13.32600000 11.71990000 11.99880000
-14.50740000 11.71990000 10.54030000
-16.38180000 10.98740000 7.29370000
-15.52950000 10.98740000 8.96600000
-15.52950000 11.71990000 8.96600000
-16.38180000 11.71990000 7.29370000
-17.54030000 10.98740000 3.72830000
-17.05420000 10.98740000 5.54130000
-17.05420000 11.71990000 5.54130000
-17.54030000 11.71990000 3.72830000
-17.93220000 10.98740000 0.00000000
-17.83370000 10.98740000 1.87440000
-17.83370000 11.71990000 1.87440000
-17.93220000 11.71990000 0.00000000
-17.54030000 10.98740000 -3.72830000
-17.83370000 10.98740000 -1.87440000
-17.83370000 11.71990000 -1.87440000
-17.54030000 11.71990000 -3.72830000
-16.38190000 10.98740000 -7.29370000
-17.05420000 10.98740000 -5.54130000
-17.05420000 11.71990000 -5.54130000
-16.38190000 11.71990000 -7.29370000
-14.50740000 10.98740000 -10.54030000
-15.52950000 10.98740000 -8.96590000
-15.52950000 11.71990000 -8.96590000
-14.50740000 11.71990000 -10.54030000
-11.99900000 10.98740000 -13.32620000
-13.32600000 10.98740000 -11.99880000
-13.32600000 11.71990000 -11.99880000
-11.99900000 11.71990000 -13.32620000
-8.96610000 10.98740000 -15.52970000
-10.54010000 10.98740000 -14.50720000
-10.54010000 11.71990000 -14.50720000
-8.96610000 11.71990000 -15.52970000
-5.54130000 10.98740000 -17.05450000
-7.29360000 10.98740000 -16.38160000
-7.29360000 11.71990000 -16.38160000
-5.54130000 11.71990000 -17.05450000
-1.87440000 10.98740000 -17.83390000
-3.72820000 10.98740000 -17.54000000
-3.72820000 11.71990000 -17.54000000
-1.87440000 11.71990000 -17.83390000
1.87440000 10.98740000 -17.83390000
0.00000000 10.98740000 -17.93190000
0.00000000 11.71990000 -17.93190000
1.87440000 11.71990000 -17.83390000
5.54140000 10.98740000 -17.05450000
3.72830000 10.98740000 -17.54000000
3.72830000 11.71990000 -17.54000000
5.54140000 11.71990000 -17.05450000
8.96610000 10.98740000 -15.52970000
7.29360000 10.98740000 -16.38160000
7.29360000 11.71990000 -16.38160000
8.96610000 11.71990000 -15.52970000
11.99900000 10.98740000 -13.32620000
10.54010000 10.98740000 -14.50720000
10.54010000 11.71990000 -14.50720000
11.99900000 11.71990000 -13.32620000
14.50740000 10.98740000 -10.54030000
13.32600000 10.98740000 -11.99880000
13.32600000 11.71990000 -11.99880000
14.50740000 11.71990000 -10.54030000
16.38190000 10.98740000 -7.29370000
15.52950000 10.98740000 -8.96590000
15.52950000 11.71990000 -8.96590000
16.38190000 11.71990000 -7.29370000
17.54030000 10.98740000 -3.72830000
17.05430000 10.98740000 -5.54130000
17.05430000 11.71990000 -5.54130000
17.54030000 11.71990000 -3.72830000
17.83370000 10.98740000 -1.87440000
17.83370000 11.71990000 -1.87440000
17.54030000 12.45240000 3.72830000
17.83370000 12.45240000 1.87440000
17.93220000 12.45240000 0.00000000
17.83370000 13.13910000 1.87440000
17.93220000 13.13910000 0.00000000
17.54030000 13.13910000 3.72830000
16.38180000 12.45240000 7.29370000
17.05420000 12.45240000 5.54130000
17.05420000 13.13910000 5.54130000
16.38180000 13.13910000 7.29370000
14.50740000 12.45240000 10.54030000
15.52950000 12.45240000 8.96600000
15.52950000 13.13910000 8.96600000
14.50740000 13.13910000 10.54030000
11.99900000 12.45240000 13.32620000
13.32600000 12.45240000 11.99880000
13.32600000 13.13910000 11.99880000
11.99900000 13.13910000 13.32620000
8.96610000 12.45240000 15.52970000
10.54010000 12.45240000 14.50720000
10.54010000 13.13910000 14.50720000
8.96610000 13.13910000 15.52970000
5.54130000 12.45240000 17.05450000
7.29360000 12.45240000 16.38160000
7.29360000 13.13910000 16.38160000
5.54130000 13.13910000 17.05450000
1.87440000 12.45240000 17.83390000
3.72830000 12.45240000 17.54010000
3.72830000 13.13910000 17.54010000
1.87440000 13.13910000 17.83390000
-1.87440000 12.45240000 17.83390000
0.00000000 12.45240000 17.93190000
0.00000000 13.13910000 17.93190000
-1.87440000 13.13910000 17.83390000
-5.54130000 12.45240000 17.05450000
-3.72830000 12.45240000 17.54010000
-3.72830000 13.13910000 17.54010000
-5.54130000 13.13910000 17.05450000
-8.96610000 12.45240000 15.52970000
-7.29360000 12.45240000 16.38160000
-7.29360000 13.13910000 16.38160000
-8.96610000 13.13910000 15.52970000
-11.99900000 12.45240000 13.32620000
-10.54010000 12.45240000 14.50720000
-10.54010000 13.13910000 14.50720000
-11.99900000 13.13910000 13.32620000
-14.50740000 12.45240000 10.54030000
-13.32600000 12.45240000 11.99880000
-13.32600000 13.13910000 11.99880000
-14.50740000 13.13910000 10.54030000
-16.38180000 12.45240000 7.29370000
-15.52950000 12.45240000 8.96600000
-15.52950000 13.13910000 8.96600000
-16.38180000 13.13910000 7.29370000
-17.54030000 12.45240000 3.72830000
-17.05420000 12.45240000 5.54130000
-17.05420000 13.13910000 5.54130000
-17.54030000 13.13910000 3.72830000
-17.93220000 12.45240000 0.00000000
-17.83370000 12.45240000 1.87440000
-17.83370000 13.13910000 1.87440000
-17.93220000 13.13910000 0.00000000
-17.54030000 12.45240000 -3.72830000
-17.83370000 12.45240000 -1.87440000
-17.83370000 13.13910000 -1.87440000
-17.54030000 13.13910000 -3.72830000
-16.38190000 12.45240000 -7.29370000
-17.05420000 12.45240000 -5.54130000
-17.05420000 13.13910000 -5.54130000
-16.38190000 13.13910000 -7.29370000
-14.50740000 12.45240000 -10.54030000
-15.52950000 12.45240000 -8.96590000
-15.52950000 13.13920000 -8.96590000
-14.50740000 13.13920000 -10.54030000
-11.99900000 12.45240000 -13.32620000
-13.32600000 12.45240000 -11.99880000
-13.32600000 13.13920000 -11.99880000
-11.99900000 13.13920000 -13.32620000
-8.96610000 12.45240000 -15.52970000
-10.54010000 12.45240000 -14.50720000
-10.54010000 13.13920000 -14.50720000
-8.96610000 13.13920000 -15.52970000
-5.54130000 12.45240000 -17.05450000
-7.29360000 12.45240000 -16.38160000
-7.29360000 13.13920000 -16.38160000
-5.54130000 13.13920000 -17.05450000
-1.87440000 12.45240000 -17.83390000
-3.72820000 12.45240000 -17.54000000
-3.72820000 13.13920000 -17.54000000
-1.87440000 13.13920000 -17.83390000
1.87440000 12.45240000 -17.83390000
0.00000000 12.45240000 -17.93190000
0.00000000 13.13920000 -17.93190000
1.87440000 13.13920000 -17.83390000
5.54140000 12.45240000 -17.05450000
3.72830000 12.45240000 -17.54000000
3.72830000 13.13920000 -17.54000000
5.54140000 13.13920000 -17.05450000
8.96610000 12.45240000 -15.52970000
7.29360000 12.45240000 -16.38160000
7.29360000 13.13920000 -16.38160000
8.96610000 13.13920000 -15.52970000
11.99900000 12.45240000 -13.32620000
10.54010000 12.45240000 -14.50720000
10.54010000 13.13920000 -14.50720000
11.99900000 13.13920000 -13.32620000
14.50740000 12.45240000 -10.54030000
13.32600000 12.45240000 -11.99880000
13.32600000 13.13920000 -11.99880000
14.50740000 13.13920000 -10.54030000
16.38190000 12.45240000 -7.29370000
15.52950000 12.45240000 -8.96590000
15.52950000 13.13920000 -8.96590000
16.38190000 13.13910000 -7.29370000
17.54030000 12.45240000 -3.72830000
17.05430000 12.45240000 -5.54130000
17.05430000 13.13910000 -5.54130000
17.54030000 13.13910000 -3.72830000
17.83370000 12.45240000 -1.87440000
17.83370000 13.13910000 -1.87440000
9.94810000 14.26010000 -1.04560000
10.00310000 14.26010000 0.00000000
10.14040000 14.53440000 0.00000000
10.08470000 14.53440000 -1.05990000
10.50410000 14.66860000 0.00000000
10.44640000 14.66860000 -1.09790000
9.91880000 14.53440000 -2.10830000
10.27450000 14.66860000 -2.18390000
9.78450000 14.26010000 -2.07970000
10.44640000 14.66860000 1.09800000
10.08470000 14.53440000 1.06000000
9.94810000 14.26010000 1.04560000
9.91880000 14.53440000 2.10830000
9.78450000 14.26010000 2.07980000
10.27450000 14.66860000 2.18390000
9.98980000 14.66860000 3.24590000
9.64400000 14.53440000 3.13350000
9.51340000 14.26010000 3.09110000
9.26370000 14.53440000 4.12450000
9.13830000 14.26010000 4.06860000
9.59590000 14.66860000 4.27240000
9.09670000 14.66860000 5.25200000
8.78170000 14.53440000 5.07010000
8.66280000 14.26010000 5.00150000
8.20380000 14.53440000 5.96040000
8.09270000 14.26010000 5.87970000
8.49800000 14.66860000 6.17410000
7.80590000 14.66860000 7.02850000
7.53570000 14.53440000 6.78520000
7.43360000 14.26010000 6.69330000
6.78530000 14.53440000 7.53580000
6.69340000 14.26010000 7.43380000
7.02860000 14.66860000 7.80610000
6.17400000 14.66860000 8.49790000
5.96030000 14.53440000 8.20370000
5.87960000 14.26010000 8.09260000
5.07020000 14.53440000 8.78190000
5.00150000 14.26010000 8.66290000
5.25200000 14.66860000 9.09680000
4.27230000 14.66860000 9.59580000
4.12440000 14.53440000 9.26360000
4.06860000 14.26010000 9.13820000
3.13360000 14.53440000 9.64410000
3.09110000 14.26010000 9.51350000
3.24590000 14.66860000 9.99000000
2.18390000 14.66860000 10.27440000
2.10830000 14.53440000 9.91870000
2.07970000 14.26010000 9.78440000
1.06000000 14.53440000 10.08490000
1.04560000 14.26010000 9.94830000
1.09800000 14.66860000 10.44650000
0.00000000 14.66860000 10.50390000
0.00000000 14.53440000 10.14030000
0.00000000 14.26010000 10.00290000
-1.06000000 14.53440000 10.08490000
-1.04560000 14.26010000 9.94830000
-1.09800000 14.66860000 10.44650000
-2.18390000 14.66860000 10.27440000
-2.10830000 14.53440000 9.91870000
-2.07970000 14.26010000 9.78440000
-3.13360000 14.53440000 9.64410000
-3.09110000 14.26010000 9.51350000
-3.24590000 14.66860000 9.99000000
-4.27230000 14.66860000 9.59580000
-4.12440000 14.53440000 9.26360000
-4.06860000 14.26010000 9.13820000
-5.07020000 14.53440000 8.78190000
-5.00150000 14.26010000 8.66290000
-5.25200000 14.66860000 9.09680000
-6.17400000 14.66860000 8.49790000
-5.96030000 14.53440000 8.20370000
-5.87960000 14.26010000 8.09260000
-6.78530000 14.53440000 7.53580000
-6.69340000 14.26010000 7.43380000
-7.02860000 14.66860000 7.80610000
-7.80590000 14.66860000 7.02850000
-7.53570000 14.53440000 6.78520000
-7.43360000 14.26010000 6.69330000
-8.20380000 14.53440000 5.96040000
-8.09270000 14.26010000 5.87970000
-8.49800000 14.66860000 6.17410000
-9.09670000 14.66860000 5.25200000
-8.78170000 14.53440000 5.07010000
-8.66280000 14.26010000 5.00150000
-9.26370000 14.53440000 4.12450000
-9.13830000 14.26010000 4.06860000
-9.59590000 14.66860000 4.27240000
-9.98980000 14.66860000 3.24590000
-9.64400000 14.53440000 3.13350000
-9.51340000 14.26010000 3.09110000
-9.91880000 14.53440000 2.10830000
-9.78450000 14.26010000 2.07980000
-10.27450000 14.66860000 2.18390000
-10.44640000 14.66860000 1.09800000
-10.08470000 14.53440000 1.06000000
-9.94810000 14.26010000 1.04560000
-10.14040000 14.53440000 0.00000000
-10.00310000 14.26010000 0.00000000
-10.50410000 14.66860000 0.00000000
-10.44640000 14.66860000 -1.09790000
-10.08470000 14.53440000 -1.05990000
-9.94810000 14.26010000 -1.04560000
-9.91880000 14.53440000 -2.10830000
-9.78450000 14.26010000 -2.07970000
-10.27450000 14.66860000 -2.18390000
-9.98980000 14.66860000 -3.24590000
-9.64400000 14.53440000 -3.13350000
-9.51340000 14.26010000 -3.09110000
-9.26370000 14.53440000 -4.12450000
-9.13830000 14.26010000 -4.06860000
-9.59590000 14.66860000 -4.27240000
-9.09670000 14.66860000 -5.25190000
-8.78170000 14.53440000 -5.07010000
-8.66280000 14.26010000 -5.00150000
-8.20380000 14.53440000 -5.96040000
-8.09270000 14.26010000 -5.87970000
-8.49800000 14.66860000 -6.17410000
-7.80590000 14.66860000 -7.02850000
-7.53570000 14.53440000 -6.78520000
-7.43360000 14.26010000 -6.69330000
-6.78530000 14.53440000 -7.53580000
-6.69340000 14.26010000 -7.43370000
-7.02860000 14.66860000 -7.80600000
-6.17400000 14.66860000 -8.49780000
-5.96030000 14.53440000 -8.20360000
-5.87960000 14.26010000 -8.09250000
-5.07020000 14.53440000 -8.78190000
-5.00150000 14.26010000 -8.66290000
-5.25200000 14.66860000 -9.09680000
-4.27230000 14.66860000 -9.59580000
-4.12440000 14.53440000 -9.26360000
-4.06860000 14.26010000 -9.13810000
-3.13360000 14.53440000 -9.64410000
-3.09110000 14.26010000 -9.51350000
-3.24590000 14.66860000 -9.99000000
-2.18390000 14.66860000 -10.27440000
