24.82440000 -25.87070000 -2.63600000
30.59510000 -29.11780000 -3.16480000
29.58180000 -28.32450000 -2.78170000
30.98360000 -28.67910000 -2.58420000
54.83820000 23.68240000 0.34010000
53.34140000 24.46940000 -0.21240000
56.42160000 22.92350000 0.00040000
48.88270000 26.15730000 0.48040000
47.08780000 26.62940000 -0.34900000
49.20630000 26.12640000 -0.08570000
65.02920000 27.98000000 -1.65470000
64.92000000 28.56890000 -1.92250000
65.56350000 27.16420000 0.22280000
66.52340000 25.96130000 -0.27450000
65.66760000 26.92580000 -0.16270000
76.31710000 8.21640000 -4.60610000
74.87010000 12.67960000 -4.67410000
76.45070000 2.08190000 -4.72180000
76.14830000 2.80530000 -4.73640000
76.53460000 3.43870000 -4.69650000
23.49730000 25.27440000 -4.43540000
21.97730000 27.32390000 -3.73490000
21.36590000 26.34930000 -3.76140000
21.03050000 26.78870000 -3.42330000
51.79450000 -28.39920000 3.69910000
52.27770000 -28.73860000 3.99240000
53.62160000 -27.47370000 3.62150000
44.22820000 -29.79020000 3.09530000
43.11650000 -30.18870000 3.35920000
45.54820000 -29.95760000 3.46420000
4.69390000 -15.11670000 -1.52020000
4.93860000 -15.93880000 -1.90520000
6.11090000 -18.25860000 -1.55410000
3.14830000 -10.69170000 -1.27190000
3.88410000 -11.65120000 -0.88380000
3.01250000 -9.42680000 -1.02510000
65.86330000 14.04360000 2.41330000
65.10420000 15.65110000 2.78480000
64.54720000 16.05940000 2.49890000
61.11750000 19.68480000 2.35230000
62.21540000 18.66770000 2.27710000
11.90760000 -25.13990000 4.55600000
10.17820000 -22.85340000 4.57450000
10.19610000 -23.41900000 4.33590000
14.44790000 -28.82280000 3.68090000
14.89930000 -29.10570000 4.00940000
12.80860000 -26.98690000 4.00490000
27.91460000 -35.80280000 -1.17870000
26.13930000 -35.13290000 -1.09340000
26.26860000 -35.01960000 -1.60000000
22.90240000 -34.40210000 -1.76020000
23.35940000 -34.39090000 -1.92910000
23.15720000 -34.28860000 -1.02550000
71.10380000 9.47390000 -4.70080000
72.11010000 7.31340000 -4.72180000
71.85640000 6.74450000 -4.68760000
72.37910000 -3.19140000 -4.59230000
72.72280000 -0.73150000 -4.67260000
8.99740000 -6.34700000 4.57340000
9.70020000 -9.08120000 4.51390000
9.77590000 -7.99640000 4.41790000
8.87070000 -1.96650000 4.51160000
8.50830000 -0.01120000 4.67060000
8.52330000 -2.68130000 4.63580000
48.82500000 34.53500000 4.27470000
51.32170000 34.40280000 4.23930000
56.20100000 32.37460000 4.17870000
57.96190000 31.09950000 4.11890000
58.33330000 31.77030000 3.98700000
1.68970000 3.29460000 -2.40550000
2.22820000 6.71180000 -2.38990000
1.38300000 -0.26550000 -2.68240000
1.37580000 -3.79400000 -2.82170000
1.26830000 -0.85930000 -2.04840000
69.85460000 3.51900000 -1.72820000
69.51830000 2.60520000 -0.07430000
69.49860000 4.11070000 -0.60140000
69.47000000 3.27190000 2.02070000
69.00370000 5.26430000 1.61220000
69.34640000 2.72430000 1.57110000
39.04910000 -29.68470000 -1.88930000
38.97260000 -29.39900000 -1.17960000
39.06130000 -30.52130000 -3.22790000
41.10700000 -30.58510000 -3.34350000
38.77400000 -30.91450000 -3.54880000
28.42480000 27.30920000 3.92960000
29.09000000 26.83520000 3.89360000
28.41000000 26.54460000 3.85340000
29.90680000 26.36910000 3.97090000
6.94130000 -16.59160000 -4.10000000
8.81500000 -20.14230000 -4.07540000
6.39040000 -17.02550000 -3.71810000
10.54640000 -24.83500000 -2.79340000
10.25160000 -24.61070000 -2.41770000
9.07000000 -22.81500000 -2.86970000
19.65570000 26.47140000 -3.56220000
18.65320000 26.16020000 -3.12680000
19.33120000 27.00680000 -2.95640000
17.99340000 26.92880000 -0.15390000
19.08220000 27.28330000 -2.20570000
18.12270000 26.38190000 -2.10640000
5.07130000 12.02180000 0.11740000
4.57440000 10.67590000 0.00270000
4.72250000 11.14490000 0.47290000
3.68490000 9.47160000 -1.09710000
4.07350000 10.87580000 -1.12960000
3.01060000 8.42570000 -1.33380000
32.10430000 -33.72180000 -4.24610000
33.65590000 -34.66610000 -4.10390000
31.81610000 -34.34230000 -4.08630000
19.49230000 -26.86800000 -4.07510000
18.77160000 -27.06150000 -3.96250000
36.06960000 -30.29760000 3.38420000
33.71950000 -30.02020000 3.50530000
34.82360000 -30.52900000 3.72690000
35.28430000 -29.13070000 1.92240000
36.87410000 -29.65920000 2.53510000
37.32150000 -29.36530000 1.87800000
66.70510000 -24.10700000 -3.31110000
68.79010000 -21.69500000 -3.35040000
68.20450000 -22.67500000 -2.98090000
64.29370000 -25.98670000 -3.71600000
65.97880000 -24.18320000 -3.86520000
64.99950000 -25.68590000 -3.46930000
36.52990000 32.13250000 4.32260000
38.03200000 32.53810000 4.20830000
38.08180000 33.61450000 4.03190000
30.62250000 33.24460000 3.32240000
60.32440000 29.36700000 -4.60020000
61.50600000 28.08530000 -4.41580000
58.70680000 30.01780000 -4.36750000
56.97620000 30.06910000 -4.28190000
58.84870000 28.94690000 -4.29580000
55.44810000 29.03330000 -4.77480000
29.36740000 -33.04540000 -4.15900000
28.80730000 -32.34940000 -4.24540000
30.16090000 -31.28630000 -4.23390000
32.65520000 -32.46780000 -4.33640000
13.38790000 6.85320000 2.12900000
12.85500000 5.19750000 2.01980000
13.03510000 5.40700000 1.55940000
12.69550000 4.21350000 1.58930000
12.44480000 2.67970000 1.09410000
12.91700000 4.78200000 1.17620000
27.70310000 27.12110000 -4.14300000
29.22360000 26.72360000 -4.25720000
28.91570000 26.90650000 -4.12080000
60.59280000 -25.09640000 4.12850000
59.90920000 -26.91870000 4.11110000
60.62460000 -27.17970000 3.91530000
63.92580000 -23.89400000 3.93510000
76.48850000 7.61890000 2.66940000
76.09640000 9.42320000 2.40990000
75.52800000 10.72840000 2.82160000
74.97080000 12.00240000 0.44070000
75.09700000 12.18240000 0.95070000
68.87500000 -7.91370000 -1.20090000
68.15880000 -8.98910000 -0.01690000
68.95400000 -7.02130000 -0.47480000
66.21700000 -14.19250000 -1.67440000
66.82480000 -12.68680000 -1.10250000
66.86870000 -13.15810000 -1.76700000
17.71610000 15.25480000 3.15430000
15.24680000 11.15130000 2.50040000
14.56140000 9.89200000 2.50980000
14.63000000 9.72270000 1.94240000
15.38450000 -29.20430000 1.87290000
15.67480000 -29.84640000 2.10170000
14.78100000 -29.00630000 2.08300000
17.51010000 -30.67030000 1.06080000
17.59940000 -30.64680000 0.72780000
17.96650000 -31.05570000 0.47270000
17.79980000 25.93100000 3.17530000
16.40270000 25.28740000 3.37180000
16.98170000 25.17080000 3.69760000
16.61960000 25.71620000 2.63050000
17.41420000 26.08400000 2.56090000
16.67190000 26.00930000 1.05180000
28.12330000 27.71380000 -3.97780000
28.47090000 29.04580000 -4.22990000
29.46420000 28.99720000 -3.92900000
28.88440000 28.57450000 -3.86000000
14.03030000 -14.07910000 -3.00390000
15.27440000 -16.31320000 -2.93380000
14.99990000 -16.33070000 -3.22280000
14.95060000 -14.32990000 -0.12170000
15.75590000 -15.73820000 0.08100000
30.68890000 -34.45890000 -3.89880000
31.45020000 -35.06310000 -3.67930000
30.30090000 -35.20220000 -3.42680000
32.03720000 -36.34940000 -2.40180000
35.50550000 -36.63280000 -2.45420000
17.94880000 26.64650000 2.22650000
18.41880000 27.21650000 2.40000000
17.64140000 26.44820000 1.84630000
18.91340000 27.62060000 -0.58960000
3.36590000 -5.14490000 0.35020000
3.61170000 -6.48040000 0.77910000
3.16830000 -3.82890000 0.73060000
4.51970000 -12.00330000 -0.17290000
4.05240000 -10.32470000 -0.18290000
3.94790000 -11.00360000 -0.55980000
45.97520000 36.75370000 0.41510000
45.97270000 36.75010000 -0.72000000
45.54930000 36.82190000 -1.26890000
47.99160000 36.67430000 -1.55050000
49.08480000 36.78870000 -1.77350000
47.01770000 37.09410000 -1.96120000
19.07680000 18.48730000 -4.15280000
22.15390000 21.09670000 -4.02060000
20.32740000 19.12100000 -3.87960000
22.67490000 20.66220000 -3.36620000
19.79380000 27.70310000 -1.48560000
19.28720000 27.78730000 -0.21510000
19.95230000 27.89440000 -0.18820000
20.06690000 27.64440000 2.06760000
19.35470000 27.68470000 2.21610000
19.54970000 27.44970000 2.66920000
28.84360000 -29.31680000 4.02950000
23.98120000 -27.90240000 4.52430000
29.41030000 33.16750000 1.93360000
28.53570000 32.79660000 0.68540000
28.39640000 32.39230000 1.80110000
30.93440000 34.29710000 -0.82780000
30.17810000 33.87050000 0.79910000
30.99380000 34.27710000 0.59390000
13.45200000 11.08000000 3.96240000
12.53720000 10.76720000 4.24290000
12.46740000 9.72630000 4.10190000
9.61910000 7.40360000 4.76080000
58.49790000 22.62770000 -2.80760000
60.62740000 20.79760000 -2.21110000
58.51730000 22.25000000 -1.89740000
62.73380000 19.58710000 -3.44050000
61.93560000 20.18290000 -3.21870000
57.46240000 -24.12320000 -2.54680000
55.63200000 -24.30350000 0.12120000
57.80910000 -22.82190000 0.41810000
58.20180000 -22.57980000 -0.23130000
27.67210000 32.42330000 0.09900000
27.66470000 32.25480000 -1.27770000
26.77680000 32.05540000 -1.33270000
25.93730000 31.68260000 0.59890000
25.67160000 31.03090000 0.21120000
25.64060000 30.98630000 1.66020000
55.15680000 25.89740000 -4.19450000
57.61530000 24.46190000 -4.19820000
57.24670000 24.33910000 -3.93480000
59.73170000 22.25630000 -3.48920000
60.81180000 21.14660000 -3.14600000
57.55170000 23.52500000 -3.25300000
37.68790000 -29.25100000 1.48080000
35.57190000 -28.97180000 1.43090000
37.97020000 -29.30990000 -1.05710000
37.85800000 -29.49600000 -1.61000000
36.46940000 -29.24870000 -1.27680000
62.81220000 -19.23070000 2.60220000
61.66490000 -20.04100000 2.12630000
61.08790000 -21.09010000 2.64630000
56.38790000 -23.85330000 0.94990000
56.65890000 -23.81940000 1.46920000
58.01090000 -22.84510000 1.42410000
64.27190000 -19.67620000 -3.95970000
65.77590000 -17.64680000 -3.92930000
66.11430000 -18.14520000 -4.24650000
69.88220000 -11.54450000 -4.36410000
70.26410000 -9.38550000 -4.23910000
71.13350000 -8.81730000 -4.55580000
28.64710000 26.14460000 3.77980000
29.16260000 25.77080000 3.72870000
29.99310000 26.08270000 3.94470000
35.11450000 26.79510000 3.35120000
32.40980000 25.91530000 3.26140000
34.77690000 26.43410000 3.02210000
58.55580000 -28.65140000 -4.41300000
54.16140000 -30.83770000 -4.41710000
57.91520000 -28.52300000 -4.50170000
63.94570000 -24.90400000 -4.33730000
65.61940000 -24.10350000 -4.08460000
62.54230000 -26.64340000 -4.16020000
3.76700000 11.01070000 -2.98650000
4.44850000 12.66350000 -2.39390000
4.42870000 11.92010000 -3.29740000
4.95170000 13.28700000 -2.30850000
5.66480000 13.79520000 -2.31580000
5.35660000 13.08190000 -3.15460000
27.17550000 29.42650000 -4.17130000
26.08690000 31.54650000 -1.73230000
26.50170000 31.39600000 -2.60090000
25.96310000 31.12520000 -2.04630000
21.29060000 23.96280000 3.99160000
21.24190000 22.40740000 3.85740000
20.92810000 22.40300000 3.56090000
20.70330000 22.14800000 3.68770000
29.33920000 -27.32860000 -1.02050000
30.45050000 -27.71550000 -0.76560000
29.70260000 -27.59240000 -1.45070000
28.05870000 -26.87950000 -1.32780000
28.93580000 -27.62820000 -2.15140000
76.15910000 -6.13560000 -3.23690000
76.46980000 -3.82140000 -3.34130000
76.54360000 -5.04640000 -2.87520000
75.41100000 -9.86870000 -2.60290000
75.55410000 -9.04520000 -2.95570000
76.15500000 -7.71800000 -2.19380000
70.53950000 5.10530000 -3.84570000
70.34810000 5.01840000 -3.55930000
69.89920000 7.10090000 -3.57720000
67.60790000 13.56900000 -3.90590000
20.25640000 27.34190000 -2.36190000
19.85330000 27.60110000 -2.02100000
20.19030000 27.55940000 -1.74260000
20.49360000 26.98020000 -3.14640000
20.35820000 26.56080000 -3.71240000
20.13330000 27.00820000 -3.15810000
63.03390000 -18.59960000 2.21730000
65.89290000 -15.24730000 2.79320000
66.91920000 -13.38670000 2.71630000
64.64090000 -16.71160000 2.39100000
25.81850000 27.75950000 4.37800000
26.30040000 28.80300000 4.08140000
24.91980000 28.20980000 4.31270000
21.95780000 26.90590000 4.03100000
21.42360000 26.17900000 3.95510000
22.58350000 26.61570000 4.29070000
28.64230000 30.93060000 -3.86240000
27.32310000 31.97080000 -2.26300000
41.75900000 -36.72380000 -2.59410000
40.95870000 -36.99060000 -1.89150000
39.25100000 -36.85750000 -2.48260000
45.50970000 -36.58770000 0.18640000
42.43510000 -37.15700000 -0.09380000
45.72240000 -36.66030000 -0.71400000
11.38370000 -14.06930000 4.51500000
12.39630000 -16.49910000 4.57050000
13.65330000 -13.61220000 2.69200000
13.27320000 -13.56290000 3.15730000
14.15140000 -15.27700000 3.15800000
69.25250000 -20.21410000 2.76640000
70.12410000 -19.61360000 2.22320000
67.68210000 -23.45780000 0.75340000
69.47690000 -21.70340000 -0.17240000
69.11220000 -21.68850000 0.81340000
46.22220000 -36.03400000 1.93430000
49.38950000 -35.33260000 1.14230000
49.34450000 -35.04730000 2.03640000
47.04610000 -36.30720000 -0.25890000
18.91310000 -33.05340000 3.55260000
19.68410000 -33.31310000 3.77890000
18.52830000 -32.51300000 3.91090000
22.15350000 -34.15150000 1.76010000
21.80550000 -34.37620000 2.48280000
21.28560000 -34.11690000 1.97040000
25.95600000 31.63290000 1.42130000
26.03650000 31.44130000 2.31380000
26.29980000 30.41690000 3.49130000
26.03470000 30.17000000 3.38890000
26.75100000 29.55660000 4.02760000
57.85330000 22.14570000 0.15890000
56.82310000 22.61850000 0.79410000
61.02230000 19.64360000 1.56240000
60.59440000 20.04500000 0.95980000
51.80710000 33.67050000 -4.56880000
50.76600000 33.47930000 -4.38180000
49.44980000 34.17560000 -4.50790000
48.10800000 35.98110000 -4.52890000
46.39090000 36.30480000 -4.24650000
48.38250000 36.31950000 -4.36370000
15.62050000 -15.52100000 -1.11360000
16.31690000 -16.58930000 -0.61720000
16.55270000 -16.99640000 -1.24100000
18.48720000 -19.44790000 -1.09010000
59.04650000 -29.08500000 3.67430000
61.28120000 -27.76110000 3.43060000
61.17010000 -27.28620000 3.71370000
63.59370000 -26.39370000 2.89850000
66.09250000 -24.22040000 2.59420000
48.55070000 -27.69480000 0.71240000
47.00620000 -28.12330000 0.85390000
48.42140000 -27.79530000 1.18580000
51.17870000 -26.76800000 0.83510000
51.51310000 -26.71510000 1.53640000
27.54770000 32.18240000 1.46640000
26.69930000 31.84120000 2.40340000
27.62770000 31.96070000 2.19700000
27.83090000 29.79670000 4.31670000
28.94960000 29.75970000 4.24950000
28.99280000 30.28750000 4.13380000
24.40530000 -31.85310000 4.59130000
24.30250000 -31.33540000 4.68610000
22.31560000 -31.46580000 4.73120000
15.68340000 -25.74520000 4.59640000
14.11560000 -23.94930000 4.50390000
47.04200000 -34.00310000 -4.18390000
50.37600000 -33.40670000 -4.05170000
45.27710000 -35.06770000 -3.95700000
43.19500000 -35.88080000 -3.69580000
40.57870000 -35.94750000 -3.80420000
43.16150000 -35.58780000 -3.93890000
6.73650000 11.90310000 -4.28100000
7.09070000 12.76140000 -4.09530000
8.12380000 12.88220000 -4.11430000
5.89740000 6.90960000 -4.52500000
6.51880000 6.10510000 -4.24220000
12.10190000 -3.69330000 -1.36860000
12.21240000 -5.24680000 -1.35690000
12.15950000 -5.41170000 -1.76500000
12.10130000 -2.13510000 -0.78860000
22.53100000 29.80100000 0.61000000
21.68020000 29.30820000 -0.33030000
24.55100000 30.59820000 -1.30230000
24.99110000 30.55360000 -1.97680000
23.83670000 30.19410000 -1.87170000
66.65070000 21.35560000 3.31230000
68.21250000 19.28590000 3.28440000
68.43760000 20.10920000 3.67940000
67.17990000 19.40490000 3.25290000
9.92680000 -22.30980000 0.66060000
8.78350000 -20.57190000 0.55590000
7.43550000 -19.11940000 1.88760000
74.02340000 -12.76110000 1.11100000
74.61570000 -12.24450000 -1.19180000
75.14990000 -10.50730000 -0.23290000
73.13610000 -12.28290000 3.08150000
45.50320000 -35.32990000 -3.80200000
49.52220000 -34.02690000 -3.85800000
53.84200000 -32.12950000 -4.03810000
56.24600000 -30.99820000 -3.99500000
55.26230000 -31.75020000 -3.86920000
5.41220000 12.38100000 4.58500000
6.27450000 12.62780000 4.44270000
6.05080000 13.24210000 4.21780000
6.65330000 11.93020000 4.57290000
8.99640000 13.97260000 4.58410000
8.17970000 14.14580000 4.44490000
41.46980000 29.22130000 -4.42980000
42.04420000 28.90190000 -4.26430000
40.46420000 28.75070000 -4.22370000
45.14540000 29.31920000 -4.49930000
47.50250000 28.69660000 -4.43910000
45.04480000 28.89950000 -4.32520000
9.29450000 16.94370000 -3.27330000
8.65870000 16.39620000 -3.01380000
6.13780000 13.59710000 -3.12110000
5.78350000 12.84870000 -3.66930000
5.35740000 12.76740000 -3.51760000
30.25240000 29.20900000 -3.90620000
30.81300000 29.05190000 -3.65140000
30.14240000 28.85260000 -3.71620000
25.61450000 -28.65940000 -3.98430000
27.18000000 -29.62160000 -4.04690000
27.99140000 -28.97320000 -3.72590000
26.02490000 -28.16760000 -3.74640000
26.60690000 -27.93510000 -3.47670000
24.02770000 24.33350000 -4.28310000
24.92090000 24.21900000 -4.18500000
23.20440000 23.31580000 -3.87640000
23.73980000 22.74190000 -3.43590000
25.19630000 23.28450000 -3.57050000
24.02300000 22.39860000 -3.06540000
6.84730000 14.69150000 3.75350000
7.55060000 16.29360000 3.43680000
6.59010000 14.82510000 3.45360000
8.11590000 17.79740000 2.25690000
6.14440000 15.03000000 2.38390000
70.45130000 16.94170000 3.60840000
73.39570000 13.30900000 3.68600000
71.17820000 17.11370000 3.77340000
61.98120000 22.02680000 -4.48720000
60.15510000 23.53610000 -4.53480000
68.57550000 14.50530000 -4.61500000
66.89480000 16.67470000 -4.51300000
66.87040000 17.36770000 -4.63070000
23.64480000 -32.14670000 -4.06960000
25.14820000 -31.96820000 -4.13490000
24.43840000 -32.77010000 -3.87310000
24.10680000 -31.76410000 -4.17460000
25.48450000 -31.68640000 -4.21040000
22.66090000 21.79180000 -3.95850000
23.01970000 22.56770000 -3.70530000
23.32000000 22.22970000 -3.35180000
21.43800000 21.78790000 -4.09810000
22.24920000 22.58140000 -4.05120000
5.48990000 14.22400000 3.04930000
4.62650000 13.23890000 2.02720000
5.02160000 12.91070000 1.57170000
4.66950000 11.94850000 1.35810000
11.97340000 -6.12640000 -2.54300000
13.16560000 -13.36960000 -3.53220000
12.16950000 -10.56980000 -3.59850000
12.42800000 -10.52070000 -3.35950000
30.69600000 29.89740000 -4.28280000
32.01320000 30.38080000 -4.49790000
33.20890000 28.88970000 -4.48310000
32.27870000 29.12020000 -3.89230000
32.94400000 29.54210000 -4.28020000
2.02600000 -7.63460000 -2.60180000
2.03210000 -8.48170000 -1.88170000
1.66240000 -6.77690000 -1.92300000
1.75180000 -6.76340000 -1.57330000
2.33150000 -9.12420000 -1.52660000
2.54950000 -7.98540000 -1.11320000
70.84080000 21.35710000 -4.20950000
71.98630000 18.67580000 -4.76660000
70.13750000 20.91330000 -4.86250000
70.59520000 20.89700000 -4.74720000
20.41660000 -29.44170000 -3.91240000
23.18000000 -30.38580000 -4.17530000
22.74260000 -30.94710000 -4.19470000
17.43530000 -27.03120000 -3.79880000
18.11070000 -28.22730000 -3.96690000
15.57090000 -25.76180000 -3.86290000
28.26670000 23.87970000 -1.59750000
28.06840000 23.43850000 -0.51810000
27.38110000 23.13470000 -1.36560000
28.42320000 24.63320000 -2.65380000
27.20850000 23.47610000 -2.44850000
27.39070000 23.98320000 -2.93000000
54.01830000 35.56720000 -2.12290000
55.45500000 34.96200000 -2.12240000
49.94820000 36.81200000 -3.44080000
51.72290000 36.44930000 -3.39800000
50.36550000 36.61320000 -3.79990000
12.79170000 -13.20480000 -3.75940000
11.84840000 -10.71070000 -3.84230000
13.75980000 -14.70950000 -3.55170000
14.63140000 -16.27840000 -3.48650000
14.73570000 -17.08690000 -3.67560000
4.99530000 -13.96610000 1.85120000
4.96660000 -14.66750000 2.11130000
4.19190000 -12.45930000 2.10600000
4.86000000 -15.00920000 3.43910000
17.82830000 15.68160000 -3.20510000
18.24340000 15.73110000 -2.67480000
17.13000000 14.50960000 -2.84650000
18.51160000 15.40090000 -0.42560000
46.72850000 36.89750000 -1.68840000
45.96180000 36.90200000 -1.72370000
46.40650000 36.76460000 -1.36030000
45.63330000 37.06860000 -2.94220000
44.53750000 36.69120000 -2.57330000
50.36920000 -35.05230000 0.81770000
51.84720000 -34.31850000 1.34220000
51.61230000 -34.23740000 2.01860000
56.61280000 -31.52560000 2.59440000
57.83010000 -30.58240000 3.04780000
55.11280000 -32.12830000 3.06640000
29.44850000 24.36490000 -0.72520000
29.01950000 24.51180000 -1.64830000
29.70090000 24.44570000 -1.58920000
28.88000000 24.84210000 -2.58420000
29.33850000 25.03580000 -3.17620000
29.80430000 24.64970000 -2.27540000
12.60010000 3.16640000 0.60620000
12.26020000 0.29910000 -1.25980000
12.33800000 1.05660000 -0.37560000
16.71240000 19.71060000 -4.57560000
17.64950000 19.52410000 -4.35480000
17.53700000 18.87620000 -4.49770000
48.39600000 -34.24520000 3.74110000
51.96320000 -33.02490000 3.66720000
49.17990000 -33.57000000 3.98920000
41.88060000 -34.90330000 4.15840000
55.33790000 34.37740000 -1.47890000
55.59380000 34.61880000 -1.77790000
53.79340000 35.37070000 -1.75660000
60.73460000 31.37940000 -1.59110000
61.69070000 -24.76370000 -4.59130000
57.88590000 -27.06590000 -4.50090000
58.44940000 -25.37870000 -4.13990000
58.38230000 -24.86550000 -3.84990000
74.20390000 -10.70050000 2.48220000
74.27680000 -9.21910000 2.91970000
73.79840000 -10.78170000 2.93890000
76.08870000 -2.87960000 2.22910000
75.43830000 -6.19230000 2.30810000
24.69380000 21.86270000 1.56500000
23.01510000 20.19290000 2.12220000
21.35350000 18.52540000 1.80670000
23.08060000 20.06880000 1.26210000
47.29950000 36.68160000 0.60190000
46.44620000 36.87990000 0.93500000
48.05880000 37.06920000 1.36840000
46.82250000 36.61960000 0.12730000
23.08270000 -33.43150000 4.01670000
22.20340000 -33.87840000 3.83620000
26.38420000 -33.53760000 4.12300000
21.37770000 -22.53290000 1.54520000
19.16640000 -20.38890000 0.98130000
19.33540000 -20.81340000 1.67750000
17.49250000 -18.61590000 1.49830000
18.41680000 -19.61400000 1.18080000
17.21750000 -18.02660000 1.00260000
53.56790000 26.65280000 -4.21000000
54.02100000 26.06920000 -3.93600000
52.82190000 26.61170000 -3.96350000
47.56510000 27.94150000 -3.97600000
45.43610000 28.18660000 -3.89590000
47.51930000 28.31080000 -4.24200000
74.10600000 14.89960000 -2.16710000
73.70580000 15.21760000 -1.86740000
74.26370000 14.57110000 1.19580000
74.31450000 13.63680000 0.27920000
47.04240000 36.21610000 3.83160000
45.27780000 36.04910000 3.76430000
45.64200000 35.74890000 3.97090000
45.81290000 37.16690000 2.20520000
45.67780000 36.94490000 2.82650000
35.85690000 -36.81290000 2.45180000
34.94910000 -36.69230000 2.45850000
34.10100000 -36.81230000 1.78190000
38.45220000 -37.24380000 0.36320000
40.72990000 -37.16920000 -0.24260000
40.30370000 -37.12580000 0.79550000
13.15440000 -10.40040000 -2.26160000
13.62650000 -11.09070000 -0.17610000
13.84240000 -12.34020000 0.98330000
14.09890000 -12.52390000 0.13770000
1.95930000 -3.85710000 -3.70930000
1.69730000 -3.79090000 -3.47510000
2.54930000 -9.11910000 -2.89310000
2.52300000 -10.01950000 -2.20700000
76.06270000 7.95870000 -0.02250000
75.92780000 8.21490000 -0.54730000
75.36390000 10.30840000 -0.23200000
76.64220000 5.19470000 0.05750000
76.66800000 4.69740000 -0.53500000
76.42950000 6.06150000 -0.62150000
17.09330000 16.90410000 4.13410000
15.60230000 15.70350000 4.34700000
20.42860000 20.02040000 4.10800000
19.91200000 19.98510000 4.25900000
18.75810000 18.59670000 4.16080000
20.97950000 -33.58340000 1.34580000
21.69570000 -33.83340000 1.39790000
22.42010000 -33.94440000 0.36000000
22.97970000 -34.20400000 1.03460000
22.06960000 -33.88770000 1.12280000
44.62710000 27.58800000 -2.82760000
42.84020000 27.62370000 -2.78400000
43.16770000 27.81110000 -3.15650000
44.89010000 26.93090000 0.71360000
42.21400000 27.10360000 1.44240000
43.15200000 27.06600000 0.45210000
28.89370000 32.59950000 -2.37610000
34.94900000 35.57650000 -1.59920000
32.40390000 34.54850000 -1.94630000
32.95770000 34.95860000 -1.28820000
45.94050000 35.86950000 -4.32570000
46.73060000 35.60580000 -4.49630000
45.71590000 35.28780000 -4.36220000
45.41470000 35.70360000 -4.18490000
68.97710000 -6.20670000 1.76420000
69.44080000 -2.05050000 1.45940000
69.49500000 -2.88010000 1.81020000
69.61890000 -1.52780000 1.88150000
3.03920000 7.41700000 4.74180000
3.17550000 9.22850000 4.57750000
2.58680000 7.05020000 4.58890000
5.29830000 11.58420000 4.75040000
2.56040000 0.92340000 1.23490000
2.11280000 -0.36290000 1.68530000
2.05820000 3.21740000 1.82180000
2.91660000 -1.48680000 0.81250000
57.30150000 -23.93060000 2.37150000
58.71410000 -23.58080000 2.98190000
58.82950000 -22.91480000 2.43310000
58.19390000 -24.87050000 3.56340000
56.33080000 -25.56890000 3.27480000
56.81580000 -25.91420000 3.67710000
30.40340000 32.04270000 4.00090000
35.08510000 34.21650000 3.77570000
32.26780000 33.06710000 4.04430000
34.85230000 33.83810000 4.03630000
45.01150000 26.98450000 -0.17230000
43.39400000 27.11480000 -0.15780000
43.38930000 27.23310000 -1.04320000
47.69670000 26.69190000 -1.64920000
48.21750000 26.39800000 -0.40030000
69.97620000 -0.21600000 2.49900000
70.36940000 -0.21320000 2.96700000
69.98720000 2.26660000 2.65440000
71.83870000 -2.97120000 3.71230000
72.06490000 1.24060000 3.70850000
11.13280000 -20.63210000 -4.04960000
11.64710000 -20.75230000 -3.83740000
12.82800000 -23.02970000 -3.98970000
15.37220000 -25.01370000 -3.73890000
50.28400000 -32.41560000 4.23580000
54.04210000 -30.94410000 4.17560000
53.02700000 -30.86440000 4.29670000
58.15560000 -27.53700000 4.22750000
54.34050000 -29.80300000 4.33050000
55.42400000 -29.77410000 4.26500000
27.31320000 30.69600000 3.94430000
28.37930000 30.91490000 3.76050000
27.05600000 31.19290000 3.49640000
26.82250000 30.79260000 3.79020000
26.59530000 31.25440000 3.30220000
26.37590000 30.91450000 3.34640000
56.69750000 34.32530000 2.77690000
58.56250000 33.30980000 2.67200000
58.00490000 33.80360000 2.27310000
54.42820000 34.14570000 4.03070000
55.99850000 33.84700000 3.78280000
53.90260000 34.76870000 3.83310000
35.52430000 -28.87390000 1.10740000
37.77180000 -29.16540000 1.11020000
37.39710000 -29.07550000 0.75620000
40.73590000 -28.99170000 0.39200000
39.01240000 -29.15890000 0.77100000
41.16120000 -28.99990000 0.75430000
70.55800000 -2.87340000 -3.18490000
70.74900000 -0.03760000 -3.32090000
71.04830000 0.17490000 -3.70260000
71.07750000 3.48320000 -4.02180000
70.70200000 3.44680000 -3.63810000
9.29440000 19.40580000 2.03380000
9.92940000 20.28870000 1.60210000
8.90140000 19.07990000 1.19070000
10.72000000 21.24260000 1.03300000
10.92210000 21.27340000 0.26450000
23.58870000 20.63620000 0.92490000
23.65870000 21.07740000 1.33600000
23.33900000 20.72650000 2.08370000
22.97520000 21.17330000 3.04880000
70.33840000 2.25230000 2.96890000
70.10420000 4.48570000 3.03940000
44.05190000 35.61720000 3.42620000
43.82580000 35.82950000 3.11690000
42.90700000 36.00020000 2.75270000
39.47590000 35.63550000 3.09980000
42.84640000 35.71920000 3.03410000
54.81110000 -26.96680000 3.66000000
54.63780000 -27.70080000 3.98830000
56.69660000 -26.43390000 3.90040000
41.20670000 -35.51590000 -4.02250000
43.12170000 -35.33050000 -4.09060000
35.51380000 -36.15260000 -3.38540000
33.05610000 -35.89190000 -3.29190000
33.65650000 -35.72630000 -3.57190000
31.40550000 28.33420000 -3.75490000
31.27260000 27.83310000 -4.12030000
32.16430000 28.77030000 -3.92370000
44.99740000 34.51160000 3.98990000
45.91900000 34.44390000 4.09440000
46.29470000 35.08240000 4.18270000
48.29280000 33.36120000 4.01390000
49.61990000 33.13950000 3.99680000
61.00780000 32.00790000 -2.55720000
60.91470000 31.90850000 -2.19200000
62.81930000 30.51970000 -2.24140000
62.47270000 30.97320000 -3.40990000
61.16180000 31.88530000 -3.40420000
62.37330000 31.11010000 -3.03490000
47.33350000 -28.02680000 0.37020000
44.96960000 -28.56450000 0.27100000
45.73960000 -28.41060000 0.85280000
42.14720000 -28.98370000 -0.04310000
42.26200000 -28.93980000 0.42250000
75.97100000 -0.60380000 3.00980000
76.01320000 0.32500000 3.43110000
75.54540000 -0.82790000 3.25760000
75.61910000 -2.82130000 2.80830000
75.18840000 -1.28940000 3.38630000
74.99320000 -5.33110000 3.00050000
42.75590000 29.27940000 4.05700000
42.79560000 28.71340000 3.86920000
2.33870000 -6.62480000 4.12020000
2.04300000 -4.58440000 4.14330000
2.05470000 -5.84920000 3.72710000
2.69320000 2.23950000 4.80860000
62.38660000 30.02640000 0.31280000
63.99520000 28.58170000 -0.13530000
64.19600000 28.56210000 0.28160000
45.42130000 27.17540000 2.49840000
43.77480000 27.13230000 2.08210000
45.28050000 27.00110000 1.79570000
44.89190000 27.38570000 2.87180000
44.77680000 27.64750000 3.20620000
11.75130000 5.17420000 -3.77340000
13.18440000 8.21400000 -3.40520000
12.43190000 6.29210000 -3.50140000
11.78480000 4.06290000 -3.52520000
76.90090000 -2.40890000 -0.03450000
76.87130000 -2.96020000 -1.22250000
76.85530000 -0.65660000 1.12830000
76.82710000 -2.87220000 0.21900000
76.96750000 -0.40720000 0.67950000
21.84880000 22.73530000 -4.00060000
20.94530000 22.60320000 3.28890000
20.95720000 22.23410000 -1.27100000
20.89930000 22.08030000 -0.42760000
2.62820000 -7.96300000 4.16740000
3.09050000 -8.76130000 4.46070000
2.49200000 -6.14690000 4.42730000
3.06700000 -9.47800000 4.18280000
4.32710000 -12.42180000 4.41470000
32.92410000 29.04210000 3.71830000
32.95860000 28.80280000 3.72580000
33.60610000 28.88070000 4.00550000
33.84330000 30.90500000 4.42490000
32.77430000 25.87320000 -2.90260000
38.65340000 27.23580000 -2.43510000
39.82730000 27.31050000 -2.19020000
38.61350000 27.01660000 -1.49200000
13.47400000 17.25740000 4.78400000
13.49650000 18.31550000 4.76030000
9.91260000 15.87900000 4.65090000
8.84250000 15.17370000 4.41550000
55.21610000 -24.88990000 -1.30670000
55.48380000 -24.47150000 -0.47340000
57.68400000 -23.09050000 -0.82540000
53.42990000 -25.72570000 -0.48310000
43.51370000 -35.93320000 3.21200000
44.69660000 -35.49330000 3.49570000
41.09510000 -36.03340000 3.49340000
41.59180000 -35.36980000 3.95710000
43.36140000 -35.29150000 3.85330000
69.96380000 21.34370000 -1.10460000
66.44370000 26.01490000 -0.98810000
65.40490000 27.14620000 -0.55380000
41.48630000 31.31390000 4.34640000
41.36730000 29.40640000 4.06870000
42.06640000 30.04260000 4.21670000
43.74030000 32.23640000 4.13910000
42.99050000 33.09000000 4.03950000
42.26340000 32.14250000 4.34630000
56.04570000 32.35570000 -4.76090000
64.81970000 26.27590000 -4.80170000
64.35320000 27.29750000 -4.85330000
66.89680000 24.51600000 -4.88640000
5.42010000 1.25930000 4.36540000
5.85120000 -3.35930000 4.33710000
6.46440000 -1.37040000 4.57990000
3.86460000 -0.61270000 4.76060000
4.27840000 -1.54950000 4.59170000
4.23530000 0.95700000 4.66530000
71.11300000 19.50270000 -1.10950000
71.07940000 19.52820000 -0.70470000
73.31890000 15.52230000 -1.17660000
73.10440000 15.94150000 -0.53170000
73.89190000 14.25280000 -0.65260000
19.03020000 25.07650000 -3.89300000
20.23870000 25.89360000 -4.13530000
19.53400000 24.75000000 -4.11530000
20.76990000 26.47850000 -3.59570000
20.19190000 25.92510000 4.15240000
19.86390000 27.35970000 2.68290000
18.85440000 -22.29590000 -3.56340000
18.98400000 -22.89790000 -3.73570000
17.07850000 -20.78520000 -3.79970000
21.36160000 -24.34030000 -3.40020000
22.46610000 -25.73230000 -3.65400000
20.71670000 -24.41470000 -3.69360000
3.03700000 11.04450000 2.77560000
3.77300000 12.55230000 2.37790000
2.82430000 10.48790000 2.41000000
2.08510000 7.20510000 2.54190000
1.59580000 4.96340000 2.53010000
1.95700000 7.30100000 2.91170000
40.24250000 31.56360000 4.25910000
39.20580000 32.46410000 4.23790000
40.43470000 32.91450000 4.27850000
38.90850000 32.93920000 4.17930000
75.95550000 1.98040000 -4.77450000
74.27990000 1.04920000 -4.77140000
74.64500000 1.82290000 -4.72270000
76.12830000 3.90240000 -4.66950000
75.83640000 3.25350000 -4.65730000
75.53850000 4.03640000 -4.49420000
16.34180000 -31.21450000 -2.40720000
16.09810000 -30.91550000 -2.05690000
14.71870000 -29.68200000 -1.97740000
19.15810000 -33.16250000 -2.23550000
18.19810000 -32.49330000 -2.54380000
19.48720000 -33.19900000 -2.54570000
43.33620000 37.03190000 -0.14190000
44.73980000 36.89690000 0.21670000
42.72970000 36.98820000 0.52460000
41.71660000 36.88810000 0.83540000
4.13550000 12.14390000 -2.30950000
3.23910000 10.15280000 -2.63950000
3.29280000 10.42470000 -1.98550000
12.44380000 -26.38880000 -3.61400000
11.27240000 -24.36870000 -3.91730000
12.69050000 -26.17290000 -3.89370000
10.63980000 -24.41350000 -3.45150000
8.97100000 -22.44080000 -3.19460000
8.91790000 -21.93660000 -3.56840000
29.21850000 27.75370000 3.78150000
28.27590000 27.71550000 4.01260000
29.31010000 27.93360000 -2.02110000
29.58710000 27.75290000 0.61150000
18.61340000 -20.22270000 -2.20940000
17.10180000 -18.32960000 -2.23850000
18.33170000 -19.49910000 -1.61580000
16.42570000 -17.37200000 -2.23330000
16.21190000 -17.43010000 -2.61090000
15.11710000 -15.67260000 -2.68910000
30.41630000 -36.05810000 -2.35850000
30.76810000 -36.47210000 -1.45230000
29.11310000 -35.94310000 -1.54810000
30.70880000 -36.60060000 1.20930000
29.33000000 -36.24330000 0.94020000
30.53140000 -36.62250000 0.31110000
11.31830000 11.02020000 -4.44010000
10.61670000 11.52990000 -4.46000000
12.52360000 15.82250000 -4.44830000
13.94110000 16.30590000 -4.55810000
12.65770000 14.97490000 -4.43930000
49.94100000 36.46600000 0.93150000
51.53170000 36.46420000 2.46250000
52.06800000 36.19220000 2.87530000
52.81740000 36.07310000 2.42340000
1.89140000 -5.66810000 -3.41250000
4.18150000 -9.47660000 -4.15730000
22.51970000 29.70790000 -1.19210000
23.58900000 30.29260000 -0.97910000
22.00140000 29.18280000 -1.72150000
22.21950000 29.06480000 -2.32520000
20.46140000 -33.23070000 -3.10140000
20.45090000 -32.72850000 -3.44040000
22.75250000 -33.52550000 -3.39020000
23.25900000 -34.11460000 -2.76320000
23.81440000 -34.32100000 -2.32820000
22.78300000 -34.27930000 -2.51980000
29.22370000 -27.33830000 1.15370000
32.06520000 -28.16310000 1.10650000
37.12250000 -29.04270000 0.29660000
35.09590000 -28.82360000 0.10170000
35.00500000 -28.77300000 0.76120000
76.90520000 5.67130000 -4.52630000
76.88430000 3.66630000 -4.61160000
76.20070000 7.42800000 -4.71170000
77.86590000 3.65630000 -3.74960000
77.45910000 5.22100000 -4.06510000
77.43540000 5.95240000 -3.37080000
3.35660000 -2.55610000 -4.36890000
5.50890000 6.97010000 -4.60090000
4.77930000 2.17040000 -4.54860000
4.34410000 2.49360000 -4.61580000
31.42620000 26.52980000 -4.19440000
29.24140000 26.31520000 -4.28940000
70.10990000 -8.97990000 -4.04870000
70.84210000 -7.15860000 -4.20020000
71.13250000 -5.38500000 -4.16630000
70.61220000 -6.25330000 -3.88100000
71.05510000 -3.73920000 -3.93710000
12.84400000 -13.48570000 3.54480000
12.43200000 -13.75680000 3.95810000
13.64340000 -16.13590000 3.99290000
10.28840000 -8.26280000 4.16130000
56.77410000 34.04290000 -1.77110000
56.93180000 33.60000000 -1.47790000
57.42900000 32.92650000 -0.77240000
28.79510000 28.12870000 4.00990000
28.22780000 28.71580000 4.30320000
29.23640000 29.35140000 4.25090000
27.94090000 29.12940000 4.35750000
14.36610000 -28.11170000 -3.91370000
15.67390000 -29.80430000 -3.41340000
14.57190000 -27.83980000 -4.16210000
16.26730000 -28.90260000 -4.03690000
16.28210000 -29.38930000 -3.86410000
64.40770000 17.22330000 -2.86200000
64.31560000 16.87010000 -2.11970000
63.54600000 17.95590000 -2.36450000
66.01320000 14.09200000 -1.45110000
65.61460000 15.13850000 -2.27860000
66.94660000 12.58300000 -1.79690000
77.48790000 3.76340000 -4.29230000
77.19880000 3.52050000 -4.47470000
77.68430000 1.43290000 -3.71140000
77.02950000 0.45320000 -3.92060000
77.50680000 1.43680000 -4.04540000
46.57110000 -32.89970000 4.38090000
38.47240000 -33.70700000 4.54760000
42.29820000 -32.51890000 4.41940000
39.29040000 -32.57200000 4.44770000
39.70590000 -33.15420000 4.52110000
70.70650000 17.16300000 3.74150000
68.69630000 20.34330000 3.82200000
61.49830000 28.08330000 4.02320000
64.50980000 25.37490000 3.96060000
34.76500000 27.29430000 -3.94110000
37.59640000 27.98000000 -3.95260000
36.42830000 27.45990000 -3.67540000
34.54460000 26.70910000 -3.31580000
35.76200000 26.83970000 -3.00050000
34.29630000 26.41460000 -2.95280000
25.54770000 30.46760000 -2.45070000
26.67210000 30.61080000 -3.48590000
25.93640000 30.54750000 -2.60930000
73.57840000 -11.63830000 -4.14420000
71.73910000 -12.50230000 -4.67790000
73.01110000 -8.31980000 -4.75380000
72.15350000 -12.71640000 -4.56960000
28.63900000 31.25060000 3.62060000
30.08710000 32.35020000 3.76650000
29.01580000 32.14580000 3.29220000
27.74360000 31.31590000 3.33220000
10.98050000 -24.62790000 -0.84510000
12.08270000 -26.36290000 -1.36330000
13.92560000 -27.57390000 -0.72330000
12.27020000 -25.38930000 0.02270000
11.11450000 -24.47350000 -0.48980000
37.77080000 26.69780000 1.47440000
36.78340000 26.51840000 -0.44660000
37.87910000 26.74670000 -0.16940000
36.94510000 26.64440000 -1.29130000
35.89420000 26.48070000 -1.87960000
37.73650000 26.94270000 -1.92280000
46.64090000 -30.71800000 4.06170000
44.70920000 -31.67400000 4.27260000
47.75490000 -31.01340000 4.25690000
45.91300000 -30.40600000 3.82570000
47.82310000 -30.00040000 3.83910000
47.54010000 -29.64430000 3.56280000
65.36770000 14.40100000 1.27150000
66.73720000 12.07490000 2.04810000
67.50750000 10.42290000 2.01360000
12.56170000 -27.36890000 -2.37700000
12.61180000 -27.36740000 -2.76190000
13.14640000 -27.55620000 -1.29990000
27.51620000 31.17260000 -3.59190000
28.21570000 31.85980000 -2.83000000
28.43620000 31.35180000 -3.48600000
29.42300000 32.28500000 -3.29520000
28.87260000 31.53720000 -3.46750000
28.59700000 32.05580000 -2.81830000
69.83980000 -17.68230000 -4.42950000
69.15600000 -17.73050000 -4.55780000
71.18440000 -14.61820000 -4.59510000
71.94000000 -14.02800000 -4.46830000
64.56040000 -17.01100000 -2.00170000
63.84950000 -17.02060000 -0.28610000
63.99700000 -16.70380000 0.21820000
3.82340000 5.48070000 4.91800000
3.38420000 5.34950000 4.90520000
3.94240000 10.42570000 4.70160000
3.45490000 8.97950000 4.73970000
4.30520000 10.28540000 4.83360000
63.63000000 17.64290000 2.88620000
64.95640000 16.91810000 3.26440000
63.58580000 18.13760000 3.13640000
64.91600000 16.40530000 3.05940000
23.79630000 -28.58560000 -4.14720000
24.20910000 -30.82470000 -4.25490000
23.37550000 -31.20950000 -4.20630000
20.51500000 -29.56430000 4.68420000
21.12450000 -30.69770000 4.82670000
21.96590000 -29.87630000 4.80590000
19.02160000 -27.06000000 4.79240000
19.08480000 -28.04950000 4.65550000
21.87420000 -28.95370000 4.79080000
2.10370000 -6.54730000 2.61150000
1.53610000 0.11880000 2.80300000
73.72250000 6.30780000 3.45220000
72.96730000 9.38890000 3.36450000
74.50560000 4.13910000 3.57040000
74.77500000 1.57650000 3.79860000
75.06170000 3.46050000 3.70220000
75.01040000 -11.27370000 -2.13870000
74.04540000 -13.54880000 -1.96350000
73.82900000 -13.72960000 -2.46140000
73.84360000 -13.97410000 -0.84510000
74.23070000 13.63130000 -0.10140000
73.34890000 15.59950000 -0.05640000
75.26760000 10.44630000 -0.79900000
4.89770000 -4.76570000 4.37380000
4.44130000 -3.85550000 4.55430000
4.73910000 -6.07660000 4.52970000
3.64220000 -6.48460000 4.76720000
4.10130000 -6.68780000 4.74890000
3.64730000 -3.59930000 4.81200000
19.93360000 27.90810000 0.70540000
20.28830000 28.05610000 0.05310000
20.24900000 28.09080000 0.85110000
50.17310000 27.01470000 3.55670000
49.65210000 26.78620000 3.29280000
54.65930000 24.79800000 3.16250000
56.08700000 23.99780000 3.10200000
56.00570000 24.49080000 3.38410000
6.75810000 -9.15300000 -3.80170000
6.91140000 -8.29640000 -3.78350000
7.62750000 -10.69810000 -3.81600000
10.18930000 -17.60730000 -3.89470000
59.02040000 29.27360000 3.98060000
56.24720000 30.95510000 4.08440000
56.00000000 30.27560000 3.60360000
55.69590000 32.21500000 4.23190000
56.13680000 31.50710000 4.20530000
76.39780000 2.38780000 3.41970000
75.23130000 1.46820000 3.79100000
75.70450000 2.60150000 3.68740000
75.47620000 4.43690000 3.66560000
27.52030000 23.00620000 0.09760000
26.80150000 22.61910000 -0.80170000
27.08050000 23.37200000 2.28190000
26.98150000 22.94560000 1.65760000
28.42150000 24.11150000 1.84400000
56.87790000 24.40930000 3.56490000
58.67570000 23.20280000 3.48380000
60.37120000 21.84350000 3.42150000
60.61270000 22.14890000 3.56140000
19.90360000 -21.57590000 -2.21290000
19.04730000 -20.39420000 -1.68720000
21.80490000 -23.08910000 -1.79620000
67.54010000 -11.80400000 -1.75080000
68.15460000 -10.14230000 -1.44410000
67.52400000 -11.28100000 -1.12520000
67.86660000 -10.09440000 -0.51620000
11.32150000 -2.05420000 2.54290000
11.60510000 -1.61460000 2.16570000
12.92540000 -9.28090000 1.26630000
12.38270000 -7.98290000 1.81660000
12.81640000 -9.64260000 1.81990000
37.96490000 36.62890000 -0.46020000
36.70380000 36.34330000 -0.36930000
37.27490000 36.46430000 0.31920000
35.05070000 35.77470000 -1.11940000
33.26250000 35.15070000 -0.88900000
35.07740000 35.88830000 -0.47380000
67.65780000 10.51250000 -0.53980000
68.65990000 10.26740000 -3.27260000
69.32150000 9.09890000 -3.58240000
68.78720000 9.28290000 -2.81320000
14.66660000 24.01850000 3.66080000
13.78560000 22.57250000 4.14110000
15.29470000 23.95660000 4.01590000
13.05920000 20.64160000 4.53220000
2.70000000 -1.75700000 -0.33790000
2.87510000 -0.71340000 0.08420000
2.71500000 1.14190000 -0.21730000
2.12950000 0.85880000 -1.04060000
17.29940000 14.37530000 -2.31320000
15.70440000 11.94310000 -2.00640000
15.01650000 10.47890000 -1.58570000
46.72820000 37.16170000 1.38640000
45.74700000 36.87920000 1.02670000
45.39660000 37.06390000 2.10920000
28.50370000 23.91770000 1.21330000
29.14930000 24.32570000 0.81170000
29.26070000 24.58300000 1.80850000
29.99220000 24.46320000 1.27730000
29.58670000 24.70550000 2.51090000
29.11650000 -27.36290000 1.48690000
26.17150000 -26.34600000 2.35720000
19.20600000 -33.33600000 3.15490000
19.89890000 -33.72840000 2.52310000
20.38860000 -33.83020000 3.39000000
17.51680000 -31.80730000 2.03220000
18.50710000 -32.70920000 2.00580000
18.50700000 -32.85660000 2.33990000
13.17390000 9.64410000 -3.82640000
12.99040000 8.47380000 -3.67350000
12.36180000 7.87660000 -3.93420000
14.90090000 12.06330000 -3.54300000
13.89950000 10.28560000 -3.53110000
13.64120000 10.50110000 -3.77580000
42.77670000 33.90360000 -4.40900000
44.61050000 31.63780000 -4.73460000
43.95820000 30.59910000 -4.74030000
43.01370000 31.49420000 -4.85690000
46.96770000 -29.23740000 -2.80260000
53.21170000 -27.31510000 -3.23240000
53.20620000 -26.94860000 -2.83730000
54.82580000 -26.45780000 -3.24700000
29.74840000 24.35160000 -0.40600000
30.10970000 24.50340000 -1.61470000
30.10890000 24.41180000 0.48050000
29.55840000 24.34790000 0.54620000
39.90210000 35.31710000 3.33230000
38.55050000 35.17330000 3.48020000
37.33090000 35.29800000 3.19310000
65.03280000 26.60230000 3.82130000
67.20180000 24.08980000 3.76920000
65.02140000 27.16310000 3.69410000
62.23150000 30.02470000 3.59960000
59.95480000 31.58490000 3.67390000
76.06150000 10.16600000 -2.40100000
75.60670000 12.02570000 -2.80960000
75.29780000 12.42620000 -2.47840000
74.72690000 14.38310000 -3.18400000
75.55450000 12.34200000 -3.14570000
74.33010000 15.30110000 -3.82920000
33.50200000 33.55200000 -4.07510000
31.82700000 33.11710000 -3.92690000
35.52170000 33.02730000 -4.55150000
38.11880000 33.29280000 -4.50240000
37.98380000 32.60160000 -4.62320000
46.01900000 -29.87590000 -3.28140000
44.31780000 -29.81580000 -2.78220000
39.32580000 -30.28330000 -2.95270000
41.24910000 -30.16740000 -2.80590000
63.86640000 19.46490000 3.56300000
67.56740000 15.47880000 3.61830000
67.94830000 14.05150000 3.57120000
69.37820000 11.81990000 3.62950000
68.72170000 -13.18950000 -4.12050000
69.06100000 -13.39540000 -4.32860000
68.82800000 -16.15410000 -4.60150000
69.50030000 -13.91710000 -4.56410000
70.97370000 -11.69580000 -4.69670000
69.72910000 -21.56160000 -0.92110000
70.22630000 -20.62170000 0.25430000
68.28300000 -23.07230000 -1.97650000
67.99790000 -23.58290000 -1.35070000
31.92220000 26.41490000 3.80170000
34.15950000 27.46120000 3.96300000
34.02690000 27.80580000 4.10580000
37.74100000 28.10560000 3.90970000
37.57190000 27.71950000 3.69590000
40.46640000 28.07240000 3.67320000
40.53880000 33.17170000 -4.74450000
38.73430000 32.82680000 -4.62160000
40.22070000 31.55860000 -4.71380000
41.19430000 31.81860000 -4.84630000
14.12550000 -12.31800000 -1.21610000
13.50120000 -10.62040000 -0.84750000
14.22550000 -12.62140000 -0.62340000
16.27060000 -16.69170000 -1.63030000
15.37910000 -15.27060000 -1.63530000
70.03280000 2.50240000 -1.99010000
70.12280000 0.70170000 -2.00370000
69.43380000 1.43710000 0.50570000
70.89420000 1.84210000 -3.63140000
27.77790000 30.72510000 -4.01050000
27.08470000 31.19430000 -3.34690000
27.30010000 30.72320000 -3.86480000
3.76560000 7.99730000 0.30040000
4.27460000 9.76250000 0.31770000
4.03970000 9.04610000 -0.05400000
3.80020000 10.20090000 1.45170000
8.99890000 -19.74620000 -4.24290000
7.94680000 -16.20060000 -4.35020000
51.09900000 25.43240000 0.59080000
50.20520000 25.66610000 1.38450000
49.96930000 25.90640000 -0.08420000
51.47200000 25.49050000 2.19190000
51.94890000 25.49810000 2.57800000
50.28710000 26.02020000 2.57620000
52.98450000 -34.09760000 -1.51270000
55.59760000 -32.97080000 -1.91220000
54.60860000 -33.42290000 -1.07740000
57.93890000 -31.79820000 -1.25210000
60.22090000 -30.35980000 -1.74870000
60.34630000 -30.20850000 -1.04220000
36.15230000 26.34650000 0.82840000
36.43490000 26.91090000 3.13080000
12.80210000 -15.44370000 4.25250000
13.67050000 -16.92300000 4.24480000
17.21340000 -21.61220000 4.29690000
16.07990000 -19.71680000 4.06400000
15.73000000 -20.05740000 4.35620000
5.41670000 14.26000000 2.72910000
4.92630000 13.96740000 2.52330000
4.96110000 14.05000000 2.85550000
4.17150000 13.25370000 3.06820000
71.75250000 -16.08390000 2.84340000
71.95100000 -15.12640000 3.11120000
71.01760000 -16.45690000 3.33040000
71.72700000 -13.96660000 3.57020000
71.46940000 -13.49620000 3.73660000
69.99190000 -16.75720000 3.73660000
17.78810000 20.32610000 -4.05070000
17.84190000 19.94230000 -4.19960000
17.24970000 20.09170000 -4.38440000
18.60370000 21.29040000 -4.00560000
18.15220000 21.15680000 -4.11790000
43.15050000 35.89930000 -3.36710000
44.96980000 35.18950000 -4.22540000
43.24730000 35.24090000 -3.92580000
44.70390000 35.49620000 -4.04730000
42.42080000 27.34630000 -1.59530000
42.26260000 27.16820000 -0.19350000
38.81410000 26.95580000 -0.90200000
39.92170000 27.17340000 -1.48550000
38.60880000 -33.74800000 -4.36850000
43.72280000 -34.21840000 -4.35890000
44.01090000 -33.68290000 -4.42310000
11.38920000 -3.74490000 2.47990000
11.56080000 -2.82440000 2.15780000
10.72570000 -3.08890000 3.18340000
10.08320000 -4.97950000 3.82560000
10.83030000 -4.02160000 3.11970000
23.48590000 21.36850000 -2.61420000
23.14480000 20.74480000 -2.70020000
23.04940000 21.09180000 -3.25950000
23.61380000 21.20120000 -2.10920000
23.61690000 20.66800000 -0.77560000
23.55310000 20.71480000 -1.42400000
60.23340000 24.48650000 -4.75510000
55.54020000 27.58770000 -4.84260000
55.64940000 28.23240000 -4.85330000
51.38390000 29.20230000 -4.84960000
50.38650000 30.04190000 -4.85520000
71.15130000 20.01420000 2.88520000
69.83720000 21.72590000 3.25510000
68.49340000 23.03180000 3.55330000
70.93910000 19.46740000 3.48490000
39.93510000 29.56810000 4.12710000
39.91470000 30.46370000 4.21550000
39.01770000 30.15700000 4.37660000
57.62830000 -23.77370000 -2.18590000
56.12420000 -24.44770000 -1.65710000
57.32300000 -23.65050000 -1.55570000
60.23070000 -21.36490000 -1.54470000
61.85370000 -19.77560000 -1.41480000
60.53890000 -21.64470000 -2.42270000
16.23880000 25.04570000 -2.65110000
18.05380000 25.76320000 -3.11650000
16.66470000 24.80100000 -3.35290000
18.93420000 25.50300000 -3.71040000
18.74810000 25.89970000 -3.39750000
20.03800000 26.44800000 -3.79080000
4.61550000 -11.12030000 0.53620000
4.05700000 -8.68100000 0.84600000
4.00950000 -8.55720000 0.45060000
5.65900000 -14.30510000 0.59720000
6.27810000 -15.76320000 0.59110000
6.10190000 -15.30680000 0.95100000
9.84980000 2.48250000 4.20020000
9.49210000 2.94970000 4.42310000
9.55700000 1.28140000 4.26620000
10.18310000 4.62180000 4.32430000
10.73470000 7.53940000 4.48960000
67.31440000 17.42760000 -4.67250000
70.39880000 12.56920000 -4.67010000
5.23760000 -16.07000000 -2.96470000
5.09180000 -16.12860000 -2.63360000
4.05010000 -13.81150000 -1.87900000
3.27480000 -11.58300000 -1.55210000
67.85070000 -14.86180000 -4.06900000
67.23740000 -13.33010000 -2.55370000
67.63260000 -13.39590000 -3.17800000
66.94660000 -14.83060000 -3.32420000
31.60990000 29.23460000 4.02440000
31.02230000 28.42480000 3.45710000
31.46900000 28.71190000 3.54270000
8.18100000 13.87100000 -3.88510000
7.72010000 14.32240000 -3.45590000
5.86690000 -17.46080000 -3.01020000
6.08850000 -18.18080000 -2.62890000
