-1.29650000 6.92500000 -0.20910000
-1.17170000 6.82830000 -0.23080000
-1.29140000 6.64870000 -0.24500000
4.98810000 2.32940000 -0.31780000
4.79150000 2.32190000 -0.32690000
4.82190000 2.60790000 -0.31770000
5.08250000 2.34960000 -0.31000000
4.92290000 2.78520000 -0.30230000
5.09490000 2.79150000 -0.28470000
-1.25940000 6.31160000 0.53520000
-1.16760000 6.46080000 0.51490000
-1.29780000 6.46020000 0.53230000
-1.05340000 5.74510000 0.55230000
-1.32860000 5.65990000 0.56800000
-1.50950000 5.20650000 0.56980000
-6.28650000 -0.94330000 -0.15600000
-6.26900000 -0.54500000 -0.13080000
-6.26030000 -0.63590000 -0.18680000
-6.27580000 -0.99780000 -0.21690000
-0.23950000 9.53530000 0.52360000
-0.30430000 9.49360000 0.53240000
-0.34770000 9.33550000 0.54480000
3.18710000 7.05600000 -0.16850000
3.21960000 7.02550000 -0.18960000
3.19070000 7.01530000 -0.17450000
3.15520000 7.09830000 -0.06040000
5.64380000 -1.90920000 0.54190000
5.63230000 -1.54630000 0.51660000
5.55790000 -1.67630000 0.54270000
5.51500000 -1.22350000 0.50980000
5.38110000 -0.90070000 0.49920000
5.28360000 -1.06650000 0.53580000
4.40610000 6.37500000 0.31710000
4.37980000 6.41640000 0.35690000
4.45710000 6.22430000 0.34670000
4.19180000 6.69450000 0.23040000
3.16570000 8.49200000 0.13560000
3.43120000 8.03950000 0.14030000
1.69880000 3.77050000 0.49840000
1.74640000 3.18240000 0.52860000
4.17480000 3.08090000 -0.29240000
3.94850000 3.31390000 -0.31180000
4.18060000 3.39730000 -0.30240000
3.77150000 2.06990000 -0.34790000
3.91460000 2.21810000 -0.32500000
4.08350000 1.95940000 -0.34220000
-0.08890000 9.31240000 0.53010000
-0.13460000 9.32560000 0.52910000
-0.18900000 9.27710000 0.45340000
-0.14430000 9.29270000 0.49840000
-0.18690000 9.29600000 0.49750000
2.79190000 7.17450000 -0.19950000
2.89890000 7.37170000 -0.19720000
2.94520000 7.37360000 -0.18200000
2.92200000 7.35080000 -0.17240000
5.45670000 2.92400000 -0.06540000
5.55750000 2.57910000 -0.02460000
5.54700000 2.55250000 -0.07650000
5.64210000 2.31310000 0.02760000
5.65090000 2.24660000 -0.02920000
1.28040000 9.82990000 0.12580000
1.40740000 9.82410000 0.09150000
1.22010000 9.80960000 0.08030000
0.85580000 9.86730000 0.07900000
3.69580000 1.16070000 -0.35480000
3.78920000 0.83910000 -0.38170000
3.53480000 1.00920000 -0.39000000
4.23360000 1.28400000 -0.34230000
4.43460000 1.15590000 -0.35390000
4.05880000 1.10370000 -0.34120000
-1.90840000 6.76090000 0.51650000
-2.05150000 6.83210000 0.53960000
-2.09780000 6.68300000 0.53430000
-1.71540000 6.60130000 0.50940000
-1.76480000 6.43630000 0.52730000
-1.48300000 6.52440000 0.53530000
-0.71470000 9.67880000 -0.14550000
-0.73020000 9.60010000 -0.13980000
-0.45410000 9.48770000 -0.15720000
6.00630000 -0.52230000 0.29070000
6.03400000 -0.83770000 0.23310000
6.01320000 -0.41310000 0.23350000
6.02350000 -0.41540000 0.17550000
6.03830000 -0.61330000 0.13340000
4.36900000 2.71970000 -0.29230000
4.53210000 2.91150000 -0.31810000
4.55220000 2.63090000 -0.32550000
4.16860000 2.20130000 -0.31230000
3.05400000 7.25380000 0.24200000
3.06350000 7.27000000 0.16390000
-2.74560000 -9.53760000 0.44400000
-2.86950000 -9.47600000 0.39550000
-2.77850000 -9.52150000 0.24740000
-2.48450000 -9.61610000 0.51940000
-2.42500000 -9.67540000 0.47320000
-2.34720000 -9.67930000 0.51260000
6.22230000 -2.39990000 -0.21670000
6.23510000 -2.33010000 -0.15270000
6.25510000 -2.41050000 -0.16390000
6.08630000 -2.12740000 -0.18370000
-4.12660000 4.48600000 0.54740000
-4.53160000 4.35460000 0.52700000
-4.82020000 4.07060000 0.51750000
-0.47730000 2.71810000 -0.35540000
-0.26150000 2.77370000 -0.34460000
-0.43290000 2.56820000 -0.36140000
0.21830000 2.93020000 -0.32190000
0.38710000 2.74550000 -0.28890000
0.08250000 2.83640000 -0.32680000
4.13150000 1.42700000 -0.34540000
3.91770000 1.34860000 -0.34370000
3.93590000 1.56760000 -0.35900000
4.33090000 2.01240000 -0.33420000
4.20770000 1.97430000 -0.33730000
4.88060000 5.02610000 0.17110000
5.14740000 4.20610000 0.11520000
3.23710000 1.63230000 0.50040000
4.41670000 0.94350000 0.49160000
4.34090000 1.33590000 0.53080000
4.21190000 1.15080000 0.48850000
3.19900000 7.20630000 -0.18510000
2.99350000 7.36920000 -0.17200000
3.02860000 7.34370000 -0.14730000
-0.38520000 8.15470000 0.48340000
-0.61410000 7.91950000 0.48080000
-0.54750000 8.03630000 0.48020000
-0.67780000 8.14440000 0.50510000
-5.29920000 4.38490000 -0.22540000
-5.20970000 4.56940000 -0.23650000
-5.27120000 4.35550000 -0.25550000
-5.41640000 3.66900000 -0.29620000
-5.33020000 4.10150000 -0.27440000
-5.36830000 3.69590000 -0.31170000
-3.87900000 6.57860000 0.44700000
-3.81520000 6.51610000 0.44250000
-3.82080000 6.58140000 0.46540000
-3.91540000 6.99440000 0.48920000
-4.01740000 6.94110000 0.47140000
-3.88780000 6.78480000 0.47910000
5.08090000 3.86400000 -0.17050000
5.00300000 4.12840000 -0.19310000
5.11840000 3.91870000 -0.12280000
4.81040000 4.05510000 -0.25990000
4.87200000 3.67930000 -0.26050000
4.65800000 3.53640000 -0.28180000
-0.39960000 3.33720000 -0.28420000
-0.52470000 3.48130000 -0.26850000
-0.38960000 3.44460000 -0.28230000
-1.27860000 3.74000000 -0.30230000
-1.00130000 3.84230000 -0.27100000
-0.85250000 3.42830000 -0.27820000
-5.11360000 -1.57010000 0.56480000
-5.44940000 -2.48050000 0.56290000
-1.55240000 -0.33830000 0.58790000
-2.56960000 -0.48260000 0.58400000
-0.51530000 7.35880000 0.47020000
-0.79190000 7.03440000 0.46330000
-0.50840000 7.22000000 0.46110000
-0.29100000 7.66220000 0.46570000
-0.43520000 7.83170000 0.46710000
-0.40430000 7.65100000 0.46910000
-0.27460000 8.84750000 -0.16150000
-0.29360000 8.88920000 -0.11370000
-0.26810000 8.86690000 -0.11420000
-0.30090000 8.86370000 0.29100000
-0.29160000 8.87260000 0.13850000
-4.28420000 5.49440000 0.11460000
-4.26520000 5.44330000 -0.04660000
-1.05040000 -9.97470000 -0.47350000
-1.20880000 -9.92150000 -0.51620000
-0.55130000 -9.93480000 -0.56470000
-0.66790000 -9.87610000 -0.57910000
-0.21640000 -9.87520000 -0.57950000
5.23770000 3.39650000 -0.18120000
5.16670000 3.61000000 -0.16420000
5.20360000 3.64970000 -0.11870000
4.70900000 3.38560000 -0.28530000
5.00420000 3.44840000 -0.25480000
5.08440000 3.16710000 -0.26600000
-0.24650000 8.83630000 0.42700000
-0.23670000 8.84080000 0.26840000
-0.38800000 8.85100000 0.53860000
-4.10370000 5.29060000 -0.12870000
-4.04750000 5.24490000 -0.20780000
-4.09570000 5.25370000 -0.19580000
-4.24980000 5.38830000 -0.07040000
-4.22490000 5.35140000 -0.08460000
-4.21330000 5.31160000 -0.16650000
-1.20570000 9.70490000 -0.16600000
-1.04250000 9.71990000 -0.16690000
-1.13770000 9.64730000 -0.17370000
-0.80200000 9.92270000 -0.11890000
-0.69060000 9.97440000 -0.09240000
-0.68080000 9.92050000 -0.11340000
-4.19270000 6.19620000 -0.17120000
-4.11550000 6.31030000 -0.17060000
-4.34840000 5.88890000 -0.18540000
-4.34100000 5.80780000 -0.18570000
-4.39670000 5.65510000 -0.19850000
-4.23400000 5.36740000 0.18060000
-4.27800000 5.40870000 0.27780000
-4.25560000 5.38120000 0.31210000
-4.37070000 5.30860000 0.41880000
-4.35750000 5.35980000 0.40730000
-4.40140000 5.34970000 0.41860000
-4.32760000 2.48120000 -0.35990000
-4.07100000 2.52710000 -0.36110000
-4.14360000 2.41940000 -0.37300000
-3.57400000 3.08730000 -0.33000000
-0.36350000 -10.06440000 -0.37410000
-0.49370000 -10.04640000 -0.44370000
-0.86760000 -10.00010000 -0.48310000
-0.79490000 -9.97270000 -0.53190000
-0.71620000 -10.01280000 -0.48950000
1.99470000 8.64630000 -0.18050000
1.67900000 8.92490000 -0.15860000
1.98800000 9.02410000 -0.11330000
1.53900000 8.43510000 -0.19800000
2.13420000 6.15120000 -0.29510000
2.76210000 4.84550000 -0.28710000
3.17030000 4.90030000 -0.29760000
3.18190000 4.39600000 -0.30560000
-4.57660000 6.48270000 -0.14570000
-4.16270000 7.10550000 -0.16690000
-4.19670000 5.34180000 0.32700000
-4.30950000 5.37260000 0.38590000
-4.32710000 5.32130000 0.40880000
-6.08290000 -2.86660000 0.54320000
-5.97560000 -2.55740000 0.56320000
-5.83880000 -2.21580000 0.54900000
-5.93470000 -2.31730000 0.55320000
-5.92890000 -2.59820000 0.56730000
1.12660000 9.07050000 -0.16630000
1.48730000 8.84670000 -0.17930000
1.33400000 8.89250000 -0.17600000
1.42950000 8.98370000 -0.16670000
-5.34780000 2.70380000 -0.29120000
-5.29940000 2.56860000 -0.29400000
-5.51710000 2.44120000 -0.27400000
-5.58130000 2.16680000 -0.28080000
-5.43690000 2.28450000 -0.29180000
-5.50120000 2.05900000 -0.30230000
4.74720000 3.16610000 0.55210000
4.71320000 3.54040000 0.54470000
4.58150000 3.54270000 0.54680000
4.54660000 3.02340000 0.53880000
-1.74800000 2.79180000 -0.33870000
-2.70150000 3.33290000 -0.31530000
-2.38390000 3.37440000 -0.32460000
-2.41390000 3.14850000 -0.33750000
-3.63040000 5.66330000 -0.16150000
-3.59430000 5.60860000 -0.22250000
-3.62810000 5.62450000 -0.16070000
-3.67470000 5.46490000 -0.13630000
-3.64810000 5.43490000 -0.21390000
-3.67290000 5.41340000 -0.20690000
-6.13180000 -2.77340000 0.38660000
-6.14950000 -2.84540000 0.29590000
-6.14680000 -2.96140000 0.43690000
-6.08010000 -2.21720000 0.40960000
-6.10610000 -2.41100000 0.34640000
-6.09190000 -2.39950000 0.40000000
-4.43530000 5.73850000 0.44160000
-4.48770000 5.71890000 0.44950000
-4.48930000 5.53650000 0.43890000
-4.40370000 5.96030000 0.43590000
-4.35870000 5.95590000 0.42660000
2.31500000 6.93220000 -0.26660000
2.09500000 6.63340000 -0.26660000
2.02960000 6.88970000 -0.25050000
2.14300000 6.50970000 -0.27470000
2.16640000 6.37110000 -0.28360000
-4.99420000 2.56240000 -0.31210000
-4.89380000 2.53980000 -0.32160000
-4.92590000 2.37440000 -0.30730000
-5.31660000 1.93690000 -0.30850000
-5.31970000 2.22790000 -0.29940000
-5.17830000 2.10270000 -0.29380000
-3.66150000 8.10070000 0.34160000
-3.54770000 8.39690000 0.30960000
-3.63320000 8.26910000 0.27060000
-3.36760000 8.73550000 0.28940000
-3.29040000 8.84600000 0.28360000
-3.34230000 8.83110000 0.23590000
-0.52370000 4.22100000 -0.29380000
-0.45480000 4.41060000 -0.27620000
-0.31760000 4.18070000 -0.29530000
-0.77030000 4.61690000 -0.30170000
-0.64110000 4.67930000 -0.28050000
-0.66520000 4.37930000 -0.29460000
-6.03020000 -1.25870000 0.41660000
-6.05800000 -1.14680000 0.38380000
-5.92160000 -0.83590000 0.45480000
3.23730000 7.09650000 -0.19170000
3.25200000 6.82130000 -0.23080000
-4.42810000 6.72990000 -0.14630000
-4.48900000 6.69490000 -0.12200000
-4.44540000 6.77600000 -0.12710000
-4.47860000 6.77850000 -0.09660000
-4.44400000 6.89310000 -0.06540000
-4.40460000 6.92380000 -0.11220000
-2.35530000 4.19980000 0.53050000
-2.64150000 4.49580000 0.56130000
-2.68060000 4.89390000 0.54830000
-2.96260000 4.98840000 0.55740000
-3.45470000 8.74860000 0.06050000
-3.49350000 8.66640000 0.12190000
-3.43020000 8.77220000 0.12350000
-3.46870000 8.67960000 0.18350000
-3.54080000 8.54350000 0.18990000
-3.46010000 8.64740000 0.24150000
-4.19970000 4.65260000 -0.31930000
-4.76690000 4.03100000 -0.33310000
-4.70090000 3.65420000 -0.35220000
-2.33000000 8.03500000 0.50410000
-2.42610000 8.07910000 0.52920000
-2.53960000 7.87560000 0.54140000
-2.44810000 8.37610000 0.53540000
-2.65510000 8.10760000 0.55080000
5.78980000 0.89860000 -0.19780000
5.82690000 0.80610000 -0.14470000
5.92120000 0.20500000 -0.08710000
5.94100000 -0.08030000 -0.14910000
5.89060000 0.22910000 -0.13820000
2.18970000 6.85750000 0.55920000
2.24890000 6.67770000 0.55720000
-1.36820000 4.60990000 0.52960000
-1.52720000 4.67990000 0.55490000
-1.52420000 4.38600000 0.53710000
-1.76250000 4.67260000 0.56090000
-1.94250000 4.53450000 0.54200000
-2.66380000 9.43570000 0.10790000
-2.60580000 9.48290000 0.10220000
-2.63450000 9.43310000 0.07420000
-2.56530000 9.33290000 -0.05550000
-2.60830000 9.36890000 -0.00210000
1.81900000 3.94450000 -0.28650000
1.64420000 4.71570000 -0.28330000
1.92260000 4.73140000 -0.28540000
1.78630000 4.48550000 -0.27410000
-0.38080000 9.16950000 0.46230000
-0.36410000 9.22710000 0.50160000
-0.40310000 9.18510000 0.50480000
-0.43650000 9.20700000 0.53410000
-0.40690000 9.29340000 0.54490000
-0.46730000 9.23040000 0.54670000
-3.70820000 8.06490000 0.29400000
-3.67790000 8.20550000 0.22180000
-3.75820000 7.97950000 0.24350000
-3.99800000 7.47880000 0.33630000
-4.01400000 7.48560000 0.28030000
-4.18660000 7.21200000 0.32870000
-3.36460000 5.49630000 -0.29370000
-3.28390000 5.23930000 -0.31340000
-2.62740000 5.17020000 -0.32500000
-3.40890000 5.01060000 -0.32610000
-2.28910000 9.75690000 -0.00680000
-2.20920000 9.85130000 -0.02800000
-2.25260000 9.76650000 -0.03640000
-2.02130000 10.05300000 -0.02900000
-2.01840000 10.04520000 -0.05670000
-2.05760000 10.02060000 -0.04670000
2.51480000 6.27400000 0.52930000
2.42470000 6.34120000 0.52910000
2.45700000 5.83680000 0.53830000
2.39260000 6.41850000 0.53010000
2.17720000 6.23030000 0.55230000
2.14540000 6.02990000 0.55600000
-5.06250000 -7.49050000 -0.53170000
-4.51460000 -8.26280000 0.18590000
-3.46650000 6.33260000 0.52940000
-3.56690000 6.68150000 0.52250000
-3.32310000 6.91990000 0.52910000
-2.13960000 9.79280000 -0.09950000
-2.03260000 9.93290000 -0.12170000
-1.99080000 9.79910000 -0.16220000
-2.08450000 9.92880000 -0.09580000
3.02670000 6.68150000 -0.20700000
3.02100000 6.69160000 -0.15880000
3.05270000 6.73050000 -0.15560000
3.13660000 6.85310000 -0.17840000
3.14480000 6.90660000 -0.13170000
3.15450000 6.90590000 -0.16810000
1.52160000 3.65220000 -0.28530000
1.57190000 3.80810000 -0.29470000
1.62920000 3.53720000 -0.27460000
1.39400000 3.24070000 -0.27880000
1.18490000 3.14750000 -0.30650000
1.14190000 3.34130000 -0.30950000
-3.81700000 7.66060000 0.41760000
-3.92880000 7.46320000 0.42730000
-3.76960000 7.64470000 0.44510000
-3.63160000 7.35190000 0.48780000
-3.62710000 7.17200000 0.50060000
-3.52330000 7.19890000 0.50380000
-2.26230000 7.51700000 -0.23890000
-2.51020000 7.64290000 -0.24400000
-2.35760000 7.81400000 -0.24810000
-2.13060000 5.95630000 -0.28330000
-2.29630000 6.27190000 -0.26360000
-2.04600000 6.14410000 -0.28700000
6.04270000 -3.00280000 -0.13200000
6.03700000 -3.02420000 0.00240000
6.00980000 -3.09970000 -0.00290000
5.99330000 -3.11280000 0.16490000
6.01210000 -3.03620000 0.17090000
-1.85400000 10.08140000 0.03350000
-1.82240000 10.07620000 0.00610000
-1.80470000 10.03870000 -0.06540000
-1.81110000 10.06350000 -0.03180000
-1.72010000 10.03170000 0.01680000
-6.18400000 -2.67430000 -0.35440000
-6.17200000 -2.67200000 -0.22080000
-6.16700000 -2.51640000 -0.33960000
-6.22660000 -3.49270000 -0.40440000
-6.20930000 -3.64760000 -0.30980000
-6.20790000 -3.34170000 -0.30640000
1.59000000 4.60950000 -0.28390000
1.74650000 4.34130000 -0.27640000
1.52780000 4.48070000 -0.29400000
1.39320000 4.23150000 -0.29790000
1.22190000 4.19070000 -0.27330000
1.21840000 4.45480000 -0.27450000
5.76510000 -2.19960000 0.52630000
5.76420000 -2.42970000 0.55070000
5.80700000 -2.35480000 0.52440000
5.95120000 -3.10040000 0.48970000
5.92530000 -3.27870000 0.53290000
5.96440000 -3.29500000 0.49410000
-0.38590000 9.52800000 0.52280000
-0.01010000 9.82940000 0.39280000
-0.13680000 9.77310000 0.43020000
-1.72950000 10.04580000 0.06190000
-1.20140000 10.06300000 -0.00050000
-1.36680000 10.03220000 0.01290000
-1.31920000 10.05730000 0.05380000
-4.00270000 7.27950000 -0.17970000
-3.84160000 7.45710000 -0.19760000
-3.85170000 7.31160000 -0.19360000
-4.37570000 4.36400000 -0.31830000
-4.17190000 4.52770000 -0.32620000
-4.23650000 4.26880000 -0.32440000
-3.89010000 3.98480000 -0.31390000
-3.74260000 4.15830000 -0.32310000
-3.65270000 3.92230000 -0.29870000
-0.12520000 9.25410000 -0.11470000
-0.09470000 9.24270000 -0.07180000
-0.13010000 9.24780000 -0.07320000
-0.15720000 9.26760000 -0.15520000
0.71180000 5.39150000 -0.26470000
0.49360000 5.31690000 -0.25380000
0.09390000 4.98570000 -0.25870000
0.15160000 5.30250000 -0.25880000
0.39580000 5.03580000 -0.24920000
-1.50810000 7.62450000 -0.23460000
-1.67450000 7.42780000 -0.25060000
-1.71950000 7.17740000 -0.23020000
-1.78530000 6.90300000 0.51010000
-1.84030000 7.17190000 0.54170000
-2.06540000 7.31790000 0.55010000
-2.26790000 7.37210000 0.54280000
-2.10130000 7.24740000 0.55710000
-0.26940000 9.22210000 -0.12730000
-0.27070000 9.23550000 -0.16880000
-0.34810000 9.13380000 -0.14350000
-0.33580000 9.18110000 -0.18180000
-0.32810000 9.16940000 -0.13800000
-3.23990000 4.19310000 -0.32230000
-3.19210000 3.89390000 -0.31080000
-3.53060000 3.89590000 -0.29570000
-3.57460000 3.50000000 -0.30400000
-3.55150000 3.73100000 -0.29410000
-3.33340000 3.53590000 -0.31740000
-2.11880000 9.94040000 0.07880000
-2.14880000 9.93200000 0.05770000
-2.24260000 9.83660000 0.07890000
-2.20120000 9.62030000 0.16390000
-2.28970000 9.57730000 0.15260000
-2.25690000 9.54840000 0.15900000
-1.80920000 6.82360000 -0.25130000
-1.91050000 6.96860000 -0.24980000
-1.63030000 6.89810000 -0.21740000
-2.47410000 7.07590000 -0.25560000
-2.31930000 7.32200000 -0.24310000
-2.20340000 7.02940000 -0.26750000
1.98040000 9.49170000 0.33800000
1.88990000 9.54310000 0.33400000
1.92970000 9.39230000 0.39800000
1.98200000 9.72310000 0.24350000
2.04710000 9.68450000 0.24390000
0.37460000 4.90160000 -0.25260000
0.47870000 4.66290000 -0.27470000
0.10740000 4.70530000 -0.27090000
0.80090000 4.81260000 -0.27280000
0.58620000 4.99750000 -0.25020000
-4.41800000 3.97540000 -0.33150000
-4.58360000 3.74950000 -0.34750000
-4.45530000 3.34600000 -0.35250000
-4.25600000 3.55490000 -0.32700000
-4.28800000 3.29560000 -0.33790000
-6.17720000 -4.58110000 -0.42950000
-6.16860000 -4.50000000 -0.47470000
-6.15090000 -4.61790000 -0.48210000
-6.15490000 -4.49570000 -0.11370000
-6.15140000 0.63180000 -0.22140000
-6.17340000 0.34140000 -0.29070000
-6.19930000 0.34340000 -0.24110000
-6.21440000 0.27530000 -0.12610000
-6.19200000 0.18930000 0.07280000
4.24820000 5.00180000 0.47270000
4.04680000 5.09540000 0.49330000
4.23380000 4.79040000 0.48810000
3.41830000 4.58880000 0.55080000
3.39180000 4.45870000 0.55950000
3.89860000 4.20930000 0.54660000
-1.86990000 9.38580000 0.46280000
-1.81360000 9.54390000 0.45800000
-1.95500000 9.94350000 0.17470000
-1.89480000 9.89890000 0.25880000
0.00780000 8.91050000 -0.11400000
0.02490000 8.97560000 0.03670000
0.00270000 8.93970000 0.23390000
0.01770000 8.96680000 0.30070000
-1.56050000 5.10950000 -0.30250000
-1.47210000 5.33720000 -0.30870000
-1.39800000 5.18630000 -0.31020000
-1.32690000 4.64630000 -0.30480000
-1.19400000 4.64090000 -0.30200000
-1.27840000 4.40010000 -0.26560000
1.40300000 3.93490000 -0.28890000
1.00520000 3.53670000 -0.31020000
1.09780000 3.74150000 -0.27820000
1.18890000 3.56380000 -0.29320000
-0.95360000 4.09540000 0.50630000
-1.04490000 3.95240000 0.50230000
-0.67350000 4.06580000 0.51570000
-1.29020000 4.22170000 0.49740000
-1.45730000 4.08900000 0.51770000
-1.37750000 3.98180000 0.51160000
-6.22700000 -3.72150000 -0.41980000
-6.19510000 -4.30340000 -0.35260000
-6.18450000 -4.20400000 -0.24690000
-6.21490000 -4.00110000 -0.38740000
-1.75160000 9.72260000 0.43550000
-1.76460000 9.79120000 0.40850000
-1.78440000 9.74940000 0.42080000
-1.44620000 9.74320000 0.38150000
-1.58770000 9.82160000 0.38480000
-1.60270000 9.78140000 0.40950000
-6.12100000 -0.34810000 0.29510000
-6.15470000 -0.31980000 0.24190000
-5.96240000 0.77380000 0.35620000
-6.02390000 0.50080000 0.36160000
-4.47920000 2.82750000 -0.34780000
-4.46590000 3.12230000 -0.35380000
-4.27030000 3.13220000 -0.33810000
-4.15890000 2.69310000 -0.33310000
5.73490000 -1.72480000 0.49150000
5.81390000 -1.71810000 0.45190000
5.75780000 -1.65310000 0.47830000
5.80160000 -1.26350000 0.48490000
5.85050000 -1.45140000 0.45340000
5.80980000 -1.04630000 0.50740000
1.78820000 4.80610000 0.55240000
1.78410000 4.02800000 0.51950000
1.82340000 3.86960000 0.50340000
-2.23000000 9.37200000 -0.19440000
-2.04540000 9.59150000 -0.18410000
-2.02500000 9.54320000 -0.19120000
-2.12620000 9.64190000 -0.14840000
-2.08840000 9.61380000 -0.16970000
-2.23090000 9.45040000 -0.17800000
4.59870000 -7.66330000 0.50910000
4.06560000 -8.19010000 0.51920000
-2.47880000 6.93620000 -0.25720000
-2.28150000 6.67700000 -0.26430000
-2.42680000 6.53320000 -0.25500000
-2.52520000 6.53670000 -0.25370000
-2.65380000 6.89100000 -0.25860000
-0.33250000 7.32850000 0.45990000
-0.45310000 7.10350000 0.45610000
0.29360000 7.60760000 0.48530000
0.36510000 7.77500000 0.52120000
0.12360000 7.68640000 0.48060000
2.57700000 3.85280000 0.52480000
2.38850000 4.06640000 0.55240000
2.25100000 3.82230000 0.53110000
2.42540000 3.62080000 0.52470000
2.43020000 3.43570000 0.53580000
2.59360000 3.54710000 0.52010000
-3.30590000 3.73430000 -0.30770000
-3.02480000 3.28220000 -0.30820000
-2.85520000 3.33210000 -0.31050000
-2.90190000 3.12820000 -0.29780000
5.13690000 3.69520000 -0.16210000
5.17280000 3.79290000 -0.10170000
5.28090000 3.62520000 -0.04910000
5.19860000 3.87320000 -0.05140000
5.20410000 3.94560000 -0.01610000
-4.04160000 5.28280000 -0.14720000
-3.99610000 5.27960000 -0.16370000
-4.00030000 5.23850000 -0.21920000
-3.88040000 5.28680000 -0.20010000
-3.85100000 5.29200000 -0.20910000
-3.83440000 5.24100000 -0.25630000
4.45010000 4.84240000 0.46110000
4.38210000 4.97000000 0.45830000
4.68700000 5.03410000 0.44750000
4.56880000 4.90380000 0.45110000
4.60570000 4.78130000 0.45010000
3.16160000 7.01860000 -0.11530000
3.16850000 7.05730000 -0.14140000
3.17020000 7.01770000 -0.14750000
3.15350000 6.94220000 -0.12630000
3.16300000 6.94150000 -0.16100000
5.12680000 -6.84520000 -0.47890000
5.20140000 -6.74150000 -0.41910000
5.10070000 -6.93320000 -0.43160000
4.52990000 -7.76010000 -0.48390000
4.60290000 -7.61420000 -0.51890000
4.62640000 -7.64320000 -0.47790000
-3.86080000 5.32050000 -0.13780000
-3.62520000 5.35700000 -0.26790000
5.26650000 3.06900000 0.44430000
5.30650000 2.60050000 0.47710000
5.36090000 2.57810000 0.45540000
5.42170000 2.00030000 0.45690000
3.11860000 8.47790000 0.23010000
3.22380000 8.39400000 0.20080000
3.07620000 8.59040000 0.21080000
2.69450000 8.68280000 0.34450000
2.84010000 8.61330000 0.32080000
2.73980000 8.80700000 0.30630000
-2.90520000 1.54080000 -0.39500000
-2.17560000 2.69630000 -0.36730000
-2.04050000 2.42270000 -0.36090000
-2.17600000 2.49160000 -0.36190000
2.97530000 7.35740000 -0.07430000
3.01850000 7.34210000 -0.11160000
5.85550000 -2.79920000 0.54050000
5.85460000 -2.70560000 0.53540000
5.79710000 -2.71240000 0.55410000
5.77050000 -3.64230000 0.55610000
4.80840000 -7.35060000 -0.50860000
4.89130000 -7.23420000 -0.50350000
4.88730000 -7.28850000 -0.45670000
4.14710000 -7.94100000 -0.55490000
4.72990000 -7.28140000 -0.54200000
4.46420000 -7.69600000 -0.54080000
-3.80270000 7.80120000 -0.15370000
-3.78770000 7.73230000 -0.18340000
-3.85010000 7.71650000 -0.14760000
-3.90960000 7.67800000 0.12600000
-3.95730000 7.59820000 0.06940000
-3.95980000 7.59240000 0.15420000
0.43320000 7.09670000 0.44440000
0.71920000 7.23680000 0.44760000
0.30380000 7.24870000 0.44840000
1.43750000 6.68030000 0.54580000
1.36460000 6.82850000 0.51930000
1.21030000 6.70440000 0.49040000
-6.18300000 -1.80580000 -0.29100000
-6.14500000 -1.84950000 -0.34300000
-6.16270000 -1.85780000 -0.29060000
-6.18360000 -2.65240000 -0.40660000
-6.15950000 -2.45110000 -0.39180000
-6.15150000 -2.57100000 -0.44640000
2.91650000 7.35800000 0.32920000
2.93690000 7.33200000 0.29400000
2.89030000 7.30980000 0.29220000
-3.83250000 7.81770000 0.19840000
-3.86450000 7.76180000 0.11740000
-3.88860000 7.70740000 0.20580000
-3.81870000 7.80120000 0.31600000
-3.81760000 7.83540000 0.25610000
-3.89420000 7.68120000 0.26700000
5.92170000 -4.13930000 -0.48230000
5.88770000 -4.01790000 -0.49540000
5.84170000 -4.79090000 -0.47280000
5.87540000 -4.71750000 -0.41830000
5.83030000 -4.92960000 -0.42540000
-4.84260000 6.07390000 -0.03560000
-4.81030000 6.12890000 -0.08870000
-4.85680000 6.02220000 -0.09370000
-4.85840000 5.99010000 -0.13440000
-4.84250000 5.98800000 -0.17090000
-4.86460000 5.92570000 -0.17490000
3.07530000 6.69960000 0.45190000
3.05250000 6.64240000 0.49720000
3.00970000 6.49370000 0.53110000
4.97230000 -7.11000000 -0.49670000
5.03980000 -7.04180000 -0.43940000
4.95910000 -7.17750000 -0.44980000
4.92540000 -7.25600000 -0.33500000
5.01960000 -7.10580000 -0.04680000
4.94430000 -7.22610000 -0.09610000
1.62790000 9.84530000 0.16830000
1.68820000 9.73650000 0.04990000
1.69600000 9.77920000 0.08820000
1.79350000 9.75440000 0.10020000
6.23130000 -2.47490000 -0.22870000
6.21770000 -2.71210000 -0.19560000
6.26100000 -2.66000000 -0.13130000
6.23040000 -2.73150000 -0.13630000
0.76430000 2.75470000 -0.28760000
0.75400000 3.08640000 -0.29770000
0.95570000 3.03100000 -0.31470000
1.01830000 3.40690000 -0.31650000
1.08100000 3.16150000 -0.31580000
5.72990000 -5.43300000 -0.03060000
5.79350000 -5.19700000 0.23850000
5.62460000 -5.65970000 -0.45970000
5.56490000 -5.83640000 -0.47540000
2.89820000 6.44120000 -0.27910000
2.92670000 6.50900000 -0.26780000
3.05070000 6.53370000 -0.27750000
2.72700000 6.46150000 -0.24430000
2.81640000 6.49690000 -0.24290000
2.76880000 6.43640000 -0.26530000
-5.90630000 2.29180000 -0.07410000
-5.91590000 2.24890000 0.02530000
-5.99550000 1.83890000 -0.06220000
-5.99940000 1.78670000 -0.01100000
-3.48520000 -9.05600000 -0.48260000
-3.53360000 -8.99780000 -0.52590000
-3.45340000 -9.04330000 -0.53190000
-3.88820000 -8.80600000 -0.26660000
-4.00480000 -8.70670000 -0.31060000
-6.21390000 -3.58710000 -0.45890000
-6.11640000 -4.54520000 -0.50730000
6.21370000 -2.62180000 -0.24380000
6.24660000 -2.64240000 -0.19130000
6.15810000 -2.75890000 -0.25760000
6.10820000 -2.74300000 -0.28570000
6.13790000 -2.67250000 -0.28130000
0.18210000 10.07370000 0.14580000
0.18940000 10.05690000 0.10140000
0.08070000 10.03630000 0.07020000
2.59920000 6.49570000 -0.19630000
2.62280000 6.49670000 -0.19040000
2.62620000 6.47200000 -0.22250000
2.79140000 6.51700000 -0.20880000
4.79810000 -7.47880000 0.43780000
4.82830000 -7.38120000 0.49130000
4.75360000 -7.50330000 0.48420000
5.02520000 -7.12040000 0.27550000
5.10060000 -6.98850000 0.28440000
6.07060000 -2.81730000 -0.28780000
6.11380000 -2.82780000 -0.25790000
6.06790000 -2.90260000 -0.25720000
6.00170000 -3.23900000 -0.35700000
5.99750000 -3.12160000 -0.33910000
2.55920000 3.49550000 -0.31350000
2.68190000 3.61780000 -0.29920000
2.65620000 3.37100000 -0.31370000
2.10050000 3.00740000 -0.29800000
2.18940000 3.20430000 -0.31940000
2.35800000 3.15480000 -0.32170000
-2.89150000 -9.39680000 -0.48270000
-2.95320000 -9.38160000 -0.42230000
-3.03690000 -9.32740000 -0.46990000
-2.29600000 -9.57560000 -0.55400000
-5.41930000 1.30110000 -0.32590000
-5.42700000 1.63870000 -0.32070000
-5.23110000 1.57320000 -0.33120000
-5.20550000 1.98020000 -0.30100000
-5.27510000 1.68900000 -0.32310000
2.54280000 6.59470000 -0.09450000
2.52830000 6.56450000 -0.17070000
2.49930000 6.57000000 -0.20350000
2.58400000 6.69610000 -0.02670000
2.58050000 6.69480000 -0.10990000
2.64510000 6.77450000 -0.09760000
-0.16700000 8.60560000 -0.23380000
-0.07830000 8.63090000 -0.23440000
0.01140000 8.57670000 -0.23590000
0.07680000 8.66560000 -0.23440000
2.61950000 8.67070000 0.37060000
2.54560000 8.87450000 0.34600000
2.37510000 8.85070000 0.41810000
2.43550000 8.68680000 0.43160000
-2.29360000 2.17870000 -0.36440000
-2.21630000 1.96050000 -0.38770000
-2.38740000 1.94830000 -0.38350000
-2.77650000 2.06200000 -0.32990000
-2.50840000 2.06890000 -0.36150000
-2.80420000 1.85130000 -0.36430000
1.53970000 4.84150000 0.55780000
1.39730000 4.57430000 0.53730000
1.64530000 4.56470000 0.54790000
1.31480000 4.95410000 0.53620000
1.06950000 4.87170000 0.48870000
1.27320000 4.79130000 0.52930000
6.00700000 -2.72810000 -0.34070000
6.02620000 -2.80910000 -0.32010000
5.98970000 -2.80100000 -0.35970000
6.00140000 -2.88310000 -0.33520000
6.03470000 -2.89270000 -0.29530000
-2.31040000 -9.71450000 0.03700000
-1.82220000 -9.90170000 0.20620000
-1.48360000 -10.01060000 0.36650000
-1.34340000 -10.03770000 0.24160000
-1.28600000 -10.05310000 0.35220000
-2.45390000 9.00510000 0.33860000
-2.16820000 9.59250000 0.18500000
-4.28300000 5.22800000 0.43500000
-4.30000000 5.27990000 0.41800000
-4.35100000 5.05400000 0.46420000
-4.12420000 5.10690000 0.48270000
-3.73080000 1.88230000 -0.32030000
-3.69560000 1.97800000 -0.32180000
-3.55880000 1.92100000 -0.33040000
-4.12210000 2.09630000 -0.37320000
-3.94100000 2.19460000 -0.36120000
-3.98680000 1.94910000 -0.33220000
-5.26610000 -7.21950000 -0.50610000
-5.30090000 -7.20210000 -0.44720000
-5.31240000 -7.14950000 -0.49820000
-5.42820000 -6.98210000 -0.41540000
-5.34100000 -7.14860000 -0.37640000
-5.43610000 -6.98000000 0.19520000
6.03010000 -2.97910000 -0.26240000
6.04230000 -2.98940000 -0.21430000
-3.12820000 2.13390000 -0.30590000
-3.23450000 2.19280000 -0.31260000
-2.94060000 2.20660000 -0.31340000
-2.68870000 2.16920000 -0.32650000
-4.66800000 5.94930000 0.40430000
-4.80870000 5.51460000 0.36110000
-4.83880000 5.51460000 0.33150000
-4.85710000 5.33070000 0.29870000
1.61010000 4.23350000 0.53330000
1.45830000 4.04410000 0.52940000
1.35720000 4.28680000 0.53360000
1.29370000 3.95620000 0.53660000
2.96130000 1.40980000 -0.38870000
2.88320000 1.65220000 -0.36590000
0.61920000 1.77280000 -0.40350000
1.56390000 1.88950000 -0.39150000
1.48550000 1.40120000 -0.41080000
-4.34970000 1.94080000 0.55120000
-4.23090000 1.91500000 0.54960000
-4.28390000 2.04960000 0.55200000
-4.60640000 1.90450000 0.54330000
-4.56560000 2.18000000 0.53040000
-3.47740000 2.14000000 -0.32530000
-3.24850000 2.10220000 -0.30690000
-3.46870000 2.06480000 -0.32410000
-3.24180000 1.71870000 -0.35990000
-3.16090000 1.90150000 -0.32300000
-3.13040000 1.76690000 -0.35440000
-4.46360000 5.26350000 0.43000000
-4.41580000 5.29320000 0.42580000
-4.38290000 5.61780000 0.40860000
5.78380000 1.55570000 0.11950000
5.70510000 2.02570000 0.13160000
5.69220000 2.02740000 0.18410000
5.77640000 1.21090000 0.27600000
5.85030000 0.58570000 0.34260000
5.85010000 0.77590000 0.28970000
-0.36630000 8.88630000 0.49080000
-0.38940000 8.91220000 0.49050000
-0.32590000 8.81850000 0.53580000
-0.34060000 8.86530000 0.49050000
-0.35820000 8.83180000 0.53750000
-3.95850000 6.58530000 -0.19370000
-4.03010000 6.75050000 -0.19660000
-4.05130000 6.91910000 -0.19180000
-3.89580000 7.15010000 -0.19430000
-4.79900000 5.98380000 0.30550000
-4.77300000 5.97460000 0.33670000
-4.82790000 6.05500000 0.19410000
-4.78000000 6.16590000 0.19740000
-4.81060000 6.12580000 0.13740000
-1.43820000 4.53580000 -0.29820000
-1.38420000 4.41360000 -0.27480000
-1.67190000 5.28920000 -0.30740000
-0.70690000 -10.12240000 0.39290000
-0.69840000 -10.11910000 0.24460000
-0.49740000 -10.13220000 0.38890000
-1.14010000 -10.07870000 0.33560000
-1.06280000 -10.08470000 0.22020000
-0.02180000 8.89100000 0.51200000
-0.05100000 8.86610000 0.51540000
-0.03610000 8.83850000 0.54680000
-0.08210000 8.84470000 0.51880000
-0.11550000 8.82830000 0.52200000
3.16830000 7.05580000 0.01030000
3.18910000 6.99760000 0.11940000
3.18690000 7.03700000 0.13860000
3.20820000 7.05470000 0.32410000
3.25060000 7.00200000 0.35750000
3.23440000 7.05820000 0.35120000
-0.42930000 9.02220000 0.47630000
-0.42270000 9.07370000 0.46970000
-0.42190000 8.97850000 0.48340000
-0.03460000 9.30740000 -0.19650000
0.15310000 9.18250000 -0.20090000
0.11710000 9.27850000 -0.19110000
0.23680000 9.15350000 -0.20380000
-4.49660000 6.25740000 0.40370000
-4.51560000 5.90760000 0.44110000
-4.53060000 6.42780000 0.35990000
-4.54910000 6.45770000 0.33470000
-4.62820000 6.24130000 0.36430000
-5.14960000 -0.48970000 0.54670000
-4.94280000 -0.21630000 0.54950000
-5.23790000 -0.33320000 0.52390000
-4.57390000 -1.36860000 0.57310000
0.03690000 9.06730000 0.40690000
6.00870000 -1.91770000 0.00530000
6.00270000 -1.90910000 -0.04780000
5.98360000 -1.88940000 -0.15070000
5.94740000 -1.83010000 -0.19540000
5.98010000 -1.79000000 -0.14800000
0.20210000 9.08930000 -0.21120000
0.37370000 8.97100000 -0.20830000
0.38750000 9.04800000 -0.19830000
0.54280000 9.08160000 -0.16320000
3.29580000 6.98920000 0.38550000
3.33220000 7.01960000 0.39190000
3.30160000 7.08350000 0.38130000
0.12340000 3.59580000 0.53810000
0.02410000 3.10010000 0.52900000
-0.42920000 3.43230000 0.54550000
-3.67150000 6.08220000 0.42830000
-3.78210000 6.40340000 0.37910000
-3.76880000 6.41960000 0.41700000
-3.79820000 6.45590000 0.41820000
-4.20600000 1.63390000 -0.34920000
-4.20200000 1.72890000 -0.35060000
-3.99300000 1.85460000 -0.32520000
-3.93640000 1.74310000 -0.32640000
-3.97620000 1.56260000 -0.35060000
5.93710000 -2.85610000 -0.46720000
5.63190000 -2.73610000 -0.46880000
5.87370000 -2.93080000 -0.48690000
5.85830000 -3.03360000 -0.49410000
0.92680000 2.49390000 0.52120000
0.71790000 2.28350000 0.55920000
-0.67480000 2.03500000 0.57410000
-0.21300000 2.19260000 0.56720000
0.04570000 9.10600000 0.50250000
0.06700000 9.02560000 0.53790000
0.04700000 9.02820000 0.50280000
0.03920000 8.99010000 0.50390000
-4.76260000 6.22820000 0.13700000
-4.72180000 6.28410000 0.19680000
-4.64380000 6.45580000 0.14030000
-4.65720000 6.25370000 0.33830000
-1.22170000 6.19170000 0.54010000
-1.40170000 6.42760000 0.54140000
-1.44030000 6.20520000 0.55650000
-1.62510000 6.31520000 0.55060000
-3.39600000 8.83830000 -0.05820000
-3.45380000 8.75370000 -0.06150000
-3.45710000 8.75260000 -0.00110000
-3.31280000 8.91570000 -0.10690000
-3.33180000 8.92200000 -0.05190000
-1.91350000 1.84040000 0.57800000
-2.83050000 0.90930000 0.58120000
-1.37470000 1.47320000 0.58800000
-0.94120000 1.95670000 0.57700000
2.56290000 6.51870000 0.49110000
2.57820000 6.55070000 0.45270000
2.72410000 6.51630000 0.44260000
-0.03180000 9.24160000 0.50200000
0.03600000 9.14410000 0.50280000
-3.20210000 9.06280000 0.08670000
-2.98720000 9.23250000 0.12580000
-0.25040000 8.82950000 0.48570000
-0.28250000 8.83680000 0.48740000
-0.29280000 8.80900000 0.53420000
-0.15070000 8.81570000 0.52550000
-0.14880000 8.83290000 0.47830000
-0.18300000 8.82780000 0.48100000
5.58750000 -2.89310000 -0.47310000
2.64950000 6.50210000 0.27160000
2.65850000 6.50170000 0.46460000
2.63840000 6.49780000 0.47420000
2.64070000 6.46870000 0.49810000
5.94890000 -2.78450000 0.39570000
5.93390000 -2.78540000 0.45530000
5.93940000 -2.92990000 0.47730000
6.05090000 -2.54770000 0.33940000
5.97510000 -2.50740000 0.36830000
5.96550000 -2.61780000 0.36750000
-4.28630000 5.14040000 -0.24710000
-4.11890000 5.07610000 -0.27730000
-4.34580000 5.09170000 -0.25290000
-4.28700000 5.36870000 -0.17630000
3.69450000 5.41090000 0.51170000
3.52650000 5.67890000 0.53340000
3.51320000 5.14890000 0.51340000
3.89200000 4.86110000 0.51100000
3.80050000 5.14270000 0.50520000
3.61130000 4.97390000 0.50770000
0.67610000 -10.00500000 -0.01860000
0.46580000 -10.03610000 -0.05350000
0.47050000 -10.06840000 0.42690000
-0.06430000 -10.11950000 0.37910000
0.35510000 -10.07040000 0.16650000
1.00030000 9.39040000 0.45860000
1.13270000 9.40550000 0.44770000
1.14640000 9.34570000 0.46770000
1.38620000 9.35880000 0.44860000
-4.27340000 5.58900000 -0.09670000
-4.25940000 5.69100000 -0.07180000
5.08960000 -6.98520000 0.47530000
5.02130000 -7.02770000 0.50920000
5.02640000 -7.10780000 0.46700000
5.20700000 -6.73200000 0.48980000
5.19710000 -6.62590000 0.52000000
5.13160000 -6.78480000 0.51650000
2.00560000 -9.62520000 0.48760000
1.95650000 -9.67860000 0.44500000
2.66590000 -9.36750000 0.45690000
5.84570000 -1.93750000 -0.31050000
5.87810000 -1.87660000 -0.27180000
5.89800000 -2.00110000 -0.27300000
5.78440000 -1.87290000 -0.34590000
5.77380000 -1.70700000 -0.33190000
3.30950000 6.44560000 0.53470000
3.76050000 6.46840000 0.47900000
3.48330000 6.48340000 0.52010000
3.65350000 6.27060000 0.50880000
-5.74560000 0.01500000 -0.37650000
-5.45640000 -0.12770000 -0.40010000
-5.48420000 -0.41670000 -0.41370000
-6.13730000 0.28180000 -0.33190000
-6.07560000 0.35920000 -0.34650000
-6.09680000 0.12760000 -0.36190000
-4.31970000 -8.36230000 -0.53810000
-4.27400000 -8.44140000 -0.49860000
-4.40130000 -8.33100000 -0.48140000
-4.70590000 -7.99910000 -0.48790000
-4.81150000 -7.88020000 -0.47200000
-4.74740000 -7.90820000 -0.52770000
1.82800000 -9.61680000 -0.57050000
1.89540000 -9.64280000 -0.54110000
1.70590000 -9.70670000 -0.54190000
1.73440000 -9.73580000 -0.22140000
1.86270000 -9.69350000 -0.25490000
-1.61800000 1.95080000 -0.39220000
-0.96450000 2.08380000 -0.39210000
0.00210000 2.42930000 -0.35970000
0.23870000 2.56300000 -0.31160000
0.19830000 2.33590000 -0.37100000
2.70440000 5.19500000 0.54780000
2.49110000 5.01010000 0.54800000
2.02500000 5.53770000 0.53520000
1.97240000 5.96490000 0.56030000
1.84310000 5.85200000 0.56390000
6.24040000 -2.68980000 0.22190000
6.26090000 -2.60260000 0.22600000
6.21840000 -2.59470000 0.27890000
6.23100000 -2.37950000 0.26690000
6.20240000 -2.30810000 0.27640000
6.15260000 -2.33100000 0.31830000
-1.88750000 10.07710000 -0.05970000
-1.84740000 10.07260000 -0.04750000
-1.84090000 10.05040000 -0.07970000
-1.91720000 9.90350000 -0.15890000
-1.95340000 9.86950000 -0.16060000
-1.95130000 9.94910000 -0.14380000
-0.06550000 9.26510000 0.50090000
6.18310000 -2.22410000 0.22260000
6.13520000 -2.16560000 0.22760000
6.11740000 -2.17620000 0.28680000
6.22620000 -2.29600000 0.21660000
-3.85120000 7.76340000 -0.09620000
-3.66070000 8.23600000 -0.14070000
1.75920000 -9.71900000 -0.49440000
1.61610000 -9.76350000 -0.49340000
1.30010000 -9.84290000 -0.48540000
1.04770000 -9.89300000 -0.47640000
1.09910000 -9.85500000 -0.52720000
2.65120000 1.82230000 0.51900000
2.38900000 2.01500000 0.50790000
2.42330000 1.75630000 0.54900000
2.99310000 1.40610000 0.54750000
2.82780000 1.57680000 0.54150000
2.70990000 1.46830000 0.55610000
1.41240000 7.33010000 -0.21430000
1.80250000 7.40580000 -0.21520000
-4.76030000 1.62420000 0.53310000
-4.99860000 1.71140000 0.49360000
-4.91960000 1.40490000 0.50300000
-4.43990000 1.00950000 0.49120000
-4.62140000 1.23450000 0.52450000
-4.68760000 1.02180000 0.49460000
4.78790000 4.62960000 -0.21880000
4.68160000 4.96570000 -0.19900000
4.83860000 4.61990000 -0.19800000
4.98020000 3.88740000 -0.23050000
4.98720000 4.03260000 -0.21590000
5.04030000 3.85300000 -0.20310000
5.76580000 1.61270000 -0.04530000
5.70410000 2.00320000 -0.02950000
5.71480000 1.99340000 0.02300000
5.78700000 1.55430000 0.05970000
5.71470000 2.00420000 0.07560000
-6.15820000 -4.57800000 -0.25960000
-6.17200000 -4.40760000 -0.25000000
-6.18350000 -4.48760000 -0.36660000
-6.13720000 -4.75440000 -0.26630000
-6.15470000 -4.74840000 -0.38610000
-6.10840000 -4.94040000 -0.28230000
2.99080000 7.41360000 -0.18830000
2.99690000 7.46380000 -0.18540000
3.04180000 7.40050000 -0.18240000
0.16770000 -10.02140000 -0.45980000
-0.05330000 -10.01390000 -0.50670000
0.21220000 -9.99390000 -0.51280000
0.80410000 -9.90990000 -0.52090000
-1.96480000 9.87790000 0.21220000
-2.06410000 9.89720000 0.13740000
-2.03380000 9.95050000 0.12290000
-2.14360000 9.85290000 0.12560000
-5.35000000 2.43680000 0.49520000
-5.33190000 2.73240000 0.49270000
-5.16910000 2.31580000 0.50600000
4.62760000 5.26300000 -0.16070000
4.33410000 5.73900000 -0.17740000
4.21570000 6.09680000 -0.13150000
4.39970000 5.70010000 -0.16400000
-3.66460000 6.38220000 -0.22370000
-3.68120000 6.31670000 -0.21430000
-3.59760000 6.23760000 -0.24120000
-3.64490000 6.22090000 -0.22800000
-2.02030000 10.05440000 -0.00070000
-2.05820000 10.02730000 -0.01950000
-2.06930000 10.01700000 0.01190000
-2.04820000 10.00440000 0.06600000
-2.02100000 10.04530000 0.02950000
-2.08430000 9.99260000 0.04440000
-4.07230000 6.55200000 0.40940000
-4.11170000 6.51360000 0.39830000
-3.98070000 6.64480000 0.44340000
-3.94320000 6.70970000 0.46130000
-4.12130000 6.70320000 0.43050000
-2.26480000 9.05600000 0.41610000
-2.23020000 9.28990000 0.30720000
-2.12720000 9.45800000 0.29960000
-2.19810000 9.47490000 0.21660000
1.74860000 -8.63110000 -0.58290000
2.32910000 -8.86740000 -0.57750000
1.77360000 -8.93010000 -0.58070000
3.85250000 -7.65860000 -0.55070000
4.19250000 -6.62290000 -0.54450000
-3.68100000 5.50580000 0.16290000
-3.66620000 5.50820000 -0.06340000
-3.68100000 5.48060000 -0.05180000
-3.62680000 5.46070000 -0.21920000
-3.65860000 5.49150000 -0.14350000
-3.37870000 -9.15640000 0.50980000
-3.46940000 -9.11690000 0.46790000
-3.32910000 -9.20890000 0.45070000
-2.81780000 -9.48140000 0.50230000
-2.88170000 -9.46610000 0.45790000
-3.12370000 8.76150000 0.41330000
-3.15210000 8.80970000 0.38750000
-3.21140000 8.72760000 0.39550000
-3.36140000 8.66700000 0.33660000
-3.42230000 8.55910000 0.34210000
-4.41480000 3.32460000 0.50490000
-4.27470000 3.79770000 0.53290000
-5.52430000 1.52240000 -0.31010000
-5.73010000 0.95400000 -0.34110000
5.97660000 -3.64280000 0.48910000
5.93490000 -3.48900000 0.53210000
5.93770000 -3.80200000 0.52580000
5.99350000 -3.80790000 0.31440000
6.00360000 -3.68470000 0.12650000
5.99600000 -3.69450000 0.31700000
1.01270000 6.00290000 -0.24980000
0.93040000 6.18680000 -0.22990000
1.10540000 6.04990000 -0.25500000
1.17920000 5.70400000 -0.27340000
1.25380000 6.05780000 -0.26680000
1.68380000 5.44810000 -0.30060000
-6.07890000 -1.75500000 0.45320000
-6.13600000 -1.70560000 0.41890000
-6.12540000 -1.77100000 0.42140000
-6.05190000 -2.12290000 0.46350000
-6.05520000 -2.21100000 0.46040000
1.40820000 6.01410000 -0.27080000
1.72090000 5.92390000 -0.27940000
2.51990000 4.55410000 -0.30250000
6.04660000 -2.46140000 0.34620000
6.12520000 -2.47520000 0.32960000
6.21230000 -2.52440000 0.29330000
6.25000000 -2.45240000 0.25460000
6.19640000 -2.46040000 0.30440000
-1.92430000 8.01790000 0.47140000
-1.73680000 7.97300000 0.48660000
-1.90750000 8.15490000 0.47330000
-2.13600000 8.26820000 0.49350000
-1.06620000 6.43880000 -0.24220000
-1.21550000 6.54480000 -0.25060000
-1.09480000 6.68430000 -0.24000000
-1.50000000 6.48420000 -0.26180000
-1.15930000 6.35590000 -0.25120000
-1.53790000 6.24450000 -0.27010000
3.56650000 -8.53600000 -0.56590000
3.15420000 -8.90550000 -0.56060000
2.92400000 -8.98080000 -0.57150000
3.75530000 -8.46560000 -0.55280000
3.79360000 -8.49820000 -0.52820000
-4.16130000 2.86060000 0.48710000
-3.95500000 3.12220000 0.51380000
-4.18880000 3.08310000 0.49070000
-4.19590000 2.50210000 0.50220000
2.31040000 6.09600000 -0.29900000
2.28010000 5.94900000 -0.29770000
2.50430000 5.70740000 -0.28750000
2.26340000 5.58570000 -0.27610000
-2.07120000 -9.75050000 0.52870000
-1.95690000 -9.74130000 0.53990000
-1.52520000 -9.94220000 0.51280000
-1.70570000 -9.88740000 0.51830000
-1.68470000 -9.93660000 0.48220000
-2.15490000 -9.61590000 -0.55760000
-2.21080000 -9.54460000 -0.57560000
-1.62060000 -9.69180000 -0.57960000
-1.84260000 -9.69760000 -0.56320000
-4.54550000 2.19190000 -0.36090000
-4.39420000 2.08790000 -0.38030000
-4.63190000 1.99100000 -0.34840000
-4.24820000 1.87320000 -0.36830000
-1.19250000 8.43590000 0.50820000
-1.07430000 8.15410000 0.52680000
-3.93440000 7.36310000 0.45650000
-4.09280000 7.13180000 0.44030000
3.89110000 -8.49050000 -0.30710000
3.90540000 -8.47580000 -0.03620000
3.79660000 -8.57180000 -0.07350000
4.11770000 -8.27380000 -0.07740000
4.25240000 -8.13240000 -0.32750000
4.25900000 -8.12550000 -0.06650000
5.99660000 -2.96710000 0.27360000
6.02220000 -2.96360000 0.22850000
6.05790000 -2.89160000 0.24220000
6.00610000 -2.83350000 0.31920000
5.97090000 -2.84010000 0.35830000
1.89730000 5.65820000 -0.28940000
2.13520000 5.40880000 -0.27960000
1.82880000 5.29850000 -0.30250000
2.04690000 5.75840000 -0.28750000
3.86680000 6.91600000 -0.05770000
3.89670000 6.68550000 -0.12750000
3.74190000 6.80700000 -0.13790000
3.79150000 6.83890000 -0.11740000
4.12950000 -8.26180000 -0.33660000
3.74180000 -8.60930000 -0.43770000
-2.44940000 9.01030000 -0.19410000
-2.32200000 9.25620000 -0.19490000
-2.29820000 9.20340000 -0.20220000
-2.64890000 8.48680000 -0.20510000
-2.53890000 8.69250000 -0.19930000
-1.72680000 8.68380000 0.52570000
-1.63760000 8.79330000 0.52510000
-1.91120000 8.76640000 0.54250000
-1.52570000 8.41500000 0.51160000
-1.39670000 8.64800000 0.51840000
-1.56070000 8.61480000 0.51820000
3.05640000 6.72070000 -0.05240000
3.01510000 6.68090000 -0.09900000
3.04310000 6.67580000 0.05700000
2.94580000 6.59500000 0.04410000
2.99040000 6.62850000 0.04830000
2.93150000 6.60820000 -0.10740000
4.23490000 -8.08730000 -0.50290000
4.21340000 -8.15010000 -0.45770000
4.18230000 -8.20000000 -0.40700000
4.11000000 -8.25580000 -0.46640000
-1.64770000 10.02850000 0.08390000
-1.60750000 10.02410000 0.08600000
-1.60560000 10.01050000 0.03930000
-1.46640000 10.02290000 0.12470000
-2.39910000 8.98530000 -0.19680000
-2.24340000 9.19290000 -0.20300000
-2.32940000 8.98290000 -0.19230000
-2.23590000 9.01040000 -0.17750000
4.04420000 6.52840000 -0.10780000
4.24060000 6.22150000 -0.07350000
4.18120000 6.26230000 -0.10320000
3.69920000 6.36650000 -0.21080000
3.93070000 6.45400000 -0.15940000
4.04610000 6.08530000 -0.17800000
-3.89530000 -8.78190000 0.52410000
-3.97930000 -8.74840000 0.48700000
-3.84740000 -8.85530000 0.46540000
-4.13480000 -8.63300000 0.38900000
-0.18740000 9.25250000 0.29340000
-0.23160000 9.29150000 0.49690000
-0.23020000 9.27120000 0.45340000
3.14670000 6.72290000 0.47110000
3.16880000 6.83480000 0.19570000
3.13750000 6.78680000 0.15990000
3.14110000 6.78380000 0.22960000
2.86670000 7.29690000 0.16490000
2.87560000 7.28510000 0.25020000
2.92110000 7.34710000 0.16570000
2.96030000 7.34690000 0.16740000
2.94790000 7.32640000 0.25130000
-4.28040000 5.63550000 -0.12470000
-4.21000000 5.96580000 -0.10900000
-4.22660000 5.89750000 -0.08140000
-4.23240000 5.89670000 -0.11640000
2.56070000 6.43200000 -0.24910000
2.60110000 6.46890000 -0.22520000
2.53560000 6.53090000 -0.18870000
2.50060000 6.50280000 -0.22250000
2.50950000 6.53420000 -0.20540000
-5.82620000 2.00850000 -0.25080000
-5.79680000 2.22480000 -0.23740000
-5.75190000 2.17690000 -0.25560000
-5.74340000 1.83670000 -0.27230000
-5.67660000 1.96910000 -0.27420000
-5.69730000 1.73760000 -0.27380000
-3.20430000 4.80340000 0.56420000
-2.83370000 4.53550000 0.56430000
-3.14820000 4.20200000 0.54970000
-3.10360000 3.75100000 0.50520000
-2.75800000 4.10750000 0.54820000
-4.59610000 6.49870000 0.23450000
-4.70020000 6.27010000 0.27190000
-4.57320000 6.50910000 0.27070000
-4.44700000 6.85620000 0.19830000
-4.56430000 6.59870000 0.18340000
-4.52380000 6.64690000 0.23590000
2.42890000 6.55500000 -0.23720000
2.43080000 6.59290000 -0.23660000
2.47450000 6.57870000 -0.21740000
2.33330000 6.56410000 -0.26100000
5.04730000 3.52180000 -0.24130000
5.07750000 3.58930000 -0.22270000
5.17160000 3.28960000 -0.24050000
4.93420000 3.87140000 -0.24570000
5.02860000 3.73690000 -0.22300000
5.00260000 3.65710000 -0.23920000
3.23320000 6.88360000 0.37910000
3.19820000 6.82260000 0.39850000
3.15020000 6.76920000 0.42240000
3.22150000 6.80020000 0.43660000
-4.25250000 7.15630000 0.27340000
-4.42170000 6.87220000 0.25350000
2.54040000 6.66540000 -0.17820000
2.49700000 6.60760000 -0.20590000
2.48650000 6.65010000 -0.22070000
2.52520000 6.59920000 -0.16970000
-1.95450000 9.99670000 -0.12750000
-1.92000000 10.02950000 -0.11650000
-1.91570000 9.99730000 -0.13310000
-2.05210000 10.00800000 -0.07120000
-2.01210000 10.03090000 -0.08180000
-2.00340000 10.01210000 -0.10250000
-3.66220000 8.30050000 -0.09160000
-3.54650000 8.57450000 -0.11680000
-3.48130000 8.61700000 -0.16570000
-3.51660000 8.55940000 -0.16540000
-3.82530000 5.31360000 0.47730000
-3.97150000 5.22320000 0.47570000
0.36130000 6.43980000 0.47860000
0.09700000 6.53580000 0.47450000
0.17910000 6.25820000 0.50770000
0.63670000 5.50050000 0.50600000
0.43550000 5.86830000 0.51880000
0.35620000 5.49780000 0.51620000
2.54060000 6.61060000 0.02690000
2.54270000 6.55490000 -0.14110000
2.54980000 6.64140000 0.03560000
2.54760000 6.63190000 -0.06200000
-1.81360000 9.92270000 -0.12840000
-1.75590000 9.87240000 -0.10920000
-1.87820000 10.02730000 -0.11370000
-1.84110000 9.98120000 -0.12420000
-1.87700000 9.99230000 -0.13160000
-1.30180000 2.99110000 0.49210000
-2.01620000 2.64980000 0.52230000
-5.89830000 1.83880000 -0.23930000
-5.86700000 2.05560000 -0.22340000
-5.90270000 2.07730000 -0.18660000
-5.87020000 2.27320000 -0.16940000
-5.84480000 2.20130000 -0.21290000
-1.72250000 -9.81570000 -0.49490000
-1.88900000 -9.77120000 -0.48940000
-1.90090000 -9.73400000 -0.53360000
-1.90990000 -9.79240000 -0.41010000
-1.70290000 -9.84310000 -0.44510000
-1.70440000 -9.85950000 -0.39040000
-3.65460000 5.48530000 0.48450000
-3.62450000 5.46220000 0.50790000
-3.76700000 5.23480000 0.50840000
-3.83540000 5.22210000 0.49950000
