0.70430000 0.91980000 0.58310000
0.64510000 0.92070000 0.64320000
0.58100000 0.92160000 0.69790000
0.51200000 0.92250000 0.74620000
0.51750000 1.02050000 0.75510000
0.63920000 0.82240000 0.63900000
0.57530000 0.82300000 0.69240000
0.50770000 0.82350000 0.74070000
0.43480000 0.82410000 0.78050000
0.43750000 0.92350000 0.78540000
0.57100000 0.72400000 0.68880000
0.50390000 0.72430000 0.73640000
0.43240000 0.72450000 0.77710000
0.35700000 0.72490000 0.80980000
0.35810000 0.82470000 0.81200000
0.49990000 0.62500000 0.73200000
0.42930000 0.62500000 0.77280000
0.35470000 0.62510000 0.80540000
0.27690000 0.62510000 0.82950000
0.27850000 0.72500000 0.83410000
0.42560000 0.52550000 0.76730000
0.35170000 0.52540000 0.79970000
0.27470000 0.52530000 0.82370000
0.19580000 0.52500000 0.84050000
0.19740000 0.62490000 0.84680000
0.34910000 0.42560000 0.79560000
0.27270000 0.42530000 0.81940000
0.19420000 0.42490000 0.83500000
0.11470000 0.42450000 0.84220000
0.11580000 0.52460000 0.84950000
0.27110000 0.32520000 0.81820000
0.19290000 0.32470000 0.83310000
0.11340000 0.32410000 0.83790000
0.03390000 0.32340000 0.83520000
0.03480000 0.42390000 0.84070000
0.19150000 0.22450000 0.83310000
0.11190000 0.22370000 0.83600000
0.03250000 0.22280000 0.83260000
-0.04640000 0.22180000 0.82320000
-0.04530000 0.32250000 0.82740000
0.11010000 0.12340000 0.83670000
0.03060000 0.12230000 0.83210000
-0.04830000 0.12120000 0.82260000
-0.12630000 0.11990000 0.80810000
-0.12450000 0.22060000 0.80980000
0.02810000 0.02190000 0.83400000
-0.05110000 0.02070000 0.82470000
-0.12930000 0.01930000 0.81010000
-0.20640000 0.01790000 0.79090000
-0.20330000 0.11850000 0.78930000
-0.05460000 -0.08000000 0.82910000
-0.13320000 -0.08130000 0.81510000
-0.21090000 -0.08260000 0.79680000
-0.28720000 -0.08410000 0.77360000
-0.28260000 0.01640000 0.76880000
-0.13830000 -0.18190000 0.82450000
-0.21680000 -0.18310000 0.80660000
-0.29400000 -0.18450000 0.78350000
-0.36970000 -0.18600000 0.75610000
-0.36210000 -0.08560000 0.74660000
-0.22400000 -0.28360000 0.81940000
-0.30240000 -0.28510000 0.79630000
-0.37940000 -0.28670000 0.76880000
-0.45440000 -0.28840000 0.73680000
-0.44370000 -0.18760000 0.72440000
-0.31220000 -0.38570000 0.81130000
-0.39020000 -0.38760000 0.78290000
-0.46590000 -0.38970000 0.74940000
-0.53810000 -0.39190000 0.70910000
-0.52640000 -0.29030000 0.69870000
-0.40140000 -0.48900000 0.79660000
-0.47770000 -0.49130000 0.76140000
-0.55000000 -0.49390000 0.71900000
-0.61860000 -0.49630000 0.67110000
-0.60660000 -0.39390000 0.66290000
-0.48870000 -0.59430000 0.77160000
-0.56140000 -0.59690000 0.72790000
-0.62960000 -0.59970000 0.67810000
-0.69350000 -0.60250000 0.62310000
-0.68380000 -0.49830000 0.61920000
-0.57010000 -0.70090000 0.73230000
-0.63770000 -0.70360000 0.68060000
-0.70030000 -0.70690000 0.62350000
-0.75830000 -0.71000000 0.56250000
-0.75190000 -0.60510000 0.56310000
-0.64300000 -0.80720000 0.67890000
-0.70630000 -0.81030000 0.62230000
-0.76480000 -0.81370000 0.56140000
-0.81750000 -0.81710000 0.49630000
-0.81050000 -0.71270000 0.49740000
-0.71200000 -0.91130000 0.62000000
-0.77160000 -0.91480000 0.55990000
-0.82530000 -0.91870000 0.49540000
-0.87450000 -0.92200000 0.42810000
-0.86400000 -0.81990000 0.42760000
-0.78030000 -1.00900000 0.56010000
-0.83490000 -1.01300000 0.49620000
-0.88540000 -1.01590000 0.42950000
-0.93080000 -1.01750000 0.35980000
-0.91770000 -0.92380000 0.35760000
-0.84470000 -1.09640000 0.49780000
-0.89430000 -1.09800000 0.43100000
-0.93830000 -1.09810000 0.36030000
-0.97310000 -1.10040000 0.28410000
-0.96560000 -1.01880000 0.28440000
-0.90060000 -1.15860000 0.43220000
-0.94330000 -1.16020000 0.36050000
-0.97800000 -1.16040000 0.28360000
-1.00640000 -1.15940000 0.20510000
-1.00090000 -1.10180000 0.20580000
-0.94780000 -1.20140000 0.36130000
-0.98240000 -1.19970000 0.28370000
-1.01070000 -1.19760000 0.20480000
-1.03260000 -1.19590000 0.12640000
-1.02870000 -1.15760000 0.12660000
-0.98710000 -1.23450000 0.28430000
-1.01490000 -1.23150000 0.20480000
-1.03600000 -1.23000000 0.12600000
-1.05040000 -1.23150000 0.04510000
-1.04710000 -1.19780000 0.04550000
-1.02060000 -1.26220000 0.20550000
-1.04120000 -1.26040000 0.12620000
-1.05660000 -1.26060000 0.04520000
-1.06440000 -1.26250000 -0.03830000
-1.05820000 -1.23300000 -0.03800000
-1.05780000 -1.28020000 0.12950000
-1.07500000 -1.27880000 0.04750000
-1.08280000 -1.28030000 -0.03740000
-1.08700000 -1.28040000 -0.12180000
-1.06640000 -1.26360000 -0.12110000
-1.10340000 -1.28470000 0.05150000
-1.11210000 -1.28560000 -0.03530000
-1.11690000 -1.28540000 -0.12210000
-1.11560000 -1.28490000 -0.20940000
-1.08510000 -1.27960000 -0.20690000
-1.14350000 -1.28830000 -0.03310000
-1.14850000 -1.28800000 -0.12220000
-1.14770000 -1.28780000 -0.21220000
-1.13670000 -1.28840000 -0.30370000
-1.10430000 -1.28590000 -0.29750000
-1.17990000 -1.29010000 -0.12260000
-1.18040000 -1.28990000 -0.21550000
-1.17000000 -1.29040000 -0.31040000
-1.15030000 -1.29130000 -0.40420000
-1.11780000 -1.28950000 -0.39470000
-1.21420000 -1.29170000 -0.21950000
-1.20350000 -1.29180000 -0.31700000
-1.18310000 -1.29250000 -0.41380000
-1.15710000 -1.29380000 -0.50910000
-1.12430000 -1.29270000 -0.49680000
-1.23710000 -1.29280000 -0.32370000
-1.21610000 -1.29320000 -0.42300000
-1.19070000 -1.29430000 -0.52110000
-1.16080000 -1.29620000 -0.61780000
-1.12520000 -1.29580000 -0.60240000
-1.24850000 -1.29340000 -0.43200000
-1.22350000 -1.29430000 -0.53220000
-1.19560000 -1.29580000 -0.63240000
-1.16280000 -1.29680000 -0.73310000
-1.12540000 -1.29750000 -0.71420000
-1.25530000 -1.29370000 -0.54240000
-1.22720000 -1.29490000 -0.64420000
-1.19330000 -1.29560000 -0.74680000
-1.15010000 -1.29460000 -0.84700000
-1.11820000 -1.29610000 -0.82950000
-1.25750000 -1.29350000 -0.65490000
-1.22210000 -1.29400000 -0.75910000
-1.17710000 -1.29280000 -0.86130000
-1.11750000 -1.29070000 -0.95720000
-1.09110000 -1.29280000 -0.93970000
-1.25010000 -1.29170000 -0.77070000
-1.20310000 -1.29050000 -0.87450000
-1.14210000 -1.28840000 -0.97300000
-1.06710000 -1.28640000 -1.06570000
-1.04120000 -1.28920000 -1.04410000
-1.22860000 -1.28640000 -0.88700000
-1.16640000 -1.28470000 -0.98850000
-1.09180000 -1.28220000 -1.08700000
-1.00530000 -1.28000000 -1.17490000
-0.98090000 -1.28550000 -1.14870000
-1.18780000 -1.27400000 -1.00230000
-1.11380000 -1.27160000 -1.10550000
-1.02690000 -1.26770000 -1.19780000
-0.93430000 -1.26820000 -1.27940000
-0.91350000 -1.28080000 -1.25300000
-1.12770000 -1.24690000 -1.11740000
-1.04010000 -1.24030000 -1.21190000
-0.94580000 -1.23830000 -1.29430000
-0.84720000 -1.24070000 -1.36890000
-0.83610000 -1.26900000 -1.35190000
-1.04650000 -1.20370000 -1.21860000
-0.95200000 -1.20040000 -1.30250000
-0.85220000 -1.20330000 -1.37680000
-0.74600000 -1.20430000 -1.44180000
-0.74170000 -1.24170000 -1.43450000
-0.95620000 -1.15580000 -1.30790000
-0.85550000 -1.15770000 -1.38190000
-0.74870000 -1.15900000 -1.44610000
-0.63740000 -1.15780000 -1.50220000
-0.63480000 -1.20440000 -1.49670000
-0.85710000 -1.09960000 -1.38500000
-0.75040000 -1.10020000 -1.44910000
-0.63900000 -1.09750000 -1.50580000
-0.52100000 -1.09690000 -1.55360000
-0.51940000 -1.15730000 -1.55050000
-0.74990000 -1.01420000 -1.45050000
-0.63950000 -1.01100000 -1.50730000
-0.52240000 -1.01050000 -1.55310000
-0.39910000 -1.01640000 -1.58400000
-0.39730000 -1.10410000 -1.58690000
-0.63970000 -0.90820000 -1.50900000
-0.52440000 -0.90840000 -1.55280000
-0.40170000 -0.91350000 -1.58070000
-0.27420000 -0.92070000 -1.60080000
-0.27180000 -1.02390000 -1.60440000
-0.52630000 -0.79810000 -1.55370000
-0.40420000 -0.80410000 -1.57860000
-0.27700000 -0.81140000 -1.59960000
-0.14720000 -0.81510000 -1.61950000
-0.14420000 -0.92400000 -1.61950000
-0.40560000 -0.69210000 -1.57770000
-0.27960000 -0.70020000 -1.60020000
-0.15110000 -0.70450000 -1.62170000
-0.02000000 -0.70650000 -1.62850000
-0.01480000 -0.81690000 -1.62440000
-0.28200000 -0.58910000 -1.60240000
-0.15570000 -0.59390000 -1.62340000
-0.02700000 -0.59640000 -1.63080000
0.10280000 -0.59880000 -1.62850000
0.11140000 -0.70840000 -1.62540000
-0.16120000 -0.48480000 -1.62340000
-0.03460000 -0.48840000 -1.63070000
0.09400000 -0.49280000 -1.62740000
0.22310000 -0.49730000 -1.61200000
0.23210000 -0.60170000 -1.61460000
-0.04040000 -0.38490000 -1.62430000
0.08760000 -0.39150000 -1.62150000
0.21670000 -0.39710000 -1.60740000
0.34590000 -0.40120000 -1.57980000
0.35090000 -0.50040000 -1.58070000
0.08370000 -0.29340000 -1.61560000
0.21240000 -0.30050000 -1.60490000
0.34280000 -0.30580000 -1.58120000
0.47140000 -0.30800000 -1.53090000
0.47270000 -0.40260000 -1.53000000
0.20830000 -0.20570000 -1.60500000
0.33770000 -0.21340000 -1.57890000
0.47050000 -0.21770000 -1.53310000
0.60240000 -0.21660000 -1.46780000
0.60040000 -0.30660000 -1.47010000
0.32990000 -0.12230000 -1.57640000
0.46510000 -0.13030000 -1.53260000
0.60250000 -0.12970000 -1.46630000
0.73030000 -0.12420000 -1.39510000
0.72890000 -0.21260000 -1.39890000
0.45240000 -0.03820000 -1.53240000
0.58480000 -0.03930000 -1.46970000
0.71580000 -0.03360000 -1.39840000
0.82690000 -0.02480000 -1.32810000
0.84510000 -0.11950000 -1.32070000
0.55750000 0.05420000 -1.48290000
0.67580000 0.06070000 -1.41660000
0.78660000 0.07400000 -1.34970000
0.88860000 0.09180000 -1.28000000
0.92350000 -0.01160000 -1.25690000
0.64460000 0.15510000 -1.44480000
0.75230000 0.16990000 -1.37910000
0.86020000 0.19040000 -1.31040000
0.95700000 0.20630000 -1.23240000
0.98100000 0.10940000 -1.20560000
0.73060000 0.26060000 -1.41330000
0.84210000 0.28150000 -1.34380000
0.94630000 0.29780000 -1.26300000
1.03400000 0.31200000 -1.16570000
1.04550000 0.22150000 -1.14150000
0.83540000 0.37410000 -1.35630000
0.93950000 0.38800000 -1.28060000
1.03250000 0.40020000 -1.18870000
1.11980000 0.41400000 -1.08820000
1.11890000 0.32700000 -1.06430000
0.93890000 0.48240000 -1.28200000
1.03110000 0.49170000 -1.19640000
1.12020000 0.50260000 -1.10270000
1.19380000 0.51580000 -0.99040000
1.19550000 0.42920000 -0.97570000
1.03080000 0.58720000 -1.19460000
1.11660000 0.59520000 -1.10280000
1.19110000 0.60440000 -0.99630000
1.25140000 0.61400000 -0.87240000
1.25730000 0.52700000 -0.86620000
1.11550000 0.69000000 -1.09850000
1.18920000 0.69550000 -0.99490000
1.24850000 0.70180000 -0.87480000
1.32290000 0.70580000 -0.75900000
1.32360000 0.61780000 -0.75340000
1.19490000 0.78820000 -0.99280000
1.25370000 0.79160000 -0.87700000
1.32620000 0.79480000 -0.76450000
1.38940000 0.79900000 -0.64960000
1.38490000 0.70790000 -0.64110000
1.27070000 0.88280000 -0.88220000
1.33500000 0.88500000 -0.77120000
1.39090000 0.89090000 -0.65630000
1.43510000 0.89890000 -0.53950000
1.43400000 0.80490000 -0.53210000
1.34220000 0.97680000 -0.77520000
1.39140000 0.98230000 -0.66030000
1.43380000 0.99050000 -0.54330000
1.46630000 1.00110000 -0.42390000
1.46980000 0.90970000 -0.42240000
1.39180000 1.06840000 -0.66020000
1.43300000 1.07570000 -0.54350000
1.46160000 1.08510000 -0.42220000
1.47240000 1.09780000 -0.29810000
1.47840000 1.01320000 -0.30040000
1.42840000 1.14790000 -0.53960000
1.45510000 1.15600000 -0.41840000
1.46580000 1.16660000 -0.29490000
1.45430000 1.17380000 -0.17320000
1.46090000 1.11010000 -0.17510000
1.44540000 1.20900000 -0.41350000
1.45670000 1.21570000 -0.29160000
1.44890000 1.22080000 -0.17080000
1.44350000 1.22050000 -0.05300000
1.44780000 1.17720000 -0.05340000
1.44400000 1.25400000 -0.28810000
1.44150000 1.25690000 -0.16800000
1.43710000 1.25560000 -0.05130000
1.43120000 1.25620000 0.06690000
1.44050000 1.22390000 0.06650000
1.42850000 1.28550000 -0.16550000
1.42550000 1.28310000 -0.04880000
1.41700000 1.28230000 0.06730000
1.38940000 1.28520000 0.17970000
1.40380000 1.26140000 0.18150000
1.40260000 1.29650000 -0.04740000
1.39240000 1.29430000 0.06590000
1.36520000 1.29380000 0.17550000
1.32890000 1.29440000 0.28540000
1.35170000 1.28740000 0.29100000
1.36350000 1.29720000 0.06360000
1.33800000 1.29580000 0.17060000
1.30470000 1.29590000 0.27930000
1.27170000 1.29690000 0.39060000
1.29500000 1.29460000 0.39770000
1.31070000 1.29670000 0.16590000
1.28020000 1.29660000 0.27310000
1.24800000 1.29780000 0.38320000
1.20720000 1.29970000 0.49370000
1.23080000 1.29870000 0.50210000
1.25480000 1.29710000 0.26660000
1.22350000 1.29840000 0.37570000
1.18290000 1.30020000 0.48500000
1.12970000 1.30190000 0.59320000
1.15370000 1.30130000 0.60340000
1.19780000 1.29870000 0.36800000
1.15810000 1.30060000 0.47600000
1.10460000 1.30240000 0.58220000
1.04950000 1.30340000 0.68890000
1.07180000 1.30280000 0.70120000
1.13100000 1.30100000 0.46600000
1.07730000 1.30270000 0.56990000
1.02430000 1.30390000 0.67470000
0.95870000 1.30450000 0.77230000
0.98220000 1.30390000 0.78960000
1.04580000 1.30300000 0.55530000
0.98810000 1.30430000 0.65340000
0.92270000 1.30530000 0.74520000
0.84740000 1.30690000 0.83080000
0.88200000 1.30580000 0.86310000
0.94790000 1.30470000 0.62890000
0.87980000 1.30600000 0.71270000
0.80570000 1.30790000 0.79200000
0.72440000 1.31050000 0.86700000
0.76090000 1.30940000 0.90830000
0.84930000 1.30630000 0.68840000
0.77550000 1.30840000 0.76330000
0.69800000 1.31100000 0.83680000
0.61650000 1.31410000 0.90830000
0.63790000 1.31350000 0.93900000
0.75240000 1.30860000 0.74110000
0.67770000 1.31130000 0.81300000
0.59940000 1.31430000 0.88340000
0.51470000 1.31750000 0.94720000
0.52940000 1.31720000 0.97390000
0.65930000 1.31130000 0.79190000
0.58310000 1.31440000 0.85980000
0.50140000 1.31760000 0.92140000
0.41330000 1.32070000 0.97380000
0.42340000 1.32050000 1.00150000
0.56750000 1.31400000 0.83680000
0.48810000 1.31740000 0.89610000
0.40240000 1.32040000 0.94670000
0.31350000 1.32320000 0.98460000
0.32130000 1.32350000 1.01350000
0.47530000 1.31350000 0.87210000
0.39180000 1.31640000 0.92000000
0.30570000 1.31910000 0.95620000
0.22110000 1.32250000 0.97980000
0.22640000 1.32600000 1.00970000
0.38420000 1.29620000 0.89960000
0.30000000 1.29890000 0.93500000
0.21720000 1.30290000 0.95770000
0.13390000 1.30770000 0.97300000
0.13700000 1.32580000 0.99630000
0.29670000 1.26750000 0.92040000
0.21480000 1.27170000 0.94420000
0.13190000 1.27750000 0.95860000
0.04680000 1.28130000 0.96730000
0.04850000 1.31130000 0.98320000
0.21260000 1.23670000 0.93200000
0.12980000 1.24120000 0.94610000
0.04510000 1.24370000 0.95370000
-0.04140000 1.24600000 0.95700000
-0.04080000 1.28390000 0.97180000
0.12790000 1.19240000 0.93550000
0.04350000 1.19250000 0.94330000
-0.04190000 1.19350000 0.94480000
-0.12740000 1.19530000 0.94270000
-0.12720000 1.24830000 0.95620000
0.04190000 1.11550000 0.93200000
-0.04290000 1.11510000 0.93210000
-0.12780000 1.11460000 0.92720000
-0.21260000 1.11380000 0.91580000
-0.21260000 1.19700000 0.93370000
-0.04380000 1.02090000 0.91060000
-0.12770000 1.02000000 0.90490000
-0.21110000 1.01910000 0.89220000
-0.29360000 1.01810000 0.87190000
-0.29640000 1.11350000 0.89600000
-0.12740000 0.92210000 0.88490000
-0.20960000 0.92100000 0.87240000
-0.29070000 0.91970000 0.85160000
-0.37060000 0.91780000 0.82580000
-0.37440000 1.01660000 0.84440000
-0.20950000 0.82090000 0.86250000
-0.29010000 0.81930000 0.84210000
-0.36970000 0.81740000 0.81700000
-0.44700000 0.81500000 0.78470000
-0.44790000 0.91560000 0.79190000
-0.28880000 0.71890000 0.83180000
-0.36830000 0.71670000 0.80810000
-0.44570000 0.71430000 0.77760000
-0.51890000 0.71190000 0.73730000
-0.51980000 0.81240000 0.74230000
-0.36310000 0.61720000 0.78970000
-0.43920000 0.61480000 0.75960000
-0.51200000 0.61230000 0.72200000
-0.58020000 0.60990000 0.67630000
-0.58790000 0.70940000 0.68970000
-0.43160000 0.51550000 0.73990000
-0.50280000 0.51320000 0.70280000
-0.57060000 0.51080000 0.65950000
-0.63370000 0.50840000 0.60980000
-0.64360000 0.60740000 0.62410000
-0.49610000 0.41340000 0.68760000
-0.56310000 0.41120000 0.64540000
-0.62550000 0.40900000 0.59690000
-0.68380000 0.40670000 0.54380000
-0.69280000 0.50580000 0.55540000
-0.55890000 0.31100000 0.63570000
-0.62140000 0.30900000 0.58850000
-0.67990000 0.30690000 0.53670000
-0.73320000 0.30500000 0.47960000
-0.73720000 0.40440000 0.48590000
-0.62130000 0.20880000 0.58460000
-0.68050000 0.20690000 0.53380000
-0.73430000 0.20510000 0.47750000
-0.78320000 0.20350000 0.41700000
-0.78070000 0.30320000 0.41800000
-0.68430000 0.10690000 0.53420000
-0.73860000 0.10530000 0.47810000
-0.78720000 0.10380000 0.41710000
-0.82830000 0.10260000 0.35090000
-0.82410000 0.20220000 0.35110000
-0.74410000 0.00560000 0.47970000
-0.79140000 0.00430000 0.41730000
-0.83250000 0.00320000 0.35080000
-0.86660000 0.00240000 0.28050000
-0.86250000 0.10170000 0.28110000
-0.79740000 -0.09510000 0.41860000
-0.83820000 -0.09590000 0.35140000
-0.87110000 -0.09650000 0.28000000
-0.89960000 -0.09660000 0.20670000
-0.89460000 0.00210000 0.20770000
-0.84530000 -0.19530000 0.35240000
-0.87750000 -0.19580000 0.27990000
-0.90490000 -0.19620000 0.20560000
-0.92800000 -0.19630000 0.12990000
-0.92150000 -0.09650000 0.13130000
-0.88430000 -0.29710000 0.27980000
-0.91080000 -0.29770000 0.20460000
-0.93460000 -0.29820000 0.12860000
-0.95400000 -0.29810000 0.05150000
-0.94600000 -0.19610000 0.05310000
-0.91890000 -0.40140000 0.20400000
-0.94320000 -0.40200000 0.12770000
-0.96320000 -0.40190000 0.05020000
-0.97560000 -0.40120000 -0.02900000
-0.96620000 -0.29760000 -0.02710000
-0.95240000 -0.50730000 0.12680000
-0.97260000 -0.50720000 0.04900000
-0.98530000 -0.50650000 -0.03050000
-0.99160000 -0.50490000 -0.11090000
-0.98250000 -0.39960000 -0.10900000
-0.98180000 -0.61360000 0.04780000
-0.99390000 -0.61310000 -0.03190000
-0.99800000 -0.61190000 -0.11250000
-0.99600000 -0.61060000 -0.19300000
-0.99220000 -0.50290000 -0.19150000
-1.00290000 -0.72010000 -0.03320000
-1.00550000 -0.71960000 -0.11390000
-1.00160000 -0.71900000 -0.19450000
-0.99210000 -0.71840000 -0.27430000
-0.98740000 -0.60940000 -0.27290000
-1.01850000 -0.82680000 -0.11520000
-1.01350000 -0.82670000 -0.19620000
-1.00270000 -0.82650000 -0.27650000
-0.98650000 -0.82690000 -0.35560000
-0.97630000 -0.71810000 -0.35290000
-1.02840000 -0.93050000 -0.19820000
-1.01590000 -0.93040000 -0.27910000
-0.99770000 -0.93060000 -0.35850000
-0.97280000 -0.93110000 -0.43590000
-0.96270000 -0.82810000 -0.43260000
-1.02650000 -1.02520000 -0.28130000
-1.00730000 -1.02490000 -0.36120000
-0.98060000 -1.02390000 -0.43870000
-0.94800000 -1.02240000 -0.51360000
-0.94130000 -0.93150000 -0.51080000
-1.01310000 -1.10530000 -0.36320000
-0.98620000 -1.10360000 -0.44120000
-0.95310000 -1.10030000 -0.51600000
-0.91530000 -1.09560000 -0.58840000
-0.91050000 -1.02010000 -0.58620000
-0.98990000 -1.16300000 -0.44330000
-0.95700000 -1.15680000 -0.51800000
-0.91880000 -1.15020000 -0.59020000
-0.87360000 -1.14920000 -0.65980000
-0.87060000 -1.09170000 -0.65790000
-0.96010000 -1.19870000 -0.51980000
-0.92150000 -1.19310000 -0.59190000
-0.87610000 -1.19140000 -0.66160000
-0.82520000 -1.19050000 -0.72730000
-0.82310000 -1.14820000 -0.72570000
-0.92440000 -1.23320000 -0.59400000
-0.87880000 -1.23040000 -0.66370000
-0.82750000 -1.22880000 -0.72920000
-0.77180000 -1.22940000 -0.79070000
-0.76990000 -1.19180000 -0.78900000
-0.88510000 -1.26600000 -0.66860000
-0.83280000 -1.26380000 -0.73370000
-0.77610000 -1.26390000 -0.79480000
-0.71400000 -1.26450000 -0.85070000
-0.71010000 -1.23080000 -0.84650000
-0.85250000 -1.28450000 -0.75040000
-0.79260000 -1.28480000 -0.81120000
-0.72850000 -1.28530000 -0.86780000
-0.66070000 -1.28750000 -0.92060000
-0.64740000 -1.26780000 -0.90220000
-0.81820000 -1.29070000 -0.83690000
-0.75170000 -1.29140000 -0.89480000
-0.68130000 -1.29300000 -0.94910000
-0.60800000 -1.29430000 -0.99860000
-0.58950000 -1.28920000 -0.96880000
-0.77650000 -1.29410000 -0.92400000
-0.70370000 -1.29570000 -0.97940000
-0.62750000 -1.29690000 -1.02980000
-0.54670000 -1.29720000 -1.07180000
-0.53060000 -1.29450000 -1.04030000
-0.72730000 -1.29740000 -1.01150000
-0.64820000 -1.29860000 -1.06260000
-0.56480000 -1.29900000 -1.10630000
-0.47730000 -1.29830000 -1.14220000
-0.46270000 -1.29610000 -1.10720000
-0.67170000 -1.29950000 -1.10050000
-0.58640000 -1.29990000 -1.14810000
-0.49480000 -1.29950000 -1.18430000
-0.39970000 -1.29810000 -1.21380000
-0.38570000 -1.29700000 -1.16950000
-0.61000000 -1.29950000 -1.19330000
-0.51620000 -1.29910000 -1.23520000
-0.41800000 -1.29780000 -1.26840000
-0.31740000 -1.29560000 -1.29750000
-0.30330000 -1.29600000 -1.23970000
-0.53910000 -1.29680000 -1.28820000
-0.43740000 -1.29550000 -1.32540000
-0.33270000 -1.29320000 -1.35820000
-0.22530000 -1.29080000 -1.38400000
-0.21480000 -1.29330000 -1.32250000
-0.45510000 -1.29190000 -1.37570000
-0.34680000 -1.28930000 -1.41310000
-0.23410000 -1.28730000 -1.43570000
-0.11880000 -1.28680000 -1.44660000
-0.11420000 -1.29030000 -1.39580000
-0.35770000 -1.28530000 -1.45460000
-0.24070000 -1.28370000 -1.47490000
-0.12260000 -1.28310000 -1.48550000
-0.00240000 -1.28420000 -1.48450000
-0.00200000 -1.28770000 -1.44690000
-0.24660000 -1.28000000 -1.50860000
-0.12580000 -1.27910000 -1.51830000
-0.00300000 -1.28030000 -1.51820000
0.11840000 -1.28110000 -1.51030000
0.11650000 -1.28460000 -1.47870000
-0.12840000 -1.27440000 -1.54800000
-0.00350000 -1.27580000 -1.54840000
0.12060000 -1.27700000 -1.54030000
0.24240000 -1.27740000 -1.52480000
0.23790000 -1.28130000 -1.49570000
-0.00400000 -1.26680000 -1.57630000
0.12250000 -1.26930000 -1.56820000
0.24680000 -1.26910000 -1.55080000
0.36920000 -1.27040000 -1.52860000
0.36280000 -1.27910000 -1.50330000
0.12440000 -1.25000000 -1.58980000
0.25040000 -1.24920000 -1.56980000
0.37410000 -1.24810000 -1.54460000
0.49350000 -1.25290000 -1.51050000
0.48760000 -1.27570000 -1.49560000
0.25320000 -1.22000000 -1.58270000
0.37790000 -1.21760000 -1.55530000
0.49820000 -1.22050000 -1.52020000
0.61520000 -1.22510000 -1.47490000
0.61010000 -1.25840000 -1.46510000
0.38120000 -1.17550000 -1.56420000
0.50280000 -1.17400000 -1.52760000
0.62010000 -1.17610000 -1.48200000
0.73280000 -1.17770000 -1.43080000
0.72840000 -1.22740000 -1.42520000
0.50630000 -1.11020000 -1.53190000
0.62390000 -1.10950000 -1.48500000
0.73550000 -1.11060000 -1.43120000
0.84250000 -1.10660000 -1.37350000
0.84150000 -1.17380000 -1.37420000
0.62570000 -1.02540000 -1.48790000
0.73570000 -1.02390000 -1.43000000
0.84130000 -1.02000000 -1.36930000
0.94130000 -1.01420000 -1.30370000
0.94320000 -1.10150000 -1.30830000
0.73100000 -0.92380000 -1.42760000
0.83360000 -0.91920000 -1.35880000
0.93400000 -0.91200000 -1.29020000
1.02830000 -0.90840000 -1.21560000
1.03220000 -1.01160000 -1.22770000
0.82410000 -0.81330000 -1.34760000
0.92200000 -0.80720000 -1.26830000
1.01990000 -0.80120000 -1.19270000
1.11210000 -0.79980000 -1.11590000
1.11320000 -0.90990000 -1.13260000
0.91990000 -0.69970000 -1.25680000
1.01520000 -0.69320000 -1.17230000
1.11050000 -0.68910000 -1.09580000
1.19750000 -0.69080000 -1.01880000
1.18980000 -0.80530000 -1.02930000
1.02010000 -0.58510000 -1.16310000
1.11120000 -0.57910000 -1.07860000
1.20270000 -0.57680000 -1.00560000
1.27980000 -0.57630000 -0.92650000
1.27150000 -0.69430000 -0.93520000
1.11840000 -0.47090000 -1.06820000
1.20780000 -0.46530000 -0.99220000
1.28540000 -0.46250000 -0.91300000
1.34490000 -0.46100000 -0.82110000
1.33860000 -0.57290000 -0.83610000
1.20930000 -0.35830000 -0.97480000
1.28790000 -0.35470000 -0.89570000
1.34780000 -0.35610000 -0.80720000
1.39370000 -0.35620000 -0.70690000
1.39490000 -0.45890000 -0.71870000
1.28410000 -0.24930000 -0.87700000
1.34670000 -0.24930000 -0.79970000
1.38020000 -0.25270000 -0.70410000
1.39720000 -0.26240000 -0.58940000
1.41770000 -0.36200000 -0.59200000
1.34470000 -0.13400000 -0.79860000
1.37870000 -0.14360000 -0.70790000
1.38940000 -0.16160000 -0.59130000
1.41190000 -0.17760000 -0.46590000
1.41350000 -0.27450000 -0.46580000
1.36810000 -0.03360000 -0.70120000
1.39110000 -0.06150000 -0.58930000
1.41400000 -0.08070000 -0.46710000
1.43980000 -0.09320000 -0.34170000
1.44020000 -0.19000000 -0.33770000
1.38950000 0.03970000 -0.58380000
1.41700000 0.01900000 -0.46860000
1.44020000 0.00620000 -0.34910000
1.45760000 0.00170000 -0.22810000
1.46910000 -0.09800000 -0.21600000
1.42080000 0.12220000 -0.47370000
1.44220000 0.10940000 -0.35850000
1.45530000 0.10550000 -0.24240000
1.45770000 0.10830000 -0.12750000
1.46980000 0.00380000 -0.10660000
1.44710000 0.21420000 -0.36830000
1.45970000 0.21090000 -0.25520000
1.45850000 0.21520000 -0.14330000
1.44730000 0.22570000 -0.03370000
1.44650000 0.11870000 -0.01510000
1.46680000 0.31610000 -0.26480000
1.46280000 0.32150000 -0.15450000
1.45050000 0.33200000 -0.04570000
1.43030000 0.34720000 0.06210000
1.42620000 0.24330000 0.07400000
1.46710000 0.42710000 -0.16230000
1.45400000 0.43690000 -0.05350000
1.43450000 0.44970000 0.05530000
1.40100000 0.46430000 0.16300000
1.39810000 0.36480000 0.16860000
1.45730000 0.54060000 -0.05860000
1.43810000 0.55100000 0.05150000
1.40270000 0.56300000 0.16050000
1.36140000 0.57520000 0.27030000
1.36040000 0.47880000 0.27000000
1.44010000 0.65100000 0.04940000
1.40350000 0.66020000 0.16030000
1.36110000 0.67060000 0.27250000
1.31470000 0.68240000 0.38530000
1.31450000 0.58790000 0.38010000
1.40390000 0.75630000 0.16180000
1.36130000 0.76520000 0.27540000
1.31700000 0.77640000 0.38980000
1.27780000 0.78900000 0.50770000
1.26940000 0.69500000 0.50000000
1.36330000 0.85990000 0.27880000
1.32080000 0.87080000 0.39310000
1.27900000 0.88430000 0.50850000
1.23220000 0.89780000 0.62120000
1.23350000 0.79980000 0.62220000
1.32530000 0.96560000 0.39580000
1.27600000 0.97970000 0.50650000
1.22340000 0.99450000 0.61660000
1.15710000 1.00640000 0.71900000
1.16730000 0.90880000 0.72270000
1.28280000 1.06930000 0.51070000
1.22680000 1.08300000 0.62140000
1.15850000 1.09490000 0.72630000
1.08840000 1.10060000 0.83230000
1.08910000 1.01580000 0.82270000
1.23460000 1.15170000 0.62950000
1.16560000 1.16120000 0.73790000
1.09030000 1.16410000 0.84460000
1.00620000 1.16070000 0.95210000
1.01090000 1.10140000 0.94370000
1.16910000 1.20720000 0.74520000
1.08970000 1.20780000 0.85230000
1.00190000 1.20240000 0.95780000
0.89510000 1.19850000 1.05290000
0.89990000 1.15880000 1.05100000
1.08700000 1.23990000 0.85570000
0.99750000 1.23440000 0.96020000
0.89100000 1.23020000 1.05330000
0.77930000 1.23010000 1.13900000
0.78160000 1.19830000 1.14220000
0.99280000 1.26130000 0.96000000
0.88760000 1.25820000 1.05190000
0.77690000 1.25850000 1.13490000
0.66590000 1.26400000 1.22100000
0.66640000 1.23530000 1.22550000
0.88360000 1.28310000 1.04810000
0.77340000 1.28410000 1.12970000
0.66380000 1.28920000 1.21360000
0.54850000 1.29010000 1.28350000
0.54850000 1.26450000 1.28930000
0.76540000 1.30230000 1.11870000
0.65540000 1.30490000 1.19770000
0.54200000 1.30600000 1.26750000
0.42940000 1.30910000 1.33540000
0.43570000 1.29230000 1.35100000
0.64290000 1.30910000 1.17600000
0.53130000 1.31110000 1.24500000
0.41940000 1.31350000 1.31200000
0.30720000 1.31440000 1.38370000
0.31600000 1.31040000 1.40880000
0.51970000 1.31310000 1.22150000
0.40900000 1.31540000 1.28740000
0.29900000 1.31670000 1.35740000
0.17880000 1.31790000 1.39750000
0.18040000 1.31550000 1.42450000
0.39860000 1.31690000 1.26240000
0.29170000 1.31840000 1.32970000
0.17790000 1.31970000 1.36970000
0.06940000 1.32120000 1.37010000
0.06550000 1.31860000 1.39670000
0.28400000 1.32000000 1.29910000
0.17730000 1.32120000 1.33980000
0.07230000 1.32300000 1.34140000
-0.03220000 1.32590000 1.32660000
-0.03440000 1.32410000 1.35490000
0.17480000 1.32300000 1.30050000
0.07350000 1.32470000 1.30640000
-0.03050000 1.32750000 1.29530000
-0.13430000 1.33170000 1.28790000
-0.13450000 1.32990000 1.31830000
0.07250000 1.32670000 1.26170000
-0.02950000 1.32940000 1.25720000
-0.13340000 1.33370000 1.24990000
-0.23850000 1.33860000 1.24880000
-0.24030000 1.33660000 1.28820000
-0.02980000 1.33160000 1.20730000
-0.13220000 1.33570000 1.20530000
-0.23520000 1.34060000 1.20240000
-0.33780000 1.34560000 1.18790000
-0.34500000 1.34380000 1.23910000
-0.13060000 1.33770000 1.15790000
-0.23040000 1.34240000 1.15250000
-0.32910000 1.34710000 1.13330000
-0.42820000 1.35130000 1.10020000
-0.44130000 1.35030000 1.15520000
-0.22550000 1.34350000 1.10640000
-0.32080000 1.34780000 1.08540000
-0.41640000 1.35160000 1.05340000
-0.51460000 1.35470000 1.01290000
-0.53000000 1.35460000 1.05620000
-0.31360000 1.34790000 1.04520000
-0.40650000 1.35150000 1.01600000
-0.50160000 1.35450000 0.97830000
-0.59640000 1.35650000 0.92850000
-0.61230000 1.35700000 0.96120000
-0.39740000 1.35090000 0.98300000
-0.48950000 1.35370000 0.94660000
-0.58200000 1.35560000 0.89860000
-0.67150000 1.35630000 0.84030000
-0.68910000 1.35750000 0.86970000
-0.47830000 1.35000000 0.91700000
-0.56820000 1.35220000 0.86990000
-0.65410000 1.35190000 0.81190000
-0.73910000 1.35030000 0.74860000
-0.76000000 1.35570000 0.77580000
-0.55680000 1.33530000 0.84580000
-0.63980000 1.33230000 0.78840000
-0.72070000 1.32750000 0.72520000
-0.79980000 1.32070000 0.65770000
-0.81960000 1.34570000 0.67640000
-0.63170000 1.29710000 0.77410000
-0.70940000 1.28890000 0.71170000
-0.78490000 1.28290000 0.64520000
-0.85470000 1.27910000 0.57370000
-0.87130000 1.31500000 0.58370000
-0.70020000 1.24250000 0.70140000
-0.77200000 1.23570000 0.63520000
-0.83850000 1.23230000 0.56460000
-0.89550000 1.23100000 0.48800000
-0.91280000 1.27510000 0.49530000
-0.75980000 1.17360000 0.62590000
-0.82300000 1.16830000 0.55620000
-0.87820000 1.16550000 0.48140000
-0.92040000 1.16310000 0.40000000
-0.93920000 1.22940000 0.40530000
-0.80910000 1.08590000 0.54850000
-0.86190000 1.08240000 0.47540000
-0.90050000 1.07960000 0.39540000
-0.92690000 1.07790000 0.31090000
-0.95170000 1.16090000 0.31460000
-0.84980000 0.98970000 0.47100000
-0.88700000 0.98680000 0.39280000
-0.91120000 0.98530000 0.30950000
-0.93070000 0.98350000 0.22530000
-0.94890000 1.07600000 0.22530000
-0.87930000 0.89060000 0.39100000
-0.90220000 0.88940000 0.30870000
-0.92100000 0.88780000 0.22560000
-0.93830000 0.88540000 0.14270000
-0.94830000 0.98090000 0.14130000
-0.89490000 0.79260000 0.30660000
-0.91390000 0.79120000 0.22480000
-0.93100000 0.78910000 0.14320000
-0.94560000 0.78660000 0.06170000
-0.95300000 0.88260000 0.06010000
-0.90630000 0.69430000 0.22260000
-0.92350000 0.69250000 0.14250000
-0.93780000 0.69030000 0.06230000
-0.94760000 0.68800000 -0.01820000
-0.95570000 0.78400000 -0.02000000
-0.91490000 0.59530000 0.14090000
-0.92860000 0.59360000 0.06220000
-0.93720000 0.59180000 -0.01700000
-0.94040000 0.59020000 -0.09640000
-0.95220000 0.68590000 -0.09880000
-0.91980000 0.49630000 0.06140000
-0.92810000 0.49510000 -0.01630000
-0.93050000 0.49410000 -0.09440000
-0.92860000 0.49310000 -0.17220000
-0.93940000 0.58870000 -0.17560000
-0.92330000 0.39760000 -0.01610000
-0.92580000 0.39730000 -0.09300000
-0.92250000 0.39690000 -0.16980000
-0.91240000 0.39640000 -0.24570000
-0.92010000 0.49220000 -0.24930000
-0.92590000 0.30000000 -0.09250000
-0.92270000 0.30030000 -0.16870000
-0.91150000 0.30010000 -0.24390000
-0.89280000 0.29960000 -0.31740000
-0.89560000 0.39570000 -0.32020000
-0.92990000 0.20350000 -0.16910000
-0.91970000 0.20390000 -0.24440000
-0.89820000 0.20320000 -0.31730000
-0.86930000 0.20260000 -0.38770000
-0.86660000 0.29900000 -0.38850000
-0.93120000 0.10730000 -0.24610000
-0.90790000 0.10690000 -0.31880000
-0.87490000 0.10650000 -0.38830000
-0.83880000 0.10600000 -0.45630000
-0.83480000 0.20200000 -0.45560000
-0.91780000 0.01080000 -0.32190000
-0.88370000 0.01080000 -0.39170000
-0.84720000 0.01030000 -0.46020000
-0.81030000 0.00960000 -0.52810000
-0.80220000 0.10540000 -0.52380000
-0.89420000 -0.08550000 -0.39770000
-0.85790000 -0.08600000 -0.46630000
-0.82010000 -0.08700000 -0.53400000
-0.78200000 -0.08800000 -0.60130000
-0.77310000 0.00890000 -0.59560000
-0.87310000 -0.18400000 -0.47560000
-0.83490000 -0.18490000 -0.54340000
-0.79540000 -0.18600000 -0.61030000
-0.75270000 -0.18750000 -0.67500000
-0.74260000 -0.08910000 -0.66760000
-0.85360000 -0.28470000 -0.55530000
-0.81090000 -0.28600000 -0.62090000
-0.76400000 -0.28780000 -0.68340000
-0.71070000 -0.28980000 -0.74010000
-0.70380000 -0.18940000 -0.73470000
-0.82370000 -0.38880000 -0.62980000
-0.77310000 -0.39030000 -0.69010000
-0.71670000 -0.39200000 -0.74460000
-0.65550000 -0.39360000 -0.79350000
-0.65040000 -0.29180000 -0.78920000
-0.77800000 -0.49600000 -0.69340000
-0.72140000 -0.49700000 -0.74820000
-0.66090000 -0.49790000 -0.79820000
-0.59690000 -0.49840000 -0.84380000
-0.59160000 -0.39480000 -0.83840000
-0.72860000 -0.60570000 -0.75440000
-0.66840000 -0.60570000 -0.80570000
-0.60490000 -0.60570000 -0.85290000
-0.53680000 -0.60600000 -0.89350000
-0.52930000 -0.49880000 -0.88360000
-0.67900000 -0.71620000 -0.81690000
-0.61560000 -0.71670000 -0.86600000
-0.54700000 -0.71720000 -0.90750000
-0.47470000 -0.71700000 -0.94300000
-0.46550000 -0.60640000 -0.92830000
-0.62590000 -0.82830000 -0.87800000
-0.55720000 -0.82890000 -0.92160000
-0.48400000 -0.82810000 -0.95800000
-0.40820000 -0.82730000 -0.99000000
-0.40050000 -0.71660000 -0.97490000
-0.56370000 -0.93190000 -0.92960000
-0.49020000 -0.93220000 -0.96720000
-0.41330000 -0.93200000 -0.99930000
-0.33380000 -0.93130000 -1.02610000
-0.32980000 -0.82710000 -1.01660000
-0.49310000 -1.02160000 -0.97020000
-0.41600000 -1.02240000 -1.00320000
-0.33660000 -1.02310000 -1.03170000
-0.25430000 -1.02290000 -1.05190000
-0.25200000 -0.93040000 -1.04560000
-0.41800000 -1.10030000 -1.00530000
-0.33840000 -1.09990000 -1.03370000
-0.25580000 -1.09940000 -1.05410000
-0.17120000 -1.09830000 -1.06740000
-0.17000000 -1.02070000 -1.06380000
-0.33990000 -1.16140000 -1.03460000
-0.25710000 -1.15720000 -1.05480000
-0.17220000 -1.15510000 -1.06910000
-0.08610000 -1.15430000 -1.07840000
-0.08540000 -1.09730000 -1.07470000
-0.25850000 -1.20340000 -1.05580000
-0.17320000 -1.20070000 -1.07050000
-0.08680000 -1.19920000 -1.08140000
-0.00020000 -1.20000000 -1.08520000
0.00020000 -1.15670000 -1.08200000
-0.17470000 -1.24130000 -1.07440000
-0.08780000 -1.24010000 -1.08520000
-0.00080000 -1.23900000 -1.08890000
0.08430000 -1.23790000 -1.08370000
0.08460000 -1.19990000 -1.07990000
-0.08930000 -1.27520000 -1.09440000
-0.00160000 -1.27290000 -1.09760000
0.08410000 -1.27020000 -1.09240000
0.16600000 -1.26890000 -1.07820000
0.16550000 -1.23610000 -1.06950000
-0.00120000 -1.28640000 -1.12650000
0.08650000 -1.28500000 -1.11930000
0.17060000 -1.28430000 -1.10370000
0.25450000 -1.28240000 -1.08450000
0.24800000 -1.26500000 -1.05910000
0.08990000 -1.28970000 -1.15390000
0.17690000 -1.28870000 -1.13700000
0.26310000 -1.28740000 -1.11680000
0.34940000 -1.28590000 -1.09270000
0.33840000 -1.27990000 -1.06090000
0.18320000 -1.29100000 -1.17200000
0.27210000 -1.28970000 -1.15040000
0.36070000 -1.28870000 -1.12540000
0.44670000 -1.28790000 -1.09410000
0.43270000 -1.28450000 -1.06290000
0.28230000 -1.29150000 -1.18710000
0.37360000 -1.29080000 -1.16080000
0.46280000 -1.29060000 -1.12860000
0.54900000 -1.29160000 -1.09130000
0.52990000 -1.28850000 -1.05770000
0.39110000 -1.29260000 -1.20930000
0.48550000 -1.29330000 -1.17740000
0.57420000 -1.29470000 -1.13660000
0.65770000 -1.29760000 -1.08890000
0.63050000 -1.29410000 -1.04740000
0.51110000 -1.29490000 -1.23560000
0.60390000 -1.29710000 -1.19060000
0.68990000 -1.30050000 -1.13820000
0.77030000 -1.30500000 -1.08020000
0.73640000 -1.30190000 -1.03550000
0.63410000 -1.29800000 -1.24630000
0.72350000 -1.30200000 -1.18990000
0.80620000 -1.30670000 -1.12810000
0.88490000 -1.31090000 -1.06250000
0.84550000 -1.30920000 -1.01730000
0.75270000 -1.30200000 -1.23500000
0.83870000 -1.30650000 -1.17070000
0.92040000 -1.31060000 -1.10270000
0.99630000 -1.31460000 -1.02860000
0.95830000 -1.31490000 -0.99090000
0.86290000 -1.30460000 -1.20240000
0.94690000 -1.30780000 -1.13280000
1.02510000 -1.31230000 -1.05710000
1.09680000 -1.31670000 -0.97330000
1.06500000 -1.31890000 -0.94610000
0.96990000 -1.30250000 -1.15860000
1.04910000 -1.30720000 -1.08070000
1.12320000 -1.31090000 -0.99570000
1.18780000 -1.31620000 -0.90000000
1.15850000 -1.32160000 -0.87910000
1.07120000 -1.29990000 -1.10250000
1.14700000 -1.30290000 -1.01570000
1.21430000 -1.30760000 -0.91900000
1.27250000 -1.31240000 -0.81500000
1.24370000 -1.32050000 -0.79770000
1.16550000 -1.28710000 -1.03130000
1.23470000 -1.28930000 -0.93320000
1.29500000 -1.29330000 -0.82830000
1.34640000 -1.29300000 -0.71940000
1.32300000 -1.31530000 -0.70710000
1.24630000 -1.26020000 -0.94130000
1.30730000 -1.26140000 -0.83570000
1.35960000 -1.25870000 -0.72680000
1.40330000 -1.26190000 -0.61270000
1.39020000 -1.29470000 -0.60500000
1.31550000 -1.22200000 -0.84060000
1.36840000 -1.21730000 -0.73170000
1.41200000 -1.22060000 -0.61870000
1.45010000 -1.21820000 -0.49760000
1.44210000 -1.26100000 -0.48820000
1.37390000 -1.16580000 -0.73450000
1.41580000 -1.16570000 -0.62270000
1.45010000 -1.16200000 -0.50900000
1.41330000 -1.09420000 -0.62610000
1.43940000 -1.08650000 -0.52190000
1.40870000 -1.00330000 -0.63270000
1.42670000 -1.00120000 -0.53270000
1.40240000 -0.89710000 -0.64120000
1.41400000 -0.89800000 -0.54010000
1.39830000 -0.78470000 -0.64600000
1.40530000 -0.78980000 -0.53930000
1.43230000 -0.80750000 -0.43350000
1.47860000 -0.83010000 -0.33780000
1.39960000 -0.68370000 -0.52510000
1.42850000 -0.70630000 -0.41490000
1.48150000 -0.72850000 -0.31430000
1.52640000 -0.75410000 -0.22090000
1.52070000 -0.86350000 -0.25280000
1.42700000 -0.60180000 -0.38890000
1.48390000 -0.62190000 -0.28820000
1.53040000 -0.63770000 -0.18910000
1.54100000 -0.65160000 -0.08370000
1.54210000 -0.77690000 -0.12450000
1.48570000 -0.51170000 -0.26130000
1.53030000 -0.51980000 -0.15620000
1.53730000 -0.52880000 -0.03880000
1.52450000 -0.54140000 0.08110000
1.53380000 -0.66560000 0.02470000
1.52880000 -0.40440000 -0.12490000
1.48760000 -0.40140000 -0.23940000
1.48690000 -0.29560000 -0.22260000
1.52590000 -0.29440000 -0.09720000
1.48090000 -0.19540000 -0.21360000
1.51720000 -0.19190000 -0.08110000
1.49720000 -0.09390000 -0.08630000
1.50500000 -0.08040000 0.04630000
1.49090000 -0.05530000 0.16840000
1.46310000 0.01520000 0.01440000
1.44720000 0.03920000 0.12840000
1.42020000 0.07350000 0.23570000
1.45230000 -0.01250000 0.27910000
1.42510000 0.13910000 0.09460000
1.39620000 0.16570000 0.20060000
1.36090000 0.19410000 0.30420000
1.38280000 0.11070000 0.34000000
1.39430000 0.26480000 0.17930000
1.35480000 0.28600000 0.28230000
1.30990000 0.30830000 0.38300000
1.31620000 0.22210000 0.40210000
1.35780000 0.38200000 0.27320000
1.31180000 0.39970000 0.37640000
1.26020000 0.41760000 0.48120000
1.25970000 0.33210000 0.48440000
1.31390000 0.49340000 0.37660000
1.26180000 0.50790000 0.48400000
1.20150000 0.52060000 0.59170000
1.20110000 0.43310000 0.58860000
1.26360000 0.60100000 0.49020000
1.20580000 0.61200000 0.59890000
1.13980000 0.62230000 0.70460000
1.13490000 0.53040000 0.69810000
1.21950000 0.70450000 0.61220000
1.15810000 0.71400000 0.71810000
1.08940000 0.72770000 0.81930000
1.06940000 0.63390000 0.80460000
1.17250000 0.80970000 0.72630000
1.10530000 0.82280000 0.82670000
1.03370000 0.84260000 0.93030000
1.02020000 0.74620000 0.91760000
1.09940000 0.92030000 0.82340000
1.02810000 0.93520000 0.93200000
0.93310000 0.93580000 1.04070000
0.94780000 0.84890000 1.03120000
1.01710000 1.02390000 0.93540000
0.91720000 1.02090000 1.04380000
0.80070000 0.99420000 1.14690000
0.90680000 1.09950000 1.04790000
0.79000000 1.08660000 1.14790000
0.67000000 1.06750000 1.23830000
0.78460000 1.15690000 1.14510000
0.66630000 1.14990000 1.23060000
0.54430000 1.14400000 1.29390000
0.55430000 1.05640000 1.31530000
0.66620000 1.20100000 1.22810000
0.54470000 1.19850000 1.29090000
0.43520000 1.19760000 1.36390000
0.43950000 1.14100000 1.37480000
0.54660000 1.23440000 1.29110000
0.43570000 1.23490000 1.35960000
0.32900000 1.23970000 1.44640000
0.33370000 1.19980000 1.45240000
0.43650000 1.26560000 1.35650000
0.32570000 1.27070000 1.43950000
0.18730000 1.28260000 1.48970000
0.19900000 1.24760000 1.50330000
0.32290000 1.29620000 1.42890000
0.18230000 1.30420000 1.47230000
0.05270000 1.27730000 1.46760000
0.05520000 1.24780000 1.49730000
0.18020000 1.31170000 1.44960000
0.05460000 1.30010000 1.44510000
-0.04190000 1.29100000 1.42960000
-0.04220000 1.25870000 1.44980000
0.06070000 1.31380000 1.42220000
-0.03970000 1.31400000 1.40970000
-0.13360000 1.31750000 1.40240000
-0.13250000 1.29310000 1.42000000
-0.03700000 1.32140000 1.38280000
-0.13420000 1.32540000 1.37540000
-0.23940000 1.32960000 1.37360000
-0.23700000 1.32320000 1.39840000
-0.13440000 1.32800000 1.34680000
-0.24110000 1.33270000 1.34730000
-0.35650000 1.33860000 1.33870000
-0.35870000 1.33620000 1.36590000
-0.24100000 1.33480000 1.31890000
-0.35360000 1.34030000 1.31060000
-0.46860000 1.34610000 1.27150000
-0.47530000 1.34450000 1.30000000
-0.35000000 1.34190000 1.27920000
-0.46160000 1.34750000 1.24050000
-0.57540000 1.35180000 1.18750000
-0.58440000 1.35070000 1.21540000
-0.45300000 1.34880000 1.20500000
-0.56280000 1.35300000 1.15080000
-0.67420000 1.35520000 1.09110000
-0.68930000 1.35400000 1.12530000
-0.54700000 1.35400000 1.10510000
-0.65420000 1.35630000 1.04840000
-0.75610000 1.35760000 0.98250000
-0.78010000 1.35650000 1.02340000
-0.63180000 1.35690000 1.00180000
-0.72930000 1.35830000 0.93750000
-0.82750000 1.35840000 0.86500000
-0.85710000 1.35820000 0.90400000
-0.70740000 1.35810000 0.90050000
-0.80230000 1.35800000 0.83170000
-0.89430000 1.35580000 0.75020000
-0.92410000 1.35590000 0.77840000
-0.78090000 1.35720000 0.80320000
-0.86820000 1.35530000 0.72430000
-0.94130000 1.35230000 0.63390000
-0.97150000 1.35220000 0.65490000
-0.84340000 1.35370000 0.70000000
-0.91380000 1.35080000 0.61380000
-0.97000000 1.34760000 0.52340000
-0.99750000 1.35050000 0.53790000
-0.88990000 1.34080000 0.59630000
-0.94810000 1.33310000 0.51190000
-0.99280000 1.32720000 0.42390000
-1.01390000 1.34410000 0.43130000
-0.93010000 1.30800000 0.50320000
-0.97480000 1.30290000 0.41750000
-1.00390000 1.30110000 0.32780000
-1.02170000 1.32660000 0.33280000
-0.95710000 1.27170000 0.41120000
-0.98770000 1.26800000 0.32300000
-1.01070000 1.26470000 0.23280000
-1.02470000 1.30050000 0.23590000
-0.97130000 1.22510000 0.31860000
-0.99700000 1.22080000 0.23010000
-1.01960000 1.21910000 0.14150000
-1.03130000 1.26320000 0.14220000
-0.97730000 1.15850000 0.22760000
-0.99880000 1.15630000 0.14060000
-1.01630000 1.15490000 0.05410000
-1.03870000 1.21890000 0.05330000
-0.96830000 1.07360000 0.14000000
-0.98340000 1.07100000 0.05520000
-0.99360000 1.06850000 -0.02940000
-1.02780000 1.15320000 -0.03190000
-0.96300000 0.97810000 0.05760000
-0.97330000 0.97520000 -0.02590000
-0.97830000 0.97230000 -0.10920000
-0.99820000 1.06560000 -0.11360000
-0.96320000 0.87980000 -0.02260000
-0.96860000 0.87710000 -0.10510000
-0.96870000 0.87440000 -0.18740000
-0.97840000 0.96930000 -0.19210000
-0.96130000 0.78150000 -0.10170000
-0.96090000 0.77910000 -0.18320000
-0.95590000 0.77700000 -0.26430000
-0.96250000 0.87190000 -0.26900000
-0.95110000 0.68390000 -0.17930000
-0.94650000 0.68200000 -0.25950000
-0.93430000 0.68040000 -0.33860000
-0.94290000 0.77530000 -0.34420000
-0.93340000 0.58720000 -0.25430000
-0.91970000 0.58590000 -0.33170000
-0.89610000 0.58510000 -0.40660000
-0.91000000 0.67950000 -0.41470000
-0.90440000 0.49130000 -0.32490000
-0.88160000 0.49050000 -0.39860000
-0.85090000 0.48990000 -0.46930000
-0.86460000 0.58460000 -0.47850000
-0.87130000 0.39510000 -0.39240000
-0.84070000 0.39440000 -0.46220000
-0.80460000 0.39370000 -0.52930000
-0.81430000 0.48930000 -0.53700000
-0.83450000 0.29830000 -0.45730000
-0.79850000 0.29760000 -0.52410000
-0.76030000 0.29690000 -0.58970000
-0.76520000 0.39290000 -0.59430000
-0.79770000 0.20140000 -0.52230000
-0.76010000 0.20070000 -0.58860000
-0.72160000 0.20010000 -0.65420000
-0.71980000 0.29610000 -0.65380000
-0.76540000 0.10480000 -0.59110000
-0.72750000 0.10430000 -0.65760000
-0.68470000 0.10350000 -0.72050000
-0.67930000 0.19930000 -0.71710000
-0.73490000 0.00810000 -0.66230000
-0.69090000 0.00700000 -0.72480000
-0.63730000 0.00520000 -0.77910000
-0.63340000 0.10210000 -0.77630000
-0.69680000 -0.09070000 -0.72920000
-0.64110000 -0.09280000 -0.78180000
-0.57940000 -0.09490000 -0.82770000
-0.57670000 0.00320000 -0.82560000
-0.64550000 -0.19170000 -0.78520000
-0.58270000 -0.19380000 -0.83030000
-0.51750000 -0.19560000 -0.87160000
-0.51480000 -0.09670000 -0.86940000
-0.58690000 -0.29370000 -0.83410000
-0.52080000 -0.29520000 -0.87480000
-0.45170000 -0.29640000 -0.90990000
-0.44940000 -0.19710000 -0.90790000
-0.52460000 -0.39600000 -0.87850000
-0.45480000 -0.39690000 -0.91330000
-0.38320000 -0.39750000 -0.94400000
-0.38070000 -0.29740000 -0.94100000
-0.45890000 -0.49940000 -0.91840000
-0.38670000 -0.50020000 -0.94920000
-0.31270000 -0.50090000 -0.97490000
-0.30970000 -0.39810000 -0.96940000
-0.39260000 -0.60680000 -0.95960000
-0.31770000 -0.60730000 -0.98620000
-0.24060000 -0.60810000 -1.00650000
-0.23700000 -0.50150000 -0.99530000
-0.32390000 -0.71690000 -1.00160000
-0.24500000 -0.71750000 -1.02180000
-0.16460000 -0.71820000 -1.03510000
-0.16210000 -0.60890000 -1.02090000
-0.24910000 -0.82710000 -1.03610000
-0.16680000 -0.82710000 -1.04850000
-0.08390000 -0.82820000 -1.05460000
-0.08330000 -0.71900000 -1.04180000
-0.16850000 -0.92920000 -1.05760000
-0.08430000 -0.93070000 -1.06410000
-0.00010000 -0.93260000 -1.06560000
-0.00090000 -0.83020000 -1.05610000
-0.08480000 -1.02080000 -1.07000000
0.00020000 -1.02320000 -1.07250000
0.08400000 -1.02460000 -1.06720000
0.08300000 -0.93390000 -1.06000000
0.00030000 -1.09980000 -1.07790000
0.08460000 -1.10170000 -1.07290000
0.16610000 -1.10130000 -1.05870000
0.16560000 -1.02350000 -1.05350000
0.08470000 -1.15800000 -1.07680000
0.16590000 -1.15660000 -1.06220000
0.24630000 -1.15240000 -1.04190000
0.24610000 -1.09840000 -1.03790000
0.16570000 -1.19830000 -1.06540000
0.24630000 -1.19380000 -1.04540000
0.32700000 -1.18910000 -1.02210000
0.32650000 -1.14740000 -1.01840000
0.24640000 -1.23180000 -1.04990000
0.32760000 -1.22730000 -1.02650000
0.40560000 -1.22570000 -0.99850000
0.40490000 -1.18790000 -0.99390000
0.33000000 -1.26100000 -1.03570000
0.40850000 -1.25900000 -1.00790000
0.48270000 -1.26010000 -0.97290000
0.47940000 -1.22670000 -0.96340000
0.41900000 -1.27790000 -1.03240000
0.49540000 -1.27870000 -0.99680000
0.56850000 -1.28050000 -0.95490000
0.55330000 -1.26390000 -0.93110000
0.51240000 -1.28500000 -1.02690000
0.58800000 -1.28660000 -0.98420000
0.65960000 -1.29020000 -0.93490000
0.63830000 -1.28430000 -0.90710000
0.60870000 -1.29060000 -1.01450000
0.68180000 -1.29430000 -0.96400000
0.75080000 -1.29830000 -0.90720000
0.72700000 -1.29410000 -0.87970000
0.70700000 -1.29820000 -0.99720000
0.77810000 -1.30230000 -0.93910000
0.83930000 -1.30560000 -0.87020000
0.81270000 -1.30180000 -0.84250000
0.80890000 -1.30600000 -0.97510000
0.87220000 -1.30950000 -0.90410000
0.92750000 -1.31250000 -0.82690000
0.89070000 -1.30810000 -0.79370000
0.91360000 -1.31300000 -0.94620000
0.97350000 -1.31650000 -0.86710000
1.02630000 -1.31970000 -0.78220000
0.97740000 -1.31520000 -0.74580000
1.02200000 -1.31890000 -0.90930000
1.07770000 -1.32260000 -0.82030000
1.12840000 -1.32600000 -0.72710000
1.07530000 -1.32270000 -0.69380000
1.12360000 -1.32330000 -0.85370000
1.17600000 -1.32720000 -0.75670000
1.22280000 -1.33030000 -0.65500000
1.17500000 -1.32900000 -0.62990000
1.21260000 -1.32570000 -0.77890000
1.26030000 -1.32900000 -0.67450000
1.30430000 -1.33100000 -0.56490000
1.26610000 -1.33250000 -0.54840000
1.29270000 -1.32380000 -0.69120000
1.33770000 -1.32600000 -0.57980000
1.37940000 -1.32680000 -0.45980000
1.34560000 -1.33140000 -0.44800000
1.36810000 -1.31730000 -0.59400000
1.40970000 -1.31820000 -0.47090000
1.44570000 -1.31050000 -0.33670000
1.41610000 -1.32460000 -0.32980000
1.42990000 -1.29470000 -0.48000000
1.46360000 -1.28010000 -0.34280000
1.48730000 -1.25410000 -0.19500000
1.47080000 -1.29300000 -0.19380000
1.48000000 -1.29050000 -0.05110000
1.45480000 -1.32010000 -0.05490000
1.44320000 -1.31820000 -0.19210000
1.49320000 -1.24850000 -0.04710000
1.48260000 -1.25730000 0.08330000
1.47030000 -1.29730000 0.07870000
1.50390000 -1.20040000 -0.04880000
1.49150000 -1.21190000 0.08880000
1.46790000 -1.22960000 0.20730000
