0.61770000 -21.94460000 -2.89530000
2.11220000 19.98040000 2.84810000
3.16430000 -22.08220000 -2.56420000
3.75690000 -22.15740000 -2.41420000
-1.33010000 -25.98240000 -2.77350000
-1.44040000 -26.27370000 -2.55050000
-1.61420000 -25.87680000 -2.41720000
-0.93500000 -25.83020000 -3.07950000
-0.48500000 -25.80940000 -3.30230000
16.06590000 -14.93280000 2.99740000
16.89790000 -13.88200000 3.16130000
16.26490000 -14.47050000 3.15850000
16.80740000 -14.30210000 2.92370000
16.29390000 -14.90510000 2.79650000
1.62610000 11.93500000 -3.31530000
-0.52920000 -6.03020000 1.70790000
-0.37180000 -5.93660000 0.96950000
-0.44230000 -5.81690000 -0.46070000
2.74280000 -9.92290000 3.77640000
2.54630000 -9.57340000 3.74470000
2.24100000 -10.10790000 3.71090000
1.99550000 19.28100000 -2.98120000
-8.76240000 -9.96650000 -3.15350000
-8.41330000 -10.64030000 -3.12850000
-10.71940000 -10.95770000 -3.26690000
-10.17170000 -10.32830000 -3.20240000
-28.44680000 -4.12780000 -1.36830000
-27.47120000 -5.20860000 -1.15100000
-27.94120000 -5.09500000 -1.36330000
-13.62230000 -4.02350000 3.43830000
-15.00690000 -4.53270000 3.52640000
-28.29710000 -4.54860000 -1.58660000
-28.11430000 -4.89140000 -1.55690000
-28.41550000 -4.46450000 -1.36840000
20.13140000 -9.76500000 1.60860000
2.85880000 26.58540000 2.52230000
2.35140000 26.33390000 2.56160000
-20.12150000 9.19130000 1.55350000
-4.01590000 -21.89850000 -1.49420000
-4.63510000 -21.65620000 -1.97670000
5.13550000 -1.49850000 -3.25000000
5.29840000 -1.88050000 -3.29000000
-22.17900000 -0.61480000 1.33690000
-22.39730000 -0.41920000 1.85290000
-22.26340000 0.08120000 1.69870000
-22.30900000 0.75820000 1.72660000
15.39740000 14.94470000 0.07180000
15.25470000 15.05000000 0.32940000
-9.48570000 0.15270000 -3.46750000
-9.74220000 -0.49620000 -3.41310000
-10.76320000 -0.27970000 -3.35060000
-10.75430000 -0.68820000 -3.36950000
-4.78860000 -21.77120000 -1.33740000
-5.72460000 -21.48840000 -1.60400000
21.41270000 6.25940000 1.48530000
21.24150000 6.54760000 1.23860000
-19.43610000 7.38030000 2.09620000
20.92600000 6.59340000 0.51290000
20.54480000 7.07600000 0.25670000
19.37890000 2.67110000 3.28750000
20.01530000 2.53880000 3.28380000
20.14380000 3.04030000 3.30880000
19.34210000 3.34930000 3.27290000
18.58530000 4.18700000 3.32510000
-9.37640000 -20.10120000 0.50110000
-9.71000000 -19.82550000 -0.95000000
-9.41800000 -20.01010000 -1.23860000
-27.84850000 -2.50250000 2.45580000
-27.84920000 -2.15510000 2.32590000
-28.26850000 -2.64960000 2.19840000
-26.81380000 -2.33050000 2.49210000
-27.32700000 -1.99460000 2.37250000
-27.61710000 -2.20720000 2.43950000
23.91210000 3.72870000 3.15940000
24.26480000 2.92390000 3.23440000
6.25250000 13.34120000 3.70530000
5.83000000 13.60780000 3.66530000
5.97730000 14.17070000 3.58290000
9.90360000 -19.73140000 3.26310000
9.33910000 -19.62740000 3.34810000
8.34270000 -20.33320000 3.28350000
8.95010000 -20.62200000 2.95250000
8.78170000 -20.43740000 3.15040000
-23.52670000 6.97340000 -1.48270000
-23.84210000 6.79120000 -1.25300000
-24.57170000 6.21040000 -0.67250000
-23.74830000 7.13450000 -0.82440000
21.81490000 0.60350000 0.34140000
22.09150000 -0.46830000 0.77350000
22.17770000 -0.37050000 1.30140000
20.72910000 -4.08060000 3.35030000
20.88990000 -4.06860000 3.36720000
20.90520000 -3.49180000 3.07400000
-11.99320000 -8.20300000 3.18760000
-11.87990000 -7.40210000 3.16890000
15.83190000 -1.97990000 3.63930000
16.45630000 -1.26800000 3.77860000
16.28780000 -1.68840000 3.74460000
22.24650000 -1.23140000 -1.78440000
11.99820000 4.24510000 3.29410000
11.81400000 4.88230000 3.24630000
12.34240000 4.50500000 3.08820000
-21.99650000 -8.76820000 -0.72830000
-22.71360000 -9.14270000 -0.72400000
-22.62950000 -8.89200000 -0.89260000
-22.18090000 -9.12850000 -0.63890000
27.87470000 -0.74100000 1.96380000
-12.87770000 -16.52120000 -3.11460000
-14.04250000 -15.64540000 -3.04960000
-13.32020000 -15.66770000 -3.15780000
-12.20170000 -16.78210000 -3.19620000
-12.19260000 -17.25840000 -3.13340000
-13.86050000 -15.58300000 3.10640000
-14.30700000 -15.07210000 3.08840000
-14.14790000 -15.45850000 3.01650000
-14.95910000 -14.64980000 2.87990000
-6.34640000 12.78970000 3.14830000
-6.34260000 12.03390000 3.19960000
-5.96040000 11.88670000 3.13730000
-6.12160000 11.35290000 3.13580000
18.89030000 7.82300000 1.98240000
16.55810000 -1.27440000 -3.34210000
16.14000000 -1.92800000 -3.33260000
17.66700000 -1.74000000 -3.21460000
1.41990000 3.22970000 2.46870000
-4.37920000 -21.05880000 -3.04530000
-5.09410000 -20.93950000 -3.07360000
-5.73170000 -20.42610000 -3.17710000
19.91990000 4.35600000 2.40700000
19.27530000 4.66880000 2.66030000
18.89390000 5.10780000 2.66030000
16.61800000 8.37530000 3.37100000
16.54380000 9.34320000 3.40330000
7.03290000 -7.90670000 -3.33040000
7.69800000 -8.08980000 -3.14670000
-6.28320000 -18.37790000 -3.25520000
-5.27440000 -19.34990000 -3.22740000
-6.80370000 -19.11580000 -3.30730000
-5.27780000 -18.40540000 -3.21400000
-2.58010000 20.89940000 -2.48090000
-0.64660000 21.01390000 -2.17560000
-4.49560000 1.54760000 3.44890000
-7.82330000 11.36870000 3.56570000
-6.93500000 10.98820000 3.24300000
-8.07870000 12.16630000 3.60630000
-2.74640000 -12.60710000 -3.18230000
-1.73420000 -12.59500000 -3.25140000
-2.37270000 -12.11270000 -3.24130000
-2.09050000 20.82500000 -2.18110000
-1.69110000 20.95940000 -2.21200000
-1.70680000 20.85980000 -1.84860000
-7.31400000 -16.52490000 -3.12800000
-7.17910000 -17.08710000 -3.15110000
16.10460000 -6.37610000 3.72770000
16.69310000 -6.59930000 3.44800000
16.11990000 -5.81610000 3.80160000
15.62950000 -6.03760000 3.76540000
4.55230000 -0.14190000 -2.38470000
4.44150000 0.41690000 -2.56800000
4.68920000 -0.56320000 -2.79630000
-9.98430000 -19.75590000 2.08490000
-9.39750000 -20.18390000 1.85370000
-9.11960000 -20.35860000 2.35380000
-8.20470000 -20.92900000 1.81120000
-8.23140000 -20.91530000 2.22730000
-3.79690000 -11.59200000 3.36330000
-3.89880000 -11.98140000 3.54200000
17.08780000 -2.18200000 3.49210000
16.76800000 -2.11190000 3.59990000
1.39720000 -6.43590000 3.47970000
0.24620000 -6.58160000 3.41440000
10.74870000 5.06200000 3.37990000
9.73950000 5.79390000 3.25640000
6.97760000 22.32410000 0.43580000
7.74790000 22.73750000 0.17390000
7.34640000 22.46460000 0.08420000
7.51940000 22.65410000 -0.22770000
16.42900000 -14.46660000 -1.84370000
16.80520000 -14.09880000 -1.53000000
17.06240000 -13.86420000 -1.06570000
11.45320000 -2.88470000 3.18710000
10.77630000 -2.65600000 3.19380000
11.82950000 -3.30330000 3.27740000
-1.15510000 -27.14720000 -1.94340000
-1.23240000 -26.70790000 -2.42630000
-1.11720000 -26.18450000 -2.91350000
-1.04510000 -26.44870000 -2.82920000
-0.08300000 -9.48240000 -3.11960000
-0.56180000 -9.76000000 -3.15700000
-2.83470000 -9.60110000 -3.09000000
-1.83710000 -9.38240000 -3.09780000
-6.99910000 18.17570000 2.40500000
-7.08470000 12.36360000 -3.24520000
-7.27960000 11.87630000 -3.25340000
-6.43860000 11.44410000 -3.20000000
-5.73150000 11.17330000 -3.15850000
-5.33060000 10.24790000 -3.15860000
-28.35520000 -2.67980000 -1.90460000
-28.47390000 -2.78860000 -1.66580000
-28.37410000 -2.67550000 -1.23890000
-28.46610000 -3.03820000 -1.22830000
2.83490000 21.88040000 -2.09410000
3.95570000 21.33480000 -1.81220000
4.52810000 20.90080000 -2.06100000
3.66650000 21.15940000 -2.34730000
5.30050000 20.78270000 2.67130000
5.52310000 20.45500000 2.63900000
5.75710000 20.61790000 2.36060000
5.03100000 20.62280000 2.89480000
4.75410000 21.01000000 2.84670000
-12.99340000 -6.89990000 -3.04360000
-11.64910000 -6.81930000 -3.10740000
2.72740000 2.68600000 2.20240000
14.94420000 -14.13340000 -3.11000000
16.12130000 -12.65600000 -3.21520000
16.38270000 -12.84050000 -3.09910000
-18.69040000 -0.57790000 3.13450000
-19.01000000 0.16060000 3.15740000
-19.08210000 -1.47280000 3.08240000
-18.69370000 -1.27320000 3.15490000
-24.57270000 5.05290000 2.05790000
-23.87060000 6.57590000 1.57060000
2.67600000 22.30310000 -2.09980000
-1.69110000 -26.93780000 0.00120000
-0.25890000 20.90140000 -0.17140000
-0.33250000 20.89920000 0.69220000
-21.34440000 3.04800000 2.76170000
-21.01150000 2.85910000 2.63260000
23.77890000 4.15280000 -2.66850000
20.19150000 0.59390000 -1.99750000
19.86950000 0.23840000 -2.02550000
19.75390000 0.01690000 -1.93890000
19.73260000 -0.47670000 -1.63460000
5.96760000 22.48060000 -1.11310000
-11.20010000 15.73830000 -1.07570000
-10.41730000 16.12570000 0.03370000
-10.59530000 15.97500000 -0.75520000
-10.79380000 15.95500000 -0.39950000
19.58320000 4.46910000 -2.36330000
27.44810000 -4.15610000 2.19000000
27.09360000 -4.74620000 2.01250000
26.85070000 -4.84850000 2.27010000
11.16990000 -6.49260000 -3.15880000
11.11280000 -7.14170000 -3.25030000
10.77290000 -7.67080000 -3.35490000
-2.31490000 20.98070000 1.79200000
-2.32370000 20.83460000 0.73690000
2.36990000 -27.75870000 -2.03920000
2.12000000 -27.93720000 -1.64120000
0.73000000 -28.33310000 -1.05020000
1.31150000 -28.07340000 -1.43890000
14.90720000 -6.08170000 -3.37910000
14.25590000 -6.99300000 -3.26320000
13.07440000 -6.75530000 -3.19440000
5.77620000 18.97520000 -1.10020000
5.56340000 19.07620000 -1.59840000
5.22980000 19.08160000 -2.20270000
1.42480000 27.95060000 -1.77400000
1.54650000 27.96130000 -1.29290000
1.79370000 27.82450000 -0.95990000
-24.10220000 5.00570000 -2.32010000
-13.17560000 -17.15950000 -2.39180000
-13.33800000 -17.01100000 -1.80640000
9.34350000 -4.47640000 3.75020000
-10.43760000 -9.35310000 3.07620000
-10.28000000 -9.82750000 3.09060000
5.41120000 20.55560000 -1.40890000
5.36960000 20.95790000 -0.92780000
5.43810000 20.19790000 -1.61970000
5.65320000 20.07680000 -0.97790000
-18.90790000 4.14620000 3.30260000
-3.36490000 23.27850000 -2.53110000
-2.61170000 22.77770000 -2.59030000
-2.15250000 22.89460000 -2.68060000
-2.78720000 23.40450000 -2.57270000
-11.50520000 -18.62270000 -2.28120000
-11.19510000 -18.82320000 -2.49950000
-12.65600000 -17.69110000 -2.20580000
-12.44200000 -17.82790000 -2.51370000
-18.29520000 -9.87690000 2.37560000
-17.92840000 -10.62380000 2.16400000
-17.60220000 -11.30680000 2.02540000
-24.22500000 -6.82610000 -1.96400000
-24.58400000 -7.37480000 -1.76140000
-24.44390000 -8.06050000 -1.38530000
22.30280000 3.55940000 -3.05320000
22.06380000 3.27360000 -3.04610000
21.77180000 3.79330000 -2.95850000
-10.11390000 -19.63000000 2.84740000
-9.88440000 -19.84210000 2.58030000
-9.53750000 -20.04110000 2.80150000
-10.79870000 -19.01170000 2.96320000
-11.36320000 -18.52790000 2.92380000
-10.82010000 -19.07610000 2.56920000
-1.90390000 7.06190000 -3.27590000
-1.35640000 7.42580000 -3.25750000
-9.01160000 -20.00100000 -2.89270000
-8.84960000 -19.96210000 -3.01830000
-8.78490000 -20.20710000 -2.65120000
-15.68430000 11.38050000 2.51330000
2.24470000 -9.83240000 -3.31760000
1.64320000 -9.35400000 -3.16880000
-17.88710000 6.69680000 -3.27550000
-17.57970000 7.11480000 -3.30220000
0.34490000 -13.83480000 3.57790000
-1.11630000 -12.85640000 3.50600000
-0.45400000 -13.25500000 3.66860000
-7.44950000 12.98330000 3.30940000
-7.54890000 12.61560000 3.48030000
-7.43270000 13.94380000 3.19670000
3.22020000 -4.67510000 0.59820000
3.14670000 -4.86780000 1.58120000
2.32210000 12.14240000 3.13340000
1.52360000 12.42600000 3.17980000
-10.97010000 -2.76090000 3.53240000
-10.92680000 -2.06170000 3.57370000
-11.38290000 -2.29190000 3.56310000
-11.75620000 -2.01630000 3.48620000
-3.61190000 14.45480000 3.59260000
-3.23700000 14.46520000 3.56220000
-4.79540000 13.51830000 3.19930000
-2.83070000 17.91380000 -3.40560000
-3.09810000 18.25240000 -3.29560000
-0.13600000 26.78570000 1.64050000
0.13200000 27.09220000 1.75580000
-10.64160000 -1.85480000 3.46920000
-11.34200000 -1.82790000 3.55330000
3.94310000 -22.91080000 2.22720000
3.74020000 -23.06610000 2.39750000
2.89100000 -23.60230000 2.92060000
2.54130000 -23.09920000 2.76740000
-3.56520000 13.39380000 3.58300000
-3.75380000 13.78690000 3.64510000
-3.26580000 13.97290000 3.64000000
-19.04690000 -8.63410000 2.29780000
6.75390000 -12.24830000 3.68970000
7.60580000 -12.44500000 3.60330000
25.87670000 -5.90600000 2.45030000
24.90330000 -7.15230000 2.30000000
4.89670000 21.79470000 1.84920000
4.35260000 21.91430000 2.16420000
0.91990000 -23.98920000 2.90220000
1.04140000 -23.50580000 2.84300000
0.55120000 -23.65780000 2.79360000
1.05710000 -23.13890000 2.77500000
20.00960000 7.94900000 -0.77520000
20.39590000 7.55740000 -0.76780000
20.10650000 7.75960000 -0.69570000
20.56900000 7.69840000 -0.95080000
1.94480000 8.50650000 3.23660000
0.76700000 7.92020000 3.55570000
1.24780000 7.85910000 3.48180000
1.24420000 8.31760000 3.34420000
7.04090000 -7.16780000 3.68860000
6.37190000 -7.53850000 3.72570000
5.84180000 -7.64540000 3.50340000
-3.47130000 -4.23310000 1.33330000
-3.70560000 -3.91530000 2.47990000
-19.69050000 6.41020000 -1.29210000
-19.71210000 6.40020000 -0.92620000
18.05090000 -4.15890000 -3.33540000
17.53950000 -2.26940000 -3.24310000
16.99840000 -2.04370000 -3.30310000
23.64520000 6.64010000 1.67830000
23.75300000 6.82040000 1.48830000
-11.59060000 -15.68910000 -3.27870000
-18.60180000 -2.88480000 -3.15960000
-18.57020000 -2.04310000 -3.02730000
-17.18750000 -2.68650000 -3.16470000
-3.08950000 1.54470000 -2.30760000
-2.78360000 1.90470000 -2.28790000
-3.43640000 1.12530000 -2.50000000
23.19340000 7.14990000 1.55050000
23.58990000 7.14860000 1.35610000
-0.30150000 -20.25620000 -3.23600000
16.48170000 4.41150000 -3.08210000
15.61530000 4.21730000 -3.16840000
-12.41040000 6.36880000 3.20190000
-13.35730000 6.06850000 3.34960000
-12.98400000 5.67790000 3.47620000
-12.64260000 6.01670000 3.28930000
1.85690000 9.41990000 -3.22270000
13.15600000 3.49380000 3.09840000
13.93680000 3.01820000 3.25390000
-14.00320000 -3.61510000 -3.20070000
-13.02510000 -4.59620000 -3.33410000
-13.77340000 -4.32050000 -3.42570000
4.16540000 -20.71820000 -3.10310000
3.52130000 -20.43160000 -3.14190000
-11.80280000 7.98980000 3.29150000
-11.48500000 8.28000000 3.52560000
-12.09160000 8.46700000 3.30260000
9.48520000 11.27730000 3.51920000
10.55260000 10.94610000 3.66130000
10.79590000 11.53820000 3.54670000
11.87870000 4.90470000 -3.36750000
12.28470000 5.07320000 -3.30000000
13.12040000 4.65000000 -3.19500000
13.86320000 4.41880000 -3.23630000
10.73920000 10.72450000 3.60660000
10.11390000 10.73550000 3.66020000
10.28620000 11.24190000 3.66670000
27.62500000 -1.76480000 2.44590000
-12.21670000 15.07130000 0.62720000
-12.33680000 14.91340000 0.81840000
-12.66660000 14.64850000 0.52240000
-7.02240000 9.41430000 -3.44800000
-7.30010000 9.01090000 -3.49750000
-6.43170000 9.62720000 -3.41920000
-1.83340000 18.79250000 1.63490000
-2.25550000 18.95140000 -1.45480000
-2.16500000 18.87810000 -0.23790000
-6.27120000 23.93190000 1.21250000
-4.73890000 24.71240000 0.70850000
-5.90420000 24.11060000 0.41680000
-1.09050000 -15.80020000 -3.29010000
-0.76730000 -14.94440000 -3.31540000
15.50300000 -15.98250000 2.31380000
15.89160000 -15.42210000 2.66590000
14.71640000 -16.79520000 2.08870000
6.48550000 12.65080000 3.58200000
-21.56270000 6.54740000 2.75560000
-22.11820000 5.42740000 2.89120000
-21.05170000 6.87070000 2.76860000
2.75950000 8.88690000 3.22820000
3.92490000 9.03080000 3.25530000
4.50730000 10.45540000 3.19750000
18.49360000 6.34410000 0.94940000
18.56500000 6.79090000 1.96290000
18.54890000 6.23490000 1.87390000
-7.36090000 17.91160000 -0.86750000
-7.22850000 17.97660000 -1.61560000
-7.35570000 17.72950000 -1.79290000
-7.24130000 17.98260000 -1.25900000
4.76930000 10.47790000 3.22230000
-9.19230000 -15.42780000 3.29770000
-8.61770000 -16.30270000 3.28400000
-26.98350000 -5.68540000 -1.14240000
-27.23510000 -5.40190000 -1.36760000
-27.62660000 -5.21070000 -1.51580000
18.41520000 7.41480000 -0.94480000
18.51310000 7.24510000 -0.23580000
0.56210000 -14.52060000 -3.07710000
-2.28560000 25.59600000 1.87040000
-2.03520000 25.31480000 2.32780000
-7.29780000 7.36660000 3.60980000
-6.82660000 7.49070000 3.61910000
-7.17810000 7.94230000 3.59780000
-7.20790000 8.19670000 3.53110000
-6.92980000 17.92620000 -2.64450000
22.43400000 -8.89530000 -1.38230000
23.80630000 -8.81020000 -0.67610000
2.73970000 -15.74970000 3.26740000
2.55260000 -16.15510000 3.40220000
2.22570000 -15.87300000 3.35830000
2.01010000 -16.22430000 3.52560000
-9.35320000 -14.63250000 3.28780000
-9.28280000 -13.95570000 3.26930000
-8.75310000 -14.45960000 3.34750000
-25.53020000 4.51610000 -1.27740000
-25.84400000 4.20880000 -0.95660000
-25.65940000 4.71980000 -0.39430000
3.81320000 -26.97870000 2.35900000
3.33900000 -27.12160000 2.36810000
3.80130000 -27.19520000 2.15750000
2.02140000 -27.62660000 1.93380000
-27.90030000 -3.02640000 2.43650000
-27.60540000 -2.69040000 2.51470000
-26.97270000 -2.85450000 2.54130000
2.58250000 -24.72440000 3.14160000
2.63240000 -24.17180000 3.06860000
-12.94630000 15.77650000 0.07540000
-12.65840000 17.25160000 0.27150000
-13.01140000 16.54400000 0.06660000
-12.42680000 17.97860000 0.32330000
-2.00440000 -18.03680000 3.29630000
2.23550000 11.84780000 3.18620000
-2.83010000 18.84720000 2.71330000
7.49250000 8.70380000 3.24120000
8.07270000 9.09110000 3.23420000
8.00950000 3.63480000 3.60130000
7.72410000 4.99270000 3.61720000
16.03180000 -6.91910000 3.51030000
15.74220000 -7.12040000 3.42920000
15.61370000 -7.54730000 3.30350000
-22.42000000 -9.55170000 0.86220000
0.10780000 7.68590000 3.60390000
-0.55020000 8.10400000 3.31120000
-0.29200000 8.39760000 3.30790000
-1.34430000 -23.18840000 -1.88490000
-1.53680000 -23.50370000 -1.57390000
-1.12080000 -23.05030000 -2.18170000
-0.92780000 -22.66920000 -2.33440000
-3.22200000 19.33880000 2.72340000
-3.54440000 19.80620000 2.84910000
-3.45760000 19.39770000 2.86840000
7.49780000 4.57160000 3.67710000
7.11240000 4.52980000 3.66020000
7.46600000 4.05650000 3.69740000
18.43130000 3.94130000 -3.15110000
16.03820000 5.85170000 -3.10740000
-15.84190000 -3.72930000 3.39920000
-15.24320000 -4.06020000 3.56640000
-15.12190000 -3.55490000 3.53960000
-14.70360000 -4.28050000 3.58420000
-14.79560000 -3.77890000 3.59630000
18.89740000 -10.98930000 -2.63170000
18.68540000 -11.55870000 -2.33570000
18.46500000 -11.74220000 -2.52920000
18.18180000 -11.07230000 -2.94040000
23.35110000 -2.39940000 -3.25590000
23.19260000 -2.80710000 -3.24800000
-18.91970000 1.65680000 3.14890000
20.53430000 1.13680000 -2.36490000
20.54510000 1.30180000 -2.54330000
-10.79580000 -2.68740000 3.54040000
-10.24790000 -3.52930000 3.26150000
10.53720000 16.76490000 2.68780000
26.38600000 -0.79970000 -2.48180000
26.96970000 -0.03040000 -1.97820000
-7.18070000 8.31620000 -3.40370000
-5.95610000 7.83990000 -3.16980000
1.94450000 27.28020000 0.05420000
1.64860000 27.23730000 0.23730000
21.19480000 -3.84590000 -3.22870000
20.72140000 -3.72360000 -3.07540000
16.28330000 -14.49680000 -2.59950000
14.80530000 -15.86960000 -2.47520000
14.20720000 -16.24420000 -2.58410000
14.65360000 -15.68120000 -2.69500000
13.70670000 7.03350000 3.71620000
13.22790000 7.03310000 3.73010000
14.13810000 6.92130000 3.61790000
-27.02370000 -5.07820000 0.25100000
-26.90810000 -5.56270000 0.59840000
-27.00710000 -5.56450000 0.87990000
-27.51680000 -5.20620000 1.11560000
-0.14290000 10.51550000 3.42480000
-1.30720000 11.30860000 3.56380000
-20.61430000 10.50390000 0.76670000
15.03110000 -14.82860000 3.28920000
14.44210000 -15.62930000 3.26680000
-20.17590000 -6.59560000 -2.87650000
-20.56010000 -6.12140000 -2.95650000
0.17050000 10.88300000 3.30480000
1.59000000 10.05200000 3.30100000
18.23260000 -3.34120000 3.30670000
18.46410000 -1.97320000 3.26420000
18.93910000 -3.27700000 3.16560000
8.17290000 -3.25520000 -3.25940000
7.34260000 -2.75340000 -3.22150000
2.03070000 9.30260000 3.25410000
1.12140000 9.96220000 3.23440000
0.68340000 10.33130000 3.20990000
22.77050000 -7.56090000 2.05590000
22.86760000 -7.08120000 2.29910000
22.44820000 -7.28370000 2.26840000
21.93410000 -7.45950000 2.32010000
9.18460000 -3.70140000 -3.42130000
6.61740000 16.47760000 3.38030000
3.16330000 -23.04690000 2.65310000
3.20540000 -22.73550000 2.58760000
2.69890000 -22.76640000 2.68440000
3.38210000 -22.50920000 2.54080000
22.65390000 -5.90330000 2.94310000
22.93410000 -5.92830000 2.79810000
-0.84410000 -22.83370000 -2.43660000
-0.53240000 -22.79470000 -2.67230000
-0.10860000 -22.49200000 -2.81880000
-0.54120000 -22.43770000 -2.61330000
19.51920000 3.69910000 3.23080000
27.12960000 -4.11990000 -1.78740000
26.70710000 -4.57350000 -1.84150000
26.34770000 -4.23830000 -2.26670000
26.64000000 -5.17180000 -1.36900000
27.02610000 -4.63730000 -1.50930000
9.63160000 -20.18030000 -1.34400000
20.13400000 -7.04420000 3.49110000
21.64830000 9.60560000 -0.32630000
21.96860000 9.34210000 -0.15880000
21.15780000 9.97050000 -0.44550000
25.39280000 -5.45290000 -2.11270000
25.98380000 -4.86120000 -2.15250000
26.11480000 -5.23740000 -1.79680000
25.09380000 -4.17890000 -2.80690000
-22.27870000 -7.65710000 -1.27360000
-21.84500000 -7.62730000 -1.11340000
-22.47880000 -7.27700000 -1.55300000
10.06630000 -19.75990000 -2.19280000
10.69660000 -19.51130000 -1.72380000
10.03730000 -19.90770000 -1.73880000
10.55570000 -19.34420000 -2.50480000
9.72390000 -19.76620000 -2.52010000
21.55260000 0.82550000 0.25090000
21.38950000 0.96060000 0.53450000
21.54160000 1.08720000 1.29210000
21.31190000 1.38150000 1.84250000
21.26530000 1.18410000 1.38900000
-16.06200000 -6.24880000 -3.08920000
-15.83080000 -5.86340000 -3.09140000
-16.37340000 -5.08580000 -3.10080000
7.89670000 24.56180000 0.28150000
7.94450000 23.94160000 -0.59920000
7.98250000 24.36680000 -0.02440000
8.10110000 24.00900000 0.00080000
10.24160000 -7.45120000 3.29500000
9.77610000 -7.65480000 3.30440000
10.31310000 -7.85680000 3.54670000
-0.15620000 -14.38870000 3.55090000
0.04370000 -13.93890000 3.64310000
0.15670000 -13.62190000 3.65360000
-0.20570000 -13.65840000 3.70530000
-3.48720000 12.37630000 3.20160000
-3.77930000 12.92240000 3.35580000
11.57010000 -10.79810000 -3.42620000
11.09190000 -11.98120000 -3.39380000
11.66870000 -11.39650000 -3.40240000
11.76390000 -12.16760000 -3.29320000
-1.97540000 2.93780000 -3.05630000
-1.79100000 3.01080000 -3.02540000
7.20460000 -7.69450000 3.76790000
6.73300000 -7.40790000 3.77120000
6.78260000 -7.88690000 3.80320000
7.97950000 -8.63910000 3.32210000
7.48730000 -8.11980000 3.67330000
4.83370000 -24.85240000 -2.68910000
-2.93350000 20.57180000 -1.35160000
-1.83330000 -22.74650000 -1.26550000
7.06000000 -8.21720000 3.75190000
6.91280000 -8.62770000 3.64830000
-11.23700000 2.39520000 3.21630000
-11.38660000 2.85430000 3.13340000
0.62720000 26.28830000 -2.34480000
0.33860000 26.50130000 -2.16460000
0.57820000 26.96720000 -2.28960000
23.05250000 -0.15260000 2.91810000
-4.15940000 1.21200000 -3.26860000
-2.98160000 2.65550000 -3.25080000
17.10540000 7.44140000 -2.99850000
16.83900000 8.47130000 -3.11580000
17.36700000 7.59140000 -2.89750000
17.70210000 6.39780000 -2.94770000
17.31030000 6.84390000 -2.97560000
-2.59440000 2.08230000 -2.24130000
-1.74610000 2.70680000 -2.37260000
-2.08250000 2.44900000 -2.03680000
23.19230000 -0.72280000 3.01710000
-18.34260000 6.40340000 -2.91410000
22.58440000 -6.30650000 -2.31220000
22.43380000 -5.02670000 -2.72790000
0.01990000 -24.58140000 2.76680000
-0.57400000 -24.70160000 2.56740000
23.54860000 1.78000000 -2.80800000
-7.02400000 -16.30390000 3.31080000
-7.22640000 -15.73680000 3.49720000
-20.49720000 -2.29300000 -2.28430000
22.32790000 -4.36340000 -3.07020000
22.88860000 -4.06220000 -3.01630000
22.11750000 -5.12060000 -2.78910000
-5.02180000 8.78170000 3.33180000
-4.50950000 9.12770000 3.54200000
-4.75080000 10.46330000 3.43380000
24.78300000 0.65230000 -2.82540000
25.14440000 -0.78150000 -2.96490000
25.53350000 -0.52370000 -2.85910000
25.45250000 -1.59550000 -2.98200000
10.75980000 15.82070000 -2.85240000
10.39570000 16.11150000 -2.63490000
10.95770000 15.80980000 -2.59590000
21.34810000 -5.48290000 -3.12340000
21.64580000 -5.15630000 -3.07510000
-5.43350000 -8.29540000 -3.25730000
-4.83590000 -6.97040000 -3.21580000
-1.50940000 26.17470000 1.58050000
11.18360000 -6.06080000 3.27100000
11.19880000 -5.21610000 3.24750000
11.85760000 -4.75610000 3.27040000
4.04630000 -9.62740000 3.50620000
3.71870000 -9.85450000 3.69410000
26.48330000 -1.38570000 3.05510000
25.98650000 -2.66710000 3.14260000
10.61290000 -4.88830000 3.41690000
10.18020000 -4.83290000 3.65880000
11.04860000 -5.78650000 3.22190000
10.81920000 -5.55260000 3.21500000
-1.80860000 -19.91880000 -3.18640000
2.67470000 8.58710000 -3.25500000
21.61190000 6.72870000 -1.41890000
21.64200000 7.34340000 -1.20810000
21.95550000 7.36830000 -1.16900000
-5.46880000 -7.17540000 3.55300000
-4.81230000 -6.90110000 3.36540000
18.95400000 -11.49610000 2.50390000
9.53710000 -13.05230000 3.32520000
9.59900000 -14.04750000 3.29010000
10.02600000 -14.84880000 3.26950000
9.67720000 -15.17400000 3.22630000
10.90410000 -15.19050000 3.27010000
-9.20280000 18.10400000 0.40290000
5.02730000 1.03290000 3.23130000
5.03490000 0.56170000 3.04850000
5.34160000 0.64450000 3.33030000
-0.57220000 -23.80630000 -2.98350000
-10.73640000 8.65200000 3.62830000
4.79820000 1.04000000 2.97650000
4.37450000 1.36530000 2.69530000
17.48240000 10.46740000 -1.37510000
17.15050000 10.30070000 -1.84780000
-9.89010000 4.80540000 -3.26620000
-10.04210000 4.32690000 -3.36320000
-9.95230000 15.83670000 2.83140000
-0.80730000 -5.72990000 -1.64470000
-0.69660000 -5.75860000 -1.15300000
4.48780000 -21.78960000 -2.36690000
1.99880000 14.43460000 3.60210000
1.29660000 13.57440000 3.50870000
4.74690000 -1.17170000 1.41130000
4.57170000 -1.82150000 0.43960000
7.56200000 22.61130000 0.41320000
2.09410000 13.83420000 3.53990000
1.53680000 14.32590000 3.65590000
6.64780000 25.69340000 -0.09210000
6.46130000 25.81880000 0.29920000
3.85500000 -21.88730000 -2.52660000
4.25650000 -21.97220000 -2.28280000
3.68610000 -22.01900000 -2.47890000
-20.04570000 -7.98710000 -1.07750000
-19.73440000 -8.21560000 -1.15810000
-19.70960000 -8.13300000 -1.58820000
-20.09320000 -7.83690000 -1.48650000
-20.09630000 -7.69870000 -1.78990000
-9.43170000 9.70130000 3.15640000
-9.95120000 10.56300000 3.11680000
-11.63610000 10.18850000 3.29780000
-10.78540000 10.48470000 3.22940000
5.22900000 11.20240000 -3.04280000
6.39300000 11.86910000 -3.07610000
7.73390000 12.11640000 -3.12540000
0.81400000 -26.44470000 2.82820000
1.01630000 -26.09350000 2.98520000
1.26260000 -25.57210000 3.09090000
0.60130000 -25.85470000 2.95890000
7.59840000 17.49610000 -1.85080000
8.28350000 17.06660000 -2.50200000
7.71540000 17.30130000 -2.43430000
0.49220000 15.61400000 3.22060000
0.62270000 15.20060000 3.26210000
0.24220000 14.62260000 3.24090000
11.18210000 2.75490000 3.28360000
10.28720000 2.79180000 3.23580000
21.97030000 5.91430000 -2.21050000
21.63420000 6.33620000 -1.70930000
21.87720000 6.72950000 -1.42550000
-14.10530000 4.52250000 3.49980000
-14.72220000 4.60270000 3.32790000
20.87360000 -2.98880000 1.79970000
19.31460000 4.71200000 2.35130000
19.56800000 4.41640000 2.71480000
1.38430000 15.67870000 3.27310000
2.95210000 15.20910000 3.19600000
1.54580000 16.06540000 3.24440000
2.10420000 15.50710000 3.25270000
0.48210000 27.55640000 1.36900000
0.73090000 27.80570000 1.37540000
13.89410000 -3.69480000 -3.44660000
13.74100000 -4.25750000 -3.46950000
13.19730000 -4.14780000 -3.40640000
-20.86610000 -3.97760000 3.18180000
-26.23380000 -6.36310000 1.56260000
-25.86690000 -6.57360000 1.68250000
24.74450000 -0.94890000 -3.00960000
24.30860000 -0.62300000 -3.05840000
-3.61760000 -15.76210000 3.29770000
18.48320000 -11.35040000 -2.74860000
18.21890000 -11.97030000 -2.68300000
17.88150000 -12.05010000 -2.84910000
17.66820000 -12.73330000 -2.69230000
17.04620000 -13.53080000 -2.65540000
-5.25180000 -7.92930000 3.58210000
-4.75730000 -8.73800000 3.34400000
-26.34300000 -6.33960000 1.31310000
-26.79560000 -5.94430000 1.66890000
19.70700000 -0.89860000 -1.66840000
-2.75050000 5.91460000 3.56350000
-2.82690000 5.56190000 3.44460000
-4.46340000 -22.22280000 3.04640000
-4.04920000 -22.39230000 2.73330000
-4.65810000 -22.35530000 2.47410000
-20.17650000 -2.20250000 2.58790000
-20.24230000 -1.92530000 2.11430000
24.69850000 -3.91770000 -2.94310000
24.32190000 -3.81550000 -2.98440000
1.95720000 19.72200000 -2.84600000
2.10900000 19.84440000 -2.92010000
-8.56640000 -10.90880000 3.10180000
-8.01640000 -10.44700000 3.08120000
-2.43280000 -21.80670000 -2.35590000
-2.72050000 -21.65790000 -2.63980000
-2.35050000 -21.55390000 -2.82540000
-1.97710000 -21.58470000 -2.83010000
-3.14170000 1.38330000 -0.01690000
-3.00220000 1.53710000 -0.80960000
-3.29420000 1.07070000 -0.87770000
-3.26380000 1.16010000 -1.50500000
-9.64480000 19.03020000 1.22840000
6.46110000 -16.63070000 3.61890000
6.31920000 -15.61300000 3.60080000
-10.12760000 4.54190000 3.47320000
-10.59230000 4.41190000 3.33230000
25.71530000 -7.47040000 1.45120000
25.80180000 -6.67490000 2.10080000
26.41030000 -5.73890000 2.13120000
13.06910000 -17.54150000 -2.23710000
13.79590000 -17.05480000 -1.85690000
13.22730000 -17.54430000 -1.86240000
4.64250000 -23.50730000 1.46760000
4.99860000 -24.08960000 1.36960000
4.40800000 -23.16980000 1.58960000
7.04020000 -16.16160000 3.74200000
8.04220000 -16.18210000 3.36460000
7.47710000 -15.97630000 3.65080000
-12.74740000 3.56980000 3.25610000
-12.33450000 3.68070000 3.24270000
-13.19310000 4.24950000 3.53780000
14.76710000 -11.75050000 3.27390000
15.00780000 -11.12280000 3.30070000
12.56870000 -10.95240000 3.24340000
13.58730000 -12.30720000 3.20670000
13.65330000 -11.71270000 3.27970000
26.17290000 -6.94240000 1.25480000
25.65440000 -7.19720000 1.83100000
-15.55000000 -14.62000000 -1.50500000
-26.16470000 0.69950000 -2.50400000
-26.62030000 0.24530000 -2.34520000
-26.20690000 1.62440000 -2.25680000
10.00650000 11.65940000 3.59460000
9.73120000 12.25080000 3.36290000
-4.17530000 20.03920000 -2.71350000
-12.12850000 4.47570000 -3.38800000
-10.95620000 4.39370000 -3.50220000
-22.54620000 -6.26030000 2.16940000
-22.65670000 -7.39970000 1.99090000
-23.11330000 -7.31760000 2.14660000
-7.15340000 16.90440000 3.18670000
-9.16220000 16.02900000 2.99360000
-7.88000000 16.65250000 3.08350000
-9.18920000 16.18590000 2.86390000
23.05450000 5.58240000 2.70010000
23.70580000 5.46550000 2.61460000
-24.66200000 -8.40690000 -0.68450000
-24.74640000 -8.38150000 -0.09520000
-25.17410000 -7.86550000 -0.62890000
-24.94660000 -8.06660000 -0.86810000
-25.23300000 -7.73290000 -0.92430000
-24.83380000 -7.99290000 -1.19440000
19.57060000 4.59710000 -2.06310000
19.64830000 4.73700000 -1.45030000
-1.64920000 20.82850000 0.00490000
-0.69130000 20.91120000 1.07540000
8.72790000 -19.41150000 3.39570000
8.24630000 -18.64110000 3.39490000
6.62750000 -19.98760000 3.39470000
7.38540000 -20.27380000 3.35760000
-25.76080000 -7.35160000 -0.30590000
-25.31580000 -7.76830000 -0.20550000
-25.23850000 -7.79210000 0.16450000
-25.13290000 -7.73140000 0.82600000
-25.55310000 -7.48760000 0.24900000
10.69770000 3.69640000 3.55180000
10.64350000 3.29950000 3.37850000
10.69220000 4.48590000 3.56960000
10.67240000 4.05430000 3.60500000
-0.58010000 21.17660000 2.46190000
-0.54010000 21.04060000 2.15150000
-0.14630000 21.14460000 2.61310000
13.31290000 15.04850000 1.08290000
-26.78450000 0.99370000 -1.94590000
-26.74260000 0.49620000 -2.18550000
-26.46000000 1.71560000 -2.02040000
5.26250000 -2.26530000 3.17670000
5.50540000 -1.57300000 3.27800000
20.54580000 3.90210000 -2.74940000
-19.51690000 5.50330000 3.09010000
21.67280000 0.72910000 -1.09670000
21.48830000 0.83330000 -0.90900000
21.07350000 1.07060000 -1.42880000
21.11710000 0.92290000 -0.74340000
20.82930000 0.85710000 -0.98730000
12.28420000 -1.97880000 -3.20340000
9.91400000 -2.19450000 -3.19990000
13.32980000 -2.18030000 -3.24600000
-11.82570000 13.49910000 -3.41860000
8.65840000 4.74680000 -3.20230000
8.32490000 3.68410000 -3.18500000
7.82560000 4.66730000 -3.20600000
5.30060000 -23.73910000 -1.56300000
5.53100000 -24.06220000 -1.22840000
5.54680000 -24.47090000 -1.38760000
5.51620000 -24.97460000 -1.52530000
5.29710000 -24.83590000 -2.03430000
5.35420000 -24.42410000 -1.82770000
26.98670000 2.78410000 1.97030000
-5.73890000 -19.71210000 3.26120000
-7.23800000 -19.20910000 3.27480000
-13.64570000 -9.33410000 3.23860000
-13.88930000 -8.72580000 3.46310000
-19.22230000 -8.71450000 -1.58770000
-18.99260000 -9.06840000 -1.34290000
-18.87750000 -9.24970000 -1.67140000
5.66280000 -24.53510000 -0.98880000
5.67510000 -24.93000000 -1.06850000
25.11500000 -2.34960000 -3.05820000
-10.38640000 -18.64840000 3.26360000
-11.07720000 -18.19940000 3.24150000
26.55460000 -6.12520000 -0.63270000
1.86190000 -17.52750000 -3.15040000
1.46520000 -17.13010000 -3.09680000
2.29180000 -17.29500000 -3.38090000
-3.63510000 -3.17630000 -1.56840000
-3.44420000 -3.69290000 -1.36350000
6.22220000 -13.40000000 3.23000000
7.10240000 -13.45440000 3.26060000
5.38290000 -13.15800000 3.17310000
-8.63740000 18.68470000 -0.98260000
17.54160000 12.93610000 1.19520000
18.85230000 12.05220000 1.14930000
-5.62540000 21.54710000 -2.85620000
-7.59540000 6.47950000 3.31490000
-7.29410000 6.92580000 3.53660000
-25.37100000 -4.86680000 -2.49760000
-25.96280000 -4.78710000 -2.51100000
-5.49320000 -16.78990000 3.21570000
-4.98060000 -17.73080000 3.24190000
-5.06870000 -16.90320000 3.26310000
-4.65110000 -16.02400000 3.27190000
-25.69040000 1.70500000 2.49740000
-25.26120000 0.88500000 2.74290000
-25.42060000 2.95510000 2.36100000
6.21010000 10.40320000 -3.36330000
6.37280000 9.15170000 -3.45860000
6.34220000 9.59020000 -3.41320000
6.96470000 9.78800000 -3.35610000
9.05620000 7.76930000 3.60780000
8.94330000 8.75380000 3.28130000
20.18660000 -2.43620000 -0.78430000
19.78650000 -0.87690000 -1.31950000
19.87680000 -1.31500000 -1.22760000
18.26210000 8.04010000 3.07770000
2.06270000 28.03830000 2.09850000
1.42110000 28.04180000 2.43240000
21.01790000 7.53520000 1.38240000
21.19690000 7.68270000 1.50130000
6.75510000 24.47500000 -1.68440000
7.18590000 24.29800000 -1.46330000
6.77640000 24.20450000 -1.75620000
7.29830000 23.58130000 -1.30140000
-27.61850000 -2.12290000 0.84290000
-14.10320000 4.84780000 3.55140000
0.51980000 14.00560000 -3.19730000
-0.17430000 12.98660000 -3.11760000
23.71020000 7.50700000 -0.17840000
-1.83900000 -24.08040000 -0.88690000
-1.70410000 -23.78000000 -1.23000000
-1.68770000 -23.45330000 -1.21120000
17.58360000 -13.47990000 2.59120000
3.78170000 -4.10120000 1.14340000
4.02120000 -3.85830000 1.67490000
4.27460000 -3.35270000 1.55000000
-0.15010000 7.50840000 -3.16110000
-4.15110000 -0.84590000 0.70780000
-3.91510000 -0.12570000 0.34770000
-5.86600000 18.79900000 -2.86510000
19.63600000 11.25800000 -0.54500000
12.54960000 -3.36260000 3.34980000
2.08360000 -25.78500000 -3.71140000
1.67180000 -25.83910000 -3.71640000
2.46610000 -25.91220000 -3.63320000
2.79440000 -26.06250000 -3.52270000
-7.26340000 19.22900000 2.50730000
-7.96700000 19.98350000 2.21290000
-16.40870000 9.54360000 -3.29250000
4.30680000 10.27650000 -3.07790000
11.59680000 15.88160000 2.91620000
10.94920000 16.45470000 2.76870000
11.98170000 15.75390000 2.50130000
-1.74940000 -24.68270000 1.22220000
-1.66860000 -24.27700000 1.34230000
-2.03460000 -25.77380000 -1.34320000
-1.94830000 -24.84780000 -1.14760000
-2.00940000 -25.20780000 -1.16310000
5.50810000 -12.69820000 3.17650000
5.50420000 -11.52130000 3.24960000
-5.66190000 7.38240000 3.29060000
2.29670000 -11.59820000 -3.29740000
2.53370000 -13.12300000 -3.29530000
16.78140000 -13.41550000 3.28770000
16.07670000 -14.25260000 3.24490000
15.99600000 -13.41570000 3.32940000
27.03980000 3.24450000 1.26510000
27.28190000 2.99180000 0.91950000
27.03310000 3.49680000 0.78150000
26.43850000 4.33630000 0.58540000
-11.43600000 14.01750000 -3.40900000
-11.22650000 14.50370000 -3.32830000
-12.63280000 13.77280000 -3.08300000
25.71640000 -3.96100000 3.04730000
25.62640000 -2.75890000 3.21030000
25.41990000 -3.86710000 3.10980000
25.41620000 -4.68150000 2.95300000
-21.06250000 -2.23980000 1.37180000
-20.87470000 -2.09650000 0.77640000
-20.71400000 -1.99760000 1.06190000
8.20770000 4.23330000 3.64660000
7.88670000 4.39700000 3.68050000
7.80720000 4.03020000 3.68790000
-15.00560000 13.35880000 -1.17040000
-14.89170000 14.30360000 -1.16450000
-15.17080000 13.54660000 -1.42860000
-14.71320000 14.98170000 -1.16440000
-16.04110000 3.39490000 -3.28730000
-15.19660000 3.39740000 -3.28340000
-12.59020000 -5.54950000 -3.20190000
-21.51420000 -9.11160000 0.28860000
-21.72430000 -9.36960000 0.41600000
-21.86710000 -9.60210000 0.05920000
-21.71800000 -9.22860000 -0.22000000
-22.59610000 2.44920000 2.67910000
4.72750000 -25.95970000 -2.61030000
4.39000000 -26.21580000 -2.82160000
4.33250000 -25.89410000 -3.01020000
4.11560000 20.14990000 -2.75500000
3.82030000 20.89500000 -2.58540000
-14.57720000 15.37870000 -1.15050000
-23.02060000 2.14980000 2.65120000
-22.65270000 2.01920000 2.55820000
-19.25300000 -8.40390000 -2.43580000
-15.08400000 13.97400000 1.67580000
-14.51790000 14.16990000 1.88530000
-13.61430000 14.58010000 1.84540000
0.87470000 28.05860000 1.64180000
1.18060000 28.06630000 1.42590000
27.47550000 0.58090000 -1.40180000
-22.78050000 -1.88980000 2.64740000
2.28630000 2.89280000 -0.57220000
3.05490000 2.46440000 -1.09210000
-14.80060000 13.77050000 2.20740000
-13.95680000 14.20280000 2.31730000
-15.38640000 13.82990000 1.79380000
-11.55250000 -10.33550000 3.25100000
-11.60090000 -11.39700000 3.50980000
-12.02520000 -12.46640000 3.46060000
11.33270000 4.87580000 -3.40110000
11.20360000 5.48590000 -3.36380000
11.64440000 5.89470000 -3.35000000
10.51470000 4.80540000 -3.46160000
24.51020000 0.84870000 3.11860000
23.37870000 -0.01730000 3.11150000
8.78860000 -5.56170000 3.31080000
7.91590000 -4.34270000 3.32250000
8.13200000 -4.22490000 3.33590000
6.46540000 3.05540000 -3.18260000
7.23080000 3.73540000 -3.23190000
7.39150000 4.11410000 -3.24420000
-0.99030000 -5.85990000 -2.91540000
-3.26960000 -19.21840000 3.22930000
-4.27230000 -18.62760000 3.23300000
11.56790000 -8.79920000 3.20980000
11.72390000 -8.82130000 3.15120000
-22.87660000 -6.47650000 -1.92760000
-23.68690000 -4.96460000 -2.38410000
-23.61790000 -5.90790000 -2.13220000
5.28670000 -8.22420000 3.32180000
3.41000000 19.85440000 3.10900000
4.18720000 20.55040000 3.11010000
-4.26400000 9.72070000 3.61400000
-4.74700000 9.80670000 3.57480000
-4.43380000 9.50230000 3.61210000
-14.73420000 -15.44680000 -2.82890000
-15.67660000 -14.19850000 -2.87950000
-16.12650000 -13.18260000 -2.91930000
5.40870000 -7.29990000 3.35820000
6.44210000 -6.59160000 3.39960000
-27.75630000 -4.21540000 -0.63080000
2.40760000 -17.01690000 3.62010000
2.22630000 -16.56770000 3.60040000
24.27400000 -8.51840000 1.56770000
23.32340000 -8.84860000 1.48940000
-14.81140000 14.39510000 -2.26900000
-14.58710000 14.82370000 -2.10200000
-15.28840000 12.87080000 -2.60690000
-2.33330000 22.35060000 2.90910000
-0.33020000 3.22780000 -2.21970000
-23.34450000 6.93600000 -1.70750000
-23.03070000 7.71590000 -1.16820000
-2.13590000 23.44430000 2.82710000
-1.99500000 21.98240000 2.89840000
-3.19450000 -18.32770000 3.54340000
1.83820000 27.64950000 -2.16060000
-11.62240000 -12.07380000 -3.18850000
-12.05120000 -11.09280000 -3.27860000
5.30310000 -25.11390000 1.39450000
5.24770000 -25.34550000 1.59700000
4.97220000 -25.65970000 2.08790000
-3.27890000 -17.51110000 3.65550000
-3.28730000 -18.00330000 3.63100000
-2.92260000 -17.35610000 3.60280000
3.44770000 25.32990000 -2.62870000
4.40320000 25.16500000 -2.49230000
3.37420000 24.95340000 -2.69010000
2.51690000 25.25360000 -2.73940000
-22.43210000 -4.44950000 2.26140000
-22.04760000 -5.53550000 1.94340000
-22.37210000 -4.86210000 2.19710000
-22.57540000 -4.90280000 2.23470000
4.82700000 -22.16140000 0.60980000
7.78370000 23.18740000 -0.60140000
7.65320000 22.87970000 -0.43180000
7.90330000 23.11420000 -0.32410000
-8.93190000 19.35010000 -1.57050000
-3.65000000 0.33330000 -0.64250000
-8.46090000 4.03900000 -3.06960000
-7.94570000 3.80110000 -3.10700000
-8.24970000 4.19680000 -3.11360000
-7.56470000 4.30520000 -3.28990000
3.34820000 -27.59950000 -1.88870000
3.14720000 -27.88470000 -1.26840000
2.59190000 -27.97980000 -1.42140000
2.73620000 -27.80790000 -1.83090000
23.09750000 7.61320000 -0.67640000
23.28920000 7.81870000 -0.36670000
-0.76190000 -16.79660000 -3.31470000
11.87880000 5.22760000 3.13040000
11.24700000 5.68260000 3.16810000
19.86250000 -9.95370000 -0.79820000
-3.68560000 -14.50700000 -3.11010000
-3.93570000 -13.82380000 -3.13240000
-3.95630000 -15.72370000 -3.12750000
-18.17650000 11.61380000 -0.43450000
-18.35320000 11.26320000 -0.57490000
7.91110000 -16.78570000 -3.36690000
5.78620000 -17.43980000 -3.22900000
6.92840000 -17.25410000 -3.35620000
10.62870000 5.79450000 3.18500000
-18.76940000 2.11190000 -2.56650000
7.58740000 -15.67010000 -3.28770000
8.88840000 -15.45440000 -3.30400000
7.85700000 -14.73490000 -3.34110000
6.40190000 -11.92860000 3.61650000
2.96480000 13.26920000 -3.37980000
21.21290000 -9.17430000 -0.79910000
21.20380000 -9.30280000 -0.57340000
-2.46660000 6.58370000 3.48180000
-3.24610000 6.40690000 3.68580000
-21.95880000 3.22290000 3.04770000
-22.22830000 3.15510000 3.04030000
-21.98470000 2.55590000 2.72080000
-22.43070000 3.67490000 3.09130000
6.06110000 18.72130000 0.73130000
-21.93330000 -0.01190000 0.82220000
-21.95000000 -0.88990000 0.14930000
-21.89650000 -1.07290000 -0.71650000
-21.88290000 -0.27160000 -0.02730000
-10.92350000 15.78010000 -1.21950000
-14.25360000 -0.40910000 -3.45020000
-13.89880000 -0.80160000 -3.40320000
-19.98120000 6.61820000 2.71720000
27.03890000 -3.76510000 -1.98860000
21.30850000 5.36190000 -0.84100000
21.33880000 5.39900000 -0.04830000
-21.93800000 -1.06430000 -1.40510000
20.85220000 -2.98670000 -1.92300000
9.50690000 0.60450000 3.75120000
9.03640000 0.16750000 3.75110000
9.71090000 0.90470000 3.71720000
9.66550000 1.29060000 3.56530000
14.82810000 -12.30500000 -3.34890000
16.37700000 -10.56020000 -3.37360000
15.25810000 -11.43840000 -3.37400000
15.85520000 -10.16880000 -3.38480000
-4.34090000 8.42050000 3.28660000
-4.68120000 8.57650000 3.32060000
-14.23960000 13.40750000 -0.49520000
-14.35180000 13.80950000 -0.65560000
-14.68280000 14.18970000 -0.93390000
-14.74260000 13.21310000 -0.91440000
-13.23990000 -12.66270000 3.28060000
3.08910000 -27.60450000 1.90750000
-5.29720000 -22.14040000 1.63680000
-4.64330000 -22.35920000 1.93580000
-5.36330000 -22.18590000 2.27210000
4.13910000 -13.47860000 3.59550000
3.36830000 -13.71290000 3.63330000
-6.03410000 -7.83240000 3.59540000
14.56400000 -10.39410000 3.68140000
14.09350000 -10.54270000 3.72550000
4.64380000 26.47770000 -0.51960000
4.25650000 26.65140000 -0.60280000
4.75030000 26.18580000 -1.38810000
-18.97790000 -9.05350000 -1.94930000
-0.85970000 11.51030000 3.55260000
-1.09840000 10.89510000 3.60600000
-0.79240000 11.08490000 3.60990000
-10.68630000 17.40270000 0.35030000
-11.21130000 16.76710000 -0.10810000
-10.69060000 17.29740000 0.07050000
-10.16910000 17.70220000 0.33320000
-10.11120000 17.67390000 0.12360000
28.09050000 0.81220000 0.62640000
28.10920000 0.98000000 0.19760000
18.25540000 5.98410000 -2.77810000
1.90780000 -24.67000000 -3.76240000
2.31570000 -24.45080000 -3.67160000
1.77180000 -24.13850000 -3.63030000
1.88220000 -23.72800000 -3.46710000
2.17420000 -24.02080000 -3.55910000
-17.52610000 10.08380000 0.84570000
-17.23680000 10.28600000 0.45620000
3.11870000 -8.15140000 -3.19180000
1.33060000 -8.48890000 -3.19210000
2.12760000 -7.73590000 -3.22840000
2.99900000 10.21380000 3.58670000
2.63690000 10.73770000 3.59640000
2.65050000 18.79840000 3.31520000
1.52160000 18.63100000 3.25470000
1.06260000 18.81630000 3.07300000
0.27500000 18.69150000 3.13480000
9.94660000 -10.31450000 3.27120000
9.35490000 -9.82810000 3.30100000
9.04110000 -9.37920000 3.22250000
-22.28390000 1.42820000 -2.51940000
-22.68580000 1.96040000 -2.53070000
-23.35930000 2.36650000 -2.44960000
3.13800000 10.62250000 3.57000000
3.59180000 2.70510000 3.40050000
-23.72560000 -9.02420000 1.17810000
-23.49280000 -9.48920000 0.52950000
6.04920000 19.24100000 2.00490000
5.96870000 19.07880000 2.34750000
6.11990000 18.97570000 1.52640000
-6.87680000 22.80770000 2.16770000
-3.16420000 20.81960000 -2.52780000
-3.38130000 20.69760000 -2.61600000
-4.45560000 -6.05930000 -3.22410000
10.80260000 -19.38020000 3.19840000
11.00220000 -18.90780000 3.31240000
16.13520000 12.49850000 -1.10130000
-27.10500000 1.32950000 -1.10230000
-27.29360000 0.32150000 -1.44630000
2.16530000 21.90040000 -2.52880000
2.80690000 21.72470000 -2.24510000
12.30950000 -13.88630000 3.27820000
12.55170000 -13.51400000 3.22340000
-0.63340000 -26.73340000 -2.85790000
-5.02460000 -12.89050000 3.31170000
-28.41530000 -2.77030000 1.82100000
-28.57670000 -3.33290000 1.45800000
-3.58480000 -4.63950000 3.24570000
-3.80910000 -4.13830000 3.10300000
-28.17450000 -2.41610000 1.66600000
-27.51060000 -3.73480000 -2.44690000
-11.78730000 10.54110000 3.28170000
-12.53690000 9.43410000 3.28190000
-14.12880000 13.19600000 -0.13850000
-13.95120000 13.50380000 -0.23630000
-14.22730000 13.16300000 -0.31640000
17.36330000 -3.68550000 -3.34050000
17.86390000 -3.35330000 -3.26730000
3.99110000 12.32110000 3.15390000
-16.53890000 -13.13370000 0.71650000
2.59110000 13.56710000 -3.46370000
1.76190000 13.62820000 -3.44530000
0.88780000 -6.15250000 -3.14030000
-17.46120000 -10.91020000 3.00300000
-17.52380000 -10.38030000 3.19800000
-17.62890000 -9.74590000 3.29990000
-17.90330000 -9.70360000 3.20200000
2.26150000 -25.40430000 3.15670000
8.09920000 23.99890000 0.37810000
8.07320000 23.51490000 0.43930000
-1.44380000 -10.74510000 3.44670000
-1.35100000 -10.12740000 3.66290000
-17.75710000 -10.76310000 2.62730000
-21.98580000 -1.42510000 -2.48710000
-9.12660000 -8.56510000 3.59670000
-9.00970000 -9.23800000 3.55900000
-8.66390000 -8.17640000 3.36140000
-9.56180000 5.39230000 3.48060000
17.72220000 0.79040000 -3.31470000
18.21010000 1.16280000 -3.29770000
18.61030000 1.78410000 -3.34620000
9.33180000 16.22030000 -3.03460000
10.19560000 15.88890000 -3.06240000
14.94320000 -16.03850000 3.02740000
4.15840000 -25.48060000 -3.18300000
13.41320000 -5.41420000 3.27230000
13.16160000 -5.18370000 3.30710000
12.67490000 -5.56390000 3.57660000
23.39220000 -8.90240000 -0.82310000
22.92330000 -9.01320000 -1.16380000
23.51080000 -8.58440000 -1.22560000
12.25040000 -4.61160000 3.27470000
13.05430000 -4.83670000 3.27240000
-27.14660000 1.41840000 -0.16730000
-27.39250000 0.52590000 -0.36380000
-13.74010000 5.56300000 3.54360000
-13.51110000 5.30280000 3.60530000
-13.21540000 4.87410000 3.63160000
1.13690000 19.14390000 -2.22400000
1.05820000 19.20800000 -1.64570000
19.50920000 0.58000000 2.67720000
19.20860000 0.13210000 2.92480000
19.29710000 0.77050000 2.95950000
18.99820000 0.52350000 3.11300000
16.01150000 -4.24580000 3.34560000
15.42160000 -4.38360000 3.45870000
-9.01930000 1.83830000 -3.09860000
-9.98730000 1.54320000 -3.10120000
23.19810000 -8.63460000 -1.43750000
22.71430000 -8.90780000 -1.36630000
22.81020000 -8.53490000 -1.61790000
5.50130000 22.18450000 -0.70000000
19.79510000 1.74710000 3.12940000
19.15920000 -11.02140000 -1.49440000
19.04800000 -11.10540000 -2.11010000
0.47890000 19.18640000 -1.02490000
0.90940000 19.19000000 -1.15360000
0.78010000 19.10240000 -1.92980000
7.71150000 13.08560000 3.26150000
7.63850000 14.08680000 3.28630000
7.51980000 14.32970000 3.27540000
6.76610000 14.75520000 3.27340000
-9.85660000 16.14370000 -2.55770000
-8.80570000 16.71970000 -2.78880000
-7.86080000 17.27120000 -2.54580000
-0.84350000 -21.97880000 2.97500000
-0.09860000 -21.90120000 2.97290000
0.34480000 -21.60500000 3.08260000
-0.14470000 -21.09540000 3.22710000
-27.61970000 -3.17610000 0.35880000
-27.71280000 -2.67590000 0.76640000
-3.29550000 -19.50560000 3.19960000
15.92530000 -5.01620000 -3.35450000
25.07360000 -3.94700000 3.09260000
-1.79160000 -22.25350000 2.77530000
14.48260000 -11.42980000 3.32410000
14.09600000 -11.23410000 3.41730000
27.84250000 -1.71540000 2.11840000
28.16010000 -0.32200000 0.82670000
27.95070000 -1.43690000 1.77460000
-18.55170000 -5.05350000 3.34110000
12.00490000 8.16450000 3.22840000
5.82360000 22.18400000 1.24390000
6.31800000 22.38160000 1.20040000
