-3.79490000 -6.61880000 0.38410000
-3.75920000 -6.26280000 0.38670000
-3.86570000 -6.52640000 0.38780000
-2.05370000 -5.99810000 0.31380000
-1.83150000 -6.09750000 0.28640000
-1.66430000 -5.98250000 0.25670000
-3.51780000 -6.10560000 -0.44940000
-3.51160000 -6.26200000 -0.45510000
-3.53130000 -6.16080000 -0.55030000
-1.22720000 -5.68550000 0.56950000
-1.29520000 -5.72610000 0.51370000
-1.27590000 -5.91720000 0.52360000
-1.37860000 -5.22200000 0.44680000
-1.44290000 -5.33750000 0.41530000
-1.33600000 -5.48600000 0.48320000
-5.57310000 -8.42940000 -0.01020000
-5.54330000 -8.43250000 -0.26370000
-4.89190000 -8.42900000 -0.11100000
-3.87130000 -5.44800000 0.19300000
-3.84580000 -5.45310000 -1.10730000
-3.84120000 -5.57270000 -0.38650000
-3.11890000 -5.06040000 0.16440000
-3.12070000 -5.06120000 -0.44530000
-2.97880000 -5.06560000 -0.17570000
-2.93750000 -4.91790000 0.32640000
-3.03150000 -4.94960000 0.26270000
-2.91730000 -5.00560000 0.28500000
-3.80630000 -5.68090000 -1.01970000
-3.78290000 -5.69730000 -1.11750000
-3.28520000 -5.17900000 0.25960000
-3.34620000 -5.25010000 -0.55080000
-3.24680000 -5.13930000 -0.54990000
-2.12550000 -8.42050000 0.69080000
-1.80570000 -8.42230000 1.22460000
-2.38460000 -8.42450000 1.14580000
-2.87370000 -4.58130000 0.18890000
-2.87750000 -4.61920000 0.36650000
-2.83030000 -4.51020000 0.23650000
-2.64180000 -4.70230000 0.50120000
-2.49880000 -4.75720000 0.42340000
-2.50880000 -4.52000000 0.42110000
-5.00950000 -7.67100000 -0.29570000
-5.00170000 -7.65580000 0.12550000
-4.98700000 -7.67050000 -0.78810000
-2.12020000 -7.69720000 -1.45490000
-2.78130000 -7.66120000 -1.41780000
-1.83390000 -7.67450000 -1.43240000
-2.06060000 -4.85720000 -0.39660000
-2.03220000 -4.84840000 -0.21030000
-2.34010000 -4.65870000 0.10440000
-2.33450000 -4.77280000 0.15870000
-2.01510000 -4.58870000 0.25960000
3.22010000 -6.20990000 -1.05560000
3.24960000 -6.41500000 -1.11270000
3.23650000 -6.69610000 -1.10950000
0.33430000 -5.11090000 -0.23860000
0.42850000 -5.05500000 -0.07030000
0.43600000 -5.05320000 -0.30750000
0.07640000 -4.65510000 -0.12030000
0.29480000 -4.74680000 -0.85070000
0.30910000 -4.74820000 -0.10410000
2.10990000 -7.54060000 0.14650000
2.01600000 -7.54540000 0.30140000
2.29880000 -7.54950000 0.21500000
1.51340000 -7.19250000 0.32670000
1.66910000 -7.10480000 0.36190000
1.61020000 -7.09770000 0.23440000
1.64760000 -6.88690000 0.34850000
1.61720000 -7.00090000 0.20650000
1.67920000 -6.92790000 0.30150000
2.51030000 -7.55360000 0.19250000
2.61310000 -7.54300000 -0.04240000
2.42950000 -7.55050000 0.01040000
-0.19440000 -4.49000000 0.15920000
-0.19480000 -4.60640000 -0.04590000
-0.18080000 -4.47580000 -0.11530000
2.07240000 -7.36160000 0.25810000
2.17680000 -7.38530000 0.11710000
2.35000000 -7.33280000 0.15350000
0.63590000 -5.57710000 -0.83400000
0.96030000 -5.67040000 -0.81470000
0.63590000 -5.61160000 -0.77540000
1.47740000 -5.70850000 -1.11420000
1.29020000 -5.71040000 -0.98830000
1.31030000 -5.61160000 -1.05410000
3.16310000 -7.38780000 0.13630000
2.91070000 -7.27540000 -0.00050000
3.07620000 -7.35610000 -0.01910000
0.98740000 -5.69230000 -0.26420000
0.81770000 -5.63690000 -0.54950000
1.09920000 -5.71620000 -0.46160000
1.17760000 -5.76100000 -0.16040000
1.46140000 -6.89510000 -0.44340000
1.55590000 -6.86570000 -0.01840000
1.68250000 -6.85480000 -0.67180000
1.66980000 -6.82210000 0.16850000
1.20260000 -5.46440000 -0.59370000
0.98030000 -5.45370000 -0.87220000
1.01960000 -5.44270000 -0.46700000
0.91740000 -5.43550000 -0.73290000
0.91830000 -5.43210000 -0.18140000
1.89590000 -5.91400000 -0.64360000
1.84610000 -5.83770000 -1.10670000
1.74300000 -5.77590000 -0.82460000
1.78560000 -5.83160000 -0.38910000
2.61030000 -6.61130000 -0.00780000
2.54780000 -6.65080000 -0.62260000
2.32330000 -6.68250000 -0.42480000
2.05980000 -5.50840000 -0.56020000
1.90520000 -5.57020000 -0.49290000
1.87800000 -5.57340000 -0.72940000
2.11350000 -7.15450000 -1.02200000
2.25140000 -7.18710000 -0.99460000
2.12570000 -7.33340000 -1.00540000
3.14060000 -5.66160000 0.26980000
3.12740000 -5.78900000 -0.04180000
3.11770000 -5.91630000 0.29620000
0.52400000 -4.93450000 -1.02140000
0.48850000 -4.75950000 -1.07990000
0.66590000 -4.87130000 -1.06420000
2.37250000 -7.00340000 -0.96320000
2.64230000 -7.05160000 -0.88400000
2.53410000 -7.17340000 -0.90550000
3.14040000 -5.68110000 -0.01730000
3.14480000 -5.55050000 -0.05700000
3.32140000 -5.85330000 0.57880000
3.38990000 -5.65700000 0.57300000
3.26370000 -5.60920000 0.58610000
-0.99220000 -6.33820000 -1.11280000
-0.86480000 -6.52380000 -1.11670000
-0.93400000 -6.59590000 -1.10070000
2.31080000 -4.74220000 -1.16730000
2.28990000 -5.03880000 -1.15130000
2.13140000 -5.10240000 -1.14810000
3.46290000 -5.23390000 0.50040000
3.38920000 -5.34400000 0.54500000
3.45480000 -5.37180000 0.45110000
1.70810000 -4.63830000 -0.80280000
1.67990000 -4.79020000 -0.73850000
1.51910000 -4.69110000 -0.67870000
3.20400000 -5.73350000 -1.05070000
3.33080000 -5.64410000 -1.10490000
3.26740000 -5.87460000 -1.13330000
2.07860000 -4.98460000 -0.89720000
2.04360000 -4.99800000 -0.74750000
2.16850000 -4.85350000 -0.90120000
0.32150000 -6.01720000 -0.80190000
0.32360000 -6.01870000 -0.53340000
0.59850000 -6.24080000 -0.64040000
1.11700000 -5.49270000 0.20400000
0.84460000 -5.51380000 0.17590000
1.13520000 -5.64020000 0.31310000
0.95820000 -5.14820000 -0.05150000
0.97200000 -5.12990000 -0.44110000
1.08880000 -5.13490000 -0.25490000
1.07030000 -5.14780000 0.11730000
0.31070000 -6.11980000 -1.03160000
0.27630000 -6.34090000 -1.12560000
-0.11340000 -6.10010000 -1.13220000
1.57160000 -5.55090000 0.38740000
1.53470000 -5.64610000 0.43660000
1.98610000 -5.37880000 0.50930000
1.34820000 -4.85030000 0.42020000
1.35920000 -4.90740000 -0.32610000
1.38780000 -4.79140000 -0.21840000
3.48390000 -5.40910000 -0.02820000
3.52710000 -5.47900000 -0.35270000
3.46040000 -5.33520000 -0.51560000
1.96770000 -5.57880000 0.06190000
1.98530000 -5.57550000 -0.11960000
2.18510000 -5.47370000 0.17660000
-0.45960000 -5.01930000 -0.92660000
-0.59200000 -4.95200000 -0.93620000
-0.54920000 -4.81610000 -1.00180000
-1.32840000 -5.05470000 -0.75980000
-1.31620000 -5.02730000 -0.30870000
-1.26650000 -4.89110000 -0.30040000
3.46780000 -5.24980000 0.28970000
3.45620000 -5.37100000 0.25690000
3.45000000 -5.34080000 0.00770000
-0.81390000 -4.88720000 -0.69050000
-0.76840000 -5.07340000 -0.77150000
-0.77550000 -5.05020000 -0.53620000
1.85780000 -5.18290000 0.34970000
2.05840000 -5.15320000 0.46750000
2.09210000 -4.96400000 0.45000000
2.93430000 -4.42500000 -0.43490000
2.93900000 -4.46970000 -0.74290000
2.83020000 -4.53520000 -0.48750000
1.38700000 -4.66520000 -0.34690000
1.39000000 -4.65300000 -0.12800000
1.35360000 -4.68440000 -0.07560000
0.21700000 -5.21390000 -0.74020000
0.25060000 -5.16280000 -0.47960000
0.38210000 -5.14160000 -0.69430000
0.50660000 -4.96180000 -0.50780000
0.42210000 -4.86330000 -0.73220000
0.47930000 -4.99550000 -0.64900000
-0.37210000 -4.77450000 -0.95640000
-0.25860000 -4.75400000 -0.85320000
-0.31830000 -5.05260000 -0.91080000
-0.21190000 -5.01860000 -0.81870000
-0.26910000 -4.85070000 -0.64060000
-0.22690000 -4.95170000 -0.48850000
1.67450000 -4.38950000 -0.46580000
1.88840000 -4.58760000 -0.41480000
1.86650000 -4.62730000 -0.78170000
2.72800000 -4.63180000 -0.19770000
2.77830000 -4.58710000 0.22220000
2.91920000 -4.42200000 -0.21100000
1.70740000 -4.45920000 -0.72770000
-0.69310000 -7.54540000 -1.03270000
-0.49500000 -7.56600000 -1.35430000
-0.89890000 -7.55120000 -1.17210000
3.10380000 -3.59570000 -0.39220000
3.15220000 -3.79930000 -0.79140000
3.14000000 -3.82750000 -0.23920000
2.21630000 -4.23650000 -1.04710000
2.20680000 -4.21370000 -0.72210000
2.13750000 -4.10410000 -1.04180000
-0.98260000 -5.39930000 0.55610000
-0.72790000 -5.78390000 0.60320000
-0.51110000 -5.78160000 0.55900000
-0.15880000 -6.22020000 0.58810000
-0.24470000 -5.99590000 0.55980000
0.53760000 -6.17240000 0.12530000
0.91470000 -6.48270000 0.11600000
0.98630000 -6.53750000 -0.12350000
1.75280000 -4.42430000 0.11800000
1.65370000 -4.50620000 0.21060000
1.86080000 -4.49970000 0.15290000
0.19630000 -5.89380000 0.37310000
0.36200000 -6.04420000 0.33270000
0.15190000 -5.83670000 0.18230000
-0.25820000 -5.39270000 0.16900000
-0.02180000 -5.41780000 0.17250000
-0.27050000 -5.22080000 0.22750000
2.15530000 -4.06580000 -0.23220000
2.12900000 -4.02960000 -0.27060000
2.10490000 -4.08640000 -0.81200000
0.44040000 -5.14480000 0.18800000
0.35960000 -5.22110000 0.19600000
0.53550000 -5.24380000 0.24500000
3.16190000 -7.56970000 -0.63090000
2.98930000 -7.58610000 -0.86420000
2.97490000 -7.56840000 -0.62090000
3.15930000 -7.39810000 -0.67030000
3.20580000 -7.44510000 -0.82130000
3.23230000 -7.48080000 -0.72580000
2.87840000 -7.39700000 -0.31190000
2.87910000 -7.45790000 -0.46900000
2.98480000 -7.44500000 -0.29130000
2.76140000 -7.41780000 -0.32830000
2.77430000 -7.37550000 -0.19930000
2.65150000 -7.42950000 -0.17490000
-4.52310000 -2.92360000 0.01350000
-4.54180000 -2.95050000 -0.31790000
-4.58180000 -3.07980000 -0.04530000
-5.06040000 -2.60500000 -0.60710000
-4.89270000 -2.92500000 -0.60710000
-4.92050000 -2.72760000 -0.59900000
-1.96640000 -4.40220000 -0.74440000
-2.01550000 -4.53360000 -0.81210000
-2.25520000 -4.57440000 -0.65610000
-3.53360000 -4.44270000 -0.06130000
-3.61290000 -4.27650000 0.00680000
-3.61190000 -4.23520000 -0.39110000
-3.21120000 -4.04240000 -0.67270000
-3.29470000 -3.72790000 -0.32020000
-3.21620000 -3.94280000 -0.19190000
-3.20560000 -5.07350000 -0.77700000
-3.38170000 -5.24350000 -0.91590000
-3.40430000 -5.09470000 -0.96510000
-3.88420000 -4.11360000 -0.14340000
-3.86240000 -3.94340000 0.15550000
-3.90880000 -4.16330000 0.27580000
-4.51740000 -2.10280000 -0.40060000
-4.43090000 -2.16250000 -0.62090000
-4.37990000 -2.17280000 -0.35510000
-3.48870000 -3.00370000 -0.28680000
-3.55610000 -3.14250000 -0.78900000
-3.53100000 -3.07830000 -0.20220000
-3.36940000 -4.23150000 0.37330000
-3.25630000 -4.22540000 0.30370000
-3.31820000 -3.95840000 0.36460000
-3.19920000 -3.23160000 -0.38410000
-3.17710000 -3.19810000 0.07540000
-3.24190000 -3.32020000 -0.10300000
-4.09420000 -2.27560000 -0.69570000
-4.10400000 -2.23620000 -0.58720000
-4.23400000 -2.22500000 -0.57530000
-4.58840000 -3.35400000 -0.65710000
-4.54410000 -3.42320000 -0.87530000
-4.58090000 -3.40010000 -0.31350000
-2.82850000 -4.49310000 -0.53030000
-2.83890000 -4.54150000 -0.20100000
-2.81800000 -4.39730000 -0.42870000
-2.82220000 -4.44400000 0.06320000
-2.79190000 -4.32110000 -0.27070000
-3.04340000 -1.70350000 -1.05530000
-2.89530000 -1.74070000 -1.11900000
-3.07900000 -1.76570000 -1.09660000
-2.84990000 -1.63920000 -0.73030000
-2.77580000 -1.67030000 -0.84860000
-2.91970000 -1.59580000 -0.82850000
-2.43440000 -3.50400000 -0.11320000
-2.42410000 -3.51970000 -0.75750000
-2.30930000 -3.65040000 -0.65770000
-4.55910000 -3.47600000 -0.32020000
-4.59640000 -3.42900000 0.18250000
-2.47210000 -4.51120000 -0.44590000
-2.44890000 -4.40810000 -0.33500000
-2.46240000 -4.47270000 -0.20030000
-4.92280000 -3.15700000 0.10920000
-4.82330000 -3.20490000 0.03570000
-4.82380000 -3.22340000 0.25420000
-3.17380000 -4.10040000 -0.16270000
-3.15250000 -4.28110000 -0.13240000
-3.79580000 -3.07720000 -0.41640000
-3.77300000 -3.20370000 -0.86210000
-3.78340000 -3.10390000 -0.92580000
-3.69210000 -3.72420000 -1.02820000
-3.53680000 -3.93730000 -0.94260000
-3.68230000 -3.88810000 -0.92290000
-4.16050000 -3.49570000 -1.15870000
-4.05730000 -3.57060000 -1.14430000
-4.25260000 -3.64270000 -1.14520000
-4.41020000 -1.95160000 -1.06270000
-4.44320000 -1.73500000 -1.10810000
-4.26710000 -1.84970000 -1.11610000
-4.58510000 -1.66700000 -1.03470000
-4.60200000 -1.76580000 -0.85410000
-4.66960000 -1.56910000 -0.80290000
-4.74430000 -1.34600000 -0.65990000
-4.75300000 -1.32460000 -0.99750000
-4.72800000 -1.39750000 -0.89630000
-1.82230000 -2.92470000 -0.50050000
-1.74620000 -2.92080000 -0.14150000
-1.83480000 -2.91310000 0.18330000
-4.35180000 -0.90170000 -1.20570000
-4.51280000 -0.75900000 -1.18110000
-4.36740000 -0.76020000 -1.17850000
-4.70650000 -3.07730000 -1.16790000
-4.60230000 -3.22580000 -1.16180000
-4.80200000 -3.10790000 -1.15680000
-2.13370000 -4.48350000 -0.26790000
-2.00390000 -4.40420000 -0.46370000
-2.22210000 -4.54610000 -0.48080000
-4.82110000 -2.90760000 -1.13010000
-4.71420000 -3.01600000 -0.82630000
-4.65880000 -3.06910000 -1.13180000
-5.16220000 -2.81580000 -0.60470000
-1.86720000 -3.97620000 -0.01050000
-1.95910000 -3.93160000 -0.70050000
-1.80990000 -3.97940000 -0.54010000
-1.76780000 -4.02990000 -0.14840000
-2.01650000 -4.46600000 0.15220000
-2.01530000 -4.43760000 0.00260000
-2.26300000 -4.56890000 -0.06310000
-2.24860000 -4.05150000 -0.06670000
-2.22410000 -4.04060000 0.38560000
-2.33490000 -4.13530000 0.32570000
-5.12210000 -2.60590000 -1.04370000
-5.04280000 -2.73540000 -1.10060000
-5.03770000 -2.86350000 -1.07980000
-4.83450000 -2.85570000 -0.61360000
-4.83550000 -2.87660000 -1.08960000
-4.90320000 -2.72390000 -0.85730000
-4.46460000 -2.86480000 -0.10010000
0.74480000 -2.82750000 -0.98800000
0.71260000 -2.82400000 -0.56130000
0.73360000 -2.70230000 -0.83000000
1.38760000 -4.04050000 -1.00230000
1.33920000 -4.18730000 -1.05990000
1.21350000 -3.92860000 -1.06370000
-1.22110000 -4.41220000 -1.06580000
-1.50130000 -4.34830000 -1.03840000
-1.33580000 -4.30010000 -1.06460000
0.98700000 -4.06390000 -1.15020000
1.00770000 -4.21040000 -1.16870000
0.77230000 -3.93020000 -1.16790000
-0.71880000 -4.01050000 0.03500000
-0.68940000 -3.81340000 -0.29200000
-0.74250000 -4.08390000 -0.23230000
2.27360000 -2.34570000 -1.14760000
2.25510000 -2.63660000 -1.14160000
2.13280000 -2.34610000 -1.15870000
-1.46340000 -3.80820000 -0.94450000
-1.24130000 -4.09410000 -1.01370000
-1.51900000 -3.88780000 -1.03250000
-1.15860000 -4.06850000 -0.94420000
2.13950000 -1.92860000 -1.11550000
2.00880000 -2.09570000 -1.13960000
1.85780000 -2.00740000 -1.11520000
3.28040000 -3.88580000 -0.96630000
3.18710000 -3.50190000 -0.89620000
3.35310000 -3.69090000 -0.98920000
0.90620000 -3.58760000 0.04770000
0.93660000 -3.61160000 -0.39460000
0.85510000 -3.56060000 -0.29210000
3.41600000 -2.18680000 -0.96620000
3.56380000 -2.31220000 -0.96350000
3.30060000 -2.32380000 -0.84810000
2.05790000 -2.86090000 -0.79380000
2.13480000 -2.96350000 -1.00450000
2.08000000 -2.91820000 0.01930000
-1.61000000 -2.89140000 -0.31720000
-1.59210000 -2.88370000 -0.59010000
-1.45700000 -2.82090000 -0.51580000
2.16590000 -2.13680000 -1.10000000
2.21020000 -2.00130000 -1.12910000
0.14900000 -3.86580000 -1.08840000
0.04870000 -4.03280000 -0.98260000
-0.02840000 -3.98220000 -1.05240000
-1.76280000 -2.76550000 -1.16600000
-1.72660000 -2.63670000 -1.18720000
-1.63320000 -2.68970000 -1.10810000
0.11400000 -3.70670000 -1.05110000
-0.13810000 -3.78670000 -1.11490000
-0.36430000 -3.02320000 -1.05050000
-0.47760000 -2.69540000 -1.16340000
-0.31950000 -2.81230000 -1.14690000
-1.29370000 -3.91060000 -0.88330000
-1.40210000 -3.77630000 -0.62640000
-1.22610000 -3.96400000 -0.59010000
-1.43610000 -3.76530000 -0.83610000
0.33770000 -2.94470000 -0.83240000
0.31190000 -2.78150000 -0.49570000
0.36080000 -2.92030000 -0.41680000
0.77300000 -4.04080000 -1.15350000
0.41590000 -2.49210000 -0.58840000
0.41630000 -2.53490000 -0.68480000
0.57810000 -2.55570000 -0.62040000
2.88480000 -4.74570000 0.43090000
3.12770000 -4.71050000 0.45410000
3.02040000 -4.54610000 0.43660000
3.11350000 -3.56090000 0.29770000
3.05070000 -3.42250000 0.02570000
3.07190000 -3.51450000 -0.27160000
4.25730000 -3.10000000 0.47940000
4.33800000 -3.00910000 0.40220000
4.33660000 -2.95460000 0.29260000
4.29990000 -3.17790000 0.60490000
4.47330000 -2.99710000 0.61100000
4.18360000 -3.20310000 0.58270000
2.30780000 -4.11710000 0.22300000
2.40950000 -4.23910000 0.07140000
2.22480000 -4.04420000 0.17480000
2.43810000 -4.28590000 0.20510000
2.23920000 -4.14590000 0.61910000
2.28180000 -4.43950000 0.56780000
2.40810000 -4.61530000 0.58340000
4.18170000 -4.22100000 0.30310000
4.07280000 -4.33210000 0.31850000
4.12200000 -4.39770000 0.23290000
0.99950000 -4.47170000 0.60640000
1.05650000 -4.44150000 0.55160000
1.10200000 -4.31570000 0.50280000
0.35330000 -4.31270000 0.62490000
0.51390000 -4.18600000 0.63100000
0.31360000 -4.11300000 0.63330000
1.40390000 -4.40330000 0.47690000
1.42090000 -4.47590000 0.34510000
1.49830000 -4.33010000 0.34460000
4.34930000 -3.34350000 -0.27700000
4.36320000 -3.49400000 -0.23470000
4.37550000 -3.39470000 -0.56720000
3.65380000 -3.83890000 0.51000000
3.81890000 -3.87740000 0.54520000
3.88410000 -3.80320000 0.49360000
-5.57040000 0.46290000 -1.19750000
-5.47710000 0.38250000 -1.21180000
-5.68070000 0.35280000 -1.20640000
-3.25410000 -2.92800000 0.26570000
-3.41480000 -3.39420000 0.44310000
-3.23300000 -3.07950000 0.30500000
-4.43280000 -3.79330000 0.48190000
-4.33290000 -3.73560000 0.45140000
-4.42320000 -3.70360000 0.48590000
-2.66970000 -3.03560000 0.49140000
-2.63680000 -3.13390000 0.09470000
-2.57930000 -3.24760000 0.45530000
-3.50410000 -3.61520000 0.49280000
-3.41030000 -3.92340000 0.42450000
-3.38430000 -3.55740000 0.44330000
-4.73490000 -0.03060000 -0.77050000
-4.80060000 0.13710000 -0.63670000
-4.74730000 -0.06740000 -0.65720000
-3.13180000 -1.85800000 0.43660000
-3.06260000 -1.78890000 0.28220000
-3.17370000 -1.84420000 0.31400000
-4.96530000 -3.08180000 0.45090000
-5.00100000 -2.83040000 0.55070000
-5.07660000 -2.87330000 0.46100000
-3.15870000 -1.61750000 0.31300000
-3.07010000 -1.69390000 0.24880000
-2.92790000 -1.59770000 0.19660000
-4.79750000 -1.94660000 -0.24040000
-4.71980000 -1.87620000 -0.23960000
-4.73090000 -1.85200000 0.00980000
-5.71160000 -1.46680000 -0.19430000
-5.68640000 -1.50280000 -0.59240000
-5.62270000 -1.61640000 -0.43710000
-5.31770000 -1.39990000 -0.27200000
-5.30540000 -1.47350000 -0.84240000
-5.36490000 -1.38870000 -0.81770000
-3.56290000 -3.48690000 0.49750000
-4.85300000 -1.47340000 -0.30190000
-4.76390000 -1.41560000 -0.68570000
-4.91870000 -1.52800000 -0.47590000
-4.08140000 -2.93690000 0.42910000
-3.92490000 -2.86030000 0.31890000
-3.97270000 -2.63850000 0.18710000
-5.18370000 0.25850000 0.45290000
-5.06740000 0.09740000 0.43130000
-4.99360000 0.21840000 0.39150000
-5.34600000 -1.33830000 0.23730000
-5.36840000 -1.44180000 0.26310000
-5.24970000 -1.45320000 0.21560000
-2.62340000 -4.10870000 0.56200000
-2.72240000 -4.47800000 0.54440000
-2.65740000 -4.33260000 0.54450000
-1.83860000 -2.59500000 0.50740000
-1.75330000 -2.54050000 0.60380000
-1.88970000 -2.54210000 0.52580000
-2.48360000 -4.10920000 0.55470000
-2.27850000 -3.87370000 0.59190000
-2.59490000 -4.15220000 0.56620000
-5.71140000 -0.86650000 -0.50990000
-5.67950000 -0.76090000 -0.07900000
-5.65500000 -0.77620000 -0.60440000
-5.38690000 -1.17330000 -0.10090000
-5.38770000 -1.18960000 -0.28050000
-5.34640000 -1.12830000 -0.27360000
-5.31840000 -1.33410000 0.18460000
-5.37310000 -1.21170000 0.01500000
-5.36380000 -1.16930000 0.16440000
-1.84860000 -3.76180000 0.56450000
-1.91910000 -3.84350000 0.57830000
-1.70790000 -3.91380000 0.54080000
-2.16510000 -3.69040000 0.50170000
-2.14500000 -3.76430000 0.55600000
-2.03810000 -3.66860000 0.52720000
-4.94580000 -2.25900000 -0.00050000
-5.12240000 -2.08610000 -0.01280000
-4.90770000 -2.14320000 -0.02540000
-4.65910000 -0.35780000 -0.62750000
-4.41010000 -0.37560000 -0.80550000
-4.65790000 -0.37080000 -0.84180000
-4.39590000 -1.91170000 0.51650000
-4.17110000 -2.02970000 0.53910000
-4.33370000 -1.82330000 0.56000000
-2.45510000 -3.32540000 0.51110000
-2.24450000 -3.61530000 0.44680000
-2.20210000 -3.50720000 0.51410000
-5.01880000 -1.80840000 0.26200000
-5.19990000 -1.91140000 0.20200000
-5.06770000 -1.91220000 0.32820000
-4.89710000 -2.19800000 0.35740000
-4.85290000 -2.21650000 0.20430000
-4.83150000 -2.10930000 0.20510000
-5.54540000 -1.18330000 0.29650000
-5.46810000 -0.78480000 0.34290000
-5.62500000 -0.80500000 0.29080000
-5.04330000 -0.98310000 0.36770000
-5.02700000 -1.01510000 0.08310000
-4.89020000 -1.15560000 0.38790000
-4.07280000 -0.92990000 -0.51100000
-3.96550000 -0.95680000 -0.51490000
-3.98210000 -0.89130000 -0.54640000
-4.18440000 -0.75820000 0.50070000
-4.27200000 -0.80630000 0.55750000
-4.10760000 -0.92620000 0.55740000
-4.83940000 -2.29030000 0.18140000
-4.86440000 -2.23900000 0.04120000
-5.03590000 -1.99330000 -0.15050000
-5.03730000 -1.98570000 -0.25540000
-4.91650000 -2.00360000 -0.12330000
-1.91720000 -1.93090000 -0.53740000
-1.96710000 -2.13290000 -0.47540000
-1.68610000 -2.11750000 -0.50200000
-0.88920000 -2.02990000 -0.62130000
-0.96420000 -2.10860000 -0.77860000
-0.97680000 -2.11640000 -0.57780000
0.77590000 -3.51450000 0.47810000
0.65160000 -3.41200000 0.43350000
0.50640000 -3.49580000 0.55950000
0.73090000 -2.87240000 0.18980000
0.73020000 -2.81650000 0.47200000
0.70270000 -2.73610000 0.19170000
2.65030000 -2.16220000 0.55370000
2.70740000 -2.27340000 0.59300000
2.71310000 -2.12860000 0.59680000
0.68090000 -2.60280000 0.55300000
0.87490000 -2.75010000 0.48520000
0.92820000 -2.95910000 0.36060000
0.92500000 -2.67840000 0.44060000
-0.82800000 -2.01660000 -0.57750000
-0.70600000 -2.19330000 -0.51790000
-0.54790000 -2.22130000 -0.50800000
4.88770000 -2.38040000 0.54730000
4.84190000 -2.11920000 0.49310000
4.77530000 -2.28800000 0.54090000
5.31630000 -0.85390000 -0.84300000
5.42790000 -1.07930000 -0.82940000
5.31410000 -1.09850000 -0.73900000
-1.60450000 -1.84790000 0.34920000
-1.55200000 -1.94360000 0.45230000
-1.57100000 -1.89240000 0.16670000
5.02590000 -2.21320000 0.35170000
5.08120000 -2.41080000 0.33420000
5.02180000 -2.18900000 0.16520000
2.11750000 -3.02050000 -0.05080000
2.14520000 -3.13110000 -0.45420000
2.11510000 -3.23320000 -0.19460000
5.31030000 -1.87200000 0.22570000
5.10290000 -2.02030000 0.17690000
5.29800000 -1.92080000 0.01630000
5.18600000 -1.91350000 0.31180000
2.23730000 -3.30490000 0.36150000
2.15340000 -3.57260000 0.29150000
2.30900000 -3.38090000 0.33970000
4.64510000 -0.29860000 -0.79450000
4.54570000 -0.28800000 -0.57800000
4.74150000 -0.29070000 -0.68930000
4.98670000 -1.31300000 -0.20160000
4.97900000 -1.34040000 -0.36070000
5.00040000 -1.19690000 -0.21500000
4.56540000 -1.38590000 0.63650000
4.39680000 -1.61430000 0.64070000
4.77580000 -1.38260000 0.60750000
5.29010000 -1.59850000 0.39510000
5.13440000 -1.75070000 0.40200000
5.28920000 -1.68980000 0.39320000
0.38910000 -2.27380000 -0.54970000
0.47430000 -2.12730000 -0.55430000
0.10510000 -2.30020000 -0.54240000
-1.26900000 -3.20220000 0.42420000
-1.28480000 -3.09280000 0.40900000
-1.28540000 -3.09110000 -0.03860000
5.43570000 -1.80200000 0.07210000
5.29810000 -1.93250000 -0.18020000
5.45840000 -1.79910000 -0.34530000
-0.85300000 -2.45800000 -0.02800000
-0.84710000 -2.47350000 -0.12710000
-1.01620000 -2.47090000 -0.03970000
0.64760000 -2.56280000 -0.08930000
0.60800000 -2.49710000 0.27960000
0.59100000 -2.49240000 0.01290000
0.86740000 -2.48240000 -0.07240000
0.69780000 -2.46740000 -0.16190000
0.67120000 -2.41480000 -0.08630000
3.89700000 -1.76000000 0.63540000
3.87670000 -1.62660000 0.64010000
3.72000000 -1.74030000 0.64800000
4.07600000 -1.63570000 0.63090000
4.18580000 -1.73890000 0.63560000
4.18520000 -1.56040000 0.57630000
5.30120000 -1.14790000 -0.30710000
5.36100000 -1.36830000 -0.57480000
5.34860000 -1.35890000 -0.31190000
2.52020000 -3.13970000 -0.17410000
2.49220000 -2.96270000 -0.47840000
2.47550000 -2.86440000 -0.37620000
1.02210000 -2.20810000 0.34800000
1.06810000 -2.27210000 0.08000000
0.96930000 -2.16690000 0.24140000
2.45330000 -2.79750000 -0.24990000
2.51540000 -3.05830000 0.04110000
0.59290000 -2.27400000 0.03480000
0.68920000 -2.04060000 0.06480000
0.89590000 -2.19690000 0.03780000
1.74970000 -2.76560000 -0.17110000
1.77840000 -2.77810000 -0.94620000
1.89880000 -2.76280000 -0.45410000
3.08520000 -2.57220000 -0.44730000
3.09320000 -2.72470000 -0.45710000
3.07820000 -2.53890000 -0.70870000
1.16140000 -2.28240000 -0.56010000
1.17070000 -2.37820000 -0.52030000
1.49040000 -2.28800000 -0.53090000
-1.04510000 -2.20020000 0.34180000
-1.04560000 -2.19170000 0.04970000
-1.05360000 -2.27800000 0.41290000
5.27030000 -0.81910000 0.46710000
5.07830000 -0.87060000 0.35640000
5.28190000 -0.99220000 0.41010000
0.34540000 -2.77910000 -0.29800000
3.29560000 -3.09200000 0.27610000
3.22070000 -3.00570000 0.03880000
3.18780000 -2.94170000 0.26450000
0.30310000 -2.78100000 0.11830000
0.28090000 -2.72930000 -0.09650000
0.21060000 -2.70950000 0.04850000
0.20180000 -2.59730000 -0.10190000
5.01690000 -2.16230000 -0.72800000
5.04540000 -2.37750000 -0.82200000
4.98690000 -2.21460000 -0.81140000
5.03020000 -2.35840000 -0.45410000
4.92790000 -2.41950000 -0.50130000
5.08880000 -2.60440000 -0.51300000
5.22010000 0.07090000 -0.03310000
5.43050000 0.36110000 -0.42180000
5.16980000 0.08590000 -0.37570000
4.69660000 -2.16490000 -0.63580000
4.73810000 -2.26150000 -0.71050000
4.76480000 -2.35050000 -0.57120000
4.75070000 -2.20570000 -0.52330000
4.78640000 -2.31260000 -0.52970000
4.88540000 -2.24560000 -0.50070000
3.10110000 -2.68360000 -0.02520000
3.09700000 -2.53520000 -0.04130000
3.11000000 -2.64670000 0.08890000
4.66010000 -2.73530000 0.06620000
4.96570000 -2.92510000 0.12210000
4.56640000 -2.86130000 0.04830000
4.67350000 -2.67740000 0.19980000
4.68870000 -2.63640000 0.08520000
4.56640000 -2.80230000 0.08620000
4.70610000 -2.11010000 -0.44180000
4.86650000 -2.15850000 -0.39030000
4.76500000 -2.12670000 -0.17680000
3.60470000 -1.47260000 -1.08540000
3.76400000 -1.47370000 -1.10290000
3.63520000 -1.60780000 -1.10970000
-0.48100000 -2.39110000 0.00470000
-0.62710000 -2.27250000 0.01430000
-0.48820000 -2.21260000 0.01850000
4.07400000 -2.85900000 -0.05800000
4.18970000 -2.95490000 -0.35670000
4.08440000 -2.88100000 -0.42110000
5.55960000 -0.44410000 0.55860000
5.36970000 -0.61340000 0.56080000
5.58600000 -0.62120000 0.52150000
4.71030000 -2.14020000 -0.80360000
4.61350000 -2.07620000 -0.74470000
4.72490000 -1.93050000 -0.75210000
4.46420000 -0.33420000 0.51650000
4.37250000 -0.51940000 0.57010000
4.63720000 -0.47820000 0.57300000
4.90320000 -2.02240000 -0.72560000
4.90160000 -2.18500000 -0.85230000
0.42560000 -1.99360000 0.37860000
0.62560000 -1.97950000 0.29120000
0.49960000 -1.98100000 0.18740000
5.07820000 -1.87770000 -0.77260000
4.96040000 -1.99980000 -0.69840000
4.51360000 -1.71990000 -0.97110000
4.60320000 -1.52520000 -0.98950000
4.67700000 -1.61780000 -0.91620000
4.17520000 -2.29790000 -0.24490000
4.01720000 -2.30440000 -0.25910000
4.11250000 -2.30940000 -0.60590000
4.56280000 -2.00830000 -0.22670000
4.66220000 -2.08580000 -0.16000000
4.58070000 -2.03570000 0.07250000
5.71250000 -0.52630000 0.47200000
5.74040000 -0.53520000 0.29480000
5.78030000 -0.39480000 0.40610000
5.06110000 -1.65390000 -0.32200000
5.02350000 -1.68150000 -0.62720000
4.89900000 -1.66120000 -0.30400000
0.30440000 -2.37120000 0.30250000
0.39620000 -2.35750000 0.47070000
0.25880000 -2.35050000 0.58600000
2.02200000 -2.23120000 0.59360000
1.95040000 -2.07510000 0.56340000
1.88110000 -2.14160000 0.58590000
5.13450000 -1.60410000 -0.12980000
5.25420000 -1.55620000 -0.25450000
5.12760000 -1.64730000 -0.49820000
5.01080000 -1.05830000 -0.57040000
5.01740000 -1.09620000 -0.46820000
4.97050000 -1.31070000 -0.50410000
4.00760000 -2.32330000 -0.92410000
0.82030000 -3.50940000 0.16260000
0.78820000 -3.50830000 -0.25680000
0.78900000 -3.47890000 0.26410000
0.91890000 -3.31940000 0.16120000
0.81950000 -3.42500000 0.01220000
1.00380000 -3.22030000 -0.09400000
1.06280000 -3.11600000 0.06730000
1.09050000 -3.07610000 -0.17890000
1.14950000 -2.90210000 0.11190000
5.96030000 0.36230000 -0.54860000
5.94500000 0.28070000 -0.72430000
5.95120000 0.49030000 -0.81790000
0.43110000 -2.53270000 -0.82220000
0.52610000 -2.53480000 -0.77300000
-2.48210000 -4.88040000 0.31750000
-2.47030000 -4.84690000 0.21100000
-2.49920000 -4.66950000 0.18760000
-2.29360000 -5.29990000 0.04610000
-2.40800000 -5.11110000 0.16680000
-2.24110000 -5.38250000 0.47670000
-2.69880000 -7.25580000 0.04290000
-2.72910000 -7.27120000 0.25030000
-2.80470000 -7.28610000 0.11910000
-3.63140000 -7.29110000 0.12470000
-3.72900000 -7.38330000 -0.01180000
-3.55810000 -7.31800000 0.03780000
-5.31750000 -7.71410000 0.00860000
-5.40360000 -7.75120000 -0.08570000
-5.47980000 -7.78560000 -0.04770000
-2.75550000 -7.78530000 1.35110000
-2.70400000 -7.69830000 1.21000000
-2.90430000 -7.76400000 1.19650000
2.10930000 -7.38160000 -0.85040000
1.99720000 -7.44800000 -0.81450000
2.04660000 -7.43060000 -0.92680000
2.06570000 -7.57930000 -0.93790000
2.15510000 -7.56760000 -0.79490000
2.42640000 -7.57320000 -0.81840000
-4.05540000 -3.79280000 -1.12670000
-4.02950000 -3.95400000 -1.11640000
-4.18930000 -3.83290000 -1.12550000
-4.14570000 -4.09610000 -1.04260000
-4.15450000 -4.01280000 -1.09410000
5.15060000 -8.03630000 -0.21290000
5.18030000 -8.08970000 -0.31500000
5.07590000 -8.01680000 -0.26000000
-0.32860000 -8.08920000 -2.08930000
-0.42800000 -8.01590000 -2.07470000
-0.14180000 -8.04190000 -2.07280000
-3.31390000 -2.83310000 -0.66390000
-3.41900000 -2.91970000 -0.69650000
-3.39900000 -2.88400000 -0.17940000
-2.94610000 -2.93570000 0.06090000
-2.97140000 -2.97540000 -0.35190000
-2.89840000 -2.84310000 -0.26360000
3.58480000 -3.84010000 -1.02490000
3.78670000 -3.79810000 -0.96430000
3.60570000 -3.93710000 -0.90770000
3.56180000 -4.14430000 -0.66040000
3.52230000 -4.14100000 -0.81770000
3.60750000 -4.20380000 -0.69960000
-0.85960000 -4.88960000 0.17540000
-0.84080000 -4.95760000 -0.11990000
-0.82040000 -5.01400000 0.05740000
-0.59770000 -4.96930000 0.29320000
-0.41250000 -5.28800000 0.20690000
-0.46840000 -4.97240000 0.29550000
3.37240000 -5.43080000 -1.08540000
3.25610000 -5.35770000 -1.05450000
3.06810000 -4.40720000 -0.84060000
2.95680000 -4.74390000 -0.80250000
2.82310000 -4.67760000 -0.72610000
2.93060000 -7.59200000 -0.99120000
3.10290000 -7.58650000 -1.07250000
2.77970000 -7.58630000 -1.08110000
4.07760000 -7.57050000 -0.04850000
4.24630000 -7.57950000 0.21420000
4.30430000 -7.59740000 -0.56680000
-1.57790000 -2.30060000 0.57380000
-1.46870000 -2.38390000 0.52880000
-1.40200000 -2.32040000 0.57350000
-1.12200000 -3.09790000 0.51440000
-1.26260000 -3.00760000 0.44580000
4.25210000 -2.98330000 -0.45230000
4.30850000 -3.01190000 -0.95870000
4.24060000 -2.99170000 -0.84850000
4.25020000 -3.13540000 -0.95470000
4.21430000 -3.02780000 -0.91100000
4.28020000 -3.11100000 -1.03240000
-3.12080000 -7.50880000 0.59430000
-3.27640000 -7.51090000 0.16660000
-3.57140000 -7.51320000 0.12310000
-4.62470000 -7.51040000 -0.22610000
-4.88050000 -7.52300000 -0.79720000
-4.80310000 -7.50550000 -0.04670000
-0.30650000 -2.61520000 -1.08340000
-0.33440000 -2.64300000 -1.15870000
-0.48870000 -2.52780000 -1.13640000
-0.72870000 -1.99620000 -0.64950000
-0.70440000 -2.02550000 -0.80960000
-0.83800000 -2.03240000 -0.77350000
5.02320000 -7.93920000 0.00260000
4.97430000 -7.89550000 -0.19420000
4.80930000 -7.80990000 -0.09610000
2.15560000 -7.67810000 0.82920000
2.06760000 -7.69560000 0.88030000
2.38300000 -7.69500000 0.85810000
2.89450000 -2.36340000 0.49500000
2.93580000 -2.34780000 0.37460000
3.00180000 -2.30420000 0.48530000
2.52180000 -2.61340000 0.13860000
2.48420000 -2.61750000 -0.00020000
2.60960000 -2.59910000 0.19620000
0.14700000 -6.72190000 -1.08250000
0.31900000 -6.88810000 -1.10170000
0.26580000 -6.90440000 -1.08900000
1.38460000 -7.03600000 -0.97830000
1.32290000 -7.02740000 -0.90080000
1.50470000 -6.94270000 -0.96540000
-3.04200000 -2.64210000 -0.71160000
-2.92490000 -2.70800000 -0.67130000
-3.11220000 -2.92650000 -0.70000000
-1.98580000 -2.37280000 -1.06260000
-2.14160000 -2.44930000 -1.08890000
-2.02230000 -2.28800000 -1.18000000
1.91380000 -3.95630000 -0.05390000
1.80470000 -4.01080000 -0.24640000
1.86980000 -3.97640000 -0.42700000
2.12350000 -3.85730000 -0.15420000
2.07800000 -3.86910000 -0.37480000
2.24530000 -3.71470000 -0.44310000
1.68130000 -6.23470000 -0.26440000
1.61100000 -6.10810000 -0.57160000
1.71580000 -6.27950000 -0.66430000
1.54180000 -5.85310000 -1.05850000
-3.53280000 -6.22250000 -0.80880000
-3.67950000 -6.24210000 -1.04450000
-3.71780000 -5.97110000 -0.99480000
-3.58040000 -6.02860000 -0.98810000
2.14820000 -3.25750000 -0.75610000
2.07550000 -3.36150000 -0.40450000
2.16770000 -3.34210000 -0.95240000
2.24580000 -3.18420000 -1.04190000
2.14080000 -3.50130000 -0.93160000
-1.82730000 -2.35230000 0.63150000
-1.52440000 -2.43230000 0.60760000
-1.67670000 -2.26630000 0.61100000
-2.84640000 -2.09310000 0.61310000
-2.81840000 -1.99070000 0.59660000
-2.95840000 -2.01570000 0.57730000
4.31850000 -0.26720000 0.30330000
4.48150000 -0.26150000 0.15230000
4.33800000 -0.28800000 0.12790000
1.68320000 -2.29400000 -0.34080000
1.39680000 -2.37020000 -0.36730000
1.42150000 -2.36860000 -0.14600000
2.85850000 -4.99090000 0.43980000
2.87460000 -5.09030000 0.40440000
2.99100000 -5.03270000 0.40180000
2.75250000 -5.19080000 0.19160000
2.73730000 -5.18100000 -0.35050000
2.85400000 -5.21130000 -0.00560000
-5.94290000 0.76370000 -0.52600000
-5.95780000 0.63660000 -0.94720000
-5.96850000 0.65760000 -0.49150000
-5.12360000 0.51330000 0.14340000
-5.08140000 0.44940000 0.03250000
-5.23820000 0.64970000 0.10550000
-0.79190000 -4.12190000 0.21720000
-0.90870000 -4.12120000 0.04100000
-0.93940000 -4.14010000 0.24210000
-1.99190000 -4.71540000 0.21950000
-2.38200000 -5.01290000 0.05820000
-1.89350000 -4.70000000 0.20290000
1.35290000 -2.17250000 -0.56640000
1.24420000 -2.17100000 -0.60380000
1.09420000 -2.27870000 -0.82110000
1.11960000 -2.26030000 -0.60590000
2.36840000 -6.66270000 -0.08660000
1.98670000 -7.23240000 0.34940000
1.76050000 -7.29900000 0.35950000
4.61260000 -3.23960000 -0.60390000
4.50760000 -3.26830000 -0.75560000
4.74970000 -3.18420000 -0.68830000
4.48140000 -3.06930000 -1.03440000
4.65070000 -3.05750000 -0.96180000
4.52540000 -3.16480000 -0.95520000
-4.17790000 -0.73900000 -0.04320000
-4.45030000 -0.59080000 -0.05630000
-4.14530000 -0.63430000 -0.02960000
4.33590000 -3.95970000 -0.77170000
4.29150000 -3.93800000 -0.88290000
4.25360000 -3.74590000 -0.95390000
4.01860000 -4.00730000 -0.99890000
3.98960000 -4.11370000 -0.98100000
3.84900000 -4.08210000 -1.01340000
-1.66890000 -8.31980000 1.59550000
-1.55340000 -8.14740000 1.57590000
-1.68620000 -8.19550000 1.58110000
4.37770000 -7.90810000 1.33080000
4.47780000 -8.00010000 1.31840000
4.39510000 -7.87950000 1.22400000
-5.57810000 -7.88850000 -0.51180000
-5.48280000 -7.81160000 -0.48350000
-5.45100000 -7.83920000 -0.58710000
-0.84620000 -8.39720000 -2.10070000
-0.75670000 -8.26460000 -2.10840000
-0.67520000 -8.36500000 -2.14910000
-2.82890000 -1.64210000 0.44290000
-2.94760000 -1.70730000 0.28250000
-2.94040000 -1.73680000 0.42920000
-2.42340000 -1.53630000 0.01670000
-2.45630000 -1.65080000 0.00050000
-2.63660000 -1.69700000 -0.00570000
1.88000000 -1.74720000 0.49450000
1.76830000 -1.83920000 0.53280000
2.05410000 -1.77020000 0.55290000
2.70260000 -1.74620000 0.51980000
2.67340000 -1.73600000 0.34200000
2.46190000 -1.58950000 0.46440000
4.52270000 -8.07140000 1.37560000
4.62750000 -7.98760000 1.37850000
4.49920000 -7.83990000 1.18070000
5.23870000 -8.21580000 -0.29750000
5.23910000 -8.18780000 -0.13760000
5.24560000 -8.30310000 0.05590000
-3.61350000 -6.37250000 0.48930000
-3.56930000 -6.74260000 0.50050000
-3.47800000 -6.47150000 0.48780000
-3.35190000 -6.50780000 0.29860000
-3.33980000 -6.70080000 0.31050000
-3.09140000 -6.69820000 0.33230000
3.11650000 -1.51310000 -0.54900000
2.99440000 -1.41210000 -0.57480000
2.94910000 -1.71830000 -0.56400000
3.47170000 -1.15100000 0.06340000
3.40580000 -1.33080000 0.02770000
3.10830000 -1.45890000 0.03940000
3.16170000 -3.63040000 0.38560000
3.27540000 -3.71280000 0.47900000
3.14210000 -3.36200000 0.38550000
2.89950000 -4.59960000 0.38680000
3.05160000 -4.27290000 0.37940000
-5.45210000 -0.38750000 -1.20530000
-5.45790000 -0.47980000 -1.14820000
-5.60280000 -0.47150000 -1.14610000
-5.59970000 -0.57960000 -0.09280000
-5.57640000 -0.55460000 -0.81130000
-5.56430000 -0.58570000 -0.68440000
-0.02880000 -5.58490000 0.09740000
0.47420000 -5.61090000 0.08150000
0.28770000 -5.66350000 -0.30200000
0.49140000 -5.62190000 -0.12830000
-2.50460000 -6.61480000 0.36720000
-2.43520000 -6.57320000 0.21700000
-2.58320000 -6.50390000 0.25170000
-2.25070000 -6.65340000 0.10710000
3.64310000 -6.72550000 -1.00010000
3.60600000 -6.95660000 -0.98730000
3.51270000 -6.69780000 -1.05890000
4.07710000 -6.76110000 -0.57400000
4.09080000 -7.20850000 -0.65830000
4.09320000 -6.81620000 -0.70440000
-2.00230000 -5.79070000 -1.04070000
-2.05080000 -5.94260000 -1.08610000
-2.12790000 -5.90370000 -1.02270000
-2.48330000 -6.05040000 -1.08850000
-2.37410000 -6.13910000 -1.07260000
-2.66010000 -6.25150000 -0.88610000
1.45030000 -2.00400000 0.05390000
1.58230000 -1.81350000 0.07420000
1.74100000 -1.94830000 0.04630000
1.49610000 -1.90110000 0.38190000
1.50950000 -1.87850000 0.09430000
-0.65020000 -2.65420000 -1.16690000
-0.52360000 -2.93020000 -1.04750000
-0.72160000 -2.92200000 -1.04370000
-0.87740000 -3.55520000 -0.25940000
-0.91000000 -3.55300000 -0.57030000
-0.77560000 -3.58790000 -0.60520000
2.40540000 -7.17530000 0.26110000
2.38390000 -7.28680000 0.21300000
3.18610000 -6.53710000 0.38870000
3.06180000 -6.70700000 0.37350000
3.23310000 -6.82330000 0.39490000
2.59540000 -4.62730000 -0.57390000
2.53970000 -4.49000000 -0.49000000
2.56220000 -4.50240000 -0.09570000
2.15890000 -4.91910000 -1.14370000
1.99530000 -5.14660000 -1.12850000
3.31600000 -6.68150000 0.38540000
3.33070000 -7.23430000 0.27200000
3.36570000 -6.59940000 0.33310000
4.09440000 -7.42610000 0.08230000
4.04780000 -7.54190000 -0.09050000
4.09320000 -7.45660000 -0.06460000
3.84990000 -6.76200000 0.18340000
3.83390000 -7.12420000 0.19290000
3.96700000 -6.77130000 0.16750000
4.00620000 -6.54010000 -0.20340000
3.94580000 -6.50810000 -0.33450000
3.86900000 -6.48550000 -0.07410000
-5.21720000 -1.03970000 -0.63360000
-5.33750000 -1.10340000 -0.79540000
-5.21500000 -0.94050000 -0.81100000
-4.97170000 -0.94700000 -1.10790000
-4.96130000 -0.70650000 -1.11190000
-4.83990000 -0.92380000 -1.14410000
-2.85940000 -4.80370000 -0.87370000
-2.86300000 -4.78800000 -1.11240000
-2.84330000 -4.91340000 -0.97020000
-2.75100000 -5.13920000 -1.02250000
5.38710000 -0.09410000 -1.08030000
5.48220000 -0.18160000 -1.06760000
5.35100000 -0.33620000 -1.08410000
4.78250000 -0.08090000 -0.54040000
4.79180000 -0.24170000 -0.83370000
4.77530000 -0.23820000 -0.55630000
1.86830000 -5.17020000 -0.71750000
1.70290000 -5.32260000 -0.78680000
1.76350000 -5.25780000 -0.39790000
1.85760000 -5.13430000 0.03420000
1.88490000 -5.11300000 -0.32980000
1.77560000 -5.24590000 -0.00700000
-4.52460000 -7.29300000 -0.29250000
-4.55410000 -7.27470000 -0.12800000
-4.51200000 -6.89450000 -0.24790000
-4.20000000 -7.12650000 0.36760000
-4.25750000 -6.84810000 0.39980000
-4.25890000 -7.37730000 0.26970000
4.16890000 -3.01520000 -0.89920000
4.21860000 -3.17060000 -0.93830000
4.13430000 -3.27320000 -1.00050000
3.65730000 -3.22170000 -0.56370000
3.73960000 -3.15830000 -0.41310000
3.74200000 -3.17000000 -0.91270000
-2.23080000 -2.05050000 -1.18240000
-1.87280000 -2.20930000 -1.18840000
-2.14000000 -2.26690000 -1.19310000
-1.29230000 -2.21610000 -0.52590000
-1.46690000 -2.14460000 -1.03080000
-1.40090000 -2.16740000 -0.57500000
1.79770000 -2.03000000 0.59510000
2.09230000 -1.82450000 0.58020000
1.66310000 -1.98900000 0.57160000
1.15460000 -2.74700000 0.32010000
1.03020000 -2.90900000 0.35320000
1.03400000 -3.09860000 0.28710000
-4.46390000 -8.02260000 1.42920000
-4.46770000 -7.87810000 1.32970000
-4.60440000 -7.86050000 1.42040000
-5.73380000 -8.35260000 0.11200000
-5.72140000 -8.19250000 -0.07750000
-5.72860000 -8.36130000 -0.04010000
3.03850000 -4.91790000 -0.82480000
3.09710000 -4.94880000 -0.95860000
3.00420000 -5.12270000 -0.82670000
3.04410000 -5.29150000 -0.75970000
2.89570000 -5.22350000 -0.20130000
2.88210000 -5.19130000 -0.60410000
-2.71160000 -1.64480000 -0.59100000
-2.62050000 -1.57330000 -0.87980000
-2.72100000 -1.68780000 -1.07500000
-1.76580000 -2.10120000 -1.16340000
-2.01540000 -2.07970000 -1.17900000
-5.07340000 0.43220000 -0.63440000
-5.28490000 0.32910000 -0.53380000
-4.91500000 0.23050000 -0.62910000
-5.82330000 0.84200000 -1.02480000
-5.92090000 0.74000000 -1.04720000
-5.89590000 0.79920000 -0.89820000
3.30230000 -1.51710000 -0.21700000
2.99870000 -1.73890000 -0.47400000
3.02730000 -1.77060000 -0.12060000
1.92460000 -2.21130000 -0.30460000
1.76960000 -2.25870000 -0.05050000
2.14320000 -2.12170000 -0.09250000
-5.87970000 0.85640000 -0.05360000
-5.94470000 0.74790000 0.09560000
-5.72660000 0.85620000 0.11980000
-5.55230000 -0.05720000 0.51560000
-5.62420000 -0.22660000 0.48930000
-5.50750000 -0.34980000 0.51450000
-3.55910000 -3.70130000 -1.03160000
-3.49110000 -3.90990000 -0.95860000
-3.68440000 -3.65370000 -1.07350000
-3.34140000 -2.88120000 -0.70160000
-3.42730000 -3.17680000 -0.87220000
-1.52890000 -7.39450000 -1.02640000
-1.49180000 -7.51720000 -0.96850000
-1.74440000 -7.45060000 -0.99120000
0.47630000 -7.25660000 -1.02020000
0.38620000 -7.17350000 -0.98780000
0.61770000 -7.06620000 -0.95860000
-5.82670000 -0.32780000 -0.33640000
-5.73300000 -0.43320000 -0.58210000
-5.72200000 -0.43090000 -0.00230000
-5.63800000 -0.42020000 0.45790000
-5.51970000 -0.52140000 0.36070000
-5.46080000 -0.43090000 0.48100000
2.12830000 -6.25060000 -0.79470000
2.14100000 -6.34620000 -0.95040000
2.11370000 -6.18330000 -1.15810000
1.76510000 -6.31910000 -1.03510000
1.69560000 -6.17830000 -1.02400000
1.85220000 -6.27260000 -1.09130000
-5.23080000 -8.40330000 1.33580000
-5.67890000 -8.41180000 1.33430000
-5.01320000 -8.41770000 1.16530000
-3.15690000 -8.42560000 1.12090000
-3.40600000 -8.42020000 0.74430000
-2.70200000 -8.42040000 0.85810000
-0.48300000 -2.03690000 0.35960000
-0.31700000 -2.19760000 0.39120000
-0.42950000 -2.02980000 0.29930000
-0.40520000 -2.74480000 0.62680000
-0.54030000 -2.65120000 0.61720000
-0.51230000 -2.83290000 0.54800000
-1.21010000 -5.89620000 0.57910000
-0.91970000 -6.31160000 0.58020000
-1.21060000 -6.19310000 0.53590000
-0.96680000 -6.34860000 0.53070000
-3.10530000 -2.43120000 -0.82950000
-2.94870000 -2.58340000 -0.85480000
-2.90710000 -2.63130000 -0.72760000
-3.32690000 -2.19230000 0.24480000
-3.31060000 -2.21810000 -0.64330000
-3.24130000 -2.29470000 -0.52830000
-4.52930000 -4.02750000 0.07080000
-4.50530000 -4.11360000 -0.28270000
-4.52160000 -4.21990000 -0.06720000
-4.06530000 -4.26620000 0.05340000
-4.03450000 -4.24750000 -0.28740000
-3.95110000 -4.21020000 -0.14100000
2.28410000 -4.50050000 -1.14510000
2.26870000 -4.70120000 -1.15160000
2.23320000 -4.62260000 -0.55560000
2.23480000 -4.56520000 0.07760000
2.24450000 -4.46130000 -0.37480000
2.93060000 -1.39420000 0.32080000
2.99330000 -1.27290000 0.09660000
2.87050000 -1.50720000 0.07040000
3.60220000 -0.97310000 0.38570000
3.66310000 -0.97940000 0.22440000
3.43690000 -0.98630000 0.24670000
-4.46940000 -4.16730000 0.38270000
-4.39550000 -4.28220000 0.36520000
-4.32330000 -4.18360000 0.44780000
-4.11300000 -4.00920000 0.53500000
-4.17300000 -3.87250000 0.54120000
-4.30630000 -3.89490000 0.51520000
1.64150000 -4.79470000 -0.08620000
1.86990000 -4.94150000 -0.13850000
1.88980000 -4.91000000 0.15110000
1.46760000 -4.68330000 -0.34530000
1.86710000 -4.94830000 -0.34040000
2.99430000 -1.45270000 0.43020000
3.17000000 -1.39690000 0.49720000
3.13320000 -1.27260000 0.45050000
3.26500000 -1.10480000 0.40750000
3.16390000 -1.10890000 0.31890000
3.07280000 -1.22510000 0.36430000
-3.98310000 -0.73060000 0.29640000
-3.94340000 -0.80100000 0.11390000
-3.98500000 -0.67310000 0.11680000
-4.08690000 -0.60300000 0.43010000
-4.32360000 -0.55710000 0.49270000
-4.01100000 -0.77370000 0.48600000
2.29150000 -7.54360000 0.43570000
4.37830000 -7.62570000 0.07010000
4.32400000 -7.58790000 0.36220000
-0.45150000 -2.08400000 -0.56670000
-0.53150000 -2.02680000 -0.61270000
-0.40130000 -2.08670000 -0.59980000
-0.49790000 -2.06050000 -0.81040000
-2.54670000 -4.41440000 -1.09290000
-2.51580000 -4.76960000 -1.05470000
-2.62620000 -4.47630000 -1.12110000
-2.34780000 -3.76300000 0.06450000
-2.36190000 -3.77840000 -0.81750000
-2.48260000 -3.86210000 -0.73090000
-0.13080000 -3.63380000 0.62200000
-0.05160000 -3.79380000 0.61270000
0.18430000 -3.78970000 0.60060000
-0.45840000 -4.37050000 0.46410000
-0.57430000 -4.73640000 0.38570000
-0.41000000 -4.70880000 0.33730000
-4.52550000 -7.09930000 -0.42780000
-4.49600000 -6.55140000 -0.34960000
-4.47960000 -6.50600000 -0.42840000
-4.01530000 -6.47590000 -0.92830000
-3.86200000 -6.39080000 -0.99780000
-3.88660000 -6.71710000 -1.00780000
-4.30700000 -6.20990000 -0.36180000
-4.44510000 -6.31830000 -0.43740000
-4.46280000 -6.24680000 -0.31860000
-4.19300000 -6.82630000 0.42930000
-4.22990000 -6.42740000 0.44560000
-0.70470000 -3.79440000 0.05840000
-0.37670000 -3.92760000 0.53020000
-0.62190000 -4.47740000 0.45860000
-0.31000000 -4.00860000 0.52080000
-5.04930000 0.47000000 -0.70280000
-4.97960000 0.40690000 -0.86710000
-5.04560000 0.48430000 -0.95670000
-4.91370000 0.31220000 -0.87010000
-4.94440000 0.30250000 -1.04060000
4.50210000 -2.04900000 -0.13300000
4.40430000 -2.14740000 -0.29100000
4.52980000 -2.03600000 -0.94490000
4.57510000 -1.92180000 -0.92600000
4.56240000 -2.01360000 -0.77370000
-1.74990000 -7.36610000 0.41650000
-1.93510000 -7.29110000 0.42350000
-1.82760000 -7.51100000 0.41480000
-3.52070000 -1.24480000 -0.02240000
-3.25250000 -1.14960000 0.00240000
-3.13210000 -1.44240000 -0.01440000
-2.34680000 -1.97180000 -0.46740000
-2.36040000 -1.98450000 -0.26130000
-2.04620000 -2.11670000 -0.44240000
3.15130000 -1.65560000 -0.09240000
3.20700000 -1.58000000 -0.02350000
4.89750000 -0.29220000 0.04630000
5.12040000 -0.05440000 0.04180000
4.87680000 -0.31220000 -0.21310000
-3.25130000 -1.62780000 -0.22410000
-3.45410000 -1.45680000 -0.12290000
-3.20560000 -1.73510000 -0.04420000
-3.48920000 -1.34610000 -0.47800000
-3.55880000 -1.14910000 -0.54030000
-3.75840000 -1.20060000 -0.45800000
0.47370000 -3.52850000 -1.05570000
0.67900000 -3.69020000 -1.10700000
0.33850000 -3.61260000 -1.16050000
0.33450000 -3.01370000 -0.89620000
0.22700000 -3.23540000 -1.05920000
0.28520000 -2.80540000 -0.85590000
-2.49420000 -4.51680000 -0.94480000
-2.50260000 -4.41430000 -1.04780000
-2.49470000 -4.40670000 -0.76400000
-2.19830000 -5.42570000 -0.45250000
-2.24870000 -5.38770000 -1.05270000
-2.31440000 -5.29160000 -0.52730000
-4.32940000 -2.80700000 0.27340000
-4.48930000 -2.93420000 0.29970000
-4.19750000 -2.73560000 0.28880000
-3.91180000 -2.85910000 -0.09980000
-3.90280000 -2.82910000 0.05200000
-3.86660000 -2.94450000 -0.07480000
-4.08410000 -2.93680000 -1.06240000
-3.98930000 -2.96990000 -1.07440000
-4.21970000 -3.01010000 -1.02350000
-4.11600000 -2.59420000 0.14190000
-4.09210000 -2.60350000 -0.19820000
-4.15420000 -2.60900000 -0.28540000
-2.33260000 -8.29650000 1.59400000
-2.40280000 -8.16500000 1.58730000
-2.52330000 -8.30850000 1.60240000
-4.41780000 -8.02860000 1.42970000
-4.21930000 -7.95390000 1.48950000
-4.41650000 -7.90340000 1.33740000
3.68620000 -1.30500000 -0.95810000
3.45580000 -1.24390000 -0.99220000
3.73190000 -1.19440000 -1.03040000
2.86560000 -1.58340000 -0.59590000
2.84750000 -1.68800000 -0.83760000
2.83990000 -1.68300000 -0.65740000
2.91550000 -4.42520000 0.30660000
2.75180000 -4.63180000 0.26390000
2.45990000 -4.68780000 0.61380000
2.37270000 -4.80320000 0.55210000
2.37080000 -4.95280000 0.58430000
-5.32950000 -0.84610000 -0.93230000
-5.36080000 -1.06650000 -0.85180000
-5.44530000 -0.93700000 -0.95060000
-1.40760000 -5.70580000 0.45550000
-1.39950000 -5.88150000 0.26030000
-1.37330000 -5.87510000 0.47840000
-1.46880000 -5.98810000 0.23480000
-1.45670000 -5.85560000 0.19130000
-1.58280000 -5.79850000 0.17630000
-3.48260000 -4.98920000 0.54740000
-3.33940000 -4.83130000 0.45880000
-3.43620000 -4.71720000 0.51730000
-3.73150000 -5.46970000 0.56150000
-3.74400000 -5.12200000 0.54100000
-3.83140000 -5.53520000 0.52580000
-2.39310000 -3.12770000 -1.07400000
-2.28420000 -3.16180000 -1.02120000
-2.26820000 -3.28950000 -1.05480000
-2.28540000 -2.52600000 -1.06480000
-2.44200000 -2.64160000 -0.96770000
