-23.35997963 -2.10419989 -14.16648006
-22.83260918 -2.09925008 -15.55685997
-22.44368935 -2.08041000 -13.99944019
-24.32465935 -2.14076996 -19.58708954
-23.64686966 -2.10555005 -17.25666046
-23.40131950 -2.12226009 -18.44351959
-23.14410019 -2.10650992 -16.38705063
-21.73413086 -2.09256005 -17.40096092
-22.86581993 -2.10971999 -18.93000031
-23.26218033 -2.12603998 -21.85983086
-23.80439949 -2.13894010 -23.49924088
-22.49654961 -2.12577009 -21.99230957
-21.88541985 -2.11070991 -21.19482040
-24.17918968 -2.14242005 -25.26390076
-21.99818993 -2.12538004 -24.60795021
-22.94598007 -2.10998988 -29.27301025
-24.36590958 -1.96142995 -35.06510925
-23.99121094 -1.91637003 -35.51234818
-23.88965988 -0.43860000 -35.76380920
-24.08054924 -1.72449005 -35.61038971
-23.32205963 -1.96440005 -35.87421036
-23.28710938 0.92328000 -36.16341019
-24.30747032 1.37858999 -35.46387100
-22.45310974 -1.80098999 -36.68825912
-22.86092949 1.41363001 -36.40679932
-22.19280052 1.18616998 -36.85697937
-19.83848953 -1.47722995 38.34732056
-21.11469078 -1.50893998 37.66442871
-22.03026009 -1.57907999 36.68529129
-19.81097984 -1.56891000 36.75983810
-18.42206955 -1.46054995 38.79761887
-20.39879990 -1.37111998 38.29442978
-19.56431961 -1.41755998 38.64474106
-19.75478935 -1.28297997 38.69475174
-18.66558075 -1.21706998 39.24785995
-19.61825943 -1.15535998 38.79869843
-19.33499908 -1.58940005 33.98516846
-21.76568985 -1.66694999 33.77318954
-18.77844048 -1.60424995 32.66978836
-21.27206993 -1.64178002 31.54574966
-21.99027061 -1.64115000 35.00595093
-16.56084061 -1.48874998 36.74346161
-17.12910080 -1.57833004 30.58580971
-20.88722992 -1.61987996 27.76145935
-22.63949966 -1.63458002 29.44289970
-19.64600945 -1.61549997 25.77168083
-19.10672951 -1.59467995 26.81484032
-18.97283936 -1.60959005 22.07658005
-20.64183044 -1.65032995 21.34160995
-18.27531052 -1.58316004 24.24975014
-17.36978912 -1.58454001 21.93975067
-19.66863060 -1.64433002 18.36392975
-18.68304062 -1.61321998 20.44919968
-20.78726959 -1.68750000 15.80208015
-18.00518990 -1.62399006 16.87725067
-17.87825966 -1.62951005 15.47348976
-19.94700050 -1.70682001 12.52731037
-18.93638992 -1.68348002 13.54551029
-20.51370049 -1.79478002 7.56947994
-19.30014038 -1.73864996 9.27818966
-18.59552956 -1.70058000 11.09060955
-20.44421959 -1.80569994 6.59415007
-20.69183922 -1.82937002 5.10251999
-18.39867020 -1.76129997 6.18395996
-19.53521919 -1.80230999 4.14287996
-21.50819969 -1.87671006 2.69142008
-20.50325966 -1.85544002 3.13373995
-19.44276047 -1.84578001 1.58367002
-18.11724091 -1.78955996 3.60996008
-18.63002968 -1.81220996 1.93703997
-21.26535034 -1.91369998 -1.16226006
-20.03129959 -1.87829995 -0.19422001
-20.87445068 -1.92764997 -2.30445004
-19.81838989 -1.89486003 -2.54832006
-19.16613007 -1.87355995 -1.00469995
-19.90589905 -1.92947996 -4.21743011
-19.23030090 -1.92404997 -4.52948999
-18.81539917 -1.88183999 -2.84067011
-18.67691994 -1.84905005 -1.16091001
-20.84370041 -1.99190998 -7.44014978
-20.53610992 -2.00445008 -8.71823978
-19.24745941 -1.96449006 -8.43155956
-18.47553062 -1.92084002 -5.98967981
-18.51704979 -1.95740998 -7.98855019
-20.05125046 -2.00993991 -11.79551983
-19.22270966 -1.99053001 -10.57221031
-19.38353920 -2.01713991 -12.38027954
-20.62265968 -2.04557991 -13.87224007
-20.53760910 -2.04477000 -14.56499958
-20.61873055 -2.07447004 -17.19807053
-19.01337051 1.91415000 -33.77756882
-19.43427086 1.74660003 -36.77244186
-20.08172989 1.80308998 -35.63148117
-21.86981964 1.43217003 -37.01237869
-21.13389015 1.32029998 -37.47372055
-21.45873070 1.52093995 -37.12746048
-21.93050957 1.61412001 -36.71862030
-21.37878036 1.63572001 -36.64770126
-20.78471947 1.50410998 -37.51142883
-20.34104919 1.41942000 -37.90029144
-20.27481079 1.60820997 -36.56711960
-21.38220024 1.74656999 -35.57252884
-20.13431931 1.58709002 -37.81196976
-19.47068977 1.56579006 -38.29692078
-19.40336990 1.27514994 -38.43783188
-19.16724014 1.67633998 -38.09973145
-17.82959938 -1.10481000 39.59450912
-17.09049034 -1.14110994 39.92733002
-16.07411957 -0.68325001 40.33404160
-17.18453979 -1.29117000 39.79467010
-16.15398026 -1.23365998 40.22549820
-16.64267921 -1.35459006 39.85559845
-15.22682953 -1.27935004 40.48209000
-15.42996025 -1.04474998 40.54505920
-15.14958000 -1.34937000 40.32971954
-15.50421047 -1.37849998 39.68561935
-18.70701027 -1.39317000 39.05382156
-19.35408020 -0.48416999 38.96667099
-17.90229034 -1.39025998 39.38946152
-16.59152985 -1.41450000 39.35432816
-14.15489960 -1.40648997 39.01644135
-16.71915054 -1.57527006 32.98344040
-14.39463043 -1.52634001 34.52283096
-16.81115913 -1.56353998 25.38464928
-16.80450058 -1.58079004 27.35648918
-14.01453018 -1.51736999 28.88862038
-14.64630032 -1.51812005 26.10767937
-15.30908966 -1.52469003 24.68561935
-15.24812984 -1.53915000 22.94990921
-16.21253967 -1.58016002 17.98011017
-14.58351040 -1.53719997 19.26300049
-14.36999989 -1.52241004 21.60144043
-15.61242008 -1.56762004 17.35329056
-17.14328957 -1.61748004 14.42276955
-17.34048080 -1.65186000 12.74450970
-17.18042946 -1.65837002 11.22560978
-15.01371002 -1.59107995 12.49919987
-15.20252991 -1.56380999 14.38743019
-17.26860046 -1.69698000 8.21142006
-15.78452969 -1.64151001 10.15046978
-13.82262039 -1.56399000 11.29347038
-16.66539001 -1.71452999 6.25041008
-16.77255058 -1.73088002 4.90839005
-15.12152958 -1.65936005 7.28661013
-16.46546936 -1.73399997 4.34415007
-16.86389923 -1.75829995 2.83818007
-16.97459984 -1.80006003 0.35268000
-18.00008965 -1.83252001 0.02331000
-15.45810032 -1.74114001 2.09817004
-17.77112961 -1.85555995 -1.46750998
-17.95203018 -1.86296999 -3.07710004
-17.54133034 -1.82960999 -0.42675000
-16.28466034 -1.80974996 -0.82422000
-17.08469963 -1.84010994 -2.85663009
-15.62261963 2.01680994 -29.94278908
-17.85113907 1.99011004 -30.20813942
-18.43275070 1.97643006 -23.97410965
-13.96088982 2.01900005 -27.46029091
-20.18127060 1.94564998 -31.30691910
-18.20015907 1.80846000 -36.87348175
-13.45289993 1.98036003 -37.09938049
-15.52935028 1.85267997 -38.43294144
-18.54431915 1.57457995 -38.74956131
-18.27095985 1.40246999 -38.99972916
-17.79006004 1.70099998 -38.78543854
-17.32806015 1.35924006 -39.44594955
-17.47703934 1.54175997 -39.29624939
-17.58182907 1.62642002 -39.11471939
-16.92878914 1.66041005 -39.42549133
-16.38849068 1.71827996 -39.58602142
-16.35972023 1.56257999 -39.85200119
-16.06064987 1.68306005 -39.87390137
-14.86248016 1.79163003 -39.97586823
-15.41477966 1.56845999 -40.29444122
-15.11318970 1.44245994 -40.44282150
-14.76099014 -1.12290001 40.75241852
-13.98480034 -1.35134995 40.51187897
-14.08181953 -1.04993999 40.97478104
-14.02637959 0.14084999 41.00234985
-14.20413017 -1.21466994 40.86243057
-13.81643963 -1.27445996 40.87863159
-13.01525974 -1.21229994 41.12165833
-12.88739967 -0.98300999 41.30165863
-12.44145012 -1.32234001 41.01050949
-10.84626007 -1.34895003 40.62039185
-12.18093014 -1.16264999 41.41767120
-11.61557961 -1.26975000 41.41886902
-13.07153988 -1.44360006 37.07693863
-12.78579044 -1.39890003 38.27433014
-12.76698017 -1.48737001 33.13016891
-12.26486969 -1.46870995 34.73511124
-12.90863991 -1.50819004 31.23926926
-11.84309959 -1.49334002 29.58426094
-12.44433022 -1.51194000 27.14487076
-11.75498962 -1.47809994 24.38775063
-13.49936962 -1.50363004 23.83200073
-12.64809036 -1.48925996 22.00815010
-11.19279003 -1.44894004 23.45334053
-12.29681969 -1.49526000 19.51265907
-10.77332973 -1.45431006 21.30882072
-14.04611969 -1.55016005 16.71384048
-13.87347031 -1.53710997 15.82581043
-13.07516956 -1.52616000 16.75211906
-11.97714043 -1.48259997 18.19827080
-13.33535957 -1.54401004 12.94101048
-14.10023975 -1.61954999 6.96962976
-14.10945034 1.79919004 -0.87198001
-11.86913967 1.79244006 -0.77363998
-13.25979042 1.79630995 -1.83339000
-11.98565960 1.85643005 -6.28775978
-16.00205994 1.81815004 -3.82311010
-14.03724003 1.81674004 -3.06885004
-13.82007027 1.86575997 -8.24888992
-16.72503090 1.85406005 -7.29236984
-15.34803009 1.89743996 -11.35883999
-10.97684956 1.91078997 -10.81836033
-10.96940994 1.88198996 -8.73386955
-14.82726002 1.92824996 -13.76607037
-12.01185036 1.93752003 -13.96185017
-15.17961025 1.93283999 -15.33926964
-11.98328972 1.97283006 -18.29157066
-16.91949081 1.93803000 -17.44169998
-12.89441967 2.00858998 -22.40807915
-9.62856007 2.04368997 -25.00200081
-10.28423977 2.07153010 -35.98215103
-8.21630955 2.10165000 -32.02545166
-6.88485003 2.09159994 -27.67565918
-12.75308990 1.89066005 -40.14249039
-15.27404976 1.71489000 -40.19039917
-14.40194988 1.29645002 -40.72488022
-14.26776028 1.69734001 -40.67034149
-13.82079029 1.78457999 -40.68188858
-13.80218983 1.46754003 -40.94775009
-13.27772999 1.66928995 -41.05916977
-13.09494019 1.81334996 -40.89189148
-12.58059025 1.63892996 -41.31354141
-11.97362995 1.59389997 -41.52011871
-12.23834991 1.82150996 -41.23376846
-10.87506008 -0.02754000 41.77299118
-11.46317959 -0.99852002 41.64392853
-10.72476006 -1.29144001 41.46315002
-10.78806019 -1.11944997 41.75942993
-10.03664970 -0.97152001 41.94095993
-10.04570961 -1.17218995 41.86920166
-9.62924957 -1.23734999 41.86841965
-9.43136978 -1.28912997 41.75883102
-9.30177021 -1.37967002 38.91960144
-8.43968964 -1.31564999 41.16075134
-9.07868958 -1.08342004 42.09951019
-8.26893044 -0.98462999 42.25067902
-8.29944038 -1.14162004 42.18051147
-8.09298038 -1.24890006 42.04988861
-7.29183006 0.73446000 42.38513947
-10.32633018 1.24644005 41.83668137
-10.94447994 -1.40867996 37.22523117
-9.73484993 -1.40901005 35.89809036
-9.77138996 -1.40880001 37.56494904
-10.22484016 -1.45227003 31.79858971
-10.85865021 -1.48116004 28.89546013
-10.56597042 -1.47944999 25.98891068
-8.94128990 1.75215006 19.49484062
-9.70172977 1.73853004 20.20524025
-9.19223976 1.74141002 19.95618057
-10.95816040 1.74164999 16.64444923
-7.83006001 1.76238000 17.22224998
-12.30741024 1.74383998 12.77838039
-9.62250042 1.75277996 14.59311008
-8.49087048 1.75755000 12.12915039
-11.00693989 1.75235999 9.56558990
-13.76667023 1.74902999 10.79012966
-12.92961025 1.72751999 10.78293037
-9.89408970 1.75794005 10.18155003
-8.73258018 1.76625001 9.34424973
-10.75043964 1.75481999 8.93717957
-9.86009979 1.76397002 7.90115976
-13.95020962 1.77437997 3.24419999
-13.37738991 1.75977004 6.95213985
-10.69077015 1.75641000 6.17300987
-8.62430954 1.74530995 8.37104988
-7.67628002 1.75869000 6.81599998
-13.98425961 1.77596998 2.40284991
-11.37269974 1.77564001 3.32420993
-9.13475990 1.75472999 2.18706012
-10.03289986 1.78481996 -0.34386000
-8.98023033 1.76429999 4.83527994
-8.42945957 1.74866998 2.76042008
-8.69027996 1.76241004 0.62699997
-8.40666008 1.75689006 -1.28391004
-9.85542011 1.82472003 -4.54719019
-10.38747025 1.81296003 -3.62216997
-8.73948002 1.78515005 -2.43638992
-9.86223030 1.86912000 -7.69577980
-8.66672993 1.83899999 -6.29049015
-7.03403997 1.87626004 -8.22408009
-10.32719994 1.98423004 -17.91879082
-8.93469048 2.01021004 -20.44865990
-5.94437981 2.10845995 -29.23904991
-9.91007996 2.01129007 -39.71220016
-11.34092999 1.85540998 -41.44290161
-11.55443954 1.77348006 -41.53964996
-9.96026993 1.94324994 -41.31288147
-11.20818043 1.65041995 -41.71125031
-10.68737984 1.60100996 -41.84672928
-10.44108009 1.88355005 -41.67108154
-10.63805962 1.79970002 -41.77175903
-10.07921982 1.70282996 -41.98178864
-9.35604000 1.84467006 -42.04145813
-9.09123039 1.71317995 -42.18510056
-8.95578003 1.92618001 -41.96504974
-8.21934032 1.94553006 -41.95077133
-9.25323009 1.30175996 42.02981949
-7.47422981 -1.15155005 42.26541138
-7.38606024 -0.89076000 42.39215851
-7.93490982 1.40910006 42.22502899
-6.57263994 -1.24820995 42.22679901
-6.82632017 -1.09511995 42.42884827
-6.60156012 -0.95858997 42.50786972
-6.59507990 1.37694001 42.44126892
-6.83069992 1.48706996 42.34143066
-5.97123003 -0.94976997 42.56655121
-5.75289011 -1.17786002 42.45615005
-6.32799006 1.59297001 42.14595032
-7.31981993 1.57775998 42.04214859
-5.12483978 -0.01173000 42.68648911
-5.02592993 -1.10301006 42.60863876
-4.61100006 -0.91181999 42.73740005
-5.71310997 1.52871001 42.41033936
-5.88890982 1.69775999 35.88726044
-8.32266045 1.66955996 37.33335114
-4.45578003 1.70466006 38.65679932
-5.18226004 1.66278005 41.07197952
-8.44254017 1.68968999 35.70119858
-6.88413000 1.73759997 33.91796875
-8.21702957 1.71923995 34.84917068
-7.39377022 1.74998999 32.13528061
-5.94996023 1.76370001 32.00352097
-5.09543991 1.74785995 32.35998154
-6.33374977 1.75928998 30.51531029
-10.81151962 1.74488997 28.91550064
-8.60144997 1.74743998 31.63467026
-7.14521980 1.75188005 31.28117943
-7.48677015 1.76981997 28.17411041
-6.77088022 1.73102999 31.81835938
-5.34233999 1.77770996 29.88455963
-8.50986004 1.74561000 25.14780045
-10.20578957 1.73175001 26.93832016
-7.57508993 1.76900995 26.62290001
-5.48643017 1.78908002 25.79603958
-8.73114014 1.74635994 22.99821091
-10.37168980 1.73390996 23.32622910
-6.97178984 1.76192999 22.16649055
-6.17289019 1.77987003 23.21768951
-5.11314011 1.78257000 23.28696060
-7.83416986 1.74606001 19.39920044
-5.80331993 1.77651000 17.95968056
-4.05086994 1.78955996 20.91135025
-7.10180998 1.76784003 13.78662014
-4.00550985 1.78356004 15.74987984
-6.10427999 1.77446997 12.48653984
-2.24001002 1.80941999 13.40505028
-6.22358990 1.76940000 8.38704014
-6.31487989 1.77642000 11.78172016
-5.33588982 1.77471006 9.56165981
-7.61291981 1.77218997 8.04944992
-7.40435982 1.74924004 4.64934015
-6.27258015 1.71116996 6.16647005
-6.80846977 1.70546997 5.22500992
-6.42738008 1.73853004 5.82266998
-5.99661016 1.74501002 6.73016977
-6.16523981 1.54920006 5.68838978
-6.98096991 1.61670005 4.74671984
-6.28958988 0.58091998 4.78668022
-5.16146994 0.50151002 5.94744015
-5.38928986 1.58390999 6.49430990
-5.20118999 1.25270998 6.38922024
-8.27816963 1.68815994 1.38173997
-8.00220013 1.74696004 3.58575010
-8.06499004 1.54709995 1.91255999
-7.76957989 1.71252000 3.52508998
-7.80047989 1.50432003 2.84223008
-7.75730991 1.64883006 3.27137995
-7.99872017 1.19079006 1.10327995
-7.30217981 1.42446005 3.92567992
-7.16298008 0.46601999 3.07403994
-7.35090017 1.67045999 4.21649981
-8.34029961 1.71326995 -0.42252001
-8.40423012 1.71872997 0.41255999
-8.08769989 1.63490999 -1.26578999
-8.16069031 1.46300995 -0.04815000
-8.01486015 1.14396000 0.39390001
-7.96625996 1.72704005 -2.09364009
-7.84499979 1.08293998 -1.08713996
-7.71311998 0.51747000 0.16626000
-7.80260992 1.75874996 -2.87474990
-7.30754995 1.79196000 -4.14803982
-7.59680986 1.59369004 -2.65296006
-6.17805004 1.80627000 -5.46714020
-7.13081980 1.70213997 -3.77435994
-7.25732994 1.61786997 -3.40148997
-6.65087986 1.34262002 -4.06772995
-6.66576004 1.74275994 -4.56054020
-6.31529999 1.56668997 -4.66460991
-6.02657986 1.68876004 -5.12639999
-4.86509991 1.88889003 -7.80368996
-3.80181003 1.94295001 -10.34558964
-5.33525991 1.76748002 -5.86743021
-7.25283003 1.95767999 -13.88834953
-5.97825003 2.03445005 -19.76226044
-5.19260979 2.00870991 -17.16720009
-7.69395018 2.03123999 -21.11417961
-5.26629019 2.04729009 -21.43692017
-4.50225019 2.14250994 -31.09650040
-5.32098007 1.27673995 42.61296082
-6.24759007 1.62465000 41.71863174
-4.99145985 1.50575995 42.55445862
-4.58600998 1.59546006 42.44007111
-3.42261004 0.66641998 42.84740829
-4.41306019 1.38678002 42.70286942
-3.87342000 1.51914001 42.67298889
-2.72445011 1.64181006 42.49665070
-3.32082009 1.60901999 42.60351181
-3.47199011 1.39794004 42.79019928
-2.79093003 1.53681004 42.76416016
-1.86657000 1.18613994 42.92330933
-1.55952001 1.71543002 41.09463120
-2.24580002 1.42721999 42.87752914
-4.05093002 1.73211002 35.41011047
0.97737002 1.79127002 37.58913040
-1.60122001 1.74512994 38.49039078
-2.33687997 1.75286996 33.67530060
-3.54662991 1.77504003 29.89866066
-4.34708977 1.79241002 29.18993950
-1.86296999 1.78647006 30.39905930
-2.54091001 1.81256998 27.81950951
-1.21401000 1.77045000 33.62496185
-4.77750015 1.79310000 27.73776054
-3.36281991 1.80339003 27.74201965
-2.98730993 1.80384004 26.04429054
-3.33798003 1.77564001 28.53306007
-4.08131981 1.80525005 23.46167946
-3.28979993 1.80495000 24.12783051
-1.73457003 1.81694996 23.02131081
-3.86622000 1.80254996 22.04961014
-3.59031010 1.80458999 20.57685089
-2.72009993 1.78745997 18.98621941
-1.20536995 1.83098996 18.72617912
-4.42077017 1.77278996 16.48538971
-4.09062004 1.79214001 16.61853027
-2.11724997 1.80846000 18.12047958
-2.65370989 1.79697001 15.95847034
-3.10344005 1.78866005 15.58376980
-1.18083000 1.81880999 15.15474033
-2.64899993 1.78836000 10.34162998
-2.11905003 1.80650997 14.67426014
-1.75737000 1.79538000 14.74427986
-4.62162018 1.76091003 7.73414993
-4.54686022 1.76981997 9.68031025
-3.00944996 1.76715004 8.25654030
-5.10045004 1.72674000 6.95592022
-4.63154984 1.48538995 6.96332979
-3.84137988 1.73037004 7.72913980
-3.85974002 1.52040005 7.42491007
-2.75211000 1.66316998 8.01506996
-4.80600023 1.67105997 -6.06314993
-3.99333000 1.90955997 -7.65393019
-3.85409999 1.79612994 -6.81203985
-4.00580978 1.67063999 -6.51989985
-2.76542997 1.87226999 -7.32585001
-3.65705991 2.01137996 -13.88420963
-3.05673003 2.05247998 -16.45968056
-1.24172997 1.61925006 42.78054047
-1.12662005 1.67490005 42.51480103
-1.21001995 1.48076999 42.91740036
-0.46158001 1.43418002 42.98057938
-0.43485001 1.58045995 42.90536880
-0.24612001 1.66805995 42.77793121
0.51510000 1.63865995 42.90081024
0.52950001 1.36728001 43.00394821
1.25652003 1.70559001 42.77849960
3.20204997 1.75881004 42.43061829
0.99875998 1.47338998 43.00925827
1.67702997 1.64049006 42.92184067
1.25688004 1.77350998 40.48854065
1.09328997 1.81461000 30.49974060
0.27906001 1.81743002 27.95315933
-2.14293003 1.80111003 27.49037933
-1.65254998 1.80666006 26.85593987
-1.22709000 1.81374002 26.80146027
-0.63683999 1.83557999 24.80360985
-0.26424000 1.82159996 25.88192940
-0.30423000 1.83083999 26.29005051
1.80717003 1.82964003 26.52029991
0.48708001 1.80641997 25.23284912
1.26792002 1.82441998 24.44660950
0.23037000 1.84898996 21.23394012
0.76986003 1.78454995 25.25724030
2.90103006 1.83458996 22.79619026
-0.83363998 1.83134997 20.45181084
0.26502001 1.85019004 19.03437042
1.38264000 1.84377003 19.50819016
2.17166996 1.83065999 20.91501045
0.26565000 1.85289001 16.48472977
1.01232004 1.85871005 17.44518089
2.40656996 1.85940003 16.24754906
-0.71249998 1.82660997 13.97412014
-0.44775000 1.81752002 11.17286968
0.91904998 1.85162997 13.53398991
0.81902999 1.82808006 12.71498966
-1.79541004 1.74779999 8.46582031
-0.40079999 1.79610002 9.22272015
-0.66842997 1.76858997 8.54796028
0.47544000 1.78233004 8.48357964
-1.13627994 1.60020006 8.24921989
-0.58380002 1.69676995 8.36192989
-1.63385999 1.87407005 -7.49298000
2.31476998 1.50063002 43.00389099
2.75168991 1.72272003 42.76134109
2.56677008 1.65260994 42.90975189
3.38802004 1.57341003 42.95405960
3.95145011 1.64921999 42.89051819
4.28865004 1.73361003 42.73493958
5.90090990 1.84194005 40.76795959
4.58351994 1.55195999 42.91157913
3.81990004 1.82604003 38.07426071
3.67673993 1.83402002 34.69079971
3.91073990 1.83912003 32.04827881
3.28410006 1.82825994 29.06621933
3.54590988 1.85607004 26.01054001
2.49861002 1.79939997 23.76054001
2.22659993 1.83375001 17.64617920
5.27181005 1.72934997 42.70359039
6.05114985 1.78074002 42.47381973
6.32153988 1.70736003 42.61814880
-40.97885895 -1.80372000 12.14091015
-40.56782913 -1.92158997 13.19793034
-40.82778168 -1.80648005 12.55727959
-40.84899139 -1.98396003 11.79897022
-40.74234009 -1.82334006 13.02890968
-40.26308823 -1.99706995 12.91899014
-39.87287903 -2.08413005 10.65165043
-40.21323013 -1.96866000 14.00481033
-40.30941010 -1.82933998 14.39750957
-39.66950989 -2.04212999 13.20081043
-39.00506973 -1.99632001 15.15003014
-39.85211945 -1.90892994 15.34805965
-40.31090927 -1.69361997 14.63360977
-41.42927933 -2.04447007 8.93784046
-41.69223022 -1.87145996 8.75201988
-41.67789078 -2.01719999 8.04918003
-41.68170166 -1.82778001 9.06849003
-41.38761139 -1.92522001 10.05609035
-40.97357941 -2.05974007 9.65814018
-41.10456085 -2.01831007 10.50800991
-41.24259186 -1.86114001 10.94804955
-41.05247879 -1.92404997 11.50193977
-39.06470871 -2.14734006 7.43390989
-42.12318039 -2.02526999 5.48178005
-42.19763947 -1.92500997 5.89877987
-42.40998077 -1.90344000 4.56071997
-42.36410904 -1.81133997 5.20056009
-42.19068146 -1.82175004 6.31022978
-41.95920181 -2.00261998 6.71129990
-41.62253952 -2.09085011 5.62700987
-41.99073029 -2.07734990 4.61432981
-41.81058121 -1.97853005 7.41906023
-41.98043823 -1.88909996 7.16708994
-41.97687149 -1.78799999 7.53743982
-41.24232101 -2.10617995 7.11302996
-39.86495972 -2.15816998 5.00588989
-42.79293060 -1.91646004 1.51440001
-42.67124939 -1.96802998 2.13017988
-42.74982071 -1.79375994 2.32992005
-42.63875961 -1.81748998 3.22325993
-42.39537048 -2.06517005 2.32157993
-42.62234879 -2.03745008 1.46826005
-42.54930115 -1.97667003 3.01335001
-42.30897141 -2.05749011 3.43151999
-42.37451935 -1.99214995 4.19195986
-41.90798950 -2.11334991 1.60350001
-40.02624130 -2.16338992 2.97185993
-39.50939941 -2.18831992 1.66814995
-42.94305038 -1.91807997 -1.27823997
-43.00640869 -1.77209997 -1.22634006
-43.03065109 -1.75778997 -2.17553997
-42.79589844 -1.98825002 0.15167999
-42.88970947 -1.90685999 0.21108000
-42.61869049 -2.02928996 -0.69752997
-42.78414154 -2.02364993 -2.03012991
-42.57495117 -2.04831004 0.50594997
-41.65793991 -2.13410997 -1.02359998
-38.74596024 -2.21718001 -3.01071000
-38.92877960 -2.21226001 -0.50559002
-42.95027924 -1.90499997 -3.04703999
-42.55976868 -2.02574992 -2.74166989
-43.01018906 -1.72091997 -3.24398994
-42.94826889 -1.76690996 -3.99807000
-42.71633911 -2.01639009 -4.13283014
-42.73469925 -2.03055000 -3.38472009
-42.88634872 -1.86291003 -4.57442999
-42.84246063 -1.68227994 -5.30877018
-42.56906891 -2.02574992 -5.40725994
-42.70421982 -1.90680003 -5.90129995
-42.05369949 -2.08977008 -4.61648989
-42.05865097 -2.09625006 -5.40528011
-40.53150177 -2.17232990 -3.74201989
-39.73295975 -2.18519998 -7.80915022
-42.75423050 -1.68773997 -6.09798002
-42.58460999 -1.96958995 -6.40701008
-42.64878082 -1.79031003 -6.79481983
-42.56615829 -1.80203998 -7.40129995
-42.79872131 -0.42743999 -6.02850008
-42.42005920 -2.04099011 -6.75236988
-42.40637970 -1.97549999 -7.57931995
-42.36069107 -1.92368996 -8.35221004
-42.42005920 -1.61334002 -8.48466015
-42.14231873 -2.05233002 -7.73361015
-41.81166077 -2.10102010 -6.94596004
-42.07118988 -2.03250003 -9.01848030
-40.70315933 -2.14088988 -8.59125042
-41.23395157 -2.10189009 -9.91530037
-41.11875153 -2.13504004 -7.36836004
-40.09833145 -2.16989994 -8.78273964
-39.81518936 -2.15592003 -9.85587025
-42.21038818 -1.67481005 -9.55482006
-42.09548950 -1.89008999 -9.79716015
-41.86521149 -1.96686006 -10.51389027
-41.96847153 -1.75742996 -10.61606979
-41.70357132 -2.04647994 -10.18175983
-41.79098892 -1.26405001 -11.34593964
-41.80923080 -1.89195001 -11.08028984
-41.46471024 -2.05457997 -11.13282013
-41.58620834 -1.88511002 -11.92556953
-41.57820129 -1.98233998 -11.64027023
-41.28390121 -2.02520990 -12.21315002
-41.38925934 -1.81137002 -12.59912968
-40.00733948 -2.13783002 -12.28715992
-39.17615891 -2.16725993 -11.49246025
-41.13198090 -1.97484004 -12.85083008
-41.27222824 -0.50400001 -13.13132954
-41.12472153 -1.81332004 -13.24713039
-40.90808868 -1.90316999 -13.88817024
-40.85229111 -1.75083005 -14.23118973
-39.82913971 -2.11734009 -14.03645992
-40.49327850 -0.57366002 -15.21008968
-40.46316147 -2.03781009 -14.30405998
-40.49325180 -2.00819993 -14.65526962
-40.55001068 -1.95246005 -14.79141045
-40.39329147 -1.82828999 -15.38103008
-40.32344818 -1.94123995 -15.37790966
-39.99869919 -2.02953005 -15.76550961
-39.92805099 -1.97367001 -16.21430969
-40.04217148 -1.68285000 -16.26942062
-39.78612137 -1.91460001 -16.69565964
-39.75065994 -1.77638996 -16.93181992
-39.55070877 -2.03934002 -16.73414993
-38.98542023 -2.07942009 -17.20368004
-39.30176926 -1.56540000 -17.92296028
-39.29597855 -2.00255990 -17.52102089
-36.33570099 -1.79867995 22.95399094
-36.72938919 -1.69815004 22.53647995
-36.93056870 -1.79883003 21.96002960
-36.24639130 -1.64511001 23.40747070
-36.66701889 -1.55979002 22.76601028
-36.08216858 -1.83045006 23.04825020
-37.95312119 -1.91447997 19.17989922
-38.28408051 -1.85759997 19.34646034
-38.41056061 -1.91820002 18.62433052
-38.21852875 -1.61553001 19.89110947
-38.65539169 -1.62723005 18.97857094
-38.44572067 -1.77573001 19.27574921
-37.91693878 -1.72373998 20.39048958
-37.78250885 -1.87311006 20.09622002
-37.46810913 -1.82640004 20.93465996
-37.52492905 -1.57719004 21.25959015
-37.26713943 -1.68666005 21.64113045
-36.84284973 -1.90320003 20.53409958
-37.28268051 -0.62379003 21.78720093
-39.55611038 -1.91534996 16.14903069
-39.99824905 -1.72080004 15.51500988
-39.36666107 -1.88522995 16.74416924
-39.74235153 -1.75373995 16.22244072
-38.65082932 -1.97189999 16.85436058
-39.17478180 -1.82175004 17.50688934
-38.97771072 -1.89993000 17.65245056
-39.58758163 -1.71393001 16.68786049
-38.84589005 -1.79765999 18.35898018
-39.26052094 -1.67738998 17.53269005
-37.34534836 -1.98561001 17.14911079
-36.91677094 -2.00301003 15.90456009
-35.60609818 -1.94063997 19.28249931
-38.26934814 -2.10507011 10.74102020
-37.05093002 -2.05974007 13.14587975
-36.14051819 -2.01839995 15.54174042
-37.32516098 -2.14022994 7.34573984
-35.91135025 -2.09159994 9.79965019
-37.83639145 -2.17232990 5.44083023
-36.03879166 -2.12241006 8.82378006
-35.55107880 -2.11370993 7.46385002
-36.57566833 -2.17176008 3.61746001
-35.16246033 -2.19197989 0.31485000
-36.65201950 -2.21616006 -1.27367997
-37.21424866 -2.21877003 -2.66262007
-35.75772095 -2.20611000 -1.63706994
-38.67023849 -2.21757007 -6.14652014
-37.11896896 -2.21801996 -4.15967989
-35.05205917 -2.21996999 -5.87655020
-37.00473022 -2.23002005 -4.21920013
-35.37237167 -2.22006011 -3.68229008
-37.95549011 -2.20251012 -11.11404037
-36.32862091 -2.22546005 -7.59285021
-36.19721985 -2.22662997 -10.96850967
-35.37953949 -2.21447992 -11.74172974
-37.78121948 -2.17883992 -13.40207958
-37.81848145 -2.16735005 -14.98985958
-36.47177887 -2.19105005 -15.02912998
-36.82715988 -2.14862990 -16.99781990
-35.50337982 -2.20430994 -14.42370033
-39.48405075 1.01538002 -17.56764030
-39.13908005 -1.87368000 -18.16884041
-38.78997040 -1.97430003 -18.64401054
-38.54645920 -2.03402996 -18.85449028
-38.75910187 -1.75697994 -19.01349068
-38.19612122 -1.28556001 -20.13027000
-38.43870163 -1.89260995 -19.51022911
-37.57725143 -2.14604998 -17.13566971
-37.32836914 -2.12082005 -19.11960030
-35.15361023 -2.19500995 -16.50197983
-36.75020981 -2.11296010 -20.65313911
-38.42124176 -1.72625995 -19.65549088
-38.09423828 -1.98096001 -19.97001076
-37.79742050 -2.00913000 -20.33403015
-37.88082123 -1.83239996 -20.64303017
-37.94081879 1.03067994 -20.68560028
-37.10004044 -1.48581004 -22.10363960
-37.47053909 -1.99422002 -21.10565948
-37.13016129 -1.92600000 -21.86256027
-37.27338028 -1.81920004 -21.75708008
-36.89397049 -2.02013993 -21.90584946
-37.27257156 1.14824998 -21.84569931
-36.57197952 -1.89846003 -22.83419991
-36.74702835 -1.10714996 -22.74135017
-36.99425888 1.30508995 -22.23074913
-36.28181839 -1.81685996 -23.39699936
-36.13203049 -2.00967002 -23.19887924
-35.83155060 -1.71152997 -24.09999084
-35.81624985 -1.92654002 -23.95550919
-36.09114075 0.85361999 -23.74830055
-34.30667877 -1.45023000 26.35718918
-34.80902863 -1.61844003 25.58160019
-34.21023178 -1.57980001 26.39487076
-34.06187820 -1.75440001 25.97963905
-34.65090179 -1.74267006 25.53543091
-33.83982086 -1.66164005 26.80137062
-33.58412933 -1.75364995 26.80203056
-33.49605179 -1.54730999 27.39183044
-33.31383133 -1.42314005 27.67070961
-34.35501099 -0.86637002 26.32998085
-33.31554031 -1.69077003 27.41012955
-32.72666931 -1.72533000 27.93684006
-33.43254089 -1.80782998 25.58505058
-32.68997955 -1.57511997 28.34835052
-35.84711838 -1.32348001 24.13491058
-35.74724960 -1.74872994 23.99486923
-34.30680084 -1.88943005 21.70029068
-35.39316177 -1.52424002 24.80289078
-35.02106857 -1.80203998 24.51279068
-35.32817841 -1.66758001 24.76617050
-32.54127121 -1.83380997 23.87228966
-33.26129913 -1.86912000 22.01018906
-32.14434052 -1.90830004 18.45627022
-33.95418167 -1.95284998 17.76144028
-32.42937088 -1.90467000 19.35264015
-35.24966812 -1.99458003 16.25337029
-32.65700912 -1.96934998 14.71347046
-35.28144073 -2.02548003 14.06832027
-33.44955063 -2.03135991 10.81136990
-34.56621170 -2.07411003 9.57765007
-33.63341904 -2.06271005 8.94219017
-32.24732971 -2.04042006 9.31361961
-33.98369980 -2.10209990 6.04694986
-32.46435165 -2.08493996 6.27770996
-31.97003937 -2.05733991 7.72665024
-33.30231094 -2.10942006 4.69730997
-33.66614914 -2.17089009 1.14956999
-31.92659950 -2.11470008 2.82519007
-33.87255096 -2.18934011 -2.55245996
-33.00719833 -2.14673996 -0.16847999
-32.34000015 -2.15936995 -1.11438000
-32.16389847 -2.16968989 -2.41988993
-33.36048126 -2.20143008 -5.31653976
-32.49557877 -2.18844008 -4.45101023
-33.52647018 -2.21657991 -7.34402990
-34.08182907 -2.22377992 -8.76498032
-33.21083832 -2.21276999 -10.95666027
-34.58024979 -2.14970994 -20.04353905
-35.11293030 -1.41840005 -25.14242935
-35.43003082 -2.00573993 -24.19310951
-35.19749832 -1.94166005 -24.78023911
-34.92348099 -1.84838998 -25.30460930
-34.46327972 -0.11766000 -26.00717926
-34.34024811 -1.84395003 -26.07810020
-34.25582886 -1.69755006 -26.26305008
-34.90908051 1.40100002 -25.40265083
-35.49303055 1.35725999 -24.60321045
-34.26419830 1.41317999 -26.25824928
-33.54539871 0.91596001 -27.14447975
-33.65499115 1.55027997 -26.89661980
-33.30339050 1.46781003 -27.39716911
-32.47779083 0.81836998 -28.34625053
-32.11766815 -0.49535999 -28.71557999
-32.07305908 -1.51622999 29.10831070
-32.05487823 -1.63899004 28.98933029
-31.58946037 -1.41987002 29.67734909
-31.47974968 -1.54068005 29.73525047
-31.70808029 -1.67369998 29.24439049
-30.73064995 -1.66112995 30.27441025
-31.03190994 -1.70289004 29.51028061
-30.81603050 -1.58477998 30.37767029
-30.98720932 0.44705999 30.32817078
-32.38967896 0.33515999 28.77573013
-30.84510040 -1.44654000 30.47109032
-30.27656937 -1.34459996 31.06868935
-30.22583961 -1.53723001 31.02149963
-29.79570007 -1.64183998 31.16436005
-31.37313080 -1.75125003 28.10747910
-28.91087914 -1.67259002 30.84933090
-29.66319084 -1.53272998 31.56329918
-29.45714951 -1.15266001 31.86720085
-32.69937134 -0.91965002 28.44066048
-29.77589989 -1.76538002 26.45825958
-27.62237930 -1.69938004 29.20676994
-30.46710014 -1.81743002 23.21442032
-32.06150818 -1.86579001 21.73983002
-30.73373985 -1.83548999 22.44378090
-28.38332939 -1.78380001 23.77152061
-30.97104073 -1.87143004 19.63821030
-28.50789070 -1.80713999 20.94522095
-29.81267929 -1.90590000 15.66714001
-28.86092949 -1.84569001 18.39179993
-29.10975075 -1.87109995 17.08769989
-30.75432014 -1.95398998 12.99612045
-28.85261917 -1.90512002 14.47031975
-30.40533066 -1.99433994 9.80924988
-28.66617012 -1.92218995 12.44816971
-30.01643944 -2.01126003 7.95051003
-28.74980927 -1.97472000 9.36740971
-30.79545021 -2.06699991 4.99010992
-31.89702034 -2.13063002 0.87362999
-30.72986984 -2.08475995 3.47196007
-31.48325920 -2.10624003 0.10644000
-31.70535088 -2.13566995 -1.32047999
-30.57435036 -2.11488008 -0.18693000
-30.36920929 -2.08646989 0.33585000
-31.95059967 1.72788000 -27.54021072
-33.41147995 1.69638002 -25.49729919
-30.31016922 1.81421995 -26.36886024
-33.15681076 1.76075995 -21.66954041
-30.00548935 1.83440995 -21.90905952
-32.84564972 1.57871997 -27.81180000
-33.07406998 1.67246997 -26.93099976
-32.78570938 1.44921005 -28.00131035
-32.34408188 1.67637002 -28.13171959
-32.18918991 1.57247996 -28.55909920
-31.93791008 1.46226001 -28.90970993
-31.42872047 1.33554006 -29.43357086
-31.58016014 1.59384000 -29.17782021
-31.29174042 1.67082000 -29.31612015
-31.13487053 1.71092999 -29.27360916
-29.25518990 1.79069996 -29.15834999
-30.75806999 1.23306000 -30.10110092
-30.92210960 1.62287998 -29.79759026
-30.20568085 1.57433999 -30.54693031
-30.33633041 1.65357006 -30.30773926
-30.03474045 1.32248998 -30.79224014
-29.66736031 1.72478998 -30.71520042
-29.62919998 1.49061000 -31.15349960
-29.30600929 1.66517997 -31.29410934
-27.81822014 -0.13416000 33.30279160
-28.05570030 -1.16046000 33.10358810
-28.01543999 -1.37415004 33.09461975
-28.31550026 -1.56297004 32.69906998
-27.83040047 -1.61412001 32.45412064
-27.35474968 -1.38083994 33.64709854
-27.29924965 -1.55948997 33.46131134
-26.26299095 -1.61855996 33.11880112
-26.68836021 -1.59449995 33.84479904
-26.74922943 -1.41050994 34.12892914
-25.99757957 -1.59485996 34.34703064
-26.02779007 -1.52547002 34.60461044
-25.91727066 -1.30962002 34.83110809
-25.72649956 0.68460000 34.92908859
-29.04351044 -1.51890004 32.11761093
-27.22574997 -1.66830003 31.01667023
-25.56846046 -1.64909995 30.67419052
-25.49505043 -1.66544998 28.87890053
-26.97126007 -1.71143997 27.68316078
-26.91666031 -1.72751999 26.45030975
-25.17029953 -1.70468998 25.96866035
-26.55047989 -1.75266004 23.24319077
-27.03873062 -1.78175998 21.32703018
-27.98229027 -1.93958998 9.95678997
-29.40102005 1.73187006 -0.91245002
-26.24189949 1.74300003 1.50998998
-25.78937912 1.76192999 -1.53656995
-26.93832016 1.77737999 -4.07426977
-29.61677933 1.75863004 -4.70081997
-27.09840012 1.78530002 -6.36903000
-28.75700951 1.79402995 -8.34663010
-27.52289963 1.81169999 -10.24767017
-28.72142982 1.80941999 -10.91160011
-26.94300079 1.81808996 -8.99225998
-30.54290962 1.80171001 -13.17152977
-24.50651932 1.84878004 -10.38084030
-30.08819962 1.82700002 -17.17740059
-30.10643959 1.81175995 -14.88836956
-28.15523911 1.84929001 -16.14228058
-27.33572960 1.85034001 -15.02480984
-27.51635933 1.86821997 -18.74678993
-26.12006950 1.87608004 -17.83398056
-26.41412926 1.88064003 -20.10087013
-27.82019997 1.87322998 -23.31711006
-25.02545929 1.90515006 -27.62249947
-25.35297012 1.90922999 -24.88928986
-23.26313972 1.92833996 -24.31142998
-24.21912003 1.91744995 -26.11463928
-28.94618988 1.73714995 -31.21961975
-28.70294952 1.42376995 -32.00304031
-28.80056953 1.58280003 -31.86273003
-28.49729919 1.66640997 -31.99988937
-28.24773026 1.72574997 -31.95066071
-27.92493057 1.31418002 -32.66553116
-27.91230011 1.58481002 -32.60802078
-25.19823074 1.84386003 -31.50449944
-26.61935997 1.74779999 -32.73585129
-27.65505028 1.64849997 -32.71839142
-27.41748047 1.46430004 -33.08847046
-26.97402000 1.68158996 -33.19215012
-27.05484009 1.57269001 -33.32369995
-26.48159981 1.51919997 -33.81573105
-25.90212059 1.66638005 -34.03443146
-25.62705040 1.71087003 -34.01937103
-24.18347931 -1.29384005 36.08181000
-23.87379074 -1.46879995 36.19514847
-23.55792046 -1.22517002 36.49763870
-22.22862053 -0.30576000 37.38278961
-24.63834000 -0.61071002 35.78504944
-22.89657021 -1.35492003 36.89522934
-22.74456024 0.69695997 37.03332138
-23.92506027 -1.56375003 35.94557953
-22.88513947 -1.52178001 36.75125885
-22.78425026 -1.59950995 36.03963089
-23.69325066 1.34421003 36.29616165
-24.42395973 1.24203002 35.85639191
-25.43091011 -1.46687996 35.16215897
-25.04015923 -1.33884001 35.49113846
-24.72674942 -1.60254002 34.92599869
-24.67400932 -1.52424002 35.54930878
-24.60644913 -1.63299000 33.32757187
-24.88488007 -1.71156001 23.63973045
-22.79027939 1.63979995 23.57378960
-23.01312065 1.64985001 22.25241089
-23.40492058 1.63901997 25.73244095
-24.96738052 1.66653001 16.05245972
-23.02275085 1.69164002 14.18789959
-25.78343964 1.67505002 13.58967018
-21.83675957 1.71239996 11.96436024
-27.36050987 1.71071994 5.42972994
-27.94685936 1.67561996 10.20555019
-25.47080994 1.68755996 10.68974972
-27.05678940 1.67903996 11.97614956
-24.26078987 1.68737996 10.63446045
-22.69058990 1.72002006 8.29310989
-22.45553970 1.70754004 9.42815971
-23.76347923 1.74275994 4.17584991
-20.98332024 1.73994005 5.47910976
-26.53610992 1.72929001 3.13916993
-23.24843979 1.75445998 2.46162009
-24.42435074 1.76087999 1.64703000
-21.77835083 1.76610005 2.99877000
-21.42723083 1.77198005 1.16306996
-24.07226944 1.76189995 0.13173001
-23.30190086 1.79438996 -3.51260996
-22.63592911 1.81560004 -5.07968998
-24.70347023 1.80737996 -5.78426981
-24.01461029 1.81329000 -6.65231991
-25.13699913 1.82277000 -7.73477983
-25.41317940 1.81781995 -8.91971970
-21.94874954 1.83453000 -8.24814034
-23.93313026 1.88571000 -15.02727032
-21.96957016 1.86338997 -11.08763981
-24.42357063 1.89888000 -18.40011024
-23.71073914 1.91277003 -20.88816071
-21.65147972 1.94774997 -23.49608994
-25.62797928 1.57037997 -34.41305923
-25.48884010 1.44272995 -34.60013962
-25.11731911 1.58211005 -34.78287125
-24.66464996 1.67552996 -34.94538116
-23.87490082 1.72167003 -35.05517960
-24.47199059 1.56507003 -35.27307129
-24.02249908 1.64493001 -35.45370102
-23.61470985 1.50416994 -35.89340973
-22.02399063 1.86521995 -33.48725891
-23.43959999 1.62834001 -35.85971832
-22.98981094 1.66448998 -36.00947952
-22.67040062 1.55664003 -36.44129944
-21.90096092 -1.31691003 37.51134109
-22.08189011 -1.44057000 37.31877136
-21.87552071 -1.52894998 37.25321960
-22.78248024 1.41218996 36.92958069
-22.15778923 1.41350996 37.33710098
-21.28406906 -1.25495994 37.87863159
-21.71624947 1.54689002 37.47636032
-21.10388947 -1.42365003 37.87908173
-20.48043060 -1.02327001 38.37210083
-21.03156090 1.02627003 38.03733063
-21.25457954 1.48049998 37.82085037
-21.08283043 1.64268005 34.49607086
-22.92374992 1.60281003 36.21044922
-20.75217056 1.62684000 37.07403183
-20.91419983 1.57953000 37.86825180
-22.37582970 1.59221995 36.88856888
-20.63631058 1.36011004 38.20434189
-19.59555054 1.62213004 38.15240860
-19.97435951 1.00230002 38.58042145
-20.38134003 1.47852004 38.27444839
-19.51700974 1.59590995 38.51472092
-19.72229958 1.52835000 38.56082916
-18.52650070 1.66868997 32.72592163
-21.37118912 1.64663994 32.68650055
-20.40131950 1.65030003 27.67653084
-23.85144043 1.60871994 30.73047066
-21.67589951 1.63293004 31.51013947
-23.37981033 1.60670996 33.24311829
-19.97100067 1.64297998 31.14348030
-22.17852020 1.64151001 28.14528084
-20.27898026 1.66077006 25.14653969
-21.91391945 1.65618002 22.60473061
-21.37010956 1.66224003 23.94264030
-18.83562088 1.67427003 24.11096954
-21.07035065 1.66269004 22.35515976
-20.43765068 1.67429996 22.39670944
-21.74559021 1.66973996 20.35844994
-24.81728935 1.65129006 20.23209000
-18.55359077 1.68489003 21.93206978
-19.52388000 1.70495999 17.68938065
-18.71246910 1.72254002 13.32752991
-20.11572075 1.72388995 9.22482014
-18.65196037 1.73439002 7.31387997
-19.37756920 1.77108002 2.29154992
-19.78050041 1.76762998 3.48359990
-18.60350990 1.75518000 4.86221981
-20.55627060 1.79091001 -0.03093000
-21.01155090 1.79615998 -1.75715995
-18.56361008 1.79814005 -2.05964994
-20.20805931 1.82277000 -5.08338022
-20.89743042 1.81994998 -5.88777018
-19.30748940 1.83579004 -6.32601023
-19.34741974 1.89855003 -12.76850986
-20.08353043 1.90886998 -15.19250965
-19.19945908 1.93575001 -18.04215050
-15.87959957 0.91886997 40.33272171
-17.08766937 1.35890996 39.85889816
-18.16554070 1.18146002 39.41889191
-16.08308983 1.32959998 40.22600937
-17.10014915 1.52702999 39.74990845
-16.27511978 1.58427000 39.98231888
-19.18308067 1.44456005 38.90285873
-17.61701965 1.66884005 36.93218994
-18.23000908 1.55136001 39.23738861
-18.24119949 1.41249001 39.34740067
-17.48208046 1.62365997 39.29426956
-17.19531059 1.59261000 39.59877014
-16.96913910 1.69005001 32.36550140
-19.08194923 1.64681995 30.27887917
-17.53107071 1.67033994 29.93684959
-17.55851936 1.68429005 31.77656937
-15.05082035 1.69037998 28.65438080
-13.74390030 1.70745003 30.03056908
-16.76292038 1.68140996 25.21800041
-17.00330925 1.70034003 22.02930069
-17.20401001 1.68458998 24.73568916
-15.58133984 1.69707000 22.19016075
-14.97414017 1.70870996 22.98789024
-18.16476059 1.70003998 17.79191971
-17.39183998 1.69406998 20.12877083
-15.70248032 1.70694005 20.89208984
-16.28372955 1.72299004 15.90225029
-17.54652023 1.72779000 12.57818985
-17.19290924 1.72185004 13.93601990
-16.34493065 1.71516001 13.07501984
-15.66366005 1.73088002 13.33415985
-16.86432076 1.73294997 11.06033993
-18.04533005 1.73960996 8.98661995
-15.77406025 1.74866998 8.31402016
-17.10734940 1.75172997 6.99066019
-16.27419090 1.76178002 4.10127020
-18.30957031 1.75653005 4.16315985
-15.76865959 1.77663004 2.67986989
-18.26141930 1.77162004 2.15636992
-16.58408928 1.76885998 2.34045005
-16.55135918 1.77974999 1.26273000
-17.99373055 1.78430998 -0.07821000
-17.16017914 1.80576003 -1.44131994
-16.25139046 1.79351997 -0.84978002
-16.14336014 1.81110001 -2.22815990
-15.47546959 1.46403003 40.39125061
-15.59945965 1.61594999 40.15176010
-14.37639046 1.66584003 39.55971146
-14.50043964 1.35423005 40.77959824
-14.53802967 1.53341997 40.67840958
-14.13869953 1.63731003 40.48431015
-13.67903996 1.58097005 40.83678055
-13.43412018 1.32767999 41.08454895
-12.91851044 1.45073998 41.16833878
-11.88753033 1.70409000 39.25518036
-12.41289043 1.14408004 41.37728882
-12.57878971 1.64757001 40.46435928
-12.69894028 1.55984998 41.05886841
-15.96947956 1.68212998 36.91590118
-14.40927029 1.69839001 35.98308182
-14.72916031 1.69620001 31.93983078
-11.84352016 1.72035003 33.15116882
-12.84764957 1.72932005 32.31515884
-11.82011986 1.73130000 30.59507942
-13.39017010 1.70526004 26.54652023
-14.37516022 1.68710995 28.17350960
-12.29321957 1.70418000 28.54895973
-14.31657028 1.69886994 23.80764008
-13.62489033 1.70009995 23.11395073
-13.35978031 1.71353996 23.48843956
-11.89179039 1.71494997 24.30299950
-12.33246040 1.72509003 21.70940971
-12.67500019 1.72440004 22.61940002
-12.82059002 1.72163999 20.29352951
-14.62205982 1.71843004 18.40517998
-14.65820980 1.72806001 14.31377983
-12.81453037 1.72377002 17.89241982
-12.16059017 1.73837996 16.05686951
-15.51482964 1.73813999 11.97789001
-15.20876980 1.72086000 12.43173027
-13.92593956 1.73604000 11.63453960
-11.82522011 1.54298997 41.29164124
-11.22128963 1.34475005 41.63412094
-11.74995041 1.46510994 41.44058990
-11.06186962 1.60449004 41.01483154
-11.05793953 1.66626000 39.57947922
-10.31849957 1.63977003 40.40499115
-10.93445969 1.44641995 41.64611816
-10.40592003 1.52894998 41.65307999
-9.73517990 1.55928004 41.68439865
-9.46634960 1.60263002 41.27133179
-9.82124996 1.45037997 41.85668945
-9.06492043 1.64337003 39.41297913
-11.43087006 1.71503997 37.24571991
-10.71263981 1.70877004 38.26913834
-10.99026012 1.69817996 37.55165863
-10.10126972 1.71492004 36.53828812
-9.73340988 1.65392995 38.66571045
-11.08920002 1.71879005 34.91297913
-10.31546974 1.72815001 32.86016846
-10.07787037 1.72227001 33.58377075
-10.11594009 1.70714998 33.93801117
-9.16184998 1.72670996 35.25312042
-9.04043961 1.73732996 33.14849854
-10.19859028 1.73258996 31.61886024
-11.99685001 1.71282005 22.10660934
-10.43750954 1.73540998 20.65913963
-10.98626995 1.70874000 21.18791962
-10.83533955 1.73406005 21.42326927
-8.68517971 1.54508996 41.94435120
-8.72412014 1.40496004 42.10118866
-7.79718018 1.53330004 42.12744141
-8.54207993 1.73927999 32.39466095
-41.12598038 -1.74173999 11.66222954
-40.89579010 -1.02546000 12.73349953
-40.55307007 -1.44087005 13.89885044
-40.75365067 0.94449002 13.17053986
-40.38597107 0.24546000 14.51552963
-41.00640106 1.02699006 12.15935993
-39.79196930 -1.37600994 16.21260071
-40.78002167 1.19501996 12.77733040
-41.13822174 1.18332005 11.41742992
-40.81911087 1.28849995 12.15198040
-40.46118164 1.18305004 14.01828003
-40.43561935 1.30520999 13.39313984
-40.66785049 1.32261002 12.07886982
-41.41268921 -1.23069000 10.50638962
-41.86241913 0.69578999 8.37102032
-41.42678833 -1.75404000 10.32923985
-41.62746048 0.33033001 9.56538010
-41.31845856 1.01949000 10.87959003
-41.87726974 1.12818003 8.13984013
-41.64783096 1.15208995 9.22056007
-41.48991013 1.10390997 10.02962971
-41.45183945 1.27295995 9.59669971
-41.72441864 1.22625005 8.56805992
-41.27561951 1.34057999 9.39107990
-41.77410126 1.32024002 7.50288010
-40.58832169 1.36152005 10.70081997
-41.08395004 1.30320001 10.87277985
-42.26324844 -1.54626000 6.01745987
-42.49217987 0.14844000 4.69980001
-42.57120132 -1.50231004 3.95490003
-41.89712906 -1.31132996 8.13624001
-42.46343994 1.09965003 4.78620005
-42.15317917 1.11152995 6.68678999
-41.99531937 1.06938004 7.40657997
-42.35372925 1.23653996 5.04587984
-42.31301880 1.18842006 5.52822018
-42.25014114 1.12851000 5.99439001
-42.33467865 1.29471004 4.69274998
-42.09806824 1.27412999 6.23220015
-41.92700958 1.34931004 5.89112997
-41.73614883 1.29093003 8.04903030
-41.15348816 1.39125001 7.55261993
-41.13378143 1.41498005 5.42891979
-42.91593170 -0.79767001 0.96375000
-42.85811996 0.51594001 1.69770002
-42.75062943 1.07729995 2.56226993
-42.84080887 1.13073003 1.73967004
-42.67029190 1.09010994 3.25823998
-42.63188934 1.28711998 2.25969005
-42.47898102 1.32782996 3.15863991
-42.59960938 1.21656001 3.35648990
-42.32616043 1.33287001 4.14518976
-41.99510956 1.38636005 2.84405994
-42.63491821 1.33905005 1.60883999
-40.21743011 1.47852004 2.49605989
-43.07352066 -0.79527003 -1.48503006
-42.95901108 -1.65878999 0.02853000
-42.88650131 -1.82054996 0.91416001
-43.03913879 1.10699999 -1.45395005
-43.06686020 0.88698000 -2.04006004
-43.00764084 1.09460998 -0.25202999
-43.01240921 1.20981002 -0.87194997
-42.88415909 1.31561995 -0.97391999
-42.93021011 1.16802001 0.63321000
-42.85797119 1.28577006 0.05223000
-42.82632065 1.24599004 1.32212996
-42.65375900 1.34832001 0.54531002
-42.66801071 1.36970997 -0.96270001
-42.65436172 1.37193000 -2.81727004
-40.65108109 1.47612000 -0.28035000
-38.58929825 1.56377995 -1.10520005
-39.43212128 1.55718005 -3.49512005
-43.02909088 -0.69138002 -3.64209008
-43.04790115 0.96776998 -3.30519009
-42.87305832 1.16874003 -4.72731018
-42.95756912 1.13402998 -4.42815018
-43.02870178 1.17212999 -3.11003995
-42.93447113 1.30238998 -2.40315008
-42.84233856 1.32002997 -3.61209011
-42.69261169 1.30794001 -5.88462019
-42.63611984 1.37093997 -4.80669022
-41.57339859 1.46439004 -4.51335001
-42.67749023 1.08351004 -6.83823013
-42.60717010 0.35730001 -7.45620012
-42.81399155 1.17504001 -5.74070978
-42.56465912 1.25748003 -7.21959019
-42.39291000 1.16040003 -8.52678013
-42.17271042 1.42197001 -7.03400993
-42.51195145 1.37516999 -6.51815987
-42.50249863 1.20843005 -7.82573986
-42.28826904 1.39130998 -7.87410021
-42.27816010 1.35143995 -8.51373005
-39.31782150 1.58667004 -9.01589966
-42.27944946 -0.45414001 -9.31929016
-42.17705917 1.12203002 -9.63432026
-41.95460892 0.83121002 -10.65063000
-42.21144104 1.29612005 -9.22850990
-41.90901184 1.43346000 -9.52182007
-42.01052856 1.30052996 -10.14336014
-41.90316010 1.39206004 -10.16670036
-41.66183853 1.26609004 -11.66370010
-41.84769058 1.26455998 -11.01095963
-41.51324844 1.23747003 -12.23600960
-41.68077087 1.41117001 -11.13938999
-41.45745087 1.47680998 -10.31058025
-41.30286026 1.45880997 -12.11291981
-40.41791916 1.54260004 -11.11596012
-41.26440048 1.22106004 -13.06295967
-41.18762970 1.44228005 -12.76058960
-40.90761185 1.17849004 -14.10284996
-41.15835190 1.33287001 -13.27116013
-40.51412964 1.23602998 -15.12660027
-40.80812836 1.39997995 -14.02805996
-40.65980911 1.48845005 -13.61991024
-40.48497009 1.37292004 -15.02678967
-40.00431061 1.50287998 -15.14787006
-40.20743942 1.42128003 -15.60171032
-40.16468811 1.25900996 -15.97031975
-36.77001190 0.29442000 22.66637993
-38.31623840 -0.53169000 19.79124069
-39.00708008 -1.13321996 18.23255920
-38.69789886 0.90935999 18.93852043
-37.92948151 0.89679003 20.50403976
-38.34309006 1.10112000 19.68413925
-38.36901093 1.26164997 19.45539093
-37.90196991 1.30247998 20.37443924
-38.18703079 1.35561001 19.52993965
-37.71768188 1.38296998 20.43054008
-38.16069031 1.36664999 19.21758080
-37.67295074 1.12244999 20.99894905
-37.41875839 1.31807995 21.22443008
-37.32836914 1.12992001 21.63141060
-36.76575089 1.42506003 21.28331947
-37.04784012 1.28087997 21.84390068
-36.73059082 1.11126006 22.67535019
-39.48686981 0.64889997 17.08667946
-39.94028854 1.06524003 15.84755993
-39.94424820 1.22976005 15.70524025
-39.65034103 1.31765997 16.15250969
-39.76721954 1.33457994 15.43799973
-39.69363022 1.14209998 16.51461029
-39.29634094 1.34915996 16.79109001
-39.22761154 1.27863002 17.42274094
-39.24213028 1.02104998 17.68046951
-38.83301926 1.35810006 17.94182968
-38.94165039 1.18452001 18.35030937
-37.02093124 1.48587000 14.93412018
-37.13240814 1.45287001 17.98490906
-40.31843948 1.07114995 14.67156029
-39.02444839 1.41840005 13.71687031
