-0.18094100 5.02036000 4.13041000
-2.25004000 -1.43473000 2.00825000
2.55306000 2.03983000 -0.81661100
-3.09925000 7.51872000 4.27519000
2.29610000 -3.81436000 3.47705000
-2.85159000 -2.28835000 -2.49579000
5.06453000 -5.97098000 -0.93153000
-1.73679000 2.08962000 2.00845000
-2.81059000 -1.60689000 3.28686000
-2.70016000 7.60334000 1.43800000
-0.36493700 8.89299000 -0.53224000
0.11018400 -4.24687000 3.74908000
0.27307000 7.34183000 5.30131000
-1.90488000 -3.08820000 -2.95906000
2.69048000 9.49457000 0.99057300
2.74797000 9.50576000 0.88705600
-3.62060000 3.91524000 2.63502000
-0.80348500 -5.82745000 -0.50657600
-4.74279000 0.17622400 0.42411100
-4.42707000 2.11138000 -1.27178000
-4.82878000 0.44602000 -0.48654700
-4.83075000 0.40350100 -0.52949700
-2.24672000 8.60516000 2.72545000
-3.57336000 4.08446000 2.74266000
3.67660000 2.83184000 2.63309000
-0.39245000 -5.26268000 3.99761000
-2.47240000 3.55296000 3.57488000
2.54579000 5.28164000 3.30067000
-2.35745000 3.39669000 3.60587000
-2.37467000 3.42748000 3.60983000
2.10283000 -2.36754000 -4.69356000
3.69127000 2.91523000 2.62102000
-3.74447000 4.80857000 2.47628000
2.46904000 8.70831000 0.31356500
3.49160000 6.39471000 2.28841000
-2.23777000 -1.27937000 1.18616000
0.62618700 9.58097000 -0.63161600
2.78901000 -0.08330790 -4.19317000
-0.31619500 4.21011000 -1.20862000
-0.36926000 4.21270000 -1.21848000
-3.58637000 2.37768000 2.80845000
-4.34101000 3.35907000 1.11410000
4.86046000 0.84520500 -3.49152000
4.90008000 0.78961600 -3.45819000
-4.48330000 1.75945000 1.64317000
4.92460000 4.86093000 0.78549900
4.93980000 4.92604000 0.81451200
1.45848000 8.12938000 3.83366000
1.44674000 8.17064000 3.75873000
-2.63490000 5.61924000 -2.04265000
-2.59753000 5.62907000 -2.03289000
-5.27896000 -0.35707100 -0.32432900
0.66063400 8.06447000 -0.59491300
-3.31724000 3.13008000 3.06565000
-0.07211270 -3.52681000 3.49157000
0.05034080 -3.54316000 3.35825000
0.08080900 -3.55039000 3.38963000
3.98494000 -0.12123500 -4.60394000
-3.43154000 -5.92349000 3.63905000
1.48012000 3.78275000 1.00242000
1.33168000 -2.65035000 -1.44262000
4.32686000 5.49184000 -1.06293000
4.37953000 5.38905000 -1.02812000
-3.49803000 -5.91326000 3.61191000
-2.94435000 -1.87323000 -2.33804000
-3.51440000 -5.92694000 3.55831000
-3.52434000 -5.92050000 3.56749000
-3.51234000 -5.84233000 3.62426000
4.33935000 5.42130000 -1.07980000
-3.47708000 -5.87926000 3.64928000
-3.49876000 -5.91711000 3.59083000
2.71721000 1.90653000 -0.16820900
0.74997700 3.67085000 3.10690000
-1.93399000 -2.08631000 2.14957000
-2.24568000 5.84541000 3.95535000
-1.05855000 5.73381000 -1.68887000
-1.10642000 5.72626000 -1.72246000
1.58723000 7.59656000 -0.61858400
1.65274000 7.55125000 -0.56868600
3.01024000 -6.07981000 2.99366000
-1.91451000 6.80317000 -0.15491500
-3.24849000 7.74092000 3.90343000
1.87019000 -2.36809000 -1.62751000
-0.81558600 3.57577000 0.00126820
-5.17605000 -3.16219000 -2.68573000
-5.15844000 -3.19801000 -2.68304000
-5.20237000 -3.18062000 -2.70963000
2.65148000 1.77838000 -3.22120000
-4.95573000 0.32751500 1.01383000
6.19368000 -2.98378000 -1.98508000
5.61213000 -0.78968500 -3.86747000
6.21337000 -3.07538000 -1.99812000
-1.63713000 8.09648000 3.82658000
-2.18088000 5.42556000 3.46243000
-1.66353000 8.06313000 3.85561000
-4.33989000 2.64859000 -1.23030000
-0.94747900 8.24591000 -0.32311100
4.52625000 -4.19756000 -5.23941000
2.19021000 7.30234000 -0.37532000
0.20048900 9.48847000 1.30210000
-2.16625000 -1.66736000 2.19092000
-3.76279000 4.30037000 2.53999000
-3.75783000 4.28877000 2.49428000
4.69967000 -1.50666000 2.31240000
6.16934000 -3.76787000 -0.05605710
-1.86076000 1.49288000 2.25051000
-1.86402000 1.47179000 2.19040000
-5.83663000 -5.00554000 -0.18106000
-4.07553000 3.23212000 2.00217000
-4.24045000 4.56094000 -0.13571700
3.59663000 -4.76463000 3.29852000
3.64402000 -4.78156000 3.26518000
2.31012000 3.46643000 1.28408000
2.63067000 -1.96277000 3.06339000
2.62781000 -1.97356000 3.08994000
2.22488000 -4.38584000 3.49480000
2.70436000 2.38370000 1.81502000
2.68745000 2.41767000 1.84131000
2.85911000 1.57078000 2.10694000
-4.14061000 -4.10747000 -4.19000000
2.82477000 7.88243000 0.96034300
4.84519000 4.07201000 -0.73495900
4.85217000 3.95842000 -0.81406200
0.09324730 3.55283000 2.67024000
-1.76663000 2.88320000 -1.92067000
-3.23867000 -5.72736000 -3.54329000
-0.13671600 -2.97814000 1.75053000
1.80042000 8.36411000 3.40415000
2.30012000 -2.24777000 2.80716000
0.44715100 3.97571000 0.02284640
0.50731300 3.98304000 0.01769860
0.60168500 3.99863000 -0.06253560
0.87682200 3.82851000 3.43272000
0.88994200 3.83685000 3.42667000
-1.34876000 -3.98738000 -5.35757000
-1.38080000 -3.84127000 -5.25812000
-3.53686000 5.09952000 1.31830000
-2.84508000 5.45666000 2.52026000
-2.82453000 5.40132000 2.56199000
3.60311000 3.11484000 -3.62168000
3.54078000 3.20179000 -3.61652000
-1.73705000 1.80618000 0.22597800
-2.80735000 5.43792000 2.59722000
-3.07322000 -4.74687000 3.80761000
5.59146000 -4.12077000 -4.58434000
2.81741000 3.41361000 3.05245000
4.41120000 0.13067500 2.40124000
2.95230000 0.62813600 1.03819000
1.28602000 6.90365000 -1.03252000
3.15375000 0.11435700 -4.59498000
3.20042000 6.86181000 4.06075000
-2.35257000 -2.65464000 -2.03607000
-4.65713000 -5.94638000 2.55740000
3.31787000 6.03273000 0.60093500
2.33739000 -5.98956000 -4.45286000
5.84955000 -1.25243000 -1.89746000
-2.87621000 5.80045000 0.94599300
2.21145000 9.09576000 2.10430000
2.38236000 9.08544000 2.08435000
2.82809000 4.25336000 3.56513000
3.00709000 4.29903000 3.50171000
-0.50115900 -2.94769000 0.86166600
6.04370000 -2.11876000 -0.71947800
-3.14779000 5.31149000 -0.47054700
2.09995000 -6.02480000 -2.81506000
-0.30261300 7.42893000 -0.87647900
-2.76565000 7.70403000 1.29672000
-2.20821000 -2.25457000 3.19835000
-4.04323000 3.28242000 -1.69978000
-4.08659000 3.20581000 -1.66556000
2.57552000 1.71539000 -1.27005000
4.12578000 5.75571000 -0.58564200
-4.17352000 0.03472880 2.50463000
-5.50665000 -5.60119000 -1.43481000
-5.55701000 -5.60026000 -1.38379000
-5.55302000 -5.59132000 -1.56992000
0.36370600 8.96486000 -0.58772200
-5.55971000 -5.59433000 -1.46178000
-5.52754000 -5.59359000 -1.55476000
-5.60566000 -5.58809000 -1.36962000
-5.54429000 -5.59786000 -1.42224000
-0.41768300 -4.34723000 3.92224000
3.63845000 0.93173600 -4.26233000
-4.17453000 -0.83712100 2.55003000
-3.21877000 7.74031000 3.92082000
1.21741000 -2.70012000 -2.07524000
-5.57648000 -5.59316000 -1.43995000
-5.59679000 -5.55621000 -1.45201000
2.68326000 -0.26609800 -0.19896400
1.67964000 9.52136000 1.25650000
5.85713000 -0.72273900 -3.70835000
5.62438000 -1.25305000 -2.74184000
-3.44727000 -3.86422000 3.51044000
-3.52333000 -3.77929000 3.46253000
-2.31143000 5.43907000 3.34639000
-0.85338300 -3.09098000 3.41324000
1.97681000 -2.74468000 3.01057000
-5.58879000 -5.56865000 -1.40390000
-5.60606000 -5.57487000 -1.43816000
-5.57338000 -5.59373000 -1.40376000
-5.62623000 -5.56374000 -1.38625000
-5.59687000 -5.56618000 -1.48672000
-5.53134000 -5.58366000 -1.44544000
1.53002000 3.63161000 2.15761000
-1.91248000 1.46043000 1.83014000
-1.91014000 1.45299000 1.69841000
2.71133000 -0.17847900 -3.63907000
2.89963000 1.63636000 0.40801200
-3.29615000 2.16959000 -3.02758000
5.30572000 1.44637000 1.08428000
-3.02181000 2.26346000 -3.10681000
1.37806000 3.85708000 -0.05386430
1.44511000 3.83798000 -0.04126350
1.41953000 3.83946000 -0.12531500
1.41114000 8.16358000 3.79263000
-3.00970000 5.35593000 -0.80377300
1.68900000 6.11915000 4.73021000
3.90761000 3.48356000 -3.19284000
3.09512000 -0.39455500 2.68606000
-4.01731000 -5.63631000 -2.84108000
2.61799000 0.95177800 -1.73891000
2.62894000 0.98287100 -1.75957000
-2.13207000 8.38412000 3.24808000
-1.70180000 6.37536000 -0.69767500
5.73495000 -1.19407000 -2.42219000
-4.63912000 0.11461900 -2.08134000
-1.81533000 1.43942000 0.48320400
-2.31663000 1.18296000 2.97394000
1.46123000 3.75831000 -0.43848000
-2.83048000 -2.37887000 -2.63612000
1.17341000 7.47002000 -0.81045700
1.20243000 7.39589000 -0.82671300
-3.33557000 3.04323000 -2.64070000
1.63459000 -2.68428000 0.71354300
2.16367000 -6.02149000 1.52760000
-2.57867000 6.18314000 0.36371200
-2.60142000 6.10654000 0.32693400
-1.97758000 2.38343000 -2.06222000
-1.94495000 4.54629000 4.00000000
1.71050000 -2.63968000 1.57756000
-4.60386000 1.54668000 -0.93185500
-2.58818000 1.70179000 3.41789000
-4.85125000 -2.29094000 2.20139000
-1.80900000 1.75304000 1.76045000
4.85702000 1.32503000 1.85076000
-1.13374000 8.22235000 -0.14338200
-5.63342000 -3.85695000 -1.72487000
6.39669000 -5.65600000 -1.14199000
-1.49942000 6.74784000 -0.55646700
-1.56234000 6.74575000 -0.52651700
-1.51256000 6.72061000 -0.57995700
-2.95303000 4.70054000 3.36493000
1.30941000 -6.05080000 0.87095000
5.18391000 -5.19736000 2.29932000
-1.83419000 2.49839000 2.99911000
5.17325000 -5.17706000 2.29008000
-3.36945000 5.03679000 2.12836000
2.67728000 -4.98627000 -5.70563000
-4.51896000 2.25519000 0.48389800
-0.68291200 -4.14997000 3.91684000
2.60917000 1.71637000 -0.64913300
6.33546000 -5.85422000 -1.27202000
1.55645000 3.75821000 -0.58537300
1.34548000 9.37949000 1.63180000
-0.72252000 -4.05748000 3.89874000
-2.45162000 0.10822800 -0.95399500
-3.40380000 5.01562000 2.17760000
-0.67258500 3.36326000 2.47700000
-0.65458700 3.37547000 2.51908000
0.01397520 -2.99075000 -0.66570700
-3.10333000 0.14413800 -3.24074000
-1.78157000 1.63150000 0.21638800
-3.51198000 2.72423000 2.87068000
-3.47691000 2.68479000 2.89911000
3.06760000 5.45284000 2.75193000
-2.20298000 -5.81347000 1.83412000
-2.44402000 -1.30789000 -0.57673300
-3.95007000 -5.86476000 2.69742000
1.64082000 3.57768000 2.71397000
5.55057000 -1.12653000 -2.73710000
5.58654000 -1.09389000 -2.71766000
1.22894000 -2.93915000 -4.72528000
1.26917000 -2.91105000 -4.72858000
-3.00039000 4.04131000 3.49821000
5.55503000 -1.08906000 -2.69735000
4.62610000 5.56744000 0.67224800
-4.51188000 1.77462000 1.82797000
-5.12173000 -3.38241000 1.90669000
4.49741000 -0.26508600 -4.40026000
2.92470000 0.95211500 -3.95868000
-0.20166300 -3.36378000 -4.57342000
-4.65577000 -1.25498000 -2.99136000
1.47248000 3.83834000 0.52968400
4.96618000 3.77377000 0.12180400
-3.37803000 5.13234000 0.49789800
0.82249600 7.06819000 -1.01274000
-2.85485000 7.76351000 1.45786000
0.92746300 7.05528000 -1.01576000
-3.97062000 2.83171000 2.05636000
0.49722300 6.05536000 5.84701000
-1.65676000 -5.91864000 -3.05452000
1.21408000 -6.06252000 3.58423000
-3.71282000 -4.12627000 3.41747000
-3.11911000 5.35094000 0.00151185
-1.98190000 1.02985000 2.13349000
-1.96900000 0.99769500 2.10177000
0.55401100 8.79842000 2.92746000
2.16982000 3.93171000 -3.20978000
0.48474800 8.77712000 2.94941000
2.03281000 -6.02501000 0.46297600
2.12011000 -6.03353000 0.49674200
-3.22356000 1.02275000 -3.18334000
-2.63194000 -5.97898000 3.63550000
-2.61860000 -5.95032000 3.55413000
2.88025000 -1.71088000 2.70507000
2.90698000 -1.69448000 2.70577000
-2.20046000 -5.67689000 -0.12340900
-1.40483000 5.70538000 -1.98688000
1.28476000 7.09867000 -0.92164100
-3.48076000 2.36874000 2.93604000
-0.70911300 5.02210000 -3.37061000
-4.20954000 4.53201000 -0.45858400
0.36929700 -5.98587000 0.69199000
2.81908000 9.49700000 0.70622700
2.76831000 9.53047000 0.70883200
6.14413000 -5.83836000 -2.98212000
2.73231000 9.52953000 0.77328000
2.73231000 9.52953000 0.77328000
3.02188000 -0.96559700 2.55552000
2.83597000 1.73504000 2.70053000
-0.07817260 7.22870000 5.46738000
0.02165320 7.20953000 5.52217000
-1.98726000 -2.62204000 -1.05134000
-0.44848800 -3.07910000 -0.29581000
1.78698000 3.89312000 -1.22835000
-5.68527000 -5.46716000 -0.13127500
4.01616000 2.49959000 2.45422000
5.20736000 -4.66204000 2.26021000
-2.17735000 0.65621700 2.58817000
-3.54028000 -5.87240000 2.76923000
-0.65880400 8.37843000 -0.42652900
3.47185000 2.82297000 2.70074000
3.44979000 2.77432000 2.70339000
-0.57488400 -5.22281000 4.01477000
5.01259000 0.38186100 1.86931000
4.98377000 0.38209200 1.90231000
-1.23638000 -2.66784000 1.77562000
-1.10408000 -2.72692000 1.73705000
4.54225000 3.90531000 1.88215000
-4.01961000 4.51435000 2.24961000
-5.66437000 -5.56091000 -0.26618500
0.89289700 -6.00947000 -3.46150000
0.82453900 -6.00748000 -3.54982000
-3.87939000 5.21675000 0.22144800
-3.29628000 -5.79125000 0.43495000
1.36596000 -2.67499000 -1.19398000
1.23478000 -2.68905000 -1.34960000
-4.30753000 1.49717000 1.86941000
-4.24086000 1.45044000 1.87594000
5.87336000 -1.00086000 -3.76140000
-0.85326400 9.46879000 -0.57176000
2.87709000 7.38415000 0.80320400
-0.19937700 3.53210000 2.46041000
2.49081000 9.64717000 0.56319500
-0.84108800 -5.79313000 -0.15355900
-3.13956000 8.82305000 1.86197000
4.52858000 4.99917000 2.37786000
-0.45076800 3.44927000 2.39160000
0.46749900 7.36069000 -0.93004300
2.69445000 5.40967000 3.13846000
-4.14876000 -5.50376000 -4.12480000
-4.21479000 -5.50833000 -4.09712000
1.36819000 3.92850000 3.52734000
5.70646000 -0.14292000 -1.76713000
0.55591700 7.29252000 -0.94945400
1.59321000 5.98019000 -2.53507000
0.08181480 9.46338000 1.42557000
2.92090000 -1.06207000 -5.02866000
2.88441000 -1.02300000 -4.99837000
-4.43355000 4.17595000 1.63791000
3.39179000 4.23600000 3.21044000
3.47503000 4.26870000 3.17596000
0.80657800 -3.77599000 3.60074000
-1.36819000 -4.01434000 -5.34286000
3.72511000 0.27097700 -4.48771000
3.75702000 0.42928400 -4.41049000
-3.25782000 2.74636000 -2.77226000
-3.24331000 2.79207000 -2.74431000
5.82712000 -5.31281000 1.73221000
5.99578000 -5.93137000 -0.70863200
2.81010000 1.01975000 -3.14227000
2.92516000 0.21043400 -4.49451000
-2.90934000 5.91076000 1.02900000
-2.93441000 5.92544000 1.05196000
-2.64792000 9.25735000 0.65346200
-1.81227000 1.43542000 0.56802400
-2.30531000 -2.01950000 2.99968000
-2.51959000 6.21344000 4.75552000
-2.61865000 6.25413000 4.73209000
1.19137000 -2.68848000 -1.37141000
4.41081000 5.57487000 -0.76826300
5.51696000 0.01284450 1.24349000
-4.46586000 1.34282000 1.41568000
-4.47722000 1.34126000 1.35106000
-4.25251000 1.43349000 1.86084000
-2.17587000 1.99476000 -2.19251000
-1.62054000 -2.60325000 3.18988000
5.02661000 -0.67327300 1.87417000
-5.52355000 -2.51347000 -1.16649000
-2.75381000 7.65990000 4.21708000
-4.12786000 3.50583000 2.12003000
4.52539000 -6.04407000 0.10235600
1.97862000 -2.27442000 -1.87804000
4.33094000 -0.90203000 -4.86378000
-0.16806500 3.66748000 0.83282300
-4.83604000 -0.19851500 0.33461200
-2.58794000 8.45530000 2.86662000
-2.56156000 8.43844000 2.92685000
5.21918000 -5.86509000 -4.45683000
-1.94573000 1.20684000 1.80939000
5.13890000 -5.87852000 -4.46923000
-1.59211000 8.38364000 0.03114280
-2.98277000 8.93195000 1.74083000
-0.30408800 9.32862000 1.86403000
-0.29802800 9.30883000 1.89386000
-4.52938000 -5.80160000 3.06757000
-1.39444000 9.66357000 0.10743500
-1.32131000 -2.90660000 -0.29120000
3.00080000 0.41209800 -4.42191000
-0.19053000 9.08429000 2.28798000
-5.79459000 -4.16458000 -0.37629400
0.39340600 3.89695000 3.74809000
5.94479000 -2.56084000 -2.52688000
6.35328000 -5.24928000 -2.34069000
-4.79945000 -2.28265000 2.27879000
2.92781000 6.02462000 -2.47812000
-0.42434900 -2.96668000 2.80658000
-3.14263000 2.71380000 3.24475000
5.43889000 1.27868000 -1.06607000
5.41470000 1.32374000 -1.07589000
6.30376000 -4.28248000 -0.89600800
6.00202000 -3.24181000 0.02262150
5.98487000 -3.20383000 0.00873374
-4.42220000 -5.94237000 2.61216000
-0.00471672 -5.87277000 -5.19494000
-4.09102000 -2.28352000 -3.76938000
-4.93028000 -2.55138000 -3.25357000
-4.92685000 -2.51107000 -3.20955000
-2.61456000 3.34797000 3.53395000
1.11843000 3.78000000 1.94544000
4.37647000 -2.58792000 2.87026000
-1.69648000 7.02930000 -0.23671700
-1.65639000 7.06767000 -0.25265400
0.72883600 4.15003000 -0.98367600
0.36717300 -6.01289000 1.68313000
-1.80703000 -4.31847000 3.92996000
2.85986000 0.70621500 -3.56883000
2.85658000 0.65844800 -3.65075000
2.83599000 0.62538700 -3.70642000
4.83588000 -4.88381000 2.51800000
5.41228000 1.22658000 0.80787700
5.37195000 1.19192000 0.80632200
0.22145500 7.34433000 -0.93517200
1.68507000 4.71937000 -3.35722000
2.84187000 -0.52624800 -4.55003000
2.84811000 -0.47903700 -4.54707000
-4.18858000 -5.50535000 -3.98776000
-2.80619000 -5.83774000 2.31647000
-5.20883000 -5.74957000 0.38101700
-0.02185930 8.12897000 3.90141000
-2.81173000 6.93185000 5.12018000
3.05232000 6.90864000 4.68609000
-2.56223000 1.78424000 3.42124000
-1.01090000 6.53052000 -1.02362000
-0.16482900 -3.07708000 -2.63102000
2.06296000 -2.26675000 -1.30717000
-1.87273000 -2.41618000 0.02217170
2.14000000 -2.24019000 -1.04453000
0.78175700 -5.73654000 -5.72304000
-0.96656500 -5.26777000 -5.67753000
1.50987000 3.78587000 1.06437000
-2.17260000 0.55118100 2.07284000
-4.49080000 2.36354000 -0.59738000
-1.97745000 1.71441000 2.54905000
-4.75383000 0.69180800 0.43617500
-3.34190000 1.42782000 3.09617000
-4.28279000 4.21568000 0.06579040
-2.15580000 6.65470000 0.06782700
-1.62190000 5.83185000 -1.15652000
-1.58692000 5.82438000 -1.21353000
-2.73629000 -1.57826000 3.28404000
4.34784000 -1.79868000 2.74910000
-2.40852000 9.16270000 0.26604800
1.11942000 5.16094000 -3.42225000
-0.75242600 -3.64401000 -5.16197000
-2.33700000 -1.69241000 -0.34583900
-2.34761000 -1.69212000 -0.40166500
2.59055000 -4.76425000 3.57333000
5.86155000 -0.66258300 -3.62575000
-1.41859000 9.50826000 0.62664300
-3.56511000 2.53988000 2.82510000
-1.40876000 4.55498000 -3.18260000
-1.38813000 4.53662000 -3.16690000
-5.04799000 -1.15348000 -1.47796000
3.44635000 8.36731000 1.53386000
-2.40583000 7.75083000 0.87634800
-2.37525000 -2.97720000 3.54389000
2.91845000 1.40005000 2.71244000
3.58746000 7.48072000 3.88533000
-3.02444000 3.09425000 3.34628000
-2.95072000 3.02733000 3.39300000
-1.70561000 5.52384000 -3.14091000
-2.96109000 3.11759000 3.37742000
-3.78863000 5.29237000 -0.13443600
-3.81544000 5.26643000 0.08385140
-3.77570000 5.26947000 0.04236930
-0.85108400 -5.97872000 -2.79267000
-0.92057900 -5.95229000 -2.38919000
-1.79414000 8.12608000 3.74065000
-5.23866000 -2.42809000 -2.54202000
0.40322600 5.84023000 -1.92969000
-1.39213000 8.60109000 2.94817000
-2.89268000 2.63109000 3.39538000
-0.48639100 -3.13384000 -2.66557000
5.92771000 -5.91770000 -0.99248500
2.25203000 7.54320000 -0.18410800
-2.45533000 -2.73773000 -2.49806000
-2.65343000 5.51431000 -1.35738000
-2.02719000 3.87444000 3.83697000
-4.69398000 -2.84200000 -3.44614000
4.28650000 2.09281000 2.34441000
5.48359000 1.10716000 -1.13341000
2.80240000 -4.99690000 3.56944000
-3.14289000 5.60608000 1.89788000
6.13432000 -2.55633000 -1.80653000
-4.18339000 -0.66833700 -3.14806000
-0.09462180 -5.98816000 -0.34620700
5.76155000 -3.92415000 -4.32105000
5.83731000 -3.91192000 -4.19374000
5.62963000 0.41928800 -1.21894000
2.47149000 6.32394000 -0.59737400
-0.63719400 9.63108000 0.59526900
-3.91170000 5.10227000 0.63244000
4.39629000 5.31243000 1.84830000
-4.49744000 3.98676000 1.86796000
-0.32449800 -4.76028000 3.96594000
-0.38258500 -4.82974000 3.99594000
-0.20206900 -3.14382000 3.13336000
-5.05667000 -2.18016000 -2.77121000
4.46298000 -1.75812000 -4.97330000
-1.65549000 9.20148000 1.82163000
-5.15788000 -3.03925000 -2.90605000
-5.48806000 -5.49420000 -2.27550000
4.31732000 0.38144800 2.40758000
-3.28059000 -0.51676500 -3.52928000
-3.30109000 -0.59205800 -3.52237000
3.41490000 4.23328000 -3.25362000
3.35597000 4.04000000 -3.38149000
2.64303000 2.62730000 -3.59453000
-1.09908000 3.03614000 0.50172800
-1.08215000 3.06337000 0.55296200
1.61587000 9.72011000 0.68361200
5.88080000 -3.33072000 -3.93188000
2.75662000 2.93181000 2.74844000
2.02338000 3.36556000 2.38400000
2.00879000 3.37057000 2.43587000
4.52793000 -2.09026000 2.69785000
-3.57818000 3.46164000 2.71456000
-2.56846000 -5.85096000 4.03633000
-4.74967000 0.94200700 -0.40495700
6.25599000 -2.88681000 -1.38562000
6.23378000 -2.80733000 -1.35730000
-2.89746000 7.09890000 4.97072000
-3.21315000 -4.04936000 3.64123000
-0.73759500 5.88265000 -2.62029000
-0.79890000 5.87307000 -2.63299000
-0.85769900 5.86276000 -2.59003000
-5.04002000 -0.77736500 0.35800200
-3.93672000 1.78084000 2.38154000
0.42936500 -6.00182000 -3.27130000
0.65731700 -6.01503000 -2.52380000
5.51854000 -4.88450000 -4.68891000
5.58975000 -1.30488000 -2.90774000
-0.88565600 5.89655000 -1.50035000
4.26931000 4.21512000 2.42013000
-2.77979000 0.54737700 3.15230000
-2.34076000 5.95563000 4.07681000
-4.94553000 -0.28891300 0.34484500
-4.93016000 -0.27109000 0.34972400
5.18645000 -0.53235800 1.63050000
2.79759000 1.78746000 2.16514000
-4.05049000 5.09535000 -0.39781000
-1.47822000 3.06575000 3.22814000
1.86877000 -6.01505000 3.56167000
-5.01340000 -5.54008000 -2.83697000
-1.65927000 -3.97554000 -5.26074000
-1.57149000 -3.99970000 -5.27648000
-3.85571000 4.21588000 2.43460000
-3.86102000 4.14270000 2.44945000
-1.37097000 -3.79399000 3.86441000
3.47652000 3.51702000 -3.51790000
-1.85425000 8.68446000 0.04459950
5.98375000 -1.63619000 -1.22503000
-4.39280000 0.97974700 1.73769000
-1.31793000 9.40797000 1.30068000
-1.21180000 5.72021000 -1.96339000
-1.12508000 5.72580000 -2.00645000
-0.89845700 5.76092000 -2.19955000
-0.85460100 5.76133000 -2.15319000
1.55900000 -4.17299000 3.53761000
-3.74241000 5.30925000 -0.16056800
-1.10962000 5.72945000 -1.94751000
-5.22817000 -2.99526000 1.58444000
3.24235000 -4.35405000 -5.59340000
-3.52322000 -5.83969000 3.63157000
-3.48564000 -5.83093000 3.66663000
-1.76367000 -3.94913000 3.85145000
-5.69828000 -5.51404000 -1.04481000
5.56212000 -0.85669400 0.80437200
-2.24136000 -0.09282880 1.11708000
-4.51480000 2.04991000 0.83950700
-3.59277000 0.85370700 2.88619000
-4.43224000 -2.52719000 -3.73277000
-4.41058000 -2.52191000 -3.74910000
2.61292000 0.88164500 -1.98380000
3.06883000 6.36410000 0.46619900
1.72165000 -5.30303000 3.69450000
2.46936000 8.02879000 3.88449000
1.08062000 -5.99175000 3.69596000
1.10720000 -6.02768000 3.62087000
1.08917000 -6.05089000 3.61902000
1.13760000 -6.05325000 3.60357000
-2.09753000 -2.96011000 -2.66791000
-1.41131000 -4.92294000 -5.56838000
1.11764000 -6.01513000 3.68046000
2.89854000 -6.04905000 -0.27646800
-4.47978000 0.11121500 2.08321000
-0.28021700 -3.20511000 3.23440000
-2.77441000 -1.41563000 -1.70500000
6.31892000 -4.52471000 -2.00599000
-3.07090000 -5.80034000 -2.61248000
3.70704000 -5.74168000 3.29135000
3.55367000 -5.72893000 3.34208000
3.20917000 7.26816000 1.52038000
2.80271000 -0.02387100 -4.02009000
-2.29082000 -5.87830000 -0.94934100
5.70184000 0.06522820 -1.07526000
-3.40009000 6.21114000 1.65813000
-3.13030000 4.65152000 3.35271000
3.66840000 -6.01435000 0.24427000
-4.44594000 2.72561000 -0.57820700
3.84915000 4.54522000 -2.62795000
-4.69762000 -5.80035000 0.81963500
2.21149000 -6.01334000 -0.46796100
-1.93134000 -3.31142000 -4.01858000
-1.77639000 5.69908000 -2.20657000
-2.36696000 -0.00085588 2.91646000
-1.84947000 5.67612000 -2.05863000
-2.36696000 -0.00085588 2.91646000
0.46660500 5.96614000 -1.62414000
1.44974000 9.85348000 0.27823600
5.06384000 -0.75784200 1.83708000
5.09458000 -0.71380500 1.78631000
5.08605000 -0.62020800 1.79756000
-1.60955000 -3.40318000 -4.20454000
-3.08670000 5.32045000 0.50690000
6.14097000 -3.10045000 -0.16466000
6.14700000 -3.13864000 -0.23903500
2.92062000 -5.89672000 -5.41128000
6.20177000 -4.27531000 -2.76959000
2.95805000 1.27269000 -3.88559000
2.96609000 1.24467000 -3.87553000
-2.78608000 6.47365000 1.18203000
-2.78608000 6.47365000 1.18203000
-2.63014000 6.87176000 1.19367000
5.59915000 -1.94020000 -3.72529000
-3.37635000 2.16552000 -2.98631000
4.11577000 -3.19193000 2.97646000
-5.54024000 -2.78600000 -1.51750000
-1.97853000 6.21131000 5.38590000
-1.45112000 -5.83554000 -3.84185000
6.24144000 -3.08015000 -0.68902200
2.81838000 -1.92943000 3.22918000
2.85305000 -1.90475000 3.22388000
4.49137000 5.61363000 0.40520700
-2.78917000 0.47740100 -2.24212000
-4.87602000 -0.54617700 0.85794300
-5.62638000 -2.94106000 -0.51255400
-1.05127000 6.73854000 -0.88057100
0.68142500 5.95678000 -2.65834000
-1.83906000 5.91415000 -0.94507400
3.68241000 3.23240000 -3.50736000
3.73407000 3.13293000 -3.52285000
2.88639000 1.03432000 1.61582000
-1.23744000 6.22080000 -1.08010000
-4.99690000 -1.07466000 1.05235000
5.79685000 -2.96725000 -3.75553000
5.78397000 -2.90755000 -3.73507000
2.83337000 1.47878000 -3.33205000
2.52660000 -5.96345000 -4.84693000
-0.30288200 -5.99321000 -2.65498000
-0.34323300 -5.97756000 -2.66481000
0.04209440 -5.89752000 1.78799000
-3.08954000 -2.51418000 3.35671000
-4.44031000 4.05441000 2.05443000
1.44458000 9.72421000 -0.40968600
-5.37787000 -3.04506000 1.11413000
4.62980000 -5.33840000 2.67455000
1.95636000 4.01433000 3.62720000
-3.15708000 -1.43816000 3.17222000
-0.31338400 3.55424000 0.97826600
-0.32500400 3.56843000 0.91173200
1.69265000 -2.68112000 0.51450300
0.05584470 -2.99209000 1.40766000
-1.38886000 -5.77062000 0.64551000
4.06754000 -3.69273000 -5.36631000
3.89678000 -3.73167000 -5.41569000
0.73114800 -2.83548000 0.49541800
-2.87983000 5.38359000 -0.70535900
-4.82955000 -0.21393300 -1.04268000
2.82808000 4.32281000 3.60632000
2.66467000 1.15362000 -2.78048000
2.72609000 2.06787000 2.47618000
3.41449000 3.04833000 -3.73623000
4.74360000 4.64271000 -0.59128300
4.76605000 4.65347000 -0.47217800
4.74610000 4.66848000 -0.51383500
-5.46959000 -2.38256000 -0.45995800
3.43432000 3.42984000 2.74045000
-0.28314100 -4.07257000 3.83028000
-4.90791000 -0.62793000 -1.17430000
-0.25530300 -3.94945000 3.78040000
-2.71618000 -5.78845000 -0.92668200
-2.74351000 -5.72187000 0.60809400
4.98646000 -1.24859000 1.95869000
-1.27078000 3.37922000 -0.78381900
-1.55394000 7.39393000 4.98557000
-1.55557000 7.37978000 5.04805000
-1.63566000 7.39574000 4.95928000
2.15881000 3.30726000 2.50125000
-0.86158500 -5.95817000 -1.46260000
1.86730000 -2.41683000 -3.37708000
2.38215000 2.88588000 -2.13857000
-2.37784000 6.90461000 0.57999400
-1.93034000 -2.32374000 0.07769150
-3.84378000 2.68204000 2.37956000
-4.68376000 0.06992610 -1.69683000
0.17842300 -5.04324000 3.88828000
4.47456000 3.79730000 1.99613000
-2.45559000 3.27913000 3.57645000
-1.81981000 -2.75145000 -0.94405000
-1.30459000 -5.86268000 1.20990000
0.28442800 5.82609000 -1.97717000
-3.80670000 -4.45244000 -4.53024000
0.32581600 -6.03351000 2.12587000
2.49423000 -6.00711000 -3.68182000
2.40617000 -6.00874000 -3.67974000
-4.61581000 1.80410000 -0.29521000
-4.63019000 1.73299000 -0.33748600
2.52371000 -6.00460000 -3.80672000
-4.42706000 0.13997100 2.16165000
0.48612200 5.31223000 4.08616000
2.48492000 6.38276000 3.85298000
0.53838700 5.25804000 4.06647000
1.71211000 -6.04231000 -1.92976000
-2.05362000 1.85489000 2.98819000
1.55091000 -6.04066000 -2.19853000
1.63157000 -6.03789000 -2.08390000
0.31064700 6.53411000 -1.34878000
1.75248000 -6.04667000 -1.85958000
-4.24530000 1.35873000 1.75396000
1.71977000 4.35030000 -2.58551000
-2.12051000 -4.71544000 -5.34432000
-2.12230000 -4.77924000 -5.35831000
-0.79360200 4.42757000 4.19724000
3.66688000 5.89173000 -1.69653000
-1.16098000 3.56150000 -0.47227800
2.69233000 -6.03032000 0.56837400
2.64869000 -6.03330000 0.61732800
2.69298000 -6.02063000 0.77937700
-2.67022000 4.67912000 -2.82951000
2.62941000 -6.02797000 0.68576700
-2.18204000 -3.20192000 -3.65258000
6.03292000 -4.50504000 -3.61521000
-4.72597000 0.15492100 -1.20010000
3.54168000 -4.96207000 3.35364000
-4.65989000 -2.42263000 -3.51494000
3.55654000 4.64491000 -2.92289000
-2.74404000 -4.49391000 3.85371000
-0.84902800 -3.96198000 -5.48241000
-2.07318000 1.60237000 2.96930000
3.05423000 1.00005000 -4.16471000
5.88863000 -1.14351000 -0.67922000
0.88568100 6.40270000 6.08655000
-2.58754000 -5.63016000 -0.80337300
4.70164000 4.59714000 1.91031000
0.86201600 -2.96864000 -4.23839000
-5.39151000 -2.11050000 -0.50863100
-5.35157000 -1.97844000 -0.53527600
-5.36904000 -2.05443000 -0.51886400
-5.36904000 -2.05443000 -0.51886400
2.81899000 2.04748000 2.69440000
1.88842000 6.16739000 4.58613000
-4.56712000 1.07309000 1.20446000
0.71830300 4.25811000 -1.33191000
-0.33105700 -5.99443000 -0.99633300
-4.35501000 -5.48997000 -4.01839000
4.32419000 4.62451000 2.48506000
2.57956000 1.98523000 -1.78114000
-0.01766110 5.85740000 -2.37619000
-0.98122800 7.88479000 4.18800000
-1.99020000 -5.87769000 -0.91348200
-1.97148000 -5.88642000 -0.98463900
-1.91211000 1.47282000 2.01363000
-1.89873000 1.47248000 2.06836000
4.06895000 -0.67393500 -4.73155000
-2.15618000 -4.22418000 3.81945000
-1.13682000 3.02342000 2.42441000
5.62921000 -2.90623000 -4.10421000
-4.19233000 0.70666400 -2.41685000
1.75741000 3.92064000 -1.31680000
3.54898000 6.22512000 2.50398000
0.01084530 -3.00729000 2.32219000
2.78787000 6.86456000 0.21094700
5.51001000 0.76736300 -1.53313000
-3.32217000 8.26194000 2.87869000
-3.32217000 8.26194000 2.87869000
5.66515000 -5.85660000 -3.71261000
4.67471000 -3.54763000 2.67458000
4.61845000 -3.51071000 2.71230000
4.64364000 -3.48465000 2.68681000
-2.33657000 -5.97042000 3.55937000
0.75225700 3.98434000 3.68564000
-1.86437000 1.42693000 1.03126000
-2.20895000 -1.41942000 1.32307000
-1.68834000 1.96644000 0.17070800
-3.15920000 -0.37474500 3.21147000
-1.65976000 6.38230000 -0.71691000
-2.77666000 4.48737000 3.76194000
2.15555000 -5.04492000 3.63073000
-3.36012000 6.04212000 1.43459000
-2.83592000 0.88879900 -2.99518000
0.54586500 -5.99786000 -3.78273000
-3.64457000 -5.92579000 3.49993000
-1.69582000 -3.36826000 -3.84461000
-3.64060000 7.46955000 3.14753000
3.04682000 -6.02147000 1.39566000
-2.35464000 -2.25956000 -1.24744000
4.27212000 0.70480900 -4.14492000
-5.66123000 -3.38837000 0.28848200
0.55670400 9.83860000 0.38459700
0.67947600 9.83059000 0.42409900
5.26493000 1.71714000 0.09217910
1.49589000 -4.78480000 3.68813000
-1.47155000 -5.86735000 2.27969000
2.88613000 1.00550000 -3.24973000
1.83796000 -5.54890000 3.67307000
-2.55775000 3.48544000 3.55822000
0.89736400 -6.05267000 3.65591000
-2.45718000 3.50133000 3.58495000
-2.48697000 3.45959000 3.56520000
0.13574200 -2.97802000 1.45952000
-0.87722200 6.13163000 5.89450000
0.08389510 -6.00558000 -1.91927000
-0.61458500 4.39445000 4.17578000
-4.20494000 -2.33126000 -3.77757000
-3.14998000 0.95776300 -3.05198000
1.79561000 8.19745000 3.71484000
4.93572000 4.06720000 1.02343000
5.35437000 1.18514000 0.08086520
5.34550000 1.10346000 0.36528600
0.63781900 8.46301000 3.45483000
-0.64364800 5.03716000 -3.38197000
-0.65689200 5.08572000 -3.38239000
0.03129280 -3.59530000 -5.41366000
1.69654000 8.40631000 3.34816000
-2.86077000 6.16803000 2.45354000
4.63889000 -2.33766000 -5.00279000
4.49858000 -2.35640000 -5.06530000
2.70673000 -0.48433500 -4.13454000
4.55418000 -2.38456000 -5.05160000
-2.28996000 6.21802000 -0.13798400
-0.60835100 7.74434000 4.48669000
-0.63017900 7.68880000 4.56958000
-1.48859000 8.59553000 -0.06743970
-4.41634000 1.59172000 1.65661000
-2.82575000 7.21290000 1.99139000
-0.58051900 7.69158000 4.58154000
-3.16329000 -5.76832000 3.87194000
6.20993000 -4.32017000 0.28542100
-0.60392700 7.71918000 4.54466000
5.17990000 1.58652000 -1.73529000
1.97929000 5.71184000 3.55235000
-4.85203000 -5.76163000 2.63305000
-4.78856000 -5.77492000 2.72843000
2.97487000 -4.04034000 3.31759000
-1.32186000 2.88255000 2.69395000
-2.73424000 -5.83278000 -1.60449000
-3.35574000 4.79395000 2.68952000
4.94594000 4.88154000 0.81075700
-0.23513600 6.17851000 -1.50704000
0.77258000 6.75302000 6.13635000
-1.85942000 3.22188000 -2.52684000
2.30366000 3.39944000 0.80724600
2.27307000 3.44563000 0.71465500
1.39362000 8.78219000 2.81226000
-0.27350100 9.66173000 0.59701200
-2.96065000 9.04863000 1.31136000
3.42415000 4.03169000 3.02989000
3.15829000 6.98542000 1.03177000
0.21248400 5.76667000 -3.42872000
4.17645000 -0.51634000 -4.57998000
4.26907000 -5.95278000 -4.16702000
-2.93242000 7.28679000 2.12165000
3.36826000 8.90458000 1.90569000
-4.57506000 0.01553710 1.92255000
-0.87675400 4.70818000 -3.11816000
2.98393000 -6.02797000 0.97877200
-1.80460000 9.42680000 0.97418700
2.75563000 5.24157000 3.17997000
-2.43182000 5.58545000 -1.84425000
5.76372000 -5.87300000 -3.40344000
3.96963000 4.79916000 -2.30095000
5.72617000 -5.86775000 -3.40693000
0.01535590 3.65300000 1.88414000
-3.09740000 -5.82612000 3.88343000
-2.99752000 -5.83273000 3.92313000
-1.82908000 1.80135000 -0.19428500
-4.39324000 4.37674000 1.74043000
-1.51185000 6.34545000 -0.85100900
-0.07809760 -2.99862000 -1.22263000
5.66111000 -5.91759000 -3.03060000
5.30552000 0.96560300 -1.95259000
-0.01390650 -5.93207000 1.33639000
-1.60546000 2.68845000 -0.94080700
-0.30863600 -2.98450000 2.66317000
-0.91844800 7.23061000 -0.69717500
3.35266000 6.24311000 2.57741000
-1.40130000 -2.75293000 3.23483000
0.12271000 4.77509000 -2.94683000
5.79923000 -2.94345000 -3.69715000
4.90734000 3.99285000 0.35725200
2.09005000 -3.62688000 -5.75773000
-1.51497000 -2.55701000 1.13858000
2.99927000 1.46260000 1.15713000
-3.95367000 0.84817200 -2.74912000
-3.97491000 0.83532200 -2.71528000
2.93064000 2.07316000 -3.90326000
-1.95242000 1.08310000 0.90974000
-1.93995000 1.13002000 0.88118300
1.88754000 4.34329000 3.86390000
-2.00805000 0.84334300 1.36747000
-2.00137000 0.85243900 1.39115000
-2.06442000 0.87843400 1.38263000
2.55313000 -2.06712000 3.10441000
2.77839000 2.19503000 -3.77508000
-2.82258000 7.26172000 1.96262000
2.77839000 2.19503000 -3.77508000
-4.40946000 1.54828000 1.59795000
-2.13129000 2.06674000 3.17588000
-4.79687000 0.20235000 1.41886000
-4.50943000 2.32798000 0.40326400
-3.34275000 -5.81261000 1.92293000
-2.65911000 -2.69571000 -2.81746000
-1.62364000 -3.34125000 -3.97716000
1.15357000 -6.03356000 3.65320000
-0.70609600 5.75893000 -1.99795000
-0.79749400 5.76153000 -2.08592000
1.55805000 -3.00254000 3.13772000
3.00301000 2.55189000 2.74624000
-3.34197000 -5.66012000 -4.22066000
-4.12179000 1.71686000 2.10923000
-3.02222000 2.23346000 3.31768000
0.51113600 5.87423000 -2.26862000
0.36923500 5.86539000 -2.24973000
0.22479700 5.70769000 -3.44015000
0.30403800 5.74917000 -3.42163000
2.92958000 -1.02634000 1.35293000
5.77126000 -0.78043900 -3.05618000
-1.42717000 5.75114000 -2.37421000
-1.46960000 5.73918000 -2.34647000
-1.40406000 5.74164000 -2.30298000
-1.56236000 5.73566000 -2.34640000
3.54567000 -5.95870000 3.19821000
-1.63051000 2.19018000 1.70968000
-1.93718000 1.83477000 2.66858000
-2.18317000 0.60130400 2.09358000
1.80134000 -2.55333000 -1.07504000
6.29506000 -5.51223000 0.47574500
-3.01558000 7.85068000 1.47496000
-2.98784000 7.83905000 1.44195000
2.30406000 -4.77708000 3.60042000
-3.72069000 2.69428000 2.58653000
1.71893000 -6.07122000 2.22190000
4.29584000 -6.00141000 -3.07628000
3.18913000 6.91556000 1.92368000
3.55130000 3.37154000 -3.54369000
2.96044000 0.53611300 2.52309000
-2.66734000 -2.73965000 3.41391000
-4.49355000 -3.87759000 3.04145000
-1.30930000 5.74721000 -1.51386000
5.59519000 1.69991000 1.04487000
-2.31763000 9.23439000 1.39642000
-3.58511000 8.00007000 3.01885000
0.00366717 -3.11393000 2.97479000
0.03284210 -3.16490000 3.00284000
3.55359000 2.29640000 -3.92859000
-2.80671000 6.71670000 1.66252000
0.62257600 -5.31545000 3.81991000
-2.45989000 3.33598000 3.56785000
0.00860879 9.20669000 2.05883000
-2.09849000 5.64703000 -2.06420000
-2.10171000 5.66271000 -2.12450000
-4.58068000 1.85301000 -0.66495100
2.68365000 1.05364000 -2.95612000
-3.24077000 -5.89288000 2.87588000
-1.56261000 2.41340000 -0.11487600
-1.29869000 -5.81056000 -0.54283500
-3.43856000 5.05250000 0.58828400
-2.86168000 6.31889000 2.39892000
-0.10274300 6.14305000 -1.53330000
-0.04456830 6.14113000 -1.55275000
6.40546000 -5.19148000 -1.37148000
4.78519000 -0.12531500 -4.13792000
-2.75998000 4.84165000 3.16087000
-1.15128000 2.97897000 0.76530800
0.45495400 6.97947000 -1.08736000
-4.37943000 -5.71057000 -1.00580000
-0.89270300 7.19313000 -0.72992300
0.80330400 8.44143000 -0.42502300
2.97678000 0.64899600 2.64336000
2.98077000 0.61793400 2.64169000
3.76636000 2.40423000 2.56148000
-2.59658000 7.03785000 1.22119000
-2.60642000 7.00343000 1.21188000
-4.64543000 -1.44541000 -3.09855000
6.38840000 -5.66094000 -0.69563800
5.90521000 -1.03257000 -3.72118000
5.84941000 -1.36919000 -3.23414000
-0.06396000 7.55481000 -0.85471900
5.89526000 -1.43090000 -1.79971000
3.51348000 -5.56368000 3.38274000
-2.90553000 5.53855000 0.12178500
6.32140000 -5.25893000 0.20110700
1.85609000 4.83238000 -3.42390000
2.96569000 0.37580100 -4.42964000
2.97497000 0.41084800 -4.40886000
-1.18086000 9.74614000 -0.02292140
-1.08803000 9.76729000 -0.01868570
5.95736000 -5.62833000 -3.75081000
5.95736000 -5.62833000 -3.75081000
-2.02923000 1.29489000 2.61710000
1.13750000 8.06697000 -0.59974800
-1.43891000 9.44801000 1.02952000
-0.05921830 3.66870000 3.59892000
3.57636000 8.51916000 1.69645000
0.65391800 3.75777000 3.48359000
-2.31991000 -2.27128000 -1.16386000
-3.91058000 0.93594100 -2.77364000
2.42266000 6.54604000 5.07901000
-3.12177000 5.31635000 0.11849900
1.96122000 9.80176000 0.27553100
-0.03601570 6.80822000 -1.18104000
0.09106080 6.81995000 -1.18230000
1.65864000 5.83160000 3.83631000
-5.11145000 -5.70499000 0.03793370
0.25051100 3.66580000 3.46858000
2.70885000 -6.03689000 1.80981000
-3.37357000 8.31966000 1.51470000
-3.56881000 4.63169000 3.05996000
-1.52408000 -3.14445000 -2.51641000
3.39671000 5.81586000 0.55140000
3.39671000 5.81586000 0.55140000
2.70047000 7.25563000 5.17047000
2.72307000 8.61065000 2.93390000
2.69990000 2.08206000 -3.52760000
-0.10612300 6.10660000 -1.56531000
-2.25693000 -1.68333000 0.04641750
-2.23842000 -1.68257000 0.12943800
-2.64630000 -5.88157000 4.00890000
2.71166000 -6.03793000 -1.57517000
2.77204000 -6.03546000 -1.62693000
-4.25630000 4.79792000 0.71158700
2.74537000 -6.02459000 -1.61151000
-2.16698000 -1.65858000 2.04265000
-1.79102000 2.73160000 3.13096000
-1.82425000 2.69120000 3.11551000
-1.77432000 2.76835000 3.13586000
-4.04247000 3.42260000 2.16738000
-0.26593600 -4.72834000 3.95232000
-4.47419000 1.79499000 1.91125000
-2.92855000 1.27923000 -3.17255000
-2.95360000 5.50703000 0.13452300
-1.68982000 -2.50051000 0.53054700
-5.57088000 -5.58728000 -1.45398000
-5.59872000 -5.56025000 -1.45985000
-0.27608100 -5.99013000 -2.07422000
-0.29812200 -5.98364000 -2.13166000
5.66985000 0.09716440 -1.58048000
2.89037000 1.56705000 -3.80612000
5.99429000 -1.78902000 -0.73722000
-1.34520000 -5.71169000 4.01837000
-0.01458120 -3.73610000 3.67601000
-4.42269000 1.96584000 -1.37014000
0.80675300 -2.80404000 -0.94668600
-0.32284200 -3.03984000 -1.35884000
-1.69881000 -5.81725000 3.98683000
-5.42997000 -5.65636000 -0.69383900
-2.10199000 -1.77870000 1.92014000
-1.27691000 2.91238000 2.68958000
0.22095500 6.71475000 -1.25568000
1.86450000 9.81625000 0.27268900
4.27019000 5.63963000 0.14371900
-3.49332000 5.30538000 -0.12080400
5.56918000 -2.94919000 -4.21965000
5.78355000 -3.11690000 -3.99648000
-4.33796000 -5.72154000 -1.31651000
-4.61160000 -4.36696000 -3.94034000
-1.07256000 -5.96776000 -3.23825000
2.27770000 4.87708000 -3.40294000
-4.38640000 2.23379000 1.64750000
-4.35923000 2.26398000 1.71187000
1.19380000 3.93393000 0.24566300
-2.78704000 6.13292000 2.72721000
-4.34066000 2.25893000 1.74805000
2.16635000 -4.13651000 -5.78278000
4.47052000 -0.05027840 -4.29889000
-1.38636000 -2.98212000 -1.20711000
-5.25996000 -1.65371000 0.55035700
2.65882000 0.68589200 -1.45931000
0.14819900 3.92149000 0.04389360
2.38840000 6.06414000 -2.67860000
2.48160000 6.06853000 -2.64881000
2.44518000 7.17558000 5.38668000
2.43724000 7.12693000 5.40961000
-5.20682000 -3.94638000 -3.11028000
-5.17191000 -3.83093000 -3.13525000
-5.80981000 -4.80469000 -0.51126100
4.92700000 -0.81529900 -4.40498000
-4.82483000 0.54892600 -0.12650800
-4.31614000 2.16198000 2.01021000
-0.48460400 5.93909000 -3.06282000
2.70010000 2.13620000 -3.51392000
-3.36418000 4.74574000 2.92627000
3.76621000 -5.74314000 3.27382000
3.76621000 -5.74314000 3.27382000
2.32381000 -2.12497000 -0.83202300
0.06506570 5.58649000 4.43866000
2.36208000 -2.07817000 -0.74064400
5.33742000 1.02231000 0.69372600
1.72714000 -2.92606000 3.12872000
5.61085000 -1.00504000 0.70482100
-1.06054000 -2.73492000 1.39351000
2.34372000 -5.78467000 3.55169000
-2.29150000 4.31839000 3.98610000
3.39999000 6.39415000 2.44994000
-1.85418000 6.71306000 5.81121000
1.36509000 -6.07110000 0.23136900
-2.04455000 9.43880000 0.43047700
2.33710000 4.02403000 3.54168000
2.59481000 4.64530000 -3.42155000
0.51577200 5.85617000 -2.21920000
-2.37000000 5.17361000 -2.90670000
2.22840000 -2.34175000 -4.78175000
-0.46884200 8.64342000 -0.40908600
-0.24568800 3.53943000 2.11761000
-0.54165400 8.73133000 -0.43676800
3.50949000 8.44922000 1.56606000
-4.72337000 0.52240600 0.91511200
-0.28171600 -4.31381000 3.87493000
-0.74283600 6.34837000 -1.24430000
-3.34877000 6.15462000 1.85468000
-3.38747000 6.18822000 1.75006000
-1.00269000 6.48721000 6.12575000
2.75073000 8.04793000 3.83227000
-2.61244000 6.75146000 1.13707000
-2.61329000 6.77544000 1.16472000
6.01607000 -2.08981000 -0.53504500
3.27440000 -6.02302000 0.70707700
3.38637000 4.57837000 3.43925000
-2.09480000 9.44402000 0.45694100
-0.02702590 -3.71875000 3.65313000
-1.11333000 -3.49529000 -4.49884000
2.33351000 3.13882000 -0.39002000
-2.38562000 5.58973000 -1.82157000
0.94747900 -6.00748000 -3.11994000
0.92906200 -6.01314000 -3.16871000
-4.81369000 0.58929000 0.03641560
5.62640000 -2.14080000 1.36733000
2.44309000 9.65888000 0.53084600
2.44309000 9.65888000 0.53084600
3.40406000 -5.94605000 3.27032000
2.89482000 5.57204000 2.87208000
2.88278000 5.54254000 2.89739000
2.84151000 5.61515000 2.91239000
-4.16895000 3.31010000 1.73763000
-4.10486000 -5.51684000 -4.04269000
2.49653000 4.25591000 3.67998000
2.01471000 6.32566000 5.14541000
6.31884000 -5.66820000 0.19590300
-3.96269000 1.33586000 2.43873000
4.44012000 -3.32338000 2.80816000
4.47551000 -3.29582000 2.80058000
-4.32075000 1.07051000 1.87370000
-2.08549000 6.85568000 5.65660000
0.02532660 8.55519000 -0.54630200
-2.88891000 5.43493000 0.68213100
-0.80406600 -2.99818000 3.28311000
-2.72919000 6.32229000 3.46227000
3.26606000 1.31145000 2.82338000
-3.02137000 5.37074000 -0.03217990
-1.37072000 6.28954000 -0.93449800
-1.32943000 6.31757000 -0.91280100
-1.59214000 -2.96357000 -1.55592000
-4.50357000 -3.01560000 -3.92975000
-1.64216000 -5.81860000 0.97979100
-2.99641000 -5.78723000 -3.31027000
-0.63561400 9.37264000 1.73019000
-2.85285000 -5.80759000 -3.33119000
1.35742000 3.79820000 3.38505000
3.42547000 -1.53361000 2.98254000
-3.41847000 3.88325000 2.95337000
-3.28580000 5.81288000 1.73112000
-2.48351000 4.81253000 -2.92974000
1.64587000 3.58358000 2.08029000
-1.68356000 -2.58192000 3.16261000
-3.95383000 5.05965000 0.73121000
-2.19035000 -2.53955000 -1.29300000
-3.52321000 2.22263000 2.89573000
-0.66831200 5.76886000 -2.10780000
-0.64720900 5.76932000 -2.04607000
5.10198000 -4.85861000 2.33203000
5.09612000 -4.93711000 2.35164000
-0.49351900 -3.07180000 -1.46518000
2.09377000 5.96918000 -2.40671000
3.04927000 -5.69302000 -5.54594000
-4.36123000 1.50941000 1.86995000
-4.79691000 -0.47497700 1.05702000
-4.81186000 -0.17662400 -1.02440000
0.13233700 3.67281000 3.51430000
0.26895300 3.68682000 3.51159000
0.20732900 3.67426000 3.51992000
0.16434800 3.66946000 3.51907000
2.08284000 3.57393000 -1.14333000
2.04558000 3.62592000 -1.21929000
-0.13314900 -2.99916000 2.19318000
2.07180000 6.00451000 3.64984000
-1.51950000 4.67059000 4.02812000
4.81393000 4.51770000 -0.44820100
1.81537000 4.01095000 -1.62803000
-3.21203000 3.25191000 3.16053000
-3.23161000 3.26405000 3.12494000
-3.26617000 3.31140000 3.09912000
-5.72272000 -4.14852000 -1.62729000
-2.13408000 -1.76011000 0.61993900
-4.65545000 1.59628000 -0.35022400
-2.30388000 1.74351000 -2.28429000
-3.24636000 5.06626000 -2.27272000
-0.04631760 -6.01418000 3.33492000
-3.43141000 7.42927000 2.68867000
-3.38799000 7.40141000 2.67617000
-3.38783000 7.41098000 2.65791000
2.22809000 -5.80804000 3.57983000
-2.15988000 5.64065000 -1.96960000
3.40807000 5.75559000 0.54058000
-0.91039600 5.90795000 -2.98819000
-0.99033600 5.90130000 -3.00046000
-0.92447700 5.91260000 -3.02397000
-0.07940960 6.76165000 -1.19492000
2.25314000 3.21512000 -1.02207000
4.71878000 3.97519000 1.70720000
-0.27683700 -2.93953000 1.79038000
-3.97260000 0.92960600 -2.65689000
-4.47683000 2.09317000 -1.03312000
-4.46550000 2.10094000 -1.10217000
-1.42238000 -5.76459000 0.64672200
5.93726000 -2.54039000 0.69066500
0.53112800 9.84362000 0.32801500
-0.21388300 -4.28935000 -5.74674000
-1.18086000 9.74614000 -0.02292140
-0.30613700 -2.93874000 1.99437000
3.45767000 1.12257000 -4.17854000
2.94130000 4.79915000 -3.25609000
-2.63077000 6.80093000 1.18745000
-5.42902000 -5.66109000 -0.64678400
2.77096000 -0.73059200 -4.51086000
-4.46230000 1.02722000 1.53722000
0.10055700 9.38294000 1.70581000
-4.74072000 0.35348500 -0.86576500
-2.31198000 5.93175000 4.10901000
-4.20456000 4.85262000 0.54186000
2.40355000 -2.19112000 0.44251600
2.52034000 2.42930000 -2.51580000
2.61034000 1.28944000 -1.96092000
-2.99605000 7.37662000 4.52205000
-0.65631700 -5.93205000 1.30175000
-3.23395000 7.97165000 1.64742000
-3.26855000 7.95153000 1.70352000
-3.20558000 7.92484000 1.67048000
-1.80865000 4.35231000 -3.18690000
1.96958000 6.22116000 4.82083000
-3.75060000 -3.91014000 -4.39903000
-2.97280000 0.94757300 -3.08450000
-5.52556000 -5.00038000 1.56772000
-0.15122900 -3.15287000 3.22411000
-4.91492000 -3.22129000 -3.35642000
5.05365000 4.27996000 0.80625300
1.92907000 -2.53695000 -4.74608000
-2.33263000 4.86965000 -2.98899000
5.54687000 0.55786600 -0.48412900
-5.62234000 -3.32484000 -1.55926000
-0.66064000 8.50413000 3.11162000
5.49437000 0.26458600 -2.08933000
-5.22096000 -4.40332000 2.28610000
3.42459000 -5.70101000 -5.50535000
0.50050300 -2.85454000 -1.31887000
-0.26126300 4.83982000 4.14111000
-1.87352000 7.18904000 0.07474910
-1.92638000 7.18834000 0.06775830
-1.27843000 9.46353000 1.14862000
5.30787000 1.21505000 -1.91708000
-3.33556000 -3.99038000 -4.65650000
2.30406000 -2.30773000 0.71266200
3.00052000 1.79460000 -3.94462000
0.23541700 -3.88425000 3.67574000
-1.36059000 7.34922000 -0.22137300
3.55664000 3.58167000 -3.44131000
3.68540000 8.23301000 2.35532000
3.68671000 8.29728000 2.34876000
3.66683000 8.37501000 2.31854000
5.63095000 0.13987700 -1.75002000
-2.77905000 5.92669000 2.66225000
-2.79199000 5.98627000 2.63184000
1.63265000 7.20148000 -0.82235800
1.09636000 -6.03335000 -2.18505000
-3.84178000 3.13922000 2.29761000
-0.13613500 3.86222000 0.04973480
1.37608000 8.73859000 2.88484000
-0.07572990 3.86620000 0.04742330
-2.97880000 5.42088000 -0.98564400
0.43203300 5.97133000 -2.85630000
-4.24290000 1.43172000 1.76921000
-2.06733000 7.56312000 4.64404000
-2.05483000 7.55630000 4.69087000
2.56875000 1.96966000 -1.56828000
-2.07802000 1.50065000 2.95727000
3.99633000 5.34622000 1.53768000
-2.01370000 4.55778000 4.00767000
-2.17989000 4.56855000 3.97752000
2.69373000 -1.13582000 -4.73351000
-4.97236000 -0.96648400 -1.40964000
3.25692000 6.28613000 0.74217400
-3.11103000 -1.81686000 3.26307000
4.50731000 4.37467000 2.13166000
-2.06192000 0.80899500 2.13989000
5.93385000 -1.62049000 -0.60567000
-1.13982000 -5.09049000 -5.57614000
-2.16587000 -1.65652000 1.97019000
3.90927000 4.52427000 -2.58574000
-3.64060000 7.46955000 3.14753000
2.55495000 8.34729000 0.50807500
4.45573000 0.48069900 2.31728000
4.65986000 4.52177000 -1.00820000
4.84519000 4.07201000 -0.73495900
-5.19443000 -5.22309000 2.18286000
-2.82208000 7.67431000 4.16932000
2.94463000 1.81749000 1.33132000
-5.36381000 -3.96442000 -2.67179000
-2.07279000 0.91417500 -0.21937400
0.02994340 9.50546000 1.30728000
-4.52707000 -3.07923000 -3.91113000
1.75340000 3.56126000 1.50875000
-4.06159000 2.33276000 -2.03711000
-3.83547000 -5.80831000 0.23095100
-3.60822000 1.82378000 2.83350000
-5.65568000 -5.46447000 0.86760800
-5.63044000 -5.47034000 0.94610500
1.70925000 -6.02299000 3.61270000
3.43726000 7.64220000 4.16641000
-2.61210000 -5.93430000 3.38940000
-5.32980000 -3.66620000 1.68732000
-2.28565000 8.31712000 3.29970000
-2.26847000 8.30768000 3.33766000
-2.64574000 6.24686000 0.63830600
2.94764000 0.27094600 -4.46869000
-2.50826000 6.68539000 0.75145800
6.18253000 -5.38846000 0.98780000
4.25572000 -4.23228000 2.85011000
-2.31880000 -1.80539000 2.83251000
-2.33875000 -1.81740000 2.89587000
-2.96065000 5.96478000 1.08728000
-1.50038000 6.73914000 5.95371000
3.08530000 8.96495000 2.14804000
3.10642000 8.94366000 2.21038000
3.07133000 2.28264000 -3.94987000
