1.79585000 -6.93548000 0.51867400
-8.96060000 -3.02058000 0.42777300
-9.01660000 -3.04397000 0.37717600
-9.00916000 -2.88634000 0.42352300
-8.99898000 -2.74473000 0.48871400
4.95565000 7.93501000 -0.57427400
4.93089000 7.92919000 -0.67785700
4.97504000 7.98293000 -0.70201400
4.98441000 7.93755000 -0.38472200
4.98169000 7.90582000 -0.16069100
4.94993000 7.90064000 -0.43951200
-7.21234000 5.35849000 0.86588100
-7.14699000 5.26755000 0.87622600
-7.05422000 5.38464000 0.88785800
-7.32141000 5.16833000 0.85427800
-7.25096000 5.13576000 0.86694400
2.13603000 6.84388000 0.61163400
1.87130000 6.86938000 0.56241000
-3.92830000 -7.04786000 0.82185400
-4.10541000 -7.10463000 0.81794800
-3.84476000 -7.09576000 0.85060200
-3.71094000 -7.03624000 0.83165400
7.38168000 -7.27300000 0.99046000
7.18703000 -7.21239000 1.04768000
9.14071000 -0.56684100 0.79459200
9.10962000 -0.80788300 0.79697900
-9.80299000 -3.92329000 -0.21207000
-9.78430000 -3.86329000 -0.20890800
-9.71874000 -3.92446000 -0.32666500
-9.73782000 -3.99245000 -0.33304200
-5.42092000 -4.81909000 -0.47677700
-5.60579000 -4.62284000 -0.49294100
-5.59120000 -4.58589000 -0.43761300
-5.41137000 -4.78523000 -0.42760400
6.74528000 2.34442000 -0.50810800
6.97880000 1.55472000 -0.52389200
6.92080000 1.77388000 -0.51285600
6.48638000 -8.69750000 0.89994900
6.50458000 -8.75523000 0.86799600
6.57843000 -8.86395000 0.80114200
6.36404000 -8.87714000 0.78187200
-7.41625000 -7.99651000 0.81930100
-7.42518000 -7.85072000 0.81358400
-7.64021000 -7.70052000 0.81615400
-7.46534000 -7.68411000 0.81423500
-7.62564000 -7.61052000 0.82029200
-6.57105000 -7.04228000 0.00259302
-6.50443000 -7.04162000 -0.13164600
7.41942000 0.36254800 -0.83989100
7.37904000 0.34947900 -0.81490900
7.40760000 0.59968100 -0.84228300
7.36275000 0.67760100 -0.81770800
7.35226000 0.48830900 -0.80312800
2.77947000 7.39896000 -1.02986000
2.43826000 7.42932000 -1.01711000
1.98219000 7.52513000 -1.01773000
-6.62664000 -6.04013000 0.82617100
-6.88539000 -6.28697000 0.86436800
-7.05835000 -6.30664000 0.85554600
9.03827000 1.86019000 -0.78360400
8.99678000 1.55417000 -0.83533100
1.28626000 -9.03733000 -0.71192900
1.07407000 -9.11084000 -0.68128800
0.93933600 -9.07629000 -0.71796800
1.56548000 -9.01220000 -0.70400900
-5.95371000 8.76901000 0.86039400
-5.84981000 8.79120000 0.88573600
-5.95450000 8.94465000 0.81588200
-5.95719000 8.83611000 0.84184400
-5.90869000 8.88383000 0.85026000
8.97221000 6.61629000 -0.44339900
8.91443000 6.57548000 -0.51496200
8.92342000 6.68451000 -0.49915500
9.01216000 6.60171000 -0.39190600
8.96662000 6.72797000 -0.44712800
9.00428000 6.78387000 -0.39441800
5.02826000 5.60297000 -0.90540900
4.97366000 5.30699000 -0.70529300
6.39565000 8.52333000 0.88899500
6.39645000 8.61050000 0.86281000
6.29356000 8.53274000 0.88619300
1.69943000 -8.36826000 0.95445500
1.70726000 -8.29157000 0.97251900
1.49306000 -8.32351000 0.96948600
1.38520000 -8.32466000 0.97252500
1.68434000 -8.24921000 0.98153200
-8.18206000 -8.97600000 -0.21782500
-8.23729000 -8.94156000 -0.27823300
-8.13517000 -8.91389000 -0.38540300
-8.21522000 -8.89050000 -0.38695700
-5.23067000 -7.07208000 0.70754100
-5.12534000 -7.22556000 0.65517200
-5.11187000 -7.15796000 0.69674200
9.33722000 4.84324000 -0.57965500
9.25079000 4.96810000 -0.62064000
9.25442000 4.81516000 -0.64933800
-9.64152000 6.15546000 0.04904120
-9.65042000 6.01226000 -0.02187020
-5.42536000 -9.39347000 0.04187670
-5.63785000 -9.33004000 0.01620580
-5.22850000 -9.45353000 -0.01481690
-3.96214000 8.69603000 -0.96506100
-3.89423000 8.70630000 -0.96768000
-3.92520000 8.49818000 -0.99569900
-3.76372000 8.48292000 -1.01187000
-3.71648000 8.45312000 -1.01662000
-6.55387000 5.47079000 -1.02578000
-6.20394000 5.20325000 -0.99008000
-6.32970000 5.32874000 -1.01507000
-8.28608000 -4.19807000 0.81258800
-8.19001000 -4.22480000 0.82566300
-8.33195000 -4.05418000 0.81328100
-8.19513000 -4.55259000 0.80469100
-8.19966000 -4.45094000 0.81356300
-6.55432000 -8.99559000 -0.40869800
-6.35397000 -8.93965000 -0.51239700
-6.56433000 -8.87083000 -0.52377700
-6.61833000 -8.94345000 -0.45126500
7.91192000 8.87418000 -0.62351400
7.81731000 8.86314000 -0.66810600
7.83158000 8.90246000 -0.62964400
-9.40931000 -7.76130000 0.09998630
-9.36176000 -7.87597000 0.16173600
-9.40060000 -7.75480000 0.15854700
-9.44845000 -7.59317000 0.12447600
7.38398000 -5.52603000 -0.44773900
7.34805000 -5.61142000 -0.46341500
7.37013000 -5.53839000 -0.55856700
7.27477000 -5.83646000 -0.60422900
7.26180000 -5.92901000 -0.53942000
9.41120000 5.02976000 -0.45039000
9.43308000 4.96979000 -0.42698100
6.74668000 7.76363000 0.84599900
6.84051000 7.72832000 0.89091900
6.94718000 7.60038000 0.92402900
5.34280000 -5.58565000 0.88032900
5.40273000 -5.66237000 0.90372500
5.43156000 -5.44612000 0.87378600
5.50793000 -5.48893000 0.90016500
9.87658000 -4.85785000 0.48262500
9.81009000 -4.83678000 0.57476200
9.85262000 -4.79797000 0.53331100
5.56144000 -9.61087000 0.24941500
5.68607000 -9.53373000 0.26072400
7.09058000 1.13437000 0.55578400
7.13974000 0.85152800 0.57398200
7.06023000 1.11126000 0.47339500
-7.74330000 2.51935000 0.93925800
-7.79975000 2.23568000 0.93525000
-8.07886000 1.79315000 0.93385600
-7.97374000 1.79141000 0.93318700
-8.59634000 5.85779000 -0.84777600
-8.52933000 5.62160000 -0.82570000
6.59634000 -4.72454000 0.88872000
6.81690000 -4.70001000 0.90036700
6.22483000 -4.61881000 0.86195600
6.32941000 -4.68610000 0.87923600
6.33154000 -4.60198000 0.86225800
-6.67280000 -7.56605000 0.62829400
-6.53707000 -7.65087000 0.67227600
-6.46117000 -7.62961000 0.62798900
-6.65867000 -7.51063000 0.54522100
-6.67549000 -7.53219000 0.58809700
-6.42139000 -7.60414000 0.57632500
-7.15645000 -0.34532400 -0.23602900
-7.14691000 -0.49400000 -0.23649900
-7.13345000 -0.89155100 -0.34961100
-7.19444000 -0.56070400 -0.41191300
9.25086000 6.34107000 -0.12390400
0.67148400 7.12184000 0.63052400
0.90757700 7.09259000 0.62298300
1.12775000 7.21427000 0.76231400
-7.63357000 7.29083000 -0.95752000
-7.59141000 7.37378000 -0.97240300
-7.77671000 7.17882000 -0.93356100
-7.71565000 7.12991000 -0.91307200
-7.85043000 7.09772000 -0.91638200
-1.60962000 -9.11268000 0.64768400
-1.05835000 -9.15397000 0.67042100
-1.17463000 -9.18642000 0.63025100
8.98630000 3.39672000 -0.78101000
8.94682000 3.35883000 -0.77638900
8.91987000 3.39869000 -0.81224500
8.95854000 3.51580000 -0.82763500
7.98282000 4.11814000 -1.02037000
7.91746000 4.30464000 -1.01406000
8.07945000 4.12437000 -1.00776000
-8.72077000 -2.62643000 0.65581400
-4.40826000 -8.93438000 -0.81924800
-4.33909000 -8.97575000 -0.80444800
-4.43578000 -8.98904000 -0.79899500
-3.24029000 -6.38181000 -0.41060600
-3.34864000 -6.32514000 -0.40695700
-3.28988000 -6.32596000 -0.34289500
-3.60798000 -6.16447000 -0.35536800
7.31448000 0.32460100 0.75077200
7.32473000 0.51331500 0.77514000
7.28401000 0.65957300 0.74582700
7.27448000 0.27447600 0.69813200
7.25801000 0.56344000 0.70799400
0.24884200 -9.41229000 -0.38430500
0.47504900 -9.37533000 -0.43153300
0.64759400 -9.34559000 -0.46145800
1.98034000 -7.53833000 -0.99515400
0.88228500 -7.82653000 -0.99896200
1.11557000 -7.81500000 -0.99998900
-0.10229200 7.98849000 -0.99713900
0.27428200 8.07515000 -1.02146000
0.13024200 8.05006000 -1.01580000
0.47493900 8.19506000 -1.01736000
9.59057000 3.73995000 -0.18236900
9.59634000 3.81850000 -0.16557700
9.60698000 3.75867000 -0.11712400
7.74822000 -7.21138000 -0.99083300
7.81003000 -7.23430000 -1.02104000
7.58256000 -7.27292000 -0.97505900
7.59744000 -7.23397000 -0.94345100
5.57523000 8.18389000 -0.58879000
5.57044000 8.17041000 -0.49227100
5.43780000 8.16069000 -0.47644400
-2.28430000 9.07146000 -0.43973000
-2.52370000 9.02655000 -0.40058900
-2.54620000 9.07504000 -0.26825500
5.42212000 -7.08689000 1.02197000
5.22884000 -6.98195000 1.00489000
5.35687000 -7.08162000 1.02402000
-1.80241000 -6.93273000 -0.51711500
-1.81170000 -6.90486000 -0.46212700
-1.22194000 -7.08048000 -0.58216100
-1.46771000 -7.05858000 -0.61342700
-1.58444000 -7.01674000 -0.58301100
-6.08214000 -3.68299000 0.02036530
-5.98919000 -3.85232000 0.04590590
-6.00219000 -3.82865000 -0.02175180
-7.07864000 -8.98530000 0.43219600
-7.16412000 -8.97117000 0.44538300
-7.08048000 -8.94828000 0.47123300
-7.04563000 2.34497000 -0.60187400
-7.10646000 2.32936000 -0.64337400
-7.02592000 2.55068000 -0.63567800
-7.13816000 2.35500000 -0.66692700
-7.24618000 2.13335000 -0.69530600
-7.19246000 2.40749000 -0.70199300
-4.01602000 9.17854000 0.77107700
-3.96499000 9.29973000 0.67685400
5.77032000 -8.63942000 0.93696800
5.56756000 -8.56353000 0.98793400
5.39603000 -8.68201000 0.98991500
-7.90252000 -6.59106000 0.81548300
-8.12181000 -6.37584000 0.79916700
-8.19526000 -6.26960000 0.79201200
7.50014000 8.47237000 -0.90524500
7.57838000 8.45410000 -0.89338400
7.39042000 8.42624000 -0.92652100
7.25513000 8.38552000 -0.94306100
7.33929000 8.46664000 -0.92296800
8.45777000 3.19642000 -0.84488600
8.57950000 3.17542000 -0.80552500
8.44077000 3.14340000 -0.83601200
8.69806000 3.37520000 -0.87694100
8.60766000 3.32344000 -0.87108700
8.55473000 3.35759000 -0.90133600
7.45998000 -7.12631000 0.50820800
7.44980000 -7.12616000 0.39013300
7.47479000 -7.13369000 0.59846500
7.51835000 -7.13065000 0.59874600
7.50939000 -7.12332000 0.49904500
-3.38020000 -6.23091000 -0.18479600
-3.58150000 -8.19826000 -0.97698300
-3.39464000 -8.23330000 -0.97685900
-3.16737000 -8.00431000 -0.99330200
-3.18644000 -8.15173000 -0.98932700
-3.31773000 -8.10133000 -0.98663800
4.74613000 8.38855000 -0.99070700
4.41288000 8.49764000 -0.99567800
4.65320000 8.50958000 -0.98119600
4.26575000 8.73761000 -0.96392400
4.38233000 8.68639000 -0.96824600
8.32594000 -8.91119000 0.25182200
8.31130000 -8.94162000 0.15040300
8.35285000 -8.92514000 -0.04907440
8.35545000 -8.92050000 0.06383800
5.65677000 8.72495000 0.85297400
5.60899000 8.69180000 0.86876200
5.57484000 8.82113000 0.82136900
-7.57935000 4.59221000 -0.83926300
-7.41038000 4.83805000 -0.86612000
-7.55213000 4.51991000 -0.84802600
-7.81254000 4.52074000 -0.78507200
-7.72055000 4.55130000 -0.80493100
-4.53169000 9.15486000 0.84045600
-4.77834000 9.12450000 0.81586500
-4.97593000 9.30947000 0.66792600
-4.94735000 9.26545000 0.70644500
-8.83221000 0.35409300 0.72698400
-8.84503000 0.13128000 0.73396400
-8.60453000 -0.56946100 0.78265500
-8.53940000 -0.59123000 0.78997200
-5.38738000 4.94499000 0.50133000
-5.46120000 4.88994000 0.53060700
-5.38310000 5.05427000 0.62364300
4.28100000 6.02014000 -0.72548400
4.09004000 6.11227000 -0.72065700
4.05303000 6.23561000 -0.75742100
3.64403000 6.28869000 -0.67862600
3.67503000 6.35653000 -0.71843300
3.83028000 6.22224000 -0.70409500
3.83229000 9.70914000 0.02581890
8.85661000 6.31898000 0.67554500
8.82055000 6.26563000 0.71369300
8.89079000 6.23906000 0.70927800
8.82163000 6.35701000 0.67466200
-7.64353000 6.17476000 -0.20420000
-7.61459000 6.24703000 -0.37481200
-7.70964000 1.47554000 -0.88879300
-7.73625000 1.22607000 -0.88469500
-7.72814000 1.64582000 -0.90190400
-7.83505000 1.11297000 -0.90020600
-7.79198000 1.33807000 -0.90497100
-7.78324000 1.06149000 -0.88598100
-9.19925000 -6.95302000 0.53341600
-9.24510000 -7.00994000 0.50049500
-9.14774000 -6.99105000 0.56654300
-9.12735000 -6.65720000 0.56682800
-9.18223000 -6.65016000 0.53400100
5.49649000 9.39742000 -0.25106100
-7.15558000 -4.64045000 0.87851800
-7.07310000 -4.65862000 0.87818000
-7.23882000 -4.54247000 0.86276100
-7.31664000 -4.42636000 0.84839900
3.60780000 6.92844000 0.83799800
3.61455000 6.99030000 0.85524900
3.45533000 6.92059000 0.83009700
3.83757000 7.11746000 0.88875400
3.76877000 7.04712000 0.86980900
9.61891000 3.76189000 0.07106880
9.61887000 3.61961000 0.06574660
9.61078000 3.54097000 0.00188023
9.62068000 3.60442000 0.00350117
6.60289000 2.48332000 -0.26885200
6.57045000 2.51978000 -0.16976500
-3.83125000 9.61398000 0.03364770
-3.78719000 9.61352000 0.09799830
-3.78715000 9.61649000 0.02975930
-3.75604000 9.59733000 0.22968200
9.92697000 -3.86923000 0.30213900
9.95635000 -3.80867000 -0.02248110
9.93199000 -3.73651000 -0.02421810
9.94759000 -3.81671000 0.09023470
-9.59534000 5.64179000 -0.42180500
-9.57825000 5.77976000 -0.42364400
-9.53498000 5.77380000 -0.49293500
-9.68913000 5.46530000 -0.24153200
-9.65364000 5.65537000 -0.26908500
-9.65665000 5.53364000 -0.31667400
6.96454000 5.13477000 1.03703000
6.83716000 4.99894000 1.05200000
7.04070000 5.04743000 1.05052000
6.74904000 5.01510000 1.04227000
6.78917000 5.13397000 1.02185000
9.42553000 3.36555000 0.37018600
9.49924000 3.44511000 0.36073700
4.76263000 7.53554000 -0.76879700
4.80217000 7.56137000 -0.73444100
4.77882000 7.64186000 -0.75107300
4.75390000 7.60134000 -0.76899100
-2.31245000 -8.97245000 -0.66694800
-1.97920000 -9.07698000 -0.61943100
-2.31432000 -8.88178000 -0.74696200
-2.10537000 -8.92125000 -0.73251000
-2.07318000 -8.99799000 -0.67295800
8.13174000 8.88431000 0.48055900
8.20858000 8.87261000 0.41090200
-3.20671000 6.42072000 -0.43632900
-3.09072000 6.45619000 -0.41243600
-3.18770000 6.39411000 -0.34548000
-2.94222000 6.55441000 -0.49132100
-2.96547000 6.51698000 -0.43053000
-3.11187000 6.47335000 -0.47365600
7.60955000 -1.93705000 -0.99316800
7.70014000 -1.90299000 -1.02587000
-5.81429000 5.03506000 0.87934100
-5.86359000 5.08290000 0.91302200
6.86022000 4.56500000 1.04346000
6.80507000 4.38699000 0.97016100
6.69029000 4.39561000 0.94533500
-7.09598000 -6.39015000 -0.86750300
-6.85871000 -6.33194000 -0.87906600
7.56142000 -8.42065000 1.03226000
7.53238000 -8.32765000 1.05463000
7.28416000 -8.37263000 1.04697000
7.31621000 -8.24713000 1.07085000
9.55182000 4.23205000 -0.39294300
9.54894000 4.34269000 -0.39440200
9.58239000 4.34598000 -0.32892000
9.60714000 4.35679000 -0.26745200
9.59071000 4.45295000 -0.29887300
9.61297000 4.45457000 -0.23572900
-9.18821000 1.25075000 0.63547200
-9.13257000 1.12127000 0.65641400
-9.14445000 1.26387000 0.65745500
-9.02342000 1.19696000 0.72042300
-8.96620000 1.31394000 0.77304400
9.75223000 -5.60209000 0.01242400
9.76408000 -5.47444000 0.01870410
9.75736000 -5.44390000 0.14812800
9.35036000 5.17743000 0.59749300
9.38907000 5.13250000 0.52439700
9.49152000 5.25390000 0.47065400
9.42347000 5.16175000 0.48871500
9.46961000 5.17933000 0.40654000
8.15729000 -5.37616000 0.09974600
8.15792000 -5.31935000 0.49821800
-3.35884000 8.66446000 0.75935200
6.90203000 7.19036000 -0.95842200
7.02126000 7.24469000 -0.96657200
6.96186000 7.16244000 -0.97219800
6.93117000 7.35734000 -0.93195000
6.99238000 7.32612000 -0.95363800
6.89834000 7.28876000 -0.93227500
9.52554000 -6.64439000 0.38754000
9.55024000 -6.60282000 0.37085700
9.52373000 -6.60409000 0.41428500
9.51320000 -6.42588000 0.48940300
-5.72396000 -4.75166000 0.62760400
-5.90840000 -4.63126000 0.65614400
-5.76381000 -4.85880000 0.66642000
-5.82622000 -4.63815000 0.63250200
-9.67188000 -4.22767000 -0.44924100
-9.71087000 -4.26976000 -0.43156400
-9.71489000 -4.19103000 -0.41665000
-9.59926000 -4.02133000 -0.44906700
-9.65745000 -4.00406000 -0.40499300
-3.44424000 9.38909000 0.17369800
-3.46330000 9.44244000 0.10472400
-6.96948000 -2.54957000 0.65925400
-6.93076000 -2.77990000 0.67850500
-6.87743000 -2.75411000 0.64293700
-7.85705000 -5.96501000 -0.80764900
-7.76819000 -6.08618000 -0.80263700
-7.91278000 -6.08542000 -0.80070500
-7.61161000 -5.86375000 -0.82607500
-7.59044000 -5.95017000 -0.81602100
-7.66418000 -5.90486000 -0.81649100
8.85371000 -6.55810000 -0.97036200
8.84704000 -6.75380000 -0.97820500
8.83179000 -6.66829000 -0.98099300
8.89679000 -6.66591000 -0.96331100
7.24442000 2.02902000 0.85476500
7.41357000 2.11162000 0.92545200
7.51119000 1.95510000 0.94684700
7.37122000 2.32436000 0.92422500
-7.95110000 5.06153000 -0.24499500
-7.96690000 5.06559000 -0.21553000
-7.93506000 5.12473000 -0.18510800
-7.97249000 5.18801000 -0.02833380
-7.93991000 5.21470000 -0.02776660
-7.93654000 5.20503000 -0.06216380
-3.57753000 9.47270000 -0.44682900
-3.57040000 9.40526000 -0.55736400
-3.60043000 9.45455000 -0.51414600
-3.54015000 9.51974000 -0.18645100
5.10724000 8.15207000 -0.85347800
5.08893000 8.11327000 -0.81046500
5.01070000 8.06334000 -0.83015500
-5.54604000 -6.90577000 0.73061100
-5.52173000 -6.96711000 0.69781000
-5.43357000 -6.96862000 0.71454700
-5.67350000 -6.91390000 0.71459900
-5.60507000 -6.91305000 0.72042800
-5.63527000 -6.84719000 0.75682400
-6.00644000 -6.92002000 0.73095100
-6.21638000 -6.94650000 0.73504600
-6.25704000 -6.97232000 0.69545100
-6.10161000 -6.96467000 0.67994900
7.62150000 8.82862000 0.73155000
7.49797000 8.69082000 0.82674500
7.57093000 8.65895000 0.83430800
7.59449000 8.73516000 0.79454800
-6.16766000 8.99524000 -0.69527600
-6.19022000 9.06967000 -0.63733200
-6.26313000 9.07626000 -0.61682300
-6.06870000 9.16237000 0.64485100
-6.10570000 9.18332000 0.59491500
-6.17785000 9.20272000 0.51568200
-6.28892000 9.22301000 0.41063800
8.96964000 -8.41683000 0.35872500
8.98329000 -8.42534000 0.26592500
8.95675000 -8.48202000 0.15076400
8.91605000 -8.53095000 0.15216200
8.91788000 -8.53329000 0.02384160
-8.89600000 8.05122000 -0.77059400
-8.77298000 8.02872000 -0.81205600
-8.81720000 7.98852000 -0.80850600
-8.89766000 8.18973000 -0.71993400
-8.82399000 8.21803000 -0.74095800
-8.83442000 8.12112000 -0.76747200
-7.64696000 5.48806000 -0.64735800
-7.60300000 5.62483000 -0.67005500
-7.60438000 5.50439000 -0.69128700
-7.68188000 5.59607000 -0.55038300
-7.62250000 5.71166000 -0.62795100
-6.91543000 -4.12077000 0.77602800
-6.95780000 -4.03677000 0.76809200
-7.08902000 -4.06696000 0.76760600
-6.98372000 -3.94526000 0.76414200
-7.06312000 -3.77714000 0.76375900
-7.14759000 -3.97431000 0.76266400
-0.16877000 -7.37853000 0.83073800
-0.47668000 -7.33767000 0.80193200
-0.45537800 -7.38374000 0.84040200
-0.28333100 -7.51963000 0.92601100
-7.96887000 2.83047000 -0.96026200
-8.09459000 2.80447000 -0.95477400
-7.95712000 3.12950000 -0.96718900
-7.88757000 3.01950000 -0.96623300
-7.95390000 3.27900000 -0.97081800
7.15931000 2.64610000 -0.89272900
7.29226000 2.44991000 -0.91374800
7.17786000 2.48699000 -0.88176200
7.35863000 2.31012000 -0.92298100
7.48705000 1.93433000 -0.94287800
7.43228000 1.93326000 -0.92499600
-8.75930000 4.09270000 -0.87128400
-8.70917000 4.02291000 -0.88949400
-9.03273000 3.87646000 -0.78828800
-5.29001000 -7.40072000 -0.34794400
-5.21421000 -7.43249000 -0.43276400
-7.55584000 5.18963000 0.78333700
-7.46527000 5.35462000 0.80398700
-7.38613000 5.41292000 0.82540600
9.20515000 -7.73013000 -0.52807000
9.18904000 -7.65985000 -0.59433900
9.27697000 -7.58788000 -0.56610600
9.15976000 -7.58829000 -0.66257800
9.24837000 -7.53965000 -0.62402700
-0.71794300 7.85619000 0.92156900
-0.68504600 8.07111000 0.91608100
-0.63002400 8.07103000 0.91253900
-4.58875000 -9.55599000 0.01229140
-4.75621000 -9.54727000 -0.04685550
-4.40649000 -9.56271000 -0.04796610
9.48465000 1.82930000 0.25532100
9.45367000 2.02585000 0.21257100
9.41185000 2.24489000 0.14831900
9.42732000 2.16309000 0.18599500
9.47342000 1.97280000 0.14480600
-9.50695000 -7.31678000 -0.06875290
-9.51493000 -7.17365000 -0.06901570
-5.02979000 -6.41086000 0.78934000
-5.05621000 -6.06699000 0.82627000
-5.04198000 -6.20920000 0.80420300
-4.94091000 -6.12237000 0.78884800
4.95353000 7.71593000 -0.04658080
4.97739000 7.61618000 0.21569300
4.99937000 7.59225000 0.14897000
4.97599000 7.64114000 0.08613560
-1.59024000 6.95834000 0.54406900
-1.71424000 6.96926000 0.59786500
-1.71627000 7.05816000 0.71589700
9.76298000 -3.61439000 0.48156500
9.78109000 -3.60266000 0.43322600
9.79979000 -3.59052000 0.36769600
9.81565000 -3.58038000 0.28613200
8.16082000 7.70001000 0.90983000
8.32931000 7.65809000 0.87615500
8.41608000 7.89269000 0.82802700
8.39812000 7.62146000 0.86202800
0.40468500 -9.38832000 0.41422700
0.66111700 -9.35402000 0.44026500
0.45626400 -9.35961000 0.46262100
0.23526000 -9.42427000 0.34953100
0.29437500 -9.40426000 0.39421700
0.12184900 -9.41239000 0.39297500
9.42821000 5.84227000 -0.60878000
9.36234000 5.91620000 -0.65130800
9.50981000 5.72964000 -0.54786200
9.46842000 5.81462000 -0.57474600
-5.62701000 9.13381000 -0.87917500
-5.14804000 8.97511000 0.89924600
-5.08006000 8.92559000 0.90298300
-5.09389000 9.06012000 0.86643500
-5.30586000 8.78604000 0.94549700
-5.24002000 8.85922000 0.93206500
7.91597000 -9.18463000 0.35843100
7.84046000 -9.22145000 0.30805200
-5.87221000 -5.24372000 -0.74855200
-5.85080000 -5.11323000 -0.72944800
-5.71427000 -5.23084000 -0.73453800
-5.87805000 -5.45549000 -0.76782800
-0.59326600 -8.97788000 -0.80619100
-0.06527420 -8.91252000 -0.84753800
-0.25290900 -8.89780000 -0.84895500
9.15029000 3.22343000 0.50438400
9.08696000 3.25935000 0.60321900
9.05797000 3.21026000 0.58360700
8.92627000 3.19212000 0.66992200
8.89898000 3.13863000 0.66262600
8.96165000 3.14305000 0.62158300
-2.96613000 -8.78589000 0.69083000
-8.47422000 -8.67045000 -0.44825000
-8.91048000 -8.44538000 -0.31181200
-7.20355000 -0.37076300 0.40951300
-7.19638000 -0.13240000 0.36357400
-7.16079000 -0.60854600 0.35455400
-6.41737000 -9.17661000 0.04755760
-6.64134000 -9.16028000 0.04952430
-7.87895000 6.55373000 -0.36981800
-7.95196000 6.53283000 -0.42158700
-7.90628000 6.59765000 -0.49193100
-7.93331000 6.52660000 -0.37122400
-4.22644000 8.97131000 0.91936800
-4.10465000 8.87015000 0.92847300
-4.11752000 8.99045000 0.89001600
-4.10715000 9.07399000 0.85225100
-4.20045000 9.14088000 0.83960100
-1.53139000 -9.34890000 -0.34296600
-1.46627000 -9.33088000 -0.39530500
-2.26485000 -9.25589000 -0.29645300
-2.10249000 -9.25517000 -0.35336200
-2.05405000 -9.29552000 -0.28086500
-9.20368000 -3.16639000 0.12179100
-9.18635000 -3.15192000 0.16999000
-9.20270000 -3.13817000 0.09069050
-9.20812000 -3.07529000 0.05440840
-3.53428000 -9.26407000 0.48903700
-3.60136000 -9.28842000 0.51444300
-3.62071000 -9.33277000 0.45599100
-3.58203000 -9.33780000 0.40088300
8.01144000 -4.94014000 -0.05675510
8.01501000 -4.94129000 0.04099100
7.99613000 -4.91980000 0.04967230
7.98169000 -4.92311000 0.34384800
6.85076000 5.56640000 -1.04049000
6.77702000 5.63276000 -1.03873000
6.89607000 5.62987000 -1.04097000
7.21483000 5.86492000 -1.03106000
7.02160000 5.83777000 -1.02788000
-6.06562000 -9.20904000 -0.12820600
-1.43048000 -7.90973000 1.02826000
-1.28473000 -7.83999000 1.01355000
-1.12866000 -7.70338000 0.97525100
6.64037000 9.27084000 -0.16864200
6.79570000 9.32440000 -0.12624800
6.79085000 9.30501000 -0.18984100
6.64136000 9.21762000 -0.31803300
3.63719000 9.11243000 0.86715300
3.98325000 9.03489000 0.89609700
3.97683000 9.10071000 0.87389200
3.77659000 9.07680000 0.88492100
-1.34345000 -8.52387000 -0.98505600
-1.38572000 -8.57831000 -0.96223700
-1.55471000 -8.62822000 -0.95238100
-1.47128000 -8.72003000 -0.89238800
-1.41310000 -8.84883000 -0.82410000
-9.52644000 3.20966000 -0.43094500
-9.60622000 3.28317000 -0.38628000
-9.60961000 3.32743000 -0.42916800
-9.67286000 3.36782000 -0.36471800
-6.20049000 -3.48456000 0.07228360
-6.27132000 -3.36372000 0.08823250
-6.22012000 -3.46722000 0.14345300
-6.34037000 -3.24044000 0.12192600
-6.36863000 -3.21963000 0.21056400
9.87243000 -4.25116000 0.57694300
9.90367000 -4.27489000 0.53031600
8.67050000 -6.23490000 0.99130300
9.39123000 -7.54009000 0.44350000
9.36098000 -7.55760000 0.49146700
9.36252000 -7.60247000 0.44289800
9.33056000 -7.61122000 0.49507400
9.30475000 -7.67308000 0.46686100
8.74286000 8.51146000 -0.25552700
8.75125000 8.51820000 -0.21329500
2.65898000 8.82056000 0.70342400
2.54229000 8.65174000 0.87200600
2.39553000 8.63745000 0.90980700
0.12474800 -9.24059000 -0.64563200
0.13388300 -9.20540000 -0.67595800
0.26219000 -9.24399000 -0.63739000
-0.49378800 -9.20083000 -0.67164500
-0.32604900 -9.16504000 -0.70285800
-0.22522100 -9.21796000 -0.66001700
3.46269000 -7.92837000 1.09910000
3.49901000 -7.82220000 1.10213000
3.45404000 -7.80724000 1.09378000
3.38028000 -8.06833000 1.08781000
3.37035000 -7.99888000 1.08611000
7.67648000 -4.49829000 -0.90734800
7.62504000 -4.56347000 -0.86807700
7.68237000 -4.59099000 -0.86516400
7.72334000 -4.56763000 -0.89019000
7.73884000 -4.63314000 -0.85777900
5.08103000 7.07503000 -0.87557000
4.49587000 7.22269000 -0.85948500
4.39390000 7.29505000 -0.85966400
4.48564000 7.39282000 -0.84873100
-4.06668000 6.69332000 0.89275700
-3.74814000 6.86559000 0.90137500
-3.65773000 6.80482000 0.88662400
-3.41689000 6.87943000 0.88816500
-3.50914000 6.92166000 0.90095500
7.12938000 9.32210000 -0.16726500
7.06607000 9.31550000 -0.21994000
7.15698000 9.33015000 -0.10224500
7.06254000 9.35231000 -0.05945710
7.20417000 9.32425000 -0.05616900
-9.50607000 -5.78838000 -0.53504500
-9.39055000 -5.93221000 -0.50963100
9.06352000 2.88840000 0.52916600
9.10092000 2.96666000 0.46925700
9.15292000 3.00320000 0.39690500
9.11384000 6.99354000 0.15462400
9.09845000 7.08616000 0.22383000
9.10032000 6.94115000 0.22236700
9.12775000 6.83214000 0.11165600
-7.37011000 6.85304000 0.88825700
-7.31706000 6.52297000 0.92527200
-7.29593000 6.39843000 0.94031700
6.42580000 7.87286000 -0.47648800
6.48741000 7.75996000 -0.14620800
3.20138000 9.09902000 -0.80825600
3.28178000 9.26064000 -0.72848300
-9.32142000 2.98073000 -0.40780100
-9.54108000 3.20021000 -0.38595400
-6.85837000 3.86821000 0.79791900
-6.97057000 3.83688000 0.81223500
-7.04179000 3.59254000 0.79748700
-7.13604000 3.57059000 0.81213300
-7.15590000 3.69306000 0.82342100
-5.28948000 -8.72778000 0.79798000
-5.17545000 -8.70879000 0.81413900
-5.38286000 -8.62437000 0.81877800
-4.91131000 -8.64401000 0.85456300
-5.09325000 -8.61598000 0.84560700
-7.78776000 6.89426000 -0.79002900
-7.88053000 6.89285000 -0.81850800
-7.93069000 6.92528000 -0.85862500
5.53701000 -9.36322000 -0.80438900
5.55505000 -9.16435000 -0.88776000
9.30856000 -3.03913000 0.51464400
9.33275000 -3.02824000 0.40565500
9.36245000 -3.07953000 0.44990300
-8.80053000 2.05537000 -0.86082900
-8.73122000 2.12838000 -0.87807300
-8.88301000 1.74764000 -0.84126000
-8.95135000 1.80091000 -0.81713400
-8.94214000 1.70126000 -0.82187900
4.79050000 -7.04140000 1.08251000
4.77585000 -7.10301000 1.09615000
4.86615000 -7.02984000 1.06940000
4.87389000 -6.97981000 1.05148000
-7.27872000 5.18466000 -0.86305800
-7.19004000 5.22433000 -0.87403000
-7.45701000 4.84914000 -0.85478800
-5.19974000 -4.86951000 -0.13790200
-5.25931000 -4.78743000 -0.03542490
-5.11295000 -4.94687000 -0.08317430
-6.07094000 9.37587000 -0.33884200
-6.08140000 9.38997000 -0.24393300
-6.11309000 9.28424000 -0.45548000
-6.15511000 9.22639000 -0.49623100
-6.16388000 9.26004000 -0.43662100
8.28580000 8.24488000 -0.79810400
8.46373000 8.07484000 -0.77867400
8.38390000 8.14697000 -0.79386900
3.28200000 -9.58107000 0.36972900
3.24468000 -9.57124000 0.29696600
3.29521000 -9.61301000 0.30018300
3.25737000 -9.56287000 0.36341900
-7.19359000 -7.05297000 -0.68173500
-7.14072000 -7.07325000 -0.63874500
-7.26061000 -7.09142000 -0.69339200
-7.25016000 -7.17967000 -0.67101800
-7.23204000 -7.22911000 -0.66548500
-4.60611000 -8.23996000 -0.95023000
-4.83173000 -8.38559000 -0.92169400
-4.79506000 -8.28786000 -0.93741500
-4.74991000 -8.34420000 -0.93251200
-9.62958000 4.76430000 0.58379400
-9.73279000 4.71780000 0.49827600
-9.70288000 4.68699000 0.53389200
-9.69293000 4.78061000 0.52923900
7.34787000 -8.69010000 -0.94162400
7.32168000 -8.74591000 -0.91205900
7.21525000 -8.68700000 -0.94120400
7.54393000 -8.81395000 -0.86651100
7.43268000 -8.75299000 -0.90756400
-3.97147000 -8.27806000 0.95499700
-4.16273000 -8.23315000 0.95708500
-4.33836000 -8.24981000 0.95781100
-6.96288000 5.53620000 0.92962100
-6.95978000 5.70201000 0.98191900
-7.08166000 5.69692000 0.93270200
-6.84862000 5.58040000 0.98282900
2.67875000 8.84757000 -0.67853400
2.73786000 8.92357000 -0.61391600
2.71788000 8.81450000 -0.73067200
2.78925000 8.94478000 -0.63499100
2.79830000 8.87442000 -0.72165200
2.75144000 8.86459000 -0.69536600
-7.07246000 1.15123000 0.12784800
-7.09485000 1.07017000 0.19884100
-7.09422000 1.16425000 0.26160600
-9.38498000 -2.41899000 -0.08677380
6.67532000 7.33451000 -0.79759100
6.46175000 7.25130000 -0.71133500
6.39118000 7.24335000 -0.65832100
-6.75728000 -7.07338000 0.00337684
-6.72079000 -7.05530000 0.02074410
7.79021000 3.83370000 -1.02884000
7.77361000 3.90200000 -1.03532000
7.66248000 3.88660000 -1.03595000
7.66344000 3.81383000 -1.02777000
7.56190000 3.86378000 -1.03047000
-3.99671000 -9.20534000 -0.69514900
-4.00808000 -9.25260000 -0.66514000
-4.12517000 -9.21932000 -0.68967800
-4.09134000 -9.16614000 -0.71855000
-4.32216000 -9.11598000 -0.74257100
-4.02888000 -9.10073000 -0.75006400
7.94765000 0.70652100 0.95921800
7.73761000 0.79972000 0.94876200
7.80074000 0.62011900 0.94548000
8.02695000 0.43969500 0.95690800
8.14415000 0.40547200 0.95792000
8.18677000 0.45908700 0.96088900
-3.37968000 -9.11074000 -0.52913300
-3.35164000 -9.00028000 -0.66780400
-3.34222000 -8.95471000 -0.70911800
-3.25361000 -8.88293000 -0.70248400
9.07523000 -8.25078000 -0.21718600
9.03419000 -8.35588000 -0.12362300
9.04079000 -8.30836000 -0.24488900
9.02840000 -8.26752000 -0.40736000
8.99839000 -8.27937000 -0.48180500
9.04900000 -8.20582000 -0.45669200
-8.93499000 -6.45306000 -0.66329500
-8.85048000 -6.61382000 -0.68643700
-9.08060000 -6.57214000 -0.59932100
-9.08473000 -6.37207000 -0.60275800
8.23509000 -5.88425000 -0.71638600
8.22875000 -5.79739000 -0.65340500
8.24802000 -5.78286000 -0.72797200
2.57801000 -8.83557000 0.68009200
2.54707000 -8.88510000 0.63160600
2.66888000 -8.85207000 0.62404000
2.71381000 -8.97575000 0.45607900
-4.03056000 -6.23969000 0.65722000
-4.04458000 -6.28914000 0.67810800
-3.89378000 -6.33740000 0.65886900
-3.97184000 -6.44375000 0.70869100
-3.76966000 -6.58240000 0.72258800
6.41880000 8.98460000 0.61576800
6.66516000 9.02783000 0.62241100
6.66947000 9.06499000 0.58035100
6.70971000 9.10408000 0.54038400
6.54753000 9.07010000 0.53322400
9.75021000 -5.59705000 0.07602520
9.72810000 -5.73573000 0.09172300
9.73727000 -5.70128000 0.04000000
9.73128000 -5.60753000 0.20167800
9.71490000 -5.58203000 0.29070300
9.70249000 -5.63659000 0.30988300
5.91822000 9.33328000 0.24368700
5.67376000 9.34040000 0.31370800
5.92195000 9.30698000 0.30330700
5.90233000 9.22586000 0.44358000
8.72810000 -7.13319000 -0.94671100
8.71741000 -7.25172000 -0.94077600
8.69163000 -7.16899000 -0.95123300
8.43762000 -1.25154000 1.02500000
2.76627000 -6.72864000 -0.69729100
3.37791000 -6.42685000 -0.62668800
2.92506000 -6.62347000 -0.62554500
3.04490000 -9.07635000 -0.55343300
3.04543000 -9.02676000 -0.60219200
3.00772000 -8.98900000 -0.58211100
3.02493000 -8.92503000 -0.65253600
3.06894000 -8.95772000 -0.68898900
9.38257000 3.26467000 -0.01013290
9.32274000 3.19629000 0.01015420
9.34705000 3.23688000 0.06661450
-5.46912000 -4.95377000 -0.60486700
-5.64079000 -4.80581000 -0.61692100
-5.39714000 -5.07264000 -0.63253300
-5.43316000 -5.10761000 -0.66016900
4.04005000 9.37562000 -0.73989100
4.02261000 9.29099000 -0.79104000
-9.35806000 -5.46048000 0.60722300
-9.26903000 -5.46562000 0.62219200
-9.32029000 -5.34582000 0.61106900
-9.54740000 -5.39851000 0.57430700
-9.57356000 -5.33574000 0.56235700
-5.85253000 9.55163000 -0.21798400
-5.85043000 9.56542000 -0.08259300
-5.78392000 9.54317000 -0.38641700
-5.78686000 9.56954000 -0.26755100
-5.73641000 9.57852000 -0.30058500
-6.43571000 -7.46486000 0.00636651
-6.35370000 -7.50185000 0.02610900
-6.46827000 -7.47086000 0.17418100
6.70845000 8.99548000 -0.66328800
6.44428000 8.88385000 -0.72831500
8.14107000 6.04293000 0.92851500
8.23183000 6.32018000 0.90714700
8.10072000 6.97784000 0.93918900
8.04872000 6.66627000 0.93498900
8.15585000 6.73048000 0.92372200
7.29914000 -0.77675000 0.70845300
7.38015000 -0.92448700 0.80962800
7.38221000 -0.68965600 0.80064600
7.34122000 -0.81924300 0.76242700
6.42660000 3.24140000 0.55579800
6.51232000 3.17234000 0.61154000
6.59267000 2.96494000 0.61879500
6.62607000 2.98499000 0.65876600
-7.94299000 9.08168000 0.61651900
-7.70720000 9.15520000 0.57417600
-5.50549000 9.46148000 -0.63658200
-5.56914000 9.48500000 -0.59286800
-5.79729000 5.40404000 0.95836200
-9.54763000 6.51940000 0.32590600
-9.49287000 6.54167000 0.40551700
-9.50701000 6.40348000 0.42855400
4.22915000 -9.39512000 0.77388500
4.05962000 -9.35845000 0.80274100
4.01618000 -9.40495000 0.75164700
4.11911000 -9.40841000 0.75915500
9.63133000 -0.40704400 -0.35451300
9.61470000 -0.10005300 -0.42568500
9.62926000 -0.07991710 -0.39494700
9.65746000 -0.10346100 -0.31515800
9.64864000 0.08949580 -0.34277800
-2.54613000 7.20744000 -0.90306200
-2.54506000 7.12966000 -0.87249700
-2.36021000 7.28067000 -0.91534400
9.32384000 5.36324000 -0.68492700
9.28106000 5.38373000 -0.71394000
-9.00952000 -8.37853000 0.30128500
-9.06596000 -8.31547000 0.31845800
8.01762000 -4.88155000 0.72681400
7.96742000 -4.90729000 0.51158600
7.99271000 -4.91065000 0.59257500
8.98593000 1.86713000 0.81010500
9.01369000 1.60839000 0.82499100
9.06832000 1.59234000 0.80168600
9.04915000 1.45681000 0.82290600
9.14259000 1.27491000 0.79483400
-8.71392000 5.37042000 0.82929500
-8.64576000 5.38096000 0.83368700
-8.65444000 5.54486000 0.83643900
-8.70489000 5.07886000 0.83003200
-8.68894000 4.92356000 0.83689600
5.72351000 4.08897000 -0.29133500
5.61589000 4.23155000 -0.29426300
8.98773000 -1.61213000 -0.80641600
2.67729000 -6.60206000 0.01396800
2.63283000 -6.62113000 -0.06970480
2.44637000 -6.68855000 -0.06798680
2.46148000 -6.68156000 0.01887690
2.35709000 -6.71598000 0.02700650
2.38562000 -6.70931000 0.10063500
-3.47671000 -7.17931000 -0.91923900
-3.48905000 -7.12022000 -0.88548400
-3.61952000 -6.93878000 -0.79638500
-3.63086000 -6.98455000 -0.81252500
7.88131000 5.72182000 0.99065700
8.17007000 5.19206000 0.96924300
8.18576000 5.41760000 0.95479700
-7.93469000 5.21910000 0.05704170
-7.89016000 5.28525000 0.05238610
-7.89418000 5.28014000 0.01166030
-6.11847000 8.88753000 -0.76863600
-5.99351000 8.85725000 -0.82357300
-5.91395000 8.87522000 -0.85370000
-9.72368000 5.12886000 0.33006900
-9.71488000 5.25351000 0.26511100
-9.77652000 4.94600000 0.31441000
-9.71318000 5.08265000 0.38063500
8.34628000 1.46567000 0.98000600
8.45817000 1.40234000 0.96667400
8.43205000 1.51785000 0.97345100
2.23804000 -8.96197000 -0.64045500
2.14169000 -9.00795000 -0.61145200
2.23311000 -8.99856000 -0.60049200
2.20803000 -9.03616000 -0.55749300
9.27580000 -2.76168000 -0.41352300
9.24226000 -2.75373000 -0.47370300
9.26984000 -2.60442000 -0.49578400
9.14198000 -2.70552000 -0.62599800
9.18956000 -2.71742000 -0.56576000
-0.47472200 -9.31184000 0.55071800
-0.72942700 -9.30272000 0.54656700
-1.01688000 -9.30803000 0.50974700
-0.66490600 -9.33506000 0.50787400
-6.76209000 -7.68863000 0.74844500
-6.50144000 -7.84817000 0.80121500
-6.58586000 -7.77540000 0.77202100
-6.67188000 -7.79389000 0.79279700
-3.17138000 7.09489000 -0.92809000
-3.32252000 6.91798000 -0.89367700
-3.40419000 6.84449000 -0.87910900
9.38523000 -4.02364000 -0.82599600
9.20390000 -4.03357000 -0.88619300
9.47979000 -3.85628000 -0.79221600
5.81220000 3.93462000 -0.23079200
-8.66397000 0.21362200 -0.75792900
-8.48121000 0.05771660 -0.78515300
-8.71453000 0.15133800 -0.75076400
-8.82494000 0.03574460 -0.74208200
-8.82896000 0.23327500 -0.73606000
2.63632000 6.42612000 -0.11609700
2.75821000 6.37468000 -0.11718500
-7.39118000 -3.97802000 -0.79545800
6.48569000 5.27738000 -0.96970700
6.64014000 5.59217000 -1.02091000
8.23420000 3.48531000 0.99184900
8.18434000 3.43736000 0.99233900
8.37111000 3.45298000 0.96948300
8.28483000 3.40959000 0.97362300
-4.84170000 9.55359000 0.13573300
8.85139000 6.58679000 0.58662700
8.80262000 6.64851000 0.62845500
8.76631000 6.57870000 0.66138200
8.77736000 6.45857000 0.67052600
8.71305000 6.38688000 0.72454100
4.29553000 9.70875000 0.03490510
4.17830000 9.71695000 0.02299140
4.24175000 9.70918000 0.10302200
-6.78375000 2.78594000 0.50372900
-6.86568000 2.50331000 0.47181200
-6.75249000 2.75779000 0.44361800
-6.87393000 2.39868000 0.42960300
-6.92291000 2.31773000 0.47059400
-6.92471000 2.23485000 0.43530000
-9.05918000 2.87644000 0.70060600
-9.11419000 3.01369000 0.71815500
-9.11920000 2.96091000 0.68822400
-8.93165000 2.82493000 0.78329800
-9.01062000 2.87980000 0.74376800
9.45484000 -2.26007000 0.26608500
9.43791000 -2.23934000 0.33607100
6.14768000 -7.10370000 -1.03890000
6.14952000 -6.90057000 -1.02758000
6.20605000 -6.85571000 -1.04268000
6.16812000 -6.99172000 -1.03718000
6.81254000 -4.87085000 0.90551300
6.94643000 -5.08132000 0.91647300
6.11886000 -5.73198000 -1.09179000
6.12372000 -5.62156000 -1.09416000
6.18656000 -5.76433000 -1.10451000
-2.34258000 7.58558000 0.97373900
-2.15117000 7.59813000 0.97525900
-2.25333000 7.66047000 0.98050300
-1.86286000 7.82974000 0.98266800
-1.95725000 7.81322000 0.98320000
-1.93631000 7.71300000 0.97661700
-2.70446000 -6.52297000 -0.09979450
8.17635000 1.28759000 -0.98619800
8.15289000 1.07069000 -0.98154000
8.35910000 1.50867000 -0.98213600
8.38351000 1.38383000 -0.97438600
8.27226000 1.46108000 -0.98749800
8.32146000 -8.16285000 -0.92783100
8.22627000 -8.05010000 -0.97122900
8.30729000 -8.05300000 -0.95505100
8.12175000 -7.84897000 -1.01459000
8.12309000 -7.97814000 -1.00655000
8.04389000 -7.84036000 -1.03356000
-4.42071000 9.07438000 0.89178600
-4.51375000 9.09436000 0.87489600
-4.56448000 9.01811000 0.90212900
-0.09763720 7.91674000 1.00470000
-0.32847300 7.86794000 0.98817900
-1.32113000 9.10798000 0.59265000
-1.36104000 9.06776000 0.63352500
-1.20415000 9.07976000 0.62004800
-0.44690500 8.05740000 -0.93269600
-0.50712300 8.07918000 -0.92466800
-0.60421000 7.91872000 -0.93233100
7.12414000 4.30871000 -1.02026000
7.15983000 4.40178000 -1.04755000
7.21128000 4.21201000 -1.02257000
7.34174000 4.23107000 -1.04968000
8.50434000 0.47962400 -0.95243300
8.60243000 0.52056900 -0.94532800
8.54077000 0.27565700 -0.94337800
8.65010000 0.10963100 -0.93046000
8.70797000 0.31219400 -0.92754300
-1.71098000 6.85225000 0.36432300
-1.86379000 6.83962000 0.41038200
-1.89138000 6.81261000 0.34898800
-1.93928000 6.78747000 0.29135300
-6.93174000 1.86879000 -0.04714910
7.70568000 -0.93236300 0.99250400
7.68798000 -0.73433900 0.98148000
7.53394000 -0.67300200 0.91172300
7.55585000 -0.94359800 0.93816900
7.61122000 -0.60668000 0.94712400
-4.65700000 -5.60231000 0.56391600
-5.33349000 -5.07363000 0.60829000
-5.07767000 -5.36027000 0.65222300
9.61745000 5.87562000 0.10569800
9.61440000 5.86985000 -0.04266880
9.62802000 5.81418000 0.10364700
9.61298000 5.87797000 0.20223900
1.35521000 6.89952000 -0.45024600
1.51334000 6.86271000 -0.43679700
1.49377000 6.84231000 -0.38469700
1.63073000 6.91605000 -0.55404600
1.58368000 6.89882000 -0.51884500
-6.98259000 2.35379000 -0.54720600
-6.93517000 2.53031000 -0.55839400
-6.92027000 2.44372000 -0.50765100
-7.02830000 2.00430000 -0.49453200
-7.65829000 6.22662000 0.26379400
-7.65620000 6.17384000 0.26601900
-7.62790000 6.24257000 0.37419700
-7.63280000 6.13468000 0.37649900
-7.64119000 6.17623000 0.32959600
7.53379000 -7.13555000 -0.34647200
7.56066000 -7.11600000 -0.10599400
7.57419000 -7.11607000 -0.34420600
7.61748000 -7.10536000 -0.66732000
7.57709000 -7.13372000 -0.69792300
9.26435000 -2.94030000 -0.45137600
9.31648000 -2.86402000 -0.27189900
9.29322000 -2.91393000 -0.35238200
-9.93146000 -5.17410000 0.19623300
-9.95135000 -5.23041000 0.19982000
-9.94510000 -5.26555000 0.24986300
-9.93087000 -5.21381000 0.25526000
5.96808000 4.10257000 0.60558000
6.21097000 3.68674000 0.59161900
-1.25767000 7.42148000 0.89388000
-1.28924000 7.51766000 0.91483100
-1.31377000 7.70394000 0.94684400
-1.24079000 7.76634000 0.95026300
-6.91319000 -8.62143000 0.69728000
-6.88395000 -8.65217000 0.68759200
-7.20700000 -8.70742000 0.62422400
-7.03827000 -8.66952000 0.66631100
1.06243000 9.25809000 0.44016300
1.05478000 9.28360000 0.39959000
1.01856000 9.23330000 0.48027900
0.93156000 9.21319000 0.51238300
1.13670000 9.19763000 0.50310600
-8.94487000 -7.63663000 0.64101300
-8.85988000 -7.81814000 0.65185800
-8.66172000 -7.97372000 0.69101800
-8.72627000 -7.85913000 0.69093500
-6.62058000 -7.81937000 -0.80102800
-7.53767000 1.94783000 -0.83641300
-7.47590000 2.10293000 -0.80874900
-7.39968000 1.89709000 -0.74633500
-7.33811000 2.08262000 -0.73235600
7.64573000 -7.06031000 0.31309100
7.67388000 -7.03613000 0.09956240
7.61641000 -7.08189000 -0.10641900
5.71903000 5.72534000 0.92825100
-9.52787000 -3.39146000 -0.36309800
-9.32592000 -3.33619000 -0.44096100
5.68252000 7.01732000 -0.95019200
5.61851000 6.94289000 -0.97602400
5.85409000 7.08062000 -0.94397200
-4.75570000 -6.65769000 -0.77707600
-4.66086000 -6.89394000 -0.78289900
-4.87904000 -6.78326000 -0.78143900
-4.98610000 -6.89176000 -0.78211800
-4.91650000 -6.96042000 -0.78100800
-5.04286000 -6.95110000 -0.77576200
7.69561000 -3.77715000 -1.03783000
7.63156000 -3.79749000 -1.02625000
7.78479000 -3.92348000 -1.03752000
7.82978000 -4.17070000 -1.03170000
-6.12391000 3.85535000 0.31003100
-6.11312000 3.97433000 0.44010700
-5.99809000 4.08622000 0.38583300
8.98788000 -1.94081000 0.82067600
8.97638000 -1.78630000 0.82654300
8.81017000 -1.57631000 0.92486800
8.85695000 -1.67314000 0.90777600
8.84812000 -1.45943000 0.88421000
9.62891000 -1.23762000 -0.06902160
9.65973000 -0.94066900 -0.06911400
9.64196000 -1.14323000 -0.03338840
-7.78833000 -3.48416000 0.81354400
-8.02230000 -3.38391000 0.81717500
-8.08912000 -3.34085000 0.80823100
-5.12349000 -8.51682000 -0.86787500
-5.16600000 -8.42943000 -0.88107600
-4.92348000 -8.32219000 -0.92378800
-4.92831000 -8.39207000 -0.91269600
7.17340000 8.82065000 -0.72932100
-5.95714000 -7.64746000 -0.30468000
-6.28054000 -7.54288000 -0.23195300
-6.23133000 -7.55194000 -0.15076800
4.96773000 -9.60478000 0.59649100
5.01829000 -9.61759000 0.60083600
5.02276000 -9.58261000 0.66431400
4.96234000 -9.55552000 0.67736300
-9.61475000 3.65799000 0.53043600
-9.66824000 3.77446000 0.51154000
-9.66396000 3.65733000 0.49704000
-9.71401000 4.11032000 0.50747500
-9.39057000 6.90726000 0.58948100
-9.42069000 6.88091000 0.55109100
-9.35663000 7.01674000 0.62162500
-9.36600000 6.94161000 0.61567700
7.26100000 9.16154000 0.44281800
7.24588000 9.11348000 0.50115100
7.20308000 9.21735000 0.39213100
7.18179000 9.18879000 0.44320000
-6.73640000 -2.49579000 0.34171000
-6.56425000 -2.92920000 0.39202700
-5.01491000 -7.36185000 0.63165700
-4.99238000 -7.43842000 0.62383900
-4.91854000 -7.41459000 0.66776500
-5.13011000 -7.37970000 0.54497800
-5.12809000 -7.31943000 0.59059000
-5.16677000 -7.33495000 0.55116200
4.92937000 -9.68367000 -0.18100300
4.93597000 -9.69352000 -0.05904390
4.85814000 -9.66722000 -0.05834770
6.88076000 -1.95721000 -0.03906340
6.91702000 -1.82815000 0.05142700
6.95049000 -1.68579000 0.02734630
6.93898000 -1.72535000 -0.03698780
7.71829000 1.73088000 -0.97923400
7.71840000 1.54976000 -0.97272400
7.70382000 2.11400000 -0.98990100
7.09454000 3.61509000 0.91768600
7.06741000 3.41627000 0.90054200
7.19404000 3.43520000 0.92061400
6.78114000 3.54226000 0.84944000
6.85824000 3.28510000 0.84423800
6.94169000 3.36631000 0.87262100
7.83885000 -6.91908000 -0.74538200
7.84294000 -6.94725000 -0.81576100
7.89042000 -6.92488000 -0.86815400
7.82915000 -6.99312000 -0.86392300
4.53836000 9.65457000 -0.23710400
4.57979000 9.63707000 -0.28657200
4.43511000 9.65905000 -0.29064300
4.88063000 9.58944000 -0.17389300
4.73159000 9.62094000 -0.20853700
-4.41568000 -9.56369000 0.00400911
-4.35193000 -9.56494000 0.05182250
-4.39585000 -9.55299000 0.18409500
-4.45541000 -9.55750000 0.11967800
-0.57214500 -7.34542000 0.81257700
-0.55086800 -7.23354000 0.70152000
-0.33016900 -7.23605000 0.68347200
-5.36642000 -9.20984000 -0.49997900
-5.47333000 -9.13771000 -0.53805100
-5.29117000 -9.19780000 -0.54054600
-5.16901000 -9.09820000 -0.64312300
-4.91938000 -9.14214000 -0.66702100
-4.96866000 -9.18544000 -0.62895700
9.88711000 -3.63260000 -0.07129730
9.88221000 -3.62605000 -0.16120900
9.88307000 -3.66577000 -0.31910100
6.49204000 4.34322000 -0.88875400
6.97200000 4.29738000 -0.97835200
6.86532000 4.30583000 -0.95707600
7.07576000 4.39459000 -1.02952000
-5.87393000 7.93633000 -1.01854000
-5.82093000 8.13472000 -0.99731400
-5.53558000 7.93793000 -1.03691000
1.48955000 6.79677000 0.19754800
1.47975000 6.80838000 0.25175700
1.41585000 6.84329000 0.33360500
1.22551000 6.90034000 0.38227600
2.95952000 -9.24271000 0.17177100
3.04558000 -9.28448000 0.20039300
2.96630000 -9.25526000 0.11786400
3.00845000 -9.27697000 0.09619620
-2.23964000 -9.28574000 -0.23464700
-2.20946000 -9.31920000 -0.13698400
-2.28078000 -9.31361000 -0.08771270
9.12714000 3.57349000 -0.74988100
9.18914000 3.62879000 -0.71267400
9.21930000 3.57111000 -0.69435200
9.08306000 3.48218000 -0.76460100
9.10474000 3.51783000 -0.75910600
9.19307000 3.51615000 -0.70550600
3.36679000 9.53318000 -0.39628000
3.36457000 9.55856000 -0.29994400
3.24124000 9.51132000 -0.24343700
9.30521000 4.11155000 -0.66294800
9.33814000 4.02589000 -0.63031100
9.28780000 4.02098000 -0.66493900
9.28574000 3.58189000 -0.64914700
9.29977000 3.64991000 -0.63761700
9.34242000 3.73694000 -0.59433000
-8.37140000 5.08676000 -0.78227900
-8.37868000 5.19772000 -0.77182900
-8.49222000 5.50128000 -0.81383100
-8.45194000 5.40178000 -0.79952600
-8.49595000 5.38144000 -0.81854300
-8.47480000 -8.18323000 0.67874300
-8.19180000 -8.06260000 0.74740500
-8.07709000 -8.08592000 0.75194700
-8.04045000 -8.00318000 0.77226000
4.69093000 9.23045000 -0.73862900
5.07199000 9.16300000 -0.70272500
5.03092000 9.13205000 -0.73133200
3.42733000 -9.57787000 -0.48275700
3.39316000 -9.53612000 -0.53542300
7.60315000 -7.09102000 -0.10630100
-8.73188000 7.39303000 -0.90800200
-8.81984000 7.63791000 -0.87771800
6.01596000 8.33719000 0.84518100
6.15837000 8.21521000 0.82483700
6.17894000 8.25944000 0.85287200
-3.57644000 -6.29428000 0.52717000
-3.71306000 -6.28745000 0.57386000
-3.75601000 -6.33496000 0.61786200
-3.56614000 -6.41662000 0.61436800
1.01541000 -7.53987000 0.95227500
1.01555000 -7.60015000 0.96562800
0.47420000 -7.66582000 0.97537400
0.66375500 -7.64035000 0.96794900
-5.66385000 8.95691000 0.92136700
-5.59940000 8.90449000 0.93682000
8.80208000 2.99864000 0.70260300
8.74274000 3.04893000 0.73044000
8.66597000 2.98525000 0.76702800
8.88612000 3.05886000 0.65361900
8.84850000 3.11826000 0.68559200
8.75256000 3.11236000 0.73384900
-9.82622000 3.64785000 0.16355900
-9.82105000 3.67084000 0.24294100
-9.83983000 3.75075000 0.19041500
5.11986000 -5.03036000 0.09868860
5.12496000 -5.03891000 0.22074300
4.89775000 -5.24047000 0.00030785
4.96201000 -5.18162000 -0.08276820
4.85161000 -5.28249000 -0.08236680
0.14931000 -7.19635000 -0.64095400
0.24116600 -7.21548000 -0.68415900
0.11440500 -7.23445000 -0.69186100
0.49577400 -7.21157000 -0.71058200
-3.68479000 6.14138000 -0.31619900
5.02339000 7.55644000 -0.16658300
5.06937000 7.51646000 -0.16587900
5.02684000 7.52984000 -0.30001000
5.02913000 7.50319000 -0.43062000
5.06852000 7.48508000 -0.40396600
-3.10071000 8.60369000 0.70509900
-3.13877000 8.53553000 0.74759700
-3.08448000 8.52674000 0.75615300
-3.15776000 8.40191000 0.81147200
-8.72096000 -8.60083000 0.25966900
-8.61536000 -8.69014000 0.29133500
-8.69438000 -8.57889000 0.32287500
-4.19909000 -6.14860000 0.66381200
-4.24134000 -6.20023000 0.68979500
-5.29804000 5.49147000 -0.81229200
-5.28766000 5.41352000 -0.78412500
-5.36046000 5.39930000 -0.80474400
-5.52926000 5.19079000 -0.80861100
-5.42434000 5.30828000 -0.80056100
-5.40518000 5.24664000 -0.76857500
-9.31597000 1.81959000 0.55890600
-9.37101000 1.83857000 0.51720500
-9.37122000 1.56605000 0.53300700
-9.46546000 1.17549000 0.48375500
-3.70221000 -9.25371000 -0.60879700
-3.67008000 -9.28892000 -0.55463100
-3.73539000 -9.31557000 -0.55289800
-3.78193000 -9.30226000 -0.58517700
-3.87852000 -9.28538000 -0.62503900
-3.78302000 -9.25134000 -0.63562800
-5.35904000 9.48154000 -0.60616700
-5.43671000 9.55038000 -0.49086300
-9.95328000 -4.48038000 -0.03787580
-9.95938000 -4.42118000 -0.03492290
-0.04527720 -7.11341000 0.45139500
-0.17378300 -7.13072000 0.50153800
-0.02004680 -7.14631000 0.53080400
0.10347100 -7.12049000 0.47690700
0.07081780 -7.09782000 0.40170900
0.00428854 -7.09304000 0.38450400
-7.13378000 -1.78815000 -0.59186800
-7.21334000 -1.51904000 -0.60724700
-7.17882000 -1.53717000 -0.57495500
-9.59845000 7.10970000 -0.13739700
-9.60079000 7.06613000 -0.07812560
-5.96437000 -8.56997000 -0.77316200
-5.76852000 -8.44520000 -0.82717600
