-17.85903500 -33.21017500 2.42988600
-16.58758200 -37.05246000 1.74510200
-17.30197900 -37.23746500 1.95277400
-17.92664300 -37.51145900 2.24113400
-18.08976000 -37.64728500 2.83137500
-18.31689100 -35.28660600 3.03089900
-16.48829300 -39.06962600 1.71141000
-16.89434800 -39.30099500 2.07609500
-16.93201400 -39.35486600 2.66017100
-16.65423600 -39.23701500 3.16676300
-17.62359200 -37.49675000 3.27510000
-16.39164700 -40.97570000 2.06443800
-16.44571300 -40.99836700 2.68983400
-16.14799900 -40.90610500 3.24232500
-15.63562700 -40.72923300 3.58753900
-16.13433100 -38.99173700 3.36140400
-16.06214500 -42.67964200 2.75035100
-15.77154800 -42.62402300 3.26902700
-15.27042700 -42.51326800 3.60102800
-14.68001100 -42.35114300 3.79512000
-15.01792400 -40.52249100 3.61845400
-15.42218300 -44.39141800 3.29899600
-14.94133300 -44.29287700 3.64140300
-14.35501000 -44.16576400 3.90409800
-13.65924400 -43.98810600 4.00993300
-13.98630400 -42.15311400 3.77882400
-14.53429700 -45.99707000 3.71739200
-13.97055000 -45.89137300 4.01527400
-13.31519600 -45.76472500 4.23768600
-12.54752200 -45.60515600 4.33070300
-12.87348500 -43.78678900 3.95436100
-13.72610000 -47.58142900 4.12385500
-13.09527900 -47.50284600 4.37870800
-12.37431200 -47.40258000 4.55424500
-11.40232700 -47.23918200 4.58735600
-11.67291900 -45.42387400 4.28199700
-12.90668400 -49.18769800 4.41902100
-12.17865300 -49.12096400 4.67185900
-11.23539300 -48.99884000 4.74156200
-9.88760700 -48.79547100 4.72621100
-10.11116300 -47.02211000 4.60224900
-12.04371200 -50.77607700 4.67170700
-11.07701800 -50.68087000 4.87059000
-9.76578400 -50.53292800 4.88752700
-8.13877000 -50.49170700 4.84507700
-8.20071300 -48.71211200 4.63935800
-10.97811000 -52.31723800 4.85374400
-9.77837700 -52.25206000 4.89714000
-8.24120200 -52.24002100 4.77851800
-6.52698400 -52.33538100 4.38560500
-6.42105800 -50.59661100 4.42066900
-6.73467900 -54.01856200 4.54628000
-4.62231000 -49.02578000 4.10264600
-6.42409000 -48.81507100 4.34349000
-4.73626200 -47.24263000 3.71003700
-6.54488700 -47.01508300 4.04252600
-8.36840300 -46.93354800 4.36097700
-6.73522800 -45.21217300 3.69688400
-8.62601400 -45.12517500 4.00920100
-10.34712100 -45.22757700 4.18836900
-8.86606900 -43.28981000 3.67283600
-10.62499500 -43.37503800 3.79045100
-11.96574300 -43.58409900 3.85810800
-10.94844700 -41.50492100 3.37171900
-12.32230300 -41.72600600 3.43141100
-13.23949300 -41.94608300 3.61216700
-12.66979500 -39.80299400 3.22459400
-13.66635800 -40.05588500 3.40541100
-14.35310600 -40.28728500 3.54936200
-14.13235400 -38.27354400 2.92594900
-14.88214000 -38.50863600 3.21421800
-15.53866500 -38.75007600 3.39369200
-15.36388300 -36.83216100 3.19908100
-16.18262100 -37.05355800 3.35313400
-16.92872600 -37.26448800 3.33320600
-16.32631700 -35.34875500 3.41520700
-17.11428500 -35.38271300 3.55018600
-17.85388200 -35.35616300 3.50129700
-16.91600400 -33.48288700 3.55781500
-17.57847600 -33.39286800 3.45948800
-18.02678700 -33.28783400 3.01170300
-17.70156900 -31.43807200 3.68650800
-18.18689300 -31.33731100 3.18708800
-17.86044700 -31.23039200 2.59294100
-18.14827700 -29.18035900 3.17921400
-17.78110900 -29.12722800 2.67680300
-17.15701700 -29.12414600 2.43824700
-17.44113200 -26.97659300 2.68925500
-16.81292300 -27.06767300 2.47633300
-16.15638700 -27.14675900 2.29576100
-16.12522900 -25.19952400 2.48716700
-15.54249100 -25.31150800 2.32896400
-14.94809200 -25.42726100 2.17451500
-15.03126400 -23.55003400 2.34837300
-14.48543800 -23.63911400 2.21708700
-13.77397800 -23.73349000 2.04499800
-14.15521500 -21.87417600 2.23460400
-13.55841700 -21.93217500 2.05735800
-12.76592900 -22.00093100 1.86665300
-13.42296100 -20.14845300 2.20246900
-12.66709800 -20.21897900 2.04048100
-11.72563500 -20.30683900 1.81166100
-12.57001800 -18.51298500 2.09330700
-11.53637200 -18.61779800 1.88395700
-10.27440900 -18.72090100 1.60704000
-11.31778600 -16.94715900 1.86958300
-10.06412400 -17.03953600 1.58515900
-8.67114500 -17.09402500 1.28749100
-9.83435700 -15.35963400 1.59065200
-8.55216100 -15.38221700 1.26051300
-7.18667900 -15.38595600 0.91569500
-8.55058600 -13.66119400 1.10993900
-7.21604400 -13.66003400 0.97538700
-5.71993200 -13.61555500 0.77955600
-7.25248600 -11.91609200 1.14479000
-5.77939500 -11.85192900 0.91133100
-4.15400200 -11.77357500 0.58143600
-5.81755300 -10.08920300 0.97288500
-4.16153600 -9.99334700 0.62904300
-2.40512200 -9.87954700 0.49012700
-4.16864300 -8.22598300 0.72825600
-2.42001400 -8.08892800 0.55375600
-0.68401200 -7.96730000 0.71711700
-2.43422800 -6.29808000 0.60304200
-0.69476600 -6.17086800 0.79609700
1.01390200 -6.11602800 1.06849600
-0.68964900 -4.37268100 0.86418100
1.01491800 -4.37881500 1.13984700
2.75058300 -4.49708600 1.47926300
1.04464200 -2.76451100 1.18858300
2.82212900 -2.94082600 1.56440700
4.55332700 -3.08491500 1.93495200
2.92933800 -1.44024700 1.63124100
4.67938900 -1.57380700 2.03584300
6.25830200 -1.70225500 2.20732100
4.85560900 -0.08100900 2.10008200
6.41145800 -0.21466100 2.29524200
7.65141800 -0.37591600 2.51792900
6.60971200 1.25030500 2.40715000
7.83921500 1.07469200 2.64616400
8.81842000 0.88621500 2.80473300
7.99697200 2.55616800 2.71772700
8.94356300 2.36024500 2.88822900
9.54780100 2.19557200 2.96571300
9.05322600 3.95797700 2.96025100
9.72136600 3.83035300 3.04466200
10.30901200 3.70484900 3.10188300
9.80145400 5.58609000 3.10591100
10.40347200 5.54190100 3.18162500
10.96587100 5.48239100 3.24537600
10.20494000 7.36508200 3.19734200
10.79937800 7.37779200 3.28672800
11.37027100 7.40641800 3.37953200
10.41589500 9.19961500 3.18638600
10.97812600 9.24137900 3.25566100
11.53485400 9.30477900 3.34074400
10.64486600 10.96971100 3.28486600
11.21071100 11.02699300 3.37031500
10.28578700 12.54385400 3.32469200
10.76853500 12.55928000 3.39546200
9.94063900 14.04461700 3.26591500
10.43919100 14.07760600 3.33180200
9.80126300 15.72239700 3.24214100
10.18965100 15.69020100 3.29212900
10.73142900 15.66345200 3.38179000
10.46719100 17.44131500 3.37153600
10.89343400 17.35250900 3.42192100
11.16752200 17.33435100 3.46852100
10.99803800 15.59880100 3.42643700
11.09846400 18.92607100 3.53486600
10.80619500 18.99284400 3.49000500
10.50115300 20.37587000 3.49613900
10.00429600 20.38253800 3.42005900
9.98368700 21.88023400 3.46412600
10.29553700 18.98954800 3.41636600
9.78344100 18.99424700 3.34599300
10.00723900 17.45517000 3.31578000
9.55257900 17.45658900 3.26701300
9.06947200 17.44761700 3.21000600
9.40074800 15.74649000 3.19508300
9.00023600 15.77058400 3.14802500
8.53363100 15.78662100 3.09010300
9.52536500 14.08430500 3.21031200
9.07857000 14.10295100 3.15202300
8.63428400 14.12283300 3.09425300
8.04547800 14.13069200 3.02250600
9.31700000 12.50701900 3.18434100
8.77333700 12.49473600 3.10902400
8.19823400 12.47485400 3.02879300
7.43358900 12.45809900 2.90217600
9.08054100 10.84214800 3.11201500
8.40752900 10.80511500 3.03306600
7.65574900 10.77851900 2.92146300
6.64369700 10.76910400 2.72996500
8.65295900 9.08905000 3.02308600
7.86994500 9.07450900 2.91709900
6.79752300 9.09388700 2.69822700
5.44317900 9.12185700 2.44279500
8.04631000 7.39367700 2.89805600
6.91511800 7.44308500 2.71134900
5.49880900 7.50631700 2.39482100
3.83597300 7.55854800 2.12239000
6.96394600 5.83377100 2.63670300
5.46163300 5.93081700 2.36537100
3.73047200 6.01559400 2.06947300
1.93140700 6.05386400 1.61000000
5.39442400 4.39707900 2.26670800
3.62249300 4.49687200 1.92292800
1.81902000 4.53820800 1.46382100
0.11817800 4.53840600 1.14152500
3.44024200 2.99034100 1.90812700
1.62599500 3.04505900 1.43577500
0.01227900 3.04895000 1.08827200
-1.38340900 3.01033000 0.93714900
1.43270400 1.56744400 1.32063300
-0.11873300 1.59791600 1.06349200
1.24966700 0.10936000 1.28489700
3.28378400 1.50990300 1.68431100
3.08077900 0.03147900 1.69999700
1.12304000 -1.30842600 1.24598700
5.06887700 1.40028400 2.14921500
5.24975300 2.88624600 2.22093200
6.79428600 2.73735000 2.50230400
6.91772000 4.26158100 2.59669500
8.10168900 4.11677600 2.80784600
8.12357200 5.73915100 2.84727500
9.05906400 5.66336100 3.00556900
8.93756600 7.36007700 3.03892500
9.56887300 7.36753800 3.11778200
9.25214500 9.12171900 3.07814000
9.84435900 9.15809600 3.12797500
9.58970600 10.88035600 3.16502400
10.10142200 10.91978500 3.21940600
9.79734900 12.51872300 3.25276200
-2.44089200 -4.52003500 0.66593900
-4.27496600 -4.75921600 0.78916900
-4.34801800 -3.08030700 0.86097700
-4.19270600 -6.47599800 0.85435500
-5.94717700 -6.63754300 1.08793600
-6.06693200 -4.95674100 1.12547300
-5.86919700 -8.35000600 1.00175500
-7.46895100 -8.45062300 1.29823300
-7.61827000 -6.76590000 1.37232900
-7.32497700 -10.17157000 1.28562900
-8.69252700 -10.22648600 1.51618900
-8.87927500 -8.51794400 1.52449000
-8.58472700 -11.95161400 1.38145400
-9.72098800 -11.94708300 1.65528800
-9.86283400 -10.23941000 1.74348400
-9.65492900 -13.65986600 1.68339500
-10.80337800 -13.60354600 1.96495000
-10.75859000 -11.90948500 1.93269300
-11.06062200 -15.27705400 1.82243300
-12.10747800 -15.16485600 2.10490400
-11.83626800 -13.50331100 2.15715000
-12.35524300 -16.83552600 2.09898400
-13.16271100 -16.72253400 2.26979000
-12.83906500 -15.04823300 2.26145900
-13.36700000 -18.41932700 2.29789700
-13.94432300 -18.35125700 2.43238800
-13.72376500 -16.62425200 2.43049600
-14.02467300 -20.10023500 2.34873900
-14.60001700 -20.05763200 2.48689200
-14.49064900 -18.28401200 2.53623900
-14.73774600 -21.81427000 2.37846300
-15.29062900 -21.75375400 2.52296400
-15.13619100 -20.01089500 2.63584900
-15.57205900 -23.45852700 2.49336200
-16.08358800 -23.37364200 2.70173600
-15.81757600 -21.68891900 2.68202200
-16.67920300 -25.07466100 2.68486000
-17.06343800 -24.97491500 3.11460900
-16.45618800 -23.31794700 3.07081600
-17.86598600 -26.93261700 3.18919300
-17.69862700 -27.02777100 3.79725600
-17.00398300 -25.03294400 3.67741400
-17.79698200 -29.26788300 3.69972200
-17.13814500 -29.39917000 3.81108100
-17.07080500 -27.20205700 3.95088200
-16.96323800 -31.52523800 3.68608100
-16.20960600 -31.62813600 3.59068300
-16.43190400 -29.51774600 3.76481600
-16.16731300 -33.57334900 3.47966000
-15.34513400 -33.68946100 3.34974600
-15.39432400 -31.77034800 3.43983400
-15.46357600 -35.26728800 3.27568000
-14.41218100 -36.65870700 2.97691300
-13.07533900 -36.58240500 2.72047400
-12.97724800 -38.07134200 2.78135700
-11.18591200 -38.15823400 2.71891800
-11.00801400 -36.97111500 2.61296100
-11.12020000 -39.68884300 3.09681700
-9.02621000 -39.77975500 2.96397400
-8.86465400 -38.56200400 2.61280800
-9.02422000 -41.45720700 3.34535200
-6.95141100 -41.61121400 3.00212100
-6.87451800 -40.03717800 2.57255500
-6.88758400 -43.40940100 3.32609500
-4.98686500 -43.69591500 2.86253300
-5.01834000 -41.93866000 2.45875500
-4.87511000 -45.45561200 3.28578200
-3.03052200 -45.70163000 3.15165700
-3.11213200 -43.96366100 2.62586900
-2.92151200 -47.48727400 3.57704100
-1.15483000 -47.67525500 3.65159600
-1.25691700 -45.88914500 3.17652900
0.43960700 -46.01464100 3.30628900
-1.30176300 -44.13956500 2.67778000
0.54050200 -47.81792400 3.71781900
-3.13426300 -42.27076700 2.10404900
-5.02404300 -40.39449300 1.81828300
-6.66231800 -38.95337700 2.26768500
-8.61395900 -37.85958100 2.32664500
-15.68944400 -29.63789400 3.65077200
-16.41762200 -27.37323000 3.87364200
-16.55849800 -25.21380600 4.00035100
-16.46408100 -23.34144600 3.58753900
-16.23630100 -21.65510600 3.01976000
-15.66063600 -19.96403500 2.78916900
-15.01686800 -18.21365400 2.67524700
-14.25272300 -16.53044100 2.53266900
-13.37967200 -14.93635600 2.31684800
-12.50455400 -13.40444900 2.30690000
-11.68507300 -11.82714800 2.10585000
-10.80268000 -10.20719900 1.92399600
-9.99326600 -8.54510500 1.75172400
-8.99922100 -6.83787500 1.59223900
-7.74486800 -5.10395800 1.43653800
-6.24573400 -3.33218400 1.18016000
-4.49494500 -1.45188900 0.88725300
-12.00713600 -52.39654500 4.61326600
-12.83318200 -50.82933000 4.38462800
-12.80216900 -52.44684600 4.28761300
-13.50580900 -50.86998000 4.13468900
-13.58620700 -49.24243900 4.15724200
-14.19042100 -49.28080700 3.92341600
-14.30535000 -47.65782200 3.87355000
-14.79624100 -47.70087400 3.51203900
-14.94989700 -46.06353000 3.32936100
-15.21923000 -46.10987100 2.85319500
-15.73767400 -44.45161400 2.82115100
-15.69901600 -44.42035700 2.24732900
-16.02090500 -42.66875500 2.14765900
-15.67169100 -42.56852000 1.63706900
-15.98042600 -40.82697300 1.60362200
-15.43640800 -40.61898000 1.27961700
-15.91939100 -38.85237100 1.48432900
-15.25526000 -38.62360400 1.29075600
-15.82963100 -36.86756100 1.58061200
-14.99399100 -36.64444700 1.39592000
-15.14508700 -34.87299300 1.49607800
-14.08117600 -34.69601400 1.31004300
-14.08718000 -32.88249200 1.37437400
-12.85589100 -32.73712900 1.13587900
-12.83778300 -30.97568500 1.29274000
-11.35809200 -30.86825600 0.91407800
-11.28804300 -29.17538500 1.07466100
-9.39566700 -29.08660900 0.64720100
-9.33101600 -27.40588400 0.74751300
-7.39464900 -27.32539400 0.35530100
-7.35212200 -25.64549300 0.50364700
-5.45410100 -25.55407700 0.08647100
-5.42995400 -23.88499500 0.23628200
-3.54861700 -23.80775500 -0.15907300
-3.56667200 -22.14900200 -0.03541600
-1.66796800 -22.09555100 -0.14018300
-1.62394800 -23.74311800 -0.24369800
0.24876300 -22.04806500 0.00462300
0.32119500 -23.69778400 -0.07621800
2.14517900 -21.98288000 0.30641100
2.25199800 -23.64334100 0.15995800
4.00404600 -21.88197300 0.68489000
4.10634000 -23.57928500 0.60847400
5.86199300 -21.71995500 0.94532800
5.96366200 -23.45431500 0.82209800
7.66217100 -21.49345400 1.05979900
5.69687800 -20.02841200 1.08262600
7.44764200 -19.79560900 1.35426300
8.90881800 -19.52763400 1.63969400
9.22101100 -21.22085600 1.16413900
10.08151000 -19.23291000 1.79795800
10.42439600 -21.01953100 1.43629400
10.99046000 -18.95359800 1.88307200
9.58882600 -17.57345600 1.92451500
10.39818700 -17.28150900 2.06452900
10.98880100 -17.02446000 2.09587100
9.54274300 -15.75325000 2.03019700
10.02357000 -15.51884500 2.13127100
10.41974900 -15.29814100 2.15812700
11.46140400 -16.76483200 2.11790400
10.80577600 -15.03971900 2.18095400
11.92019900 -16.50006100 2.14326500
11.18442800 -14.75538600 2.20866400
12.36222300 -16.23585500 2.17207300
11.53061800 -14.44258100 2.25236500
10.14204700 -13.62754800 2.22682200
10.48189300 -13.41124000 2.25886500
10.77561500 -13.18187000 2.34196400
9.95729400 -12.38478100 2.26454100
10.28417100 -12.30236800 2.32319600
10.00802900 -12.36219800 2.38945000
10.27240700 -11.35868800 2.34098800
9.97745600 -11.34172100 2.40852300
9.61076800 -11.30598400 2.43232700
10.32340700 -10.19923400 2.51390000
9.94559400 -10.06918300 2.52952500
9.54895300 -9.99919100 2.53450000
10.56005200 -8.76525900 2.67277500
10.15659800 -8.61888100 2.68132000
9.71540700 -8.50119000 2.67540000
10.95094800 -7.03666700 2.91398600
10.46658000 -6.94308500 2.88645900
9.98143100 -6.84428400 2.86149600
9.30045800 -8.38485700 2.67442300
9.46206600 -6.74527000 2.83189400
8.85005900 -8.28372200 2.66642700
8.92577500 -6.64579800 2.79963700
8.33372000 -8.17176800 2.64860500
8.29212900 -6.56358300 2.75627100
7.76140100 -8.07211300 2.62556400
7.55623900 -6.47572300 2.71144100
8.64406100 -5.05513000 2.85261500
7.95720200 -5.00437900 2.81221000
7.17872100 -4.92900100 2.77900700
8.13181800 -3.50265500 2.84849500
7.46982300 -3.45503200 2.81129400
6.73213700 -3.38906900 2.77433800
7.73883700 -2.00318900 2.82722400
6.99878200 -1.96096800 2.77632100
6.18259000 -1.90502900 2.69682300
7.28158700 -0.55662500 2.82704100
6.39927000 -0.50660700 2.75895700
5.21637800 -0.46884200 2.65400700
6.62058400 0.90040600 2.83262600
5.41945200 0.94827300 2.74153100
3.85859200 0.94218400 2.46070800
5.59970600 2.42472800 2.75444000
4.05654800 2.43304400 2.54292300
2.25285800 2.38223300 2.24693300
4.23503000 3.95912200 2.64149400
2.40662300 3.94169600 2.34556600
0.51995400 3.88455200 2.23289500
2.57260600 5.52180500 2.39216600
0.66022800 5.49537700 2.27015700
-1.22609200 5.46345500 2.49113400
0.82261400 7.11509700 2.30296300
-1.07207200 7.11518900 2.47035200
-2.90774800 7.13168300 2.82850600
-0.87505400 8.77005000 2.52735900
-2.69354500 8.82041900 2.85380500
-4.50681200 8.91726700 2.93894900
-2.44990800 10.51232900 2.97111500
-4.21012800 10.63151600 3.08244300
-5.89517100 10.82701100 3.17448400
-3.95772800 12.35903900 3.09736600
-5.60424700 12.53602600 3.25901800
-7.20087300 12.73774700 3.39399700
-5.37618200 14.25315900 3.24232500
-6.89167300 14.43518100 3.43528700
-8.26682200 14.59608500 3.50767500
-6.56587500 16.14439400 3.42622300
-7.84913500 16.29872100 3.47526500
-9.06376900 16.44720500 3.39341700
-7.38849900 18.03938300 3.23921200
-8.48400000 18.17309600 3.44664000
-9.56319700 18.18071000 3.82258600
-8.16278000 19.93891900 3.47038200
-9.18350900 19.86541700 3.86265500
-10.18131200 19.79592900 4.02070600
-9.17083300 21.53688000 3.91493200
-10.13609200 21.43830900 4.09571800
-10.96209600 21.37095600 4.19664000
-10.99481100 19.71635400 4.16615300
-11.61520300 21.31019600 4.28584300
-10.98735300 22.99565100 4.33284000
-11.60599000 22.95721400 4.45210200
-12.19258800 22.90248100 4.49604800
-12.22767500 21.24653600 4.40959100
-12.74658900 22.84356700 4.53727700
-12.13821300 24.42112700 4.18580600
-12.61024000 24.37730400 4.28492700
-13.06946800 24.33641100 4.23902900
-12.57363000 25.85295100 4.33253500
-13.09900200 25.85609400 4.35487300
-13.55891300 25.84343000 4.16535900
-12.92650500 27.36070300 4.03907800
-13.34530900 27.41090400 3.93681300
-13.58639800 27.44674700 3.67253100
-13.21044100 29.03985600 4.10560600
-13.50403900 29.14778100 3.70558100
-13.33256800 29.15141300 3.41774000
-13.06735100 30.73658800 3.78276000
-12.99473900 30.75196800 3.65550200
-12.57257000 30.73078900 3.42753600
-12.85583000 32.33287000 3.54438800
-12.43503100 32.31102000 3.37080400
-12.00380200 32.28599500 3.26170300
-12.30620900 33.86729400 3.49205000
-11.89828800 33.86506700 3.33522000
-11.47654600 33.86161800 3.19990500
-11.96033400 35.47688300 3.38755800
-11.51511700 35.48323100 3.28785700
-11.06323100 35.48761000 3.18656900
-11.73479700 37.17250100 3.31077500
-11.25708300 37.17683400 3.20509300
-10.77003400 37.18426500 3.07579000
-11.43803300 38.88386500 3.27357500
-10.93324600 38.86875900 3.13246100
-10.33330100 38.83577000 3.06272900
-10.85798900 40.50393700 3.12474000
-10.27758700 40.44514500 3.07035800
-9.53667000 40.39405800 3.01972900
-10.23684600 42.05584700 3.01933300
-9.55486200 42.01861600 2.94294700
-8.49570000 41.99348400 2.82261600
-9.57264600 43.65914900 2.88392600
-8.58760700 43.66717500 2.86512700
-7.37547200 43.67576600 2.60408000
-8.80910000 45.38591000 2.90968300
-7.62878300 45.40693700 2.66484000
-6.02090000 45.37132300 2.32624800
-7.92391500 47.12655600 2.75441000
-6.25273000 47.07417300 2.35255400
-4.44095100 46.99464400 2.03654500
-6.48706000 48.74601700 2.36753800
-4.64176800 48.66162100 2.01091000
-2.77529600 48.59016400 1.91535900
-4.82826100 50.31568900 1.98054500
-2.94116300 50.26545700 2.02076700
-1.18626900 50.24540700 1.99879400
-3.09319000 51.93351700 1.87657100
-1.40032900 51.94226100 1.92839000
0.00565800 51.98495500 2.06443800
-1.59331400 53.64939900 1.89729300
-0.32167100 53.67665100 1.77272000
0.84266600 53.74189800 2.07670600
-0.62687200 55.39329500 1.68171700
0.59848500 55.43727100 2.05131500
1.73804600 55.53346300 2.35145500
0.51312200 57.16291800 2.12821900
1.64618800 57.24183700 2.37568600
2.50761900 57.30918900 2.51515200
1.57458600 58.94525100 2.37391600
2.48881600 58.97496000 2.51707400
3.33982900 58.99426300 2.59947200
3.22801900 57.36866800 2.55711300
3.83640800 59.00865200 2.57621700
3.42651800 60.67091400 2.52232300
3.88884100 60.65974400 2.50166300
4.28201400 60.64897200 2.47200000
4.26623100 59.01695300 2.58183300
4.66987100 60.63233900 2.43904100
4.36176000 62.35374500 2.61610400
4.75789000 62.32252500 2.62184100
5.14281900 62.29377700 2.60639900
5.05195300 60.61105300 2.42265300
5.50531900 62.27049300 2.54960600
5.43108500 60.58967600 2.43302900
5.85906900 62.24412500 2.49830600
5.81792900 60.59129300 2.44883700
6.18772600 62.20181300 2.58995000
6.16383300 60.59318500 2.58952300
5.99192300 62.23045300 2.80320700
5.89358600 60.58882100 2.79002400
5.65895000 62.29225200 2.91917400
5.51989100 60.58853100 2.84114000
5.31080200 62.33744800 2.97917100
5.14646100 60.58140600 2.87501500
4.95069800 62.39152500 3.01222200
4.77624600 60.57925400 2.91087300
4.59048800 62.44349700 3.04017600
4.41280700 60.58201600 2.94612100
4.30960000 58.86494400 3.07685800
4.05778800 60.57441700 2.96626300
3.91131100 58.83131400 3.09379600
3.70962600 57.18620300 3.10438500
3.47984600 58.77098100 3.10377500
3.26192200 57.10507200 3.11994900
3.08916000 55.48143000 3.17726100
2.75980900 56.99574300 3.13887000
2.48773100 55.31764200 3.16633600
2.24889300 53.71177700 3.18721000
1.87824700 55.20512400 3.15116900
1.52789600 53.60307300 3.16166700
1.14949500 52.02623000 3.15885900
0.97335200 53.61369300 3.15000900
0.40691900 52.19184900 3.12071200
0.26721700 50.66931200 3.10951200
1.14485100 50.60054000 3.13346800
1.46156200 49.12446600 3.26692200
1.92364600 47.77417000 3.37809700
2.28694800 46.45961000 3.38926700
2.47326600 45.04426600 3.43269300
1.33569400 43.65831000 3.40989700
2.29512500 43.57017500 3.48927300
1.15433800 42.12496900 3.40351800
2.10652500 42.07086200 3.46888700
1.10440700 40.56532300 3.32939100
2.03986500 40.52287300 3.47697400
1.30265300 38.81431600 3.37046800
2.14681000 38.80674700 3.44679200
1.36799100 36.91146900 3.37486200
2.24712500 36.91992200 3.41935700
1.34420300 34.93553200 3.37303100
2.28577100 34.95613100 3.43177800
3.45669100 34.99290500 3.50486700
2.43448500 33.02098100 3.41899100
3.58295700 33.05491600 3.53218100
4.57260000 33.11088600 3.56166100
3.80880300 31.20788600 3.49049400
4.75569400 31.29992700 3.52275100
5.56563300 31.39256300 3.53804000
4.92584700 29.52627600 3.50383000
5.81009000 29.65754700 3.50480600
6.45058400 29.76052900 3.52153000
5.91960800 27.92034900 3.47419700
6.64771200 28.04736300 3.52034000
7.10912400 28.12962300 3.54512000
6.73685700 26.31684900 3.45155300
7.21068700 26.41470300 3.48689200
7.65643000 26.51406900 3.49345400
7.41311000 24.65724200 3.51991200
7.82668400 24.76797500 3.54142700
7.92040700 22.85839800 3.51365600
8.36698800 22.99365200 3.57383700
8.72959200 21.00654600 3.58692900
9.22077100 21.10701000 3.67768800
9.10631100 19.24992400 3.60731500
9.67039200 19.29518100 3.68431100
8.92854200 17.39036600 3.56672600
9.39598000 17.38389600 3.64717100
8.81447300 15.53239400 3.49952700
8.34274000 17.39814800 3.45649700
8.29054400 15.56462100 3.42253100
8.31751700 13.94981400 3.38832100
8.92320400 13.91424600 3.47883600
8.35013100 12.34925800 3.37764000
9.09560900 12.41609200 3.55610600
8.34189100 10.66072100 3.38175900
9.16073900 10.74536100 3.52256700
8.36165000 8.90556300 3.31599400
9.27595800 8.98759500 3.43278500
8.41542500 7.16151400 3.22062700
9.32414900 7.20167500 3.35459900
10.01890300 7.23764000 3.45436100
9.27409300 5.42773400 3.26893600
9.93299800 5.40200800 3.42738300
10.54952000 5.38786300 3.55015500
9.67342700 3.61894200 3.22801200
10.28608000 3.52647400 3.32011400
10.86123800 3.44978300 3.42283600
9.92399100 1.90239000 3.15617300
10.44797800 1.78379800 3.19053600
10.97448100 1.66153000 3.22801200
9.95949800 0.46130400 3.11164800
10.44627100 0.35055500 3.15187000
9.57018800 -0.73754900 3.03572100
10.07144600 -0.80471800 3.08616600
9.37800100 -2.03358500 2.97438000
9.82839100 -2.03184500 3.02049200
9.37232100 -3.56211900 2.92793200
9.82042600 -3.54841600 2.96574400
10.25107300 -3.52305600 3.00538600
10.72348900 -3.54063400 3.04960600
9.86342000 -5.12872300 2.94191000
10.36142300 -5.13836700 2.98677000
10.84414600 -5.14421100 3.03224200
11.32776400 -5.15797400 3.08064200
11.17566000 -3.59446700 3.09330700
11.55577400 -3.62674000 3.13258300
11.80324100 -5.16786200 3.12269600
12.27215700 -5.17120400 3.15141300
11.79841700 -3.63330100 3.16084300
11.43229800 -7.18211400 2.92738300
11.92966900 -7.35803200 2.92604000
11.97105300 -7.35995500 2.85990900
12.13556400 -5.15879800 3.02003500
10.91483600 -8.94862400 2.64549200
11.08624900 -9.00793500 2.57087700
10.74489300 -8.81034900 2.52891500
11.46744800 -7.18000800 2.85801700
10.56301600 -10.26847800 2.45182800
10.19123600 -10.14817800 2.31843500
9.81347800 -10.04167200 2.23185700
10.39671800 -8.66455100 2.37925700
9.91902500 -11.29081700 2.25541700
9.57227000 -11.28649900 2.21315000
9.20253300 -11.27905300 2.17961100
9.43004300 -9.94229100 2.18498200
9.62763700 -12.48130800 2.22749300
9.28068100 -12.56726100 2.18455500
8.92867600 -12.63394200 2.13203400
8.82027900 -11.26930200 2.13804600
9.82038200 -13.80998200 2.18989500
9.46517700 -13.96716300 2.13996900
9.11207900 -14.11668400 2.09120200
8.57960400 -12.70585600 2.07881100
8.17111500 -12.77977000 1.99623100
8.03987600 -11.26120000 2.02464300
8.43685300 -11.25688200 2.09465000
8.71478400 -14.28001400 2.02577200
8.09655300 -14.45753500 1.87205500
7.72014900 -12.84033200 1.89366100
8.83792200 -16.02087400 1.92570500
7.91112000 -16.27294900 1.64131100
7.26925900 -14.62483200 1.71150200
8.49817600 -17.87677000 1.68898000
7.09246200 -18.14035000 1.42814600
6.65792600 -16.48620600 1.25627100
5.08074700 -16.65773000 1.27577200
4.71899900 -14.89622500 1.25343300
6.12462300 -14.75454700 1.34434500
5.43957600 -18.35923800 1.19114700
3.66008100 -18.52150000 0.84965500
3.43003800 -16.81282000 0.84004200
3.86283800 -20.19960000 0.74534600
2.01453900 -20.31123400 0.36515800
1.83190800 -18.62942500 0.49665800
-0.00876300 -18.68852200 0.19633500
1.62897000 -16.91647300 0.58519000
0.13320300 -20.37966900 0.12278700
-1.75219800 -20.42834500 -0.02793900
3.15313800 -15.04864500 0.85816900
4.42383900 -13.12037700 1.36924700
5.59789400 -11.26298500 1.69395400
5.73582900 -13.02386500 1.59202500
6.72433800 -11.24739100 1.83503700
6.90384400 -12.91828900 1.76771500
7.61273500 -11.24612400 1.95927400
6.80649500 -9.57669100 1.95930500
7.74744300 -9.65338100 2.03340100
8.25487600 -9.72077900 2.09379600
7.98603500 -8.05639600 2.24198900
8.68860700 -8.16072100 2.20643600
9.13534100 -8.27076700 2.20811400
8.65156800 -9.78929100 2.12867700
9.58020700 -8.38992300 2.22038200
9.03889600 -9.85260000 2.17243900
10.00114400 -8.52122500 2.25633200
10.12733000 -6.82853700 2.69566300
10.54202900 -6.93348700 2.80336000
11.00249600 -7.05003400 2.85215700
10.75143700 -5.08540300 2.91145300
11.21661900 -5.12356600 2.94377100
11.68232100 -5.14439400 2.97016900
10.51158600 -3.43679800 2.96189900
10.13260200 -3.43869000 2.89128100
10.28782900 -5.06707800 2.85191300
9.80614200 -5.02999900 2.75727800
9.66787600 -6.73631300 2.59660300
9.11119200 -6.62501500 2.50544700
9.29841500 -5.09222400 2.89845300
8.76237800 -3.53605700 2.88710000
8.92761300 -2.03533900 2.92826800
8.37229800 -2.02226300 2.88026400
9.12619500 -0.66995200 2.99388100
8.69700200 -0.64415000 2.95057700
8.07871300 -0.61360200 2.89106700
9.06726600 0.61200000 3.02885400
8.41670900 0.72360200 2.97224400
7.57946100 0.82278400 2.90504400
8.79039700 2.13781700 3.05763200
7.90165400 2.26005600 2.98487800
6.86910500 2.35838300 2.90068000
8.15928000 3.81221000 3.05882200
7.07924000 3.89405800 2.97435000
5.76896600 3.94311500 2.83519000
7.22546700 5.49433900 3.03163100
5.95753000 5.51207000 2.95246900
4.38910800 5.52485700 2.73338300
6.04778200 7.13414000 3.01719600
4.52754900 7.12731900 2.81626900
2.70761000 7.11869800 2.52882400
4.62681300 8.76802100 2.89802500
2.84671700 8.74928300 2.60325600
0.97993200 8.75427200 2.33259600
2.95553900 10.41139200 2.69084100
1.13378400 10.41798400 2.35551400
-0.70069400 10.44574000 2.52058400
1.25974900 12.10047900 2.45475700
-0.53524300 12.14025900 2.51634200
-2.24030400 12.21904000 3.02580200
-0.40206800 13.84452800 2.55488600
-2.08745500 13.93896500 3.01060500
-3.76890500 14.08062700 3.21958900
-1.96468300 15.66139200 3.12214600
-3.61494000 15.81030300 3.33491500
-5.18990600 15.98384100 3.36347900
-3.48283900 17.55438200 3.24800100
-4.98113200 17.76577800 3.35102800
-6.28002100 17.93124400 3.44166500
-4.81998300 19.56813000 3.47480700
-6.17249600 19.83825700 3.50410400
-7.21282500 19.94279500 3.24266000
-6.28968300 21.78428600 3.59880000
-7.30588800 21.67729200 3.46742200
-8.23806700 21.72030600 3.63160700
-7.43529400 23.12953200 3.59754900
-8.64800900 23.29420500 3.45341500
-9.44455600 23.09320100 3.81498700
-8.50056400 24.54762300 3.44282500
-9.45072500 24.51373300 3.68806400
-10.29988000 24.53874200 4.08921800
-10.23166600 23.02619900 4.18144200
-10.99071400 24.49794000 4.19953900
-10.27824300 25.86050400 3.77070600
-10.98148300 25.87187200 3.80448900
-11.54713700 25.84544400 3.97111500
-11.58833600 24.44981400 4.16322300
-12.05656300 25.84597800 4.17997700
-11.43289500 27.22485400 4.09477200
-11.96690300 27.26551800 4.05500800
-12.46300400 27.31129500 4.06071400
-11.75683100 28.79090900 4.35057000
-12.26979000 28.87602200 4.37715100
-12.77354300 28.95623800 4.35398800
-11.96638800 30.51850900 4.47270200
-12.44881000 30.59658800 4.39897100
-12.80858500 30.67192100 4.13874800
-12.20991400 32.23262000 4.30394000
-12.63027500 32.28424100 4.16810600
-12.96637600 32.32081600 3.88523800
-12.49671100 33.84266700 4.02482600
-12.90696200 33.86183200 3.88536000
-12.70207100 33.86744700 3.66545100
-12.87189000 35.44163500 3.83470100
-12.76655500 35.45295700 3.60633800
-12.38105700 35.46804800 3.48130800
-13.06850100 37.14241000 3.69163500
-12.64983600 37.16099500 3.52561900
-12.20038500 37.16923500 3.41282600
-12.88804500 38.98387100 3.62764000
-12.40979300 38.95265200 3.52177400
-11.92198100 38.92021200 3.42204300
-12.32583100 40.72224400 3.57142600
-11.85370200 40.63867200 3.42561300
-11.36688900 40.56449900 3.28352300
-11.55701400 42.19126900 3.34568800
-11.12567800 42.13032500 3.19956900
-10.69906100 42.10136400 3.08451800
-11.04550100 43.67350800 3.19691400
-10.61112900 43.66667200 3.06562800
-10.16760200 43.65727200 2.93171700
-10.70121300 45.20903000 3.30702200
-10.25012100 45.26991300 3.17503300
-9.66798700 45.32951400 3.05137600
-10.64448800 46.93241900 3.22715700
-10.06382300 47.02681000 3.04167100
-9.20654200 47.10609400 2.93470700
-10.55827000 48.72630300 2.98121600
-9.56389100 48.79240400 2.95564200
-8.18421100 48.81126400 2.80775400
-9.80691400 50.50103800 3.07508800
-8.42580700 50.47584500 2.79420400
-6.69080600 50.39448500 2.39350900
-8.58669900 52.07379200 2.78950500
-6.86780800 52.01023900 2.35935900
-5.01260300 51.95732100 1.93132000
-7.04283800 53.59108000 2.30171200
-5.19010100 53.58888200 1.97618100
-3.28177900 53.60745200 1.85353100
-5.40951100 55.21385200 1.94960000
-3.54293900 55.27479600 1.86158700
-1.91055400 55.33491500 1.87327500
-3.84917300 56.94374100 1.82286000
-2.20477200 57.02415500 1.85188300
-0.83723300 57.08976700 1.95561200
-2.48055400 58.73201000 1.84867800
-0.95026500 58.81959500 1.91658000
0.45521600 58.89802600 2.18363900
-1.09243900 60.55485500 1.94917300
0.41729600 60.63822900 2.09349000
1.56490600 60.67088300 2.38462800
0.39360000 62.37925700 2.07771300
1.69029000 62.41737400 2.36647000
2.65228000 62.42472800 2.48170400
2.56216500 60.68138100 2.49452200
3.48423100 62.41914400 2.54789700
2.72898200 64.12867700 2.63041700
3.52563400 64.14024400 2.68687400
4.17810500 64.15281700 2.69368000
3.94357600 62.38864100 2.58494500
4.63977000 64.15397600 2.70677200
4.06260200 65.87797500 2.78288200
4.59207300 65.93104600 2.79258700
5.06721600 65.98664900 2.79447900
5.06971100 64.14856000 2.72996500
5.53069000 66.03320300 2.79808000
5.50169100 64.14817800 2.74732900
5.97137900 66.11488300 2.78343200
5.93588700 64.12876900 2.73985300
6.40357900 66.21479800 2.76463300
6.33767400 64.06634500 2.72850000
6.78946000 66.33073400 2.79222100
6.69986100 63.98870800 2.80680800
6.60941400 66.29086300 3.07295200
6.58286200 64.03721600 3.06941200
6.24735900 66.20709200 3.25007600
6.20695800 64.13969400 3.16505400
5.79430500 66.17633100 3.30430600
5.80920700 64.22810400 3.19914200
5.35881700 66.15132100 3.32090700
5.38011500 64.29441800 3.22361700
4.91416300 66.14347800 3.34730500
4.95471700 64.34655800 3.23399300
4.49215600 66.14283800 3.35627700
4.53261100 64.40774500 3.23112500
4.23167900 62.49862700 3.03755200
4.07599500 64.46327200 3.23283400
3.86020800 62.54368600 3.02986100
3.68416900 60.54956100 2.99998400
3.47554500 62.57826200 3.01686100
3.31055200 60.52470400 3.03370600
3.03824000 58.70277400 3.10762000
2.85693800 60.47905000 3.06672600
2.55566700 58.64961200 3.11012200
2.23169200 56.89874300 3.13780200
2.05843600 58.59577900 3.11390700
1.72387200 56.79716500 3.11878900
1.30896100 55.14500400 3.17005900
1.09468000 56.75936900 3.17924500
0.76860500 55.05635100 3.42420900
0.78740000 53.58592200 3.56480400
0.94979000 55.15879800 3.72947700
1.42915800 53.65968300 3.72776800
1.59569600 52.15283200 3.63737500
0.79812700 52.14634700 3.51231400
1.26967900 50.56861900 3.55519100
0.49739600 50.65675400 3.40147400
1.23992100 52.16340600 3.80397000
1.20860400 50.55213900 3.83885200
0.18384100 52.13697800 3.80473300
0.27570600 50.59965500 3.83158800
0.08957800 48.91386400 3.97779800
-0.81444600 50.51336700 3.96772700
-0.91363600 48.86683700 3.97932400
-1.01030800 47.16752600 4.05690000
-0.13208700 47.12117000 4.04292300
-0.99463700 45.47419700 4.14305100
-0.12529300 45.37486300 4.09602300
-1.06782600 43.83555600 4.14787300
-0.16046000 43.75708000 4.10926800
0.74181700 43.63874800 3.98756400
0.48428300 43.91980000 3.37156700
-0.54487900 42.18608100 4.04499800
-0.06397700 42.19177200 3.70100400
0.37438700 42.20112600 3.39869700
-0.24197100 40.57438700 3.49064600
0.37766400 40.58378600 3.30616700
-0.00980500 38.78685000 3.53749100
0.59421800 38.80213900 3.32569900
0.01476800 36.89656100 3.51850900
0.65712600 36.90492200 3.34086600
-0.15131700 34.99775700 3.44914200
0.56434000 34.95333900 3.34797600
-0.30198600 33.05056800 3.34181200
0.49810900 33.02339200 3.25264000
1.36538200 33.00669900 3.30360400
0.46507000 31.09529100 3.19099400
1.48280100 31.09661900 3.24934400
2.68421300 31.14024400 3.35707100
1.61560500 29.23631300 3.16630500
2.90741800 29.30958600 3.37117000
3.97838500 29.41413900 3.45341500
3.05928100 27.50505100 3.30455000
4.12682600 27.63877900 3.42134100
5.09321100 27.78068500 3.44947800
4.31734000 25.84896900 3.32334900
5.26330100 26.01960800 3.39781200
6.10915300 26.18490600 3.44374100
5.47343200 24.20449800 3.35643000
6.35547900 24.38816800 3.43812500
6.96417100 24.54029800 3.46351600
6.72735700 22.55885300 3.37187200
7.45297000 22.72338900 3.50938400
7.20123400 20.78662100 3.36021400
8.10349400 20.90300000 3.48356600
7.47382100 19.12521400 3.38710000
8.40300300 19.19718900 3.50441000
7.39915400 17.37989800 3.34062200
6.32509000 19.03031900 3.30369500
6.25162000 17.33479300 3.27058400
6.15703500 15.59433000 3.25413500
7.33988100 15.60784900 3.31895400
6.12642000 13.89659100 3.21513300
7.29552000 13.93335000 3.28920000
6.09745300 12.20864900 3.16148400
7.27859600 12.27429200 3.26374800
6.07492200 10.50297500 3.11467000
7.27551800 10.57408100 3.24189700
6.06407600 8.80105600 3.05738800
7.29536000 8.84550500 3.19306900
7.29447100 7.14798000 3.11299100
8.35729500 5.46945200 3.12815800
9.04423600 3.71836900 3.14778100
9.36404300 2.01359600 3.10588000
9.50802900 0.53562900 3.06968700
4.67182100 10.44512900 2.94679200
4.69682600 12.14509600 2.99348400
3.04546600 12.10026600 2.74150100
4.76264700 13.84895300 3.04347200
3.13980200 13.80107100 2.78459100
1.37571200 13.79661600 2.53230300
3.23905300 15.50186200 2.89060900
1.47162900 15.49366800 2.56025700
-0.30960700 15.55304000 2.56092800
1.53586300 17.17152400 2.64497300
-0.24123700 17.24099700 2.65138200
-1.93040900 17.36975100 3.04185500
-0.21430500 18.88966400 2.73963900
-1.81940900 19.02943400 3.11402900
-3.30137000 19.25431800 3.34687800
-1.65883500 20.57554600 3.20109500
-3.08937900 20.80061300 3.41294800
-4.68558800 21.17497300 3.44728100
-4.49983500 22.42514000 3.46028100
-6.07961200 22.86590600 3.65736400
-4.25801700 23.49578900 3.50120500
-6.02613300 24.03663600 3.64131100
-7.56834700 24.56202700 3.67237800
-5.55045600 25.00444000 3.26036000
-7.06281600 25.54051200 3.30128500
-8.25381400 25.75535600 3.37492300
-6.60493400 26.73622100 3.31907600
-7.99408200 27.00158700 3.46238700
-9.09853600 27.03839100 3.86427300
-9.40164900 25.86964400 3.56907600
-10.08241600 27.10437000 4.05027700
-8.83999200 28.34471100 3.99137900
-9.86053400 28.47238200 4.17811600
-10.62367500 28.58770800 4.24415600
-10.85498300 27.18443300 4.10926800
-11.23395100 28.69227600 4.31175200
-10.31406700 30.21385200 4.23646500
-10.86418200 30.32316600 4.33921800
-11.42603600 30.43061800 4.38792400
-10.69221000 32.02876300 4.19310000
-11.23087600 32.10582000 4.23081900
-11.72692800 32.17024200 4.30097900
-11.08582600 33.76858500 4.01353400
-11.58537600 33.79219100 3.98695300
-12.04733900 33.82205200 4.02571100
-11.58042000 35.45327800 4.08610500
-12.03880200 35.44957000 4.06443800
-12.46429300 35.44465600 3.99949600
-12.18550800 37.12797500 4.43354800
-12.63126300 37.12348900 4.31483400
-13.00094500 37.12634300 4.05204700
-12.71113900 38.94358800 4.63166800
-13.09374100 38.96727000 4.33634900
-13.28192800 38.99723800 3.90269400
-12.90262900 40.84809900 4.59413100
-13.04647000 40.86381500 4.12812800
-12.77215500 40.80629000 3.75309700
-12.59709100 42.45529200 4.13743600
-12.32891000 42.37274200 3.79173300
-11.96712000 42.27906800 3.53239400
-12.10890500 43.69947800 3.80613700
-11.84170800 43.68890400 3.50358600
-11.46427400 43.67811600 3.32267700
-11.99121800 45.07081600 3.68824700
-11.57379800 45.11933900 3.55809000
-11.14057400 45.15895100 3.43650800
-12.04428000 46.65496800 3.56993100
-11.58844700 46.74461400 3.50529500
-11.12497600 46.83665500 3.38639800
-12.13592400 48.45765700 3.50148000
-11.64573600 48.53761300 3.42051700
-11.15734800 48.63261400 3.21864300
-11.86739600 50.32298300 3.70961000
-11.37903900 50.40174900 3.46946700
-10.86233800 50.47607400 3.15058900
-11.47935000 52.11340300 3.58000200
-10.92955700 52.14894100 3.35725400
-9.97097700 52.13316300 3.11439500
-10.98445400 53.67155500 3.34117100
-9.99385500 53.64471400 3.08210700
-8.72142300 53.62834200 2.76298500
-10.00450800 55.06066900 3.07045000
-8.81766400 55.11296100 2.74494900
-7.19615100 55.16362000 2.39939900
-8.96782200 56.67155500 2.77030900
-7.37572000 56.77580300 2.44136000
-5.64278300 56.86424300 1.98524400
-7.58319800 58.44981400 2.47544800
-5.86985300 58.54083300 2.05378700
-4.13413100 58.63639800 1.78712400
-6.10777200 60.24241600 2.07167000
-4.39415600 60.34001200 1.75849900
-2.71146700 60.44665500 1.84724400
-4.61651500 62.04585300 1.78059400
-2.89249500 62.15483100 1.77787800
-1.19897700 62.27601600 1.83259600
-3.06523000 63.84375000 1.75547800
-1.31108200 63.96644600 1.65300000
0.38604300 64.06010400 2.09596200
-1.45234600 65.60726900 1.82167000
0.32213300 65.67419400 2.13740500
1.70004000 65.71498100 2.50627100
1.76538000 64.10734600 2.41511500
2.69974400 65.75798000 2.71104400
1.50987500 67.32804900 2.50169300
2.46098800 67.38168300 2.74790900
3.08237000 67.46662900 2.82936100
3.53085200 65.82368500 2.77281200
3.60731000 67.55967700 2.82246400
2.78845100 69.15502900 2.83787500
3.29997900 69.22964500 2.85783400
3.80047900 69.30142200 2.86494400
4.13861600 67.65330500 2.81230100
4.24555300 69.35823100 2.88380400
4.58879400 67.74058500 2.82057200
4.67466500 69.41487100 2.87922600
4.98025400 67.83021500 2.83165000
5.09828700 69.46675100 2.89289800
5.37279000 67.91909800 2.84358200
5.49863500 69.51911900 2.92793200
5.76514900 68.01960800 2.85295100
5.79957700 69.54756200 3.12950100
6.13687200 68.12818900 2.95384200
5.51868200 69.50726300 3.36662300
5.85617700 68.04698200 3.20668000
5.13748800 69.45890800 3.46034200
5.49749900 67.97572300 3.33039800
4.73135300 69.40516700 3.45454400
5.12964300 67.91093400 3.40690600
4.32289800 69.35258500 3.44181800
4.75107500 67.85865800 3.43412800
3.90814100 69.29936200 3.42402600
4.36069400 67.81753500 3.44160400
3.48280800 69.24194300 3.43086200
3.96175700 67.78129600 3.43556200
3.07012100 69.18757600 3.44163500
3.55909800 67.73985300 3.43699600
4.07234300 66.14546200 3.35758900
3.09383900 67.69368000 3.43220500
3.56983300 66.15513600 3.34904500
3.62152600 64.50643900 3.22859200
2.86993900 66.13134800 3.31691000
3.06498800 64.51275600 3.24568200
3.06116400 62.55452000 3.01344300
2.38587100 64.42976400 3.18724000
2.55306700 62.46049500 3.01921100
2.37478000 60.43188500 3.09400900
1.97226100 62.32307400 3.09599300
1.80800900 60.41859400 3.13142400
1.51098900 58.56031800 3.19096300
1.21767300 60.39257800 3.38603200
0.96888300 58.51670800 3.48625200
0.59228800 56.74113500 3.48808300
0.19579800 58.44780000 3.76820300
0.03429900 56.71278400 3.74861100
0.27578500 55.13824500 3.81660400
-0.77689100 56.68014500 3.84968500
-0.54673100 55.13710000 3.85569700
-0.16274700 53.64689600 3.86940000
0.72540000 53.66090400 3.82740800
-1.57405400 55.11125200 3.88386500
-1.27456200 53.60569800 3.87016300
-0.97852200 52.08580000 3.89265400
-2.54529300 53.56105000 3.90525800
-2.28018100 52.03700300 3.96043400
-2.10718400 50.46778900 4.04478400
-3.86352400 52.03691100 3.96083000
-3.63817700 50.47770700 4.02211000
-3.45045200 48.88206500 4.06425500
-2.00420900 48.85859700 4.04536400
-3.33826700 47.25776700 4.17915300
-2.00413600 47.21319600 4.09510800
-3.30908100 45.59169000 4.15196200
-2.00691700 45.54887400 4.20524600
-3.32179000 43.91719100 3.90858400
-2.05332800 43.88664200 4.14888000
-3.37547400 42.21537800 4.08885200
-2.23634600 42.22894300 4.12016300
-1.31445600 42.22126800 4.10618600
-2.29306500 40.47200000 4.07188400
-1.40603500 40.50491300 4.06547500
-0.74823500 40.54727200 3.89439400
-1.27729100 38.71536300 4.09962400
-0.54952900 38.77287300 3.95518500
-1.24589200 36.89796400 4.08912600
-0.53402400 36.90864600 3.92250000
-1.43921200 35.04576100 4.10151600
-0.70472200 34.98875400 3.93809500
-1.75650900 33.09260600 4.01457200
-0.97601600 33.06140100 3.80723500
-2.18798300 31.14672900 3.83338900
-1.39478800 31.13664200 3.45582600
-0.49773900 31.11576800 3.26332100
-1.58869600 29.16001900 3.52073600
-0.72352700 29.17883300 3.23292500
0.37241100 29.20115700 3.13829000
-0.84178800 27.28135700 3.29185500
0.25189700 27.33100900 3.09458900
1.65113500 27.39288300 3.14415000
1.62816300 25.57048000 3.02552800
3.14485100 25.68824800 3.26023800
1.56932700 23.77336100 2.94929500
3.17208800 23.87791400 3.18769800
4.47732500 24.03332500 3.29270900
3.25206300 22.12835700 3.09016400
4.67000900 22.25166300 3.26594500
5.79412800 22.40148900 3.31883200
4.89399800 20.56016500 3.18318200
6.15541200 20.67044100 3.30775400
5.00605900 18.92424000 3.16117800
3.35935100 20.45372000 3.01560900
3.37312600 18.82897900 2.97032100
3.34288100 17.18598900 2.93122800
4.94833700 17.26533500 3.14476000
4.82195200 15.55238300 3.12391600
1.53684300 18.81680300 2.71263100
1.50463000 20.43391400 2.78483600
-0.20602700 20.48918200 2.73811300
1.50387300 22.06456000 2.85850500
-1.65746600 27.24871800 3.66215500
-2.39865800 29.15501400 3.81092800
-2.49419900 27.24665800 3.79817200
-2.64068700 25.66358900 3.55015500
-3.47653700 27.29750100 3.80351200
-3.72091000 25.70387300 3.62843300
-3.99106900 24.49763500 3.51615900
-5.13863300 26.04885900 3.52070600
-4.77777800 27.48544300 3.81117200
-6.19697900 27.89353900 3.79380800
-4.43809400 29.27792400 3.89912400
-5.82624000 29.50827000 3.94410700
-7.29251800 29.76135300 3.99098200
-7.65457100 28.27117900 3.60084500
-8.52564500 29.91813700 4.09611500
-6.94726100 31.57658400 4.02000400
-8.33190800 31.72622700 4.13005000
-9.29764100 31.83256500 4.22990400
-9.57051000 30.06749000 4.18992600
-10.14285900 31.95198100 4.20481800
-9.16630100 33.64360000 4.28523200
-10.02239500 33.70253000 4.33348100
-10.58189300 33.73919700 4.19258100
-9.91707500 35.45393400 4.13581800
-10.54725900 35.45256000 4.13298000
-11.07702200 35.45448300 4.10170000
-10.60891600 37.18873600 4.34220900
-11.18318100 37.17617800 4.28410300
-11.70116300 37.15272500 4.38020300
-11.19539500 38.91801500 4.63023400
-11.72516500 38.92448400 4.68052600
-12.23810100 38.93443300 4.72428900
-11.45315600 40.67739900 4.71788000
-11.96952700 40.73878500 4.79484500
-12.47124000 40.78886400 4.82682800
-11.59164000 42.26002500 4.63295000
-12.02914700 42.35372900 4.65187000
-12.44000100 42.44059800 4.51197800
-11.76103100 43.69198600 4.59709100
-12.09685400 43.69603000 4.44111600
-12.27260500 43.70517000 4.13459800
-12.33942700 44.97084000 4.69319100
-12.53442700 44.94920300 4.29484500
-12.35788600 44.99971000 3.91581700
-12.94590700 46.41841100 4.31373600
-12.87093300 46.44517500 3.87492300
-12.48679600 46.55247500 3.64592000
-13.42127500 48.16008000 4.11122100
-13.04666400 48.26962300 3.82252500
-12.61038900 48.37306200 3.62559500
-13.27269300 50.10774200 4.19584600
-12.82532400 50.18042000 4.05198600
-12.37211900 50.24708600 3.86524900
-12.96775300 51.96197500 4.00245600
-12.47956700 52.01799000 3.93421900
-11.98300100 52.07762100 3.82841500
-12.59654900 53.62158200 3.92329400
-12.08877100 53.67483500 3.81901500
-11.56330400 53.69288600 3.62413000
-12.26649000 55.07955900 3.14955100
-11.63828600 55.11671400 3.11463900
-10.94744400 55.03611800 3.18940700
-11.66559900 56.50065600 3.38920600
-11.06906400 56.53945900 3.23698400
-10.14542700 56.59538300 3.07673600
-11.27325700 58.19834900 3.03379800
-10.36387500 58.26808200 3.06855700
-9.14504500 58.35186800 2.83058100
-10.53508700 60.00965900 3.12748700
-9.36803000 60.07374600 2.85783400
-7.80249700 60.15608200 2.50810200
-9.56565000 61.78755200 2.91670200
-8.01882800 61.86419700 2.49885500
-6.33878200 61.94810500 2.06800800
-8.23678500 63.56504800 2.51063500
-6.56205600 63.64843800 2.09428400
-4.82919600 63.74052400 1.73872300
-6.79847200 65.34051500 2.12242100
-5.04488700 65.42240900 1.74287400
-3.24829600 65.51582300 1.75715600
-5.26217900 67.10197400 1.69752500
-3.44174700 67.17994700 1.75471500
-1.61944900 67.25138900 1.81248400
-3.63606400 68.85557600 1.77357500
-1.81822700 68.91273500 1.91114800
-0.05346200 68.95750400 2.09556600
0.15798900 67.29376200 2.12382500
1.24854800 69.00508100 2.49302600
-0.24190600 70.64296000 2.15889000
1.00180300 70.69581600 2.51448000
1.86583400 70.74858100 2.73692300
2.12980600 69.07243300 2.73869300
2.56214100 70.79882800 2.84431400
1.73476300 72.39396700 2.73036200
2.53943400 72.42892500 2.88261400
3.05971200 72.45134000 2.90995800
3.10083300 70.83702100 2.88075200
3.56652400 72.47377000 2.93135000
3.63647900 70.87480200 2.91761800
4.06176300 72.49418600 2.95588700
4.12100700 70.91517600 2.91474900
4.53721900 72.51646400 2.99208000
4.57339400 70.94639600 2.92732200
5.00419500 72.53138700 2.96485900
5.02487300 70.97363300 2.94627400
5.45375200 72.54386900 2.98124700
5.47703100 71.00206000 2.97734000
5.57981600 72.54048200 3.27534500
5.74941000 71.00708000 3.24394200
5.15033200 72.50642400 3.42189000
5.33628600 70.96501200 3.44133000
4.69038700 72.46676600 3.45637500
4.88407200 70.91755700 3.45329300
4.22093300 72.42054700 3.46363800
4.43547500 70.86709600 3.43403600
3.73967300 72.36637900 3.49357600
3.98180900 70.80497700 3.43125900
3.24572900 72.30806000 3.48030100
3.53898100 70.74401900 3.42671200
2.71547600 72.24066200 3.48509200
3.06642400 70.66841100 3.40330500
2.07926300 72.15759300 3.43177800
2.56804200 70.57193000 3.36524900
1.43488200 72.08201600 3.32240300
1.94293700 70.44361900 3.31587200
2.52682800 69.10176100 3.36357100
1.24694000 70.29373200 3.28016600
1.78250800 68.97877500 3.28816200
2.39063200 67.62876900 3.35835200
2.03604200 66.02301000 3.24827500
1.63470900 64.15443400 3.06196600
0.94684100 63.81352200 3.25044200
1.32877300 62.16697700 3.44862300
0.21043700 63.65683000 3.67335500
0.49996300 62.03529400 3.80134600
0.34944400 60.30181900 3.74925200
-0.73253200 61.93711900 3.86457800
-0.78147600 60.21113600 3.88252200
-0.83518700 58.39057900 3.88276600
-2.07906200 60.12008700 3.95878600
-2.01046100 58.33927900 3.88374300
-1.81389900 56.65451000 3.88121000
-3.33427900 58.30387900 3.95814500
-3.09078900 56.63314800 3.99787900
-2.80547800 55.06697100 3.93901000
-4.61266200 56.58769200 4.06474300
-4.37028000 55.02880900 4.00154100
-4.11942600 53.54499800 3.96183800
-6.08745100 55.01036100 3.89543100
-5.92870200 53.61622600 3.95326200
-5.70041200 52.13093600 4.15232800
-7.66313500 53.70977800 3.94163500
-7.53137500 52.28297400 4.29637100
-7.33623800 50.64570600 4.30879200
-5.48048300 50.54771400 4.11247200
-7.09637000 48.98724400 4.27690100
