6.14217900 -86.51528200 0.70248400
7.54747200 -84.58053600 -0.43881200
7.65514000 -82.60869600 -0.34463500
8.73635300 -82.51133700 -1.50912500
8.77092000 -84.47063400 -1.34567300
9.55929000 -82.39683500 -2.52133200
9.58631500 -84.28489700 -2.39047200
10.12803400 -82.30920400 -3.39816300
10.14259500 -84.14647700 -3.31494100
10.16223700 -85.94654800 -3.23132300
10.11145800 -87.76828000 -3.03570600
10.45067000 -84.07090800 -3.94473300
10.51366600 -85.84732100 -3.87616000
10.54781100 -87.62220800 -3.83792100
10.58357600 -89.27526100 -3.71237200
10.05285300 -89.44310800 -2.91403200
10.79851500 -85.78573600 -4.39663700
10.82755900 -87.55748000 -4.38034100
10.87248800 -89.27672600 -4.38128700
10.72677200 -90.68541000 -4.40011600
10.56610500 -90.71969600 -3.75274700
11.06196000 -87.49536100 -4.92086800
11.13350700 -89.20578000 -4.88739000
10.91377100 -90.64013700 -4.92065400
10.73062300 -91.77787000 -4.76419100
10.59785300 -91.64937600 -4.31448400
11.41833700 -89.14113600 -5.35031100
11.23621200 -90.65271000 -5.32623300
11.87266000 -89.08760100 -5.63818400
11.71021100 -90.69906600 -5.55743400
12.41712900 -89.04137400 -5.68090800
12.22952600 -90.71643100 -5.59497100
11.91869500 -92.21321900 -5.44461100
11.71933900 -93.68911000 -5.47454800
12.72526200 -90.70578000 -5.47390700
12.49172000 -92.27443700 -5.41867100
12.36190400 -93.80795300 -5.45352200
12.41508300 -95.45413200 -5.45413200
11.79240000 -95.42999300 -5.45632900
13.02512500 -92.26857000 -5.28002900
12.95712700 -93.81179800 -5.37945600
13.02779400 -95.44191000 -5.46121200
13.12100400 -97.16292600 -5.39041100
12.54895400 -97.19364900 -5.44274900
13.46825200 -93.78508800 -5.12078900
13.57800100 -95.41242200 -5.27264400
13.62466400 -97.13047000 -5.17825300
13.75107400 -98.75872000 -5.14190700
13.23721700 -98.78250100 -5.35501100
13.79023700 -95.40463300 -4.73437500
13.92213800 -97.08868400 -4.72830200
14.06090900 -98.74068500 -4.68902600
14.19113700 -100.38983200 -4.60128800
13.94995900 -100.37130700 -5.09268200
14.00545900 -97.07365400 -4.14871200
14.14317100 -98.74471300 -4.11312900
14.27491900 -100.41734300 -4.02697800
14.37069900 -102.13938100 -3.86969000
14.35775200 -102.10192900 -4.43072500
14.14294100 -98.75936100 -3.46820100
14.27945700 -100.44896700 -3.39389000
14.34505700 -102.18543200 -3.27179000
14.47905100 -103.98168900 -3.14413500
14.49942400 -103.93562300 -3.72335800
14.16633800 -100.49252300 -2.70883200
14.28165400 -102.23603800 -2.59274300
14.37765100 -104.03313400 -2.49554400
14.45840800 -105.87674000 -2.39968900
14.58209000 -105.83801300 -3.04248000
14.12285400 -102.29257200 -1.84832800
14.23545800 -104.08183300 -1.79571500
14.30575000 -105.91517600 -1.73892200
14.40345200 -107.76442000 -1.73159800
14.56716700 -107.73617600 -2.39025900
13.98604400 -104.13786300 -0.97586100
14.08720400 -105.95660400 -0.97415200
14.17978100 -107.79945400 -0.94729600
14.25881000 -109.65918000 -0.88922100
14.48346500 -109.62953200 -1.74478100
13.72335200 -106.01371800 0.10717800
13.82127600 -107.84515400 0.13324000
13.94645500 -109.69621300 0.24130200
13.90430400 -111.56185900 0.24469000
14.28585800 -111.52647400 -0.88369800
13.11131300 -107.91626000 1.56710800
13.16894500 -109.76499900 1.60281400
13.17638000 -111.62108600 1.67416400
13.25903500 -113.47435000 1.75375400
13.91783500 -113.43141900 0.27752700
12.03105500 -109.86080900 3.06811500
12.06644400 -111.70616100 3.11529500
12.12647200 -113.55169700 3.19973800
12.21545400 -115.42295100 3.21746800
13.32753400 -115.33555600 1.79904200
10.62552800 -111.80690000 4.30426000
10.63698400 -113.66185000 4.28167700
10.74843200 -115.52595500 4.34817500
10.79655600 -117.39622500 4.28735400
12.27895500 -117.30169700 3.18173200
9.09981500 -113.75907900 5.34686300
9.15905200 -115.62023900 5.34423800
9.22003200 -117.48799900 5.30380200
9.29413000 -119.35597200 5.24819900
10.90695800 -119.26551100 4.28372200
7.40004700 -115.70401000 6.01007100
7.47848300 -117.56852700 6.03237900
7.55219600 -119.43616500 5.99929800
7.61863900 -121.29953000 5.91638200
9.36599100 -121.21751400 5.16214000
5.66332200 -117.63180500 6.61209100
5.71155000 -119.50151100 6.52093500
5.77172500 -121.36569200 6.44711300
5.83849300 -123.21357700 6.37930300
7.68957300 -123.15206900 5.81085200
3.80069500 -119.54829400 6.73065200
3.84884100 -121.41281900 6.63409400
3.89538400 -123.25775100 6.53402700
3.93565400 -125.05761700 6.46752900
5.89123100 -125.02784700 6.25167800
1.91300800 -121.43480700 6.39718600
1.95082300 -123.28747600 6.28555300
1.97136100 -125.06570400 6.22195400
1.97696900 -126.67879500 6.17892500
3.96770500 -126.75649300 6.40173300
0.04516000 -123.28061700 5.80532800
0.04698400 -125.05230700 5.73693800
0.03776000 -126.59292600 5.67285200
0.02351200 -127.80168200 5.60052500
1.97588100 -128.02481100 6.13894700
-1.82229800 -125.01211500 5.11801100
-1.85314000 -126.53736900 5.07089200
-1.88402000 -127.76545700 5.03265400
-1.90992900 -128.79824800 4.98748800
-0.00322900 -128.83633400 5.56018100
-3.62407100 -126.49406400 4.32632400
-3.63810900 -127.79746200 4.24032600
-3.67187700 -128.78756700 4.22637900
-3.68564800 -129.62637300 4.18786600
-1.92499000 -129.63723800 4.95385700
-5.17373900 -127.73685500 3.37838700
-5.19379200 -128.78114300 3.32525600
-5.21053500 -129.61877400 3.27798500
-5.24483300 -130.31842000 3.23434400
-3.69289600 -130.30299400 4.16507000
-6.33973900 -128.72322100 2.38391100
-6.38971100 -129.57934600 2.33075000
-6.45490100 -130.24687200 2.23465000
-6.47917000 -130.78773500 2.19482400
-5.29318100 -130.95898400 3.20043900
-7.36020500 -130.46163900 1.21582000
-7.52611000 -130.92625400 1.01394700
-6.60667600 -131.39335600 2.02722200
-7.89142000 -129.88539100 0.36846900
-8.08020600 -130.20655800 0.03225700
-8.31445100 -130.62481700 -0.44592300
-7.65967000 -131.45504800 0.68023700
-8.20830700 -129.01023900 -0.23165900
-8.44909100 -129.23820500 -0.68850700
-8.62477700 -129.41253700 -1.09539800
-8.44638600 -127.92017400 -0.73986800
-8.65560400 -127.99668900 -1.17431600
-8.80592500 -128.02212500 -1.60220300
-8.73779500 -129.56884800 -1.53308100
-8.32213400 -130.89677400 -0.79098500
-8.13766300 -131.09512300 -1.14688100
-7.33655400 -132.00827000 0.06344600
-7.59772700 -131.81042500 0.39386000
-8.63986000 -129.67405700 -1.97918700
-8.70925300 -128.02882400 -2.01239000
-8.41548000 -128.04394500 -2.33059700
-8.34067700 -129.70459000 -2.33682300
-7.78700800 -131.15528900 -1.44885300
-7.36430600 -131.07206700 -1.65231300
-6.58674400 -131.99046300 -0.49432400
-6.98077200 -132.06456000 -0.24057000
-7.90160600 -129.65905800 -2.49096700
-8.02862000 -128.02055400 -2.53381300
-7.60482200 -127.98867800 -2.59240700
-7.44103800 -129.54837000 -2.49356100
-6.94529500 -130.87901300 -1.71093800
-6.62863000 -130.55036900 -1.54592900
-5.97902900 -131.29385400 -0.52569600
-6.20450400 -131.72219800 -0.62512200
-7.06550800 -129.36419700 -2.23681600
-7.21386900 -127.92203500 -2.38760400
-6.90962800 -127.84438300 -2.04556300
-6.77807100 -129.14559900 -1.85458400
-6.45842900 -130.15737900 -1.26950100
-6.30164500 -129.82104500 -0.91384900
-5.76705000 -130.38749700 -0.17773400
-5.86591200 -130.83953900 -0.36984300
-6.57065000 -128.88978600 -1.42337000
-6.66615100 -127.75713300 -1.63455200
-7.00754400 -126.38284300 -2.15182500
-7.30902300 -126.42836000 -2.52691700
-7.43429400 -124.83206200 -2.69522100
-7.71788600 -126.46804800 -2.70794700
-7.86116600 -124.88052400 -2.86798100
-8.00293200 -123.21902500 -3.02194200
-8.30491100 -124.90850800 -2.80844100
-8.43682300 -123.25502000 -2.99050900
-8.55917500 -121.53418000 -3.44738800
-8.78785100 -123.24987800 -2.72149700
-8.93449200 -121.51371800 -3.14181500
-8.99058400 -119.59034700 -3.49041700
-9.06094600 -121.44686900 -2.68972800
-9.14642500 -119.55768600 -3.02551300
-9.04337500 -117.63324000 -3.14642300
-9.04214300 -119.51853900 -2.52493300
-8.97691500 -117.61961400 -2.64633200
-8.94153400 -115.74404100 -2.71377600
-8.84612500 -117.60636100 -2.13424700
-8.80586100 -115.74114200 -2.19534300
-8.76113700 -113.89743800 -2.27673300
-8.93856600 -113.90165700 -2.79974400
-8.72452400 -112.02426900 -2.34707600
-8.83728600 -112.02255200 -2.87381000
-8.62285400 -110.15647900 -2.40777600
-8.73504800 -110.15142100 -2.93295300
-8.56860200 -108.32678200 -2.48706100
-8.50457600 -110.16154500 -1.86117600
-8.45852900 -108.33409100 -1.93612700
-8.36445800 -106.58897400 -2.06503300
-8.28598200 -108.34736600 -1.37014800
-8.19992600 -106.59776300 -1.51565600
-8.18059700 -104.89340200 -1.57223500
-8.33310500 -104.90100100 -2.12252800
-8.22807100 -103.20113400 -1.67334000
-8.37904500 -103.20350600 -2.25094600
-8.26942300 -101.49996900 -1.75094600
-8.42434900 -101.50339500 -2.33609000
-8.26223200 -99.78836800 -1.74185200
-8.43258100 -99.79914900 -2.32672100
-8.29785700 -98.01245100 -1.64828500
-8.44382300 -98.02072100 -2.26583900
-8.23976700 -96.23872400 -1.63110400
-8.38225700 -96.24142500 -2.24340800
-8.11785300 -94.55707600 -1.67184400
-8.26201800 -94.56838200 -2.27163700
-8.00609400 -92.93961300 -1.70916700
-8.13291400 -92.97393800 -2.28933700
-7.94389500 -91.30355100 -1.68621800
-8.06611800 -91.33784500 -2.25949100
-8.03466200 -89.60954300 -1.65795900
-8.17706900 -89.63378900 -2.26544200
-8.12541400 -87.85315700 -1.66912800
-8.32333200 -87.87779200 -2.30395500
-8.48127900 -87.88988500 -2.86972000
-8.30853800 -86.07083100 -2.36611900
-8.37549800 -86.08427400 -2.92797900
-8.37490700 -86.09599300 -3.44357300
-8.54854400 -84.26772300 -2.96237200
-8.54139100 -84.28969600 -3.50476100
-8.23452200 -84.29959100 -3.92102100
-8.45039800 -82.43652300 -3.50268600
-8.18888700 -82.44883000 -3.91458100
-7.73146600 -82.46502700 -4.10803200
-8.12241900 -80.59819800 -3.91543600
-7.67896900 -80.61727900 -4.11563100
-7.17935000 -80.63800000 -4.14749100
-7.22616800 -82.47892800 -4.13577300
-6.67624500 -80.65686800 -4.04922500
-6.70719700 -82.49565100 -4.07092300
-6.23816900 -80.67378200 -3.72970600
-6.26646600 -82.50480700 -3.72265600
-5.87404800 -80.68989600 -3.27050800
-5.88081600 -82.52321600 -3.23522900
-5.52097900 -80.70419300 -2.78472900
-5.49718300 -82.54299900 -2.74115000
-5.10573800 -80.72237400 -2.22567700
-5.10248400 -82.56535300 -2.18521100
-4.39368300 -80.75068700 -1.49551400
-4.38864700 -82.58993500 -1.35440100
-3.51119400 -80.75550100 -0.52346800
-3.44948000 -82.61143500 -0.51174900
-2.27107100 -80.72053500 0.43133500
-2.26191900 -82.61236600 0.50186200
-0.75849400 -80.67666600 1.38638300
-0.69153800 -82.62529000 1.30526700
1.03343400 -80.68330400 1.58776900
-0.73752400 -78.77192700 1.14459200
1.01162100 -78.74751300 1.50485200
2.82008200 -78.77684000 1.58505200
2.81177700 -80.69229100 1.66769400
4.59351300 -78.79210700 1.26870700
4.57941600 -80.73626700 1.33993500
6.23975400 -78.83197000 0.57748400
6.10811800 -80.74298100 0.47647100
7.59915900 -78.80452000 -0.55423000
7.59296600 -80.69174200 -0.45648200
8.71925000 -78.71427900 -1.67727700
8.71202500 -80.60672800 -1.62152100
9.47855900 -78.63833600 -2.68371600
9.53812600 -80.51812700 -2.58679200
10.05680500 -78.57354700 -3.45385700
10.05485200 -80.45045500 -3.44076500
10.34977300 -78.53669700 -4.02999900
10.36985200 -80.40440400 -3.98687700
10.43622600 -82.25950600 -3.95489500
10.67983200 -80.36613500 -4.47915600
10.71319600 -82.21024300 -4.48376500
10.70262700 -84.01527400 -4.51278700
11.03435900 -82.16718300 -4.95053100
11.02991700 -83.96490500 -5.01867700
11.09025000 -85.71818500 -4.89788800
11.49547800 -83.91604600 -5.32476800
11.48107300 -85.64947500 -5.28112800
11.42704800 -87.39205900 -5.34005700
11.99326300 -85.59532200 -5.37542700
11.93029600 -87.32314300 -5.52841200
12.48849500 -85.55477900 -5.35687300
12.43489800 -87.28076200 -5.48825100
12.96088000 -85.51991300 -5.25466900
12.89266400 -87.24697900 -5.32363900
12.91169700 -89.00000000 -5.50012200
13.25629000 -87.22180200 -5.04171800
13.33426100 -88.95902300 -5.23477200
13.18746400 -90.67451500 -5.25750700
13.50111600 -88.92533100 -4.77328500
13.51162900 -90.62957800 -4.87069700
13.41938200 -92.23175800 -4.93716400
13.59068300 -90.59346000 -4.35611000
13.57375700 -92.20524600 -4.43359400
13.68170500 -93.79143500 -4.59646600
13.59359200 -92.18948400 -3.87640400
13.70596900 -93.78839100 -4.01690700
13.85863900 -95.40293900 -4.14498900
13.69203000 -93.78064700 -3.40255700
13.87370100 -95.40425100 -3.51126100
14.02223400 -97.07711800 -3.50830100
13.83595500 -95.40923300 -2.81448400
13.99250000 -97.09098800 -2.78479000
14.08284200 -98.78464500 -2.74154700
13.83069800 -97.11159500 -1.97824100
13.95875900 -98.81916800 -1.95739700
13.99695800 -100.54541000 -1.95141600
13.72928600 -98.86377700 -1.08651700
13.80827900 -100.59895300 -1.09768700
13.89632200 -102.35424000 -1.01876800
13.41049900 -100.66941800 0.12234500
13.49245300 -102.42816200 0.12411500
13.62447900 -104.20762600 0.15118400
12.82000400 -102.50230400 1.58941700
12.93476100 -104.29811100 1.55822800
13.02405000 -106.09853400 1.56201200
11.77887000 -104.41420700 3.01431300
11.88046800 -106.22457900 3.04196200
11.98927500 -108.03878800 3.05334500
10.43718000 -106.34016400 4.21221900
10.50625400 -108.16293300 4.22171000
10.58873500 -109.97759200 4.27734400
8.93511000 -108.26383200 5.25314300
8.97192200 -110.08464100 5.25634800
9.02797100 -111.91281100 5.29971300
7.27031500 -110.17249300 6.06457500
7.32121600 -112.00487500 6.10003700
7.36914100 -113.84884600 6.09393300
5.48486100 -112.07658400 6.55215500
5.53187400 -113.91939500 6.56231700
5.58745900 -115.77027900 6.55438200
3.63789500 -113.97591400 6.72354100
3.69026200 -115.82521100 6.72000100
3.74961100 -117.68392900 6.73837300
1.79207800 -115.86419700 6.47985800
1.84372900 -117.71507300 6.45163000
1.88625500 -119.57183100 6.42016600
-0.04001400 -117.72000900 6.00820900
-0.00661300 -119.56635300 5.97338900
0.00977500 -121.42814600 5.94290200
-1.84801300 -119.53154000 5.35012800
-1.82280900 -121.38127100 5.28210400
-1.81657200 -123.23252900 5.20858800
-3.56634700 -121.30558800 4.48922700
-3.56738100 -123.15132100 4.44525100
-3.58439500 -124.93365500 4.38238500
-5.08945300 -123.05221600 3.49609400
-5.09625400 -124.85057100 3.44751000
-5.14189000 -126.44944800 3.41711400
-6.26682100 -124.77000400 2.47052000
-6.33573400 -126.41433700 2.45733600
-6.30969800 -127.65937000 2.41531400
-7.10154200 -126.33210800 1.56216400
-7.09420200 -127.60871900 1.55511500
-7.56443600 -126.30828900 0.86175500
-7.59729200 -127.64917800 0.85784900
-7.92124000 -126.34190400 0.29592900
-7.92851800 -127.70477300 0.26046800
-8.15424500 -126.38383500 -0.23733500
-8.19308700 -127.80470300 -0.27191200
-8.42336100 -126.41960100 -0.71374500
-8.22289500 -124.74241600 -0.27877800
-8.43026200 -124.77218600 -0.76052900
-8.64820300 -124.80432100 -1.21679700
-8.61692200 -126.44284100 -1.15411400
-8.80984700 -124.84428400 -1.66912800
-8.76325800 -126.46648400 -1.59442100
-8.82263800 -124.88214100 -2.12319900
-8.75352700 -126.48800700 -2.04611200
-8.64736400 -124.90690600 -2.52716100
-8.50230600 -126.49470500 -2.41296400
-8.14937800 -126.49169900 -2.65936300
-8.93948200 -123.20669600 -2.31442300
-8.86265800 -123.14778100 -1.86544800
-8.96555900 -121.37109400 -2.21606400
-8.68110800 -123.09314700 -1.41467300
-8.80726800 -121.32103000 -1.73992900
-8.85832800 -119.48764000 -2.02072100
-8.61478600 -121.27197300 -1.24554400
-8.65737000 -119.45777900 -1.49929800
-8.67273000 -117.59396400 -1.60000600
-8.45225000 -119.42990900 -0.95397900
-8.45547300 -117.59168200 -1.04229700
-8.43529300 -115.74064600 -1.08139000
-8.62353700 -115.73953200 -1.65112300
-8.39125600 -113.89386700 -1.15506000
-8.58210900 -113.89317300 -1.73910500
-8.39997300 -112.02841200 -1.23956300
-8.57763500 -112.02735900 -1.80096400
-8.34577400 -110.17048600 -1.29748500
-8.20747900 -112.03501900 -0.63546800
-8.15962800 -110.18325800 -0.72976700
-8.08463500 -108.36265600 -0.79010000
-7.80481200 -110.22524300 0.11712600
-7.77544200 -108.39857500 -0.02087400
-7.76527200 -106.62992900 -0.16464200
-8.04684500 -106.60636900 -0.96154800
-7.73103900 -104.90258800 -0.24203500
-7.97117400 -104.89636200 -0.93917800
-7.77870000 -103.19429000 -0.28808600
-8.05567400 -103.19656400 -1.03799400
-7.74197600 -101.49071500 -0.29931600
-8.08985300 -101.49599500 -1.12048300
-7.84388600 -99.76539600 -0.31707800
-8.08988400 -99.77540600 -1.10742200
-7.84088700 -98.00592800 -0.22705100
-8.12566200 -98.00796500 -1.00781300
-7.83820500 -96.24235500 -0.29144300
-8.06250600 -96.23841900 -1.00732400
-7.77520600 -94.53833000 -0.36508200
-7.94624100 -94.54911800 -1.03213500
-7.65980000 -92.88007400 -0.41049200
-7.86562900 -92.90931700 -1.11471600
-7.57065400 -91.22918700 -0.37548800
-7.79248600 -91.26691400 -1.08136000
-7.65189200 -89.54055800 -0.32415800
-7.84969500 -89.57786600 -1.00299100
-7.71238900 -87.77644300 -0.28820800
-7.94272400 -87.81745100 -0.98086500
-7.79978400 -85.98587000 -0.36608900
-8.00377500 -86.02674900 -1.09344500
-8.17713400 -86.05037700 -1.73730500
-8.04810900 -84.20681800 -1.15814200
-8.24303600 -84.22683000 -1.78768900
-8.44517300 -84.24737500 -2.38867200
-8.20406500 -82.39679000 -1.84921300
-8.35491000 -82.41209400 -2.43304400
-8.48145900 -82.42466700 -2.98373400
-8.26876300 -80.57406600 -2.45636000
-8.35909100 -80.58026100 -2.99365200
-8.36864700 -80.58702900 -3.50674400
-8.38178100 -78.73639700 -2.97595200
-8.38217400 -78.73838800 -3.49316400
-8.09153600 -78.74789400 -3.88241600
-8.29100200 -76.88812300 -3.49502600
-8.01586000 -76.89347800 -3.89810200
-7.56620600 -76.90631100 -4.07934600
-7.64363300 -78.76274900 -4.08029200
-7.08343300 -76.92636100 -4.14352400
-7.14466700 -78.78329500 -4.13305700
-6.60299500 -76.95058400 -4.03472900
-6.63814000 -78.80298600 -4.06005900
-6.19589400 -76.96784200 -3.70434600
-6.21594400 -78.82012200 -3.73025500
-5.87510500 -76.98147600 -3.26614400
-5.87697000 -78.83622700 -3.28796400
-5.57873700 -77.00129700 -2.79827900
-5.54746800 -78.85276000 -2.81060800
-5.17834700 -77.02388000 -2.20535300
-5.12600900 -78.87601500 -2.21691900
-4.65065200 -77.04416700 -1.38382000
-4.51900700 -78.89909400 -1.48407000
-3.62881300 -77.03936800 -0.67086800
-3.57222900 -78.90013100 -0.60430900
-2.31502000 -76.99400300 0.19989000
-2.29247900 -78.85708600 0.31515500
-0.76336900 -76.91624500 1.03256200
-2.36415700 -75.15229000 0.16119400
-0.81516500 -75.08163500 0.92593400
0.95921500 -75.03646900 1.40374800
0.99994100 -76.85665900 1.47482300
2.81251700 -75.02380400 1.47485400
2.79788400 -76.85792500 1.34509300
4.60033400 -75.10116600 1.02853400
4.61788000 -76.91688500 1.20220900
6.32851000 -75.09280400 0.37719700
6.29865600 -76.93753100 0.44708300
7.73002400 -75.03283700 -0.73370400
7.70103300 -76.90645600 -0.60778800
8.74586100 -74.93492100 -1.88757300
8.73698400 -76.83058200 -1.75766000
9.57204400 -74.82533300 -3.00006100
9.52122300 -76.74644500 -2.79580700
10.00818400 -74.77368200 -3.72024500
9.93791200 -76.69265700 -3.55212400
10.27437000 -74.74676500 -4.26980600
10.22749700 -76.65672300 -4.15673800
10.56007900 -74.72772200 -4.77618400
10.53584100 -76.63250700 -4.63961800
10.61613300 -78.50476100 -4.55255100
10.87874600 -76.60976400 -5.04425000
10.89345200 -78.47433500 -5.02832000
10.97861300 -80.33052800 -4.95990000
11.29772200 -78.43980400 -5.30441300
11.36835500 -80.29441800 -5.31573500
11.45087100 -82.12651100 -5.28454600
11.85001800 -80.24797100 -5.44812000
11.95517900 -82.08245800 -5.39688100
12.01682900 -83.86794300 -5.39325000
12.45049300 -82.03641500 -5.37640400
12.52906600 -83.82634000 -5.36206100
12.91126800 -81.99406400 -5.26406900
13.01391200 -83.78634600 -5.26605200
13.26908700 -81.95472700 -4.98123200
13.40692500 -83.75055700 -5.01037600
13.34286700 -85.50831600 -4.98730500
13.58243900 -83.72192400 -4.56103500
13.50489600 -85.49320200 -4.54394500
13.44583900 -87.19674700 -4.61108400
13.54325900 -85.45468900 -4.03979500
13.49906100 -87.16415400 -4.11468500
13.54797400 -88.89440900 -4.26388500
13.49547000 -87.13032500 -3.57888800
13.55248500 -88.86076400 -3.71881100
13.58833700 -90.56007400 -3.79681400
13.54343800 -88.82817800 -3.11520400
13.55795300 -90.52656600 -3.21575900
13.55008100 -92.16610700 -3.29846200
13.47002800 -90.49012000 -2.59625200
13.47806500 -92.14460800 -2.68045000
13.63710800 -93.77143900 -2.76528900
13.37127900 -92.12159700 -2.00872800
13.57972100 -93.76533500 -2.08050500
13.76650000 -95.41630600 -2.06765700
13.40041900 -93.76054400 -1.14120500
13.56616400 -95.43290700 -1.12329100
13.62990900 -97.13855000 -1.09799200
13.09062900 -95.46793400 0.25711100
13.25141700 -97.18360100 0.15564000
13.30894300 -98.92122700 0.12326000
12.45896700 -97.25038100 1.67639200
12.61959600 -98.98957100 1.64913900
12.69155100 -100.73698400 1.62103300
11.44120600 -99.06422400 3.04971300
11.53496200 -100.82750700 3.03289800
11.66704900 -102.61563100 3.01516700
10.15001700 -100.93615700 4.21633900
10.27639000 -102.72396900 4.22525000
10.36911800 -104.51687600 4.21688800
8.67224500 -102.82173200 5.14135700
8.78846200 -104.62168900 5.19537400
8.86395300 -106.44099400 5.20962500
7.10928300 -104.71335600 5.96231100
7.17787000 -106.53363800 5.98440600
7.22733300 -108.35220300 6.03048700
5.38504800 -106.61329700 6.46450800
5.40215100 -108.42451500 6.44339000
5.44068900 -110.24638400 6.49478100
3.53810300 -108.48542800 6.51879900
3.56411900 -110.30447400 6.60519400
3.59757400 -112.13473500 6.69180300
1.69676800 -110.36264800 6.36505100
1.71882400 -112.18684400 6.44049100
1.74717900 -114.02142300 6.48727400
-0.13079700 -112.22563900 5.98275800
-0.11821200 -114.04863000 6.04339600
-0.07949600 -115.88116500 6.02438400
-1.91291200 -114.05281100 5.35412600
-1.89344600 -115.86904900 5.36160300
-1.86394300 -117.69364900 5.35693400
-3.61537400 -115.84194900 4.52523800
-3.60084000 -117.65158800 4.52801500
-3.57322900 -119.47009300 4.50808700
-5.15582900 -117.60672800 3.49591100
-5.16808900 -119.40222900 3.53598000
-5.11894400 -121.21951300 3.52459700
-6.39845500 -119.36090900 2.34927400
-6.40634000 -121.14669800 2.42492700
-6.31115900 -122.96605700 2.44763200
-7.21726400 -121.13076800 1.34973100
-7.15218200 -122.92844400 1.47323600
-7.09288200 -124.70861800 1.52798500
-7.67766400 -122.93177000 0.68789700
-7.65822000 -124.70687100 0.78353900
-8.01879700 -122.95750400 0.07128900
-7.97094900 -124.71917700 0.23657200
-8.25712400 -122.99671900 -0.46490500
-8.12665400 -121.18054200 -0.16754200
-8.38764000 -121.22442600 -0.72845500
-8.48691000 -123.04308300 -0.94760100
-8.27692600 -119.40428900 -0.34814500
-7.75221100 -121.14622500 0.46060200
-7.90030100 -119.38064600 0.34231600
-7.89723400 -117.58486200 0.20089700
-8.20927100 -117.59017900 -0.46096800
-7.92189600 -115.75465400 0.17858900
-8.20726600 -115.74745200 -0.49041700
-7.91030300 -113.90596000 0.10290500
-8.19217500 -113.89604200 -0.57614100
-7.91213000 -112.05549600 0.11401400
-7.34313400 -113.93241900 1.15878300
-7.33497800 -112.09850300 1.15466300
-7.30622700 -110.28332500 1.11788900
-6.38873100 -112.15548700 2.31375100
-6.40072500 -110.34512300 2.27240000
-6.38236800 -108.54989600 2.25399800
-7.29183800 -108.46675900 1.03747600
-6.30300700 -106.76091000 2.24136400
-7.24129300 -106.68084700 0.99276700
-6.34218400 -104.98506200 2.22976700
-7.23885900 -104.93084000 0.88925200
-6.37890800 -103.22860700 2.20703100
-7.26237300 -103.20239300 0.80694600
-6.38074700 -101.49531600 2.12844800
-7.26278100 -101.48831200 0.76104700
-6.43453000 -99.76115400 2.12225300
-7.30932100 -99.75920900 0.78622400
-6.48017700 -98.01832600 2.12063600
-7.37930100 -98.00962800 0.77975500
-6.49545500 -96.28094500 2.12799100
-7.39835600 -96.25770600 0.75167800
-6.44402500 -94.54103100 2.13699300
-7.31991400 -94.53079200 0.70886200
-6.32947400 -92.80458100 2.04998800
-7.17508500 -92.85102100 0.69345100
-6.36467600 -91.07730900 2.01495400
-7.16179500 -91.17119600 0.62728900
-6.46417400 -89.33662400 1.99359100
-7.24418500 -89.47137500 0.63244600
-6.51611100 -87.58982100 1.91613800
-7.34295900 -87.71189900 0.59845000
-6.53422000 -85.83329800 1.78585800
-7.38669800 -85.92926000 0.55819700
-6.59170400 -84.07106800 1.69903600
-7.42124800 -84.14566800 0.41790800
-7.81714800 -84.18515000 -0.48300200
-7.37488000 -82.33434300 0.29391500
-7.78342600 -82.36138900 -0.60028100
-8.00948900 -82.38180500 -1.24902300
-7.76017200 -80.54879800 -0.64456200
-8.00210800 -80.55847200 -1.25976600
-8.15257100 -80.56641400 -1.88394200
-7.90037700 -78.73985300 -1.27603100
-8.12583000 -78.74095200 -1.86132800
-8.25629600 -78.73828100 -2.43756100
-8.03817800 -76.89328000 -1.88324000
-8.19415100 -76.89100600 -2.44500700
-8.30880500 -76.88954200 -2.98263500
-8.19094900 -75.06629200 -2.49481200
-8.23535000 -75.06393400 -3.02084400
-8.17015300 -75.06778700 -3.49755900
-8.17891500 -73.28964200 -3.08001700
-8.19025200 -73.30647300 -3.57482900
-7.94957200 -73.30999000 -3.97143600
-7.91073000 -75.07770500 -3.88043200
-7.51153000 -73.30757100 -4.13906900
-7.49820500 -75.09030900 -4.09066800
-7.03013400 -73.30575600 -4.17306500
-7.02276400 -75.10302000 -4.15896600
-6.54421800 -73.30899000 -4.07586700
-6.53959500 -75.11688200 -4.05316200
-6.13606100 -73.31485700 -3.73776200
-6.13080400 -75.13143200 -3.71783400
-5.77364200 -73.32133500 -3.32400500
-5.77740300 -75.14728500 -3.27807600
-5.40012900 -73.32871200 -2.81079100
-5.46133200 -75.16049200 -2.78219600
-4.97641200 -73.33654000 -2.26513700
-5.08749600 -75.17347700 -2.25567600
-4.38231100 -73.34481000 -1.56170700
-4.46372800 -75.18462400 -1.53564500
-3.52873000 -73.34848000 -0.78686500
-3.58796900 -75.18586000 -0.75042700
-2.32156200 -73.32849100 0.05453500
-3.42415100 -71.52324700 -0.82690400
-2.29857100 -71.52070600 0.02951000
-0.79884900 -71.53514100 0.80984500
-0.82077600 -73.30136900 0.84921300
0.96560100 -71.59243800 1.11566200
0.94840400 -73.30944800 1.14382900
2.75954600 -71.66262800 1.31674200
2.78586400 -73.35201300 1.19799800
4.56427000 -71.64308200 1.02124000
4.55057500 -73.36804200 0.86508200
6.19376000 -71.56585700 0.31881700
6.23923900 -73.33023800 0.25119000
7.49093000 -71.40554800 -0.76236000
7.65492400 -73.19781500 -0.75799600
8.47433900 -71.28663600 -2.04208400
8.70551300 -73.06975600 -1.96588100
9.48664900 -71.18705700 -3.19442700
9.52959400 -72.96488200 -3.21972700
9.90576900 -71.17252300 -3.93856800
9.97761900 -72.90968300 -3.90805100
10.26627900 -71.12769300 -4.50805700
10.29945600 -72.84576400 -4.44134500
10.67019800 -71.04338800 -5.10867300
10.63867600 -72.77153000 -4.97555500
10.13451400 -69.41844900 -4.51101700
10.56912800 -69.39689600 -5.14917000
11.30432500 -69.36775200 -5.35647600
10.43574900 -67.78816200 -4.98654200
11.17897600 -67.89579800 -5.49212600
9.81098000 -66.01030000 -5.04788200
10.72497200 -66.07644700 -5.27844200
10.07296900 -64.04687500 -4.98315400
10.76285400 -64.02226300 -5.17715500
9.84066800 -62.23312400 -4.70718400
10.47176900 -62.20890800 -5.10485800
11.02450200 -62.14889500 -5.17819200
11.35383400 -63.91898300 -5.22995000
11.54057300 -62.05328400 -5.15823400
11.89055800 -63.78083000 -5.23162800
12.97196600 -65.16170500 -5.35296600
14.30916000 -66.11662300 -5.45965600
12.35090400 -63.54978900 -5.12588500
13.38465700 -64.87678500 -5.27179000
14.90263700 -65.33267200 -5.37988300
16.36622400 -65.90222200 -5.44213900
15.82519700 -66.53414900 -5.52899200
13.72638700 -64.43440200 -4.93084700
15.16565500 -64.78829200 -5.08511400
16.83131200 -65.26203200 -5.03146400
18.02776900 -66.52383400 -4.81481900
17.74680300 -66.71083800 -5.26458700
15.31176400 -64.64980300 -4.50741600
16.83853900 -65.25480700 -4.43423500
18.03672200 -66.50775900 -4.25067100
18.56072600 -68.06344600 -4.11978100
18.53993200 -68.06361400 -4.67776500
16.76592400 -65.35443900 -3.85452300
17.90896400 -66.57963600 -3.70822100
18.39179200 -68.09706100 -3.58932500
18.30375700 -69.62506100 -3.53463700
18.47794700 -69.64666700 -4.07113600
17.68061600 -66.71341700 -3.19760100
18.09559400 -68.15870700 -3.14090000
18.03661500 -69.57990300 -3.05130000
17.24029700 -70.68898000 -3.16162100
17.48967400 -70.86716500 -3.59948700
17.68350000 -68.22597500 -2.78329500
17.58245700 -69.46797200 -2.75708000
16.86646300 -70.39321900 -2.91586300
15.82938900 -70.98797600 -2.99731400
16.07503700 -71.37216200 -3.23977700
17.01709200 -69.27475000 -2.80780000
16.40509400 -69.99909200 -2.92782600
15.54086900 -70.49175300 -3.03045700
14.73631500 -71.27513100 -2.98788500
16.02743700 -69.62361900 -3.38156100
15.26015900 -70.02253000 -3.47558600
16.53648200 -69.08058900 -3.28826900
17.14770500 -68.31443000 -2.78530900
17.31229400 -66.92182200 -2.81857300
16.82927500 -67.21077000 -2.77700800
16.32742100 -65.82675200 -2.99530000
16.00932700 -66.28445400 -3.02880900
14.87337500 -66.52478000 -3.76763900
16.62459600 -65.51567800 -3.32492100
15.33694600 -64.74565900 -3.90188600
13.93343500 -64.24068500 -4.40054300
13.98682800 -64.33591500 -3.80935700
12.88037100 -63.23261300 -4.30432100
12.97647500 -63.21727000 -3.70782500
12.94104600 -63.43347900 -3.14389000
12.59307500 -61.81914500 -3.55676300
12.61197100 -61.85627700 -2.91153000
12.43200900 -61.98628200 -2.14624000
12.73368600 -63.70642100 -2.50109900
12.22704300 -62.20504000 -1.28125000
12.39170100 -64.04356400 -1.49459800
11.81071700 -62.42128000 -0.38635300
11.90409800 -64.42491900 -0.43103000
11.08074200 -62.48001100 0.72021500
11.16305000 -64.41423800 0.75436400
9.97644400 -62.37007100 1.87121600
10.12499600 -64.23703800 2.02648900
10.14003900 -66.11180100 2.11642500
10.22031000 -67.97509800 2.32067900
8.77753600 -64.16687000 3.13681000
8.85573600 -66.06939700 3.24523900
8.79256400 -67.93342600 3.34487900
8.63694800 -69.68129700 3.41882300
10.03612500 -69.63374300 2.29177900
7.34907300 -66.04502900 4.13479600
7.27724600 -67.87442800 4.18103000
7.14846000 -69.70068400 4.31811500
7.06081600 -71.49356800 4.52807600
8.52334800 -71.40313700 3.62887600
5.59829700 -67.90111500 4.72857700
5.53197100 -69.69854700 4.87783800
5.42665500 -71.52285000 5.02697800
5.39853100 -73.22431200 5.11218300
6.98639300 -73.20814500 4.58996600
3.79539900 -69.74838300 5.17462200
3.73653600 -71.51098600 5.30477900
3.69808600 -73.16550400 5.44558700
3.67825700 -74.60974100 5.47546400
5.40528700 -74.64955900 5.13253800
1.98723800 -71.55447400 5.38876300
1.98145900 -73.15019200 5.46881100
2.04533600 -74.61864500 5.65432700
2.21496800 -76.17233300 5.45773300
3.78517100 -76.09864800 5.60952800
0.24714800 -73.20181300 5.25720200
0.28614200 -74.58764600 5.28826900
0.38664000 -76.18125900 5.43069500
0.57974000 -77.89453100 5.48788500
2.46145800 -77.86221300 5.71521000
-1.60143900 -74.50880400 4.99951200
-1.49998300 -76.21446200 5.02731300
-1.30420900 -77.98670200 5.04269400
-1.06592800 -79.63536100 5.38049300
0.83235000 -79.49117300 5.69015500
-3.15365800 -76.40666200 4.32681300
-2.94570000 -78.27319300 4.43106100
-2.62112200 -80.11174800 4.87655600
-2.17427600 -81.84482600 5.07803300
-0.62635200 -81.39157100 5.69134500
-4.37304900 -78.55224600 3.68612700
-4.08648500 -80.44849400 3.95028700
-3.88099900 -82.16127000 4.16760300
-3.79783100 -83.83293900 4.24575800
-2.09109700 -83.56625400 5.15090900
-5.54926100 -80.51216900 2.82955900
-5.51589400 -82.27687100 3.08715800
-5.44483800 -83.98175000 3.15167200
-5.33116300 -85.69987500 3.16738900
-3.79498900 -85.53076200 4.33923300
-6.65870500 -82.30061300 1.65011600
-6.63897500 -80.50336500 1.50357100
-7.35637900 -80.52502400 0.24096700
-6.70968100 -78.67424000 1.36151100
-7.35940000 -78.71354700 0.18890400
-7.69150700 -78.73271200 -0.64691200
-7.26809900 -76.88972500 0.10855100
-7.62037900 -76.90307600 -0.63925200
-7.81893700 -76.89750700 -1.27789300
-7.65705300 -75.07347100 -0.59600800
-7.88920400 -75.07537100 -1.27609300
-8.08005000 -75.07116700 -1.91760300
-7.80613100 -73.28358500 -1.38793900
-7.96623800 -73.27590200 -1.99716200
-8.06154800 -73.27853400 -2.55795300
-7.97262800 -71.50328100 -2.02914400
-8.12968300 -71.50404400 -2.60327100
-8.25532700 -71.50178500 -3.13485700
-8.17032400 -69.65070300 -2.58544900
-8.23293900 -69.64157900 -3.11401400
-8.17224300 -69.63382000 -3.60022000
-8.25734900 -71.49850500 -3.64019800
-7.88765900 -69.62908200 -3.95446800
-7.94698500 -71.49094400 -3.99096700
-7.44658900 -69.62665600 -4.10708600
-7.49529800 -71.48373400 -4.14126600
-6.96806500 -69.62493100 -4.15423600
-7.01488700 -71.47927900 -4.19989000
-6.47484000 -69.62468700 -4.05673200
-6.51920500 -71.48030100 -4.11492900
-6.07000600 -69.63102000 -3.69647200
-6.10510800 -71.48387100 -3.77594000
-5.66751300 -69.63949600 -3.30273400
-5.76840400 -71.49125700 -3.30773900
-5.32992800 -69.65280200 -2.82019000
-5.40459300 -71.49971000 -2.84512300
-4.85914000 -69.66926600 -2.26388500
-4.94417000 -71.51162700 -2.29516600
-4.20157400 -69.67929800 -1.55554200
-4.31000300 -71.52078200 -1.60223400
-3.29929200 -69.68334200 -0.80777000
-4.07609400 -67.80447400 -1.46191400
-3.25141300 -67.82327300 -0.71765100
-2.18041800 -67.84249100 0.01641800
-2.20760500 -69.68376200 -0.00836200
-0.74399000 -67.87149000 0.71334800
-0.74886900 -69.73298600 0.76995800
0.95597300 -67.90082600 0.96582000
0.98119200 -69.77381900 1.23278800
2.70857400 -67.90992700 1.31304900
2.77760500 -69.82766700 1.30014000
4.46966000 -67.90111500 1.00543200
4.49479100 -69.80174300 1.03610200
6.05992500 -67.91616800 0.28747600
6.02815800 -69.76569400 0.28738400
7.23399200 -67.95427700 -0.71762100
7.35642600 -69.67816200 -0.72738600
8.14831300 -67.78439300 -1.68499800
8.21603400 -69.53785700 -2.02670300
8.87218500 -67.65861500 -2.60607900
9.11520900 -69.43303700 -3.08752400
9.40517000 -67.64667500 -3.49642900
9.70971500 -69.41133900 -3.86657700
9.89298000 -67.70252200 -4.35217300
8.62174400 -65.97382400 -3.39648400
9.12306200 -65.95993000 -4.26010100
8.45216900 -65.87864700 -2.43960600
7.93498800 -65.94110900 -1.43545500
7.14098200 -66.05340600 -0.61032100
7.05044400 -64.16252900 -0.58486900
6.07028600 -66.08822600 0.23455800
5.87424800 -64.21102900 0.02761800
5.91811000 -62.42626200 0.15777600
7.09004200 -62.42772700 -0.75973500
5.84752800 -60.70510900 -0.10302700
7.17958300 -60.73645000 -0.97161900
5.99355100 -58.90713500 -0.11804200
7.32650900 -58.94398500 -1.14758300
8.26560400 -58.97286200 -2.27807600
7.45038600 -57.10380600 -1.32235700
8.19406900 -57.09545900 -2.49261500
8.81668900 -57.04888200 -3.27694700
8.86678100 -58.90348800 -3.26397700
9.24560000 -56.99922200 -3.93460100
9.30945000 -58.83467900 -3.95266700
9.69393000 -56.94986700 -4.50064100
9.79003000 -58.78170800 -4.50723300
9.87566600 -60.54744000 -4.54675300
10.34068500 -58.73246800 -4.87863200
10.40971400 -60.49455300 -4.93380700
10.88582400 -58.68253300 -5.04818700
10.94266500 -60.43822500 -5.09442100
11.39809200 -58.64666700 -5.04480000
11.45302800 -60.38140900 -5.10794100
11.86892900 -58.62127700 -4.90866100
11.91743500 -60.32497400 -4.94741800
12.01846100 -61.94271100 -5.02862500
12.21125800 -60.27796200 -4.55423000
12.36954500 -61.86122900 -4.66809100
12.67708400 -63.36048900 -4.79025300
12.51496900 -61.82245600 -4.14315800
12.34475500 -60.25351700 -4.04895000
12.38870800 -60.24682600 -3.48687700
12.23924100 -58.57723200 -4.01010100
12.21406400 -58.57041200 -3.46466100
12.18179300 -58.55580100 -2.86673000
12.37047000 -60.26150500 -2.83850100
12.08971200 -58.54924000 -2.16555800
12.26432000 -60.30029300 -2.09603900
11.83851200 -58.54887400 -1.38400300
12.02718000 -60.36862900 -1.25457800
11.50914800 -58.56028000 -0.48220800
11.64233600 -60.46729300 -0.37408400
10.98968900 -58.60795600 0.54275500
11.02736500 -60.55369600 0.64404300
10.01071200 -58.64895600 1.68667600
10.03070200 -60.50479100 1.81744400
8.60488900 -58.67783400 2.85977200
8.51166500 -60.47113800 2.78717000
8.57770700 -62.29708900 2.91494800
6.96487800 -60.52571900 3.85144000
7.18000800 -62.34049200 4.09948700
7.26502000 -64.17976400 4.06341600
5.39514700 -62.49426300 4.61874400
5.52269500 -64.34580200 4.57498200
5.58968700 -66.12449600 4.60128800
3.73339500 -64.39159400 4.99862700
3.81033500 -66.17614000 5.05438200
3.81253200 -67.97076400 4.97692900
2.03035200 -66.26802100 5.34906000
2.03421200 -68.06781800 5.21167000
2.01417300 -69.83444200 5.27764900
0.25075300 -68.07744600 4.99499500
0.23127900 -69.90605900 5.13147000
0.21978200 -71.65203100 5.21603400
-1.49281100 -69.91077400 4.65310700
-1.54211200 -71.71688100 4.78405800
-1.48315200 -73.22860000 4.59265100
-3.20621300 -71.54592100 3.99127200
-3.22719400 -73.05191000 4.05578600
-3.25219500 -74.59021800 4.20010400
-4.77538100 -73.03295900 3.17157000
-4.68662800 -74.74598700 3.25961300
-4.58295600 -76.61169400 3.44943200
-5.80843600 -74.90541100 2.10314900
-5.79252400 -76.73856400 2.36499000
-5.68069700 -78.61525000 2.65158100
-6.67215200 -76.83107000 1.14450100
-6.74318100 -75.01447300 1.04324300
-7.32634900 -75.05985300 0.14074700
-6.77070400 -73.19862400 0.95758100
-7.35755700 -73.26115400 0.01095600
-7.63439800 -73.28201300 -0.74902300
-7.19703900 -71.46589700 -0.12027000
-7.54416500 -71.49542200 -0.78341700
-7.79138400 -71.50211300 -1.42553700
-7.59218800 -69.65724200 -0.74661300
-7.87426600 -69.66386400 -1.41482500
-8.06504600 -69.65873700 -2.02108800
-7.88755600 -67.81634500 -1.41299400
-8.04748300 -67.80112500 -2.01879900
-8.11852800 -67.78660600 -2.55819700
-8.02802800 -65.97203800 -2.07498200
-8.13452200 -65.96293600 -2.62411500
-8.17683600 -65.95040100 -3.13424700
-8.16632700 -67.77275100 -3.07904100
-8.08140800 -65.93858300 -3.60290500
-8.11314200 -67.76407600 -3.55758700
-7.81267700 -65.92464400 -3.96951300
-7.85661900 -67.75639300 -3.93948400
-7.37700100 -65.91227000 -4.12142900
-7.42421200 -67.75290700 -4.10708600
-6.90519900 -65.89891800 -4.12051400
-6.94932000 -67.75179300 -4.12359600
-6.44847700 -65.88431500 -3.93335000
-6.49074400 -67.75516500 -3.93035900
-6.04202900 -65.87059000 -3.56417800
-6.07489600 -67.76249700 -3.59375000
-5.60589800 -65.86000800 -3.16387900
-5.66271000 -67.77055400 -3.19790600
-5.20347800 -65.85845900 -2.67837500
-5.26850700 -67.77898400 -2.76779200
-4.69103100 -65.86393000 -2.06716900
-4.75948500 -67.78970300 -2.20718400
-3.97196400 -65.87982900 -1.32977300
-4.62443700 -63.87080400 -1.89425700
-3.83013400 -63.84759500 -1.10159300
-2.95411100 -63.84806100 -0.35031100
-3.15718700 -65.89884900 -0.58819600
-2.04611800 -63.94081900 0.25399800
-2.19576500 -65.94356500 0.13592500
-0.88926900 -64.11831700 0.68093900
-0.88049500 -65.99848200 0.64605700
0.63957000 -64.25911700 0.92312600
0.77538900 -66.05818200 1.03216600
2.40664900 -64.30101800 1.21029700
2.58098000 -66.06161500 1.20312500
4.34645600 -64.26081800 0.88540600
4.42976400 -66.06031800 0.87423700
2.39898500 -62.53545400 1.11465500
4.20958100 -62.47818000 0.85525500
2.60943000 -60.71507300 1.12231400
4.26203500 -60.69370300 0.80801400
2.87736300 -58.93899500 0.93331900
4.40657000 -58.93111400 0.62628200
3.07277100 -57.13792400 0.89364600
4.61050200 -57.10982500 0.55871600
6.15827200 -57.09715300 -0.26474000
4.78067600 -55.27383400 0.43795800
6.32023400 -55.25695000 -0.37469500
7.47464900 -55.27272800 -1.54260300
6.43378400 -53.44203200 -0.56616200
7.55505000 -53.40169500 -1.56649800
8.28855300 -53.35984800 -2.56292700
8.22174800 -55.23381800 -2.55157500
8.83659700 -53.32363900 -3.33120700
8.83008000 -55.18711100 -3.27880900
9.20574200 -53.29795800 -3.92804000
9.30550600 -55.14639300 -3.84652700
9.61783200 -53.27897600 -4.46511800
9.72486700 -55.11174000 -4.39309700
10.08603700 -53.24313400 -4.81762700
10.15886900 -55.07915500 -4.83490000
10.23773800 -56.90743300 -4.85720800
10.71070100 -55.03907800 -4.93148800
10.80738100 -56.86998000 -4.99292000
11.24734700 -55.00331100 -4.93359400
11.35179300 -56.83774600 -5.01416000
11.73778700 -54.96804000 -4.81335400
11.85344700 -56.80950200 -4.91058300
12.07507500 -54.94824200 -4.44961500
12.13786100 -56.79139700 -4.49884000
12.16216500 -58.59558900 -4.52163700
12.18006300 -56.78170000 -3.98483300
12.18101300 -54.94192500 -3.94726600
12.12421400 -54.93682900 -3.40710400
12.14347100 -56.77210200 -3.44928000
12.03019500 -54.93264000 -2.85864300
12.08060500 -56.76275600 -2.87722800
11.89504200 -54.92986300 -2.27978500
12.04020900 -56.75256300 -2.22888200
11.70073500 -54.93154900 -1.64776600
11.85229900 -56.74609400 -1.50759900
11.34764300 -54.92388900 -0.81930500
11.37973600 -56.73392500 -0.63485700
10.77763500 -54.91764100 0.32183800
10.78989800 -56.73504600 0.38467400
9.77009600 -55.06240800 1.63009600
9.85374500 -56.81252300 1.58282500
8.43961300 -55.13662700 2.65448000
8.35936700 -56.93521100 2.47885100
6.96192000 -55.14556900 3.58602900
6.85069600 -56.95853400 3.52722200
6.88319800 -58.74185900 3.62680100
5.20362300 -56.94267300 4.27938800
5.16137100 -58.78060900 4.24893200
5.26970700 -60.60929100 4.49957300
3.45739200 -58.80011000 4.76193200
3.49461900 -60.65744000 4.80188000
3.64014600 -62.55020100 4.85690300
1.78288500 -60.69462600 4.92999300
1.94511600 -62.53489700 5.24310300
1.93214600 -64.35559800 5.15069600
0.14258000 -62.50180800 4.96389800
0.27900100 -64.34584800 5.04428100
0.26229300 -66.21993300 5.04129000
-1.47240300 -64.38071400 4.52612300
-1.44174800 -66.17478900 4.49157700
-1.45181100 -68.00712600 4.52102700
-3.15979600 -66.10199700 3.76553300
-3.18669700 -67.92366000 3.89398200
-3.16440000 -69.75804100 3.93765300
-4.77573600 -67.85751300 2.93841600
-4.60721000 -69.66851000 2.81228600
-4.72745300 -71.40077200 3.00982700
-5.91251600 -69.61136600 1.74191300
-5.97215500 -71.35441600 1.89395100
-5.93060900 -73.09998300 2.01779200
-6.79917700 -71.39148700 0.83795200
-6.74134600 -69.61809500 0.77035500
-7.23305300 -69.63407900 -0.00970500
-6.76016100 -67.80572500 0.77078200
-7.20759800 -67.82873500 -0.03179900
-7.59385900 -67.82892600 -0.74801600
-7.21710000 -65.98429900 -0.12759400
-7.59733800 -65.98363500 -0.81326300
-7.82570500 -65.97988100 -1.46942100
-7.59401900 -64.15605900 -0.89776600
-7.78217500 -64.14205900 -1.56634500
-8.01072900 -64.12448100 -2.16549700
-7.84617400 -62.31944300 -1.57260100
-8.03010400 -62.28425600 -2.17837500
-8.13073400 -62.24955700 -2.72879000
-8.15429100 -64.10382100 -2.69479400
-8.14879400 -62.21707900 -3.23526000
-8.18755900 -64.07875800 -3.20532200
-8.05709300 -62.18263200 -3.71432500
-8.06831600 -64.05405400 -3.67086800
-7.69116800 -62.15580700 -4.00845300
-7.75200500 -64.03152500 -4.00680500
-7.21784400 -62.13372800 -4.09320100
-7.30063100 -64.00901000 -4.13488800
-6.73664300 -62.11079400 -4.03308100
-6.81581700 -63.98408500 -4.14468400
-6.31047300 -62.08451800 -3.74792500
-6.35021400 -63.96213500 -3.93789700
-5.93289400 -62.05667100 -3.34796100
-5.96124500 -63.94324500 -3.53942900
-5.51138500 -62.03015900 -2.91812100
-5.59450000 -63.92158500 -3.07119800
-5.04589700 -61.99250800 -2.42227200
-5.16073000 -63.89895600 -2.55096400
-4.33028600 -61.89762900 -1.71270800
-4.92581000 -60.28098300 -2.35394300
-4.15805300 -60.15798200 -1.67614700
-2.74256000 -60.04941600 -1.21734600
-3.20797500 -61.79708900 -1.04058800
-1.43311500 -60.18523400 -0.64343300
-2.19768700 -61.84118700 -0.45684800
-0.81389400 -60.07664500 0.31021100
-1.63911600 -61.92015100 0.36456300
0.08375000 -60.51602200 0.85028100
-0.58005000 -62.19217700 0.71679700
1.26068700 -60.62953900 1.03283700
0.83384900 -62.44446600 0.96380600
0.52826500 -58.85796400 0.77859500
1.63971900 -58.91941800 0.93045000
0.51802200 -57.37370300 0.74438500
1.72891800 -57.22039000 0.95758100
0.28151100 -55.72583000 0.62957800
1.66336200 -55.46585800 0.89291400
3.16349600 -55.32188400 0.83163500
1.62254100 -53.60805500 0.84588600
3.28647400 -53.49288200 0.77008100
4.93536000 -53.43499800 0.29287700
3.38615200 -51.66926600 0.67153900
5.03438000 -51.59387200 0.15383900
6.49927500 -51.56601000 -0.66085800
5.10877000 -49.73355100 0.17056300
6.56500600 -49.68090800 -0.70590200
7.62180700 -49.63790900 -1.68435700
7.64400100 -51.52302600 -1.59213300
8.35545700 -49.60548400 -2.64425700
8.38257800 -51.48652600 -2.54928600
8.74477400 -49.59779400 -3.37490800
8.76839100 -51.46430200 -3.34558100
9.08228100 -49.59010300 -3.98901400
9.12966300 -51.45274400 -3.96048000
9.43984000 -49.58055900 -4.51617400
9.52766600 -51.43647800 -4.46398900
9.89318800 -49.55529800 -4.86456300
10.00621400 -51.40376300 -4.76861600
10.42889800 -49.51647200 -4.91198700
10.52196900 -51.36557800 -4.90451000
10.61176300 -53.20536800 -4.93985000
11.03074500 -51.32466900 -4.91418500
11.12960100 -53.16354400 -4.92816200
11.49733200 -51.29341100 -4.76013200
11.61454000 -53.12635800 -4.78549200
11.80943500 -51.27595500 -4.39050300
11.95726600 -53.10865000 -4.42303500
11.94537400 -51.27546700 -3.90295400
12.09083000 -53.10855100 -3.92861900
11.99555000 -51.28652200 -3.38851900
12.07297700 -53.11280800 -3.39205900
11.96287700 -51.30305500 -2.83892800
11.97735800 -53.12045300 -2.84387200
11.85003500 -51.32335700 -2.25231900
11.83943000 -53.13256100 -2.27365100
11.64325000 -51.34193400 -1.58548000
11.59097100 -53.14721700 -1.74108900
11.26688900 -51.36224400 -0.83157300
11.00130500 -53.14881900 -1.03717000
10.71065300 -51.39654500 0.22113000
10.45348200 -53.15724900 0.30972300
9.85759500 -51.36368600 1.33438100
9.73243100 -53.25036600 1.64691200
8.60738600 -51.36433400 2.43341100
8.47494500 -53.25874300 2.57678200
7.08133700 -51.40951500 3.29174800
7.05310200 -53.26382400 3.49209600
5.41186300 -51.46767400 3.94497700
5.31775500 -53.27737400 3.89889500
5.27218600 -55.08998100 4.22781400
3.54571300 -53.23342100 4.29077100
3.51020200 -55.04141200 4.62554900
3.45752100 -56.92337000 4.66146900
1.72164700 -55.03285200 4.65585300
1.71319000 -56.92449200 4.76065100
1.71621500 -58.80428300 4.84106400
-0.02916500 -56.95069100 4.61151100
0.01460800 -58.81890900 4.68463100
0.13960400 -60.70256800 4.83688400
-1.56668700 -58.84812200 4.05374100
-1.54345500 -60.68405200 4.32550000
-1.45796800 -62.54880500 4.27093500
-3.19142700 -60.64053300 3.57275400
-3.14183600 -62.50134300 3.65887500
-3.13117800 -64.32975000 3.66879300
-4.74058400 -62.35919200 2.73931900
-4.67993400 -64.17744400 2.71847500
-4.74025900 -66.03599500 2.84472700
-5.91777600 -64.17224100 1.57061800
-5.96357900 -65.98172000 1.62945600
-5.94838500 -67.81216400 1.68402100
-6.72614500 -65.97700500 0.62179600
-6.72567600 -64.17047100 0.52456700
-7.27265700 -64.15756200 -0.21893300
-6.60267500 -62.38161500 0.39831500
-7.11101400 -62.37307700 -0.28665200
-7.52318400 -62.35180700 -0.93350200
-7.15017500 -60.60187500 -0.23754900
-7.55471600 -60.59983800 -0.91262800
-7.82891700 -60.55818900 -1.56304900
-7.47820900 -58.80760200 -0.92306500
-7.62930500 -58.79806500 -1.56765700
-7.71539900 -58.78752900 -2.15582300
-7.96763400 -60.52215600 -2.14746100
-7.84572400 -58.76989000 -2.68310500
-8.04458400 -60.48627500 -2.68588300
-7.91472400 -58.75292200 -3.17886400
-8.07055500 -60.45550500 -3.19683800
-7.86058600 -58.73638900 -3.65261800
-7.90903300 -60.43280800 -3.63610800
-7.52170400 -58.72773700 -3.96450800
-7.55949200 -60.41526800 -3.94656400
-7.05007800 -58.72430400 -4.03424100
-7.10075600 -60.39527100 -4.05578600
-6.57120000 -58.72464000 -3.95330800
-6.61774600 -60.37921900 -3.96072400
-6.15742300 -58.72773700 -3.65493800
-6.19243100 -60.35743700 -3.65484600
-5.77511800 -58.72664600 -3.26004000
-5.79134200 -60.33470200 -3.25756800
-5.39075700 -58.71788800 -2.84881600
-5.37693600 -60.31393400 -2.82351700
-4.97849100 -58.70755000 -2.39559900
-5.48320200 -57.14823900 -2.95346100
-5.07627700 -57.17208900 -2.54208400
-4.25192800 -57.25652300 -2.05715900
-4.26599700 -58.67663600 -1.78173800
-3.19938100 -57.42208900 -1.20376600
-2.96631100 -58.69193300 -1.35003700
-1.83780500 -57.63951100 -0.61721800
-1.38044900 -58.98904400 -0.88018800
-0.60759600 -57.61460100 -0.00012200
-0.35966300 -58.87123900 -0.03057900
-2.37670700 -55.88203400 -0.43273900
-1.04928000 -55.90650200 0.20318600
-2.67306000 -53.87275700 -0.57226600
-1.39423600 -53.89872000 0.06607100
0.06000700 -53.79574600 0.58313000
-1.51425000 -51.90058900 0.03720100
0.01825900 -51.87213900 0.53967300
1.67562700 -51.77298700 0.78128100
0.02814700 -49.98191100 0.57156400
1.73270200 -49.91886100 0.80670200
3.46811500 -49.81961100 0.67712400
1.73536500 -48.05761000 0.84610000
3.52174600 -47.95921300 0.70211800
5.15119700 -47.88574200 0.07290600
3.52993600 -46.14030500 0.58642600
5.19545500 -46.05204800 -0.09573400
6.48011200 -46.01860800 -0.90194700
6.55326100 -47.82585100 -0.72445700
7.55213000 -45.96084600 -1.66665600
7.44833200 -47.79113800 -1.79422000
8.21781700 -45.90868400 -2.57678200
8.32272500 -47.76196300 -2.68170200
8.63241800 -45.86796600 -3.36718800
8.64883800 -47.73358200 -3.46057100
