-23.64990000 10.85210000 0.51350000
-23.42990000 12.35980000 0.19300000
-26.03360000 11.31940000 0.44570000
-26.97570000 12.25270000 0.24110000
-24.91290000 9.09850000 1.00400000
-26.89990000 10.67770000 0.64410000
-26.59800000 11.52270000 0.45310000
-29.75060000 11.62190000 0.49990000
-29.82250000 13.20660000 0.12110000
-27.13600000 14.48350000 -0.30850000
-26.07230000 8.53090000 1.13710000
-28.19000000 7.06190000 1.58740000
-24.27400000 7.31680000 1.39100000
-31.21120000 9.31420000 1.14070000
-30.78340000 12.29870000 0.42210000
-28.14460000 10.76400000 0.62580000
-31.65510000 11.64320000 0.58610000
-31.15970000 13.03210000 0.21880000
-32.31980000 11.56600000 0.65990000
-34.38590000 13.81490000 0.18830000
-26.19090000 5.51350000 2.02430000
-26.96090000 5.14250000 2.13160000
-24.76220000 5.05000000 2.11790000
-24.56650000 6.49580000 1.64240000
-29.81190000 6.98250000 1.67220000
-34.04460000 11.19910000 0.79390000
-34.12570000 11.86390000 0.66960000
-29.31020000 4.75280000 2.40690000
-28.10680000 4.43270000 2.67070000
-29.23140000 4.55520000 2.68900000
40.09150000 -40.38780000 1.47480000
-26.82780000 4.53820000 2.37750000
-27.87730000 4.54850000 2.48830000
-28.19510000 5.21220000 2.16140000
-28.86620000 6.05840000 1.89980000
-30.38970000 6.25520000 1.90720000
-31.42300000 7.82740000 1.51370000
-32.47900000 6.65180000 1.91330000
-33.13540000 8.38880000 1.41420000
-34.34950000 10.34630000 0.96560000
34.17530000 -26.73730000 1.01260000
37.24390000 -34.20060000 0.03480000
36.94270000 -33.55710000 0.19330000
37.69430000 -33.96610000 1.57120000
-30.31790000 4.73410000 2.58400000
-30.38320000 5.31710000 2.21860000
-32.19310000 5.03530000 2.52920000
-32.39060000 6.00580000 2.08450000
-33.62150000 6.11250000 2.11340000
-33.70260000 8.58520000 1.40440000
-35.33140000 8.48830000 1.44530000
-32.50010000 4.86060000 2.82310000
-35.04280000 6.60970000 2.10780000
-34.76460000 6.49770000 2.07830000
-34.43720000 17.24530000 -0.68470000
-35.22060000 15.05120000 -0.15470000
-35.46050000 12.59200000 0.46950000
-36.07690000 16.22420000 -0.39990000
-38.09950000 15.02260000 -0.04880000
-38.09100000 15.94100000 -0.30720000
-38.94300000 16.23260000 -0.32960000
-38.25850000 17.25690000 -0.58980000
-39.01720000 17.81140000 -0.72290000
-37.58560000 11.10420000 0.87280000
-38.61740000 12.68020000 0.48860000
-38.59780000 13.62660000 0.30070000
-39.47490000 12.95760000 0.43070000
-38.39210000 15.09790000 -0.11120000
-40.08430000 13.03630000 0.43360000
-40.58250000 15.23240000 -0.08570000
-39.80540000 16.49750000 -0.41890000
-41.16850000 15.90580000 -0.22150000
-40.72340000 18.38860000 -0.78290000
-42.53550000 13.32460000 0.37650000
-36.33520000 7.28180000 1.81760000
-36.38980000 8.20340000 1.51740000
-37.80820000 9.58970000 1.17630000
-39.11890000 11.27590000 0.81720000
-42.07990000 11.91370000 0.67470000
-38.49280000 8.56500000 1.43580000
-40.49590000 9.20650000 1.28600000
-44.22410000 9.48060000 1.26880000
-44.27890000 12.00570000 0.68710000
-43.47200000 14.26370000 0.18910000
-42.59640000 9.57470000 1.22080000
-46.69600000 10.59450000 1.03140000
-43.70880000 17.17110000 -0.45560000
-42.26990000 17.63010000 -0.60960000
-43.40190000 18.02880000 -0.61480000
-43.82180000 15.96110000 -0.15830000
-44.58300000 16.50930000 -0.30730000
-44.54260000 18.40540000 -0.67530000
-45.44320000 17.67230000 -0.57760000
-45.39010000 19.60500000 -0.98190000
-45.98130000 18.84360000 -0.83240000
-46.10850000 16.70100000 -0.31270000
-46.75870000 18.45370000 -0.77230000
-47.70670000 18.47540000 -0.70160000
-47.27480000 20.57350000 -1.08190000
-44.98010000 15.39630000 -0.01810000
-45.54630000 16.49180000 -0.33470000
-46.96920000 16.96990000 -0.38410000
-48.18170000 18.93190000 -0.82920000
-48.86130000 17.91990000 -0.53820000
-48.55020000 19.68500000 -0.98320000
-49.76670000 20.73980000 -1.13450000
-50.74810000 19.77960000 -0.96460000
-51.38580000 20.66770000 -1.03140000
-48.23550000 20.56280000 -1.09240000
-51.14240000 22.23190000 -1.27840000
-44.63700000 13.68180000 0.28650000
-46.73830000 14.04800000 0.21630000
-47.10100000 14.81580000 0.09910000
-47.75370000 15.66570000 -0.06330000
-48.03020000 16.67860000 -0.33590000
-49.72960000 18.16980000 -0.66500000
-49.19020000 16.10950000 -0.20650000
-50.23800000 15.85130000 -0.06760000
-50.39710000 18.08540000 -0.60910000
-51.43790000 18.74190000 -0.73780000
-52.29360000 19.02370000 -0.78480000
-45.61010000 12.74290000 0.50960000
-46.08410000 13.20200000 0.38850000
-47.42250000 13.91770000 0.25330000
-48.64910000 14.05350000 0.26280000
-49.30600000 14.89250000 0.07290000
-51.09160000 17.03530000 -0.41320000
-47.44350000 12.07410000 0.65660000
-48.38290000 13.01410000 0.46890000
-50.46740000 14.31960000 0.19290000
-51.21400000 14.90500000 0.13700000
-52.74150000 16.01160000 -0.15760000
-50.00140000 13.84020000 0.26330000
-51.25800000 12.99640000 0.57000000
-52.02390000 12.63900000 0.61520000
-53.74520000 13.17780000 0.45920000
-52.16830000 20.26500000 -1.00350000
-52.27340000 21.66640000 -1.19150000
-53.27700000 21.61960000 -1.17280000
-52.96020000 22.50280000 -1.26860000
-54.24330000 21.59460000 -1.21900000
-52.47290000 19.41260000 -0.82300000
-53.24960000 19.91510000 -0.90190000
-54.90840000 21.51610000 -1.14850000
-55.57470000 21.43480000 -1.08480000
-54.45700000 23.66400000 -1.40400000
-56.29210000 22.99100000 -1.26740000
-57.17990000 22.29460000 -1.20610000
-56.93630000 23.86250000 -1.37590000
-58.23490000 22.01810000 -1.11290000
-55.24030000 23.25920000 -1.38120000
-58.18890000 23.92870000 -1.44460000
-53.54950000 18.18490000 -0.56160000
-54.23370000 18.07880000 -0.56970000
-54.09740000 19.32700000 -0.76140000
-55.61150000 18.66190000 -0.68370000
-56.09790000 19.97510000 -0.89450000
-56.48740000 19.77810000 -0.86980000
-59.14320000 23.93410000 -1.41460000
-58.50160000 23.05610000 -1.32250000
-60.33870000 22.37790000 -1.19900000
-59.98920000 24.24090000 -1.39910000
-61.16650000 23.62760000 -1.38030000
-58.58050000 20.16520000 -0.88770000
-56.05840000 17.41120000 -0.40990000
-56.70480000 18.27730000 -0.53200000
-58.03490000 19.01720000 -0.70260000
-57.40920000 20.76300000 -0.94510000
-59.14790000 20.36090000 -0.89940000
-60.59600000 19.87860000 -0.80330000
-55.37360000 16.65040000 -0.24400000
-57.11030000 17.14270000 -0.29680000
-57.96090000 17.43770000 -0.31090000
-60.16870000 17.50740000 -0.35450000
-61.04230000 21.30480000 -1.06090000
-55.27410000 13.36080000 0.43200000
-55.24020000 15.24040000 0.02280000
-56.18970000 15.25830000 0.08390000
-57.14550000 15.26000000 0.10460000
-58.08630000 16.19640000 -0.09220000
-59.20560000 17.52420000 -0.32860000
-61.92900000 19.71790000 -0.76750000
-62.34250000 18.55980000 -0.49510000
-56.11700000 13.67550000 0.46730000
-58.10110000 15.26210000 0.12620000
-59.53250000 15.71870000 0.01530000
-60.28170000 16.29730000 -0.05750000
-61.78820000 17.43390000 -0.25470000
-61.72330000 15.83160000 0.07990000
-62.78250000 15.54430000 0.14590000
-62.47640000 24.41910000 -1.42180000
-63.39280000 22.75320000 -1.22990000
-64.13390000 26.01710000 -1.48350000
-64.78190000 24.21420000 -1.38390000
-64.08350000 27.04190000 -1.47530000
-67.93090000 28.75490000 -1.46730000
-66.72400000 25.90770000 -1.45730000
-68.74820000 26.48390000 -1.42100000
-62.32740000 25.72070000 -1.48960000
-62.11840000 23.63910000 -1.33510000
-70.04240000 26.43040000 -1.37010000
-69.49880000 27.94180000 -1.43050000
-61.48460000 22.74120000 -1.29290000
-62.25980000 22.35690000 -1.21880000
-65.48840000 25.78950000 -1.42730000
-67.07960000 24.02930000 -1.29590000
-67.53690000 24.53100000 -1.31040000
-65.33730000 21.77620000 -1.08560000
-65.38230000 23.42940000 -1.29280000
-69.66340000 23.93620000 -1.22900000
-70.57420000 24.94920000 -1.23390000
-62.76960000 20.93170000 -0.94240000
-62.81490000 19.02300000 -0.60600000
-63.35840000 20.17650000 -0.77740000
-64.29240000 21.13000000 -0.93110000
-66.66790000 21.61830000 -0.94650000
-67.32320000 22.46140000 -1.12600000
-69.97900000 23.05630000 -1.12510000
-65.28310000 19.24970000 -0.50720000
-66.30880000 20.84130000 -0.85240000
-64.04800000 19.13880000 -0.55060000
-71.17340000 24.16730000 -1.13550000
-70.56620000 22.30490000 -0.95050000
-63.34160000 15.76130000 0.18770000
-64.28510000 17.58250000 -0.19790000
-64.75410000 17.16290000 -0.11500000
-66.35270000 18.03940000 -0.19460000
-66.71400000 19.70770000 -0.61480000
-69.45050000 20.96800000 -0.73660000
-69.85840000 19.82760000 -0.51630000
-67.74410000 20.39140000 -0.67530000
-71.28710000 20.29110000 -0.60990000
-67.49440000 18.41360000 -0.26110000
-68.28320000 17.09810000 0.03910000
-68.25040000 18.97500000 -0.37700000
-69.02790000 18.58480000 -0.31760000
-71.62750000 22.01250000 -0.89720000
-71.61810000 27.36540000 -1.30310000
-70.84330000 27.74860000 -1.37990000
-72.82810000 28.43680000 -1.41270000
-73.15670000 27.52370000 -1.39220000
-73.77980000 28.44900000 -1.36570000
-76.08290000 28.25030000 -1.31240000
-77.26460000 31.16670000 -1.30270000
-75.94110000 31.30130000 -1.34640000
-71.60270000 26.52320000 -1.31540000
-72.41130000 26.93550000 -1.34340000
-74.56530000 28.03860000 -1.35710000
-75.56090000 27.04220000 -1.27770000
-76.58710000 27.73570000 -1.31370000
-77.64500000 27.45210000 -1.23850000
-78.06370000 28.94850000 -1.32010000
-78.62530000 27.38550000 -1.21120000
-79.34160000 28.05370000 -1.23720000
-72.28060000 25.52580000 -1.29540000
-73.47230000 26.64390000 -1.28800000
-74.86260000 25.43720000 -1.21700000
-71.56980000 23.95280000 -1.15460000
-73.28770000 25.38420000 -1.24910000
-76.94410000 26.74110000 -1.21750000
-72.66030000 22.68930000 -0.97500000
-73.76490000 24.05450000 -1.11800000
-76.41250000 24.67010000 -1.06540000
-76.80570000 24.46370000 -1.06410000
-77.32490000 25.05550000 -1.08520000
-78.36110000 25.69900000 -1.14780000
-79.25080000 25.64590000 -1.13050000
-73.48810000 20.37470000 -0.52250000
-73.61390000 22.69650000 -0.94050000
-74.51440000 21.07110000 -0.63970000
-76.84370000 23.46730000 -0.90500000
-74.75680000 23.09350000 -0.94230000
-75.72290000 22.14650000 -0.74700000
-78.14850000 24.27480000 -1.00250000
-80.25880000 23.72130000 -0.81760000
-81.89130000 26.27960000 -1.03250000
-73.11330000 19.64080000 -0.41670000
-75.65550000 21.44320000 -0.60930000
-77.06430000 21.96110000 -0.67680000
-77.81340000 22.54010000 -0.74850000
-79.82230000 22.27010000 -0.62270000
-73.77980000 19.55870000 -0.35490000
-77.67490000 20.25380000 -0.33780000
-83.65520000 33.77690000 -1.01640000
-84.69930000 31.76490000 -1.05800000
-84.92860000 32.89800000 -1.02950000
-86.96880000 34.01730000 -0.91910000
-85.15390000 34.04110000 -0.97590000
-86.65740000 30.75310000 -1.00060000
-82.10080000 31.90020000 -1.16350000
-83.74980000 31.74700000 -1.11910000
-82.97490000 33.16470000 -1.07900000
-80.88490000 31.73560000 -1.19670000
-82.67670000 30.30170000 -1.17660000
-87.60500000 33.43120000 -0.91170000
-83.96230000 29.38730000 -1.14300000
-78.93850000 29.18890000 -1.27730000
-81.42500000 28.46540000 -1.19350000
-79.22340000 31.03910000 -1.27090000
-84.59220000 29.40700000 -1.08270000
-82.37950000 28.47040000 -1.16450000
-87.48950000 31.09510000 -0.89690000
-84.07150000 29.08370000 -1.13420000
-83.11050000 29.09530000 -1.12140000
-87.31190000 28.93380000 -0.94200000
-80.34140000 27.04680000 -1.18420000
-88.19640000 28.24580000 -0.85950000
-88.49440000 30.07530000 -0.87610000
-82.07180000 26.66580000 -1.08550000
-83.09260000 27.37310000 -1.08700000
-85.55710000 27.60910000 -0.96500000
-89.77480000 29.17410000 -0.80930000
-84.33090000 27.47570000 -1.06450000
-83.04160000 24.84870000 -0.81100000
-83.80100000 26.28760000 -0.97980000
-85.55990000 25.82500000 -0.80600000
-87.24740000 26.45140000 -0.79150000
-81.38910000 24.12450000 -0.81160000
-83.65370000 24.92050000 -0.82530000
-90.70700000 27.46570000 -0.65400000
-82.26990000 23.44570000 -0.69820000
-85.83930000 25.04640000 -0.72810000
-85.58600000 23.97450000 -0.60340000
-84.73060000 23.69170000 -0.55880000
-93.29460000 36.01090000 -0.39100000
-93.26720000 35.40300000 -0.49430000
-95.55700000 35.71080000 -0.30660000
-94.49560000 35.98110000 -0.26870000
-93.08330000 36.27810000 -0.23270000
-90.02230000 33.79640000 -0.73770000
-90.42020000 33.57800000 -0.76620000
-90.85910000 35.89440000 -0.58380000
-91.76090000 36.19320000 -0.47930000
-93.44590000 34.02590000 -0.61550000
-95.85690000 35.78530000 -0.17730000
-97.44780000 35.30560000 -0.20590000
-95.50480000 34.49980000 -0.41600000
-91.42820000 34.31810000 -0.68550000
-92.77040000 33.24750000 -0.68100000
-87.38420000 34.92440000 -0.77110000
-89.47360000 33.55300000 -0.84530000
-88.94890000 35.88760000 -0.63350000
-96.99930000 35.05900000 -0.31060000
-92.75200000 32.41300000 -0.67700000
-89.80090000 32.64320000 -0.81640000
-94.28660000 32.57820000 -0.64630000
-89.28500000 31.41950000 -0.82070000
-88.79420000 31.90000000 -0.90490000
-90.75670000 32.64490000 -0.79570000
-95.32840000 32.33900000 -0.56980000
-96.40650000 32.00030000 -0.52260000
-97.62780000 31.26210000 -0.43190000
-97.69420000 32.84830000 -0.42250000
-91.22930000 30.44700000 -0.78350000
-91.86670000 31.33190000 -0.74020000
-94.16170000 31.15370000 -0.63550000
-94.87720000 30.05030000 -0.57320000
-96.60180000 29.68410000 -0.43740000
-95.61410000 30.66050000 -0.56680000
-98.24780000 31.31140000 -0.42580000
-91.14740000 28.01260000 -0.62530000
-93.36220000 28.88740000 -0.57780000
-97.94250000 29.50060000 -0.36240000
-96.07520000 28.48780000 -0.37320000
-94.18260000 28.43590000 -0.53590000
-92.45490000 28.81020000 -0.65160000
-92.02980000 27.33000000 -0.52920000
-91.57330000 26.82620000 -0.51980000
-93.37060000 27.14620000 -0.45480000
-97.34960000 27.60180000 -0.26830000
-90.37520000 25.72480000 -0.48550000
-91.01670000 26.60300000 -0.57710000
-93.96310000 27.26960000 -0.39140000
-96.53950000 28.97160000 -0.43240000
-95.34220000 27.86790000 -0.40380000
-99.57570000 34.79390000 -0.15180000
-99.52670000 33.94970000 -0.18980000
-100.20230000 33.84450000 -0.18580000
-101.01290000 34.44720000 0.00830000
-101.11910000 33.88690000 -0.08390000
-101.03830000 32.40870000 -0.18680000
-102.32250000 33.76320000 -0.00250000
-100.87550000 31.97760000 -0.24660000
-104.42750000 33.12680000 0.17880000
-103.70500000 33.06520000 0.00460000
-105.41970000 32.55790000 0.19650000
-102.61950000 31.55700000 -0.09320000
-104.89470000 31.43420000 -0.00350000
-106.14500000 32.30760000 0.26250000
-101.40190000 30.51420000 -0.19400000
-103.66290000 31.31500000 -0.06740000
-105.66250000 31.06900000 0.11820000
-106.89880000 31.81480000 0.32030000
-100.68620000 29.84590000 -0.21740000
-102.75470000 30.29570000 -0.07830000
-100.19090000 30.33790000 -0.27280000
-103.70180000 30.31930000 -0.00280000
-99.55540000 29.44430000 -0.21960000
-14.29730000 5.80370000 1.26700000
-16.10370000 5.20360000 1.58600000
-16.26330000 8.33300000 0.72830000
-13.61970000 6.81040000 0.96260000
-15.57150000 10.27260000 0.20210000
-18.26150000 9.01330000 0.67150000
-19.02260000 8.63860000 0.77390000
-20.01450000 9.69410000 0.60190000
-19.73930000 11.09340000 0.28320000
-22.05470000 9.07000000 0.88330000
-18.89440000 9.88730000 0.57370000
-20.97240000 11.20920000 0.33860000
-16.37450000 3.46660000 2.22300000
-17.91890000 3.67490000 2.21400000
-14.44330000 2.87250000 2.23250000
-18.48410000 4.78270000 1.85210000
-17.33070000 6.23170000 1.36790000
-20.46500000 7.27410000 1.21870000
-20.17010000 8.10130000 0.98270000
-18.66930000 6.05350000 1.45640000
38.03590000 -36.07590000 0.03760000
38.60750000 -36.93240000 -0.17200000
38.18420000 -36.63530000 0.82930000
-18.91470000 3.74250000 2.26530000
-18.77970000 3.50810000 2.42500000
-20.37080000 3.97050000 2.34430000
-17.68620000 3.39620000 2.66660000
-16.98020000 3.22170000 2.43740000
-20.73850000 4.35110000 2.16580000
-19.62770000 4.22850000 2.09040000
-21.86100000 6.03770000 1.67640000
-21.22780000 6.02480000 1.68430000
-22.56170000 6.75520000 1.48990000
-23.42540000 6.12020000 1.70530000
-22.28630000 3.86610000 2.76750000
-23.90770000 4.08090000 2.55060000
-21.68920000 3.81380000 2.48700000
-24.42080000 4.19330000 2.51230000
-22.37740000 4.55020000 2.20920000
37.65400000 -35.59630000 0.39390000
-21.55860000 3.69280000 2.60580000
-25.88290000 4.12970000 2.64860000
-25.90380000 4.47830000 2.37340000
-16.64110000 18.86280000 -1.50970000
-16.97090000 17.06180000 -1.18840000
-17.79880000 18.31130000 -1.37020000
-12.15070000 16.28730000 -1.42090000
-12.81800000 16.20320000 -1.36420000
-11.82250000 18.09600000 -1.75670000
-12.77460000 18.10690000 -1.71310000
-13.72670000 17.22520000 -1.45650000
-18.87430000 20.64740000 -1.64000000
-18.93620000 18.72810000 -1.37930000
-20.14170000 19.77910000 -1.49070000
-15.65590000 16.28340000 -1.11430000
-13.87930000 15.01420000 -0.99820000
-12.65390000 14.87870000 -1.10290000
-20.18910000 17.86510000 -1.16760000
-21.38430000 19.87080000 -1.49570000
-12.38010000 13.85900000 -0.84740000
-13.71560000 13.68870000 -0.73940000
-16.06540000 15.16600000 -0.85680000
-17.79160000 13.87170000 -0.45870000
-15.07880000 12.54590000 -0.35470000
-19.49210000 14.46360000 -0.48960000
-21.48710000 17.80130000 -1.12220000
-13.57310000 10.51590000 0.00940000
-17.07260000 11.42300000 0.03930000
-21.19710000 15.04410000 -0.54120000
-20.44160000 13.58990000 -0.25690000
-21.42650000 12.61560000 0.03170000
-18.95620000 12.39440000 -0.05330000
-22.59110000 17.38910000 -1.03940000
-24.35450000 15.13080000 -0.52580000
-22.56450000 12.99920000 -0.01120000
-22.10190000 21.44450000 -1.63670000
-20.48770000 21.11700000 -1.65040000
-22.38390000 19.74950000 -1.43330000
-24.43590000 22.91720000 -1.74290000
-24.41680000 22.08380000 -1.72030000
-25.57430000 21.53740000 -1.68810000
-26.80940000 23.41020000 -1.74620000
-27.02630000 22.80700000 -1.71860000
-23.66240000 20.63250000 -1.59530000
-25.68830000 20.31920000 -1.57780000
-28.85460000 23.04370000 -1.73400000
-29.17380000 23.92670000 -1.69100000
-28.27470000 24.65200000 -1.68010000
-23.01270000 18.88460000 -1.31560000
-27.25510000 20.59190000 -1.55240000
-29.95120000 21.53310000 -1.59820000
-27.63820000 21.99290000 -1.70100000
-27.76610000 23.40930000 -1.72440000
-24.30710000 17.94160000 -1.16130000
-26.59370000 18.68150000 -1.31550000
-28.45410000 20.60850000 -1.57320000
-25.75450000 17.46080000 -1.06160000
-27.34160000 19.26350000 -1.37970000
-28.19890000 19.54140000 -1.43660000
-29.22930000 20.22430000 -1.49890000
-26.17210000 15.39890000 -0.59070000
-28.93820000 15.68730000 -0.58830000
-27.36260000 18.31340000 -1.20090000
-29.94120000 18.23340000 -1.10110000
-30.60500000 18.15840000 -1.02180000
-31.97700000 20.55940000 -1.37970000
-26.57020000 14.28360000 -0.30730000
-27.79850000 15.30820000 -0.53400000
-29.59210000 16.54810000 -0.73240000
-30.56690000 14.69430000 -0.23330000
-32.25770000 16.20740000 -0.50750000
-32.62840000 16.95460000 -0.66870000
-31.45950000 18.44330000 -1.06090000
-35.85700000 25.72510000 -1.41980000
-36.92640000 27.17980000 -1.33860000
-36.36010000 26.98130000 -1.33380000
-37.70690000 25.01440000 -1.37750000
-38.89940000 27.89810000 -1.29620000
-34.83910000 25.01040000 -1.43690000
-34.39810000 24.46710000 -1.52640000
-35.20950000 24.86850000 -1.46620000
-35.29720000 25.50990000 -1.45680000
-31.08530000 23.93020000 -1.64920000
-31.68800000 23.13960000 -1.57280000
-31.30670000 25.08340000 -1.57060000
-31.87220000 25.28400000 -1.56990000
-34.05640000 27.18140000 -1.38370000
-33.53640000 25.08760000 -1.48970000
-34.83920000 23.24230000 -1.51740000
-36.58740000 24.58380000 -1.45220000
-31.16270000 22.82880000 -1.61270000
-39.23890000 26.07080000 -1.31430000
-39.17240000 24.48750000 -1.39330000
-32.87380000 23.38880000 -1.56790000
-37.67590000 22.44570000 -1.41740000
-39.00340000 24.07210000 -1.41360000
-33.25200000 22.33670000 -1.51080000
-37.34900000 22.46640000 -1.37130000
-32.83030000 20.84770000 -1.41050000
-34.41810000 21.75180000 -1.42080000
-36.11970000 22.34070000 -1.45140000
-31.94770000 21.53080000 -1.50530000
-37.49500000 21.17260000 -1.28410000
-36.82920000 21.25270000 -1.35070000
-40.43330000 21.86800000 -1.28220000
-32.68700000 18.57330000 -0.96970000
-33.52530000 19.79630000 -1.21790000
-35.43560000 19.80310000 -1.16820000
-36.35310000 20.80170000 -1.29460000
-38.09790000 20.38130000 -1.20920000
-38.73890000 21.26080000 -1.29760000
-39.19120000 21.77510000 -1.28040000
-35.08900000 18.09750000 -0.84130000
-35.64800000 18.31460000 -0.79950000
-38.97130000 19.72150000 -1.05600000
-39.93370000 19.70650000 -1.07710000
-37.28120000 18.20670000 -0.78590000
-37.47000000 18.57170000 -0.89190000
-38.12330000 19.41990000 -1.05860000
-41.24730000 20.76550000 -1.19030000
-41.74260000 19.99670000 -1.08670000
-42.73130000 29.65060000 -1.18910000
-41.95210000 28.69770000 -1.26480000
-43.69690000 27.85940000 -1.31090000
-44.32000000 28.78470000 -1.28480000
-43.06590000 30.49010000 -1.12680000
-41.49760000 27.76820000 -1.32120000
-42.50670000 26.73770000 -1.32740000
-46.46320000 28.14730000 -1.30980000
-45.49670000 29.94240000 -1.22630000
-40.13900000 26.22970000 -1.36140000
-40.92350000 25.82180000 -1.34640000
-40.97220000 27.45450000 -1.26870000
-40.26630000 28.61320000 -1.25420000
-44.62430000 31.03350000 -1.14600000
-46.84250000 29.74880000 -1.26430000
-48.16380000 30.50670000 -1.25420000
-46.97630000 31.14590000 -1.20780000
-40.29230000 24.91720000 -1.32090000
-43.06800000 26.94890000 -1.30020000
-44.78970000 27.48240000 -1.33390000
-46.02070000 31.14360000 -1.23020000
-41.10480000 25.31930000 -1.37440000
-47.09260000 27.28850000 -1.40420000
-48.08230000 28.08150000 -1.38320000
-40.61020000 24.03120000 -1.23230000
-42.71720000 24.38280000 -1.33910000
-43.86810000 26.50140000 -1.38430000
-44.93240000 26.20140000 -1.35020000
-47.26140000 25.93680000 -1.46190000
-42.03470000 24.50550000 -1.29920000
-49.41140000 26.43940000 -1.41640000
-41.30500000 23.87720000 -1.35070000
-45.10940000 26.59630000 -1.38120000
-47.42330000 26.37010000 -1.39660000
-48.78360000 26.13660000 -1.44690000
-40.92850000 23.14460000 -1.14550000
-41.46750000 21.64830000 -1.15700000
-43.67850000 24.37050000 -1.35350000
-43.38950000 24.28610000 -1.31390000
-42.19280000 22.29590000 -1.30190000
-43.83530000 23.04920000 -1.33500000
-46.67160000 24.02990000 -1.38800000
-45.20650000 24.55580000 -1.37490000
-47.87370000 25.14990000 -1.40320000
-46.71450000 23.02420000 -1.34850000
-48.64910000 24.71900000 -1.39620000
-43.87640000 22.04790000 -1.28450000
-42.09680000 20.78630000 -1.14930000
-43.30800000 21.85450000 -1.26700000
-43.62210000 20.97850000 -1.15340000
-44.82650000 22.06390000 -1.22790000
-45.57900000 22.63420000 -1.32140000
-49.71490000 24.68960000 -1.43120000
-49.08040000 23.53680000 -1.30290000
-42.80050000 19.71310000 -1.01150000
-45.07330000 20.48810000 -1.07770000
-45.33010000 21.55120000 -1.22460000
-45.90290000 21.73320000 -1.27060000
-47.49190000 22.63430000 -1.28850000
-46.31580000 20.58010000 -1.08190000
-47.14300000 21.83110000 -1.25980000
-48.30130000 21.26630000 -1.11970000
-49.73610000 21.71450000 -1.25170000
-50.26850000 22.89590000 -1.35320000
-49.41530000 30.57560000 -1.31580000
-49.86380000 31.09980000 -1.27410000
-49.86970000 32.85250000 -1.23220000
-50.77420000 30.34590000 -1.35660000
-51.84060000 31.80830000 -1.25630000
-50.88260000 31.81220000 -1.26280000
-56.14520000 34.02290000 -1.26270000
-55.52210000 33.09780000 -1.28860000
-56.61760000 33.59700000 -1.26810000
-49.46480000 29.55290000 -1.31880000
-52.36790000 31.23180000 -1.31640000
-53.41870000 30.96940000 -1.28420000
-52.70090000 32.07860000 -1.33190000
-53.78590000 31.72060000 -1.28930000
-55.05170000 30.86640000 -1.40240000
-54.91340000 33.01770000 -1.30410000
-56.42890000 32.35300000 -1.34810000
-57.41600000 33.15180000 -1.29150000
-52.80480000 30.02070000 -1.36910000
-53.99550000 32.90900000 -1.27600000
-53.58860000 29.61460000 -1.34960000
-55.01010000 30.09650000 -1.39730000
-51.05020000 28.69540000 -1.39340000
-51.95090000 29.73410000 -1.33400000
-55.96410000 28.33490000 -1.44510000
-57.10720000 30.47310000 -1.44140000
-51.99930000 26.94630000 -1.41000000
-53.12570000 27.35940000 -1.37910000
-58.68380000 29.63800000 -1.45990000
-55.66790000 28.26890000 -1.35950000
-54.31580000 26.71350000 -1.44190000
-50.23750000 26.75490000 -1.44070000
-51.05950000 26.90010000 -1.42370000
-52.74580000 27.53000000 -1.41080000
-51.20870000 25.60200000 -1.46550000
-51.70180000 25.11580000 -1.39580000
-56.64780000 28.20920000 -1.49250000
-57.72180000 27.88430000 -1.52070000
-53.55400000 24.39900000 -1.36890000
-50.39440000 24.31790000 -1.37040000
-54.24180000 24.26300000 -1.44230000
-51.53460000 24.69570000 -1.42770000
-53.96300000 25.92030000 -1.38820000
-55.83870000 26.91180000 -1.43060000
-57.70720000 26.15360000 -1.50740000
-58.68320000 27.87160000 -1.53600000
-50.54710000 23.00680000 -1.32630000
-52.14550000 22.99590000 -1.32620000
-55.69610000 25.53780000 -1.45810000
-56.74880000 26.15860000 -1.51130000
-55.94450000 24.84900000 -1.48010000
-59.45050000 25.73990000 -1.49070000
-57.01100000 24.54350000 -1.45960000
-59.23190000 35.18650000 -1.10890000
-58.90510000 34.32720000 -1.22080000
-60.23710000 34.17170000 -1.25640000
-60.64310000 35.69470000 -1.09050000
-59.33780000 36.65930000 -0.99880000
-61.58910000 36.60780000 -1.03800000
-62.61870000 36.40630000 -1.06490000
-62.01320000 35.43630000 -1.20310000
-63.16870000 34.58710000 -1.25210000
-57.37580000 34.14520000 -1.19100000
-58.57310000 33.48120000 -1.29920000
-62.90730000 36.49180000 -1.10180000
-58.40710000 31.29030000 -1.41850000
-64.72340000 34.99570000 -1.23710000
-65.54220000 34.49220000 -1.20520000
-64.54800000 36.36430000 -1.12950000
-61.05190000 33.68080000 -1.26830000
-61.57930000 33.98830000 -1.29910000
-63.99050000 36.14360000 -1.18820000
-65.69100000 36.68170000 -1.13500000
-61.82270000 33.31310000 -1.31760000
-61.35740000 32.82660000 -1.10030000
-61.75580000 32.60680000 -1.13240000
-60.88410000 33.26240000 -1.29620000
-60.83490000 32.51640000 -1.37520000
-62.30470000 33.74650000 -1.33830000
-62.75880000 32.48830000 -1.41270000
-63.65720000 33.53290000 -1.33850000
-64.44070000 33.12740000 -1.31760000
-61.32920000 32.02700000 -1.31340000
-61.94040000 31.21480000 -1.29110000
-62.30230000 31.98320000 -1.36410000
-65.17890000 31.96430000 -1.39160000
-61.50810000 30.64940000 -1.43600000
-62.50200000 30.54520000 -1.41140000
-62.41360000 29.90800000 -1.48720000
-67.76810000 31.85940000 -1.36740000
-66.75610000 31.12950000 -1.42260000
-59.64880000 29.61630000 -1.49770000
-63.49140000 31.34150000 -1.45900000
-59.45540000 27.49510000 -1.44250000
-64.15990000 29.48640000 -1.49010000
-65.23070000 30.93780000 -1.41710000
-66.31170000 29.70880000 -1.45900000
-67.15570000 30.02110000 -1.45140000
-62.23330000 27.75340000 -1.51550000
-68.49990000 30.71460000 -1.40870000
-61.66890000 27.55010000 -1.52290000
-63.14850000 26.98350000 -1.51960000
-64.88340000 28.36240000 -1.47170000
-62.78070000 26.23240000 -1.47890000
-65.39310000 27.83420000 -1.50730000
-60.40680000 25.74020000 -1.47340000
-61.99650000 26.63960000 -1.49570000
-65.83250000 26.61370000 -1.49490000
-67.13320000 27.42850000 -1.47780000
-67.65210000 38.01410000 -0.99610000
-67.37030000 37.38080000 -1.09290000
-68.04950000 37.26680000 -1.11880000
-69.42990000 38.18200000 -1.01730000
-70.25850000 38.14800000 -0.90490000
-69.58970000 38.06210000 -1.04060000
-71.02670000 38.17370000 -0.94120000
-71.38030000 37.74910000 -1.06010000
-72.08530000 38.16580000 -0.92210000
-67.02860000 36.55970000 -1.11690000
-67.82090000 34.36390000 -1.23180000
-68.32330000 35.62210000 -1.14110000
-68.92280000 35.72940000 -1.16910000
-69.79710000 36.84190000 -1.13010000
-72.28150000 38.02760000 -1.00050000
-74.93150000 37.76890000 -0.90930000
-73.77980000 37.65610000 -1.03960000
-74.72430000 37.21190000 -1.00670000
-72.83090000 37.80050000 -1.03230000
-71.71920000 36.81860000 -1.15560000
-73.39490000 35.70550000 -1.10110000
-73.40770000 37.96780000 -0.96080000
-66.46930000 34.57540000 -1.23700000
-75.43900000 37.11060000 -1.02520000
-76.39490000 37.84450000 -0.84130000
-70.13560000 34.13570000 -1.25240000
-72.28460000 35.24680000 -1.10190000
-74.34770000 35.71490000 -1.06130000
-72.15850000 33.82990000 -1.20860000
-75.58320000 34.94290000 -1.11600000
-76.48680000 35.97330000 -1.05940000
-68.77700000 33.48180000 -1.27360000
-72.82940000 33.73700000 -1.18160000
-69.76840000 31.61730000 -1.35270000
-72.10530000 33.09450000 -1.26890000
-73.40380000 32.14720000 -1.31730000
-68.55000000 31.45800000 -1.33620000
-75.09220000 32.77130000 -1.30500000
-76.32740000 33.76420000 -1.18140000
-74.47180000 33.60570000 -1.22670000
-76.65090000 34.63570000 -1.15230000
-77.05860000 32.62230000 -1.26350000
-78.07930000 32.44450000 -1.25990000
-71.82070000 31.21380000 -1.34750000
-72.79200000 31.19130000 -1.36120000
-74.35550000 30.39150000 -1.35040000
-76.23310000 33.14410000 -1.27500000
-72.10160000 29.56820000 -1.40480000
-70.36240000 29.97450000 -1.42950000
-74.97880000 31.31630000 -1.32530000
-71.07660000 28.87150000 -1.37700000
-80.18180000 37.84300000 -0.62990000
-79.74000000 37.29390000 -0.76760000
-81.06260000 37.51740000 -0.70950000
-78.20830000 37.47350000 -0.83640000
-78.79330000 36.64860000 -0.94820000
-78.93720000 37.66590000 -0.65990000
-77.49370000 37.68690000 -0.82310000
-82.68960000 37.59740000 -0.44800000
-84.15870000 37.45910000 -0.46200000
-80.25180000 36.13950000 -0.91930000
-82.72050000 36.36500000 -0.82380000
-83.10360000 37.27810000 -0.68750000
-84.49030000 37.27410000 -0.61690000
-78.73720000 35.92030000 -0.98290000
-79.13690000 35.69730000 -1.02320000
-85.54840000 37.19080000 -0.43120000
-85.57390000 36.91560000 -0.64550000
-80.48930000 33.71600000 -1.10290000
-83.76490000 35.24000000 -0.93070000
-81.61820000 34.12260000 -1.08820000
-82.82540000 34.31050000 -1.03330000
-80.94410000 34.22400000 -1.10180000
-86.18480000 35.15850000 -0.84500000
-86.49190000 36.51350000 -0.68520000
-78.69600000 33.38600000 -1.19300000
-87.61400000 36.66290000 -0.57060000
-81.30170000 32.34730000 -1.14100000
-79.36510000 31.52970000 -1.22710000
-86.32980000 37.13940000 -0.55060000
-87.38970000 37.03710000 -0.45070000
-88.64330000 36.73320000 -0.52980000
-89.13310000 36.80180000 -0.42290000
-90.11900000 36.39030000 -0.52450000
-90.80950000 36.64300000 -0.41280000
-91.99790000 36.48320000 -0.34660000
-16.23230000 30.62440000 -1.24980000
-16.92520000 28.70750000 -1.43570000
-17.08410000 30.91650000 -1.27120000
-16.13990000 29.11740000 -1.44560000
-8.80030000 29.14320000 -1.76300000
-9.77020000 27.33960000 -1.87310000
-10.98140000 29.28050000 -1.63730000
-14.28970000 29.82890000 -1.48580000
-12.17710000 26.85260000 -1.81550000
-7.93360000 28.89490000 -1.80310000
-14.47550000 24.89800000 -1.81190000
-11.16780000 26.11600000 -1.88730000
-10.22380000 26.08430000 -1.98320000
-8.37560000 25.02270000 -2.11620000
-14.89550000 26.38280000 -1.66640000
-18.84580000 26.92000000 -1.53180000
-5.61450000 26.48960000 -2.07020000
-18.06540000 25.54970000 -1.65250000
-16.45120000 24.72230000 -1.73850000
-14.25140000 23.75160000 -1.87380000
-11.51250000 24.27800000 -2.00920000
-10.39750000 24.71990000 -2.07260000
-13.25080000 22.99290000 -2.00100000
-9.27470000 22.52990000 -2.20610000
-15.14830000 23.03220000 -1.86970000
-18.45810000 23.57670000 -1.72780000
-11.68010000 22.04510000 -2.10000000
-15.69650000 21.50910000 -1.83840000
-19.98070000 23.77580000 -1.71470000
-10.77560000 21.01600000 -2.12770000
-16.81860000 21.93290000 -1.78070000
-12.50350000 21.52850000 -2.06140000
-20.59440000 22.95690000 -1.70900000
-11.37730000 20.22790000 -2.04500000
-11.97530000 19.44920000 -1.94620000
-13.10290000 19.85930000 -1.92290000
-17.24880000 20.73560000 -1.70270000
-19.85880000 22.34370000 -1.72290000
-10.24610000 19.82730000 -2.05220000
-19.96760000 30.88050000 -1.31200000
-21.49640000 31.94480000 -1.22030000
-20.74650000 33.13950000 -1.16220000
-22.62000000 33.25180000 -1.21000000
-23.75090000 31.88540000 -1.28820000
-23.06350000 33.78840000 -1.13720000
-24.65510000 32.91520000 -1.25100000
-23.63850000 33.96490000 -1.19690000
-18.42500000 31.61950000 -1.24570000
-18.81920000 29.64440000 -1.37430000
-19.18370000 30.40010000 -1.29250000
-23.23760000 30.65520000 -1.30890000
-24.59630000 32.19370000 -1.26880000
-25.76690000 33.36530000 -1.12740000
-26.34580000 31.76390000 -1.29210000
-21.21290000 29.19750000 -1.41390000
-22.79410000 30.11850000 -1.38190000
-23.62830000 30.46340000 -1.27350000
-24.37710000 30.14940000 -1.35720000
-21.55380000 28.25310000 -1.47160000
-22.73540000 29.39670000 -1.40040000
-25.67650000 30.08530000 -1.41580000
-24.14590000 28.13880000 -1.45770000
-24.14050000 29.91880000 -1.30220000
-22.72860000 27.64610000 -1.43690000
-27.36450000 30.70900000 -1.35940000
-27.14010000 29.56330000 -1.41940000
-27.64080000 29.05780000 -1.39790000
-25.05590000 28.26920000 -1.47900000
-27.21310000 27.59370000 -1.52370000
-20.97720000 25.43310000 -1.63890000
-26.17480000 27.81800000 -1.45910000
-22.62840000 25.27580000 -1.64360000
-24.20320000 27.09620000 -1.51030000
-28.32430000 27.16460000 -1.52430000
-23.75960000 26.55960000 -1.58320000
-26.07300000 26.33470000 -1.59540000
-24.49530000 25.40480000 -1.64960000
-25.28710000 24.97830000 -1.68140000
-21.61430000 23.66680000 -1.70400000
-27.00520000 24.63500000 -1.68040000
-27.60190000 24.75000000 -1.70200000
-30.13370000 25.68560000 -1.60930000
-34.47680000 37.07820000 -0.64400000
-33.53760000 36.57260000 -0.88990000
-34.04600000 36.69510000 -0.83400000
-35.48400000 36.95980000 -0.73110000
-33.29100000 37.03140000 -0.78360000
-31.34030000 36.47630000 -0.91280000
-32.31440000 35.54410000 -0.96110000
-31.09160000 34.51640000 -1.06890000
-31.90460000 34.91220000 -0.98430000
-34.55070000 35.53160000 -0.92220000
-26.39430000 34.27960000 -1.12880000
-27.24860000 32.79730000 -1.24620000
-27.34530000 34.29340000 -1.07780000
-27.85210000 35.54010000 -1.01560000
-27.79220000 34.82170000 -1.02580000
-29.15110000 34.59150000 -1.06750000
-29.54690000 36.14660000 -1.00220000
-30.00530000 34.87760000 -1.10370000
-36.23490000 36.16500000 -0.84150000
-33.93510000 34.58720000 -0.99630000
-26.10360000 34.19910000 -1.07170000
-34.55010000 33.76530000 -0.99810000
-28.26250000 31.75440000 -1.28320000
-30.55510000 33.35030000 -1.08300000
-31.52420000 33.31810000 -1.14730000
-32.24170000 33.97750000 -1.01780000
-33.08480000 34.29160000 -0.98390000
-31.23420000 33.23610000 -1.10160000
-29.48960000 32.13110000 -1.24100000
-32.87280000 33.11450000 -1.12250000
-34.16360000 33.95440000 -1.04270000
-36.01070000 33.25090000 -0.98250000
-36.35120000 34.07530000 -0.95800000
-31.01060000 32.08870000 -1.16590000
-31.80020000 31.66790000 -1.18340000
-32.20240000 31.43840000 -1.23990000
-33.15250000 32.33990000 -1.18210000
-28.59550000 30.83010000 -1.29060000
-32.86910000 31.35590000 -1.17910000
-34.92770000 32.71880000 -1.05500000
-36.52570000 32.70900000 -1.05230000
-30.11360000 31.04070000 -1.24860000
-34.05700000 30.71560000 -1.22790000
-31.97830000 30.29220000 -1.30110000
-35.07230000 30.55010000 -1.14540000
-37.20160000 30.83510000 -1.13040000
-29.45570000 27.56500000 -1.52540000
-29.57560000 28.99770000 -1.38750000
-31.30550000 29.50470000 -1.31870000
-33.14690000 29.70100000 -1.22700000
-32.07010000 29.15500000 -1.38560000
-36.13240000 29.37990000 -1.21270000
-34.61140000 29.17690000 -1.23580000
-35.91210000 28.22390000 -1.29850000
-31.41860000 28.30890000 -1.41860000
-31.74820000 27.39320000 -1.40440000
-35.34840000 28.01880000 -1.31040000
-37.65210000 29.58620000 -1.18150000
-38.05040000 31.13480000 -1.13270000
-30.85190000 28.11130000 -1.41160000
-32.30880000 27.60620000 -1.37280000
-32.86440000 27.83220000 -1.30870000
-33.20620000 28.65480000 -1.33400000
-37.04140000 28.62960000 -1.28620000
-33.36980000 27.31480000 -1.31720000
-34.49950000 27.71930000 -1.30780000
-36.17370000 37.36500000 -0.59990000
-35.71160000 37.20910000 -0.71590000
-36.40810000 37.20940000 -0.69860000
-38.60770000 37.27330000 -0.66900000
-37.66770000 37.39660000 -0.48970000
-38.31080000 36.91550000 -0.74520000
-37.43180000 36.38240000 -0.81970000
-40.57730000 37.47840000 -0.59520000
-40.16140000 36.94620000 -0.79570000
-41.77600000 37.27040000 -0.79360000
-36.91840000 36.03960000 -0.88820000
-39.58810000 37.14130000 -0.74350000
-39.79950000 36.00960000 -0.91390000
-36.91980000 34.26800000 -0.97720000
-37.76100000 34.58720000 -0.93070000
-43.20540000 37.43470000 -0.71840000
-44.86390000 37.20540000 -0.80410000
-41.86640000 36.84210000 -0.86520000
-44.43130000 37.52990000 -0.53860000
-44.70940000 37.57490000 -0.72080000
-39.11650000 34.36590000 -0.95020000
-40.81710000 34.95740000 -0.97440000
-40.91430000 36.45220000 -0.80910000
-41.07540000 36.78130000 -0.84240000
-41.66040000 35.27100000 -0.94160000
-42.84860000 35.51310000 -0.92870000
-44.07480000 36.53110000 -0.81320000
-45.56840000 37.53880000 -0.60810000
-37.19840000 32.61110000 -1.03020000
-39.90960000 33.93610000 -0.99020000
-44.82590000 35.33730000 -0.97740000
-45.03630000 36.51840000 -0.82870000
-38.26870000 32.29590000 -1.03410000
-39.63120000 33.82470000 -1.01820000
-44.48630000 34.51040000 -1.00810000
-41.44460000 32.33570000 -1.13610000
-42.23010000 33.69310000 -1.04760000
-42.61530000 33.50720000 -0.99500000
-39.74120000 31.75110000 -1.09450000
-43.06740000 32.25410000 -1.05670000
-44.32460000 33.19110000 -1.07550000
-44.87950000 34.30400000 -1.00680000
-45.62450000 33.12560000 -1.13230000
-45.95650000 35.73960000 -0.97330000
-42.05370000 31.52820000 -1.09390000
-38.42720000 30.97340000 -1.11470000
-44.86970000 32.56270000 -1.06540000
-38.50470000 29.87610000 -1.20830000
-40.47900000 30.59100000 -1.17430000
-43.64050000 32.43520000 -1.10470000
-47.31800000 33.73510000 -1.11130000
-41.32910000 30.88730000 -1.18480000
-45.73830000 32.81020000 -1.15290000
-46.82850000 37.13270000 -0.83810000
-48.32870000 37.71750000 -0.59490000
-47.26920000 37.54140000 -0.71090000
-49.61220000 37.78480000 -0.80480000
-46.75560000 37.55940000 -0.73700000
-49.62800000 37.05460000 -0.94190000
-50.73840000 37.47290000 -0.83020000
-51.31200000 37.73570000 -0.76060000
-47.03490000 35.40350000 -1.02950000
-48.49960000 36.64670000 -0.96000000
-52.90380000 36.81460000 -0.97550000
-53.24690000 37.91660000 -0.69680000
-53.70830000 37.53210000 -0.86300000
-53.63000000 36.56870000 -0.96500000
-48.50160000 34.87360000 -1.05280000
-49.75460000 34.93900000 -1.12360000
-50.93580000 36.08360000 -1.04980000
-55.13280000 38.00080000 -0.74990000
-55.99580000 38.27710000 -0.65850000
-54.54360000 36.68980000 -1.00450000
-54.98700000 37.22660000 -0.93100000
-50.94490000 34.29260000 -1.18760000
-52.00920000 35.76050000 -1.07360000
-53.71230000 34.57760000 -1.19380000
-54.49140000 34.18490000 -1.18350000
-55.80290000 34.97100000 -1.19580000
-55.72880000 36.05640000 -1.03610000
-48.39680000 33.39830000 -1.16920000
-51.90020000 34.29560000 -1.16370000
-52.79230000 33.59110000 -1.21290000
-56.26050000 37.66420000 -0.82040000
-58.05660000 38.23240000 -0.68090000
-57.38260000 37.90780000 -0.82530000
-58.91150000 37.97520000 -0.79030000
-56.85390000 36.47270000 -0.99710000
-58.54560000 37.08670000 -0.96480000
-60.04210000 37.83150000 -0.77280000
-60.56480000 38.02590000 -0.69070000
-60.68460000 36.46030000 -0.96240000
-61.59940000 38.11140000 -0.76200000
-57.93560000 36.12830000 -1.07390000
-63.01370000 38.00620000 -0.82650000
-63.56130000 37.32890000 -1.01670000
-64.23480000 38.03200000 -0.87520000
-58.85390000 36.23190000 -0.99040000
-62.19080000 38.13730000 -0.71760000
-65.43180000 38.15580000 -0.90550000
-66.22280000 38.02790000 -0.99420000
-67.21540000 38.02870000 -0.92210000
-67.86250000 38.21050000 -0.85340000
-65.97480000 38.24850000 -0.82350000
-13.91530000 34.39430000 -1.05470000
-14.76800000 32.91610000 -1.16200000
-15.66370000 33.96750000 -1.07080000
-6.85960000 32.74960000 -1.45920000
-6.87720000 30.93690000 -1.65140000
-9.57200000 30.53570000 -1.58690000
-12.44880000 31.16140000 -1.39870000
-12.79910000 33.95530000 -1.15050000
-15.10820000 31.97360000 -1.21490000
-16.57680000 33.20670000 -1.17040000
-10.38220000 32.70290000 -1.30770000
-11.32410000 30.83310000 -1.42360000
-14.27070000 31.64530000 -1.28440000
-21.11250000 36.75260000 -0.84250000
-20.07730000 34.99260000 -1.02800000
-20.92730000 35.28820000 -1.01280000
-24.32030000 37.24830000 -0.75290000
-24.04300000 36.37460000 -0.95800000
-25.09880000 37.09030000 -0.84880000
-17.41130000 35.31060000 -1.00200000
-18.38190000 33.50670000 -1.15550000
-18.70080000 36.15390000 -0.91370000
-22.54030000 36.62640000 -0.86540000
-23.27620000 36.91310000 -0.79060000
-22.89130000 35.14900000 -1.05720000
-25.14220000 35.98000000 -0.98330000
-25.58800000 34.74440000 -1.04390000
-16.20200000 37.00470000 -0.62670000
-15.03800000 37.08150000 -0.57900000
-14.74470000 36.99920000 -0.70240000
-17.64110000 37.14420000 -0.56470000
-18.05430000 37.01400000 -0.71910000
-14.85730000 36.67590000 -0.78460000
-16.29570000 36.65530000 -0.74810000
-20.69890000 37.12860000 -0.65250000
-18.55320000 36.84180000 -0.77190000
-19.15290000 36.66770000 -0.86280000
-13.82550000 36.18580000 -0.85300000
-16.03500000 35.58740000 -0.92030000
-18.84980000 37.03560000 -0.52190000
-18.02850000 36.24820000 -0.87160000
-21.85640000 37.00820000 -0.71290000
-24.18350000 37.22500000 -0.64700000
-26.20570000 36.74240000 -0.90050000
-28.17140000 36.96960000 -0.89570000
-27.00860000 37.03060000 -0.85470000
-26.47620000 35.81840000 -1.00710000
-28.03420000 37.18990000 -0.79200000
-29.27240000 37.21100000 -0.74600000
-30.24610000 36.77570000 -0.81470000
-30.22530000 37.16650000 -0.62080000
-28.20180000 36.33740000 -0.94370000
-31.87870000 37.16930000 -0.69550000
-30.77150000 36.28410000 -0.89240000
-31.08580000 36.99190000 -0.78460000
-34.00660000 37.11010000 -0.64240000
-4.79090000 36.40160000 -0.91840000
-5.83280000 36.40920000 -0.85650000
-6.69490000 36.65920000 -0.65520000
-7.71840000 36.62320000 -0.78340000
-6.02520000 35.93500000 -0.99700000
-8.28850000 36.47530000 -0.86660000
-5.46400000 35.72250000 -1.00010000
-4.57980000 36.16460000 -0.97890000
-11.47210000 36.84030000 -0.78920000
-12.26690000 36.30910000 -0.89080000
-12.97040000 36.93280000 -0.68040000
-10.70450000 35.34000000 -1.04310000
-10.01360000 36.65790000 -0.88730000
-10.29590000 36.87090000 -0.62830000
-7.15700000 35.45170000 -1.07980000
-8.43720000 36.77780000 -0.74710000
-5.47480000 34.81340000 -1.17300000
-13.42040000 36.83920000 -0.70090000
-8.98180000 33.93380000 -1.27010000
36.98690000 -33.72230000 0.50320000
-1.39530000 31.10330000 -1.58390000
-4.54030000 28.57990000 -1.88300000
-2.73900000 32.68240000 -1.51910000
-2.20040000 28.87500000 -1.78040000
-3.00770000 29.28870000 -1.75360000
-4.90010000 31.99710000 -1.58730000
-6.47250000 28.52760000 -1.88560000
-2.08450000 27.42770000 -1.82670000
1.98110000 28.08760000 -1.73000000
1.39760000 26.57480000 -1.84140000
1.59970000 29.68080000 -1.61730000
-1.85560000 28.06130000 -1.77060000
-0.88290000 26.33910000 -1.88820000
3.39140000 27.57890000 -1.79740000
2.54490000 26.11640000 -1.86530000
-4.69700000 25.24210000 -2.12180000
1.69280000 24.63970000 -1.96860000
-1.46590000 23.53860000 -2.02840000
-3.17160000 25.30190000 -2.01740000
-0.92230000 24.05690000 -1.99720000
-2.69810000 36.45340000 -0.88670000
-2.82360000 36.06360000 -1.04460000
-1.65870000 36.46670000 -0.96980000
-1.26190000 36.17670000 -1.07300000
2.14480000 35.60290000 -1.11630000
1.68210000 34.32300000 -1.24490000
0.93620000 36.15480000 -1.09130000
-0.36250000 33.96210000 -1.34680000
3.55610000 35.09510000 -1.13350000
2.97240000 33.48150000 -1.32860000
2.90400000 32.41060000 -1.45230000
-2.51830000 33.29280000 -1.45180000
4.74840000 33.98280000 -1.25420000
5.21210000 32.62210000 -1.47360000
-4.03760000 33.50010000 -1.41810000
4.97640000 31.97110000 -1.56560000
3.45200000 31.28150000 -1.60420000
0.02050000 32.37470000 -1.49300000
2.27750000 31.55930000 -1.52770000
1.81650000 30.28220000 -1.60140000
0.46510000 30.07260000 -1.63210000
-0.27080000 30.68540000 -1.62700000
3.95120000 29.13140000 -1.75500000
-4.11050000 15.58500000 -1.27090000
-3.30480000 12.48600000 -0.60460000
-4.28650000 10.62820000 -0.12410000
-5.57250000 14.17050000 -0.95150000
-1.91280000 15.49000000 -1.29080000
-6.79510000 16.10650000 -1.45390000
-6.27080000 12.21450000 -0.46630000
-8.92410000 14.60870000 -1.07570000
-8.30560000 17.23290000 -1.67670000
-9.58420000 16.32990000 -1.42220000
-4.39890000 9.42010000 0.17760000
-2.31360000 9.01320000 0.14570000
-6.29280000 10.36510000 0.01870000
-9.37210000 12.46110000 -0.56300000
-9.78130000 14.88700000 -1.13150000
-10.60440000 17.04510000 -1.59580000
-6.04890000 8.37240000 0.39580000
-7.36870000 9.13880000 0.29150000
-3.49400000 7.49540000 0.45760000
-5.89190000 7.02980000 0.61160000
-7.96160000 8.37310000 0.43030000
-8.31820000 10.05320000 0.03960000
-10.33910000 9.75270000 0.08900000
-12.12440000 11.89630000 -0.39540000
-6.31640000 4.95060000 1.03940000
-9.82460000 6.72790000 0.81860000
-12.17600000 8.17840000 0.52650000
-12.72080000 10.22520000 0.03420000
-0.10420000 21.42450000 -2.06200000
1.18810000 22.35610000 -2.05270000
-3.74000000 23.72710000 -2.11540000
-6.32030000 23.65080000 -2.24670000
-2.59380000 21.59670000 -2.09970000
-4.47600000 22.57150000 -2.18400000
-7.36760000 24.28280000 -2.19640000
-1.38910000 20.51190000 -2.02360000
-0.10430000 19.64950000 -1.94990000
1.01670000 20.99350000 -2.00970000
-1.17080000 18.45410000 -1.80970000
-2.67050000 19.60820000 -1.96300000
-3.87640000 20.69190000 -2.10100000
-6.54470000 21.25670000 -2.23460000
-7.19260000 22.11490000 -2.25810000
-1.29690000 17.21100000 -1.59540000
-3.76650000 18.33080000 -1.81820000
-7.09620000 19.72120000 -2.11620000
-3.30560000 17.83540000 -1.70250000
-8.30220000 20.80290000 -2.20010000
-2.84840000 16.43970000 -1.45420000
-5.42780000 17.25450000 -1.67180000
-9.70180000 18.67580000 -1.87580000
-7.22580000 18.46920000 -1.92440000
4.53340000 36.22690000 -0.96550000
6.61490000 35.77880000 -1.12370000
5.20420000 35.79040000 -1.08190000
3.40690000 35.98970000 -1.08400000
1.86420000 36.27670000 -1.04260000
3.76650000 36.39430000 -0.90850000
0.68880000 36.42270000 -0.96230000
-4.52420000 4.61780000 0.94220000
-8.22090000 4.97200000 1.12560000
-6.34380000 2.16730000 1.72930000
-7.29940000 2.13710000 1.80980000
-4.45650000 3.02220000 1.29350000
-7.84790000 4.23030000 1.30830000
-12.12200000 4.75470000 1.41620000
40.71990000 -41.64070000 1.58760000
39.97810000 -40.65910000 1.15630000
-8.95830000 1.97810000 2.11130000
-10.21350000 2.26380000 2.05570000
-8.96500000 2.19060000 1.94670000
-10.99290000 2.76810000 1.90750000
36.43640000 -31.60430000 1.31650000
-7.75290000 1.92150000 2.12080000
-6.58510000 1.67750000 2.03500000
-7.41260000 1.91270000 1.93670000
-8.72490000 2.65810000 1.76240000
-13.15750000 5.42460000 1.32130000
35.58960000 -29.22310000 1.35650000
-15.63910000 3.02500000 2.40960000
-15.19100000 2.87260000 2.57520000
-11.08590000 2.30390000 2.21930000
-12.78730000 2.81410000 2.07710000
-12.77850000 2.50100000 2.35230000
-14.49300000 3.39820000 2.01210000
38.68620000 -37.10550000 1.53600000
38.02010000 -35.96720000 1.28640000
38.08140000 -35.39650000 1.53800000
6.79560000 33.47340000 -1.37190000
6.91890000 34.69570000 -1.22650000
8.50610000 34.67640000 -1.24390000
7.42510000 32.56740000 -1.43520000
5.85680000 31.75760000 -1.51860000
12.13070000 31.47690000 -1.73770000
10.17720000 30.47820000 -1.68520000
11.12380000 32.21680000 -1.56700000
8.86950000 31.27110000 -1.59530000
10.06420000 33.69650000 -1.42330000
13.74390000 31.53120000 -1.79480000
14.21170000 30.17650000 -1.87110000
13.78800000 29.00440000 -1.98620000
8.45460000 33.65280000 -1.37730000
6.84480000 30.96100000 -1.57000000
9.08530000 30.10370000 -1.70950000
5.88990000 30.96500000 -1.54330000
11.53300000 28.05690000 -2.01900000
7.56020000 28.52850000 -1.79220000
7.11860000 29.95320000 -1.64870000
9.69950000 29.15570000 -1.79260000
8.79140000 28.40770000 -1.86030000
6.56290000 29.29560000 -1.64400000
5.64460000 27.63700000 -1.79820000
9.90630000 27.96550000 -1.96410000
13.43890000 28.03900000 -2.09630000
12.04670000 26.83210000 -2.15440000
11.85500000 25.41760000 -2.24110000
4.80030000 27.94880000 -1.79030000
7.99050000 26.19010000 -2.02990000
7.82960000 26.62620000 -1.95800000
10.75920000 25.03020000 -2.21210000
4.68150000 26.73670000 -1.88280000
