-0.15710000 -18.82140000 -0.25680000
-0.12900000 -18.53360000 -0.27750000
-0.06830000 -18.79000000 -0.28010000
-0.00800000 -19.03840000 -0.27510000
-0.04780000 -19.05050000 -0.26430000
-0.01590000 -18.77550000 -0.29090000
0.03490000 -19.02770000 -0.28440000
0.07380000 -19.24190000 -0.27320000
0.03870000 -19.25100000 -0.26580000
0.08380000 -19.02090000 -0.29090000
0.11150000 -19.23650000 -0.27700000
0.12960000 -19.37080000 -0.26090000
0.00590000 -19.26180000 -0.25600000
-0.02430000 -19.27240000 -0.24260000
-0.08380000 -19.06320000 -0.25180000
-0.05080000 -19.28440000 -0.22640000
-0.11700000 -19.07530000 -0.23700000
-0.19620000 -18.83610000 -0.24180000
-0.14780000 -19.08760000 -0.21780000
-0.23210000 -18.85050000 -0.22220000
-0.31590000 -18.59590000 -0.22230000
-0.26500000 -18.86380000 -0.19370000
-0.35610000 -18.61010000 -0.19630000
-0.44020000 -18.34500000 -0.19780000
-0.37960000 -18.61780000 -0.15160000
-0.46520000 -18.35170000 -0.15320000
-0.54100000 -18.07870000 -0.15630000
-0.46840000 -18.35120000 -0.10530000
-0.54000000 -18.07730000 -0.10480000
-0.60620000 -17.80700000 -0.10590000
-0.50910000 -18.06810000 -0.06510000
-0.56890000 -17.79770000 -0.06550000
-0.62810000 -17.53010000 -0.06690000
-0.52020000 -17.78540000 -0.04470000
-0.57370000 -17.51700000 -0.04930000
-0.62890000 -17.23610000 -0.05230000
-0.51910000 -17.50360000 -0.03450000
-0.57090000 -17.22370000 -0.03680000
-0.62120000 -16.95350000 -0.04330000
-0.51240000 -17.21040000 -0.02200000
-0.56090000 -16.94110000 -0.02760000
-0.60970000 -16.67120000 -0.03260000
-0.49940000 -16.92840000 -0.01310000
-0.54280000 -16.65860000 -0.01770000
-0.58910000 -16.38700000 -0.01900000
-0.46500000 -16.64440000 0.00190000
-0.50210000 -16.37220000 0.00020000
-0.53980000 -16.10180000 -0.00050000
-0.40050000 -16.35610000 0.02400000
-0.43890000 -16.08640000 0.02190000
-0.47600000 -15.81730000 0.01920000
-0.31910000 -16.06990000 0.04560000
-0.35150000 -15.80060000 0.04340000
-0.38720000 -15.52890000 0.04330000
-0.16560000 -15.78220000 0.08310000
-0.19150000 -15.51160000 0.08440000
-0.20650000 -15.24180000 0.08740000
0.06180000 -15.50140000 0.13790000
0.05620000 -15.23190000 0.14160000
0.05040000 -14.96180000 0.14700000
0.32890000 -15.22980000 0.15460000
0.32610000 -14.95940000 0.15740000
0.32280000 -14.68830000 0.16290000
0.57860000 -14.96250000 0.13020000
0.58250000 -14.69020000 0.13540000
0.58280000 -14.41670000 0.14030000
0.79070000 -14.69460000 0.10840000
0.79430000 -14.42000000 0.11090000
0.78640000 -14.14310000 0.11800000
0.94590000 -14.42450000 0.09270000
0.94060000 -14.14670000 0.09730000
0.93970000 -13.86670000 0.10120000
1.06490000 -14.15120000 0.08260000
1.06900000 -13.86950000 0.08590000
1.06810000 -13.58730000 0.09010000
1.17310000 -13.87260000 0.07080000
1.17840000 -13.58900000 0.07430000
1.17380000 -13.30440000 0.08110000
1.26080000 -13.59050000 0.06630000
1.25940000 -13.30490000 0.07040000
1.25420000 -13.02000000 0.07320000
1.34080000 -13.30560000 0.05760000
1.33830000 -13.01910000 0.06080000
1.33400000 -12.73790000 0.06480000
1.41600000 -13.01810000 0.04300000
1.41190000 -12.73710000 0.04790000
1.40620000 -12.46630000 0.05060000
1.48580000 -12.73680000 0.02140000
1.48080000 -12.46640000 0.02550000
1.48290000 -12.19420000 0.02680000
1.52530000 -12.46620000 -0.03510000
1.53000000 -12.19320000 -0.03770000
1.52750000 -11.91050000 -0.04230000
1.48950000 -12.19130000 -0.10400000
1.48350000 -11.90950000 -0.10570000
1.48540000 -11.63320000 -0.10370000
1.40960000 -11.90850000 -0.13640000
1.41310000 -11.63260000 -0.13500000
1.41580000 -11.36190000 -0.13290000
1.33360000 -11.63220000 -0.15390000
1.33560000 -11.36060000 -0.15250000
1.33550000 -11.08900000 -0.15060000
1.25040000 -11.35970000 -0.16640000
1.25350000 -11.08780000 -0.16470000
1.25350000 -10.81240000 -0.16470000
1.15920000 -11.08680000 -0.18060000
1.16190000 -10.81130000 -0.18160000
1.16220000 -10.53460000 -0.18060000
1.05370000 -10.81020000 -0.20150000
1.05270000 -10.53380000 -0.20060000
1.05640000 -10.25850000 -0.19190000
0.93660000 -10.53300000 -0.21910000
0.93210000 -10.25660000 -0.21400000
0.93650000 -9.98110000 -0.21010000
0.76710000 -10.25490000 -0.24270000
0.76850000 -9.97870000 -0.23920000
0.77390000 -9.70160000 -0.23650000
0.54880000 -9.97750000 -0.27820000
0.55290000 -9.69910000 -0.27580000
0.56250000 -9.42090000 -0.27140000
0.28340000 -9.69810000 -0.32340000
0.29230000 -9.41870000 -0.32030000
0.30270000 -9.13980000 -0.31590000
0.00820000 -9.41700000 -0.34840000
0.01890000 -9.13720000 -0.34680000
0.03360000 -8.85790000 -0.34680000
-0.25050000 -9.13460000 -0.31110000
-0.23270000 -8.85500000 -0.30950000
-0.22210000 -8.57550000 -0.30740000
-0.46410000 -8.85240000 -0.27590000
-0.45290000 -8.57240000 -0.27010000
-0.44000000 -8.29510000 -0.26690000
-0.62510000 -8.57050000 -0.24060000
-0.62640000 -8.29490000 -0.23380000
-0.63040000 -8.01870000 -0.22700000
-0.77060000 -8.29550000 -0.20900000
-0.77130000 -8.01890000 -0.20810000
-0.75560000 -7.73940000 -0.20980000
-0.87680000 -8.01880000 -0.18920000
-0.86450000 -7.73720000 -0.19130000
-0.84870000 -7.46090000 -0.19220000
-0.95680000 -7.73550000 -0.17760000
-0.94910000 -7.45510000 -0.17560000
-0.93050000 -7.19570000 -0.17280000
-1.03310000 -7.44830000 -0.16210000
-1.01190000 -7.19180000 -0.16060000
-1.00150000 -6.96510000 -0.15940000
-1.09320000 -7.18810000 -0.14510000
-1.24010000 -7.09620000 -0.08480000
-1.20600000 -7.04670000 -0.07670000
-1.17740000 -7.07200000 -0.10800000
-1.23390000 -7.12690000 -0.10970000
-1.20820000 -6.99170000 -0.07940000
-1.16620000 -6.99190000 -0.11110000
-1.19020000 -6.94460000 -0.11310000
-1.24500000 -6.93620000 -0.10740000
-1.20230000 -6.16450000 -0.12940000
-1.26510000 -6.16630000 -0.11400000
-1.25820000 -5.87970000 -0.10910000
-1.32810000 -6.16840000 -0.07170000
-1.32950000 -5.88120000 -0.07480000
-1.31940000 -5.60240000 -0.07710000
-1.28210000 -5.88140000 -0.01900000
-1.28740000 -5.60210000 -0.02010000
-1.29400000 -5.31820000 -0.02190000
-1.22420000 -5.60060000 -0.00230000
-1.23060000 -5.31760000 -0.00360000
-1.23730000 -5.04410000 -0.00270000
-1.16750000 -5.31670000 0.01100000
-1.17340000 -5.04260000 0.00950000
-1.18270000 -4.76920000 0.01280000
-1.10990000 -5.04100000 0.02450000
-1.11870000 -4.76730000 0.02600000
-1.12510000 -4.48860000 0.02630000
-1.05420000 -4.76510000 0.03850000
-1.05980000 -4.48750000 0.03930000
-1.06070000 -4.21140000 0.04440000
-0.99080000 -4.48640000 0.05440000
-0.99070000 -4.20970000 0.05780000
-0.99190000 -3.93120000 0.06580000
-0.88750000 -4.20740000 0.07950000
-0.89230000 -3.92900000 0.08600000
-0.90320000 -3.65120000 0.08920000
-0.75780000 -3.92620000 0.11440000
-0.76010000 -3.64830000 0.11820000
-0.76060000 -3.36950000 0.12020000
-0.56280000 -3.64450000 0.15950000
-0.56260000 -3.36670000 0.15960000
-0.56630000 -3.08870000 0.16770000
-0.31130000 -3.36420000 0.21190000
-0.31590000 -3.08580000 0.21560000
-0.32200000 -2.80810000 0.21400000
-0.03960000 -3.08360000 0.26320000
-0.04320000 -2.80690000 0.26760000
-0.04410000 -2.53010000 0.27080000
0.24340000 -2.80580000 0.27860000
0.24140000 -2.52990000 0.28300000
0.24160000 -2.25330000 0.29140000
0.52380000 -2.52860000 0.25410000
0.52210000 -2.25200000 0.26070000
0.52530000 -1.97460000 0.26150000
0.78360000 -2.24970000 0.22530000
0.78420000 -1.97280000 0.22830000
0.78450000 -1.69650000 0.23120000
0.98250000 -1.97250000 0.20220000
0.97820000 -1.69600000 0.20530000
0.98540000 -1.42060000 0.20840000
1.12190000 -1.69510000 0.18560000
1.12870000 -1.42040000 0.18810000
1.12140000 -1.14370000 0.19360000
1.24440000 -1.42010000 0.17570000
1.23630000 -1.14370000 0.17740000
1.23440000 -0.86580000 0.18180000
1.33880000 -1.14430000 0.16520000
1.33930000 -0.86550000 0.16830000
1.34350000 -0.59240000 0.17100000
1.42010000 -0.86470000 0.15670000
1.42220000 -0.59310000 0.15990000
1.42100000 -0.31500000 0.16370000
1.49920000 -0.59320000 0.14780000
1.49930000 -0.31460000 0.15290000
1.50080000 -0.03480000 0.15430000
1.57570000 -0.31370000 0.13900000
1.57610000 -0.03470000 0.14290000
1.57370000 0.24390000 0.14450000
1.64700000 -0.03460000 0.11700000
1.64590000 0.24400000 0.12130000
1.64410000 0.51210000 0.12420000
1.68770000 0.24400000 0.06030000
1.68860000 0.51210000 0.06280000
1.68820000 0.78880000 0.06640000
1.64550000 0.51240000 0.00190000
1.64880000 0.78860000 0.00340000
1.65560000 1.06150000 0.00710000
1.57900000 0.78850000 -0.02410000
1.58560000 1.06210000 -0.01990000
1.58430000 1.34120000 -0.02040000
1.51020000 1.06280000 -0.03550000
1.50830000 1.34260000 -0.03620000
1.50200000 1.62780000 -0.03570000
1.43020000 1.34360000 -0.04960000
1.42500000 1.62760000 -0.04840000
1.42280000 1.90780000 -0.04660000
1.34660000 1.62750000 -0.06120000
1.33920000 1.90760000 -0.05980000
1.33060000 2.18210000 -0.06410000
1.23370000 1.90750000 -0.07810000
1.22660000 2.18210000 -0.08180000
1.22330000 2.45540000 -0.08620000
1.10600000 2.18210000 -0.10370000
1.10540000 2.45620000 -0.10720000
1.10250000 2.73230000 -0.10650000
0.96400000 2.45780000 -0.13120000
0.96030000 2.73430000 -0.13200000
0.95980000 3.01010000 -0.13440000
0.77690000 2.73750000 -0.16550000
0.77490000 3.01440000 -0.16920000
0.77860000 3.29160000 -0.17010000
0.53070000 3.02010000 -0.21380000
0.53240000 3.29910000 -0.21380000
0.53710000 3.57780000 -0.21570000
0.26060000 3.30510000 -0.26260000
0.26400000 3.58480000 -0.26520000
0.26790000 3.86460000 -0.26540000
-0.01880000 3.58930000 -0.27540000
-0.01620000 3.86940000 -0.27550000
-0.01370000 4.14940000 -0.27770000
-0.29670000 3.87300000 -0.22750000
-0.29620000 4.15260000 -0.22760000
-0.28990000 4.43180000 -0.23110000
-0.54910000 4.15550000 -0.18640000
-0.54560000 4.43400000 -0.18770000
-0.54040000 4.71140000 -0.18960000
-0.74420000 4.43360000 -0.15810000
-0.76680000 4.70980000 -0.15450000
-0.76580000 4.98550000 -0.15560000
-0.90480000 4.70850000 -0.13310000
-0.91280000 4.98430000 -0.13370000
-0.90730000 5.26110000 -0.13820000
-1.03060000 4.98350000 -0.11660000
-1.03240000 5.25960000 -0.11690000
-1.03700000 5.53690000 -0.12020000
-1.14360000 5.25780000 -0.09840000
-1.14780000 5.53500000 -0.10190000
-1.15730000 5.81240000 -0.10250000
-1.23610000 5.53320000 -0.08760000
-1.24050000 5.81140000 -0.09190000
-1.24160000 6.08900000 -0.09120000
-1.31560000 5.81070000 -0.07910000
-1.31470000 6.08840000 -0.07940000
-1.32130000 6.37050000 -0.08050000
-1.38680000 6.08800000 -0.06490000
-1.39330000 6.36990000 -0.06630000
-1.40350000 6.64110000 -0.06850000
-1.46360000 6.36920000 -0.04850000
-1.47450000 6.63950000 -0.05040000
-1.47900000 6.91220000 -0.05490000
-1.53600000 6.63820000 -0.00870000
-1.54140000 6.91170000 -0.01200000
-1.54630000 7.19290000 -0.01120000
-1.49920000 6.91190000 0.04510000
-1.50530000 7.19350000 0.04640000
-1.50770000 7.47980000 0.04250000
-1.43170000 7.19400000 0.06220000
-1.43820000 7.47980000 0.06660000
-1.44130000 7.75320000 0.06690000
-1.36690000 7.47890000 0.08180000
-1.37120000 7.75320000 0.08180000
-1.37610000 8.02860000 0.07810000
-1.29970000 7.75290000 0.09600000
-1.30650000 8.02860000 0.09320000
-1.31150000 8.30300000 0.09060000
-1.23410000 8.02860000 0.10870000
-1.23800000 8.30340000 0.10780000
-1.23620000 8.57790000 0.10940000
-1.14160000 8.30370000 0.12580000
-1.13750000 8.57930000 0.12810000
-1.13710000 8.85960000 0.12940000
-1.01940000 8.58070000 0.15210000
-1.02160000 8.86090000 0.15540000
-1.03620000 9.14200000 0.14910000
-0.88610000 8.86250000 0.18380000
-0.88440000 9.14340000 0.18360000
-0.89110000 9.42200000 0.18320000
-0.67190000 9.14470000 0.22830000
-0.68130000 9.42400000 0.22730000
-0.68590000 9.70250000 0.22470000
-0.41270000 9.42320000 0.28250000
-0.42030000 9.70250000 0.28070000
-0.42780000 9.98210000 0.27830000
-0.14360000 9.70160000 0.33710000
-0.15380000 9.98180000 0.33500000
-0.16520000 10.26250000 0.33610000
0.12680000 9.98140000 0.34490000
0.11660000 10.26330000 0.35950000
0.10760000 10.54530000 0.35540000
0.39790000 10.26520000 0.33300000
0.39100000 10.54790000 0.33120000
0.38540000 10.82890000 0.32680000
0.66820000 10.54850000 0.29290000
0.66370000 10.82880000 0.29170000
0.66010000 11.10900000 0.29500000
0.91540000 10.82560000 0.25550000
0.91230000 11.10480000 0.25820000
0.91100000 11.38390000 0.25490000
1.11410000 11.09910000 0.22940000
1.12310000 11.37850000 0.22720000
1.12290000 11.66000000 0.22570000
1.27660000 11.37430000 0.20400000
1.27140000 11.65720000 0.20700000
1.27130000 11.94030000 0.21000000
1.40010000 11.65500000 0.18850000
1.40440000 11.93910000 0.19310000
1.42080000 12.21980000 0.19240000
1.50420000 11.93840000 0.17690000
1.51100000 12.21810000 0.17740000
1.51540000 12.49940000 0.18020000
1.59540000 12.21660000 0.15780000
1.60100000 12.49840000 0.15760000
1.60450000 12.77470000 0.15790000
1.68090000 12.49760000 0.13080000
1.68340000 12.77330000 0.12810000
1.68730000 13.04850000 0.13190000
1.74400000 12.77230000 0.07900000
1.74880000 13.04660000 0.07960000
1.75470000 13.32920000 0.08200000
1.77520000 13.04560000 0.01480000
1.78350000 13.32840000 0.01300000
1.79070000 13.61430000 0.00980000
1.77080000 13.32830000 -0.05560000
1.77670000 13.61420000 -0.05800000
1.78470000 13.89500000 -0.06040000
1.72430000 13.61500000 -0.11570000
1.73330000 13.89540000 -0.11850000
1.73090000 14.17260000 -0.11710000
1.65550000 13.89640000 -0.15340000
1.65640000 14.17250000 -0.15610000
1.66310000 14.43930000 -0.15840000
1.57160000 14.17280000 -0.18170000
1.57610000 14.44150000 -0.18260000
1.58630000 14.70250000 -0.18320000
1.48000000 14.44450000 -0.20690000
1.48800000 14.70750000 -0.20330000
1.51260000 14.95260000 -0.21380000
1.35230000 14.71500000 -0.23310000
1.38080000 14.96230000 -0.24210000
1.41300000 15.17110000 -0.24490000
1.54750000 15.16810000 -0.21940000
1.42200000 15.31470000 -0.25100000
1.58040000 15.34230000 -0.21730000
1.42600000 15.41710000 -0.26220000
1.20030000 15.27400000 -0.28960000
1.19480000 15.37400000 -0.29920000
1.18810000 15.45620000 -0.31440000
0.94520000 15.36090000 -0.33430000
0.94030000 15.44770000 -0.35010000
0.93920000 15.52260000 -0.38860000
0.68710000 15.44840000 -0.38960000
0.68640000 15.52130000 -0.43650000
0.69230000 15.55740000 -0.51520000
0.42970000 15.51390000 -0.49280000
0.43550000 15.54960000 -0.57180000
0.45440000 15.57900000 -0.64770000
0.17850000 15.56120000 -0.62430000
0.18130000 15.58270000 -0.70800000
0.19310000 15.61070000 -0.78230000
-0.09030000 15.56240000 -0.69570000
-0.10030000 15.58480000 -0.77460000
-0.10600000 15.62760000 -0.83430000
-0.38370000 15.57260000 -0.71460000
-0.39540000 15.62280000 -0.77510000
-0.39600000 15.69130000 -0.80680000
-0.66230000 15.65870000 -0.69880000
-0.66130000 15.74260000 -0.71510000
-0.89260000 15.67800000 -0.63670000
-0.89000000 15.78590000 -0.62420000
-1.10980000 15.70510000 -0.54840000
-1.10230000 15.81480000 -0.53170000
-1.34150000 15.72380000 -0.46660000
-1.33690000 15.81920000 -0.43700000
-1.31520000 15.88880000 -0.36900000
-1.53800000 15.79640000 -0.33770000
-1.51980000 15.83830000 -0.26850000
-1.48490000 15.86480000 -0.18790000
-1.28100000 15.93370000 -0.28070000
-1.45230000 15.91140000 -0.09380000
-1.22690000 15.94700000 -0.16270000
-1.44110000 15.94240000 0.00620000
-1.19560000 15.91380000 0.00450000
-1.00570000 15.92760000 -0.01210000
-0.91960000 15.95430000 -0.02680000
-0.82500000 15.98920000 0.12550000
-0.71370000 16.01430000 0.24050000
-0.57280000 16.06240000 0.41650000
-0.43940000 16.02600000 0.56920000
-0.42120000 16.12960000 0.58520000
-0.23400000 16.11590000 0.71700000
-0.21410000 16.32570000 0.72820000
-0.00510000 16.33660000 0.76360000
-0.00870000 16.60630000 0.76970000
0.17830000 16.61620000 0.72910000
0.17530000 16.89350000 0.73830000
0.33050000 16.90380000 0.63410000
0.32160000 17.19130000 0.64360000
0.44820000 17.20460000 0.48260000
0.44040000 17.49320000 0.49140000
0.55820000 17.50380000 0.28130000
0.55740000 17.79270000 0.28980000
0.66030000 17.79730000 0.09990000
0.64240000 18.08280000 0.08580000
0.71480000 18.08090000 -0.07070000
0.72390000 18.36230000 -0.07500000
0.72420000 18.35560000 -0.23270000
0.73220000 18.62840000 -0.24300000
0.67130000 18.62100000 -0.40340000
0.68100000 18.85810000 -0.41820000
0.56010000 18.87350000 -0.60050000
0.57790000 19.03200000 -0.58900000
0.41480000 19.05930000 -0.76120000
0.40820000 19.16960000 -0.72320000
0.15800000 19.18760000 -0.83030000
0.14820000 19.26130000 -0.77430000
-0.12460000 19.24870000 -0.75110000
-0.12360000 19.28310000 -0.68690000
-0.33260000 19.20630000 -0.61230000
-0.31960000 19.23040000 -0.54670000
-0.44150000 19.15050000 -0.47030000
-0.40660000 19.15370000 -0.42310000
-0.49460000 19.10780000 -0.36640000
-0.47670000 19.09110000 -0.34640000
-0.52460000 19.12260000 -0.28100000
-0.51470000 19.07910000 -0.26200000
-0.53320000 19.11780000 -0.19320000
-0.52890000 19.04570000 -0.17410000
-0.52710000 19.07310000 -0.10540000
-0.51630000 18.98090000 -0.07830000
-0.49140000 19.02020000 0.00060000
-0.46440000 18.91470000 0.03950000
-0.41660000 18.97110000 0.11300000
-0.36360000 18.86530000 0.17050000
-1.44670000 15.97000000 0.08970000
-1.46400000 15.97820000 0.16470000
-1.68710000 15.92820000 0.18480000
-1.48310000 15.95900000 0.23520000
-1.49500000 15.91050000 0.28910000
-1.25560000 15.89530000 0.40400000
-1.68700000 15.88490000 0.22420000
-1.68350000 15.83120000 0.24640000
-1.49880000 15.84270000 0.31350000
-1.82050000 15.89600000 0.15630000
-1.83370000 15.85780000 0.19280000
-1.82540000 15.81930000 0.21020000
-1.67900000 15.77070000 0.25350000
-1.92110000 15.82610000 0.13260000
-1.90670000 15.78380000 0.16170000
-1.95420000 15.73100000 0.09050000
-1.95210000 15.77490000 0.05920000
-1.90440000 15.86570000 0.09560000
-1.92910000 15.81490000 0.02880000
-1.93830000 15.77690000 -0.04900000
-1.95700000 15.74000000 -0.11940000
-1.87900000 15.85330000 -0.00580000
-1.88780000 15.82360000 -0.08080000
-1.90220000 15.78970000 -0.15610000
-1.80290000 15.85020000 -0.11110000
-1.81640000 15.82160000 -0.18870000
-1.82810000 15.77730000 -0.24920000
-1.82750000 15.71860000 -0.28350000
-1.68700000 15.84090000 -0.22110000
-1.70260000 15.79770000 -0.28570000
-1.70380000 15.73100000 -0.31770000
-1.69280000 15.65950000 -0.31520000
-1.81250000 15.65350000 -0.28390000
-1.54300000 15.72590000 -0.37050000
-1.53270000 15.65020000 -0.35830000
-1.50880000 15.58360000 -0.32500000
-1.67440000 15.59820000 -0.28910000
-1.32740000 15.62650000 -0.44950000
-1.28830000 15.55360000 -0.38810000
-1.26410000 15.50260000 -0.30080000
-1.47980000 15.52920000 -0.27100000
-1.44910000 15.43300000 -0.23110000
-1.60470000 15.45270000 -0.20380000
-1.64740000 15.54320000 -0.24540000
-1.26430000 15.41320000 -0.26070000
-1.26460000 15.30680000 -0.25250000
-1.44720000 15.32690000 -0.21830000
-1.04560000 15.40770000 -0.29850000
-1.06240000 15.29740000 -0.28780000
-1.07160000 15.16810000 -0.28130000
-1.25900000 15.16880000 -0.24770000
-0.82620000 15.38320000 -0.33490000
-0.83810000 15.28780000 -0.32320000
-0.85080000 15.16720000 -0.31900000
-0.86620000 14.98200000 -0.31020000
-1.08130000 14.98080000 -0.27310000
-0.59960000 15.28270000 -0.36330000
-0.60160000 15.16190000 -0.35780000
-0.60880000 14.98310000 -0.35090000
-0.62230000 14.73090000 -0.34320000
-0.87920000 14.73020000 -0.29740000
-0.33960000 15.16360000 -0.40850000
-0.34140000 14.98290000 -0.39470000
-0.34880000 14.72830000 -0.38550000
-0.35660000 14.44510000 -0.37840000
-0.63510000 14.44670000 -0.33300000
-0.07640000 14.97990000 -0.43860000
-0.07660000 14.72420000 -0.43200000
-0.07690000 14.44630000 -0.42070000
-0.07760000 14.16420000 -0.41410000
-0.36100000 14.16370000 -0.36680000
0.19750000 14.73010000 -0.43840000
0.20380000 14.45260000 -0.43300000
0.20710000 14.16720000 -0.42150000
0.21020000 13.88380000 -0.41530000
-0.07750000 13.88320000 -0.40850000
0.47950000 14.46080000 -0.39120000
0.48540000 14.17210000 -0.37880000
0.49010000 13.88680000 -0.36970000
0.49790000 13.60490000 -0.36400000
0.21510000 13.60290000 -0.41010000
0.74620000 14.17550000 -0.33350000
0.75260000 13.89120000 -0.32600000
0.75580000 13.61020000 -0.31930000
0.76710000 13.33100000 -0.31030000
0.50500000 13.32630000 -0.35130000
0.97500000 13.89570000 -0.28520000
0.98010000 13.61580000 -0.28040000
0.98550000 13.33610000 -0.27020000
0.98700000 13.05630000 -0.26390000
0.77310000 13.05310000 -0.29980000
1.17350000 13.61970000 -0.24560000
1.17430000 13.33890000 -0.23930000
1.17800000 13.05800000 -0.23140000
1.18140000 12.77820000 -0.22550000
0.99150000 12.77740000 -0.25750000
1.33810000 13.33950000 -0.21190000
1.34400000 13.05740000 -0.20510000
1.34800000 12.77770000 -0.19790000
1.34110000 12.49860000 -0.19200000
1.18420000 12.49890000 -0.21350000
1.46900000 13.05440000 -0.18040000
1.47110000 12.77630000 -0.17570000
1.46120000 12.49830000 -0.17030000
1.44840000 12.21690000 -0.16480000
1.32770000 12.21730000 -0.18700000
1.55810000 12.77490000 -0.15690000
1.54900000 12.49820000 -0.15170000
1.53820000 12.21630000 -0.14690000
1.52180000 11.93490000 -0.14180000
1.43250000 11.93480000 -0.16160000
1.63100000 12.49770000 -0.13020000
1.62150000 12.21540000 -0.12890000
1.60580000 11.93500000 -0.12610000
1.58910000 11.65090000 -0.12500000
1.50430000 11.65140000 -0.13970000
1.69760000 12.21470000 -0.09970000
1.68210000 11.93530000 -0.09780000
1.66850000 11.65060000 -0.10260000
1.65770000 11.36430000 -0.10110000
1.57800000 11.36560000 -0.12390000
1.73950000 11.93550000 -0.04600000
1.73250000 11.65050000 -0.05510000
1.72340000 11.36340000 -0.05710000
1.71630000 11.08250000 -0.05790000
1.64840000 11.08360000 -0.09750000
1.74990000 11.65060000 0.01510000
1.74560000 11.36290000 0.00790000
1.74570000 11.08190000 0.00320000
1.73930000 10.80880000 0.00240000
1.70860000 10.80920000 -0.06100000
1.72210000 11.36350000 0.07100000
1.72530000 11.08250000 0.07140000
1.71970000 10.81000000 0.07290000
1.71720000 10.53860000 0.08230000
1.74330000 10.53630000 0.00740000
1.66640000 11.08440000 0.12400000
1.65910000 10.81190000 0.12440000
1.65120000 10.54090000 0.12910000
1.64820000 10.27300000 0.13380000
1.71670000 10.27080000 0.08700000
1.58150000 10.81390000 0.15160000
1.57150000 10.54270000 0.15370000
1.56650000 10.27480000 0.15730000
1.56350000 9.99620000 0.15800000
1.64450000 9.99360000 0.13330000
1.48600000 10.54410000 0.17300000
1.47950000 10.27570000 0.17480000
1.47740000 9.99860000 0.17670000
1.47670000 9.72090000 0.17870000
1.56030000 9.71820000 0.16070000
1.38730000 10.27600000 0.18940000
1.38710000 10.00090000 0.19130000
1.38860000 9.72320000 0.19260000
1.38120000 9.44610000 0.19690000
1.47120000 9.44480000 0.18260000
1.25750000 10.00180000 0.20760000
1.26260000 9.72470000 0.20830000
1.25760000 9.44630000 0.21090000
1.24830000 9.16740000 0.21280000
1.37150000 9.16820000 0.19790000
1.12310000 9.72380000 0.22520000
1.11510000 9.44520000 0.22750000
1.10570000 9.16600000 0.23100000
1.10640000 8.88740000 0.23400000
1.24640000 8.88870000 0.21610000
0.94020000 9.44210000 0.24980000
0.93720000 9.16330000 0.25380000
0.94440000 8.88460000 0.25650000
0.94810000 8.60600000 0.25800000
1.10570000 8.60860000 0.23670000
0.72070000 9.15880000 0.28060000
0.73160000 8.87980000 0.28200000
0.73610000 8.60070000 0.28160000
0.74610000 8.32200000 0.28060000
0.94930000 8.32570000 0.25660000
0.46680000 8.87510000 0.31180000
0.47840000 8.59630000 0.31050000
0.49010000 8.31720000 0.30960000
0.50020000 8.03820000 0.30540000
0.75490000 8.04230000 0.27950000
0.19490000 8.59330000 0.34080000
0.20680000 8.31390000 0.33930000
0.21700000 8.03470000 0.33380000
0.22590000 7.75610000 0.33340000
0.50840000 7.75880000 0.30680000
-0.07870000 8.31200000 0.34370000
-0.06880000 8.03260000 0.34170000
-0.06120000 7.75410000 0.34160000
-0.05600000 7.47600000 0.34120000
0.23150000 7.47760000 0.33460000
-0.34800000 8.03200000 0.28800000
-0.34190000 7.75370000 0.28790000
-0.33740000 7.47580000 0.28920000
-0.33380000 7.19740000 0.28830000
-0.05300000 7.19710000 0.34140000
-0.61250000 7.75470000 0.23320000
-0.60300000 7.47670000 0.23390000
-0.59910000 7.19890000 0.23400000
-0.59560000 6.92160000 0.23580000
-0.33130000 6.91900000 0.28720000
-0.82240000 7.47680000 0.18630000
-0.81350000 7.19910000 0.18730000
-0.80810000 6.92100000 0.19070000
-0.80080000 6.64420000 0.19300000
-0.59280000 6.64370000 0.23570000
-0.98180000 7.19770000 0.15490000
-0.97810000 6.91920000 0.15750000
-0.96430000 6.64430000 0.16050000
-0.95640000 6.37000000 0.16020000
-0.79650000 6.36760000 0.19200000
-1.10500000 6.91760000 0.12990000
-1.09460000 6.64440000 0.13180000
-1.08120000 6.37150000 0.13440000
-1.07870000 6.09220000 0.13230000
-0.96850000 6.09160000 0.15620000
-1.19880000 6.64390000 0.11480000
-1.18880000 6.37260000 0.11350000
-1.17960000 6.09210000 0.11420000
-1.17020000 5.81210000 0.11500000
-1.07420000 5.81260000 0.13380000
-1.27390000 6.37260000 0.09750000
-1.25790000 6.09130000 0.09900000
-1.25590000 5.81130000 0.09810000
-1.24840000 5.53190000 0.10050000
-1.16550000 5.53290000 0.11550000
-1.33260000 6.09040000 0.08180000
-1.33200000 5.81050000 0.08180000
-1.32490000 5.53120000 0.08560000
-1.31470000 5.25480000 0.08970000
-1.24010000 5.25540000 0.10260000
-1.40670000 5.80950000 0.06910000
-1.40090000 5.53060000 0.07150000
-1.38990000 5.25420000 0.07500000
-1.38790000 4.98210000 0.07460000
-1.31160000 4.98160000 0.08760000
-1.47440000 5.53000000 0.04950000
-1.46290000 5.25350000 0.05400000
-1.46190000 4.98270000 0.05240000
-1.46590000 4.70790000 0.05020000
-1.39160000 4.70790000 0.07220000
-1.51710000 5.25240000 -0.00290000
-1.52050000 4.98330000 -0.00650000
-1.52040000 4.70810000 -0.00580000
-1.52240000 4.42520000 -0.01050000
-1.46390000 4.42650000 0.05150000
-1.44410000 4.98320000 -0.04240000
-1.44210000 4.70810000 -0.04060000
-1.43670000 4.42660000 -0.04200000
-1.43060000 4.14740000 -0.04110000
-1.50880000 4.14700000 -0.00730000
-1.36710000 4.70800000 -0.05590000
-1.36070000 4.42710000 -0.05870000
-1.35500000 4.14830000 -0.05560000
-1.35650000 3.87950000 -0.05620000
-1.43140000 3.87920000 -0.04090000
-1.28230000 4.42770000 -0.07080000
-1.27760000 4.14960000 -0.06770000
-1.28070000 3.88050000 -0.06700000
-1.27730000 3.59900000 -0.06910000
-1.35220000 3.59800000 -0.05540000
-1.19320000 4.15110000 -0.08320000
-1.20530000 3.88090000 -0.08050000
-1.20060000 3.59960000 -0.08250000
-1.19040000 3.31250000 -0.07990000
-1.26810000 3.31080000 -0.06810000
-1.12070000 3.88110000 -0.09610000
-1.11260000 3.60020000 -0.09670000
-1.10360000 3.31430000 -0.09600000
-1.10930000 3.02900000 -0.09330000
-1.19010000 3.02650000 -0.08060000
-1.01070000 3.60060000 -0.11350000
-1.00530000 3.31570000 -0.11280000
-1.01180000 3.03170000 -0.10930000
-1.01910000 2.75130000 -0.10790000
-1.11290000 2.74940000 -0.09170000
-0.89330000 3.31660000 -0.12980000
-0.90490000 3.03310000 -0.12570000
-0.91180000 2.75250000 -0.12280000
-0.91340000 2.47420000 -0.12240000
-1.02330000 2.47310000 -0.10600000
-0.76460000 3.03340000 -0.15110000
-0.77100000 2.75290000 -0.14580000
-0.76870000 2.47420000 -0.14640000
-0.75790000 2.19600000 -0.14550000
-0.90330000 2.19660000 -0.12240000
-0.56510000 2.75230000 -0.17840000
-0.56400000 2.47290000 -0.17730000
-0.56620000 2.19400000 -0.17650000
-0.56440000 1.91500000 -0.17340000
-0.75620000 1.91650000 -0.14460000
-0.30370000 2.47040000 -0.22110000
-0.30770000 2.19120000 -0.21880000
-0.30820000 1.91230000 -0.21740000
-0.30850000 1.63290000 -0.21680000
-0.55770000 1.63460000 -0.17400000
-0.02760000 2.18800000 -0.26370000
-0.02830000 1.90910000 -0.26140000
-0.02860000 1.63070000 -0.26060000
-0.02880000 1.35290000 -0.25960000
-0.30720000 1.35370000 -0.21680000
0.25490000 1.90620000 -0.25310000
0.25550000 1.62920000 -0.25230000
0.25490000 1.35250000 -0.25030000
0.25370000 1.07570000 -0.24780000
-0.02900000 1.07540000 -0.25500000
0.53460000 1.62890000 -0.20190000
0.53350000 1.35310000 -0.20040000
0.53250000 1.07610000 -0.19780000
0.52650000 0.79810000 -0.20020000
0.25200000 0.79810000 -0.24730000
0.78460000 1.35170000 -0.15740000
0.78630000 1.07390000 -0.15460000
0.78360000 0.79500000 -0.15720000
0.78000000 0.51750000 -0.15660000
0.52400000 0.51880000 -0.19900000
0.97690000 1.06980000 -0.12350000
0.99260000 0.79160000 -0.12280000
0.99290000 0.51590000 -0.12090000
0.98700000 0.24140000 -0.11980000
0.78080000 0.24060000 -0.15390000
1.12800000 0.79010000 -0.09760000
1.13550000 0.51550000 -0.09630000
1.15720000 0.24240000 -0.09040000
1.15390000 -0.03370000 -0.09420000
0.99250000 -0.03490000 -0.12150000
1.25460000 0.51520000 -0.07800000
1.26580000 0.24280000 -0.07430000
1.25990000 -0.03330000 -0.07800000
1.25440000 -0.31060000 -0.08190000
1.14110000 -0.31140000 -0.09850000
1.35460000 0.24310000 -0.06070000
1.34760000 -0.03320000 -0.06450000
1.34980000 -0.31030000 -0.06650000
1.35180000 -0.58890000 -0.06820000
1.24980000 -0.58860000 -0.08450000
1.43070000 -0.03320000 -0.05130000
1.42830000 -0.31010000 -0.05430000
1.42740000 -0.58950000 -0.05720000
1.42290000 -0.86630000 -0.06050000
1.34610000 -0.86680000 -0.07260000
1.50180000 -0.31030000 -0.04290000
1.50250000 -0.59010000 -0.04520000
1.49920000 -0.86530000 -0.04960000
1.49080000 -1.14530000 -0.04990000
1.41420000 -1.14570000 -0.06340000
1.57480000 -0.59020000 -0.03120000
1.57310000 -0.86420000 -0.03490000
1.56600000 -1.14490000 -0.03620000
1.56230000 -1.41590000 -0.03920000
1.48680000 -1.41720000 -0.05350000
1.64470000 -0.86360000 -0.01090000
1.63890000 -1.14460000 -0.01380000
1.63530000 -1.41470000 -0.01690000
1.63600000 -1.69010000 -0.02420000
1.56070000 -1.69140000 -0.04270000
1.69250000 -1.14450000 0.04300000
1.69160000 -1.41420000 0.03740000
1.69400000 -1.68940000 0.02910000
1.68910000 -1.97510000 0.02500000
1.63440000 -1.97530000 -0.02570000
1.65310000 -1.41520000 0.10470000
1.66030000 -1.68970000 0.09630000
1.66590000 -1.97560000 0.08770000
1.67180000 -2.25060000 0.08490000
1.69580000 -2.25030000 0.01750000
1.58700000 -1.69010000 0.12310000
1.59540000 -1.97560000 0.11680000
1.60140000 -2.25040000 0.11380000
1.59580000 -2.52390000 0.11060000
1.66780000 -2.52480000 0.08530000
1.52020000 -1.97530000 0.13000000
1.52750000 -2.25000000 0.12640000
1.52250000 -2.52340000 0.12370000
1.51350000 -2.80080000 0.12100000
1.58890000 -2.80130000 0.11020000
1.45280000 -2.24930000 0.13510000
1.44690000 -2.52290000 0.13310000
1.43540000 -2.80050000 0.13220000
1.43490000 -3.08660000 0.13070000
1.51150000 -3.08760000 0.12140000
1.36940000 -2.52260000 0.14320000
1.35370000 -2.80040000 0.14360000
1.35400000 -3.08550000 0.14090000
1.35140000 -3.36890000 0.14160000
1.42960000 -3.37110000 0.12970000
1.25600000 -2.80050000 0.15510000
1.25320000 -3.08410000 0.15520000
1.25490000 -3.36640000 0.15480000
1.24740000 -3.64410000 0.15350000
1.34070000 -3.64730000 0.14150000
1.13530000 -3.08250000 0.17010000
1.14550000 -3.36340000 0.16710000
1.14340000 -3.64100000 0.16760000
1.12460000 -3.91440000 0.16720000
1.23790000 -3.91640000 0.15080000
0.99520000 -3.36020000 0.19020000
0.99450000 -3.63740000 0.18840000
0.98150000 -3.91240000 0.18420000
0.97570000 -4.18870000 0.18290000
1.10960000 -4.19060000 0.16500000
0.78960000 -3.63420000 0.21470000
0.78880000 -3.91050000 0.20970000
0.78330000 -4.18690000 0.20580000
0.78360000 -4.46470000 0.20600000
0.96430000 -4.46660000 0.18190000
0.53040000 -3.90850000 0.24580000
0.53110000 -4.18610000 0.24300000
0.52720000 -4.46440000 0.23950000
0.52110000 -4.74470000 0.23910000
0.77620000 -4.74270000 0.20490000
0.25000000 -4.18700000 0.27350000
0.24830000 -4.46640000 0.27090000
0.24430000 -4.74780000 0.26690000
0.23950000 -5.02930000 0.26810000
0.51600000 -5.02590000 0.24100000
-0.02930000 -4.46870000 0.24360000
-0.03150000 -4.75030000 0.24090000
-0.03660000 -5.03130000 0.23400000
-0.04430000 -5.30990000 0.23340000
0.23500000 -5.30800000 0.26320000
-0.30030000 -4.75210000 0.19170000
-0.30680000 -5.03270000 0.18580000
-0.31820000 -5.31150000 0.18270000
-0.32710000 -5.58870000 0.18060000
-0.05150000 -5.58570000 0.22960000
-0.55550000 -5.03290000 0.13860000
-0.55910000 -5.31180000 0.13520000
-0.56480000 -5.59000000 0.13300000
-0.56840000 -5.86720000 0.13090000
-0.33380000 -5.86320000 0.17510000
-0.73190000 -5.31110000 0.09980000
-0.73670000 -5.59020000 0.09820000
-0.75240000 -5.87090000 0.09550000
-0.73750000 -6.15290000 0.09330000
-0.56610000 -6.14470000 0.12840000
-0.85870000 -5.59160000 0.07260000
-0.86630000 -5.87360000 0.07180000
-0.86340000 -6.15870000 0.06890000
-0.85030000 -6.44160000 0.06610000
-0.72580000 -6.43170000 0.09290000
-0.96170000 -5.87590000 0.05380000
-0.96210000 -6.16260000 0.05000000
-0.95620000 -6.45090000 0.04390000
-0.94710000 -6.72070000 0.04470000
-0.83850000 -6.70980000 0.06730000
-1.02860000 -6.16470000 0.03380000
-1.01810000 -6.45510000 0.02700000
-1.01120000 -6.73050000 0.03080000
-1.00150000 -6.96570000 0.03040000
-0.92860000 -6.96480000 0.04680000
-1.08150000 -6.45980000 0.01390000
-1.07380000 -6.74030000 0.01580000
-1.07410000 -6.96300000 0.01410000
-1.08790000 -7.19520000 0.00600000
-1.00750000 -7.19960000 0.02300000
-1.23590000 -7.22470000 -0.03310000
-1.24250000 -7.15790000 -0.03460000
-1.28020000 -7.14860000 -0.06890000
-1.27060000 -7.24030000 -0.07780000
-1.27050000 -7.10630000 -0.05670000
-1.20960000 -7.10230000 -0.02230000
-1.18840000 -7.04600000 -0.02420000
-1.21650000 -7.03020000 -0.05300000
-1.19770000 -6.99050000 -0.02930000
-1.22560000 -7.00820000 -0.05370000
-1.26400000 -6.46790000 -0.02370000
-1.20550000 -6.46770000 -0.00980000
-1.21230000 -6.16820000 -0.00920000
-1.27570000 -6.16870000 -0.02180000
-1.30480000 -6.48020000 -0.07170000
-1.25140000 -6.73590000 -0.02550000
-1.29620000 -6.74500000 -0.05660000
-1.24890000 -6.93440000 -0.02390000
-1.29710000 -6.95870000 -0.06580000
-1.22040000 -5.88080000 0.00050000
-1.15170000 -6.16720000 0.00460000
-1.15890000 -5.87990000 0.01650000
-1.16120000 -5.59910000 0.01040000
-1.09580000 -5.87860000 0.02870000
-1.09840000 -5.59760000 0.02500000
-1.10200000 -5.31570000 0.02360000
-1.03540000 -5.59590000 0.03880000
-1.03510000 -5.31450000 0.03660000
-1.04530000 -5.03920000 0.03760000
-0.95880000 -5.31290000 0.05410000
-0.96780000 -5.03780000 0.05350000
-0.98470000 -4.76280000 0.05090000
-0.86420000 -5.03540000 0.07220000
-0.87730000 -4.75970000 0.07060000
-0.88090000 -4.48420000 0.07480000
-0.73650000 -4.75650000 0.10370000
-0.73680000 -4.48040000 0.10350000
-0.74430000 -4.20380000 0.10890000
-0.55000000 -4.47560000 0.14540000
-0.55760000 -4.19870000 0.14670000
-0.56240000 -3.92150000 0.15180000
-0.30570000 -4.19280000 0.19680000
-0.31030000 -3.91660000 0.20120000
-0.31070000 -3.64110000 0.20930000
-0.03230000 -3.91220000 0.25040000
-0.03370000 -3.63650000 0.25500000
-0.03580000 -3.36040000 0.25880000
0.24890000 -3.63240000 0.27910000
0.24800000 -3.35650000 0.28140000
0.24610000 -3.08120000 0.27690000
0.53120000 -3.35520000 0.24810000
0.53210000 -3.07950000 0.24880000
0.52940000 -2.80410000 0.24870000
0.79690000 -3.07960000 0.21540000
0.79340000 -2.80240000 0.21470000
0.78890000 -2.52610000 0.21770000
0.99170000 -2.80130000 0.18810000
0.99440000 -2.52390000 0.19160000
0.99430000 -2.24820000 0.19760000
1.14800000 -2.52290000 0.17220000
1.15150000 -2.24820000 0.17560000
1.13540000 -1.97250000 0.17990000
1.27080000 -2.24870000 0.16060000
1.25890000 -1.97300000 0.16410000
1.24720000 -1.69390000 0.17040000
1.36130000 -1.97370000 0.15150000
1.34890000 -1.69220000 0.15630000
1.34690000 -1.41920000 0.16060000
1.43370000 -1.69120000 0.14580000
1.42470000 -1.41810000 0.15250000
1.41930000 -1.14480000 0.15480000
1.50210000 -1.41720000 0.14190000
1.49730000 -1.14520000 0.14390000
1.49720000 -0.86460000 0.14660000
1.57400000 -1.14530000 0.13150000
1.57390000 -0.86430000 0.13590000
1.57410000 -0.59290000 0.13480000
1.64550000 -0.86380000 0.10930000
1.64570000 -0.59230000 0.11130000
1.64880000 -0.31260000 0.11380000
1.68670000 -0.59150000 0.05260000
1.68940000 -0.31140000 0.05240000
1.69140000 -0.03380000 0.05490000
1.64330000 -0.31070000 -0.00550000
1.64310000 -0.03360000 -0.00190000
1.64490000 0.24390000 0.00140000
1.57470000 -0.03340000 -0.02510000
1.57500000 0.24360000 -0.02180000
1.57550000 0.51260000 -0.02330000
1.50310000 0.24340000 -0.03620000
1.50260000 0.51310000 -0.03670000
1.50470000 0.78810000 -0.03830000
1.42870000 0.51360000 -0.04840000
1.42860000 0.78810000 -0.04850000
1.43360000 1.06370000 -0.04840000
1.34830000 0.78850000 -0.06210000
1.34480000 1.06460000 -0.06170000
1.34820000 1.34420000 -0.06270000
1.24670000 1.06570000 -0.07770000
1.24530000 1.34490000 -0.07770000
1.24420000 1.62720000 -0.07790000
1.12570000 1.34590000 -0.09870000
1.12440000 1.62710000 -0.09860000
1.11390000 1.90730000 -0.09960000
0.97620000 1.62730000 -0.12440000
0.96940000 1.90640000 -0.12560000
0.96350000 2.18230000 -0.12900000
0.77860000 1.90530000 -0.15840000
0.77450000 2.18310000 -0.16140000
0.77550000 2.46070000 -0.16410000
0.52820000 2.18360000 -0.20540000
0.52660000 2.46340000 -0.20970000
0.52870000 2.74150000 -0.21110000
0.25460000 2.46510000 -0.25980000
0.25630000 2.74510000 -0.25970000
0.25870000 3.02520000 -0.26370000
-0.02310000 2.74810000 -0.26410000
-0.02210000 3.02860000 -0.26870000
-0.02070000 3.30920000 -0.27070000
-0.30090000 3.03130000 -0.22460000
-0.30060000 3.31250000 -0.22480000
-0.29860000 3.59290000 -0.22810000
-0.56770000 3.31500000 -0.18280000
-0.55770000 3.59620000 -0.18330000
-0.55130000 3.87620000 -0.18750000
-0.75220000 3.59910000 -0.15560000
-0.74610000 3.87880000 -0.15700000
-0.73940000 4.15640000 -0.15890000
-0.88890000 3.88010000 -0.13450000
-0.88420000 4.15570000 -0.13630000
-0.88580000 4.43160000 -0.13630000
-1.00240000 4.15440000 -0.11590000
-1.00240000 4.43000000 -0.11800000
-1.02170000 4.70790000 -0.11490000
-1.10790000 4.42900000 -0.10050000
-1.12790000 4.70770000 -0.09710000
-1.13570000 4.98300000 -0.09780000
-1.21260000 4.70790000 -0.08350000
-1.22200000 4.98280000 -0.08360000
-1.22800000 5.25650000 -0.08600000
-1.29620000 4.98290000 -0.07140000
-1.30160000 5.25520000 -0.07330000
-1.31000000 5.53180000 -0.07550000
-1.37440000 5.25430000 -0.05930000
-1.38350000 5.53100000 -0.06140000
-1.38850000 5.80980000 -0.06440000
-1.45710000 5.53010000 -0.04420000
-1.46000000 5.80880000 -0.04800000
-1.45860000 6.08780000 -0.04860000
-1.52760000 5.80860000 -0.00820000
-1.52010000 6.08770000 -0.00900000
-1.53220000 6.36830000 -0.00750000
-1.48000000 6.08870000 0.05020000
-1.48380000 6.36960000 0.04930000
-1.49390000 6.63930000 0.04680000
-1.41350000 6.37080000 0.06880000
-1.42340000 6.64060000 0.06980000
-1.42860000 6.91260000 0.06710000
-1.35010000 6.64180000 0.08250000
-1.35700000 6.91350000 0.08350000
-1.35990000 7.19460000 0.07890000
-1.28450000 6.91460000 0.09870000
-1.28750000 7.19520000 0.09670000
-1.29540000 7.47800000 0.09610000
-1.21280000 7.19580000 0.11110000
-1.22060000 7.47710000 0.11050000
-1.22470000 7.75270000 0.11030000
-1.12340000 7.47640000 0.12650000
-1.12670000 7.75250000 0.12720000
-1.13580000 8.02860000 0.12490000
-1.00040000 7.75280000 0.15340000
-1.00880000 8.02880000 0.15010000
-1.01960000 8.30400000 0.14990000
-0.84390000 8.03100000 0.18330000
-0.85990000 8.30690000 0.18190000
-0.87290000 8.58300000 0.18150000
-0.62830000 8.30940000 0.23280000
-0.64400000 8.58610000 0.23270000
-0.65810000 8.86460000 0.22980000
-0.37050000 8.58930000 0.28880000
-0.38620000 8.86710000 0.28630000
-0.40100000 9.14490000 0.28360000
-0.10470000 8.86910000 0.33940000
-0.11890000 9.14590000 0.33820000
-0.13210000 9.42300000 0.33740000
0.16900000 9.14840000 0.33810000
0.15430000 9.42480000 0.33810000
0.13990000 9.70200000 0.33910000
0.43890000 9.42980000 0.30790000
0.42270000 9.70620000 0.30990000
0.40750000 9.98410000 0.31520000
0.69400000 9.71300000 0.28020000
0.68060000 9.98990000 0.28280000
0.67170000 10.26880000 0.28970000
0.92730000 9.99680000 0.24970000
0.91470000 10.27150000 0.25640000
0.91250000 10.54790000 0.25900000
1.10480000 10.27410000 0.22750000
1.10700000 10.54710000 0.22800000
1.10930000 10.82240000 0.22890000
1.26170000 10.54690000 0.20780000
1.27000000 10.82010000 0.20520000
1.27760000 11.09450000 0.20380000
1.40680000 10.81790000 0.18520000
1.41080000 11.09070000 0.18660000
1.40480000 11.37080000 0.18520000
1.50330000 11.08840000 0.16930000
1.49800000 11.36840000 0.17040000
1.49900000 11.65370000 0.17170000
1.58400000 11.36630000 0.14960000
1.58390000 11.65280000 0.15220000
1.58920000 11.93800000 0.15700000
1.66190000 11.65170000 0.12460000
1.66740000 11.93750000 0.12900000
1.67190000 12.21550000 0.13170000
1.72660000 11.93680000 0.08130000
1.73070000 12.21480000 0.08460000
1.73980000 12.49690000 0.08120000
1.75480000 12.21440000 0.02470000
1.76520000 12.49650000 0.02040000
1.76820000 12.77180000 0.01710000
1.75580000 12.49640000 -0.04430000
1.76120000 12.77180000 -0.05030000
1.76250000 13.04560000 -0.05100000
1.70990000 12.77230000 -0.10500000
1.71200000 13.04640000 -0.10540000
1.71720000 13.32970000 -0.11210000
1.64110000 13.04830000 -0.14030000
1.64160000 13.33200000 -0.14620000
1.64820000 13.61640000 -0.15060000
1.55650000 13.33490000 -0.16770000
1.56360000 13.61830000 -0.17440000
1.56830000 13.89760000 -0.17650000
1.47250000 13.62020000 -0.19300000
1.46860000 13.89860000 -0.19610000
1.47610000 14.17370000 -0.20020000
1.33450000 13.89950000 -0.22010000
1.33170000 14.17580000 -0.22810000
1.33750000 14.44900000 -0.23240000
1.16550000 14.17690000 -0.25770000
1.17100000 14.45380000 -0.26530000
1.18190000 14.72540000 -0.26770000
0.97210000 14.45930000 -0.30280000
0.97080000 14.73690000 -0.30750000
0.96870000 14.95700000 -0.31300000
1.20520000 14.96890000 -0.27430000
0.96150000 15.12490000 -0.32060000
1.20460000 15.14230000 -0.27940000
0.95310000 15.25940000 -0.32850000
0.70740000 15.12300000 -0.36430000
0.69970000 15.25130000 -0.37000000
0.69320000 15.35680000 -0.37620000
0.44060000 15.25360000 -0.41400000
0.43380000 15.35750000 -0.41780000
0.42790000 15.44800000 -0.43440000
0.17840000 15.37720000 -0.46340000
0.17690000 15.46510000 -0.48070000
0.17930000 15.53070000 -0.54030000
-0.07150000 15.46660000 -0.47320000
-0.07370000 15.52510000 -0.53220000
-0.07950000 15.55000000 -0.61220000
-0.33570000 15.46410000 -0.42700000
-0.33620000 15.38090000 -0.41140000
-0.60060000 15.37620000 -0.36690000
-0.07340000 15.38560000 -0.45040000
-0.07650000 15.29030000 -0.45070000
-0.33840000 15.28330000 -0.41160000
0.18200000 15.27770000 -0.45820000
0.18570000 15.14930000 -0.45170000
-0.07720000 15.16430000 -0.44830000
0.44690000 15.13190000 -0.40770000
0.45570000 14.96210000 -0.40340000
0.19060000 14.97390000 -0.44530000
0.71700000 14.95710000 -0.35930000
0.72950000 14.74210000 -0.35060000
0.46700000 14.73650000 -0.39580000
0.74060000 14.46340000 -0.34310000
0.97200000 14.17710000 -0.29440000
1.16870000 13.89870000 -0.25060000
1.33590000 13.62090000 -0.21810000
1.46830000 13.33760000 -0.18710000
1.55910000 13.05140000 -0.16240000
1.63740000 12.77350000 -0.13430000
1.70350000 12.49690000 -0.09680000
1.74920000 12.21430000 -0.04320000
1.75370000 11.93610000 0.02110000
1.72370000 11.65110000 0.07740000
1.66190000 11.36460000 0.11970000
1.58810000 11.08640000 0.15040000
1.49670000 10.81600000 0.17050000
1.39470000 10.54560000 0.18800000
1.25550000 10.27580000 0.20880000
1.11440000 10.00090000 0.22490000
0.93620000 9.72000000 0.25000000
0.70770000 9.43660000 0.27880000
0.45510000 9.15290000 0.31140000
0.18230000 8.87150000 0.33770000
-0.09100000 8.59120000 0.34350000
-0.35710000 8.31080000 0.28920000
-0.61870000 8.03260000 0.23190000
-0.83230000 7.75420000 0.18560000
-0.99300000 7.47630000 0.15300000
-1.11320000 7.19650000 0.12880000
-1.20770000 6.91600000 0.11390000
-1.27660000 6.64290000 0.09840000
-1.34240000 6.37180000 0.08200000
-1.40680000 6.08960000 0.07040000
-1.47770000 5.80880000 0.04770000
-1.52320000 5.52900000 -0.00660000
-1.44700000 5.25340000 -0.04350000
-1.37050000 4.98300000 -0.05870000
-1.29020000 4.70800000 -0.06950000
-1.20050000 4.42810000 -0.08410000
-1.10620000 4.15260000 -0.09850000
-1.01030000 3.88090000 -0.11530000
-0.89630000 3.60030000 -0.13140000
-0.75730000 3.31660000 -0.15060000
-0.56240000 3.03280000 -0.18030000
-0.30050000 2.75050000 -0.22040000
-0.02560000 2.46780000 -0.26620000
0.25410000 2.18500000 -0.25520000
0.53220000 1.90480000 -0.20190000
0.78330000 1.62860000 -0.15860000
0.97700000 1.34800000 -0.12470000
1.12760000 1.06700000 -0.09710000
1.24540000 0.78930000 -0.07840000
1.35450000 0.51430000 -0.06230000
1.42950000 0.24330000 -0.04800000
1.50390000 -0.03330000 -0.03890000
1.57290000 -0.31030000 -0.02820000
1.64210000 -0.59060000 -0.00510000
1.68770000 -0.86350000 0.04720000
1.64750000 -1.14510000 0.10730000
1.57950000 -1.41630000 0.13170000
1.51110000 -1.69040000 0.13690000
1.44300000 -1.97440000 0.14140000
1.37030000 -2.24900000 0.14660000
1.26810000 -2.52260000 0.15550000
1.13740000 -2.80090000 0.16940000
0.99050000 -3.08080000 0.18880000
0.79530000 -3.35720000 0.21550000
0.53010000 -3.63130000 0.24960000
0.24970000 -3.90910000 0.27840000
-0.03050000 -4.18900000 0.24740000
-0.30060000 -4.47150000 0.19390000
-0.54700000 -4.75400000 0.14150000
-0.73620000 -5.03330000 0.10020000
-0.85830000 -5.31160000 0.07370000
-0.95780000 -5.59380000 0.05450000
-1.03170000 -5.87740000 0.03930000
-1.09070000 -6.16600000 0.02030000
-1.14440000 -6.46430000 0.00480000
-1.02660000 -7.45560000 0.01590000
-0.94250000 -7.46390000 0.03520000
-0.92890000 -7.20650000 0.04090000
-1.10840000 -7.44820000 -0.00220000
-1.11440000 -7.73630000 -0.00580000
-1.03340000 -7.73860000 0.01250000
-1.18920000 -7.44330000 -0.02250000
-1.19450000 -7.73460000 -0.02510000
-1.19110000 -8.02040000 -0.03350000
-1.11240000 -8.02130000 -0.01280000
-1.25740000 -7.44030000 -0.07020000
-1.26590000 -7.73320000 -0.07470000
-1.25420000 -8.01930000 -0.08010000
-1.26540000 -8.30010000 -0.07570000
-1.18810000 -8.30040000 -0.03240000
-1.20480000 -7.73260000 -0.13190000
-1.20410000 -8.01870000 -0.13450000
-1.20100000 -8.29880000 -0.13300000
-1.19660000 -8.57040000 -0.13620000
-1.25210000 -8.57160000 -0.08410000
-1.12440000 -8.01860000 -0.15040000
-1.12050000 -8.29770000 -0.14930000
-1.11610000 -8.57000000 -0.15320000
-1.11120000 -8.85400000 -0.15910000
-1.19310000 -8.85470000 -0.14200000
-1.04040000 -8.29700000 -0.16330000
-1.03450000 -8.56950000 -0.16720000
-1.02970000 -8.85350000 -0.17440000
-1.03140000 -9.13660000 -0.17610000
-1.11210000 -9.13840000 -0.16260000
-0.95020000 -8.56900000 -0.18230000
-0.94710000 -8.85290000 -0.18900000
-0.94670000 -9.13450000 -0.19130000
-0.95080000 -9.40740000 -0.19300000
-1.03330000 -9.40850000 -0.17900000
-0.85690000 -8.85220000 -0.20580000
-0.85470000 -9.13270000 -0.20840000
-0.86130000 -9.40680000 -0.20830000
-0.87280000 -9.68580000 -0.21070000
-0.95800000 -9.68650000 -0.19590000
-0.74730000 -9.13110000 -0.22520000
-0.75080000 -9.40690000 -0.22640000
-0.76250000 -9.68570000 -0.22720000
-0.77500000 -9.96820000 -0.22760000
-0.88270000 -9.96910000 -0.21100000
-0.62500000 -9.40800000 -0.24870000
-0.64220000 -9.68650000 -0.24720000
-0.64820000 -9.96800000 -0.25250000
-0.65490000 -10.24850000 -0.25590000
-0.78330000 -10.24930000 -0.23250000
-0.49310000 -9.68860000 -0.27400000
-0.49670000 -9.96900000 -0.27940000
-0.50570000 -10.24880000 -0.28140000
-0.51270000 -10.52830000 -0.28500000
-0.66550000 -10.52810000 -0.25730000
-0.28430000 -9.97220000 -0.31190000
-0.29220000 -10.25110000 -0.30700000
-0.29930000 -10.52940000 -0.31170000
-0.30460000 -10.80810000 -0.31240000
-0.51570000 -10.80830000 -0.28400000
-0.01670000 -10.25300000 -0.34350000
-0.02330000 -10.53000000 -0.34500000
-0.02840000 -10.80720000 -0.34430000
-0.03130000 -11.08500000 -0.34540000
-0.30540000 -11.08720000 -0.31140000
0.26080000 -10.53000000 -0.33360000
0.25640000 -10.80620000 -0.33530000
0.25430000 -11.08300000 -0.33820000
0.25380000 -11.36070000 -0.33730000
-0.03050000 -11.36340000 -0.34670000
0.52740000 -10.80640000 -0.28950000
0.52570000 -11.08240000 -0.29120000
0.52510000 -11.35870000 -0.29100000
0.52580000 -11.63570000 -0.29410000
0.25550000 -11.63890000 -0.33920000
0.74560000 -11.08310000 -0.25090000
0.74430000 -11.35760000 -0.25270000
0.74550000 -11.63330000 -0.25520000
0.74870000 -11.91010000 -0.25490000
0.52770000 -11.91410000 -0.29400000
0.90970000 -11.35800000 -0.22560000
0.90850000 -11.63210000 -0.22770000
0.91270000 -11.90760000 -0.22870000
0.91950000 -12.18370000 -0.22890000
0.75160000 -12.18770000 -0.25570000
1.03520000 -11.63150000 -0.20570000
1.04070000 -11.90650000 -0.20560000
1.04800000 -12.18290000 -0.20550000
1.06260000 -12.45890000 -0.20440000
