-5.26400000 -12.23620000 0.98970000
-5.97620000 -9.78470000 1.05230000
-5.12600000 -12.98060000 0.64650000
-5.31060000 -13.14820000 -0.34010000
-7.04860000 -12.61820000 -1.83730000
-7.51530000 -12.73410000 -2.23890000
-19.08520000 1.26840000 1.01480000
-25.55070000 7.59060000 1.29550000
-28.76720000 9.80230000 1.49930000
-33.57060000 12.87030000 1.79760000
-35.28070000 15.23230000 1.85380000
-47.01540000 18.90890000 -0.17240000
-37.14350000 12.07920000 -3.76800000
-38.78070000 13.42180000 -3.53360000
-41.32500000 13.68580000 -3.42380000
-48.02730000 17.91180000 -0.79130000
-48.32970000 18.35000000 -1.01310000
-47.01640000 21.15700000 -2.62750000
-48.45810000 14.27990000 -2.41380000
5.82220000 -20.52190000 -2.43880000
2.12040000 -18.70530000 -3.46890000
-0.04120000 -16.87940000 -3.47570000
6.89280000 -21.07290000 -1.64380000
8.04180000 -21.61120000 0.20220000
8.60590000 -21.79930000 -0.30430000
4.73830000 -18.81490000 1.26270000
2.26080000 -18.12560000 1.11140000
-10.50680000 -6.25440000 -3.15870000
-19.87200000 -1.99510000 -3.78840000
-0.39570000 -16.33720000 1.00140000
-1.28360000 -15.78210000 0.83400000
-2.05720000 -16.28310000 -0.99220000
-2.43720000 -16.87760000 -1.66670000
-4.66230000 -12.69370000 0.97560000
-3.93980000 -10.10870000 1.08730000
-7.51390000 -9.41670000 1.02620000
-6.38110000 -12.66580000 -1.82470000
-12.65920000 -4.80140000 0.99650000
-13.82880000 -3.88540000 0.98600000
-15.79060000 -3.69860000 0.94050000
-23.37890000 5.78160000 1.16730000
-41.09830000 19.32620000 1.03260000
-42.66540000 20.21620000 0.79870000
-38.40960000 14.95790000 -3.42470000
-44.67820000 17.38040000 -3.03550000
-47.58970000 19.87950000 -0.31350000
-48.24800000 15.89620000 -2.53510000
5.26100000 -19.98660000 -3.08110000
0.95190000 -16.79810000 -3.38930000
-1.08580000 -16.47640000 -3.40220000
-2.10290000 -16.70420000 -2.96420000
-1.58930000 -16.52890000 -3.32970000
8.25210000 -21.77910000 -0.84200000
8.36150000 -21.58410000 0.52680000
6.39030000 -20.42590000 1.72510000
5.81760000 -20.02260000 1.67240000
3.75890000 -17.99350000 1.13300000
-6.49020000 -11.91170000 -3.49430000
-6.38530000 -12.85210000 -2.89050000
-9.33220000 -8.15160000 -3.30590000
-20.54620000 -0.05070000 -3.66190000
-25.17530000 1.59810000 -4.16910000
-1.50750000 -15.40250000 0.73000000
-1.89970000 -15.88630000 0.15320000
-2.01750000 -15.84770000 -0.35350000
-8.18220000 -7.46110000 1.04590000
-4.61270000 -13.39540000 0.24440000
-4.53570000 -13.09770000 -1.23100000
-5.17700000 -12.87400000 -1.73730000
-17.42230000 0.65750000 1.01300000
-15.84550000 0.45780000 1.03970000
-33.11750000 13.40880000 1.86780000
-28.77640000 8.30150000 -3.83230000
-31.24320000 8.12540000 -4.31270000
-32.82250000 8.99460000 -4.34330000
-35.63840000 12.22730000 -3.89330000
-40.91640000 14.72040000 -3.31030000
-43.54590000 15.98300000 -3.17510000
-47.87380000 18.92080000 -0.54510000
7.33190000 -20.50520000 -2.47020000
6.86760000 -20.36660000 -2.49840000
4.69380000 -19.49180000 -3.33510000
4.38850000 -19.01720000 -3.31220000
4.10660000 -18.54310000 -3.26210000
4.01680000 -17.55220000 -3.16190000
-0.63250000 -15.93770000 -3.33510000
-1.53420000 -15.51590000 -3.32960000
-2.10440000 -16.11240000 -2.90360000
8.49460000 -21.27180000 1.15180000
7.03470000 -20.67480000 1.65920000
4.89490000 -19.41030000 1.38890000
0.68190000 -17.25580000 1.07470000
-5.30070000 -12.37590000 -3.35260000
-4.95740000 -12.94520000 -3.06180000
-9.47140000 -6.67300000 -3.07900000
-18.34150000 -2.37540000 -3.64300000
-22.93360000 4.25030000 -3.42710000
-0.47960000 -15.33650000 1.00590000
-1.59840000 -14.75760000 0.89990000
-2.00840000 -14.73990000 0.69220000
-1.93890000 -15.40700000 0.37470000
-2.23330000 -14.91540000 0.23250000
-2.07310000 -15.80890000 -1.79290000
-2.18350000 -16.50070000 -2.03430000
-4.13610000 -13.29150000 0.66610000
-3.68210000 -13.10100000 0.97750000
-2.68890000 -13.01960000 1.06310000
-9.45710000 -5.52450000 1.06060000
-14.46600000 -1.84000000 1.00740000
-28.85640000 10.79400000 1.59180000
-31.48690000 12.05510000 1.74210000
-36.80480000 15.62350000 1.60220000
-37.92420000 17.04270000 1.52850000
-31.73890000 8.08620000 -4.36980000
-34.00240000 10.88280000 -4.10850000
-35.18030000 12.77430000 -3.90650000
-48.08910000 20.06420000 -0.70590000
-47.47140000 19.57720000 -2.68360000
-47.66220000 16.66670000 -2.79550000
-45.85260000 19.27790000 -2.89210000
-46.39730000 19.72710000 -2.82970000
6.06120000 -20.13710000 -2.76170000
5.67890000 -19.42410000 -3.11650000
2.98060000 -17.13510000 -3.22670000
-2.20690000 -15.55220000 -2.85230000
9.36350000 -22.09870000 -1.23220000
8.44650000 -21.75380000 -1.75950000
7.81370000 -21.40650000 -1.95720000
7.54100000 -21.07270000 -2.18400000
8.83680000 -21.56800000 0.59550000
9.43600000 -21.93410000 -0.35610000
-4.85230000 -13.06070000 -2.65650000
-18.43280000 -1.38710000 -3.51680000
-18.97230000 -0.92910000 -3.54070000
-20.14340000 0.97400000 -3.45200000
-27.02180000 5.44340000 -3.93280000
-1.06520000 -14.38500000 1.05140000
-2.56560000 -14.44370000 0.26080000
-2.67010000 -14.00150000 0.80330000
-2.33960000 -14.87590000 -0.27340000
-2.14910000 -15.30630000 -0.81840000
-1.36460000 -10.89190000 1.15910000
-3.12280000 -13.63930000 0.81310000
-17.57990000 2.04620000 1.03680000
-19.70040000 4.10150000 1.07880000
-25.63650000 8.58810000 1.33180000
-33.25000000 14.89870000 1.98340000
-35.77370000 13.71250000 -3.73170000
-40.63890000 17.24730000 -3.10400000
-47.28220000 21.88580000 0.08850000
-47.85660000 18.21000000 -2.65680000
7.18270000 -19.82160000 -2.81420000
0.36400000 -15.85050000 -3.30600000
-1.32170000 -14.59960000 -3.30000000
-2.02510000 -14.55920000 -3.24310000
8.47780000 -20.85040000 1.46480000
-3.81090000 -12.66110000 -3.24660000
-4.46380000 -12.25240000 -3.29510000
-4.05950000 -11.22520000 -3.10940000
-5.18940000 -9.82380000 -3.01000000
-6.36340000 -6.93130000 -2.72340000
-12.12930000 -4.88700000 -3.16680000
-21.31380000 2.87830000 -3.37420000
-27.60560000 6.39810000 -3.91800000
-4.50280000 -13.07910000 -1.73060000
-35.00940000 17.74870000 2.16240000
-35.41550000 16.71840000 2.00760000
-32.01300000 11.05080000 -3.98960000
-33.05050000 11.46560000 -4.03210000
-44.90390000 23.05500000 0.64690000
-39.05010000 16.39420000 -3.22990000
-40.59320000 16.75330000 -3.16820000
-47.68060000 22.10130000 -0.07080000
7.08590000 -20.09870000 -2.69840000
7.18280000 -19.29120000 -2.90600000
-0.27090000 -14.41110000 -3.13690000
-1.73330000 -14.46610000 -3.32530000
-2.17850000 -15.36350000 -1.79790000
8.14710000 -20.91460000 -2.62730000
10.17550000 -21.47640000 0.71540000
9.96050000 -21.13240000 1.13220000
7.63510000 -20.13190000 1.65610000
6.90820000 -19.75200000 1.60840000
6.97230000 -19.10400000 1.45720000
3.62600000 -16.50010000 1.22430000
2.04940000 -15.62640000 1.14840000
1.01030000 -15.21410000 1.13120000
-4.08020000 -13.04260000 -3.08910000
-24.50710000 5.12930000 -3.55320000
-30.30160000 8.69090000 -4.06610000
-2.14660000 -13.47290000 1.04130000
-3.00600000 -13.98110000 0.28160000
-2.37730000 -14.77740000 -1.32260000
-3.88830000 -13.45340000 -0.33120000
-4.03490000 -13.27480000 -1.23220000
-11.97680000 -3.79590000 1.01720000
-21.55310000 7.95840000 1.22460000
-33.59220000 11.92000000 -4.02060000
-48.22580000 20.42460000 -0.97100000
-48.40230000 18.71300000 -1.13440000
7.77300000 -20.25270000 -2.76520000
7.11790000 -18.80370000 -2.97290000
-0.76820000 -14.45300000 -3.16750000
-2.65030000 -14.75510000 -2.70050000
8.46150000 -20.41610000 1.60560000
6.29030000 -18.29440000 1.30660000
-4.25050000 -13.29540000 -2.74460000
-2.94020000 -12.61080000 -3.22470000
-12.17430000 -4.39170000 -3.11480000
-17.08580000 0.20760000 -3.10450000
0.88100000 -13.71860000 1.19250000
-3.02070000 -14.00280000 -0.22510000
-2.68960000 -14.30890000 -1.24350000
-3.98120000 -9.60740000 1.08040000
-3.35020000 -13.67250000 -1.14020000
-3.89910000 -13.36280000 -1.72320000
-9.93310000 -4.60620000 1.05200000
-18.11460000 3.16120000 1.06630000
-32.75100000 14.94350000 1.98640000
-37.70120000 20.04860000 1.94540000
-31.42650000 10.10090000 -4.04990000
-42.36110000 19.58890000 -2.84800000
-42.49400000 21.07800000 -2.72500000
-47.94150000 21.81080000 -0.32360000
-48.10370000 19.20370000 -2.39720000
8.81130000 -20.62480000 -2.94920000
8.59520000 -20.08490000 -3.00730000
7.67880000 -19.29260000 -2.81960000
6.09190000 -18.38200000 -3.07560000
6.00020000 -17.39440000 -2.94280000
-2.88350000 -14.41450000 -2.56500000
-2.81750000 -14.15100000 -2.98880000
-3.42120000 -13.09380000 -3.19480000
10.84320000 -22.25830000 -1.28160000
9.75080000 -22.04140000 -1.86550000
8.83050000 -21.31760000 -2.54720000
9.26560000 -20.45220000 1.50860000
5.16400000 -16.86920000 1.24730000
-3.16250000 -10.16360000 -2.81930000
-8.12370000 -5.07710000 -2.67890000
-9.65530000 -4.69870000 -2.80520000
-5.14910000 -7.69860000 1.11670000
-9.57000000 -3.07060000 1.09960000
-11.79860000 -3.04670000 1.04820000
-20.79650000 5.01070000 1.11960000
-24.76820000 10.17240000 1.40570000
-30.70680000 14.63290000 1.89140000
-35.22700000 13.26670000 -3.82690000
-37.45710000 15.54830000 -3.42560000
-39.77210000 18.82900000 -3.00420000
-47.42520000 23.45140000 0.12810000
-47.89450000 23.52180000 -0.17350000
-48.12310000 21.56890000 -0.59750000
-47.42490000 21.15470000 -2.51560000
9.29510000 -20.16610000 -3.07410000
4.32750000 -15.54060000 -2.81210000
1.80430000 -15.24090000 -3.05090000
-0.93810000 -13.40110000 -3.06420000
-1.96670000 -13.11620000 -3.24850000
11.22040000 -21.75470000 0.09260000
10.95050000 -21.19750000 1.00580000
11.18980000 -20.75460000 1.15170000
10.17720000 -20.44530000 1.34560000
9.55470000 -19.91660000 1.48130000
5.71800000 -17.81210000 1.25650000
-0.20070000 -12.80720000 1.18870000
-2.31760000 -13.48590000 -3.31400000
-13.84360000 -2.53210000 -3.04120000
-20.72940000 1.92480000 -3.39930000
-26.71070000 7.45580000 -3.59070000
-0.24200000 -12.30560000 1.17880000
-4.52360000 -9.15420000 1.10350000
-5.10540000 -8.19620000 1.08550000
-3.24850000 -13.80780000 -1.72940000
-12.84820000 0.18110000 1.09850000
-26.57340000 13.51630000 1.65060000
-34.05770000 18.33130000 2.24200000
-35.77300000 20.68450000 2.38390000
-32.28100000 13.02150000 -3.75600000
-33.68440000 12.90680000 -3.87970000
-36.40840000 15.15230000 -3.56650000
-40.15970000 19.88670000 1.32760000
-42.39470000 22.73150000 1.11760000
-38.13700000 17.48300000 -3.20470000
-46.92160000 23.41050000 0.30380000
-46.62100000 22.20550000 -2.59060000
6.85210000 -15.83790000 -2.59730000
-3.27500000 -13.95640000 -2.60370000
-3.26720000 -13.71370000 -2.97620000
11.73300000 -22.11600000 -0.63860000
9.55050000 -20.98140000 -2.90450000
12.03300000 -21.61460000 0.37590000
12.06340000 -21.85170000 -0.09890000
12.19180000 -21.17040000 0.84340000
8.77150000 -19.29580000 1.48360000
2.50230000 -15.08820000 1.22120000
-2.75280000 -11.17900000 -2.93900000
-5.27970000 -8.83380000 -2.90080000
-9.38980000 -2.19200000 -2.40210000
-15.55570000 -0.17350000 -2.95100000
-6.26610000 -6.33830000 1.11270000
-10.76930000 -1.11170000 1.10700000
-15.31120000 2.90460000 1.08440000
-17.47680000 3.88510000 1.06830000
-36.26770000 20.64700000 2.31010000
-33.72800000 13.40450000 -3.85220000
-35.40750000 15.24680000 -3.60890000
-46.02380000 24.47340000 0.58170000
-43.02080000 24.18580000 1.14170000
-38.72660000 18.42760000 -3.09290000
-47.04530000 24.43890000 0.42070000
-48.08160000 23.39380000 -0.57320000
-47.70260000 21.22620000 -2.32250000
8.77200000 -19.29370000 -2.91310000
8.58700000 -18.71490000 -2.80660000
8.07420000 -18.22030000 -2.83480000
10.19780000 -21.93040000 -2.20120000
9.90050000 -21.37850000 -2.70250000
10.45340000 -20.63640000 -3.01960000
10.81850000 -21.06340000 -2.87890000
11.44150000 -19.87900000 1.27960000
10.78830000 -19.37370000 1.37520000
10.27580000 -18.89280000 1.42190000
-10.47040000 -1.27860000 -2.42520000
-24.19590000 7.14180000 -3.21300000
-29.45390000 10.24030000 -3.65150000
1.21000000 -11.67600000 1.23940000
-2.44450000 -9.97720000 1.12390000
-16.83600000 3.66040000 1.08320000
-27.70480000 14.91510000 1.77650000
-34.88160000 20.76160000 2.41910000
-31.60880000 12.07790000 -3.80210000
-44.53610000 21.39240000 -2.66660000
-46.77460000 23.68800000 -2.30300000
-48.09910000 20.44770000 -2.09730000
10.58590000 -20.03770000 -2.99500000
12.28030000 -22.09410000 -0.58140000
11.95660000 -22.34150000 -1.09920000
12.06330000 -22.37870000 -1.66050000
13.61660000 -21.56530000 0.50590000
13.53400000 -22.02400000 -0.26620000
12.25420000 -20.34490000 1.14140000
8.90750000 -18.12530000 1.37620000
10.08120000 -18.45480000 1.41000000
7.87390000 -17.93870000 1.35540000
5.57820000 -15.82380000 1.26790000
3.95470000 -14.45790000 1.27490000
1.29520000 -12.67470000 1.21480000
-16.18730000 1.27140000 -2.83640000
-22.57660000 5.76890000 -3.15130000
-3.06840000 -8.51910000 1.11010000
-5.19530000 -6.63270000 1.11250000
-18.12370000 7.27700000 1.18240000
-24.94170000 12.16440000 1.50710000
-33.18920000 19.91600000 2.31270000
-35.54170000 16.73390000 -3.46560000
-40.33830000 21.86990000 1.51390000
-41.45000000 20.67420000 -2.78960000
-47.60080000 26.07730000 0.33190000
-47.72210000 22.38790000 -1.97510000
10.56660000 -18.94510000 -2.70580000
7.79590000 -15.26880000 -2.38650000
11.35290000 -21.50300000 -2.61560000
12.07120000 -20.89270000 -2.83570000
11.61280000 -18.91640000 1.37050000
-4.38360000 -7.77390000 -2.59420000
-5.69610000 -4.39600000 -2.24160000
-16.81940000 2.71560000 -2.71400000
-25.72400000 7.52620000 -3.39850000
-2.11460000 -7.93400000 1.16420000
-6.28210000 -5.06420000 1.14090000
-7.30180000 -3.90790000 1.14400000
-8.54520000 -3.61240000 1.10690000
-12.43260000 1.22750000 1.10810000
-16.84110000 4.77460000 1.12050000
-20.01430000 7.59230000 1.20720000
-33.90940000 15.38300000 -3.61890000
-34.49730000 16.33060000 -3.53620000
-47.87880000 26.00790000 0.08250000
-48.20140000 22.28030000 -1.07550000
-48.08430000 23.31610000 -1.02300000
-48.02670000 23.01040000 -1.32630000
-47.80810000 21.53300000 -2.12580000
-46.30000000 24.23460000 -2.41180000
11.84000000 -20.27220000 -2.90180000
-1.72330000 -9.55580000 -2.54640000
12.25280000 -22.16330000 -2.09880000
13.92670000 -20.98380000 0.97220000
12.61350000 -19.46100000 1.28830000
11.23270000 -17.35240000 1.40920000
-22.48680000 4.77810000 -3.25290000
-25.41270000 9.53900000 -3.05990000
1.58430000 -10.12800000 1.22830000
-1.03350000 -8.84550000 1.16990000
-0.98860000 -9.34100000 1.11940000
-11.84830000 0.27350000 1.08810000
-13.98410000 2.09790000 1.08500000
-29.24870000 15.27280000 1.85130000
-36.89660000 22.09660000 2.37980000
-37.08850000 17.08670000 -3.34300000
-31.29880000 14.08840000 -3.44170000
-32.87060000 14.97030000 -3.59690000
-44.30200000 24.41710000 -2.43350000
-47.99650000 26.11990000 -0.12260000
-48.07360000 24.39050000 -0.62870000
-46.83410000 24.70250000 -2.20320000
11.50060000 -19.75640000 -2.85730000
5.03890000 -12.50770000 -2.21920000
14.60300000 -21.98770000 0.00800000
13.36550000 -20.47040000 1.11420000
11.37110000 -17.95800000 1.42960000
7.64940000 -16.65310000 1.31840000
7.61180000 -16.15220000 1.34730000
5.99060000 -14.78270000 1.31860000
3.82700000 -12.95980000 1.31110000
-22.75930000 7.74530000 -2.89820000
-29.18780000 12.74790000 -3.25660000
2.66170000 -11.04690000 1.30430000
-2.23730000 -6.95580000 1.18580000
-30.96910000 17.61730000 2.07780000
-37.56810000 24.04530000 2.46370000
-35.17680000 18.26590000 -3.32110000
-35.76440000 19.21400000 -3.24260000
-47.14690000 25.94840000 0.55500000
-44.67670000 26.06810000 0.99420000
-47.72060000 23.17830000 -1.70470000
-47.63040000 24.13710000 -1.60630000
-47.32700000 23.72280000 -1.94850000
-47.18240000 24.32970000 -2.03070000
8.64620000 -13.71510000 -2.01410000
13.01560000 -22.49360000 -1.22070000
13.38130000 -22.38030000 -1.84370000
12.98530000 -21.23640000 -2.65820000
13.07080000 -21.89710000 -2.34810000
14.13650000 -20.74160000 -2.69910000
14.12850000 -20.20960000 -2.65730000
15.16530000 -20.85880000 1.16780000
13.78280000 -19.89210000 1.25930000
9.69140000 -16.97750000 1.36430000
-4.47430000 -6.78460000 -2.47770000
-13.85180000 2.93960000 -2.26100000
-20.60090000 5.91380000 -2.80610000
-22.17380000 6.79370000 -2.94200000
2.20750000 -11.58720000 1.25280000
-18.96490000 10.11280000 1.30140000
-22.81160000 10.85640000 1.37590000
-27.79150000 15.91130000 1.82520000
-31.14290000 19.60890000 2.18390000
-35.36460000 21.71880000 2.50110000
12.19360000 -18.86600000 -2.52230000
10.46110000 -17.04230000 -2.42080000
8.86220000 -10.72080000 -1.48390000
2.37700000 -10.72850000 -2.23980000
15.13520000 -22.47230000 -0.61000000
13.89240000 -22.50520000 -1.54220000
14.01810000 -19.20910000 -2.41040000
16.04760000 -21.76450000 0.64730000
15.58830000 -21.40290000 0.95840000
14.76110000 -20.39890000 1.23760000
13.78720000 -19.03520000 1.34510000
12.77990000 -18.29560000 1.39790000
8.65190000 -16.56500000 1.37520000
-1.46020000 -7.05330000 -2.10280000
-12.27570000 2.06510000 -2.17850000
-3.79660000 -4.50730000 1.20370000
-6.09180000 -3.85320000 1.15850000
-6.78730000 -1.92330000 1.19610000
-10.52380000 2.40190000 1.17720000
-19.80600000 10.64690000 1.32240000
-39.62550000 24.90530000 2.08310000
-30.45100000 15.63800000 -3.02910000
-33.45670000 15.92080000 -3.54270000
-34.63160000 17.81740000 -3.38970000
-42.70690000 26.20280000 1.43790000
-38.49390000 21.45020000 -2.83830000
-42.26170000 24.09980000 -2.46320000
-47.89880000 24.41910000 -1.16400000
-46.47810000 26.21870000 -2.23340000
12.51760000 -17.86640000 -2.34410000
8.88070000 -16.17520000 -2.43220000
15.41810000 -22.66480000 -1.02380000
14.02220000 -22.26110000 -2.00380000
14.87920000 -19.42930000 1.37030000
11.93820000 -15.77690000 1.50500000
6.90140000 -13.69790000 1.38220000
-10.06820000 -0.25500000 -2.20440000
-16.05830000 5.26130000 -2.25090000
-23.48240000 10.17820000 -2.65390000
-26.53710000 10.94980000 -3.05140000
-27.16870000 12.39460000 -2.93580000
-29.41620000 15.21840000 -2.94000000
0.95780000 -8.67430000 1.25830000
-2.58050000 -5.49160000 1.22110000
-5.64670000 -2.81250000 1.21110000
-10.89550000 0.85840000 1.14410000
-12.64580000 3.72380000 1.17330000
-14.62450000 4.07200000 1.14490000
-16.20350000 6.40510000 1.16970000
-19.59700000 8.64110000 1.23390000
-22.94270000 12.34870000 1.46780000
-41.23190000 26.29990000 1.80960000
-47.27420000 25.74130000 -1.78870000
0.79830000 -9.85830000 -2.28140000
1.10820000 -7.84790000 -1.91930000
14.50240000 -21.15940000 -2.61680000
16.39330000 -22.02760000 0.21120000
16.00250000 -19.95270000 1.48140000
14.25520000 -17.50240000 1.46810000
11.55220000 -15.30990000 1.53040000
5.86200000 -13.28610000 1.36910000
-2.58750000 -5.64760000 -2.04460000
-5.92480000 -1.92600000 -1.91920000
3.07840000 -9.99860000 1.28480000
0.33470000 -7.24270000 1.27030000
-5.04550000 -3.49630000 1.20170000
-8.36080000 0.57820000 1.19260000
-8.90290000 1.03180000 1.21120000
-31.43530000 15.57150000 -3.26000000
-39.53840000 21.85320000 -2.76550000
-48.02080000 26.70040000 -0.76830000
-47.66950000 25.87890000 -1.33610000
-0.96700000 -7.01830000 -2.00420000
15.84340000 -22.30530000 -0.30160000
15.63390000 -20.54720000 -2.58060000
16.56550000 -20.90430000 1.43940000
16.52670000 -20.44740000 1.54700000
15.85070000 -19.42120000 1.45640000
8.98610000 -14.62310000 1.44470000
-18.85070000 8.53380000 -2.18990000
-21.53930000 9.32780000 -2.47790000
-25.50490000 10.52570000 -2.91900000
4.15680000 -10.91580000 1.34530000
2.03900000 -9.58680000 1.27180000
-17.73700000 9.10440000 1.26300000
-24.11600000 14.24800000 1.59460000
-32.31920000 21.50300000 2.36050000
-32.51290000 16.49000000 -3.33260000
-33.63880000 17.89820000 -3.29850000
-35.39960000 20.74590000 -3.09710000
-36.44460000 21.14810000 -3.01660000
-42.34900000 25.09490000 -2.40340000
11.31040000 -15.49030000 -2.03220000
5.39540000 -10.99000000 -1.93530000
15.50810000 -22.59740000 -1.48430000
15.14000000 -21.60000000 -2.43110000
15.45780000 -22.06460000 -2.14470000
16.11060000 -21.03730000 -2.54900000
16.21480000 -19.49370000 -2.28920000
17.76240000 -21.73500000 1.02920000
17.15750000 -21.54890000 1.14480000
17.93250000 -21.28150000 1.43910000
15.01540000 -18.49620000 1.41560000
5.15420000 -10.82720000 1.35960000
5.23670000 -11.83040000 1.37960000
-8.27240000 1.87100000 -1.65130000
-13.94240000 3.92920000 -2.14780000
-16.15000000 6.24890000 -2.11890000
-21.32370000 8.34720000 -2.56670000
-27.39780000 14.86390000 -2.60720000
-0.63650000 -6.76800000 1.26720000
-5.60920000 -1.70270000 1.22780000
-6.24160000 -0.73890000 1.21580000
-12.77370000 5.22160000 1.21290000
-16.12290000 7.69990000 1.22500000
-36.71500000 25.60390000 2.78880000
-37.21100000 25.56430000 2.73580000
-38.76240000 24.42410000 -2.54890000
-43.39370000 25.49780000 -2.32930000
13.52560000 -17.78190000 -2.20890000
3.76990000 -9.62760000 -1.89400000
17.14820000 -22.27360000 0.03010000
18.27290000 -22.02010000 0.63340000
17.50860000 -20.77760000 1.61810000
16.40990000 -19.36580000 1.45680000
10.47310000 -14.39400000 1.48360000
-13.58600000 5.44680000 -1.86250000
5.60840000 -10.28680000 1.41080000
-2.86400000 -3.38830000 1.24800000
-8.57460000 3.07340000 1.26880000
-11.10910000 3.35390000 1.21780000
-29.09750000 19.30010000 2.07110000
-35.04170000 23.75100000 2.64960000
-38.28600000 26.48710000 2.62080000
-33.72950000 18.88760000 -3.18370000
-34.35900000 20.33620000 -3.10380000
-44.48140000 26.39920000 -2.23510000
15.47270000 -18.80530000 -2.20060000
16.71520000 -22.65160000 -0.51870000
15.97490000 -22.58170000 -1.62910000
17.49640000 -20.27840000 1.65350000
17.38570000 -18.79040000 1.50220000
11.25560000 -11.81210000 1.59300000
7.35540000 -13.15780000 1.43630000
-8.17940000 0.88560000 -1.80530000
-21.55110000 10.81920000 -2.26520000
-23.71240000 12.64600000 -2.31080000
-22.81550000 13.70730000 -2.01780000
-30.00260000 16.16840000 -2.88020000
-30.09400000 17.15650000 -2.75290000
5.48060000 -8.78890000 1.44880000
3.44780000 -8.45890000 1.35430000
2.45420000 -8.54100000 1.27670000
2.36160000 -7.54780000 1.34780000
2.51480000 -6.02360000 1.39710000
-0.88590000 -5.18490000 1.29990000
-4.49950000 -2.20370000 1.23640000
-10.06980000 2.94200000 1.23170000
-13.35380000 6.18160000 1.19890000
-20.98670000 13.03150000 1.44930000
-32.15720000 18.00650000 -3.03670000
-40.93980000 26.22350000 -2.32720000
-42.57170000 27.57500000 -2.18040000
15.50910000 -17.68130000 -1.99920000
2.96270000 -8.69730000 -1.83680000
-1.05600000 -6.02620000 -1.91520000
17.83140000 -22.39880000 0.06250000
17.47750000 -22.87860000 -0.93820000
16.62140000 -21.50500000 -2.38510000
18.54690000 -20.71110000 1.68970000
17.46740000 -19.33230000 1.52720000
14.12980000 -16.08910000 1.56280000
7.72650000 -11.61530000 1.47860000
-3.26650000 -3.71150000 -1.83620000
-10.29720000 2.21460000 -1.87810000
-12.50540000 4.53320000 -1.83840000
-30.63050000 17.61970000 -2.82720000
-2.08890000 -3.69650000 1.28710000
-6.86690000 0.70720000 1.25340000
-12.29590000 5.52000000 1.21560000
-14.93470000 7.44970000 1.22650000
-22.61650000 14.38670000 1.56040000
-32.25070000 18.99100000 -2.87350000
-37.62380000 23.03740000 -2.79240000
0.52030000 -6.90040000 -1.83540000
18.00890000 -22.81220000 -0.51620000
17.89250000 -22.85340000 -1.27680000
16.51400000 -22.53430000 -1.73380000
17.31550000 -20.36570000 -2.43720000
18.75540000 -22.58160000 -0.12830000
19.21390000 -21.17400000 1.63840000
18.93490000 -19.72970000 1.61450000
12.46520000 -14.22140000 1.55820000
-15.38780000 8.79640000 -1.67350000
-26.31980000 13.94610000 -2.54120000
7.18890000 -11.15400000 1.42270000
5.56740000 -9.78490000 1.39790000
-1.60790000 -4.68560000 1.28930000
-8.48790000 2.07730000 1.21900000
-19.42210000 12.68570000 1.41970000
-18.34820000 11.69890000 1.36340000
-31.95090000 23.04090000 2.44760000
-36.21700000 25.64710000 2.80740000
-37.34400000 27.05330000 2.86040000
-33.81990000 19.87730000 -3.07180000
-35.53370000 22.23310000 -2.95450000
-36.62370000 23.13070000 -2.82300000
14.42590000 -16.73020000 -1.94840000
18.49590000 -20.83450000 -2.38400000
19.11330000 -22.33620000 0.18530000
19.48930000 -22.12570000 0.57380000
18.78100000 -21.64480000 1.30630000
19.93490000 -20.58120000 1.78640000
14.54280000 -15.04700000 1.60350000
-7.05300000 -0.52180000 -1.84700000
-13.04730000 4.98740000 -1.82490000
-14.17320000 6.39540000 -1.78990000
-18.94060000 9.52450000 -2.08680000
-26.00910000 15.95780000 -2.19240000
-28.52420000 16.27140000 -2.56600000
-30.67790000 18.11080000 -2.73500000
1.30390000 -5.54300000 1.36180000
-5.91390000 1.29200000 1.31090000
-6.95210000 1.70590000 1.27740000
-10.15470000 3.94110000 1.25240000
-15.94400000 9.16400000 1.26080000
-22.79040000 16.37780000 1.67000000
13.15210000 -13.85810000 -1.54500000
3.58340000 -7.65760000 -1.57800000
17.51260000 -22.27900000 -1.92840000
18.63960000 -19.32220000 -2.02610000
20.31920000 -21.52510000 1.63860000
20.58920000 -21.05940000 1.86870000
18.97170000 -19.18630000 1.54750000
19.36780000 -18.64250000 1.56400000
17.25030000 -17.32040000 1.56270000
17.11950000 -15.82770000 1.65060000
-4.38810000 -2.30610000 -1.78920000
-15.29720000 7.80680000 -1.78700000
-19.97770000 9.94020000 -2.13820000
8.51040000 -9.03100000 1.56520000
3.40490000 -6.52920000 1.41870000
0.08030000 -4.41680000 1.35200000
-13.44030000 7.17830000 1.25840000
-14.48130000 8.58330000 1.26520000
-31.49300000 23.58760000 2.43800000
-34.84960000 27.27620000 2.88380000
-30.32070000 19.62990000 -2.46450000
-31.84510000 20.02070000 -2.71140000
-34.58630000 22.80850000 -2.80460000
18.43570000 -16.91320000 -1.53040000
12.79750000 -15.37270000 -1.86040000
5.70430000 -8.98120000 -1.55750000
2.21210000 -4.74960000 -1.29320000
18.18040000 -21.74360000 -2.22420000
18.35170000 -22.21350000 -1.86090000
18.28250000 -21.35360000 -2.37960000
19.00820000 -20.20770000 -2.23520000
20.19980000 -21.87050000 1.26250000
17.98610000 -14.24610000 1.75170000
12.33700000 -12.72420000 1.60260000
-17.45820000 9.63400000 -1.83690000
-20.65440000 11.88010000 -1.96860000
-23.89580000 14.62120000 -2.04540000
-27.58240000 16.83710000 -2.32180000
-0.90350000 -3.68160000 1.33640000
-1.82350000 -2.80630000 1.29980000
-3.68520000 -1.03700000 1.30480000
-10.27680000 5.45610000 1.26810000
-11.26660000 6.97160000 1.26590000
-24.96600000 18.18050000 1.86010000
-32.47630000 21.46620000 -2.60260000
-35.21640000 24.25590000 -2.71420000
-36.21190000 24.17070000 -2.76180000
-38.84900000 25.42030000 -2.50010000
19.82460000 -22.70510000 -0.24730000
18.45630000 -22.94420000 -0.92140000
18.64770000 -22.70710000 -1.48920000
20.61860000 -22.48290000 0.16710000
21.34080000 -20.15480000 -1.93320000
20.77750000 -19.43790000 -1.80300000
20.63160000 -20.54600000 1.86020000
20.43250000 -19.58930000 1.63690000
14.95440000 -14.00730000 1.66810000
8.68290000 -11.02480000 1.48110000
-9.49030000 4.26630000 -1.48000000
-25.42300000 15.00730000 -2.24700000
0.36990000 -3.76410000 1.39570000
-2.84700000 0.55100000 1.35640000
-4.91790000 1.37830000 1.34840000
-8.29990000 5.77580000 1.32010000
-10.95500000 6.37750000 1.27440000
-16.47550000 11.11460000 1.35300000
-28.22780000 20.88680000 2.12210000
-27.90230000 22.92360000 2.22530000
-32.84580000 27.46860000 2.76580000
-30.95280000 21.07410000 -2.34150000
-33.05750000 22.42520000 -2.63000000
16.90220000 -16.53790000 -1.62670000
14.77980000 -15.21680000 -1.62210000
4.94390000 -5.58380000 -1.10160000
20.06600000 -22.85650000 -1.22870000
19.76250000 -21.82840000 -2.09470000
20.20340000 -21.22200000 -2.22520000
20.61120000 -20.74640000 -2.16680000
21.48870000 -22.19920000 0.88030000
21.43260000 -19.46320000 1.66540000
21.43240000 -20.09540000 1.78920000
18.78570000 -17.69250000 1.62770000
18.24640000 -17.23410000 1.59970000
12.29590000 -12.22230000 1.59060000
7.60040000 -10.11440000 1.48820000
-7.32830000 2.44300000 -1.46230000
-11.24860000 7.11590000 -1.32550000
-14.75610000 7.35150000 -1.78890000
-30.86110000 20.08640000 -2.47320000
5.89360000 -7.72160000 1.46170000
0.10470000 -3.10000000 1.37150000
-1.26240000 -0.29870000 1.39740000
-6.62500000 3.24750000 1.32490000
-20.57310000 14.07450000 1.48130000
19.71680000 -18.66790000 -1.73250000
8.22690000 -9.28210000 -1.30810000
2.35900000 -5.27300000 -1.37140000
19.87280000 -22.94000000 -0.74810000
21.89340000 -22.50670000 0.39110000
21.48470000 -21.53190000 1.83870000
22.01400000 -20.90690000 2.07050000
10.08790000 -9.90330000 1.62620000
11.00160000 -8.81360000 1.64210000
-2.87680000 -1.50840000 -1.45840000
-2.90910000 0.61490000 -1.15010000
-18.58560000 11.03970000 -1.77800000
-21.28670000 13.32410000 -1.84410000
-21.96400000 15.26310000 -1.66520000
6.97320000 -8.66210000 1.53060000
1.92750000 -4.90040000 1.42220000
-0.64640000 -2.23160000 1.36980000
-1.71170000 -0.85460000 1.34240000
-2.48330000 1.68240000 1.38520000
-9.32630000 6.20940000 1.31090000
-17.29970000 13.11350000 1.43120000
-21.29280000 16.51330000 1.66770000
-36.89140000 26.10600000 -2.54760000
15.18150000 -14.19380000 -1.39550000
13.50860000 -12.34030000 -1.26160000
19.95270000 -22.40990000 -1.69560000
19.29080000 -22.23190000 -1.79190000
21.50030000 -21.94720000 1.44030000
22.39850000 -20.26140000 1.98350000
21.36340000 -18.45610000 1.63220000
19.74050000 -17.10470000 1.65600000
18.11610000 -15.74030000 1.67800000
15.23970000 -11.46720000 1.74520000
11.71000000 -11.27140000 1.64170000
-5.15910000 0.62640000 -1.45060000
-11.29590000 7.61590000 -1.27480000
-18.67510000 12.03100000 -1.68210000
1.48940000 -2.68120000 1.42230000
-4.00560000 2.46210000 1.36240000
-5.49110000 2.34450000 1.35170000
-10.32700000 7.20920000 1.30430000
-12.03330000 8.33630000 1.29300000
-13.93910000 10.82280000 1.34770000
-21.92270000 17.96110000 1.75430000
-25.13980000 20.17190000 1.96680000
-23.05380000 19.36070000 1.87420000
-31.62550000 23.02080000 -2.23840000
-33.64350000 23.37590000 -2.57790000
10.30220000 -10.11160000 -1.22450000
4.28630000 -4.53840000 -1.02230000
21.62940000 -22.81730000 -0.06360000
20.83930000 -22.91070000 -0.40100000
23.03490000 -22.36400000 0.87880000
22.71190000 -21.38260000 2.17100000
22.32620000 -19.40320000 1.86370000
12.08170000 -9.72780000 1.67310000
-5.40280000 2.08890000 -1.25600000
-9.12440000 5.79680000 -1.21790000
-24.57240000 16.56150000 -1.87900000
-24.21670000 18.07790000 -1.58210000
-30.41170000 20.61870000 -2.34310000
5.36970000 -5.68270000 1.50710000
4.13790000 -5.41540000 1.44700000
3.25090000 -4.61830000 1.45750000
2.27410000 -3.90810000 1.43010000
0.23440000 -0.70890000 1.44720000
-7.15990000 5.03580000 1.33300000
-17.75580000 14.75790000 1.51180000
-36.52480000 27.64090000 -2.43100000
13.60230000 -13.32460000 -1.42690000
2.95250000 -1.22660000 -0.67460000
21.64980000 -23.02100000 -0.84940000
20.80150000 -22.42320000 -1.69390000
22.62770000 -22.10310000 1.38170000
22.50190000 -21.89300000 1.74500000
23.38900000 -21.73520000 2.08140000
23.47780000 -20.71620000 2.24780000
22.83410000 -18.78640000 1.85680000
21.87810000 -18.39140000 1.71010000
16.90720000 -13.32990000 1.70170000
10.45950000 -8.35980000 1.65940000
-6.05970000 3.64230000 -1.11780000
-12.32900000 8.03340000 -1.35780000
-14.57610000 10.81270000 -1.27350000
-18.13560000 11.57300000 -1.65770000
-28.30300000 19.27430000 -2.12020000
-27.90240000 20.29540000 -1.87480000
-20.43830000 18.03030000 1.72140000
-28.62070000 25.36450000 2.39180000
-31.62700000 25.09300000 2.55660000
-34.45100000 26.80880000 -2.32190000
-35.39480000 26.23960000 -2.53200000
-35.93810000 26.69120000 -2.49370000
9.75890000 -9.65990000 -1.18720000
0.40220000 -0.54020000 -0.89050000
21.52910000 -21.67120000 -2.04880000
21.49520000 -21.07000000 -2.13300000
22.87550000 -22.68270000 0.29590000
23.13170000 -19.95240000 1.90190000
23.49530000 -21.17220000 2.33460000
23.32290000 -19.77440000 1.72000000
23.05380000 -19.33430000 1.80300000
20.24060000 -17.05800000 1.64010000
15.41270000 -13.45990000 1.65090000
14.20100000 -11.05420000 1.72020000
13.20300000 -11.14380000 1.71550000
-6.82630000 4.99410000 -1.02750000
-19.04730000 15.97940000 -1.14420000
-23.09160000 16.66830000 -1.60280000
7.88820000 -7.57010000 1.52460000
8.34160000 -7.03110000 1.58920000
7.67020000 -5.63680000 1.61080000
4.05650000 -3.97900000 1.49270000
1.34720000 -2.03750000 1.44970000
0.67220000 0.61150000 1.47240000
-3.86320000 3.60870000 1.39580000
-8.86600000 7.19090000 1.32060000
-12.18740000 9.49650000 1.32370000
-18.75310000 17.53370000 1.65760000
-24.81570000 22.20640000 2.09380000
-33.33110000 25.39060000 -2.25760000
20.41800000 -16.75730000 -1.29260000
8.47810000 -6.29490000 -0.79080000
-1.42740000 -0.22070000 -1.08040000
22.95740000 -22.90590000 -0.06340000
21.85250000 -23.00890000 -0.41260000
22.34660000 -22.58820000 -1.46200000
22.47930000 -19.97060000 -1.69810000
23.09610000 -19.03650000 -1.29580000
24.16970000 -22.10680000 1.67940000
23.90530000 -20.37660000 2.07090000
24.44270000 -20.76270000 2.33280000
23.46040000 -19.25610000 1.40790000
22.27830000 -17.37640000 1.67540000
21.19180000 -16.47620000 1.72710000
20.15140000 -16.06610000 1.73130000
7.93050000 -8.09430000 1.54680000
-26.13360000 18.93190000 -1.77110000
5.48850000 -4.67610000 1.52710000
3.67990000 -3.46770000 1.50460000
3.07060000 -2.86940000 1.46780000
1.39850000 -0.73370000 1.47890000
1.00590000 -0.19470000 1.46150000
-0.85280000 1.45520000 1.43320000
-3.98230000 4.34120000 1.36930000
-5.07820000 4.83630000 1.35560000
-10.87750000 8.56010000 1.32130000
-31.38510000 28.11290000 2.68250000
-32.34490000 25.46010000 -2.05690000
22.49300000 -17.58720000 -1.20520000
23.09560000 -22.92620000 -1.01780000
22.98080000 -21.55040000 -2.01700000
22.77740000 -21.00780000 -2.01690000
23.65710000 -20.42500000 -1.71300000
22.57440000 -18.58330000 -1.36700000
23.84970000 -22.67460000 0.49300000
24.97510000 -22.42790000 1.08200000
24.55890000 -20.22620000 1.77060000
23.28150000 -18.33570000 1.64790000
23.82150000 -19.69940000 1.22850000
22.62160000 -18.24320000 1.81790000
19.11320000 -15.65230000 1.69880000
19.43740000 -13.61780000 1.82490000
12.53560000 -9.18790000 1.72910000
-9.07660000 7.47420000 -0.95590000
-11.49550000 9.28610000 -1.03640000
-17.51170000 15.06770000 -1.04890000
-28.48540000 21.25120000 -1.87200000
2.40970000 -1.17170000 1.50350000
-1.91940000 2.59460000 1.41780000
-2.57350000 2.89270000 1.40420000
-6.10710000 5.63360000 1.33990000
-9.89980000 8.15790000 1.32610000
-14.95000000 12.67410000 1.41270000
-16.47570000 13.62870000 1.44420000
22.30630000 -15.61770000 -0.88450000
14.99580000 -12.22260000 -1.09150000
6.58190000 -3.73180000 -0.63090000
-2.17820000 -0.19060000 -1.17180000
23.25640000 -23.04620000 -0.53620000
23.63310000 -19.47410000 -1.24840000
24.33160000 -21.52800000 2.36350000
25.65830000 -20.68720000 2.19850000
23.96140000 -19.91280000 1.45030000
25.10370000 -21.16600000 2.45840000
23.57130000 -18.25210000 1.45140000
23.84750000 -19.08270000 -0.12520000
20.56440000 -15.02410000 1.77220000
18.39820000 -13.20560000 1.80760000
17.31630000 -12.29450000 1.80720000
9.37880000 -7.44660000 1.63880000
-3.16430000 2.75320000 -0.86100000
-25.88300000 19.94260000 -1.55770000
-28.03900000 21.77830000 -1.69060000
-29.02460000 21.70980000 -1.90190000
8.23720000 -4.59400000 1.65860000
5.43670000 -3.92120000 1.56390000
2.74590000 -1.99000000 1.49310000
2.70390000 -0.23910000 1.52820000
-1.60780000 2.18600000 1.41460000
-2.93360000 3.61640000 1.39130000
-6.76440000 6.16160000 1.32000000
-10.62670000 9.40240000 1.33130000
-35.03460000 27.76370000 -2.30980000
22.98740000 -17.55030000 -1.12490000
19.58740000 -13.24880000 -0.79420000
24.31160000 -22.99250000 -0.05020000
22.96370000 -22.21900000 -1.72370000
25.45790000 -22.26080000 1.57600000
25.57390000 -20.36550000 1.77160000
24.46550000 -19.97240000 1.24050000
24.16850000 -19.74680000 0.49600000
23.64500000 -18.69690000 0.90670000
22.94720000 -17.86830000 1.73990000
18.31430000 -12.20480000 1.81210000
15.62970000 -10.16200000 1.80050000
9.79400000 -6.40290000 1.65720000
-14.72900000 11.83470000 -1.13580000
-22.78080000 18.68020000 -1.25580000
-25.29700000 18.99180000 -1.61020000
-30.10210000 22.62840000 -1.97530000
-29.38970000 25.66300000 -1.39890000
4.69050000 -2.77970000 1.53940000
3.96020000 -1.58040000 1.54650000
-0.15580000 2.61600000 1.43410000
-5.57270000 6.28610000 1.30640000
-7.59630000 6.83120000 1.31300000
-9.25930000 8.38020000 1.32370000
-8.17390000 7.86470000 1.30910000
-12.11960000 10.73910000 1.34930000
-15.90770000 14.74540000 1.48720000
-33.46490000 26.87830000 -2.12050000
20.18490000 -14.29470000 -0.89840000
16.97810000 -12.06660000 -0.85490000
15.30410000 -10.21500000 -0.70300000
12.69340000 -9.00590000 -0.77620000
10.56880000 -7.66260000 -0.76700000
8.36380000 -4.13860000 -0.49020000
24.19600000 -23.06570000 -0.61340000
25.13360000 -22.71830000 0.53370000
25.26230000 -21.89000000 2.21910000
25.37350000 -20.14300000 1.31190000
24.58750000 -19.94490000 0.82350000
23.76670000 -18.18740000 0.96640000
23.83050000 -18.58460000 -0.07760000
23.77440000 -17.24680000 1.67650000
24.15480000 -19.54240000 -0.07760000
23.22760000 -16.80110000 1.77150000
13.98680000 -8.56000000 1.80240000
8.88490000 -5.51150000 1.64200000
-13.47010000 11.70370000 -0.93950000
7.17100000 -4.01220000 1.63460000
6.81240000 -3.09350000 1.62460000
-1.63360000 3.26470000 1.37840000
-9.33060000 9.42770000 1.32980000
-11.28230000 10.89780000 1.34710000
-12.88750000 12.36680000 1.38900000
-14.33450000 13.66780000 1.42170000
-20.70560000 19.78320000 1.82680000
-23.34810000 23.26530000 2.09500000
-0.60800000 0.82130000 -0.81570000
23.87670000 -22.72230000 -1.21550000
24.32490000 -21.30400000 -1.88800000
25.06620000 -20.78250000 -1.64190000
23.87430000 -19.51830000 -1.15830000
26.78490000 -22.70470000 0.68770000
26.61180000 -22.36190000 1.46320000
26.12530000 -22.15440000 1.93940000
26.27840000 -20.45080000 1.87390000
26.14670000 -20.04450000 1.18180000
24.59180000 -19.93510000 0.32490000
24.12540000 -19.51200000 -0.65760000
23.88090000 -19.21360000 -0.69840000
21.64490000 -15.93770000 1.79730000
22.64440000 -15.84560000 1.77840000
21.56070000 -14.93730000 1.80500000
11.36700000 -6.72560000 1.70520000
-3.81850000 4.23860000 -0.72390000
-28.40260000 25.73420000 -1.21420000
2.03540000 1.45830000 1.53610000
0.67210000 1.87000000 1.48070000
-1.03620000 2.81290000 1.40080000
-4.04290000 5.52570000 1.34530000
-4.73210000 5.80090000 1.32570000
-6.86410000 7.17050000 1.29370000
-17.11790000 16.36650000 1.55970000
-27.18190000 26.49260000 2.42840000
23.56010000 -18.52280000 -0.96370000
2.12470000 -0.30450000 -0.64100000
25.72590000 -23.03770000 0.03670000
24.24400000 -22.04680000 -1.74990000
24.68400000 -19.96560000 -1.17090000
24.64460000 -19.87880000 -0.63740000
26.11010000 -21.65610000 2.49400000
25.10330000 -19.89100000 0.36910000
24.10210000 -17.23040000 1.44780000
23.99600000 -17.66880000 1.03340000
23.79080000 -18.70660000 -0.57210000
18.72800000 -11.16160000 1.84120000
17.18310000 -10.72600000 1.83670000
11.05320000 -5.37530000 1.73380000
-7.95900000 7.41730000 -0.78350000
-9.75110000 8.56730000 -0.86620000
-10.53810000 9.55880000 -0.80090000
-16.29340000 13.20600000 -1.16870000
-23.99820000 21.07630000 -1.09240000
-28.17430000 23.26350000 -1.52890000
5.47930000 -2.07300000 1.58860000
4.96460000 -0.91430000 1.58730000
-1.33390000 4.24820000 1.29360000
-2.61300000 4.60600000 1.35670000
-4.69420000 6.51230000 1.34290000
-7.60590000 8.17910000 1.30800000
-10.82590000 11.24540000 1.36720000
-11.82740000 11.90940000 1.37290000
-15.50120000 15.96590000 1.46990000
-21.73490000 20.64810000 1.89720000
23.51560000 -18.02750000 -0.91430000
22.21520000 -14.62900000 -0.76280000
-0.96710000 2.17250000 -0.65950000
25.28510000 -23.16510000 -0.38820000
24.46690000 -22.41320000 -1.48100000
24.84120000 -22.80230000 -1.15080000
25.68470000 -21.63150000 -1.80280000
25.18860000 -19.94000000 -0.63730000
27.18180000 -20.42680000 1.84730000
24.33940000 -17.21080000 -0.04020000
23.80360000 -18.03910000 -0.52680000
21.43070000 -13.44320000 1.87960000
13.44940000 -8.10110000 1.77280000
13.50670000 -6.85660000 1.82360000
-6.66060000 5.99070000 -0.84150000
-15.92730000 14.69420000 -0.82930000
-19.72470000 17.91880000 -0.93920000
-21.38770000 19.77920000 -0.89360000
-43.72750000 94.77430000 5.05800000
-44.33780000 95.09960000 5.48890000
-43.87110000 95.29660000 5.60930000
4.33470000 0.06310000 1.61140000
-0.55190000 3.49060000 1.35260000
-1.96880000 5.11360000 1.32750000
-3.23260000 5.84180000 1.37050000
-6.28500000 7.48460000 1.31020000
-44.39230000 95.43950000 6.02900000
-45.12900000 94.99600000 5.82860000
-45.22860000 95.09790000 6.41060000
-13.37690000 13.81330000 1.41310000
-14.15680000 14.77690000 1.40630000
-43.32240000 94.21280000 4.69630000
-43.35430000 94.88630000 5.16910000
-17.59540000 18.08160000 1.62150000
-43.10150000 95.31540000 5.74010000
-28.25310000 26.90920000 2.47080000
-43.86450000 95.60620000 6.22080000
-45.17180000 94.70080000 5.46720000
6.15450000 -1.86490000 -0.39950000
25.08980000 -22.37020000 -1.53940000
25.50280000 -21.12430000 -1.76500000
25.24380000 -20.25800000 -1.18470000
26.54580000 -21.13380000 2.52720000
26.67860000 -21.43450000 2.60270000
27.54970000 -20.89560000 2.37980000
26.49560000 -19.84750000 0.78120000
26.63990000 -19.76340000 -0.02750000
24.59310000 -15.17500000 1.87820000
24.36540000 -17.13850000 1.11010000
22.55740000 -14.85010000 1.83320000
22.42560000 -13.35880000 1.93570000
11.85360000 -5.67090000 1.75070000
-5.14410000 5.48030000 -0.71410000
-6.99800000 7.05020000 -0.70380000
-44.23830000 94.16750000 4.71320000
-43.99750000 93.38910000 4.35690000
-42.69140000 93.85960000 4.65800000
-11.59430000 11.46540000 -0.57600000
-13.34650000 12.70310000 -0.66000000
-14.35320000 12.90870000 -0.86800000
-42.80990000 94.34000000 4.87540000
-42.71070000 94.89080000 5.34290000
-23.41290000 20.12440000 -1.13400000
-27.77380000 24.28440000 -1.28130000
8.47650000 -3.38220000 1.69680000
-42.61740000 95.24750000 5.95130000
3.21380000 0.76680000 1.58740000
-5.83780000 7.71230000 1.35650000
-4.39190000 6.99950000 1.37310000
-7.54940000 8.84430000 1.33680000
-9.55470000 10.61010000 1.35660000
-16.69600000 16.91360000 1.53840000
-16.27330000 17.26980000 1.52990000
-19.22290000 20.05470000 1.80590000
-21.08560000 21.80830000 1.93250000
23.29440000 -16.40110000 -0.98690000
18.27900000 -9.97860000 -0.37150000
-41.75360000 94.07340000 5.16070000
2.06060000 0.51710000 -0.52620000
26.58990000 -23.20850000 -0.14010000
26.00180000 -23.10390000 -0.90460000
27.18520000 -23.07010000 0.24420000
26.23390000 -22.59910000 -1.41900000
25.66970000 -22.09340000 -1.70160000
25.69230000 -20.65120000 -1.52090000
25.77170000 -20.31490000 -1.12940000
25.68750000 -19.97770000 -0.58980000
28.68100000 -22.47310000 1.47650000
28.33030000 -22.64760000 0.95740000
28.07100000 -21.33400000 2.62780000
28.31100000 -20.59900000 2.13550000
28.08180000 -20.15230000 1.51510000
24.69360000 -16.25030000 1.72460000
-46.44800000 93.96600000 5.67000000
-45.86950000 94.58000000 6.00510000
17.42810000 -7.84110000 1.94840000
15.52300000 -8.92930000 1.85020000
10.21050000 -4.62750000 1.72320000
10.25200000 -3.72390000 1.75570000
-4.06140000 5.27610000 -0.59840000
-5.79380000 6.55650000 -0.61540000
-8.62570000 8.54560000 -0.68040000
-9.08160000 9.21000000 -0.61930000
-46.67950000 92.99380000 4.65620000
-14.17230000 13.91220000 -0.55600000
-26.60470000 22.37790000 -1.33790000
1.32800000 2.55310000 1.49640000
-42.86630000 91.99000000 4.23430000
-4.04280000 7.21550000 1.28190000
-5.73630000 8.49880000 1.27260000
-6.12690000 8.42650000 1.34510000
-8.15460000 9.94190000 1.30090000
-10.77020000 11.68410000 1.40230000
-11.66340000 12.52580000 1.42590000
-12.45380000 13.69890000 1.43670000
-13.07760000 14.42150000 1.38180000
-42.01260000 94.83350000 5.86110000
24.38220000 -16.58900000 -0.60750000
-42.68310000 95.30820000 6.47810000
-41.70800000 94.72830000 6.34100000
0.72520000 1.51480000 -0.54420000
-1.52470000 3.50230000 -0.52410000
26.57750000 -23.29970000 -0.53170000
28.13240000 -22.92010000 0.57080000
26.50490000 -20.67070000 -1.51260000
26.90660000 -20.01660000 -1.00000000
-46.00740000 93.98250000 5.27810000
27.21980000 -21.97490000 2.36390000
29.11910000 -20.38120000 1.96180000
28.67320000 -19.70790000 0.49160000
25.10460000 -16.30930000 1.14900000
24.98950000 -16.54600000 0.81140000
24.51310000 -16.87510000 -0.26680000
23.50920000 -14.26730000 1.91050000
21.30110000 -11.94820000 1.94670000
19.63450000 -10.08420000 1.97700000
15.74350000 -7.47540000 1.90740000
13.96220000 -7.53460000 1.84250000
12.86150000 -5.43060000 1.82800000
14.09640000 -5.82850000 1.88690000
12.31220000 -4.94720000 1.80080000
-7.75490000 8.06930000 -0.64760000
-9.46190000 9.85380000 -0.54230000
-10.23530000 10.18080000 -0.60410000
-9.96720000 10.77910000 -0.41420000
-44.52780000 93.34100000 4.36180000
-16.54650000 15.68090000 -0.75940000
-17.17540000 17.05040000 -0.59610000
-17.73250000 17.06080000 -0.73110000
-29.47920000 26.65440000 -1.30260000
3.93660000 1.02370000 1.63720000
3.02400000 1.55910000 1.60290000
2.49180000 2.29640000 1.53450000
0.77320000 3.33890000 1.43070000
0.10940000 3.42690000 1.40370000
-41.61550000 92.97330000 4.67750000
-0.06870000 4.22870000 1.31160000
-0.80680000 4.81970000 1.24710000
-1.25590000 5.32990000 1.21770000
-2.08810000 5.85210000 1.24920000
-5.04910000 8.20030000 1.12380000
-7.30970000 9.72300000 1.17140000
-8.64300000 10.72700000 1.17990000
-9.56010000 11.23990000 1.30670000
-10.62700000 11.98580000 1.40070000
-11.53230000 13.25400000 1.41370000
-14.57640000 16.02930000 1.36830000
-15.35380000 17.04270000 1.43900000
-16.21280000 17.88900000 1.51790000
-16.83690000 18.78600000 1.56010000
-19.79800000 21.74460000 1.90850000
-24.41950000 26.75700000 2.27030000
24.29580000 -15.05770000 -0.64260000
24.04050000 -16.19460000 -0.85470000
16.02730000 -7.69540000 -0.21720000
14.05050000 -6.80950000 -0.28370000
8.00620000 -2.04710000 -0.22110000
-0.25550000 3.11360000 -0.42960000
0.20510000 2.42690000 -0.47000000
27.95800000 -23.29920000 0.13290000
26.87510000 -21.15060000 -1.70110000
-46.12630000 92.99220000 4.46650000
-44.89970000 92.31910000 4.14960000
29.47660000 -22.64380000 1.19760000
28.13300000 -22.22690000 2.03640000
29.07300000 -20.91520000 2.44020000
29.06600000 -20.11770000 1.50570000
-43.85800000 91.91100000 4.12590000
28.39810000 -19.58620000 0.00720000
22.91240000 -13.16370000 1.93330000
20.26120000 -11.53490000 1.93990000
11.73020000 -4.31390000 1.78930000
10.05900000 -2.79780000 1.75460000
8.79330000 -2.16100000 1.69580000
-3.91840000 6.03700000 -0.48400000
-4.77610000 6.61590000 -0.49460000
-6.02670000 7.53680000 -0.47650000
-7.18230000 7.69940000 -0.63470000
-7.74350000 8.86450000 -0.46140000
-11.09710000 12.10960000 -0.30890000
-41.64500000 93.55260000 4.87890000
-12.49020000 13.05950000 -0.40190000
-15.98340000 16.16990000 -0.46880000
-18.72920000 17.94790000 -0.77060000
-41.07470000 93.82730000 5.51630000
6.55590000 -1.29370000 1.63480000
6.13730000 -0.32820000 1.63450000
5.31080000 -0.19410000 1.64180000
5.27900000 0.46340000 1.66160000
3.57910000 1.79200000 1.58230000
1.88580000 3.06500000 1.43910000
-0.06420000 4.88770000 1.10630000
-41.42490000 94.47230000 6.01200000
-3.92860000 7.49360000 1.02380000
-9.54370000 11.66310000 1.13450000
-10.66140000 12.58990000 1.31610000
-11.51940000 13.70290000 1.24130000
-12.47690000 14.52570000 1.27590000
-13.36260000 15.28150000 1.27070000
-17.70200000 19.48040000 1.70390000
-18.25130000 19.44970000 1.74400000
-22.04600000 24.45120000 2.05160000
23.74820000 -15.01280000 -0.64310000
12.39700000 -5.44000000 -0.24400000
9.42510000 -2.67110000 -0.15760000
5.25510000 -0.30280000 -0.21730000
3.14100000 1.03570000 -0.28870000
-0.76980000 3.93620000 -0.36720000
-2.42820000 4.01010000 -0.55300000
-3.40420000 5.52750000 -0.49170000
27.89400000 -23.48990000 -0.35520000
27.55500000 -23.38240000 -0.77750000
27.49350000 -23.05810000 -1.20550000
27.03660000 -22.01840000 -1.66180000
27.79950000 -20.20050000 -1.26330000
27.66340000 -19.68950000 -0.61900000
27.87290000 -21.71390000 2.61160000
30.22480000 -20.21270000 1.83310000
25.16080000 -15.08420000 1.98950000
25.38910000 -15.93610000 0.05060000
25.33120000 -15.73900000 -0.23150000
-42.68760000 90.00680000 4.04770000
18.09950000 -9.71130000 1.90440000
16.06950000 -6.40700000 1.94210000
14.49590000 -4.60610000 1.91950000
10.98610000 -3.07380000 1.79050000
-8.67850000 9.61780000 -0.45600000
-14.13120000 14.95530000 -0.32110000
