15.38890000 -66.57470000 1.76150000
19.03390000 -55.01660000 -1.12140000
18.56510000 -55.13070000 -1.27040000
17.59320000 -53.40280000 1.23500000
17.17020000 -53.37140000 1.35430000
17.56100000 -52.68970000 1.22520000
16.84330000 -51.99290000 1.41490000
17.07150000 -62.17050000 -1.67490000
16.90070000 -62.35830000 -1.71850000
16.77850000 -57.91320000 1.48180000
16.64600000 -57.30050000 1.49460000
17.61280000 -55.44970000 -1.56060000
17.22100000 -54.83790000 -1.67030000
17.06550000 -53.78510000 -1.71610000
17.18050000 -55.57190000 -1.67630000
16.69710000 -53.44970000 -1.79980000
17.65640000 -51.48690000 1.18370000
17.58340000 -51.92170000 1.20450000
17.36030000 -50.44260000 1.26450000
16.95890000 -50.56610000 1.36720000
14.88390000 -69.61520000 -2.03030000
14.58650000 -69.17880000 -2.08100000
17.07560000 -56.78590000 -1.70030000
16.79190000 -56.59760000 -1.77200000
15.93940000 -65.68880000 -1.87300000
15.66510000 -64.63630000 -1.91830000
18.24380000 -55.72340000 -1.37110000
16.77640000 -62.56840000 -1.74450000
16.46340000 -61.68950000 -1.80250000
16.61420000 -56.63380000 -1.81140000
16.38260000 -55.40440000 -1.85030000
16.32150000 -58.01210000 -1.85040000
15.94330000 -56.83850000 -1.91170000
17.35910000 -52.02190000 1.27080000
16.85280000 -51.27560000 1.40230000
15.57260000 -60.09500000 1.69950000
15.40120000 -60.64870000 1.72920000
14.84560000 -59.36270000 1.81750000
13.45440000 -60.12510000 2.05790000
17.10400000 -52.75800000 -1.71480000
17.12680000 -53.17610000 -1.70750000
16.87210000 -54.60220000 1.42100000
16.63010000 -54.91410000 1.46900000
16.86850000 -53.99920000 1.41610000
16.27850000 -53.37810000 1.51260000
16.84030000 -53.32060000 1.42310000
16.55250000 -52.42290000 1.47130000
14.36690000 -69.20540000 -2.12170000
14.38830000 -68.05630000 -2.12690000
15.28110000 -63.98600000 -1.98240000
15.29030000 -63.17510000 -1.98290000
14.74950000 -64.54020000 -2.07070000
14.43610000 -63.39010000 -2.13270000
15.74520000 -61.64900000 1.67100000
15.05860000 -62.18670000 1.79040000
16.51980000 -56.12210000 1.50170000
16.21780000 -55.93860000 1.54700000
15.18580000 -64.59080000 1.77850000
14.55560000 -64.95150000 1.89070000
14.57650000 -63.84630000 1.87580000
12.58470000 -64.02190000 2.21690000
14.42830000 -65.53910000 1.91550000
13.56110000 -65.63340000 2.06220000
14.31530000 -67.43870000 -2.15380000
14.42600000 -66.31510000 -2.13870000
14.01590000 -68.37390000 -2.21680000
14.02340000 -66.78910000 -2.24650000
15.70160000 -61.48480000 -1.92000000
15.21490000 -60.83100000 -1.99640000
15.22690000 -62.21530000 -1.98870000
13.65870000 -61.74920000 -2.23190000
14.90230000 -62.61600000 -2.04090000
14.26600000 -62.54230000 -2.14720000
14.44800000 -65.22740000 -2.13250000
14.26550000 -64.94700000 -2.17940000
13.66770000 -69.60050000 -2.29090000
13.51950000 -69.35570000 -2.34530000
14.13210000 -62.75930000 1.94970000
12.83470000 -62.16230000 2.16840000
16.33670000 -51.28360000 1.50270000
16.02090000 -51.17210000 1.54630000
16.39520000 -50.59890000 1.49310000
16.05970000 -48.96290000 1.53130000
14.13540000 -64.73820000 -2.22640000
14.14050000 -63.95360000 -2.22890000
14.00480000 -65.40880000 -2.27540000
13.88900000 -64.45320000 -2.34530000
13.88100000 -65.77020000 -2.32500000
13.74150000 -65.26460000 -2.40650000
13.81190000 -66.34450000 -2.34540000
13.56570000 -65.83780000 -2.48380000
13.41260000 -68.74260000 -2.41070000
13.59480000 -67.32860000 -2.39880000
13.12770000 -69.32280000 -2.49640000
13.23600000 -67.22060000 -2.55520000
13.65170000 -66.68890000 -2.40230000
13.44450000 -66.44050000 -2.50840000
15.64690000 -54.99890000 1.62440000
15.14020000 -55.46210000 1.71100000
15.41310000 -53.00090000 1.64220000
14.46910000 -52.16170000 1.78140000
13.10050000 -66.11450000 2.14720000
12.30260000 -65.40800000 2.27820000
14.09530000 -63.59680000 -2.23930000
14.12060000 -63.17790000 -2.21010000
13.90000000 -63.76360000 -2.33280000
13.86760000 -63.24080000 -2.31260000
15.49570000 -51.44200000 1.62330000
15.25400000 -50.48730000 1.65620000
14.62750000 -60.39560000 -2.08480000
15.07170000 -59.65550000 -2.02270000
13.71470000 -60.67540000 -2.21690000
13.52140000 -59.50080000 -2.24850000
14.02900000 -62.71610000 -2.20390000
13.85390000 -62.59180000 -2.24720000
13.24630000 -65.74140000 -2.65390000
13.22650000 -65.09090000 -2.70990000
13.06480000 -65.75500000 -2.73520000
12.89000000 -64.26680000 -2.92480000
15.87490000 -54.77640000 -1.92210000
15.78070000 -53.46230000 -1.93810000
15.39740000 -55.69030000 -1.98880000
14.23280000 -53.89740000 -2.15350000
12.91420000 -66.23820000 -2.75000000
12.77310000 -65.72920000 -2.84360000
12.93330000 -67.52910000 -2.64690000
12.62850000 -67.63290000 -2.72540000
14.24680000 -55.05240000 1.85690000
14.18050000 -56.38140000 1.89030000
13.49700000 -53.00880000 1.95740000
12.41270000 -53.74900000 2.15500000
13.51720000 -64.71240000 -2.55550000
13.51270000 -64.10520000 -2.57500000
13.32540000 -64.75100000 -2.66950000
13.10850000 -63.66470000 -2.82010000
12.93540000 -69.05580000 -2.57200000
12.74960000 -69.84410000 -2.58440000
13.70280000 -62.59070000 -2.30210000
13.51620000 -62.30840000 -2.33310000
13.63410000 -62.95200000 -2.38280000
13.34520000 -62.72850000 -2.47370000
12.50340000 -62.22320000 -2.58250000
13.00530000 -61.97580000 -2.39590000
13.20840000 -62.18200000 -2.39200000
13.00020000 -62.40310000 -2.49560000
13.16090000 -64.54590000 -2.77670000
12.97050000 -63.88000000 -2.90650000
13.97080000 -57.67890000 1.94460000
12.90440000 -56.94250000 2.11290000
12.49650000 -70.30140000 -2.60220000
12.31860000 -69.35440000 -2.67180000
11.48500000 -64.11510000 2.40180000
11.10380000 -64.38540000 2.46950000
11.27830000 -62.67630000 2.42320000
10.00100000 -61.09920000 2.61770000
15.50600000 -58.78940000 -1.96590000
14.99740000 -58.09890000 -2.04350000
13.45430000 -63.19470000 -2.53750000
13.23240000 -63.14850000 -2.65980000
13.50370000 -63.45550000 -2.55740000
13.62210000 -63.75480000 -2.50320000
12.21100000 -68.55700000 -2.72860000
12.33310000 -67.38200000 -2.78660000
11.97710000 -68.80390000 -2.74320000
12.01910000 -67.14680000 -2.83630000
12.67570000 -65.11170000 -2.92680000
12.69620000 -64.09030000 -2.99800000
12.56390000 -65.68480000 -2.89950000
12.43720000 -63.95760000 -3.05630000
13.06700000 -63.12630000 -2.75710000
13.04510000 -62.89450000 -2.68420000
12.93040000 -63.32850000 -2.88720000
12.79110000 -63.12430000 -2.89790000
12.89620000 -62.63410000 -2.62930000
12.68390000 -62.64000000 -2.72780000
12.41150000 -66.18490000 -2.87520000
12.24980000 -65.65350000 -2.93700000
10.51440000 -65.02040000 2.57910000
9.51020000 -63.93720000 2.73660000
12.87840000 -63.52000000 -2.94400000
12.81380000 -63.52680000 -2.96330000
12.72540000 -63.58890000 -2.99800000
12.65890000 -63.43980000 -3.00180000
11.99680000 -65.54890000 -2.96040000
11.90200000 -64.87880000 -3.02040000
11.74890000 -66.34580000 -2.90960000
11.16310000 -65.61240000 -3.00780000
11.75910000 -61.70820000 2.34130000
11.60370000 -60.47750000 2.35660000
12.57520000 -62.73490000 -2.81770000
12.41100000 -62.64080000 -2.80280000
12.60550000 -63.03760000 -2.93320000
12.40090000 -63.01310000 -2.95410000
11.41720000 -59.01620000 2.36950000
10.54510000 -58.29260000 2.49940000
12.00100000 -57.90270000 2.26540000
11.00380000 -56.06790000 2.40230000
12.59290000 -63.29600000 -2.99950000
12.43320000 -63.34220000 -3.03000000
14.76670000 -56.93190000 -2.07660000
13.83030000 -57.16970000 -2.20710000
13.14990000 -60.81330000 -2.29480000
12.68780000 -60.41520000 -2.36090000
12.66020000 -61.19070000 -2.36410000
11.91130000 -60.79590000 -2.47040000
11.70780000 -68.66200000 -2.77120000
11.61030000 -67.67980000 -2.83030000
11.43860000 -69.25090000 -2.75950000
10.88200000 -67.80500000 -2.88220000
11.53320000 -66.95590000 -2.87970000
10.94370000 -66.64850000 -2.94970000
12.16500000 -56.48860000 2.22490000
11.62810000 -54.91350000 2.29270000
11.68730000 -64.43140000 -3.06980000
11.76560000 -63.87450000 -3.10400000
10.98350000 -64.60730000 -3.10300000
10.72390000 -63.75430000 -3.18130000
12.13590000 -62.72970000 -2.86720000
11.98570000 -62.55960000 -2.80160000
12.05650000 -63.03110000 -2.99500000
11.45440000 -63.00140000 -3.03840000
12.61200000 -61.88650000 -2.43960000
12.28140000 -61.75160000 -2.45710000
12.14490000 -62.03250000 -2.56760000
11.45630000 -61.85730000 -2.62630000
11.86060000 -62.33350000 -2.72650000
11.47950000 -62.35710000 -2.80050000
12.15370000 -63.29080000 -3.04890000
11.96640000 -63.42220000 -3.07810000
10.98930000 -69.46750000 -2.78270000
10.31150000 -68.53030000 -2.89060000
11.71250000 -63.53930000 -3.10530000
11.27930000 -63.41330000 -3.12520000
8.56890000 -63.13050000 2.88570000
7.84820000 -64.17650000 3.02110000
8.41150000 -61.29790000 2.88940000
10.94730000 -62.17960000 -2.83370000
10.53280000 -61.78280000 -2.77060000
10.61930000 -62.36140000 -2.95780000
9.60390000 -61.76410000 -2.91840000
11.88060000 -60.15740000 -2.47920000
11.94320000 -59.39110000 -2.47510000
11.07360000 -60.37080000 -2.59450000
10.11180000 -59.31610000 -2.74350000
11.39350000 -61.25260000 -2.55060000
10.49230000 -60.96440000 -2.68070000
11.08870000 -61.40210000 -2.60340000
8.57750000 -61.10660000 -2.97410000
10.12420000 -60.59670000 -2.73500000
9.05790000 -60.53300000 -2.89800000
9.91950000 -57.34790000 2.59400000
9.29060000 -58.21320000 2.70950000
10.01390000 -55.75420000 2.56490000
8.79190000 -55.90780000 2.77630000
11.14920000 -61.54520000 -2.60740000
10.17110000 -61.48360000 -2.75940000
9.81670000 -61.50310000 -2.82240000
9.01140000 -61.40420000 -2.93720000
11.26070000 -53.94220000 2.34500000
10.79430000 -54.24420000 2.42430000
11.57020000 -52.81120000 2.28720000
10.31890000 -52.39810000 2.50000000
10.79210000 -63.26440000 -3.16220000
10.58850000 -62.96280000 -3.13840000
10.17610000 -63.29960000 -3.22360000
9.55720000 -62.87710000 -3.23300000
10.32340000 -62.55250000 -3.06270000
9.68310000 -62.34850000 -3.07970000
8.12480000 -68.71390000 -3.10520000
7.33090000 -67.50750000 -3.24680000
7.52660000 -68.68340000 -3.18080000
5.71480000 -66.50230000 -3.48060000
9.70820000 -65.88220000 -3.10970000
9.35210000 -65.00290000 -3.20330000
9.16130000 -66.22460000 -3.13620000
7.20880000 -64.32990000 -3.43650000
8.49800000 -59.32470000 2.85490000
7.89240000 -58.74370000 2.95530000
10.20790000 -54.56800000 2.52500000
9.58750000 -54.24520000 2.62980000
12.61890000 -57.88220000 -2.37990000
12.06890000 -56.73200000 -2.46190000
9.21190000 -67.13610000 -3.07480000
8.06820000 -66.49020000 -3.22490000
8.91360000 -62.27430000 -3.14320000
8.50660000 -61.99520000 -3.10940000
8.40900000 -62.55090000 -3.27180000
7.66980000 -62.27010000 -3.27250000
9.70950000 -64.47210000 -3.21540000
8.84800000 -63.91710000 -3.32560000
6.94720000 -65.12680000 3.18300000
11.15220000 -55.14230000 -2.60140000
11.41320000 -53.05400000 -2.56870000
9.60460000 -55.99020000 -2.83020000
8.69060000 -52.27380000 -2.97780000
7.51780000 -69.40610000 -3.16640000
6.58490000 -68.56930000 -3.31530000
8.41450000 -61.42940000 -3.02620000
7.79970000 -61.34850000 -3.10750000
8.42760000 -61.62100000 -3.04540000
7.23730000 -61.69140000 -3.22440000
6.55880000 -65.40610000 -3.44130000
5.40590000 -63.83060000 -3.64290000
6.43440000 -65.94060000 -3.42530000
3.60530000 -63.22380000 -3.87420000
7.95320000 -63.54650000 -3.40950000
8.55810000 -63.38150000 -3.35990000
6.49340000 -63.41330000 -3.53760000
6.31310000 -62.94460000 -3.53330000
7.40760000 -58.61890000 3.04300000
6.69130000 -59.81280000 3.18300000
7.50870000 -57.33190000 3.01630000
6.25570000 -58.57090000 3.25950000
7.44120000 -61.07210000 -3.15250000
8.10330000 -60.69260000 -3.04820000
6.51200000 -60.74110000 -3.30830000
8.18080000 -59.80560000 -3.04140000
8.13540000 -61.82760000 -3.11810000
7.43620000 -61.99250000 -3.24040000
9.01070000 -63.23080000 -3.32090000
8.15450000 -62.97350000 -3.37480000
6.09340000 -66.02880000 -3.45560000
4.59060000 -64.78990000 -3.68520000
7.71320000 -62.72970000 -3.37380000
7.00610000 -62.56450000 -3.39760000
7.27250000 -61.29990000 -3.18500000
6.64140000 -61.46710000 -3.29800000
7.64650000 -55.58260000 2.97060000
7.15320000 -56.64600000 3.06900000
5.84460000 -55.56790000 3.29350000
6.38640000 -57.17210000 3.21060000
6.04930000 -60.01340000 3.30790000
5.59830000 -60.74380000 3.39340000
5.42170000 -59.23580000 3.42620000
4.49370000 -59.73840000 3.60370000
6.93500000 -62.28300000 -3.34860000
6.49850000 -62.29780000 -3.41070000
4.49020000 -65.74970000 -3.66860000
5.53760000 -67.50770000 -3.48480000
5.84750000 -57.34180000 3.31410000
5.42380000 -57.86900000 3.40790000
5.14550000 -56.62990000 3.44250000
4.38730000 -57.11000000 3.60240000
7.46090000 -49.42430000 -3.17400000
8.08650000 -48.97110000 -3.07680000
9.34080000 -50.14110000 -2.88180000
6.01480000 -46.82280000 -3.40950000
7.91030000 -47.84280000 -3.10650000
9.62600000 -48.75210000 -2.84030000
8.39300000 -57.51330000 -3.01380000
7.59780000 -56.99970000 -3.13890000
5.29880000 -63.22650000 -3.67040000
4.67140000 -62.93220000 -3.74530000
4.75460000 -61.74710000 3.54750000
3.83570000 -61.53740000 3.71950000
6.74050000 -57.72730000 -3.26810000
6.72560000 -56.49420000 -3.27100000
5.68670000 -60.18060000 -3.43640000
4.95330000 -59.78270000 -3.55020000
4.10140000 -58.32390000 3.67040000
4.23860000 -58.68310000 3.64880000
1.61410000 -57.80060000 4.14170000
3.25420000 -58.69680000 3.83620000
4.08170000 -62.71340000 -3.81930000
4.66300000 -62.59230000 -3.72550000
3.12440000 -62.59490000 -3.95110000
3.11580000 -62.18650000 -3.93250000
5.55830000 -61.72990000 -3.49340000
4.88520000 -61.66310000 -3.60160000
5.35680000 -61.99990000 -3.55070000
5.49980000 -62.31490000 -3.56520000
6.24590000 -56.30250000 -3.34740000
6.62540000 -54.66100000 -3.29380000
4.96010000 -58.23970000 -3.54930000
4.78150000 -56.74430000 -3.58710000
6.48190000 -53.85800000 -3.31630000
6.99070000 -52.23150000 -3.23890000
5.30790000 -54.82230000 -3.50210000
5.59980000 -52.98230000 -3.45940000
6.85720000 -50.45420000 -3.26410000
5.77710000 -50.56750000 -3.43690000
4.73660000 -61.33660000 -3.61090000
3.95550000 -61.29520000 -3.74610000
4.29110000 -57.98430000 3.62890000
3.20010000 -57.43310000 3.83610000
3.89940000 -64.57260000 -3.78250000
3.20840000 -63.99580000 -3.90130000
2.62130000 -58.88010000 3.95520000
3.06050000 -59.66810000 3.87160000
1.65270000 -58.63330000 4.13390000
1.69800000 -59.74920000 4.12640000
3.07380000 -60.95470000 3.86380000
2.31670000 -61.72530000 4.00230000
4.25620000 -55.38070000 -3.68100000
4.20850000 -54.13490000 -3.69490000
3.56630000 -56.56520000 -3.79990000
2.42020000 -55.59600000 -4.00820000
1.81150000 -62.50370000 4.09660000
1.39710000 -61.81120000 4.18180000
2.30130000 -62.51580000 -4.07810000
1.80430000 -62.26190000 -4.15360000
2.17390000 -62.79090000 -4.09590000
0.97760000 -62.49890000 -4.28610000
4.63150000 -51.97690000 -3.62890000
4.20820000 -51.35760000 -3.70720000
20.44060000 -50.72860000 0.25890000
20.32070000 -50.95640000 0.34360000
20.45220000 -50.45620000 0.24930000
20.12680000 -50.66330000 0.41890000
20.62320000 -49.54440000 -0.28260000
20.60160000 -49.47680000 -0.36120000
20.57180000 -49.83410000 -0.30650000
20.49620000 -49.93880000 -0.45120000
20.58590000 -51.78530000 0.29270000
20.46690000 -51.71170000 0.33340000
20.34280000 -51.45540000 -0.59660000
20.34880000 -51.08050000 -0.58140000
20.26970000 -51.63730000 -0.66670000
20.21200000 -50.99960000 -0.71310000
20.53340000 -50.21530000 -0.34750000
20.47390000 -50.46320000 -0.44780000
20.54060000 -49.42450000 -0.45830000
20.54610000 -49.14290000 -0.46910000
20.44550000 -49.68770000 -0.55020000
20.35810000 -49.31400000 -0.65680000
20.48360000 -47.89210000 -0.52170000
20.59250000 -48.54080000 -0.39180000
20.52560000 -48.75510000 -0.49500000
20.41520000 -48.58530000 -0.60340000
20.38890000 -50.68700000 -0.54520000
20.36120000 -50.44700000 -0.58840000
20.29620000 -51.65550000 0.39140000
20.18120000 -51.39620000 0.41470000
20.18640000 -51.16450000 0.41010000
19.92440000 -51.07790000 0.50080000
20.49190000 -49.65030000 0.19840000
20.42860000 -49.84470000 0.25020000
20.42880000 -49.35990000 0.25580000
20.09290000 -49.37290000 0.44040000
20.38490000 -50.11440000 0.29390000
20.06340000 -50.08210000 0.44250000
20.17770000 -51.79690000 -0.72690000
20.08950000 -51.49250000 -0.78090000
20.29780000 -48.37760000 -0.68550000
20.28980000 -47.92110000 -0.68340000
20.20850000 -48.65620000 -0.74380000
20.04780000 -47.93390000 -0.81640000
20.52140000 -48.95240000 0.23380000
20.41340000 -49.09120000 0.30090000
20.40340000 -48.49740000 0.35310000
20.27280000 -48.85550000 0.39690000
20.35870000 -50.10910000 -0.61990000
20.26960000 -50.15120000 -0.69860000
20.64680000 -48.47830000 -0.25810000
20.62620000 -48.21010000 -0.25030000
20.14710000 -50.04980000 -0.76630000
20.12400000 -49.51920000 -0.78090000
20.05540000 -50.45830000 -0.80400000
19.87130000 -49.66520000 -0.88060000
20.01220000 -50.96920000 -0.82190000
19.84910000 -50.63120000 -0.88420000
20.10120000 -48.98770000 -0.79520000
19.89840000 -48.74590000 -0.87280000
19.38000000 -50.12420000 0.66600000
19.15970000 -50.49830000 0.73050000
19.08810000 -49.68270000 0.75780000
19.29060000 -50.85740000 0.69520000
19.54100000 -49.75810000 -0.98640000
19.43940000 -48.82670000 -1.02240000
19.23640000 -49.58080000 -1.08050000
18.88080000 -47.58790000 -1.19970000
18.95390000 -51.89270000 -1.15890000
18.59500000 -51.24040000 -1.27040000
18.48970000 -51.86820000 -1.30570000
17.47340000 -50.87380000 -1.61620000
18.11780000 -51.99550000 -1.42500000
17.50660000 -51.85750000 -1.60940000
18.65030000 -48.99430000 -1.26740000
18.09000000 -47.73760000 -1.44710000
18.49420000 -49.65510000 -1.31340000
17.46280000 -47.89900000 -1.64280000
18.15560000 -50.12020000 -1.41420000
17.42830000 -49.25450000 -1.64330000
17.73360000 -47.06690000 -1.55640000
18.09770000 -46.82300000 -1.44140000
17.29900000 -46.97690000 -1.69010000
17.35210000 -46.37320000 -1.66520000
17.14630000 -52.17770000 -1.70570000
17.00280000 -51.72360000 -1.74150000
17.06550000 -48.63100000 -1.75420000
17.00190000 -47.69650000 -1.77790000
16.98940000 -49.42440000 -1.76560000
16.51010000 -48.02880000 -1.87250000
16.89220000 -50.58580000 -1.77950000
16.56520000 -50.79080000 -1.84230000
15.98800000 -51.67480000 -1.92210000
15.41580000 -50.73770000 -2.00930000
14.38790000 -49.52810000 -2.15880000
14.48800000 -47.73660000 -2.15730000
13.19680000 -50.08810000 -2.31880000
12.27400000 -46.76970000 -2.46590000
16.22620000 -46.06170000 -1.91510000
16.20630000 -46.94230000 -1.91770000
14.98370000 -46.95600000 -2.09250000
14.44900000 -46.37970000 -2.16620000
11.93970000 -49.86640000 -2.49790000
10.84970000 -48.09580000 -2.66280000
11.71200000 -51.01450000 -2.52720000
10.96500000 -51.42870000 -2.63720000
10.22310000 -47.03930000 -2.75790000
10.73630000 -45.98060000 -2.68920000
9.31570000 -47.08280000 -2.89220000
9.48900000 -45.32960000 -2.87740000
8.24700000 -47.01020000 -3.05700000
7.84620000 -45.92990000 -3.12620000
16.50740000 -50.46100000 1.47180000
16.51500000 -49.67970000 1.45690000
15.79600000 -48.04010000 1.56270000
15.30690000 -49.38090000 1.64160000
15.47110000 -47.04890000 1.60590000
14.97340000 -49.47620000 1.68930000
14.64310000 -49.14490000 1.73950000
14.07420000 -50.20570000 1.83670000
14.49820000 -47.71610000 1.76060000
13.35560000 -48.38750000 1.95380000
13.43180000 -51.25950000 1.95380000
12.93560000 -51.00360000 2.04150000
12.25150000 -51.33950000 2.16160000
11.81610000 -50.16210000 2.22950000
7.24820000 -48.56620000 3.03240000
8.56820000 -50.25330000 2.80480000
8.18690000 -48.92050000 2.85980000
7.08650000 -47.30700000 3.04670000
8.88200000 -48.86640000 2.73380000
7.00280000 -45.46590000 3.04190000
8.53200000 -54.57200000 2.81200000
8.13260000 -54.00230000 2.88280000
7.83910000 -50.62270000 2.94120000
7.78060000 -51.64570000 2.95310000
6.65170000 -49.43480000 3.14840000
5.23370000 -50.40020000 3.41470000
7.31730000 -52.95890000 3.03120000
5.66810000 -53.07850000 3.33160000
6.29340000 -46.14940000 3.18190000
6.20130000 -46.78930000 3.20730000
5.76830000 -44.80080000 3.26300000
4.79290000 -44.70660000 3.45040000
5.94560000 -47.85160000 3.26320000
4.95980000 -47.51110000 3.44380000
4.09830000 -53.08180000 3.63600000
3.38850000 -54.11390000 3.77830000
3.17250000 -51.71270000 3.81970000
1.29180000 -52.65330000 4.19310000
2.43120000 -54.52700000 3.97450000
3.10940000 -55.27850000 3.84210000
1.03360000 -53.91090000 4.25370000
0.79310000 -54.95830000 4.30980000
2.76450000 -46.42750000 3.86290000
3.60810000 -47.50490000 3.70580000
0.88930000 -47.91870000 4.24130000
2.92510000 -49.03210000 3.85290000
20.60380000 -48.80590000 0.16850000
20.58940000 -48.49970000 0.21060000
20.58060000 -48.11210000 0.25510000
20.44690000 -47.90890000 0.35530000
-23.13820000 22.54290000 -0.41400000
-23.13180000 22.33920000 -0.49590000
-23.02460000 22.52550000 -0.57490000
20.65690000 -47.98380000 -0.22080000
20.63480000 -47.68990000 -0.31440000
20.54920000 -46.52520000 0.21210000
20.53310000 -46.76670000 0.26410000
20.47640000 -46.16090000 0.22020000
20.32060000 -46.35950000 0.34600000
20.53800000 -46.94930000 0.29770000
20.39910000 -46.91760000 0.36030000
-23.10360000 22.82760000 -0.32880000
20.65460000 -47.32940000 -0.33440000
20.60570000 -47.19830000 -0.42150000
20.47090000 -46.70810000 -0.61320000
20.61290000 -46.63520000 -0.46070000
20.57420000 -47.04900000 -0.48830000
20.47710000 -47.29100000 -0.57870000
20.20810000 -47.69210000 0.44030000
20.08490000 -47.97660000 0.47130000
20.14320000 -47.29600000 0.45420000
19.56570000 -47.24370000 0.61230000
20.56270000 -45.42160000 -0.03450000
20.57420000 -45.68350000 -0.00440000
20.40200000 -44.68420000 0.18070000
20.49910000 -45.46320000 0.12510000
20.57880000 -44.42290000 -0.30330000
20.63930000 -45.30190000 -0.28550000
20.62860000 -45.42660000 -0.34950000
20.57510000 -44.90340000 -0.38690000
20.63860000 -45.89140000 -0.38850000
20.52470000 -45.29680000 -0.48820000
20.61350000 -46.21780000 -0.45160000
20.51770000 -46.05170000 -0.53800000
20.07580000 -48.39390000 0.47050000
19.75560000 -48.49070000 0.56080000
20.55160000 -43.99500000 -0.02060000
20.61450000 -45.02480000 -0.12950000
20.61890000 -44.88050000 -0.19570000
20.58420000 -44.21050000 -0.16470000
20.34750000 -47.50970000 -0.66250000
20.29400000 -47.31580000 -0.71000000
20.55590000 -44.93600000 -0.03100000
20.48600000 -44.28970000 0.08150000
20.43530000 -45.66090000 0.21680000
20.34680000 -45.43520000 0.27510000
20.24820000 -45.08050000 0.32280000
20.15080000 -45.44590000 0.38690000
20.24030000 -44.49280000 0.30260000
19.93570000 -44.19150000 0.44020000
20.17100000 -46.99150000 0.43470000
20.02760000 -46.67440000 0.46190000
20.47200000 -43.55210000 0.18510000
20.49770000 -43.72770000 0.09960000
20.55120000 -43.61010000 0.00100000
20.58200000 -43.46910000 -0.01820000
20.59140000 -43.67480000 -0.10300000
20.65680000 -43.45020000 -0.23340000
20.59700000 -43.86190000 -0.17720000
20.59840000 -43.88110000 -0.27510000
20.45610000 -43.95650000 0.14900000
20.39110000 -44.05210000 0.21700000
20.35280000 -45.87740000 -0.64670000
20.27630000 -45.41350000 -0.67520000
20.26130000 -46.10660000 -0.72700000
19.78730000 -45.53710000 -0.92740000
20.87420000 -41.76490000 -0.01470000
20.89290000 -41.97530000 -0.07480000
20.90740000 -41.79280000 -0.15920000
20.76280000 -42.19810000 0.10900000
20.84170000 -42.30170000 -0.03150000
20.86790000 -42.36370000 -0.19420000
20.83030000 -41.60120000 0.04640000
20.75380000 -41.70230000 0.13050000
20.83580000 -41.33760000 0.03290000
20.73460000 -41.38050000 0.14230000
20.89950000 -41.35020000 -0.24200000
20.86730000 -41.35420000 -0.30700000
20.01620000 -46.75170000 -0.85340000
20.28320000 -46.69050000 -0.73930000
20.24450000 -47.09740000 -0.75190000
20.02790000 -47.25080000 -0.84180000
20.67040000 -43.17730000 -0.06690000
20.68480000 -42.98300000 0.00620000
20.76420000 -42.96950000 -0.19360000
20.72760000 -42.70860000 0.04690000
20.61120000 -42.92500000 0.15720000
20.43950000 -43.30840000 0.24730000
20.30100000 -43.81930000 0.29380000
20.43060000 -43.10290000 0.26000000
20.81140000 -42.77200000 -0.26790000
20.84450000 -42.43710000 -0.29960000
20.74710000 -42.95140000 -0.32060000
20.75740000 -42.58310000 -0.40370000
19.14940000 -48.96290000 0.74010000
18.68010000 -48.64930000 0.87960000
20.55270000 -43.81800000 -0.38180000
20.57130000 -43.51850000 -0.40910000
20.51560000 -44.05870000 -0.43310000
20.46410000 -43.69550000 -0.54720000
20.52150000 -44.44910000 -0.45050000
20.47210000 -44.41920000 -0.53200000
20.64790000 -43.16080000 -0.40470000
20.59790000 -43.09970000 -0.49140000
20.60390000 -41.53430000 -0.56690000
20.78840000 -41.90460000 -0.37780000
20.80240000 -42.14660000 -0.37230000
20.71270000 -42.17970000 -0.46820000
20.80310000 -41.41910000 -0.38620000
20.73110000 -40.85440000 -0.48570000
20.89190000 -40.38030000 0.06440000
20.92200000 -40.85880000 -0.01690000
20.95100000 -40.65410000 -0.06390000
20.94700000 -40.33450000 -0.06750000
20.86360000 -41.02550000 0.04150000
20.79550000 -40.98260000 0.12440000
20.28730000 -44.12350000 0.28160000
20.21050000 -46.29630000 -0.77290000
19.98540000 -46.24940000 -0.86810000
19.99510000 -45.98700000 0.45510000
19.71430000 -45.73660000 0.53880000
20.54630000 -42.57530000 -0.57740000
20.38840000 -42.46710000 -0.67900000
20.50310000 -42.98320000 -0.58580000
20.13280000 -43.62660000 -0.79750000
20.47010000 -43.24170000 -0.59250000
20.34930000 -43.70470000 -0.65680000
20.88950000 -40.07510000 -0.30310000
20.90320000 -40.05500000 -0.23680000
20.81430000 -39.91970000 -0.39770000
20.91620000 -40.12440000 -0.14080000
20.88260000 -40.01890000 -0.13520000
20.37580000 -44.23920000 -0.62160000
20.32780000 -44.55590000 -0.64950000
19.56810000 -48.36820000 -0.98170000
19.51640000 -47.77870000 -0.99930000
20.62610000 -41.80720000 0.21000000
20.54690000 -42.17230000 0.23990000
20.58060000 -41.59510000 0.23740000
20.34810000 -41.90900000 0.33920000
20.40060000 -42.78100000 0.28930000
20.17030000 -42.98150000 0.38100000
20.84510000 -39.78450000 -0.12430000
20.82990000 -39.73660000 -0.01390000
20.76690000 -39.62240000 0.08470000
20.72980000 -39.96750000 0.16850000
20.70330000 -39.26180000 0.06780000
20.52950000 -39.46820000 0.25980000
20.68740000 -38.91040000 0.01330000
20.63350000 -38.77200000 0.07520000
20.22220000 -44.87630000 -0.71580000
19.98130000 -44.61650000 -0.84960000
20.65950000 -41.23150000 0.20510000
20.63460000 -41.04310000 0.22230000
20.22780000 -41.95440000 -0.77070000
20.26810000 -41.09480000 -0.76130000
20.05760000 -42.16510000 -0.85660000
19.75710000 -40.60700000 -0.98110000
20.61700000 -40.18370000 -0.59190000
20.62600000 -39.67750000 -0.58330000
20.47620000 -40.20520000 -0.68320000
20.35740000 -38.85390000 -0.77760000
20.67860000 -39.58500000 -0.52460000
20.60470000 -39.24780000 -0.57280000
20.29780000 -40.29040000 -0.77140000
20.13300000 -39.57240000 -0.86310000
19.61270000 -44.34040000 -0.98730000
19.51850000 -43.84390000 -1.01800000
19.22850000 -44.57890000 -1.11180000
18.80340000 -43.66780000 -1.24800000
20.61800000 -40.56720000 0.23850000
20.40870000 -40.78990000 0.32250000
20.36930000 -38.28640000 0.27760000
20.54730000 -38.28110000 0.10560000
20.57860000 -37.91980000 0.08960000
20.50600000 -37.75310000 0.18500000
19.96230000 -42.45250000 -0.90200000
19.80300000 -42.13690000 -0.96340000
19.88070000 -43.20500000 -0.91820000
19.70740000 -42.86570000 -0.98260000
18.29440000 -48.10690000 0.99510000
17.72510000 -48.61300000 1.16350000
18.47770000 -47.11700000 0.93860000
17.57030000 -47.09020000 1.20190000
19.92030000 -42.88150000 0.46280000
19.59420000 -43.11220000 0.55380000
19.93620000 -42.13190000 0.46510000
19.40750000 -41.98260000 0.61120000
19.66170000 -47.34570000 -0.96140000
19.55470000 -47.00090000 -1.00120000
20.56560000 -38.85540000 -0.59890000
20.45460000 -38.42150000 -0.69480000
-23.16870000 21.33320000 -0.17070000
-23.04750000 21.14290000 -0.08980000
20.55090000 -38.63310000 0.15070000
20.43730000 -38.79490000 0.26990000
20.10430000 -41.24340000 0.41690000
20.00690000 -40.78960000 0.43680000
20.63210000 -36.37810000 0.19250000
20.64150000 -36.77860000 0.14980000
20.71650000 -36.62710000 0.05970000
20.73200000 -36.37020000 0.04810000
20.73110000 -36.77070000 -0.03390000
20.71830000 -36.97510000 -0.14260000
20.70700000 -36.72830000 -0.26680000
20.51360000 -36.89850000 0.22060000
20.45170000 -37.18580000 0.22470000
20.45390000 -36.66790000 0.26750000
20.14590000 -37.10220000 0.35530000
19.62770000 -46.54460000 -0.98250000
19.25350000 -46.49470000 -1.09340000
19.19570000 -45.47240000 0.69730000
18.78160000 -45.99260000 0.83600000
18.89050000 -44.75200000 0.78230000
18.04180000 -45.11470000 1.05190000
20.68910000 -36.04340000 0.11790000
20.73830000 -36.16030000 0.04050000
20.61640000 -35.82550000 0.16990000
20.54030000 -35.94500000 0.23110000
20.59620000 -35.56850000 0.12830000
20.40930000 -35.37460000 0.23850000
20.14190000 -39.32660000 0.37590000
19.92990000 -40.20600000 0.44410000
19.78130000 -39.01500000 0.46290000
19.56490000 -40.39550000 0.54330000
20.41250000 -37.54990000 0.24840000
20.27330000 -37.78370000 0.31870000
20.57890000 -35.37280000 0.06540000
20.48810000 -35.18300000 0.09370000
20.48980000 -37.64770000 -0.59520000
20.47250000 -37.29320000 -0.59400000
20.41930000 -37.80610000 -0.68660000
20.23790000 -37.24980000 -0.79300000
20.38360000 -38.07840000 -0.74050000
20.28040000 -38.00540000 -0.80120000
20.24860000 -38.86380000 0.34370000
20.13020000 -38.56270000 0.36820000
20.51440000 -34.44420000 -0.07990000
20.50560000 -34.74220000 -0.07110000
20.55760000 -34.80510000 -0.19210000
20.56130000 -34.67610000 -0.24480000
20.40130000 -34.72900000 0.04240000
20.36690000 -34.88790000 0.09140000
20.37720000 -34.54350000 0.07830000
20.19020000 -34.62450000 0.23520000
20.37850000 -35.02780000 0.14290000
20.25430000 -34.97910000 0.24690000
19.01520000 -42.94360000 0.72870000
18.73980000 -43.21210000 0.81460000
18.60550000 -42.17940000 0.85330000
17.63320000 -42.14500000 1.14960000
20.43740000 -36.26540000 0.27450000
20.29050000 -36.07340000 0.30690000
20.07230000 -35.63280000 0.36160000
19.79130000 -36.02550000 0.44750000
20.03380000 -35.06810000 0.35950000
19.48450000 -34.55530000 0.51750000
20.61210000 -35.37940000 -0.43230000
20.54070000 -34.97740000 -0.52580000
20.61740000 -35.68450000 -0.42440000
20.42430000 -35.03770000 -0.67490000
20.63070000 -36.20080000 -0.41010000
20.54070000 -36.27700000 -0.53120000
19.57700000 -43.53480000 -1.00930000
19.41770000 -43.21930000 -1.07060000
18.59990000 -44.68280000 -1.30700000
17.99450000 -44.24280000 -1.49180000
18.43600000 -45.12230000 -1.35370000
17.33530000 -44.82170000 -1.68540000
18.38440000 -46.32280000 0.96210000
17.84650000 -45.92360000 1.11860000
20.56220000 -34.52710000 -0.29270000
20.55770000 -34.31200000 -0.22060000
20.56520000 -34.60030000 -0.40780000
20.59150000 -34.11990000 -0.15350000
20.56410000 -34.14290000 -0.04220000
20.45130000 -34.30100000 0.06160000
20.43910000 -34.20810000 0.10490000
17.34780000 -49.26920000 1.26910000
17.13250000 -48.88930000 1.31950000
19.60200000 -37.19130000 -1.04810000
20.03520000 -38.03790000 -0.90720000
19.98370000 -38.73800000 -0.92550000
19.64990000 -38.56900000 -1.02820000
20.10970000 -37.72410000 -0.87130000
19.94330000 -37.15060000 -0.92490000
20.45340000 -36.59750000 -0.62410000
20.34300000 -36.15040000 -0.73640000
20.05080000 -34.84790000 0.33460000
19.92350000 -34.54520000 0.36400000
20.52800000 -34.68480000 -0.51360000
20.48250000 -34.53760000 -0.55440000
18.29870000 -43.45540000 0.95990000
18.49870000 -43.99430000 0.90310000
17.59090000 -43.19930000 1.18240000
17.44950000 -43.95310000 1.23660000
20.68170000 -33.18570000 0.10030000
20.60280000 -33.62880000 0.07960000
20.62890000 -32.97720000 0.16200000
20.50970000 -33.50190000 0.15290000
20.48610000 -32.92510000 0.22260000
20.35830000 -33.30310000 0.23250000
20.41220000 -32.64550000 0.26700000
20.13810000 -33.12640000 0.32420000
18.65270000 -46.43650000 -1.27390000
18.48070000 -45.94960000 -1.32950000
20.11920000 -38.12350000 0.36810000
19.88030000 -38.11670000 0.43330000
18.40430000 -44.36300000 0.93540000
17.73290000 -44.47480000 1.14780000
20.46750000 -34.02050000 0.12000000
20.36110000 -34.02070000 0.18670000
20.42750000 -34.39180000 -0.60510000
20.45600000 -34.12920000 -0.54650000
20.34530000 -34.47180000 -0.70970000
20.32580000 -33.94510000 -0.70030000
20.52760000 -33.81490000 -0.48150000
20.53200000 -33.55820000 -0.51010000
20.27190000 -33.75980000 0.24230000
20.11530000 -33.89160000 0.30320000
18.32740000 -38.94790000 0.90290000
18.78430000 -40.65470000 0.78190000
19.13280000 -40.08560000 0.66700000
19.13300000 -39.07210000 0.65690000
20.57860000 -33.18200000 -0.49790000
20.51200000 -33.08650000 -0.57150000
19.32370000 -36.85890000 0.59170000
19.28280000 -37.81490000 0.61240000
18.85530000 -36.77440000 0.72620000
19.93850000 -34.07750000 0.36600000
19.86910000 -33.68550000 0.39980000
19.40090000 -38.32740000 0.57590000
20.23240000 -34.52910000 -0.80200000
20.15130000 -34.30060000 -0.84120000
20.21140000 -34.91790000 -0.82890000
19.98720000 -34.71220000 -0.94370000
18.09210000 -45.52950000 -1.45310000
17.32820000 -45.60550000 -1.67920000
20.26910000 -32.43230000 0.30020000
20.03900000 -32.66630000 0.34880000
20.22330000 -32.01070000 0.31030000
19.90200000 -32.17530000 0.37700000
20.22370000 -35.65630000 -0.82390000
20.06360000 -35.85640000 -0.89740000
18.40220000 -41.18510000 0.90580000
17.97830000 -40.71030000 1.03080000
20.44770000 -32.75210000 -0.63950000
20.50590000 -32.12560000 -0.59860000
20.32020000 -32.93090000 -0.73250000
20.30360000 -31.88460000 -0.75900000
20.20390000 -33.02550000 -0.80430000
20.12870000 -32.50160000 -0.85550000
20.14590000 -33.55210000 -0.83000000
19.82040000 -33.10190000 -0.97730000
19.86280000 -33.18410000 0.39710000
19.71550000 -32.95040000 0.43140000
20.08890000 -33.95100000 -0.87240000
19.93030000 -33.97930000 -0.95790000
17.19990000 -46.14680000 1.29250000
16.82580000 -46.92560000 1.37440000
16.79990000 -47.81120000 1.37860000
16.88770000 -45.38820000 1.36790000
16.47230000 -46.97730000 1.44780000
17.47370000 -45.64790000 1.22120000
17.41080000 -45.12190000 1.23500000
19.49930000 -42.46670000 -1.05440000
19.15450000 -42.27820000 -1.15410000
16.78990000 -48.76280000 1.38940000
19.67350000 -34.21470000 -1.05820000
19.33610000 -33.97660000 -1.15410000
19.62110000 -34.84840000 -1.07890000
19.05410000 -35.00920000 -1.25660000
17.35510000 -44.68910000 1.25710000
17.11800000 -44.51210000 1.32670000
17.53200000 -43.76060000 -1.62570000
17.87430000 -43.15900000 -1.52140000
17.03010000 -43.97730000 -1.76830000
16.90280000 -42.56950000 -1.79470000
19.77310000 -35.66550000 -1.00980000
19.69950000 -36.12090000 -1.02260000
19.01130000 -38.06060000 -1.22200000
18.71810000 -36.97530000 -1.31870000
18.59310000 -38.82100000 -1.34070000
17.54370000 -36.90840000 -1.66140000
17.70510000 -40.48230000 1.11650000
17.45880000 -40.92600000 1.19810000
17.69890000 -39.60340000 1.10910000
17.29230000 -39.84250000 1.23600000
19.68130000 -36.44270000 -1.02540000
19.29360000 -36.11780000 -1.16280000
19.52120000 -32.04250000 0.48000000
19.16880000 -32.32140000 0.59150000
19.61200000 -31.23940000 0.45250000
19.16130000 -29.89810000 0.57780000
18.62610000 -33.66880000 -1.35770000
18.50260000 -33.08730000 -1.38080000
18.07420000 -34.10120000 -1.52990000
17.09200000 -33.16580000 -1.79760000
17.04160000 -47.11670000 -1.76550000
16.93420000 -46.95900000 -1.78720000
16.19270000 -46.99990000 1.49540000
16.31280000 -46.12290000 1.47140000
17.20950000 -43.21780000 1.29770000
17.05160000 -43.72150000 1.34900000
17.11410000 -42.90080000 1.30890000
16.38040000 -43.64430000 1.47320000
16.97250000 -44.22210000 1.36770000
16.77430000 -44.55680000 1.40350000
18.73070000 -36.18330000 -1.33160000
18.24930000 -35.66000000 -1.48020000
18.56780000 -32.56670000 -1.36570000
19.24160000 -32.30090000 -1.17160000
17.97690000 -32.35890000 -1.54940000
18.88430000 -31.46260000 -1.29890000
16.45800000 -45.25530000 1.45280000
15.88100000 -45.23510000 1.54830000
17.21660000 -40.74170000 1.26500000
17.10360000 -41.02040000 1.28860000
17.02950000 -39.95410000 1.30710000
16.50670000 -39.78500000 1.40580000
18.46720000 -42.35000000 -1.35110000
18.28720000 -41.40570000 -1.40850000
16.76640000 -46.78120000 -1.82070000
16.81490000 -46.33080000 -1.80400000
17.57950000 -38.69210000 1.13280000
17.28390000 -38.47240000 1.21650000
17.83500000 -37.81620000 1.04110000
17.38220000 -36.98490000 1.16490000
16.86930000 -42.64880000 1.35470000
16.12680000 -42.79540000 1.49880000
16.89020000 -42.11340000 1.33510000
15.79250000 -41.84690000 1.53880000
16.89780000 -45.82450000 -1.79080000
16.77670000 -45.40620000 -1.82390000
18.33120000 -36.76890000 0.88120000
18.25190000 -35.93120000 0.89850000
16.85700000 -41.38740000 1.34250000
16.25080000 -40.78860000 1.45670000
16.73980000 -44.63860000 -1.83680000
16.51270000 -44.43960000 -1.87640000
18.50370000 -33.18760000 0.80100000
18.20330000 -34.70340000 0.90510000
18.00520000 -32.53590000 0.94490000
16.97770000 -35.04410000 1.26980000
18.02780000 -39.99430000 -1.49580000
17.29510000 -39.73220000 -1.71110000
17.27370000 -31.76040000 -1.77440000
18.05670000 -31.72020000 -1.54300000
17.61890000 -32.29920000 -1.66180000
17.10790000 -32.49140000 -1.80770000
17.01950000 -38.08770000 1.27320000
16.92660000 -38.64270000 1.30310000
16.90970000 -37.14430000 1.28530000
16.36130000 -37.15740000 1.38730000
16.85580000 -39.05700000 1.33080000
16.34760000 -38.52050000 1.41340000
17.88430000 -35.61580000 1.00770000
17.21070000 -36.11480000 1.20850000
16.97290000 -39.47620000 -1.80540000
16.99700000 -38.08170000 -1.80320000
16.69360000 -40.67050000 -1.85970000
16.63940000 -39.19430000 -1.87480000
17.77510000 -34.86010000 -1.61560000
17.22930000 -34.93190000 -1.75570000
16.18990000 -43.96000000 -1.92650000
16.17540000 -42.72900000 -1.93100000
15.64370000 -44.60170000 -2.00390000
15.36390000 -42.39490000 -2.04960000
18.01200000 -30.31890000 0.91840000
17.57030000 -31.89650000 1.06880000
16.97650000 -30.26000000 1.22330000
16.95410000 -32.55660000 1.25500000
16.19240000 -35.98790000 -1.95180000
16.88180000 -36.22810000 -1.82400000
16.84690000 -37.17570000 -1.83390000
16.53610000 -37.79480000 -1.89530000
16.87010000 -36.49920000 1.29650000
16.68320000 -36.32980000 1.33840000
16.87850000 -35.18000000 -1.83380000
16.66820000 -34.38630000 -1.88820000
16.31260000 -41.48160000 -1.91760000
16.17170000 -40.58830000 -1.94350000
16.52640000 -33.01590000 1.35970000
16.38550000 -33.92220000 1.39030000
16.44600000 -35.35170000 1.38650000
16.22340000 -30.80880000 1.39420000
16.13520000 -33.00620000 1.42220000
15.97660000 -35.00560000 1.45720000
16.48010000 -36.15950000 1.37890000
16.16060000 -36.24130000 1.42710000
16.18660000 -39.18100000 -1.94610000
15.87110000 -39.14550000 -1.98820000
16.62110000 -32.19280000 1.33630000
16.48970000 -30.61310000 1.34890000
14.56530000 -45.32080000 -2.15230000
13.82700000 -44.57760000 -2.25740000
15.85990000 -31.84330000 1.44570000
15.59310000 -32.53460000 1.48530000
15.80610000 -30.07250000 1.43880000
15.06390000 -29.48290000 1.52920000
14.58560000 -45.13950000 1.75460000
13.80640000 -45.91930000 1.87310000
13.90450000 -44.30590000 1.86440000
11.76290000 -45.01770000 2.20550000
16.84290000 -32.35510000 -1.88080000
16.83480000 -31.91010000 -1.88770000
16.70590000 -32.65560000 -1.90660000
16.28930000 -32.14280000 -1.97930000
14.96610000 -39.98000000 -2.10950000
15.47690000 -38.82840000 -2.04150000
14.40270000 -38.07640000 -2.19380000
15.17160000 -37.12110000 -2.08950000
16.58820000 -33.52990000 -1.91840000
16.09910000 -33.74360000 -1.99020000
12.60080000 -37.39570000 1.99290000
14.94100000 -38.79150000 1.64350000
15.27660000 -38.12680000 1.57870000
14.69780000 -37.28780000 1.65480000
13.65650000 -46.64820000 1.89510000
12.36100000 -46.41250000 2.11070000
14.07980000 -34.24050000 1.73140000
15.24520000 -34.84750000 1.55930000
15.17050000 -33.20660000 1.55260000
14.36610000 -31.94980000 1.66520000
15.17940000 -39.81230000 1.61900000
14.30370000 -40.07050000 1.75520000
15.17390000 -35.97690000 1.56860000
15.58300000 -35.83420000 1.51110000
14.87740000 -33.83820000 -2.16040000
14.53180000 -32.80770000 -2.21880000
14.29470000 -34.87240000 -2.22910000
11.78600000 -33.73950000 -2.59180000
12.59410000 -40.67090000 -2.45130000
14.03120000 -41.83850000 -2.23990000
13.41800000 -43.43290000 -2.32000000
12.40900000 -43.85440000 -2.46080000
12.98290000 -43.68140000 2.00440000
11.16370000 -43.86630000 2.29530000
13.82240000 -43.16150000 1.86970000
10.82590000 -42.36410000 2.33450000
14.42100000 -36.38890000 1.68880000
13.27450000 -35.48250000 1.86850000
14.63420000 -42.79360000 1.73870000
13.74930000 -42.10570000 1.86580000
14.22780000 -35.89100000 -2.22880000
13.40470000 -36.30820000 -2.34360000
10.33170000 -48.65010000 2.47950000
10.28930000 -47.01760000 2.47770000
13.23370000 -40.77780000 1.92910000
12.01130000 -40.22470000 2.11450000
14.32910000 -40.45840000 -2.19980000
13.73690000 -39.15860000 -2.28730000
10.52540000 -46.07340000 2.42730000
9.40310000 -45.12670000 2.61270000
14.35230000 -28.67090000 1.62850000
12.93070000 -28.76710000 1.87030000
12.53030000 -29.34970000 1.94800000
13.54020000 -28.07680000 1.75430000
11.92120000 -28.32650000 2.03290000
9.29140000 -28.57010000 2.49260000
13.08000000 -37.52100000 -2.38710000
12.28840000 -37.22300000 -2.50490000
12.84000000 -30.79080000 1.90910000
12.00280000 -31.85520000 2.05760000
11.93570000 -33.52800000 2.07830000
10.82310000 -33.05150000 2.26210000
11.34070000 -39.99730000 2.22230000
10.45520000 -40.53470000 2.38280000
11.16940000 -38.43470000 2.24210000
9.97050000 -38.70760000 2.45640000
11.24610000 -27.50780000 2.13460000
9.93630000 -26.54020000 2.35090000
12.24650000 -27.09670000 1.95890000
10.70780000 -25.52470000 2.20380000
10.21410000 -36.39110000 2.39390000
9.04710000 -36.02690000 2.59740000
10.00610000 -34.58040000 2.41630000
7.91150000 -32.56730000 2.77170000
9.49650000 -44.26880000 2.58460000
8.53050000 -43.78120000 2.75170000
11.41280000 -44.40630000 -2.60040000
10.96470000 -43.27670000 -2.67390000
9.62810000 -36.07230000 -2.90420000
10.46060000 -35.00420000 -2.78180000
11.44320000 -36.72060000 -2.63080000
11.06100000 -37.97880000 -2.68550000
10.08380000 -42.31770000 -2.81400000
10.26860000 -40.64290000 -2.79890000
8.79080000 -43.21210000 -3.00130000
7.95240000 -40.36410000 -3.14820000
10.17250000 -38.94130000 -2.81800000
8.87220000 -37.78010000 -3.01580000
7.63070000 -41.58830000 2.89830000
7.41240000 -42.92280000 2.94650000
5.24290000 -41.06550000 3.33160000
6.05030000 -43.13040000 3.19500000
9.71900000 -32.62530000 2.44990000
8.42900000 -30.61870000 2.66280000
8.99820000 -33.87660000 -3.00690000
8.41920000 -33.01310000 -3.10030000
8.00470000 -34.42390000 -3.15570000
5.81160000 -32.77300000 -3.49840000
9.02990000 -39.63140000 2.63410000
8.18900000 -39.65270000 2.78620000
8.28100000 -37.97720000 2.75690000
5.87150000 -36.27860000 3.18750000
7.90340000 -36.02520000 2.80580000
6.83290000 -34.07320000 2.98480000
7.75680000 -44.31990000 -3.15210000
6.97630000 -43.36260000 -3.27850000
5.45090000 -43.47220000 3.30850000
5.02120000 -42.81900000 3.38650000
7.18750000 -39.95360000 2.96850000
5.62280000 -38.93390000 3.24990000
5.21160000 -38.50580000 -3.56170000
6.37230000 -39.36540000 -3.38550000
6.31100000 -41.81130000 -3.38420000
5.62510000 -42.21290000 -3.48370000
7.72750000 -36.09730000 -3.19410000
6.85090000 -36.46080000 -3.32710000
7.41150000 -29.45570000 2.84360000
6.71230000 -30.32810000 2.98070000
7.12220000 -28.07600000 2.89190000
5.76580000 -28.59040000 3.15540000
20.79370000 -31.40950000 0.18980000
20.63840000 -31.49670000 0.24860000
20.78270000 -31.05290000 0.18820000
20.58400000 -31.06580000 0.26520000
20.73900000 -30.82160000 0.19640000
20.57000000 -30.76190000 0.25690000
-22.69020000 18.88490000 -0.59380000
-22.77390000 18.95110000 -0.46350000
-22.49880000 18.24570000 -0.59890000
-22.70510000 18.66650000 -0.39460000
20.54080000 -31.59540000 -0.55270000
20.45790000 -31.28380000 -0.61230000
20.59290000 -28.88160000 -0.41830000
20.57450000 -28.61270000 -0.41040000
20.56270000 -28.99800000 -0.51630000
20.49240000 -28.62320000 -0.56900000
20.66100000 -30.16670000 -0.33930000
20.61020000 -29.99990000 -0.45930000
20.15670000 -30.44460000 0.35560000
20.05480000 -30.58160000 0.38720000
19.95260000 -30.00860000 0.38170000
20.38230000 -31.06390000 -0.67060000
20.41160000 -30.66240000 -0.63930000
20.25850000 -31.20640000 -0.77510000
20.25520000 -30.71840000 -0.76930000
20.42980000 -29.44940000 -0.70680000
20.55450000 -29.42260000 -0.57970000
20.56720000 -29.80050000 -0.54750000
20.52050000 -30.00980000 -0.58500000
20.63500000 -29.10480000 -0.01180000
20.58650000 -29.21490000 0.07100000
19.78560000 -31.02710000 -1.02560000
20.03440000 -31.52360000 -0.90750000
20.00700000 -32.00600000 -0.92080000
19.80900000 -32.02480000 -1.00250000
-22.39600000 17.67640000 0.17140000
-22.60070000 18.38290000 0.00370000
-22.59220000 18.13670000 -0.07410000
-22.51400000 17.67460000 -0.03310000
-22.66580000 18.28810000 -0.20860000
-22.55300000 17.59780000 -0.24880000
20.71050000 -27.65950000 -0.03400000
20.59690000 -27.94680000 0.02330000
20.74330000 -27.18820000 -0.02150000
20.55720000 -27.43710000 0.09540000
19.92750000 -31.29070000 0.38310000
20.00190000 -31.03080000 0.38160000
20.46340000 -29.09460000 0.13810000
20.29340000 -29.43900000 0.24360000
20.42240000 -28.52050000 0.10640000
20.15890000 -28.64140000 0.24490000
20.43830000 -30.23870000 -0.64460000
20.32850000 -30.17480000 -0.74260000
-22.65150000 18.34170000 -0.34000000
-22.54480000 17.97740000 -0.42490000
20.45490000 -28.18780000 0.09590000
20.36170000 -28.12680000 0.16340000
20.09220000 -31.20110000 -0.87390000
20.04900000 -30.83390000 -0.89330000
20.53680000 -29.11980000 -0.58470000
20.47530000 -28.95750000 -0.63700000
20.55160000 -28.32570000 -0.46300000
20.48310000 -28.21390000 -0.58550000
20.76030000 -26.29070000 -0.01480000
20.67120000 -25.86800000 0.04640000
20.37920000 -28.75200000 -0.70400000
20.35280000 -28.46150000 -0.70170000
20.29730000 -28.84950000 -0.77900000
20.17140000 -28.11160000 -0.84730000
8.47440000 -241.26410000 1.59640000
20.13620000 -29.37870000 -0.88910000
20.16850000 -28.97950000 -0.86760000
19.84110000 -29.40680000 -1.03810000
20.02530000 -28.77540000 -0.94390000
20.38330000 -28.20690000 -0.68290000
20.38180000 -27.86720000 -0.71060000
20.21140000 -31.03240000 0.34900000
19.94900000 -29.55340000 0.35690000
19.73270000 -29.06440000 0.39370000
20.14820000 -30.37590000 -0.84790000
20.09450000 -30.17050000 -0.88600000
20.48990000 -27.23040000 -0.67850000
20.45820000 -26.90270000 -0.71900000
20.25610000 -27.93190000 0.20490000
20.04620000 -28.12300000 0.27330000
20.29670000 -27.39120000 0.19100000
19.79290000 -27.41160000 0.34160000
19.52890000 -31.91990000 -1.09660000
19.40560000 -31.29570000 -1.14990000
20.02340000 -29.89450000 -0.93860000
19.77350000 -30.21070000 -1.05070000
20.55300000 -25.34800000 0.11170000
20.43450000 -25.94580000 0.16390000
20.52970000 -24.31640000 0.12780000
20.27150000 -24.58470000 0.23580000
20.37460000 -26.42280000 -0.79070000
20.18750000 -26.57600000 -0.89280000
20.30440000 -26.46080000 0.20140000
20.12940000 -25.88740000 0.25980000
19.91610000 -28.55270000 -0.99710000
19.93160000 -28.03430000 -0.98290000
19.75150000 -28.89050000 -1.07040000
19.53200000 -28.15660000 -1.13610000
19.48930000 -30.63360000 -1.14040000
19.43360000 -30.28520000 -1.16030000
19.89360000 -25.46980000 0.32980000
19.51690000 -25.96590000 0.43140000
19.89240000 -24.58720000 0.34540000
19.20400000 -24.56100000 0.53060000
20.63090000 -23.51950000 -0.55580000
20.51100000 -23.30750000 -0.65400000
19.75360000 -28.52810000 0.36990000
19.37490000 -28.67140000 0.48490000
20.06730000 -26.27230000 -0.96290000
20.02570000 -25.27910000 -1.00370000
20.00990000 -26.74410000 -0.97190000
19.86120000 -25.18050000 -1.06720000
20.33060000 -23.04170000 -0.76770000
20.30500000 -22.57980000 -0.76790000
20.22020000 -23.33400000 -0.85470000
19.94820000 -22.50350000 -0.98990000
20.17640000 -23.90130000 -0.90410000
20.05680000 -23.99830000 -0.97390000
19.49420000 -29.64890000 -1.14540000
19.17450000 -29.99780000 -1.23020000
19.98620000 -24.32510000 -1.01560000
19.88580000 -23.83090000 -1.04820000
19.92610000 -27.19820000 -1.00130000
19.79420000 -26.57830000 -1.07010000
