-19.46324900 141.31610100 -1.89458900
-0.97455600 201.54710400 -8.72106900
-5.92363700 168.18080100 -5.25024400
-21.13773000 133.75700400 1.40766400
3.36917100 184.49740600 -12.50653000
13.18910000 -195.65330500 -1.22387600
5.23833300 182.69030800 8.36283300
-4.18766200 194.33099400 -7.83077500
-7.76700600 139.67030300 -1.80151400
4.16625200 0.56945700 2.61535600
4.31498100 182.47850000 8.09395000
4.83222200 186.42950400 -9.05645800
6.21838300 181.15690600 -2.79074700
5.10134100 214.59739700 -3.38793900
4.35283700 -6.59179000 2.62768600
-17.14654000 -76.41464200 0.41677000
18.26744100 77.56923700 -2.40467000
-16.85971100 -76.96105200 0.62721100
-12.21588000 131.43190000 1.73947800
-15.27599000 226.96350100 10.65922000
0.80841500 92.01586900 -4.57757600
18.26033000 75.04341100 -2.42420400
2.80532000 225.51770000 6.57197700
-18.95513900 105.98709900 -1.33729100
-4.54480000 166.41439800 -12.18335000
5.35792500 221.59579500 -2.73901400
3.78358000 89.59214000 -4.17669700
-8.02522300 163.87120100 6.61584500
19.14368100 74.28545400 -2.28731100
-18.04855000 106.64830000 -1.61732400
4.90846300 221.47279400 -3.51434300
20.09026000 -85.71634700 -0.68899700
1.38908200 91.57582900 -4.60028100
-17.20336000 106.36049700 -1.76577500
19.94930100 -86.70717600 -0.58216300
8.43681000 182.47670000 4.45833100
18.34452100 73.33232900 -2.40994200
-17.65409100 106.04470100 -1.64409400
-3.66209400 221.23989900 -7.35833700
0.52757300 196.23460400 -8.69830300
2.18849200 187.13020300 -8.45959500
-15.42344000 -86.92417100 0.71741600
-1.46948300 -212.73649600 -1.22487000
9.54589100 163.64950600 3.71563700
-6.70416300 142.77479600 -0.04138200
-14.76005000 141.09710700 -3.53613300
18.75519000 89.68682900 -0.32643500
-11.11859000 -177.88569600 -1.74698900
-13.99718000 -142.96180700 0.04145900
-14.72436000 140.35809300 -4.05236800
5.31527700 191.56019600 -4.95849600
17.22839900 91.06761200 -0.01510500
-14.00058000 -142.84390300 -0.34855000
-19.21270000 -11.61053000 -0.12616000
-11.69153000 -177.63949600 -1.49729700
-12.67439000 -169.28340100 -1.07705500
-3.05094300 143.43220500 5.80536600
-20.04505000 97.93183100 -0.92910800
-1.18716400 203.58149700 -8.69763200
-16.95509900 57.48482900 -1.43717600
1.16545500 144.61399800 -8.91516100
-1.69757800 201.99139400 -8.72686800
-20.68676900 97.90814200 -0.64662200
-6.39097600 220.52070600 -2.43579100
-2.56954100 200.55130000 -8.62151600
-17.61517900 24.77782100 0.80946100
1.85092200 -149.24530000 1.81597900
-20.87752000 98.02525300 -0.33061300
-15.07104000 141.12089500 2.27566500
17.71237000 -147.45570400 -0.67421100
1.92059400 -213.74679600 -0.75050900
-18.46005100 50.76165000 -0.82611300
-6.68366000 224.64979600 -4.81754600
-6.48835200 189.10670500 -3.99479500
-2.34684000 178.76199300 -8.97424300
-10.98514000 -186.32519500 -0.72663500
-16.85794100 -43.94788000 -0.81631000
2.80006400 218.67460600 -6.70941200
-3.03475900 221.51579300 -0.84838700
-11.29479000 -186.19870000 -0.76962500
-3.20120200 178.51130700 -8.62884500
14.41157000 -185.79969800 -2.95213800
1.01979100 -142.47120700 1.87384000
-14.01033000 -147.63740500 -0.24767200
-18.67535000 132.72830200 -2.25318400
5.75978900 198.99470500 -2.81329300
1.69560200 -132.47169500 2.11224400
-13.90438000 -149.06750500 -0.16920900
20.00239900 36.30226900 -2.01997200
-15.22000000 -109.91420000 0.42770000
-20.28758000 132.82569900 -2.00188900
-8.95935800 183.49119600 -9.27795400
-2.98922000 213.41619900 -8.04156500
11.92657000 225.80749500 10.59002000
1.24958800 171.12730400 6.74603300
-18.91272900 -4.50172800 -0.47699000
19.61819100 83.62867700 -2.26386700
20.58828900 36.35596100 -1.85092900
2.85819800 158.42730700 6.27105500
16.86562900 -170.97140500 -0.95359100
-2.35225100 201.48899800 5.96796900
2.83280900 -149.65730300 -3.76913500
4.46126000 129.43400600 2.63773900
-20.71398000 141.30830400 -0.08613100
4.00322000 163.97880600 9.66210900
-18.77384000 83.87751000 -1.12902200
6.83086800 226.40269500 -8.03807800
19.01918000 141.73660300 -2.18194600
3.80191000 163.55079700 9.11004600
4.67035100 130.08960000 2.72768800
-11.83480000 -106.19699900 -1.25952600
-4.50134300 229.11399800 -18.82482900
4.33373300 163.75579800 9.08715800
1.04139700 -64.60722400 -3.56677200
8.53979500 138.93879700 -6.60284400
-13.74540000 132.15739400 -3.31363200
4.43223600 163.51199300 8.77795400
-6.06579500 194.05520600 1.93086900
4.76956900 167.75799600 -7.07775900
-6.27845400 141.25270100 -3.88909900
-8.11330600 228.82249500 15.16844000
-18.99494900 23.71846000 0.16383700
3.23303200 -190.52160600 -4.25225800
4.41999400 222.91819800 8.41010400
1.91507000 -219.62959300 -3.76194800
-7.68880800 228.74850500 15.78481000
10.01619000 226.66439800 -1.06447000
-18.84293000 26.94788900 0.37502800
12.95090000 228.86520400 9.81687700
-5.99034100 221.43569900 2.36236600
5.67984800 162.45350600 -4.69384800
20.86166000 122.40899700 -2.14918900
-19.50567100 56.43808000 0.22124800
19.12215000 130.03439300 -0.25471100
-15.60935000 63.63135100 -1.75851500
-19.39917900 39.60887900 -0.40948800
18.59547000 -97.88159900 -0.32396100
21.44973000 14.15545000 -1.49152200
-0.42990100 130.30720500 -9.82153300
10.56971000 184.56900000 0.89376500
11.26101000 227.29089400 -16.07255000
6.55432100 169.67120400 -1.29492200
-6.81919900 167.69979900 1.40991200
7.12945600 186.39219700 -4.53936800
7.26852800 227.02009600 -18.26678100
-2.20111300 145.75459300 6.41064100
21.64158100 29.80764000 -1.26348200
19.37516000 -97.65012400 -1.05629800
-8.79921000 123.29869800 2.02435300
5.28995100 226.98109400 -19.11594000
-10.17719000 182.94590800 -4.05639600
-3.58486900 162.72070300 5.65667700
5.70884700 -82.58853100 2.27587900
18.27392000 133.42019700 -4.66327500
-11.31534000 -120.69850200 -1.35959600
-11.15634000 228.36770600 10.35232000
4.36638900 130.58540300 3.19137100
-21.12939100 118.42310300 -0.53225300
-6.37273600 187.18420400 -4.36891600
4.34455200 130.40469400 2.93147400
8.41552700 -89.10369900 1.74133300
-6.28610200 169.01809700 1.30108600
-0.98948700 183.71539300 -12.96747000
-23.07130100 135.90339700 0.33083900
4.73985900 97.88213300 -4.14599600
10.92208000 134.75970500 4.48271900
-23.38880900 134.96009800 -0.09280900
-2.21760600 224.29179400 -14.76202000
20.31094900 -83.40743300 -0.79051500
9.97396300 133.85580400 4.90746300
12.41449000 -180.15690600 -0.39776900
2.27743400 196.63009600 5.85537100
13.27962000 226.70719900 -13.09761000
15.50324000 -135.62579300 0.01414200
14.10902000 141.23249800 2.28930500
9.45758200 184.71929900 5.05777900
5.76832200 222.28019700 3.81445500
13.93292000 226.79179400 -12.73810000
1.06453000 182.81810000 9.66145500
14.12841000 -139.08490000 0.24590700
13.79892000 139.92300400 2.72559600
5.60869200 32.21942900 2.20867900
20.41675000 -81.16583300 -1.11994100
14.16679000 -133.36210600 0.32021000
2.77397700 228.55740400 -17.16608000
5.70457500 39.30167000 2.12158200
4.99163100 215.98980700 -3.63073700
7.72803900 36.57862100 1.80279500
3.78898000 220.83509800 3.29412900
6.11014600 -13.55318000 -3.38427700
0.56033300 223.04510500 -11.72949000
-6.11120000 64.90000900 -3.21081500
20.88715900 125.72840100 -1.06774400
3.91122400 226.29179400 -10.18366000
-3.69635900 179.55349700 5.65742300
4.31211900 228.38749700 17.09242100
-14.78140000 104.15300000 1.35140400
-20.12636900 75.21756700 0.06217900
-10.44953000 164.48080400 -5.14892600
18.87410900 -123.03890200 -1.20280800
-6.16210700 134.54220600 6.09675400
-12.52469000 81.59902200 -2.29473500
-10.68137000 -185.61889600 -0.69019800
-5.23265800 163.27310200 5.06311000
-10.17462000 -158.77870200 -1.92155300
-4.69728400 197.72729500 -7.35595000
-14.00976000 74.90706600 -2.00439300
-12.16860000 -165.08439600 -0.05032700
-6.57570600 32.51171100 -2.91973900
-10.73253000 183.44110100 -2.54180900
7.94520800 182.56449900 5.53459000
-0.73683400 90.35092900 2.82006700
20.75045000 58.68368900 -0.82053700
15.06823000 -57.04528000 0.95207600
-20.09108900 134.43029800 -2.93732600
-17.91378000 10.93197000 0.85281200
21.60886000 128.03089900 -1.83261700
21.54369000 57.94632000 -1.20203000
-2.53622800 193.18339500 6.16922100
21.46021100 127.18599700 -1.46690500
0.80636600 163.32200600 -12.12817000
-18.12385000 14.06856000 0.74075500
-13.23454000 138.03360000 3.52617200
-0.66876600 139.14090000 -9.07128900
17.72963000 -160.85899400 -1.00705200
12.47581000 228.25799600 12.39677000
12.82583000 54.07252100 -2.93060300
14.90780000 132.85009800 -4.86169400
4.98516100 157.32809400 -6.17016600
-18.80514900 48.81636000 0.46107500
21.78630100 26.12359000 -1.11506500
-7.43770600 225.71679700 14.89088000
4.11026800 225.04220600 -15.62940000
-18.75410100 55.33966800 0.55166300
21.12896000 41.20826000 -0.96113900
-3.60257000 227.10670500 -20.27710000
-19.15621900 6.26415900 -0.04688800
6.14374500 188.29710400 0.13983200
-1.51219200 -142.59620700 1.60156300
5.44911500 228.42919900 14.12483000
-18.97065900 5.93441600 -0.35642800
17.35819100 120.98560300 0.00691300
-3.31974000 167.98989900 5.93695100
-16.76820000 -47.45927000 1.06512600
-1.49001600 130.48440600 5.72793800
-6.70408600 162.83500700 0.85638400
-4.08702100 139.22039800 -7.54595900
-3.31298800 167.59869400 6.23815900
-18.17587100 -48.69389000 0.69107800
-3.63865700 186.84190400 -8.57159400
-17.71400100 -65.92919200 0.30345300
20.64901000 40.03892900 -0.76315200
0.60168900 225.59390300 7.59958900
-18.85689000 -0.38799500 0.71605200
4.53298200 201.81680300 3.76598800
-9.00033600 -74.26344300 1.82135000
5.91816700 182.73849500 -10.09458000
-9.95066000 223.08230600 3.65826800
21.19297000 80.92005200 -1.47911000
2.83464100 224.89219700 -7.38421600
6.32872100 182.79739400 -10.02013000
2.02742000 -138.39619400 -3.69928000
21.28064900 81.38166000 -1.59089100
-5.56934400 158.32139600 2.95294900
-20.31166100 85.19358800 -0.14882200
0.97657800 32.65502900 -4.14477500
6.47763800 183.16960100 -10.24609000
-6.06772800 194.23759500 -5.24770000
-16.31139900 227.70750400 -12.24330000
-3.99380000 183.68620300 9.79552400
-17.13861100 -73.76992800 0.40563200
21.74846100 -6.56110000 -1.32427300
-18.95273000 -36.13988100 0.37101700
2.46778900 -43.69720100 -3.69641100
-3.42547700 183.26800500 9.73901700
-18.81207100 -36.33387000 0.51698400
0.94294000 138.20919800 -9.09881600
-13.59575000 -152.09370400 0.00257100
-1.09162900 163.47110000 -12.42731000
3.18864400 -44.03751000 -3.65179400
18.49550100 -127.56130200 -1.59890000
-3.38970900 -79.97525000 2.34332300
-4.10695600 171.28120400 -8.04858400
6.46130700 -215.68899500 -1.38502300
4.49609200 172.62410000 4.70256600
1.66631000 -218.57260100 -3.79926800
17.88408100 -127.27279700 -1.85333000
3.20266000 163.09089700 -8.70513900
-15.69886000 -91.24269900 -0.35672400
21.66580000 32.09129000 -1.31298500
-3.17120700 137.27589400 -8.84716800
-18.86334000 4.74604900 -0.48686500
-17.07473000 -70.53099800 0.65295200
-16.00617000 -90.85688800 -0.12247700
-18.42535000 132.92680400 -3.00968600
7.62352000 139.38560500 -1.83062700
6.67458300 166.82229600 -10.45349000
1.32880400 117.16890000 -4.87677000
-1.25853400 194.17089800 -8.96202900
6.20006800 181.99870300 -4.72215900
-11.67651000 90.39846000 1.56829800
-0.46331000 120.58360300 -4.88055400
-0.98623300 194.90310700 -8.97680600
-10.11905000 -152.97650100 0.51005500
-5.44904600 147.95109600 2.95054300
-0.40068100 195.62840300 -8.89495800
0.70654700 120.60710100 -4.96624800
-18.94236900 3.80643500 -0.44297500
-0.71163900 195.72360200 -8.87982200
8.80465700 164.00599700 -7.64617900
-11.60966000 -146.18649300 0.44620300
-0.19867700 121.32740000 -4.94995100
-6.05661800 170.84700000 -4.91571000
0.06312600 227.17120400 -20.41077000
-14.34454000 -126.43029800 0.27115700
13.27749000 -41.89886900 -2.51861600
20.02668000 57.36872100 -0.58763600
18.42989900 -154.02180500 -1.52347100
-2.60257600 186.58509800 6.84773200
-1.00605000 185.82850600 -12.63080000
-14.71099000 -124.79689800 0.17010100
23.09250100 137.59089700 -2.84509500
17.76318900 -172.14970400 -2.14059900
-4.95027500 111.72519700 -3.85913100
-14.52228000 -124.28459900 0.30259100
-18.46398000 90.44943200 0.76476100
3.17002600 131.19410700 7.55853100
-20.27968000 105.99890100 0.29340000
9.88320200 166.38439900 -6.04364000
-1.31640200 40.79705000 -3.83508300
2.70827500 165.83760100 10.60364000
-19.69124000 106.11460100 0.52946200
-18.33285000 92.09329200 0.79176700
22.08646000 -42.84602000 -1.19849700
-9.16743900 135.40960700 -6.80304000
-7.82135200 138.08650200 4.76844000
1.96463000 10.22877000 2.93951400
8.98575600 139.91740400 -2.17413300
22.13423900 -41.00455100 -0.99668200
3.13408700 41.30820800 2.58190900
1.51128400 164.39720200 -12.99573000
1.67044200 -221.39650000 -2.06521300
-15.86304000 -101.10189800 0.24382300
21.96320000 -43.13261000 -0.69414100
-19.69442900 76.90138200 -0.66124100
-6.37255100 139.47880600 1.63220200
-3.37156800 137.75639300 6.45735300
19.41305900 -101.81189700 -0.91767300
-8.58673100 131.22920200 -3.82012900
-22.62648000 137.02710000 0.54066800
15.16919000 -95.19576300 0.57420200
4.51772700 221.78239400 2.76845000
-2.93247900 221.93170200 -3.26447800
-10.62822000 140.56350700 -3.37182600
21.16917000 63.87181900 -1.71156300
-6.33306900 167.52769500 3.33172600
4.36979000 221.84719800 3.28543600
-5.57531700 183.42179900 -11.57361000
19.67631900 42.49733000 -2.07242700
-0.19591700 157.01579300 7.01216600
-5.83437300 167.83709700 3.21057100
17.15682000 -179.66909800 -1.83440500
-19.15379000 36.95140800 -0.54669400
5.03442800 228.71589700 15.61515000
-9.97263200 225.66259800 1.26042600
-4.13014100 157.93809500 5.10036600
-16.23747100 97.99501000 -1.94836800
-11.75019000 140.82000700 -3.50177000
6.64843200 228.80769300 15.48881000
-8.77775100 225.06010400 0.25081400
-1.57876600 224.56720000 -7.84729000
6.87952700 228.85339400 15.05125000
19.14596900 -97.27314800 -1.51451500
-2.40790200 123.89160200 -4.50317400
-2.02581300 223.99879500 -6.79034800
-12.13672000 140.98330700 -2.59930400
6.15917700 228.74870300 14.94221000
-6.58080300 155.28880300 -1.67486600
8.14754900 137.62460300 -7.31811500
6.82568600 139.15539600 1.92598700
-19.14991000 -15.81242000 0.46246300
0.99966400 174.14360000 -9.13745100
-3.54902600 84.25610400 -3.75708000
5.75182900 228.78190600 15.42039000
-4.41296700 199.18139600 4.71548500
0.26872300 204.94729600 -8.52533000
-7.13201000 186.83960000 -0.91196400
5.16600200 228.55529800 14.67074000
-4.06584100 200.72470100 4.98125500
-13.61495000 -151.54969800 -0.82860300
0.89529600 59.76649900 -4.26532000
20.64434100 -76.02317800 -0.97309400
21.12562900 111.74440000 -2.00975400
-13.43365000 -153.10789500 -0.96233600
-4.42476500 197.36759900 4.72936700
5.09255900 228.65440400 15.08724000
1.73884400 54.94538100 -4.22186300
-1.76308400 214.69299300 -8.38385000
-14.57841000 229.05220000 -10.71036000
21.29661000 141.23170500 -2.67132600
-18.07146100 -61.31930200 0.36516300
18.84085100 74.54376200 -0.41066900
-5.35894000 163.19070400 4.27490200
-1.20929900 -216.61850000 -2.62215000
-17.76509100 -61.82313900 0.57443900
18.87715000 73.67799400 -0.41672000
21.46777900 -26.53807100 -1.50391800
9.71800600 140.30799900 -5.75512700
12.18929000 22.65782000 1.09881600
-5.78435900 138.62199400 -6.34954800
5.94808200 194.54980500 -0.94144500
-7.20063800 182.66430700 -9.00494400
-2.67715500 -87.68765300 -2.81170700
9.83710500 140.15069600 -6.26031500
-16.33064100 101.90640300 1.17305700
-10.13604000 -192.45069900 -0.96117000
-0.25096400 153.76649500 7.08560800
-20.09997000 117.64859800 -1.06380000
-20.54079100 107.28720100 0.15155800
-7.55961600 166.62469500 -9.88189700
5.97176200 137.45120200 5.93665200
-4.66310200 222.71740700 -1.51651900
-8.37610800 224.60730000 11.00099000
-4.85013000 69.08840200 -3.41406300
-8.17778800 167.49490400 0.14819300
8.06692500 130.23320000 -4.05072000
-10.50662000 228.67669700 -13.82315000
-2.19173400 163.16720600 6.79602100
1.78125800 17.16053000 -4.02362100
6.43710800 -217.83799700 -1.80732700
7.00732400 185.78320300 -9.51330600
-1.51796000 163.50759900 8.57336400
-19.82088100 67.27893800 -0.36577600
5.98161300 -217.72489900 -1.61271200
8.59134700 166.46130400 6.88183600
11.23959000 130.08239700 -3.67315700
8.08481600 44.78525200 -3.39325000
-18.70207000 -37.66655000 0.57128800
-10.95458000 184.83529700 -1.63073700
8.39160200 129.52969400 -4.02185100
2.20867200 166.37429800 -12.93622000
-0.54498800 142.57510400 6.97319400
-18.89215100 -37.74327100 0.28828700
14.11766000 -197.85539200 -1.90577400
15.98231000 -179.24859600 -2.63660600
4.98153000 -219.76390100 -2.96824000
-3.34443700 185.96679700 9.71793400
4.24451400 215.69299300 3.13861100
14.56172000 -196.22580000 -1.95077500
-4.58625600 185.59089700 9.47579200
-17.89320900 88.32055700 -1.48060100
19.55390000 -103.91110200 -1.05125200
-15.05330000 226.37919600 8.94134300
18.15671000 63.46796000 -2.41386900
14.65508000 -195.54159500 -1.85311100
-17.90317900 86.70400200 -1.44376100
16.73226900 -182.43649300 -1.90354800
16.44183900 64.71774300 -2.61208400
-16.43110100 225.71850600 2.78776700
-11.31443000 -184.18870500 -1.28304000
-17.09804900 84.79284700 -1.61949800
-6.35251000 179.72749300 1.37745400
10.30886000 183.69030800 -3.23522900
17.04371100 228.81979400 4.12883900
0.98438500 227.13409400 -13.40184000
-6.82687800 141.10189800 -1.46270800
-3.37131500 163.06239300 -8.88690200
18.37169100 -158.66130100 -1.54970400
-16.48757900 103.33709700 -1.90890200
-6.70269600 184.01460300 8.31462200
-14.25674000 -133.89830000 0.05467100
-10.87389000 165.08949300 -2.22973600
-1.61853000 163.28909300 -12.06934000
-6.14663700 58.17733000 2.05633500
-18.68952900 46.21387100 0.52303500
-14.76504000 27.23210000 1.28272400
-2.11411300 163.44790600 -12.39819000
4.48542000 176.01100200 4.68039100
19.58225100 141.43710300 -3.37866200
-19.21768000 46.87715900 0.24581800
-8.88587200 -196.30079700 -1.01711600
20.56074000 -79.49685700 -0.89343600
-14.79220000 25.39012000 1.27133700
6.38601800 158.42460600 -2.46483200
21.26254100 87.12325300 -1.25368000
20.52998000 -78.86073300 -0.71571600
-4.34863300 -34.46331000 -2.80035400
-0.97261000 131.05070500 7.94902800
-19.93749000 77.16031600 -0.49702400
5.33801700 171.43690500 3.83095000
-11.52166000 -117.15440400 0.95242000
-20.91715000 113.21119700 -0.07644800
-19.97027000 82.82599600 -0.52577600
7.90108300 224.54640200 11.07877000
-8.84122700 182.92309600 4.34428000
-20.88625000 112.12159700 -0.05719000
4.42606800 178.67269900 4.67567200
21.63485900 48.81658900 -1.16023600
-0.51443800 159.13389600 7.02043200
21.44796000 34.19083000 -1.09667900
5.42060800 187.10240200 2.98114800
-5.90127800 190.93769800 2.43367600
-4.89504900 213.32240300 3.75164300
0.86238900 -21.18993000 -3.74481200
0.09982300 154.12500000 -9.16967800
-2.34310900 186.10009800 -12.19867000
11.17560000 223.94569400 -4.05526200
1.24317900 205.31660500 -8.26800500
11.78164000 -158.78849800 -3.01026600
6.12696800 188.31010400 -1.85186800
-19.04262900 20.40475100 0.21231800
17.91556000 228.71550000 0.49155500
-9.47435700 133.93820200 5.10417800
-15.44292000 -17.81580900 -1.25885000
-9.97541800 185.73469500 2.77258300
-2.37618300 185.67039500 -12.73322000
1.67337000 -199.08180200 0.18408200
-12.54423000 229.17619300 -15.66035000
-0.29630400 178.50070200 6.89611400
10.97883000 136.40289300 4.26952000
0.05566100 -201.12980700 -0.11448100
-6.34767200 132.13999900 -8.27447500
19.30231100 -66.14734600 -1.74644600
-16.97452900 97.75544700 1.07709100
1.75504400 -201.80090300 0.02576400
-19.13032900 227.26829500 1.81861900
20.18189000 -63.27590200 -1.56474600
4.15577700 163.38340800 6.19305400
-18.95245000 -31.53310000 0.23783600
1.84875300 194.12930300 6.14274100
18.62801000 -105.92150100 -1.68410000
-6.78677400 -105.50959800 -2.04251100
12.36943000 228.90210000 11.19975000
5.36014400 132.21470600 6.72296000
-18.89513000 -32.19168100 0.33663600
-5.03137200 218.93679800 -6.38928200
19.13291900 -105.66519900 -1.54192000
6.16320000 164.08889800 8.77075200
12.82714000 228.90669300 10.55803000
11.57709000 227.03439300 -15.48585000
0.10357200 181.62109400 6.85569200
6.65179400 -68.68853800 -3.11743200
-0.09623700 226.35879500 -19.28344900
-17.82669100 227.30490100 6.06918300
0.81685100 181.86560100 6.87169600
2.90448000 207.99400300 -7.20520000
-18.51293900 -18.30422000 -0.47717300
21.54254000 56.76982100 -1.53425400
1.08989000 182.19590800 7.10528900
19.01346000 133.23860200 -3.83982500
-18.04310000 227.70990000 5.81735800
8.02131700 183.51280200 -8.87439000
-18.28063000 -18.92292000 -0.51550300
5.60966500 222.67329400 -7.13610800
12.69838000 91.12119300 0.73034700
-5.66307100 146.28410300 -5.36962900
17.66073000 -87.09243000 -2.01240800
-10.87423000 131.92050200 -3.97064200
19.24082900 61.34859100 -0.39220100
8.94223200 90.45520800 1.37970000
-0.06073000 164.20460500 10.61523000
-0.23652200 -218.60769700 -2.08993100
-10.16667000 226.73480200 -16.97776000
0.74699400 225.18089300 15.59545000
-18.92885000 227.43519600 -6.04848000
-20.85453000 111.25330400 -0.59059100
-12.45867000 -177.30610700 -0.82793400
-8.95690400 226.45030200 -17.20673900
21.13043000 120.84410100 -1.40457100
8.64455400 58.73635100 1.46942100
0.08428200 166.26699800 -13.18073000
21.17417000 121.63569600 -1.56120000
-3.56849300 -210.39460800 -2.87051600
5.02075200 59.43642000 2.15087900
5.94179900 150.34280400 2.50587900
6.74299100 142.00239600 -2.13994300
2.47851600 -121.96690400 2.29351800
-6.63570100 146.09649700 0.41145700
18.56328000 -144.83580000 -1.13632300
-6.33256800 212.15759300 0.65571300
-5.90359900 139.96899400 -5.27624500
16.46258000 -177.04229700 -1.09282500
-14.51698000 -127.41799900 -0.06766200
-6.44314600 168.10450700 1.06427000
-5.84231800 212.49249300 1.98481600
-16.12900000 40.65827200 -1.53549400
0.49280500 35.10660900 2.84521500
-13.42758000 -165.87080400 -0.35257900
-9.93927900 227.61399800 -10.65219000
1.35829200 -159.13569600 1.53054800
-6.07638700 210.98959400 1.45004300
-13.48576000 -165.89900200 -0.52013600
16.86108000 -178.73120100 -1.39919800
-2.04749300 180.54020700 -8.95642100
10.99701000 115.54609700 1.24531600
4.04902800 141.65060400 5.80053700
21.85619900 -26.19889100 -0.77719800
-13.34293000 -166.76469400 -0.59768400
11.98269000 115.93499800 1.01348900
-15.60228000 -107.83280200 0.26566000
6.29590100 161.49440000 -2.37240800
-22.01873000 139.64709500 -1.29021300
5.85764100 228.89430200 -17.26796900
20.71406900 125.61399800 -2.35827500
2.59790600 182.32870500 7.06586600
5.28413400 167.47720300 -7.67071500
-20.56459000 90.91782400 -0.10970000
-18.73036000 -46.76910000 -0.11862600
-21.64435000 139.56359900 -1.71264600
-6.71139300 210.03419500 -2.32072600
-9.76662400 -23.68738000 -2.02801500
21.11734000 81.13902300 -1.23615100
-19.60261900 91.96627800 0.42029300
5.38590600 227.08360300 17.11292100
-6.69471700 215.26269500 -2.21289100
1.18022200 -110.79429600 -3.49334700
-3.20047000 183.63580300 -12.60187000
17.96018000 -62.14426000 -2.03754400
-6.42356900 -26.91090000 -2.51678500
5.69615900 166.19129900 -11.65851000
-10.19001000 -164.72009300 -1.98006000
9.08415500 139.47270200 3.46235500
-7.25230400 -30.66588000 -2.36035200
-17.04627000 228.47030600 8.13369100
-5.91117100 163.40609700 6.68206800
-8.85078000 -172.35679600 -2.32614600
17.63620000 -58.29428100 -2.12959700
-18.79455900 227.41270400 3.15879800
6.84755000 -217.41929600 -1.94082900
8.73918800 226.68179300 15.25115000
-6.54896300 -172.77169800 -2.70479500
-2.11863100 182.43550100 7.68405400
-19.05621900 227.89129600 2.56798700
-14.00688000 -156.26640300 -0.33165200
16.54575000 225.92709400 -2.43710900
-14.92167000 29.08953100 1.25897400
-19.27450900 227.93730200 1.90516500
-18.44094100 228.93310500 -7.61635400
-13.72653000 -129.16619900 0.31975400
1.85812400 -81.31806900 -3.63055400
-2.62562500 182.57269300 8.64323000
-18.99980900 22.70299000 0.19491200
1.61047400 -119.68190000 -3.56646700
-0.44840100 228.33770800 15.24672000
-2.08507300 69.62731900 2.55883800
-10.47846000 132.31750500 4.51186100
-3.00504300 190.03399700 -8.63193800
18.14411900 132.53849800 0.28156900
-4.16665600 145.59089700 -7.53363000
-1.66648900 168.79719500 6.66052200
21.56744000 5.09739400 -0.93863600
-19.41476100 66.71369900 0.38230900
-9.66708000 132.33129900 4.92196800
-0.42326400 168.69439700 6.87353500
2.50747300 130.60530100 -8.99359100
3.29589800 157.12130700 5.98487900
21.55364000 4.30064700 -1.00693700
-0.81104300 169.29629500 6.86511200
16.46235100 -164.29390000 -2.45234600
5.13041700 155.60150100 -6.18487500
19.78278000 37.79727200 -0.48349200
10.29001000 -208.89639300 -3.03636400
18.34050900 -154.02870200 -1.03190900
0.27276200 185.37049900 10.53064000
12.58854000 -199.80020100 -1.38598700
-13.29785000 227.10279800 -0.58269700
-9.00330400 165.05600000 6.16223100
-16.91671900 -73.67209600 0.63606700
-1.40480600 223.56680300 11.52893000
10.01597000 228.94819600 -17.06830000
1.26519800 217.29690600 -7.79522700
11.81313000 -193.99499500 -0.82713200
10.49651000 228.60040300 -17.04140100
7.75445000 182.00880400 -1.74000800
0.90874500 214.29409800 -8.06262200
12.48200000 228.66789200 -15.41879000
13.67895000 228.16099500 -5.83232700
11.99058000 -15.05936000 1.33203100
-6.76403000 163.05830400 1.54199200
-0.10587500 115.56620000 3.05517600
12.53536000 -201.66859400 -1.56857400
16.01155100 123.57510400 0.28855400
9.56361400 184.26390100 -6.32397500
8.69960000 163.45370500 2.36706500
0.09893800 163.36979700 7.44226100
20.36449100 109.42120400 -2.31752100
9.54379300 183.78520200 -6.24542200
-2.99930600 12.96497000 2.60144000
2.75721700 223.02720600 -3.72125200
-2.88057700 166.99009700 -11.54523000
1.53604900 212.51660200 -7.87591600
21.25890900 124.11049700 -1.37479700
-5.25651600 6.20421500 2.31713900
21.22069000 95.71093800 -1.81463600
3.61239600 223.96989400 -4.70404100
11.13084000 -75.56788600 1.44586200
-20.50795900 94.55551900 -0.63883800
-1.68236500 10.53140000 2.75476100
-11.17713000 226.41020200 14.06113000
9.81610100 185.35000600 -5.03790300
-18.86923000 -26.58960000 -0.18305400
13.01917000 227.30310100 11.97791000
-19.78167000 72.78295100 0.29177200
-11.40407000 226.68359400 14.53328000
-19.18302900 93.47926300 -1.16184200
-1.81142700 130.30589300 3.36549400
0.27333800 74.35542300 -4.33911100
-10.79178000 226.53529400 14.66102000
5.25123000 184.03999300 9.22560300
-1.43078800 130.25900300 3.60162500
-12.77227000 -173.30310100 -0.51448300
-6.23820500 221.33839400 -3.78375200
21.37237000 1.64575500 -0.66526500
-20.28870000 93.69138300 -0.79331000
-16.10396000 -92.71446200 0.12109000
7.65294500 182.86619600 6.66280300
21.51438000 -1.22022800 -0.71000300
-16.17374000 -93.79572300 0.17053200
6.73700600 182.73739600 7.36520600
8.14224200 163.80369600 -8.41412400
-0.76856400 57.07375000 -4.06750500
20.38888000 115.81250000 -2.35827600
-16.65926900 107.47609700 1.13538300
15.10214000 -168.88620000 -0.48517900
-6.01657100 203.18479900 -4.52134400
5.75486800 187.56610100 -3.89477500
7.97527200 185.08529700 7.02770100
-16.38250000 -86.43438700 0.26727300
-16.00495900 3.01195000 1.22676900
19.12298000 -112.25520300 -0.70807500
-5.03889500 181.33400000 -6.89624000
-6.16077600 204.28259300 -4.22111600
-16.35601000 -85.58981300 0.13890800
21.10338000 104.80470300 -1.30359100
8.76898500 184.56619300 6.21727200
5.31603100 179.21479800 3.34163900
-4.66657300 181.45759600 -7.37475600
21.19568100 44.08224900 -1.61130200
18.42141900 128.60560600 -0.05708900
-15.96475000 -85.08910400 0.62966700
-15.98784000 93.75256300 1.19349100
8.38992300 185.21989400 6.38534400
19.25684000 67.75647700 -2.24533800
-19.04320000 28.95850900 -0.53884300
-16.34262100 -86.10298200 0.45187600
-18.88686900 -11.82791000 -0.38433800
7.56134000 138.38009600 -5.14868200
3.85813900 167.88519300 5.81530800
-21.28561000 125.94969900 -0.15427000
0.21224800 116.73799900 -4.91864000
-13.79284000 -53.41545900 -1.32324400
17.97373000 -57.18578000 0.43015200
3.42385100 168.26139800 6.00805700
1.37096800 30.64376100 2.89105200
-16.39600900 -85.71762100 0.36584700
18.16064100 -132.38900800 -1.72747800
-4.37243700 -55.68848000 -2.65130600
-3.08932500 163.56379700 9.06237800
5.28185900 189.07899500 3.29051100
3.89736900 229.05079700 -19.01987100
-13.89242000 -158.60890200 -0.42582700
-19.04443900 52.10321000 0.17623300
9.88956500 163.61610400 -0.90350300
-13.84815000 -157.17219500 -0.27577900
2.99541900 229.08419800 -19.03290900
-2.58266400 163.49960300 9.07513400
17.41489000 -23.56181000 0.50826200
1.02885800 128.38240100 -5.06951900
-4.22886700 167.33500700 8.67633100
-0.54962200 225.22720300 -9.18792700
16.56320000 -18.52631000 0.60683900
-3.44593800 163.26530500 6.38580300
-5.14945200 167.36329700 7.68762200
-14.08824000 -139.72529600 -0.06608800
1.92971800 163.12809800 6.76843300
-21.34388900 126.93340300 -0.60439700
-2.78351600 163.38169900 7.31097400
20.89510000 67.22174100 -1.85322200
1.15320600 163.30220000 7.13134800
-9.86705000 -171.41209400 0.05225200
-21.27206000 126.46060200 -0.62522400
-10.74851000 -10.40703000 -1.98059100
-19.62050100 74.59808300 -0.78525000
-0.12612200 182.27870200 7.34285400
18.65689100 -129.35969500 -1.49674000
7.25277700 167.70660400 -1.12439000
-20.11306000 74.19204700 -0.53285700
-10.76800000 -184.41980000 -0.64235600
-11.59895000 -169.57440200 -0.10799400
3.14234600 105.99859600 2.71301700
-5.15961800 187.48339800 -6.90061500
2.78389000 -26.39443000 -3.74444600
-10.00395000 -184.98989900 -0.53299900
7.50379200 167.66709900 -1.65564000
-5.65422700 187.49949600 -6.23189700
2.72308300 -28.56384100 -3.75036600
14.24734000 229.22650100 -12.10669000
-0.10242400 146.06089800 7.04081900
12.55639000 133.33580000 -6.64367700
19.00976900 97.60533100 -2.51835800
0.23689700 129.65820300 3.37390100
21.27615900 105.26000200 -1.55632900
21.65500100 -20.57342000 -1.37876500
10.02315000 184.98970000 -4.74304200
-18.33042000 25.77668000 -0.76753400
20.29645900 95.58596800 -2.22305200
-1.69067200 138.58099400 6.63570300
-5.15917400 156.94560200 3.71586500
-3.39576700 167.74110400 5.97589100
21.05220000 94.20494800 -1.90736300
-1.69895000 155.20610000 6.69822200
2.97921800 -192.56759600 0.50125100
8.45266500 182.18580600 -2.32284900
20.49250000 93.89904800 -2.13596900
17.76746900 -172.76510600 -1.52754000
8.89959700 -116.96659900 -2.92144800
-5.50244800 195.78179900 3.31492200
3.28752100 136.34579500 -9.10736100
4.41005700 208.92329400 3.43261700
17.94503000 -172.00750700 -1.83914300
13.63708000 -120.78800200 -2.45544300
-4.34307900 155.58500700 -7.45983900
4.85315700 210.29899600 2.50286900
-20.81806000 133.15060400 -2.26603900
3.25468400 136.67820700 -9.02435300
-12.35847000 -176.01199300 -0.44168100
5.10991700 208.71220400 1.97631800
-8.82520300 183.18829300 -9.03356900
-0.21116600 166.03559900 11.00580000
-17.82072100 113.46579700 -1.72053000
-12.66818000 -175.49929800 -0.52919100
5.13695500 207.23750300 2.17480500
-7.32050700 139.33459500 -5.09075900
-6.88860300 167.23440600 7.31506300
5.30773900 221.25480700 0.36413600
-2.34695400 -0.89329100 -3.44036900
5.01363200 205.29010000 2.81585600
-4.21363800 153.84210200 -7.51232900
8.06250800 167.04229700 -8.25720200
-7.80999000 167.07220500 6.78582800
-3.11131300 -0.68145100 -3.25140400
21.66733000 132.62150600 -2.21066800
-9.15679900 167.30220000 -4.19482400
15.10751000 133.93660000 -5.72479200
5.69015500 221.48030100 -0.40350300
19.38622100 133.89779700 1.30294400
3.62295500 -183.28370700 0.79342700
1.77478000 -204.88290400 -4.23104900
21.65500100 131.85960400 -2.12011600
-3.17263600 154.80200200 5.93326300
-4.44101300 148.07280000 -7.22406000
9.68270900 163.39329500 -2.01947000
5.11227400 163.39599600 -10.53265000
2.38516000 182.36799600 -9.27330000
16.45233900 134.97169500 -5.30889900
17.83517100 -141.79730200 -0.63434500
-17.09240000 44.30207100 -1.30686900
-11.30898000 132.17199700 2.94492200
-20.35889100 121.09369700 0.41406700
18.23744000 -140.56170700 -0.74634700
-21.12931100 124.33329800 -0.40307600
-6.11886600 49.93829000 2.07482900
2.17376400 182.23930400 -8.94355600
-7.39983200 131.42280600 2.84900700
-7.47052800 163.10780300 0.02002000
9.85717300 140.19140600 3.27852200
-0.78660600 -117.10250100 2.14068600
4.56283600 160.56880200 -6.75976600
20.97311000 38.63213000 -0.88836300
0.92810800 186.50869800 -9.54803500
18.38600000 -139.09170500 -0.78114900
-16.53527100 -23.60500900 1.15769000
21.34281000 38.67977100 -1.12406200
20.34593000 -78.95321700 -1.33650000
1.45251500 -120.81089800 2.30737300
-19.88065900 68.70272100 -0.23699300
-1.82007600 186.55310100 -9.53289800
18.73078900 -138.89399700 -1.01382400
-14.90057000 -99.19422900 -0.55419000
-1.37989800 -121.63990000 1.97814900
-16.08252900 133.65930200 3.08503800
18.85524000 -139.75280800 -1.15551300
7.36044900 228.04789700 11.40267000
-20.21069000 88.89816300 -0.61594500
16.49930000 97.44757100 -2.87845900
-14.76195000 -106.15760000 -0.52837700
-21.46225900 133.40049700 -2.23749900
-19.55789000 89.68560000 -0.98716300
17.22884900 95.16873900 -2.78455000
6.45217800 130.81149300 2.50027000
7.73936400 227.76480100 9.90706200
-19.13150000 88.25119800 -1.08416100
-21.15431000 133.61709600 -2.49668400
2.82328800 -119.59190400 -3.61877400
16.01396000 -75.83139000 0.61326000
-8.71900600 131.63540600 2.64791400
8.39047200 228.14149500 10.83882000
6.87639800 144.30600000 -0.79231600
-16.10889100 132.64559900 -3.80922000
-8.46313900 138.03190600 -6.58264200
-18.01995100 226.48390200 2.74153800
-1.25658100 -210.55529800 -0.91992300
20.87678000 101.05609900 -2.06227300
21.32670000 118.83280200 -1.86522000
-8.86150400 137.60209700 -6.65722700
10.39790000 164.65980500 -4.03924600
-13.88218000 -126.97170300 -0.67346900
-1.43640400 -206.51210000 -0.63084300
5.16930000 147.89880400 4.27376500
-13.48517000 -128.08979800 -0.79543500
-8.70928400 130.52380400 2.08180000
20.80661000 99.62023900 -2.03334900
5.59309700 147.40919500 3.54321500
-8.22206700 131.33810400 2.28378300
-3.53403500 -206.36570700 -0.94446900
-1.43779800 185.74519300 -12.80078000
0.04389800 138.46080000 7.13146700
-1.03446200 174.82389800 6.87786900
19.96268100 99.18195300 -2.28123200
9.58537000 131.27290300 1.81840300
-0.96727000 185.53619400 -12.86200000
4.41092700 131.22880600 6.91724100
17.08416000 139.69790600 -4.56921400
13.76570000 90.88538400 -3.05948900
-0.61593200 129.95559700 -7.48522900
16.94327000 34.38340000 -2.50309600
4.72137500 131.13189700 6.56515000
11.66714000 -149.45300300 0.50967000
19.29157100 -110.45060000 -0.83198200
16.20175900 93.63646700 -2.87407600
1.42017400 201.39559900 -8.30346700
-2.66932700 130.46820100 -7.54827900
-11.60215000 140.61129800 -4.86859100
21.19437000 109.03510300 -1.90890300
8.16547400 7.76376300 1.83892800
14.94935000 -102.58370200 -2.27392500
-17.05275000 34.33523900 0.97151800
-2.38524700 100.26300000 2.69106800
21.73391000 -38.89672900 -0.57045700
4.47904300 197.35400400 4.12042400
21.34304000 83.54115300 -1.35004500
-14.23507000 133.25149500 -5.06543000
-4.74995800 95.98076600 2.34869400
-4.38240800 167.45150800 6.76886000
17.25222000 -97.87077300 -2.00581500
-18.86883900 -2.53981900 0.65299900
5.11447900 204.93739300 -4.20959500
6.45216000 182.46049500 -8.05070100
-18.97031000 -1.77997700 0.66908900
-12.99363000 -167.90139800 -0.74251400
19.60528000 -105.48300200 -1.04031400
-0.97782900 -69.39539300 -3.21765100
-20.13452000 86.28719300 0.14468900
-4.46643100 -136.64210500 1.35156300
11.32334000 227.28199800 0.80555500
-20.30569100 86.67182900 -0.03287600
9.41494800 222.84240700 -1.93984500
19.51719100 -106.88680300 -1.04700100
21.20747900 87.44442700 -1.94758200
14.13083000 -187.51789900 -1.07353300
-2.54919700 138.29260300 6.43380100
-2.36381500 166.81680300 -12.38983000
19.37660000 -105.30760200 -1.41375800
-5.98410300 204.75360100 -4.99411200
2.39209000 -189.36140400 0.63375900
-3.36809500 167.39840700 -9.00592000
12.46652000 -185.70089700 -0.60037800
20.58381100 33.36901900 -0.65219900
-20.38548100 141.15919500 -1.43528600
-4.03823900 -6.21791100 2.46551500
-3.85501100 167.27079800 -9.11633300
-20.06732000 140.96470600 -1.79995800
3.96701000 -205.41200300 -4.24380500
-20.51185000 140.84800700 -1.63393200
-17.17869900 228.70750400 -10.76016000
21.34515000 33.30284100 -0.97796900
14.74532000 97.92099000 0.42750000
3.56491100 -206.85960400 -4.29446400
-8.89061700 163.90699800 -8.42736800
7.09072100 140.19960000 -1.22839400
-7.60177600 227.06059300 -11.16776000
3.21456300 108.35720100 2.62776400
18.14209900 -166.59339900 -1.56970200
3.76126100 -89.51837200 -3.54577600
1.37963500 112.12370300 -4.82757600
-7.80891000 227.73609900 -12.90373000
8.28028100 182.35260000 -5.07074200
5.47231500 107.21600300 2.20297200
-10.26150000 186.14430200 -1.03961200
1.31539900 226.40330500 -11.51819000
3.16489200 139.44700600 6.38488800
-23.10018900 137.74839800 -0.47767400
-10.25480000 186.03700300 -3.24920700
13.35306000 -201.14010600 -1.97948000
21.94747900 132.19050600 -1.15335400
-16.82737000 13.40501000 1.08353700
19.29904000 -117.14620200 -1.02969500
-18.27141000 -18.70182000 0.78497300
1.57734700 -66.30760200 3.04553200
19.20756000 -118.14589700 -1.02189400
12.68290000 -202.75320400 -1.82416800
22.00408900 132.88549800 -0.97117400
15.11331000 -193.65809600 -1.88577900
-13.37840000 -158.38290400 -0.07260100
12.95396000 -202.70570400 -2.12856200
2.54075600 -132.43130500 -3.68978900
21.61352000 132.67860400 -0.91054300
15.29110000 -193.37840300 -2.15655600
-13.46569000 -159.73190300 -0.04248900
-17.03527100 225.58210800 -2.31225900
-2.94467200 -135.56109600 -2.77923600
-12.51357000 -160.96919300 0.02136700
-18.79690900 226.61120600 -3.00432700
21.63459000 45.96009800 -1.19338400
-5.67858500 143.70469700 -5.36492900
8.44113200 -60.74332800 2.06353800
-19.09985900 226.72000100 -1.46486700
-2.74467500 -131.36709600 -2.80429100
-5.46137200 167.30720500 -7.44757100
-5.76685000 -206.80340600 -1.58330400
-17.73086000 -55.32696200 -0.32135100
1.15374800 -68.17684900 3.02417000
11.68665000 -205.84320100 -2.78671200
-19.90809100 111.99980200 -1.07737300
-18.11865000 -54.88908000 -0.13928000
1.62528200 -8.14680400 3.03118900
-5.16915900 191.21249400 3.93388000
-20.66704000 110.77249900 -0.76654900
-13.00981000 -154.65620400 -1.11158900
2.11896500 -5.86749200 2.97625700
-0.38961800 159.67450000 -9.18469200
-18.24319100 -55.50807200 -0.01982000
8.52150000 163.16980000 -2.95556600
-6.18133600 186.55670200 3.34652500
3.00122100 160.80780000 -8.18859900
1.82454700 210.81440700 -7.77630600
17.01310000 140.75770600 1.32592800
6.98989600 70.40995000 -3.60363800
-5.46198300 186.85260000 3.63999500
3.57637800 160.71659900 -7.78430200
-9.49010500 163.49330100 2.17895500
10.21117000 185.42039500 1.73464900
15.78615000 -189.54609700 -2.30086700
3.69908700 -221.50779700 -3.21871300
-19.80072000 80.12830400 -0.41982800
-3.46205100 213.24270600 5.02969600
-9.36522700 166.26080300 5.31488000
19.54501900 -86.52677900 -0.39747300
3.08822200 -222.44909700 -3.18374000
-4.09524900 214.08239700 4.52772300
6.46682700 167.03729200 -10.26367000
-19.04620000 -10.73806000 0.58184800
-5.72392400 226.46110500 16.97734100
-20.72851900 119.67720000 0.19247500
22.10557000 -50.01363000 -1.08023000
-13.89498000 -156.76109300 -0.56704600
-1.24532300 168.31689500 6.75433300
-19.13150000 228.67950400 2.82296300
-19.19158000 43.63341900 -0.57559700
20.53694900 52.40650900 -1.98400300
20.67926000 131.59339900 -0.81931700
-16.73397100 66.65466300 -1.53980900
6.10026000 181.94780000 1.79428200
21.29073900 50.55828100 -1.74170600
-7.10884500 139.90640300 -1.90014600
6.47410000 182.16549700 1.90467100
19.11667100 -84.42691800 -0.21431500
-7.70969400 139.72779800 -2.64019800
17.76460100 -164.25920100 -1.12544900
6.35811200 182.10279800 1.36766900
6.07231100 172.42309600 1.75641400
-5.26997900 73.93253300 -3.35913100
17.83992000 -86.72622700 0.09487000
6.69746300 147.07919300 -2.40227400
2.16339100 -17.63334100 -3.83209200
-9.58005800 182.36369300 -0.91254000
-4.19874600 182.21550000 5.82700100
1.35183700 139.07060200 6.93842100
8.11958900 -213.50280800 -1.53867400
3.20249200 154.64050300 -8.18872100
7.94585700 228.79490700 14.93968000
0.84113000 139.83200100 7.02047300
2.29695100 -1.05119800 2.93658400
17.73597000 -171.29220600 -2.21511100
-6.32773600 167.78280600 -3.66430700
19.11239100 132.23140000 -0.12839800
-3.61840400 139.20739700 -7.94757100
5.60321200 158.21319600 3.12419500
7.87925700 228.81950400 14.45656000
19.43726900 -110.16980000 -1.25089400
-19.13135000 10.05864000 -0.28232600
-6.16328400 167.90629600 -4.21398900
4.10697200 -11.67997000 2.70721400
7.51160300 228.84700000 14.75843000
19.49160000 -109.43900300 -1.09857200
-18.80476000 -1.51013400 -0.50508800
12.12830000 42.90337000 0.96783400
17.36681000 228.84509300 -5.33354100
-11.74004000 -180.37350500 -1.33069900
17.62622100 -150.62590000 -2.10168500
-18.56399900 11.32292000 -0.62466100
-18.81798000 -0.50357300 -0.46273300
9.91432200 167.10450700 -1.92950400
17.07325000 228.93690500 -6.09170400
-18.77090100 10.43620000 -0.56034000
1.31604900 143.06469700 6.97965900
6.53999300 140.45419300 -3.28369100
-14.45349000 227.65969800 -14.62353000
9.53472100 186.08709700 0.16774200
-3.72226700 159.19299300 -8.09808300
-18.65460000 -5.66126800 0.67144800
-5.80975300 220.55439800 1.56646700
6.30377700 141.74800100 -3.75387400
-18.74478900 13.81639000 -0.54330600
4.66047700 163.31219500 5.41583300
9.21598100 186.20910600 -0.66497800
1.80541800 61.53231800 2.68353300
-18.60936000 12.77436000 -0.60556600
-3.52756500 171.38020300 5.84527600
2.30881600 -218.88420100 -1.30356500
-3.71402700 162.40570100 -8.06994600
7.45301800 -106.52510100 -3.06097400
-6.37288000 -200.07029700 -0.91014800
-7.26982100 163.06190500 -9.13885500
-3.06645200 173.28810100 6.12756300
-5.36644000 170.33670000 -6.62109400
16.39714100 99.42285900 -2.89775300
-3.95645900 162.75880400 -8.08483900
6.71096800 186.61160300 -1.19915800
21.43578900 5.43832200 -0.79610400
21.20023000 -8.35305900 -0.61096100
6.02645900 163.16709900 -5.35974100
11.32196000 228.87170400 11.68158000
-13.07262000 227.85380600 -16.10593000
18.78764900 -123.85630000 -0.88379500
-6.61752600 190.07919300 -2.74175700
-21.20181100 128.40400700 0.13355000
1.00796500 -38.74128000 3.08142100
19.78650100 55.85570900 -0.52414900
16.86684000 110.01590000 -2.97022700
-13.98791000 -124.34750400 0.41124500
5.26956900 218.18890400 -1.81781000
-9.77130000 226.94259600 15.77531000
22.11185100 140.40080300 -0.74069900
7.81492000 96.63417100 -3.71575900
3.97741600 196.40710400 4.66807900
-19.20392000 -6.63818300 0.49505600
-4.72369900 228.69569400 16.27123100
-10.50346000 226.63200400 15.04329000
-4.21712400 -210.25369300 -2.10091600
-19.45713000 -6.16794500 0.32983400
-21.38917000 132.79060400 0.53404200
-8.14904000 39.62889900 -2.71429400
-13.91738000 -145.11239600 0.01641800
4.47224500 181.72740200 -6.74129600
-19.40196000 -9.99173100 0.32489000
-13.99026000 -151.04649400 -0.53106100
-7.52988600 182.17680400 2.98294400
14.89561000 228.33680700 -1.96546600
-2.09948100 221.91450500 1.17737700
-1.31061500 206.50750700 6.16398300
-14.13558000 -151.31390400 -0.32813300
-16.54163000 228.75830100 -2.10833100
5.28250100 186.38690200 -9.79626500
19.37653000 -101.30960100 -0.88329400
-3.26437400 227.92379800 -15.58557000
-6.64759900 228.14340200 -14.88665000
4.76437400 186.41589400 -9.98712200
-18.83544900 60.74338200 -0.84488000
2.92730700 -100.48660300 -3.63720700
2.35703300 167.99809300 6.61334200
-4.43063400 228.64740000 -17.42456100
-0.49030300 63.27138900 -4.13067600
-19.44067000 61.29150000 -0.56457700
-5.99186700 220.48109400 -4.02795400
9.04399200 229.06750500 -17.53019000
-5.89701800 227.85159300 -14.49896000
18.70771000 -87.12818100 -1.82487200
8.40186300 167.17860400 5.31481900
-20.86856100 104.25859800 -0.33521200
16.95492900 226.21099900 -3.10386200
-1.48294100 167.16459700 10.10675000
-5.93733200 228.40150500 -16.05547900
0.62550500 55.51952000 2.79425000
19.49172000 -86.36036700 -1.60625200
-0.30362700 167.31500200 9.21673600
4.74855000 168.10780300 4.79119900
-20.99188000 108.69210100 -0.27441100
-18.25441000 227.74890100 5.08513500
7.92676400 182.41349800 -6.03208400
-11.71656000 -182.13099700 -0.61544400
1.06999200 -46.16717900 3.10137900
-1.43435700 164.74079900 10.76782000
-20.25226000 90.12017800 -0.73522100
1.30474900 -50.12514900 -3.64929200
-20.99062000 131.82370000 -0.98866400
-0.39341000 163.18660000 -10.55866000
-12.75342000 132.66619900 3.76803600
-15.08194000 5.33450200 -1.45811900
1.90226700 -48.24036000 3.11016800
18.87636900 -125.83860000 -1.10639200
-16.50490000 227.42979400 9.23608800
-9.15935900 139.91099500 3.09246800
1.86660800 -45.45750000 3.09161400
-22.25099900 139.99380500 -0.76837400
-0.03128100 163.89950600 10.34277000
18.81263000 -125.10440100 -0.92514300
-16.20745100 -83.75875100 -0.16878600
-14.25495000 -129.20289600 -0.20269500
-0.35177300 148.99809300 7.03155600
2.02970900 -22.89104100 3.05059800
1.62768600 156.55090300 -8.92120400
11.14029000 132.43919400 4.20382900
18.51602000 -133.05450400 -0.89510100
-3.21502700 219.68530300 4.97558600
-3.48911700 122.68229700 2.62811300
4.74554400 162.76069600 -7.03961200
-20.67811000 101.47630300 -0.00812700
18.13752900 -132.18519600 -0.68917000
-5.73068800 131.47349500 5.90798500
19.38005100 -112.08950000 -0.96231600
1.96667700 221.93280000 5.52623100
3.58491500 -150.14460800 -3.74191300
-20.65864900 99.89718600 0.08683000
-6.18508800 201.12800600 -1.19196600
-20.48756000 124.71360000 0.35168000
6.15473800 189.73800700 -0.41705800
-9.08309400 225.84509300 3.63873900
3.34567300 -148.52059900 -3.76843300
-20.18796900 99.78221900 0.36852900
-10.18783000 226.07330300 2.84168000
-6.30687900 200.05909700 -0.86157400
-3.33547700 -211.47470100 -1.57556100
6.21524800 179.69709800 -1.84533600
17.77784000 85.45084400 -2.59971600
-10.32603000 139.48309300 4.26598000
21.08226000 120.08439600 -1.30641600
2.38391900 119.28099800 2.89141800
-6.95605400 -202.53550700 -1.24871400
-5.37220800 167.37280300 6.91058300
8.01539600 167.51750200 0.41479500
-10.56435000 164.03270000 -1.57952900
-6.62950600 -201.80900600 -1.14347400
16.10433000 88.00103000 -2.82580700
-10.47585000 184.13200400 -5.82757600
1.54160400 181.78379800 -8.88023800
9.60192900 166.09260600 5.68438700
-3.44914200 168.12770100 -8.46221900
17.80234000 87.77124800 -2.65789400
4.24222600 212.32189900 -5.45105000
-21.13534900 118.67639900 -0.18036100
-3.47221400 167.74519300 -8.62616000
-11.80652000 223.19239800 -0.44669900
9.49852400 139.70900000 -6.60095200
-15.97220000 37.12741100 1.15241800
-3.64261600 167.76440400 -8.33075000
21.59041000 0.08503500 -1.46374400
21.88199000 -45.24694100 -1.33623300
6.45982000 138.42230200 -5.33935500
-4.71776800 178.01829500 4.69319200
2.51586900 193.13870200 -8.03308100
-0.64890400 98.38588000 -4.52337600
-18.15316000 -38.32405900 0.77831400
-6.55043000 43.00098000 2.03344700
20.45939100 -66.37870800 -1.41644200
-4.33913000 179.02209500 5.10845100
-16.22740000 -89.11074100 0.06516500
-5.00838900 39.22449100 2.21252400
-19.32969100 -3.25170500 -0.17368500
-11.71291000 -108.35880300 1.05669400
3.52511600 -187.24910000 -4.19888300
0.30223800 181.62730400 -9.09777800
-19.50333000 227.77040100 0.40810800
-4.43476300 142.05769300 4.60300600
9.52909900 185.66130100 -5.10125700
-18.60384000 -39.38357900 -0.25398900
-4.48471800 173.03500400 4.95324700
18.29240000 39.09629800 -0.11521600
-4.59577600 43.99831000 2.25030500
21.40625000 70.54009200 -1.60425400
-8.04527300 139.76370200 -3.97283900
-19.14279000 60.98458100 0.37415400
5.00368500 193.46389800 -5.33648700
-17.47254900 -69.36006200 0.51575800
15.37151000 -123.68430300 0.14650100
19.43516000 -102.33940100 -1.28456200
21.47821000 -9.54030500 -1.41317000
-1.59011200 196.67739900 6.37298000
19.23344000 -117.83029900 -1.28468200
4.97045400 182.92669700 8.80050900
18.16548900 -170.59860200 -2.02810200
-6.58028900 207.45509300 -0.54939900
18.67660000 -119.36740100 -1.64565900
4.45708500 182.65660100 8.61595200
21.59289900 -10.71830000 -1.27586700
1.35305800 -106.43540200 2.56726100
18.08958100 -170.28590400 -2.09393600
18.95484000 -119.77600100 -1.47791200
10.74929000 131.34429900 -3.87060500
1.79827900 -185.17210400 -4.08822600
-2.02354400 -106.26760100 2.20861800
-3.14254700 221.81869500 5.70362300
-6.45231600 158.40770000 0.83740200
-6.33219900 223.92100500 -12.42029000
11.21584000 -16.60174000 -2.81213400
22.02207900 -40.51192100 -1.22368000
-2.80662400 221.43980400 5.22925200
-6.71285100 -204.20249900 -1.79699700
5.31034900 220.68550100 -0.58221400
