-3.48130000 -1.38910000 0.07020000
-3.36290000 -1.39300000 0.09500000
-3.47310000 -1.37560000 0.12240000
-3.16000000 -1.40030000 0.06260000
-3.07220000 -1.38630000 0.03700000
-3.01870000 -1.40800000 0.06620000
-3.09250000 -1.40520000 0.09720000
-3.01250000 -1.37360000 0.02180000
-3.25320000 -1.39850000 0.09890000
-3.18960000 -1.38910000 0.12020000
-3.34090000 -1.36030000 0.14040000
-2.83310000 -1.34060000 -0.00340000
-2.70120000 -1.41630000 0.06040000
-2.79100000 -1.40250000 0.04190000
-2.85270000 -1.37950000 0.01980000
-2.81570000 -1.41160000 0.09400000
-2.95070000 -1.39920000 0.04400000
-3.03150000 -1.30950000 -0.00970000
-2.88560000 -1.41190000 0.07250000
-2.93780000 -1.40220000 0.10860000
-2.96620000 -1.34730000 0.15240000
-2.76700000 -1.38790000 0.12760000
-3.02040000 -1.37870000 0.13220000
-3.13020000 -1.30100000 0.17270000
-3.38530000 -1.23730000 0.19230000
-2.41740000 -0.66950000 0.33910000
-3.17750000 -1.35580000 0.14530000
-4.36650000 -0.54510000 0.37310000
-2.67420000 -1.40110000 0.11800000
-3.52040000 -1.36590000 0.03760000
-3.59860000 -1.37290000 0.06470000
-3.68080000 -1.36820000 0.09760000
-3.65810000 -1.35130000 0.03760000
-3.54950000 -1.38090000 0.10050000
-3.58980000 -1.35210000 0.13200000
-3.67970000 -1.33860000 0.13960000
-3.56560000 -1.31350000 0.16190000
-3.75310000 -1.36730000 0.06490000
-3.78130000 -1.35560000 0.12590000
-3.86110000 -1.36930000 0.09900000
-3.83590000 -1.27980000 0.17550000
-4.36640000 -1.16040000 0.21410000
-1.07010000 -1.47030000 0.01380000
-0.95970000 -1.48820000 0.02270000
-0.96620000 -1.50630000 0.07530000
-1.05060000 -1.49990000 0.05120000
-1.04370000 -1.47140000 0.10490000
-1.16870000 -1.48810000 0.04180000
-1.25580000 -1.46970000 0.02480000
-1.32810000 -1.47740000 0.04790000
-1.26180000 -1.48590000 0.07820000
-1.14910000 -1.49010000 0.08370000
-1.24810000 -1.42860000 0.12390000
-1.28420000 -1.46660000 0.10360000
-0.93110000 -1.49420000 0.09280000
-1.39660000 -1.47060000 0.07760000
-1.40780000 -1.44010000 0.11190000
-1.04650000 -0.91370000 0.26790000
-4.90150000 -1.17810000 -0.01280000
-5.03770000 -1.30400000 0.04940000
-4.91750000 -1.25620000 0.01930000
-5.39410000 -1.22570000 0.01650000
-5.10170000 -1.27620000 0.03390000
-5.21900000 -1.30560000 0.05440000
-5.15830000 -1.32900000 0.07690000
-4.46620000 -1.31030000 0.03430000
-4.61860000 -1.33790000 0.05140000
-4.73550000 -1.30030000 0.03530000
-4.51180000 -1.34800000 0.06220000
-4.60760000 -1.35920000 0.09370000
-4.72070000 -1.34770000 0.08130000
-4.78310000 -1.32390000 0.05790000
-4.70060000 -1.34720000 0.12380000
-4.39910000 -1.35220000 0.07730000
-4.41830000 -1.32040000 0.15310000
-4.43610000 -1.35510000 0.11540000
-4.49350000 -1.36040000 0.10850000
-4.57100000 -1.33360000 0.14540000
-4.66530000 -1.29260000 0.16680000
-4.92510000 -1.31100000 0.05860000
-4.85470000 -1.32900000 0.08220000
-4.95160000 -1.32520000 0.10940000
-4.78970000 -1.34260000 0.11020000
-4.80490000 -1.32670000 0.13520000
-4.87910000 -1.26920000 0.17180000
-5.03980000 -1.19770000 0.20380000
-4.92320000 -1.30690000 0.14240000
-5.04130000 -1.33340000 0.09030000
-5.07300000 -1.31990000 0.14270000
-5.05660000 -1.26890000 0.17630000
-5.14010000 -1.33830000 0.11430000
-5.16380000 -1.31720000 0.14840000
-3.01910000 -0.23860000 0.37680000
-5.31600000 -1.32320000 0.07970000
-5.37620000 -1.27700000 0.04040000
-5.25040000 -1.33390000 0.10910000
-5.41420000 -1.32680000 0.10510000
-5.47360000 -1.29270000 0.05550000
-5.27830000 -1.32200000 0.13760000
-5.39210000 -1.30130000 0.15450000
-5.59890000 -1.29870000 0.08010000
-5.64830000 -1.25150000 0.03970000
-5.53010000 -1.31200000 0.11740000
-5.47600000 -1.31460000 0.08490000
-5.62670000 -1.29290000 0.14230000
-5.43270000 -1.32110000 0.12500000
-5.54730000 -1.26830000 0.16700000
-5.29320000 -1.25450000 0.18270000
-5.64450000 -1.15970000 0.21260000
-5.61590000 -1.23320000 0.18530000
-5.79590000 -1.29800000 0.09500000
-5.81130000 -1.27070000 0.05720000
-5.70050000 -1.28480000 0.06610000
-5.86730000 -1.24330000 0.03920000
-5.97310000 -1.26870000 0.05790000
-6.07010000 -1.28530000 0.08550000
-6.07910000 -1.25280000 0.05090000
-5.90880000 -1.28840000 0.08280000
-5.85010000 -1.29330000 0.12720000
-5.93460000 -1.27650000 0.15100000
-6.01560000 -1.28950000 0.11940000
-6.03930000 -1.26550000 0.15680000
-5.99120000 -1.20230000 0.19790000
-5.90510000 -1.24060000 0.18090000
-5.73350000 -1.30390000 0.11580000
-5.75580000 -1.28090000 0.15200000
-5.95920000 -1.06610000 0.24070000
-6.19260000 -1.27390000 0.07810000
-6.16540000 -1.29170000 0.11810000
-6.20380000 -1.27590000 0.15380000
-6.27790000 -1.29110000 0.10820000
-6.10260000 -1.28390000 0.13770000
-6.12700000 -1.24000000 0.17850000
-6.19680000 -1.18130000 0.20280000
-6.34660000 -1.24190000 0.18030000
-6.35220000 -1.29670000 0.12590000
-6.29410000 -1.29070000 0.13450000
-6.38160000 -1.28510000 0.15130000
-6.46160000 -1.26390000 0.16830000
11.17590000 -0.39280000 -0.28960000
11.19690000 -0.29540000 -0.31440000
11.24830000 -0.33710000 -0.27030000
10.02400000 -0.25470000 -0.33820000
9.46160000 -0.25940000 -0.34080000
9.51190000 0.20950000 -0.36580000
10.89900000 -0.01940000 -0.35110000
11.15250000 -0.08610000 -0.33500000
11.02020000 -0.41160000 -0.32650000
11.08370000 -0.46770000 -0.31380000
11.12790000 -0.31090000 -0.32640000
10.78730000 -0.74830000 -0.29900000
10.59030000 -0.22000000 -0.33800000
10.26530000 -0.72910000 -0.30130000
10.52810000 -0.93050000 -0.28520000
10.27100000 -0.93990000 -0.28400000
9.98760000 -0.88730000 -0.29430000
9.89920000 -0.95660000 -0.27850000
9.52410000 -0.82000000 -0.30400000
10.15470000 -0.97420000 -0.27390000
10.08160000 -1.00410000 -0.25720000
9.90730000 -1.00460000 -0.25010000
10.02580000 -1.03440000 -0.22060000
9.93040000 -1.04100000 -0.18810000
9.84920000 -1.02960000 -0.21120000
9.57900000 -0.97920000 -0.25810000
9.48680000 -0.90610000 -0.29080000
9.72380000 -0.96650000 -0.27180000
9.74050000 -0.91410000 -0.28950000
9.47980000 -1.00000000 -0.23550000
9.43040000 -0.95310000 -0.27490000
9.41740000 -0.97610000 -0.25880000
9.72160000 -1.00510000 -0.23970000
9.83380000 -1.04140000 -0.15950000
9.72330000 -1.03340000 -0.16570000
9.65650000 -1.02740000 -0.19710000
9.75260000 -1.03150000 -0.12790000
9.58670000 -1.01250000 -0.22270000
9.56100000 -1.02780000 -0.16590000
9.49620000 -1.02010000 -0.19260000
9.46880000 -1.01930000 -0.12790000
9.61900000 -1.01770000 -0.10950000
9.72020000 -1.00390000 -0.08670000
9.55660000 -0.96350000 -0.06270000
9.77320000 -0.96370000 -0.05820000
9.56260000 -0.91670000 -0.04500000
9.44100000 -0.98670000 -0.07160000
9.43970000 -0.63330000 -0.31380000
9.54850000 -0.87120000 -0.00470000
9.78350000 -0.92020000 -0.03550000
9.66590000 -0.85980000 0.02010000
11.23500000 -0.78330000 -0.17980000
11.24460000 -0.78170000 -0.12660000
11.20340000 -0.82280000 -0.22060000
11.19480000 -0.69260000 -0.26820000
11.18350000 -0.59460000 -0.28770000
11.22590000 -0.61570000 -0.26460000
11.24850000 -0.54950000 -0.23680000
11.20310000 -0.53010000 -0.26870000
11.23020000 -0.71640000 -0.23140000
11.25870000 -0.65060000 -0.20610000
11.27710000 -0.40720000 -0.22960000
11.22010000 -0.44990000 -0.25440000
11.28790000 -0.36850000 -0.22300000
11.28370000 -0.46160000 -0.20180000
11.28430000 -0.56200000 -0.16710000
11.30480000 -0.37250000 -0.16160000
11.29580000 -0.47260000 -0.12230000
11.27430000 -0.66180000 -0.12800000
11.26670000 -0.67740000 -0.08950000
11.27750000 -0.54330000 -0.07870000
11.29550000 -0.38800000 -0.05970000
10.27940000 -1.03920000 -0.22910000
10.35030000 -0.99640000 -0.26670000
10.38680000 -1.03220000 -0.24140000
10.37330000 -1.06310000 -0.18770000
10.46330000 -1.07230000 -0.17250000
10.38190000 -1.07370000 -0.13990000
11.07100000 -0.80940000 -0.28130000
10.91760000 -0.92650000 -0.28520000
11.02810000 -0.72790000 -0.29720000
10.84570000 -0.97180000 -0.27930000
10.74270000 -1.00630000 -0.26530000
11.09000000 -1.00180000 -0.20920000
11.02800000 -1.03650000 -0.21870000
10.99010000 -0.98230000 -0.26390000
10.94250000 -1.05610000 -0.21900000
10.96230000 -1.07660000 -0.17760000
11.04990000 -1.07030000 -0.15460000
11.11440000 -1.03730000 -0.14570000
11.00980000 -1.07970000 -0.12770000
11.13450000 -0.92720000 -0.22090000
11.11260000 -0.88900000 -0.25040000
11.14380000 -0.78990000 -0.26320000
11.16700000 -0.94360000 -0.18200000
11.16570000 -0.98150000 -0.14230000
11.19580000 -0.92770000 -0.11920000
11.21310000 -0.88260000 -0.16600000
11.21310000 -0.84460000 -0.07920000
10.84730000 -1.07550000 -0.19360000
10.88310000 -1.03460000 -0.24840000
10.72090000 -1.05380000 -0.22440000
10.69520000 -1.08100000 -0.16830000
10.86650000 -1.08990000 -0.14750000
10.95200000 -1.08200000 -0.10330000
10.79860000 -1.09110000 -0.11250000
10.87090000 -1.07700000 -0.07080000
11.14470000 -0.49750000 -0.29460000
11.12020000 -0.60030000 -0.30190000
11.22840000 -0.74440000 -0.04410000
11.24580000 -0.65110000 -0.04790000
11.20280000 -0.68150000 -0.01180000
11.25480000 -0.47790000 -0.02400000
11.18060000 -0.56890000 0.00980000
11.22150000 -0.37820000 0.01400000
11.12760000 -0.71580000 0.03540000
11.13800000 -0.53390000 0.03250000
10.99130000 -0.73530000 0.06500000
11.05530000 -0.73760000 0.06040000
11.03580000 -0.52370000 0.04870000
10.81450000 -0.63240000 0.05950000
10.92980000 -0.80180000 0.06320000
11.14670000 -0.37940000 0.02910000
10.55350000 -1.01270000 -0.25830000
10.54140000 -1.05350000 -0.21590000
10.59900000 -1.08540000 -0.13740000
10.71780000 -1.08750000 -0.07900000
10.78950000 -1.06530000 -0.04020000
10.70920000 -1.04830000 -0.01840000
10.65930000 -1.08120000 -0.05770000
10.58660000 -1.06350000 -0.04000000
10.56170000 -1.08360000 -0.09680000
10.60730000 -1.02500000 -0.01330000
10.59290000 -0.97170000 -0.00170000
10.75060000 -1.00280000 -0.01020000
10.90630000 -0.98530000 -0.01820000
10.59920000 -0.91430000 0.02650000
10.88320000 -0.91370000 0.02310000
10.79760000 -0.84940000 0.05290000
10.45610000 -1.07330000 -0.09160000
10.49360000 -1.05060000 -0.04430000
10.35940000 -1.05380000 -0.06250000
10.43750000 -1.00710000 -0.02290000
10.36930000 -0.94520000 -0.00010000
10.28680000 -0.80030000 0.07030000
10.72890000 -0.77720000 0.06610000
10.25140000 -0.73560000 0.07870000
10.26190000 -0.20530000 0.04790000
10.67380000 -0.41460000 0.05170000
10.60690000 -0.19260000 0.04170000
10.38720000 -0.68240000 0.07150000
11.07870000 -1.04920000 -0.09710000
10.97420000 -1.04160000 -0.05590000
11.13750000 -1.00990000 -0.09200000
11.13780000 -0.94400000 -0.05130000
11.17080000 -0.86150000 -0.03410000
11.03430000 -0.97410000 -0.03630000
11.13000000 -0.85070000 0.00270000
11.07580000 -0.89700000 0.00360000
10.86520000 -1.02730000 -0.02690000
10.98750000 -0.89730000 0.02230000
11.16480000 -0.77870000 0.00400000
11.09590000 -0.81150000 0.03920000
11.04450000 -0.82160000 0.05200000
10.16850000 -1.05090000 -0.19650000
10.26980000 -1.06580000 -0.14990000
10.28210000 -1.06420000 -0.10410000
10.14900000 -1.05800000 -0.13200000
10.15900000 -1.05050000 -0.09270000
10.04300000 -1.05140000 -0.17640000
10.00870000 -1.04640000 -0.11260000
9.95040000 -1.04690000 -0.13880000
10.08690000 -1.03650000 -0.07200000
9.97060000 -1.01350000 -0.06080000
9.88540000 -1.03480000 -0.10120000
9.81360000 -1.01790000 -0.08280000
10.23480000 -1.03410000 -0.04800000
10.10420000 -0.99930000 -0.03930000
10.23870000 -0.98420000 -0.02300000
10.11770000 -0.95270000 -0.02520000
10.03950000 -0.91600000 -0.00660000
10.04730000 -0.85830000 0.04430000
9.98210000 -0.97020000 -0.04190000
9.94940000 -0.88010000 0.02140000
9.88470000 -0.59440000 0.07960000
10.06250000 -0.81110000 0.06740000
10.29380000 -0.54910000 0.06170000
9.85810000 -0.27850000 0.06030000
9.66710000 -0.81960000 0.05530000
9.77550000 -0.77400000 0.08090000
9.88250000 -0.71900000 0.09110000
9.53740000 -0.74310000 0.08440000
9.48870000 -0.62830000 0.09330000
9.63200000 -0.71300000 0.08960000
11.27440000 0.05610000 -0.31790000
11.21980000 0.06040000 -0.32910000
11.23840000 0.21220000 -0.30390000
11.21070000 -0.25240000 -0.31200000
11.20530000 -0.14800000 -0.32150000
11.24420000 -0.19130000 -0.27880000
11.25130000 -0.28130000 -0.27080000
11.25460000 -0.23640000 -0.24740000
11.26510000 -0.09750000 -0.29530000
11.29290000 -0.09350000 -0.24270000
11.27460000 -0.18640000 -0.18240000
11.31020000 -0.09030000 -0.18070000
11.26770000 -0.03610000 -0.31450000
11.30500000 0.02880000 -0.30110000
11.32730000 0.00560000 -0.26220000
11.35960000 0.16120000 -0.24900000
11.37830000 0.11920000 -0.19270000
11.39170000 0.08170000 -0.12450000
11.30160000 0.17970000 -0.29020000
11.32470000 0.32130000 -0.27390000
11.28170000 0.38810000 -0.27330000
11.35890000 0.24730000 -0.25760000
11.24940000 0.50510000 -0.26440000
11.24620000 0.55670000 -0.25230000
11.33760000 0.51840000 -0.21870000
11.39360000 0.36760000 -0.22770000
11.38710000 0.43690000 -0.22170000
11.42220000 0.42640000 -0.18710000
11.41370000 0.46900000 -0.16050000
11.39620000 0.49500000 -0.19960000
11.41380000 0.29240000 -0.19740000
11.42340000 0.25870000 -0.15950000
11.42550000 0.19930000 -0.12290000
11.42760000 0.18510000 -0.09300000
11.43240000 0.35880000 -0.16800000
11.44140000 0.33640000 -0.12360000
11.43280000 0.40480000 -0.13580000
11.43680000 0.34290000 -0.10070000
11.38710000 0.40530000 -0.09960000
11.37530000 0.47450000 -0.13860000
11.30550000 0.47850000 -0.11860000
11.31190000 0.41310000 -0.08590000
11.32930000 0.35140000 -0.06560000
11.43880000 0.27300000 -0.09390000
11.39780000 0.31630000 -0.06000000
11.31490000 0.27600000 -0.04810000
11.42430000 0.20360000 -0.06980000
11.39640000 0.23520000 -0.05080000
11.35130000 0.19370000 -0.04440000
11.27200000 0.56800000 -0.20270000
11.36270000 0.51570000 -0.17560000
11.29330000 0.51940000 -0.14730000
10.24930000 0.58700000 -0.32290000
10.09740000 0.52210000 -0.34960000
9.97480000 0.57450000 -0.33020000
10.11200000 0.61220000 -0.29430000
9.86160000 0.61050000 -0.29270000
9.92930000 0.64940000 -0.22140000
9.47670000 0.48170000 -0.35400000
9.59530000 0.53660000 -0.34660000
9.84210000 0.53140000 -0.34870000
9.93940000 0.43730000 -0.35300000
9.99470000 0.32440000 -0.36100000
9.78540000 0.57070000 -0.33180000
9.70780000 0.63840000 -0.23950000
9.77030000 0.66500000 -0.17440000
9.56350000 0.58390000 -0.31850000
9.39110000 0.61400000 -0.27660000
9.57520000 0.66370000 -0.16260000
9.69860000 0.67010000 -0.12740000
9.58410000 0.66180000 -0.08190000
11.01580000 0.14830000 -0.35530000
10.53390000 0.24020000 -0.36220000
11.04230000 0.31670000 -0.34910000
11.05440000 0.47460000 -0.33350000
11.12910000 0.45240000 -0.31370000
10.99910000 0.54400000 -0.33950000
11.00770000 0.59340000 -0.32510000
11.07520000 0.57650000 -0.32530000
11.07510000 0.62050000 -0.29760000
11.14320000 0.55160000 -0.30800000
11.15460000 0.59650000 -0.28930000
10.93520000 0.32910000 -0.35740000
10.89210000 0.45740000 -0.34560000
10.86360000 0.55250000 -0.34130000
10.98870000 0.63850000 -0.27950000
10.88020000 0.62050000 -0.30360000
10.77720000 0.59520000 -0.32530000
10.90120000 0.65770000 -0.24030000
10.59170000 0.62450000 -0.29070000
10.67530000 0.56930000 -0.33600000
10.71410000 0.63860000 -0.27520000
10.36430000 0.53410000 -0.34480000
10.44670000 0.56980000 -0.33440000
10.62090000 0.53040000 -0.34450000
10.40580000 0.45870000 -0.34870000
10.47290000 0.60720000 -0.30810000
10.52680000 0.66700000 -0.20500000
10.37550000 0.64200000 -0.25570000
10.32930000 0.66890000 -0.18730000
10.70080000 0.67100000 -0.20100000
10.56140000 0.68030000 -0.14360000
10.45390000 0.67610000 -0.10410000
10.43300000 0.67850000 -0.15500000
10.47290000 0.65190000 -0.06440000
10.59450000 0.64340000 -0.05860000
10.52710000 0.59240000 -0.03320000
10.67730000 0.62130000 -0.04620000
11.12610000 0.12640000 -0.33900000
11.18140000 0.36420000 -0.30120000
11.26970000 0.16740000 -0.03650000
11.22830000 0.32320000 -0.04490000
11.15730000 0.12640000 -0.01240000
11.21560000 0.41650000 -0.05610000
11.20990000 0.48530000 -0.07390000
11.11710000 0.43290000 -0.03740000
11.14770000 0.48860000 -0.04950000
11.01800000 0.40220000 -0.03030000
10.96740000 0.09400000 0.00120000
10.67160000 0.11970000 0.00520000
10.61850000 0.45090000 -0.02320000
11.06770000 -0.13770000 0.01540000
10.78330000 0.55260000 -0.03330000
10.74640000 0.58540000 -0.03560000
10.41240000 0.53830000 -0.02270000
10.41310000 0.23340000 0.00360000
11.18770000 0.62710000 -0.23370000
11.09830000 0.65110000 -0.24560000
11.15190000 0.65550000 -0.18250000
11.06820000 0.67310000 -0.16000000
10.92150000 0.67430000 -0.18550000
10.94390000 0.67420000 -0.11030000
10.83740000 0.67890000 -0.12750000
10.75950000 0.68080000 -0.15230000
10.67790000 0.67860000 -0.12000000
10.80560000 0.65290000 -0.07190000
10.72420000 0.66850000 -0.09030000
10.56760000 0.67000000 -0.09030000
11.18680000 0.63170000 -0.16140000
11.23470000 0.57640000 -0.15390000
11.15510000 0.61530000 -0.10310000
11.09820000 0.65970000 -0.11650000
11.20450000 0.55120000 -0.10380000
11.14100000 0.55870000 -0.06290000
11.02810000 0.66080000 -0.08940000
11.06250000 0.62750000 -0.06620000
10.95600000 0.64660000 -0.06990000
10.89050000 0.60700000 -0.04720000
11.06510000 0.55770000 -0.04390000
10.08700000 0.65590000 -0.21000000
10.31460000 0.67780000 -0.11570000
10.22400000 0.67830000 -0.13600000
10.11600000 0.67320000 -0.15080000
10.12910000 0.67330000 -0.10280000
10.19450000 0.66160000 -0.07390000
9.99580000 0.65460000 -0.06170000
10.08080000 0.63080000 -0.04210000
10.32400000 0.65560000 -0.06610000
10.35340000 0.62210000 -0.04030000
10.26130000 0.59230000 -0.02900000
10.24790000 0.41230000 -0.01040000
9.88020000 0.46880000 -0.00560000
9.86090000 0.23060000 0.02010000
10.11710000 0.53620000 -0.01690000
10.20580000 0.62210000 -0.03930000
10.02960000 0.59580000 -0.02270000
9.91560000 0.67250000 -0.14250000
9.93080000 0.66910000 -0.09010000
9.81800000 0.67050000 -0.10090000
9.80850000 0.64600000 -0.05190000
9.90580000 0.62780000 -0.03380000
9.80320000 0.60000000 -0.01990000
9.91230000 0.56830000 -0.01280000
9.67020000 0.61160000 -0.02230000
9.67360000 0.55960000 -0.00400000
9.50100000 0.51480000 0.00310000
9.70730000 0.65800000 -0.07180000
9.59640000 0.63620000 -0.04110000
9.50620000 0.22540000 0.03200000
9.89590000 0.00160000 0.04370000
11.28360000 -0.32260000 -0.21560000
11.27660000 -0.24800000 -0.17190000
11.30110000 -0.25030000 -0.08810000
11.30480000 -0.32000000 -0.07190000
11.31730000 -0.12630000 -0.09040000
11.33750000 -0.05940000 -0.12480000
11.36150000 -0.00450000 -0.09950000
11.33400000 -0.05970000 -0.06010000
11.32760000 -0.02980000 -0.04530000
11.31640000 -0.14280000 -0.05350000
11.37900000 0.06600000 -0.06900000
11.33410000 0.06820000 -0.04480000
11.39000000 0.14820000 -0.05290000
11.30300000 -0.23670000 -0.02550000
11.22390000 -0.10020000 -0.00150000
11.26790000 0.01240000 -0.02640000
11.28040000 -0.21920000 0.00070000
11.29040000 -0.10880000 -0.01940000
11.20900000 -0.22820000 0.01770000
11.27820000 -0.33880000 -0.01050000
7.28480000 0.50330000 -0.36160000
7.36430000 0.56000000 -0.34210000
7.59510000 0.51270000 -0.35920000
7.39350000 0.44190000 -0.36630000
7.69340000 0.57870000 -0.32580000
7.62770000 0.55180000 -0.34600000
7.46840000 0.61560000 -0.27740000
7.42930000 0.58670000 -0.31950000
7.27140000 0.61250000 -0.28640000
6.25420000 0.29900000 -0.38750000
6.48330000 0.46020000 -0.37430000
7.46920000 0.30760000 -0.37480000
7.38490000 0.05370000 -0.37040000
7.02600000 0.53820000 -0.35470000
7.19120000 0.55010000 -0.34850000
7.15190000 0.59640000 -0.30960000
7.12230000 0.65070000 -0.21560000
6.75880000 0.51880000 -0.36340000
6.90340000 0.59420000 -0.31530000
6.77550000 0.64060000 -0.24250000
7.35240000 -0.29610000 -0.35510000
6.16570000 0.08850000 -0.38290000
6.09910000 -0.19090000 -0.37290000
6.19030000 0.38990000 -0.38270000
6.17440000 0.53430000 -0.37130000
6.03300000 0.51510000 -0.37670000
5.99720000 0.57400000 -0.35990000
5.86130000 0.43660000 -0.38710000
6.22470000 0.57180000 -0.35460000
6.44870000 0.51950000 -0.36890000
6.40070000 0.57880000 -0.34590000
6.29750000 0.61380000 -0.31190000
6.21870000 0.66930000 -0.21110000
6.46520000 0.62910000 -0.27830000
5.98100000 0.60850000 -0.33250000
5.79240000 0.64040000 -0.29670000
6.66190000 0.57790000 -0.33710000
6.60450000 0.67820000 -0.15610000
6.92640000 0.67050000 -0.16710000
6.76680000 0.68570000 -0.11120000
6.53380000 0.69530000 -0.05360000
6.76520000 0.69010000 -0.04800000
6.56770000 0.65720000 0.03320000
6.71360000 0.68100000 -0.00760000
6.78870000 0.64050000 0.03930000
6.59960000 0.62020000 0.05730000
6.45450000 0.69330000 -0.10740000
6.16520000 0.69330000 -0.13540000
6.21190000 0.70060000 -0.04400000
6.29960000 0.69780000 -0.02820000
6.40740000 0.69840000 -0.06240000
6.16680000 0.68070000 0.01900000
6.53010000 0.68200000 0.00230000
6.42720000 0.69170000 -0.01350000
6.35670000 0.64710000 0.04690000
6.53670000 0.55940000 0.07570000
6.43870000 0.62560000 0.05800000
6.33020000 0.67870000 0.01610000
6.23160000 0.65980000 0.04090000
6.15510000 0.59370000 0.07590000
5.97890000 0.33520000 0.12490000
7.35070000 0.66070000 -0.18510000
7.15580000 0.68220000 -0.11790000
7.00060000 0.68800000 -0.08440000
6.82640000 0.67130000 0.00450000
6.96190000 0.68750000 -0.03750000
2.46560000 0.96940000 -0.24870000
2.94290000 0.86120000 -0.27950000
2.64800000 0.84790000 -0.30170000
2.74850000 0.94280000 -0.23320000
5.35740000 -0.82220000 -0.28700000
5.28500000 -0.77120000 -0.30470000
5.62850000 -0.80660000 -0.29570000
5.24640000 -0.70550000 -0.31880000
5.24770000 -0.85670000 -0.26690000
5.04230000 -0.86820000 -0.25960000
5.04650000 -0.79870000 -0.29500000
5.25840000 -0.89170000 -0.23060000
5.09920000 -0.90740000 -0.20250000
4.47560000 -0.75610000 -0.30340000
4.38080000 -0.47350000 -0.35390000
5.31900000 -0.52920000 -0.34510000
3.79730000 -0.64390000 -0.32890000
4.86750000 -0.82800000 -0.28280000
4.59130000 -0.86050000 -0.26470000
4.46630000 -0.83110000 -0.27890000
4.87400000 -0.89300000 -0.23610000
4.98010000 -0.90040000 -0.22020000
5.00760000 -0.90950000 -0.15240000
4.78060000 -0.90940000 -0.20970000
4.80260000 -0.87440000 -0.25510000
4.66500000 -0.90580000 -0.22410000
4.68710000 -0.92090000 -0.18010000
4.80340000 -0.91400000 -0.15400000
4.88050000 -0.91390000 -0.18810000
4.91870000 -0.89990000 -0.12270000
4.72150000 -0.90640000 -0.12380000
4.79310000 -0.87280000 -0.08690000
4.27780000 -0.89000000 -0.24780000
4.24040000 -0.82730000 -0.28290000
4.30920000 -0.91730000 -0.21590000
4.49260000 -0.88950000 -0.24250000
4.45470000 -0.91500000 -0.21060000
4.34380000 -0.93010000 -0.18140000
4.42550000 -0.92730000 -0.14820000
4.33230000 -0.92120000 -0.11240000
4.26140000 -0.93580000 -0.15060000
4.55710000 -0.92060000 -0.19140000
4.58190000 -0.91900000 -0.13740000
4.61370000 -0.88970000 -0.09210000
4.53720000 -0.86950000 -0.06820000
4.84830000 -0.81690000 -0.03690000
4.43560000 -0.82620000 -0.01500000
4.39650000 -0.90080000 -0.09140000
3.92280000 0.57660000 -0.35650000
4.73220000 0.48590000 -0.37530000
3.83540000 0.45540000 -0.38260000
4.64470000 0.33710000 -0.39680000
3.70940000 0.35460000 -0.39760000
4.99690000 0.56670000 -0.36030000
4.94820000 0.65140000 -0.32290000
5.22680000 0.59550000 -0.35070000
5.08240000 0.66500000 -0.30490000
4.78590000 0.64440000 -0.32880000
4.57030000 0.62800000 -0.33560000
4.75420000 0.72270000 -0.25250000
5.10040000 0.69780000 -0.25460000
4.56310000 0.72480000 -0.26810000
4.67870000 0.75160000 -0.19980000
5.04520000 0.73580000 -0.15740000
4.26500000 0.63280000 -0.33670000
4.12870000 0.71230000 -0.30320000
4.31340000 0.73550000 -0.27370000
4.28710000 0.77320000 -0.22420000
4.37480000 0.78580000 -0.16600000
4.62660000 0.77200000 -0.12850000
4.47700000 0.78680000 -0.09120000
4.73890000 0.76600000 -0.07730000
4.62000000 0.77020000 -0.03480000
4.51420000 0.76830000 0.00160000
4.38430000 0.79360000 -0.05410000
5.07450000 0.06810000 -0.39830000
5.32830000 0.35520000 -0.39320000
4.71690000 0.19810000 -0.40310000
4.66050000 -0.07560000 -0.39870000
6.01850000 -0.70470000 -0.32300000
5.82590000 -0.42220000 -0.35570000
4.69350000 -0.27530000 -0.38240000
5.68120000 0.59390000 -0.35260000
5.65790000 0.51950000 -0.37590000
5.56930000 0.57100000 -0.36420000
5.84900000 0.55910000 -0.36890000
5.79880000 0.69780000 -0.16190000
5.53520000 0.67320000 -0.25550000
5.88990000 0.70820000 -0.07020000
5.65560000 0.71370000 -0.09710000
5.69530000 0.71330000 -0.01730000
5.27050000 0.44870000 -0.38060000
5.38880000 0.64350000 -0.31230000
5.35950000 0.61280000 -0.34010000
5.29660000 0.70730000 -0.20360000
5.38640000 0.72190000 -0.11840000
5.46890000 0.72170000 -0.04180000
5.56690000 0.71840000 -0.03370000
5.57340000 0.70560000 0.01680000
5.38680000 0.71550000 0.00280000
5.28270000 0.73110000 -0.05100000
5.46180000 0.68120000 0.05170000
5.27870000 0.68700000 0.05690000
5.37540000 0.64120000 0.08070000
6.04900000 0.70360000 -0.07800000
5.97580000 0.70160000 -0.01790000
6.02050000 0.68690000 0.01770000
6.07320000 0.64190000 0.05940000
5.87450000 0.63610000 0.06950000
5.73420000 0.66440000 0.05810000
5.68340000 0.62880000 0.07840000
5.74250000 0.57490000 0.09080000
5.84680000 0.68990000 0.02490000
5.79430000 0.70650000 -0.00620000
5.90920000 0.66630000 0.04850000
4.62540000 0.17180000 0.18880000
6.00680000 0.09340000 0.15880000
5.64930000 0.68750000 0.04000000
5.53490000 0.65850000 0.06730000
5.19050000 0.60170000 0.10040000
3.62290000 -0.15040000 -0.40670000
4.05210000 -0.34590000 -0.38040000
4.70370000 -0.21850000 0.21900000
5.46510000 -0.07910000 0.18850000
4.22740000 -0.04580000 0.22260000
4.67550000 0.54400000 0.12700000
4.77390000 0.64710000 0.10050000
5.12110000 0.73970000 -0.03360000
4.94580000 0.75040000 -0.10290000
5.02680000 0.73710000 0.00070000
4.93440000 0.75110000 -0.04440000
4.98650000 0.72030000 0.03750000
4.83420000 0.74960000 -0.00920000
5.21690000 0.71120000 0.03470000
5.14140000 0.72740000 0.01210000
5.10910000 0.66880000 0.07810000
4.88140000 0.69940000 0.06600000
4.53610000 0.73810000 0.04750000
4.68770000 0.69370000 0.07810000
4.40160000 0.69970000 0.08730000
4.35500000 0.63850000 0.11380000
4.73760000 0.74060000 0.02200000
4.60990000 0.36190000 0.15910000
3.07100000 -0.42220000 -0.38200000
2.63950000 -0.28970000 -0.40300000
2.84990000 -0.04130000 -0.42140000
2.07510000 -0.13340000 -0.41960000
2.67500000 -0.70780000 -0.32650000
2.09620000 -0.60540000 -0.35690000
2.59170000 -0.82850000 -0.28950000
3.63580000 -0.79520000 -0.29280000
4.15550000 -0.85950000 -0.26850000
4.00410000 -0.89360000 -0.24700000
3.57560000 -0.86510000 -0.26650000
3.03560000 -0.88280000 -0.26260000
3.58950000 -0.94770000 -0.20060000
3.66460000 -0.90920000 -0.23880000
3.65680000 -0.96000000 -0.17270000
3.89060000 -0.93190000 -0.21230000
3.43690000 -0.92590000 -0.22870000
3.45260000 -0.97240000 -0.16230000
3.50620000 -0.97700000 -0.13540000
3.31420000 -0.96270000 -0.19500000
3.43180000 -0.97670000 -0.10230000
4.12660000 -0.92520000 -0.21120000
4.14420000 -0.93910000 -0.17140000
4.16810000 -0.93030000 -0.11480000
4.02280000 -0.92240000 -0.09050000
4.02590000 -0.94250000 -0.12920000
4.17400000 -0.90210000 -0.07450000
3.98220000 -0.94710000 -0.16860000
3.87140000 -0.95370000 -0.14050000
3.85620000 -0.95110000 -0.17930000
4.10480000 -0.83060000 0.00820000
3.89260000 -0.93340000 -0.09260000
4.52990000 -0.74370000 0.08480000
4.40730000 -0.71200000 0.13510000
4.48780000 -0.66520000 0.17320000
4.22830000 -0.64170000 0.19540000
4.08140000 -0.76480000 0.09890000
4.10960000 -0.69790000 0.16720000
3.78800000 -0.82380000 0.05980000
3.96110000 -0.74250000 0.14200000
3.68840000 -0.96360000 -0.13930000
3.77190000 -0.95000000 -0.10320000
3.69540000 -0.93260000 -0.06140000
3.57920000 -0.96550000 -0.09180000
3.48730000 -0.94400000 -0.04580000
3.51900000 -0.85740000 0.06740000
3.62260000 -0.76550000 0.15140000
3.89530000 -0.71180000 0.17210000
3.51130000 -0.72190000 0.18400000
3.92970000 -0.65450000 0.20050000
4.26750000 -0.57660000 0.21600000
3.45090000 -0.66400000 0.20980000
3.62750000 -0.52830000 0.23380000
2.57130000 -0.97780000 -0.22070000
2.32610000 -0.91100000 -0.26140000
2.77540000 -1.00010000 -0.19260000
3.05760000 -0.93490000 -0.23390000
2.90990000 -1.01290000 -0.15940000
2.78900000 -1.04000000 -0.11760000
2.68130000 -1.03910000 -0.14740000
2.60010000 -1.03020000 -0.17180000
2.65440000 -1.05340000 -0.08630000
2.51940000 -1.07030000 -0.09880000
2.85040000 -1.03050000 -0.07460000
2.92040000 -1.02720000 -0.10850000
2.70280000 -1.03980000 -0.05320000
2.82130000 -1.00660000 -0.01980000
2.56890000 -1.01700000 0.01460000
3.09630000 -0.96680000 -0.20460000
3.12550000 -0.99120000 -0.16900000
3.23110000 -0.99340000 -0.14280000
3.34570000 -0.98550000 -0.12900000
3.32660000 -0.96850000 -0.06310000
3.24950000 -0.99180000 -0.09860000
3.13760000 -0.96730000 -0.02710000
3.08390000 -1.00910000 -0.10140000
3.01450000 -1.01350000 -0.13920000
2.98580000 -1.00850000 -0.06180000
3.15680000 -0.98670000 -0.06130000
3.03040000 -0.92440000 0.04760000
2.74160000 -0.95850000 0.06090000
3.02770000 -0.86150000 0.12480000
3.00620000 -0.79040000 0.17640000
2.75720000 -0.85780000 0.15570000
2.65160000 -0.89500000 0.13810000
2.48310000 -0.95770000 0.09950000
2.73600000 -0.79840000 0.18860000
2.65330000 -0.72560000 0.21950000
3.06610000 -0.62030000 0.23220000
2.82890000 -0.42880000 0.26240000
3.28210000 -0.87930000 0.07770000
3.36250000 -0.81450000 0.13500000
3.21950000 -0.79680000 0.16100000
3.19470000 -0.29320000 0.25900000
2.90780000 0.51160000 -0.38530000
2.92670000 0.61730000 -0.36420000
3.47400000 0.68550000 -0.33440000
3.36430000 0.06100000 -0.41730000
3.77280000 0.20970000 -0.40790000
2.79860000 0.20870000 -0.41970000
3.73940000 0.77500000 -0.27900000
3.60590000 0.73350000 -0.31300000
3.99200000 0.79730000 -0.22470000
3.90610000 0.77730000 -0.26270000
3.70900000 0.84240000 -0.18630000
3.55070000 0.84600000 -0.21710000
3.24510000 0.83600000 -0.27170000
3.46830000 0.88150000 -0.14310000
3.70400000 0.85640000 -0.12170000
3.46580000 0.88630000 -0.07760000
4.17440000 0.80950000 -0.13210000
4.09310000 0.80590000 -0.18300000
3.89500000 0.83110000 -0.15370000
4.00990000 0.82710000 -0.08000000
4.23790000 0.80730000 -0.08280000
4.24730000 0.79980000 -0.02610000
4.34980000 0.77820000 0.00910000
4.09870000 0.81300000 -0.02700000
4.10340000 0.79300000 0.02030000
3.95640000 0.80450000 0.02230000
3.95630000 0.82500000 -0.02940000
4.20910000 0.75900000 0.05210000
4.02050000 0.75380000 0.07310000
3.84160000 0.84290000 -0.06350000
3.81320000 0.83100000 0.00090000
3.63870000 0.86140000 -0.03680000
3.59030000 0.84490000 0.02030000
3.71090000 0.80370000 0.05590000
3.54720000 0.77890000 0.08670000
3.98240000 0.70280000 0.10450000
3.66350000 0.67590000 0.12360000
2.56350000 0.34160000 -0.41350000
2.36950000 0.75540000 -0.34140000
2.35400000 0.52730000 0.21150000
3.42090000 0.44810000 0.18810000
3.57790000 0.59770000 0.14840000
3.17890000 0.88480000 -0.23030000
3.20760000 0.90740000 -0.17670000
3.20250000 0.92000000 -0.10990000
3.30910000 0.89190000 -0.01520000
3.17910000 0.92050000 -0.05540000
3.43510000 0.88440000 -0.03700000
3.17660000 0.89890000 0.00700000
2.93680000 0.94050000 -0.18880000
2.88160000 0.96520000 -0.11500000
3.01130000 0.94260000 -0.05500000
2.74180000 0.98530000 -0.13980000
2.88320000 0.96120000 -0.05630000
2.59630000 1.00060000 -0.17730000
2.67450000 0.99860000 -0.07520000
2.69460000 0.98120000 -0.02650000
2.91420000 0.93280000 0.00650000
2.65790000 0.95570000 0.02180000
3.21490000 0.84820000 0.06180000
2.99500000 0.89320000 0.04430000
2.98480000 0.85110000 0.07660000
2.59410000 0.93160000 0.05190000
2.54220000 0.89740000 0.07740000
3.03540000 0.78720000 0.10570000
3.46410000 0.86780000 0.00300000
3.36810000 0.85870000 0.03440000
3.48490000 0.82200000 0.06010000
2.49090000 0.72010000 0.14900000
3.88900000 0.23210000 0.20540000
2.50430000 0.09720000 0.26930000
2.70310000 -0.10440000 0.27420000
3.92990000 -0.20920000 0.23710000
4.58430000 -0.40160000 0.22370000
4.14560000 -0.46260000 0.23010000
2.61660000 0.32080000 0.24090000
9.21480000 -0.00920000 -0.35650000
9.07310000 0.15800000 -0.37060000
9.17750000 0.02720000 -0.36050000
8.83910000 -0.17150000 -0.31950000
8.87040000 -0.22340000 -0.28810000
8.77050000 -0.25290000 -0.33030000
8.74030000 -0.13970000 -0.36050000
8.47160000 -0.49180000 -0.33640000
8.36730000 0.07310000 -0.36790000
8.69980000 -0.35090000 -0.34670000
8.76540000 -0.34160000 -0.32560000
8.78140000 -0.15920000 -0.35150000
8.84310000 0.01350000 -0.36560000
8.55510000 0.27380000 -0.37210000
8.97880000 0.06220000 -0.36750000
8.85990000 -0.06300000 -0.35040000
8.89420000 -0.00150000 -0.36290000
8.84920000 -0.09960000 -0.34670000
7.80830000 -0.89200000 -0.26510000
7.86250000 -0.79790000 -0.30310000
8.03380000 -0.84360000 -0.29120000
7.67950000 -0.85720000 -0.28730000
7.63930000 -0.80510000 -0.30480000
7.69140000 -0.92590000 -0.23890000
7.59900000 -0.57340000 -0.33100000
8.11970000 -0.76040000 -0.31230000
7.43840000 -0.69340000 -0.32310000
8.07950000 -0.17930000 -0.35890000
7.88950000 0.44810000 -0.36160000
8.05890000 0.53140000 -0.35330000
8.17670000 0.50290000 -0.35870000
8.80760000 0.42940000 -0.36070000
7.82970000 0.51110000 -0.35750000
7.86760000 0.54790000 -0.34610000
7.39800000 -0.10790000 0.13780000
8.55590000 0.02840000 0.09920000
8.03850000 0.18970000 0.09160000
8.84790000 -0.81740000 -0.30780000
9.08960000 -0.60370000 -0.32040000
8.84700000 -0.65170000 -0.32450000
8.88540000 -0.97190000 -0.23540000
8.99680000 -0.91120000 -0.28460000
8.99830000 -0.94430000 -0.26720000
8.76150000 -0.86780000 -0.29580000
8.77830000 -0.93520000 -0.26360000
8.75670000 -0.97440000 -0.21810000
8.61250000 -0.95420000 -0.24250000
8.59050000 -0.89240000 -0.28540000
8.51340000 -0.93710000 -0.25630000
8.48110000 -0.83610000 -0.30230000
8.62820000 -0.97740000 -0.20110000
8.66770000 -0.98580000 -0.15350000
9.22270000 -1.00520000 -0.20100000
9.24270000 -0.97680000 -0.25140000
9.31500000 -0.99780000 -0.23190000
9.24260000 -1.01370000 -0.15160000
9.34840000 -1.01480000 -0.19360000
9.22420000 -0.93420000 -0.27990000
9.05970000 -0.97250000 -0.24840000
9.10940000 -0.99760000 -0.21410000
9.01440000 -1.00050000 -0.17820000
9.11700000 -1.00620000 -0.16160000
9.14180000 -1.00270000 -0.11540000
9.40250000 -1.02030000 -0.15720000
9.38830000 -1.00730000 -0.09510000
9.31020000 -1.01450000 -0.11910000
9.26980000 -0.99820000 -0.08160000
9.28750000 -0.95710000 -0.05180000
9.42780000 -0.88880000 -0.03170000
9.26920000 -0.86740000 0.00480000
9.35860000 -0.92120000 -0.04630000
9.08090000 -0.96210000 -0.06290000
9.14880000 -0.92460000 -0.04650000
9.21930000 -0.89040000 -0.02490000
8.95720000 -0.83970000 0.01470000
9.00470000 -0.81880000 0.05080000
8.94950000 -0.98880000 -0.20880000
8.92360000 -0.99720000 -0.13900000
8.84310000 -0.99270000 -0.17070000
8.81190000 -0.98450000 -0.09930000
8.99130000 -0.99340000 -0.10700000
8.98970000 -0.98140000 -0.08160000
8.85140000 -0.95740000 -0.05760000
8.84580000 -0.90540000 -0.04090000
8.91310000 -0.87140000 -0.02470000
8.70540000 -0.98110000 -0.11220000
8.73700000 -0.96410000 -0.07120000
8.59370000 -0.94970000 -0.05790000
8.66080000 -0.92620000 -0.04690000
8.55320000 -0.84700000 -0.01760000
8.70510000 -0.82870000 0.01760000
8.70030000 -0.78080000 0.07460000
9.19780000 -0.25750000 -0.33660000
9.15260000 -0.42110000 -0.32620000
9.00360000 -0.44470000 -0.31320000
8.91140000 -0.53870000 -0.32490000
8.96710000 -0.31070000 -0.30200000
9.04750000 -0.32870000 -0.30650000
9.08380000 -0.32240000 -0.30960000
9.13220000 -0.29810000 -0.30620000
9.24640000 -0.16230000 -0.34470000
9.34420000 -0.02760000 0.07100000
9.25930000 0.03980000 0.06680000
9.24710000 -0.12330000 0.07190000
9.21730000 -0.01860000 0.06040000
8.88010000 -0.41320000 -0.30800000
8.79150000 -0.48530000 -0.33310000
8.81670000 -0.35620000 -0.30780000
8.91820000 -0.28150000 -0.29640000
8.98080000 0.11270000 0.05750000
8.97040000 0.05900000 0.04230000
9.04400000 0.08210000 0.04250000
8.87590000 0.06120000 0.07390000
8.87840000 -0.01890000 0.04940000
8.92200000 0.03100000 0.04660000
8.83340000 -0.02620000 0.08300000
8.79880000 0.07150000 0.08970000
8.84920000 -0.12570000 0.06610000
8.82980000 -0.14370000 0.09240000
8.84960000 -0.16150000 0.08160000
8.88440000 -0.24330000 0.09510000
8.91990000 -0.31730000 0.10890000
8.95070000 -0.29870000 0.09670000
8.86490000 -0.46550000 0.11540000
8.82100000 -0.25210000 0.11080000
8.58270000 -0.23240000 0.11430000
8.86240000 -0.19670000 0.07780000
8.77520000 -0.11220000 0.10760000
8.85030000 -0.08770000 0.06320000
9.39440000 -0.85640000 0.01110000
9.44770000 -0.81720000 0.05040000
9.40690000 -0.76680000 0.08320000
9.31280000 -0.79960000 0.08340000
9.40120000 -0.68940000 0.09610000
9.22800000 -0.47400000 0.09410000
9.28260000 -0.83930000 0.05100000
9.13240000 -0.80760000 0.07510000
9.20030000 -0.77820000 0.09870000
9.25400000 -0.73980000 0.10850000
9.09390000 -0.70480000 0.11180000
9.24960000 -0.69160000 0.10690000
9.46610000 -0.15070000 0.07000000
9.27940000 -0.22690000 0.08780000
9.22550000 -0.21800000 0.07210000
9.16780000 -0.28630000 0.08740000
9.08550000 -0.35880000 0.09970000
8.90560000 -0.66020000 0.12510000
9.03900000 -0.74010000 0.10640000
8.87490000 -0.70630000 0.12080000
8.88210000 -0.75510000 0.09920000
8.66400000 -0.70600000 0.11280000
8.56980000 -0.61850000 0.12690000
8.67200000 -0.58850000 0.12610000
8.20240000 -0.95950000 -0.21040000
8.12910000 -0.94280000 -0.23360000
8.17490000 -0.91440000 -0.26170000
8.35710000 -0.89610000 -0.27650000
8.37150000 -0.94600000 -0.23690000
8.50920000 -0.97090000 -0.21260000
8.47380000 -0.97780000 -0.18110000
8.55800000 -0.97620000 -0.10890000
8.45630000 -0.97750000 -0.14170000
8.49630000 -0.95910000 -0.08330000
8.37030000 -0.94700000 -0.07120000
8.41970000 -0.91530000 -0.05490000
8.53660000 -0.89020000 -0.04540000
8.38230000 -0.85100000 -0.03030000
8.30610000 -0.96900000 -0.19480000
8.32560000 -0.97690000 -0.14640000
8.17920000 -0.97270000 -0.14850000
8.23430000 -0.96740000 -0.10660000
8.35670000 -0.96930000 -0.10530000
8.22980000 -0.95860000 -0.08420000
8.20580000 -0.90880000 -0.05330000
8.25020000 -0.86870000 -0.04410000
8.26570000 -0.81920000 0.00670000
8.43050000 -0.79410000 0.05050000
8.22370000 -0.76480000 0.09870000
8.40490000 -0.75470000 0.09640000
7.98190000 -0.92970000 -0.23730000
7.92090000 -0.90280000 -0.25780000
8.03220000 -0.95560000 -0.20390000
8.09760000 -0.96720000 -0.17500000
7.90440000 -0.95870000 -0.15390000
7.97060000 -0.95980000 -0.12280000
7.80750000 -0.93260000 -0.22640000
7.87200000 -0.94800000 -0.19920000
7.70940000 -0.94810000 -0.19780000
7.76220000 -0.95290000 -0.16910000
7.91990000 -0.94140000 -0.07910000
7.79470000 -0.94790000 -0.11040000
7.81820000 -0.91630000 -0.07200000
8.05470000 -0.96210000 -0.10070000
7.86460000 -0.88190000 -0.06320000
7.93450000 -0.84460000 -0.04630000
7.72210000 -0.80760000 -0.01790000
7.94770000 -0.80810000 -0.00380000
7.76810000 -0.76060000 0.05400000
8.07960000 -0.93650000 -0.05950000
8.07660000 -0.83350000 -0.02120000
8.04340000 -0.87180000 -0.04660000
7.98730000 -0.90920000 -0.05410000
8.06100000 -0.79440000 0.03750000
8.18690000 -0.78970000 0.06480000
8.19620000 -0.71100000 0.13480000
7.98430000 -0.75040000 0.09100000
8.10550000 -0.73740000 0.11910000
8.29250000 -0.68050000 0.13660000
8.14150000 -0.61800000 0.14920000
7.74050000 -0.62840000 0.14290000
7.79970000 -0.54970000 0.15210000
7.83310000 -0.69760000 0.12040000
8.58320000 -0.73730000 0.10230000
8.34130000 -0.42710000 0.13250000
8.71190000 0.27970000 0.05880000
7.80980000 -0.41930000 0.14780000
8.42660000 -0.65420000 0.12970000
6.13860000 -0.89870000 -0.23710000
6.13320000 -0.86350000 -0.27330000
6.24740000 -0.88500000 -0.25850000
6.15570000 -0.91600000 -0.19300000
6.30480000 -0.90130000 -0.24140000
6.25630000 -0.92550000 -0.17760000
6.01020000 -0.89360000 -0.24580000
5.97540000 -0.82350000 -0.29470000
5.93730000 -0.87240000 -0.26510000
6.02610000 -0.91430000 -0.20020000
6.16410000 -0.91660000 -0.14000000
6.05090000 -0.91350000 -0.15190000
6.06440000 -0.90360000 -0.12080000
6.69330000 -0.46640000 -0.34380000
7.31390000 -0.85050000 -0.28780000
7.21250000 -0.81510000 -0.29980000
7.29530000 -0.77280000 -0.31200000
7.49140000 -0.86550000 -0.28120000
7.54830000 -0.94340000 -0.19640000
7.61840000 -0.90490000 -0.25850000
7.45460000 -0.92180000 -0.23510000
7.34470000 -0.88860000 -0.26560000
7.32220000 -0.92880000 -0.22100000
7.38740000 -0.94150000 -0.19250000
7.40660000 -0.94650000 -0.14530000
7.29320000 -0.94320000 -0.15780000
7.29010000 -0.93270000 -0.10160000
7.11610000 -0.86770000 -0.27160000
6.96360000 -0.80410000 -0.30150000
6.82850000 -0.84580000 -0.28370000
6.60640000 -0.74560000 -0.31340000
6.96190000 -0.84120000 -0.28610000
6.86060000 -0.88210000 -0.25910000
6.92010000 -0.90510000 -0.23600000
7.14800000 -0.90330000 -0.24370000
6.97440000 -0.92130000 -0.21120000
6.87130000 -0.93200000 -0.16400000
6.85830000 -0.71190000 -0.32040000
7.16150000 -0.92330000 -0.21720000
7.22050000 -0.93910000 -0.18550000
7.06540000 -0.93270000 -0.18600000
7.15860000 -0.94110000 -0.15610000
7.08850000 -0.93520000 -0.13000000
7.20130000 -0.93630000 -0.11910000
7.13770000 -0.90810000 -0.07890000
7.16230000 -0.86830000 -0.06260000
7.28510000 -0.89820000 -0.06470000
7.34680000 -0.85920000 -0.05830000
7.10170000 -0.81390000 -0.03540000
7.27740000 -0.80410000 -0.02160000
6.94630000 -0.93230000 -0.14640000
6.99500000 -0.91900000 -0.10120000
6.87080000 -0.90720000 -0.09100000
6.97040000 -0.87240000 -0.07120000
6.85900000 -0.77210000 0.00820000
7.00080000 -0.83130000 -0.05450000
6.97830000 -0.75360000 0.04410000
7.38230000 -0.77120000 0.02270000
7.17640000 -0.62580000 0.15180000
6.65070000 -0.55380000 0.16630000
7.00550000 -0.64200000 0.14640000
7.36530000 -0.53200000 0.15650000
6.62640000 -0.47670000 0.17170000
6.72900000 -0.35300000 0.16790000
7.62140000 0.45320000 0.07100000
7.28200000 0.51410000 0.06790000
7.03240000 0.34440000 0.09890000
7.86800000 0.41590000 0.06300000
6.61600000 -0.82160000 -0.29240000
6.30580000 -0.80230000 -0.30190000
6.38250000 -0.85730000 -0.27820000
6.58660000 -0.86740000 -0.26780000
6.47500000 -0.89370000 -0.24750000
6.36400000 -0.91850000 -0.21310000
6.14010000 -0.88280000 -0.08660000
6.15420000 -0.83990000 -0.06280000
5.94660000 -0.82950000 -0.06340000
6.17190000 -0.78330000 -0.02000000
5.57960000 -0.36000000 0.19550000
6.66240000 -0.88900000 -0.24860000
6.73140000 -0.90790000 -0.22620000
6.62850000 -0.92290000 -0.19550000
6.77830000 -0.92390000 -0.19360000
6.76470000 -0.92490000 -0.12790000
6.68590000 -0.93030000 -0.15970000
6.73650000 -0.91530000 -0.09950000
6.51840000 -0.91730000 -0.21080000
6.51300000 -0.92790000 -0.17910000
6.60340000 -0.92790000 -0.12440000
6.62790000 -0.90090000 -0.06750000
6.50540000 -0.91630000 -0.08590000
6.44330000 -0.92810000 -0.13470000
6.53010000 -0.88580000 -0.04590000
6.60640000 -0.85270000 -0.03690000
6.43630000 -0.81690000 -0.02150000
6.42700000 -0.77590000 0.00820000
6.66020000 -0.81610000 -0.02160000
6.48560000 -0.74980000 0.04080000
6.74020000 -0.87410000 -0.06400000
6.84920000 -0.84620000 -0.06180000
6.86720000 -0.80600000 -0.03490000
6.71820000 -0.78500000 0.00010000
6.67170000 -0.70830000 0.10930000
6.65110000 -0.73270000 0.07380000
6.35060000 -0.70690000 0.09660000
6.95280000 -0.71680000 0.09840000
7.00740000 -0.68770000 0.12490000
6.74330000 -0.63450000 0.15270000
6.70030000 -0.67610000 0.13840000
6.43250000 -0.66290000 0.14220000
6.47530000 -0.61420000 0.15960000
6.37080000 -0.93050000 -0.16220000
6.32150000 -0.92140000 -0.11910000
6.24920000 -0.90950000 -0.10150000
6.30550000 -0.88240000 -0.06040000
6.26310000 -0.82140000 -0.03980000
6.41090000 -0.90130000 -0.06980000
6.42720000 -0.86190000 -0.04160000
6.07940000 -0.72640000 0.05440000
6.17710000 -0.67520000 0.12470000
6.12070000 -0.62160000 0.15730000
6.97070000 0.60600000 0.05380000
6.79960000 0.57530000 0.06480000
7.61560000 -0.95030000 -0.16350000
7.65510000 -0.94830000 -0.13400000
7.52690000 -0.94280000 -0.11720000
7.65960000 -0.93330000 -0.09250000
7.51220000 -0.89740000 -0.06810000
7.71630000 -0.89320000 -0.06640000
7.59370000 -0.86460000 -0.06160000
7.41590000 -0.92360000 -0.08260000
7.46730000 -0.83770000 -0.05110000
7.67020000 -0.83470000 -0.04570000
7.61330000 -0.73130000 0.08370000
7.50710000 -0.80460000 -0.02180000
7.38260000 -0.71340000 0.10000000
7.53920000 -0.67960000 0.11940000
7.40840000 -0.61500000 0.14270000
7.24150000 -0.72810000 0.09310000
7.17120000 -0.67900000 0.13610000
7.36690000 -0.66880000 0.12920000
8.76390000 0.49680000 -0.35980000
8.72120000 0.55700000 -0.34280000
8.87430000 0.52430000 -0.35560000
8.60720000 0.53430000 -0.35370000
8.80220000 0.59400000 -0.30930000
8.92490000 0.63820000 -0.22730000
8.50760000 0.63030000 -0.24380000
9.31920000 0.54680000 -0.34150000
9.16540000 0.57420000 -0.32440000
9.04680000 0.50520000 -0.35590000
9.01030000 0.60150000 -0.29630000
9.30530000 0.65210000 -0.19280000
9.35150000 0.66420000 -0.11390000
9.51180000 0.66760000 -0.12010000
9.43060000 0.66150000 -0.08570000
9.44400000 0.64420000 -0.05090000
9.17690000 0.66500000 -0.14300000
9.17750000 0.66150000 -0.07550000
9.32060000 0.64210000 -0.05430000
9.34500000 0.61530000 -0.02570000
9.18700000 0.61940000 -0.01710000
9.21970000 0.54690000 0.00760000
8.93700000 0.55800000 -0.34040000
8.87380000 0.66320000 -0.15480000
8.65590000 0.66240000 -0.15740000
8.70640000 0.66720000 -0.08500000
8.94340000 0.57550000 0.01180000
8.89590000 0.44600000 0.03210000
9.16530000 0.26870000 0.04460000
8.73720000 0.52950000 0.02590000
8.81390000 0.61380000 -0.00020000
9.01270000 0.66950000 -0.11490000
8.88240000 0.66840000 -0.08470000
8.78870000 0.64750000 -0.03130000
9.01200000 0.65760000 -0.04910000
9.12500000 0.64780000 -0.03560000
9.01230000 0.62000000 -0.00970000
9.09040000 0.59580000 0.00320000
8.91320000 0.63750000 -0.01940000
8.45100000 0.56570000 -0.33630000
8.45260000 0.49240000 -0.35900000
8.36590000 0.54210000 -0.34880000
8.38000000 0.61560000 -0.27670000
8.55720000 0.58680000 -0.31820000
8.33120000 0.65470000 -0.18200000
8.25880000 0.59820000 -0.30490000
8.22350000 0.56710000 -0.33670000
8.24340000 0.66770000 -0.10710000
8.38420000 0.66600000 -0.11040000
7.93340000 0.58820000 -0.31450000
7.99130000 0.62260000 -0.26320000
7.83600000 0.66030000 -0.16890000
7.66790000 0.62490000 -0.25770000
8.10560000 0.66710000 -0.12160000
8.20280000 0.65610000 -0.04410000
8.00790000 0.66500000 -0.05360000
7.90640000 0.67200000 -0.10350000
7.78530000 0.67500000 -0.10200000
8.05500000 0.63380000 -0.00040000
7.94510000 0.64690000 -0.01170000
7.93120000 0.59780000 0.03140000
8.54970000 0.66730000 -0.11380000
8.51050000 0.66020000 -0.06620000
8.62930000 0.60640000 0.00130000
8.64840000 0.64730000 -0.03730000
8.48120000 0.63260000 -0.01860000
8.31390000 0.64600000 -0.03160000
8.28300000 0.61760000 0.00200000
8.46490000 0.57770000 0.01940000
8.39210000 0.53410000 0.03170000
8.72300000 0.56970000 0.01570000
8.06250000 0.52460000 0.04610000
8.23090000 0.58730000 0.02170000
8.02830000 0.56920000 0.03880000
8.09360000 0.60130000 0.02480000
9.17620000 0.11470000 0.05720000
9.46600000 0.58710000 -0.00970000
9.06810000 0.17010000 0.05730000
8.91670000 0.15050000 0.06910000
9.11500000 0.06420000 0.03720000
9.14920000 0.04510000 0.04070000
7.65230000 0.67880000 -0.06370000
7.43290000 0.67460000 -0.13480000
7.58290000 0.67900000 -0.10050000
7.54530000 0.67270000 -0.02650000
7.47400000 0.68100000 -0.05460000
7.42260000 0.68180000 -0.09520000
7.74300000 0.67220000 -0.04660000
7.78010000 0.61300000 0.03450000
7.74970000 0.56860000 0.05480000
7.76340000 0.64590000 0.00520000
7.62210000 0.65970000 -0.00260000
7.61150000 0.61630000 0.04030000
7.48630000 0.65140000 0.01230000
7.54860000 0.56330000 0.06260000
7.31770000 0.68390000 -0.05440000
7.24140000 0.68680000 -0.07550000
7.33540000 0.66880000 -0.00930000
7.34640000 0.63880000 0.02500000
7.12100000 0.68600000 -0.03890000
7.18500000 0.67520000 -0.01180000
7.02510000 0.67740000 -0.00730000
7.05200000 0.65160000 0.02590000
7.22550000 0.65770000 0.01300000
7.12930000 0.62740000 0.04040000
7.25560000 0.59050000 0.05100000
7.43560000 0.60350000 0.04530000
6.93140000 0.66060000 0.01890000
5.78880000 -0.86810000 -0.26410000
5.70050000 -0.83900000 -0.28170000
5.78180000 -0.90140000 -0.21860000
5.63870000 -0.87990000 -0.24790000
5.65940000 -0.90950000 -0.18180000
5.58750000 -0.90230000 -0.21080000
5.56630000 -0.90700000 -0.14520000
5.91620000 -0.90560000 -0.21680000
