-0.30318700 -3.60054000 0.12087200
-0.28524600 -3.60266000 0.14953000
-0.24074700 9.55107000 -0.65439100
-0.22350300 9.56545000 -0.61403600
-0.41119600 -2.55394000 -0.12161500
-0.40421700 -2.56345000 -0.07825080
-0.40931600 -2.62023000 -0.11053400
-0.22682600 7.48408000 -0.63010800
-0.22866400 7.51351000 -0.62980500
-0.40626100 4.86597000 -0.46450600
-0.40761700 4.83825000 -0.44520900
0.07273130 9.15774000 -0.41111300
0.04338000 9.15881000 -0.42625100
0.06600460 9.16408000 -0.41306400
-0.22979900 9.80428000 -0.61126800
-0.22098700 9.78749000 -0.62310400
-0.10021900 9.43749000 -0.66261700
-0.10192900 9.55372000 -0.62984100
-0.09199240 9.52586000 -0.63733300
-0.09804140 9.50688000 -0.64693500
0.16148400 9.58521000 0.40291900
0.15008400 9.58762000 0.42282700
-0.38605500 -3.06829000 -0.19635400
-0.38472000 -3.10246000 -0.19987700
-0.38382100 -3.08628000 -0.14253500
-0.38748300 -2.95785000 -0.10459300
-0.38863800 -2.98481000 -0.12832700
-0.41969900 9.45865000 0.10819900
-0.40596300 9.45750000 0.10827600
-0.44464000 9.47771000 0.10651500
-0.08168660 4.93813000 -0.37173300
-0.07128830 4.98487000 -0.39536400
0.14758300 6.63090000 -0.20772300
0.14202200 6.60932000 -0.20473000
0.18076000 6.60754000 -0.24229700
-0.09331210 9.28061000 -0.71044900
-0.09787190 9.35345000 -0.70667000
-0.10274500 9.36625000 -0.68615600
-0.49442300 7.93390000 -0.52330600
-0.50844600 7.88171000 -0.54206400
-0.50162700 7.89839000 -0.52966400
-0.09720440 1.67887000 -0.23792200
-0.11376500 1.77124000 -0.28612400
-0.07612540 1.75213000 -0.17842300
-0.39567300 6.68116000 0.30760900
-0.37577500 6.68047000 0.31054100
-0.38293300 6.70984000 0.31081300
-0.42528600 6.70090000 0.29775500
-0.40737000 6.68354000 0.30394800
-0.41114400 6.71308000 0.30689500
-0.54309700 8.22137000 -0.21543600
-0.55864600 8.23164000 -0.20669600
-0.53451100 8.23709000 -0.22699500
-0.55966700 8.25475000 -0.21574900
-0.54399000 8.24754000 -0.22596300
0.18552500 5.98775000 0.04820220
0.20024700 5.99793000 0.06606150
0.19892800 6.04275000 0.04153190
0.19837300 6.00998000 0.05018940
0.17526100 7.53274000 0.11655300
0.17703700 7.53376000 0.08299140
0.14600200 7.52612000 0.23628500
0.14681300 7.51132000 0.24088100
0.15273400 7.51748000 0.21319800
-0.48860500 7.85750000 -0.36601300
-0.49574800 7.85225000 -0.34082600
-0.49632800 7.86857000 -0.35826900
-0.48933400 7.87646000 -0.37456800
-0.49115700 7.89866000 -0.37125600
-0.48404500 7.90900000 -0.38078600
-0.50831800 9.32000000 0.01038340
-0.49122400 9.30924000 0.01416270
-0.49085400 9.32861000 0.02622470
-0.46241200 9.29764000 -0.00869805
-0.48088700 9.31718000 0.01851710
-0.45787700 6.12912000 0.26815200
-0.47525900 6.11220000 0.27043200
-0.47026800 6.09193000 0.27482800
-0.43241800 6.17318000 0.28721300
0.03441440 7.79366000 -0.54013900
0.02630120 7.81235000 -0.51776100
0.01047020 7.82576000 -0.49328200
0.01777210 7.83348000 -0.49605500
0.02460670 7.86893000 -0.48541100
0.01328410 7.85816000 -0.48059900
-0.19653500 -3.59590000 0.26420300
-0.19561000 -3.53311000 0.27791400
-0.19618000 -3.52301000 0.28890300
-0.19829100 -3.56230000 0.27696900
-0.03790100 6.13330000 -0.50682300
-0.02928970 6.13245000 -0.52546800
-0.04418100 6.16440000 -0.52188400
-0.03670460 6.15794000 -0.53943500
-0.03887150 6.18373000 -0.54002100
-0.55779800 6.90106000 -0.31755400
-0.55519500 6.88240000 -0.30546200
-0.55585700 6.89086000 -0.29617800
-0.55425000 6.75558000 -0.27500600
0.14604300 7.53473000 0.22605100
0.17865500 9.10711000 0.09027270
0.18668100 9.13192000 0.10154400
0.17932200 9.13485000 0.11650700
0.18551500 9.15591000 0.10719200
0.17906600 9.17378000 0.11858200
-0.56967000 8.41822000 -0.18264900
-0.57223800 8.42050000 -0.16612500
-0.55912300 8.45925000 -0.14214000
-0.55416800 8.48363000 -0.12689400
-0.55081500 8.49409000 -0.13746700
-0.23253100 7.00969000 -0.41238700
0.13590700 6.73794000 -0.01388950
0.13450000 6.72440000 -0.00501121
0.17543000 8.54188000 0.05991500
0.19385400 8.54525000 0.04091570
0.19507100 8.53572000 0.00332793
0.17730400 8.53045000 0.01749010
-0.53152800 6.93290000 0.06035150
-0.51562500 6.95164000 0.06432080
-0.51384800 6.95553000 0.05649520
-0.50049700 6.98086000 0.08528160
-0.50126800 6.99903000 0.08561030
-0.50690600 6.97612000 0.07044170
0.12157000 6.11443000 0.07241850
0.12799400 6.11330000 0.09589550
0.14634100 6.11195000 0.07781020
0.12243300 6.10943000 0.00392359
0.16897600 6.09794000 0.02617840
0.17049500 6.09830000 -0.02318380
0.15860800 6.10645000 -0.00818975
0.14597100 6.11100000 -0.00558632
0.16214100 6.10106000 0.04075650
-0.55560600 5.13136000 -0.15101300
-0.54025200 5.15728000 -0.15745200
-0.54409300 5.15098000 -0.16980700
-0.55172400 5.13885000 -0.13781600
-0.54487400 5.18444000 -0.12601600
-0.54476100 5.16266000 -0.14074300
0.03454290 9.20058000 0.50998700
0.04028890 9.12855000 0.51676600
-0.52375400 6.38188000 0.06626180
-0.50940100 6.39960000 0.06936850
-0.50147300 6.39083000 0.05822050
0.12681300 5.15993000 0.09460660
-0.03114850 9.36136000 -0.63824200
-0.05389630 9.37826000 -0.63031300
-0.06199410 9.38381000 -0.61038500
-0.04664060 9.36873000 -0.61392300
-0.06333950 9.38600000 -0.61843600
-0.37465600 -2.22885000 -0.45997700
-0.38213200 -2.19728000 -0.39350000
-0.39581100 -2.24822000 -0.29056500
-0.39228400 -2.27748000 -0.36009700
-0.27556700 -3.99080000 0.09260920
-0.25890900 -3.95815000 0.13355500
-0.27338900 -3.96279000 0.09415480
-0.25339900 -3.99574000 0.14089800
-0.26128600 -4.02321000 0.11873600
-0.24614800 -4.00465000 0.14038500
-0.51535800 5.96264000 -0.27183300
-0.52630100 5.95429000 -0.25676700
-0.51281100 5.96666000 -0.28554300
-0.29018100 2.05688000 -0.70759400
-0.26306800 2.12741000 -0.64218000
-0.24398700 2.07019000 -0.59715200
-0.22483800 2.11841000 -0.55816200
-0.20660900 2.02903000 -0.51937800
0.20644000 7.25600000 0.04747300
0.18363600 7.25858000 0.05310600
0.20416000 7.23237000 0.05002510
0.17545600 7.21809000 0.05042560
-0.35122000 9.30892000 0.20375500
-0.36240900 9.31275000 0.19541100
-0.37675600 9.31489000 0.19274600
-0.50732700 7.40988000 0.12483100
-0.50752700 7.36943000 0.12642800
-0.49670800 7.33880000 0.12891800
-0.48194500 7.34528000 0.13772000
-0.52840100 6.41249000 -0.11790300
-0.51473200 6.37469000 -0.12140000
-0.52535600 6.36949000 -0.10812600
-0.51079800 6.32129000 -0.10527600
-0.54501700 6.34322000 -0.08891610
-0.52898600 6.35377000 -0.09788170
0.02044740 9.31460000 0.40699600
0.01366930 9.27755000 0.37176500
0.00310674 9.22251000 0.35375700
-0.52127900 7.39841000 -0.08703160
-0.52287000 7.37875000 -0.08762720
0.14058400 8.07749000 -0.25189900
0.14085700 8.13330000 -0.24134200
0.12800400 8.13837000 -0.25556600
-0.53481900 5.06732000 -0.28693000
-0.54230600 5.04292000 -0.25758900
-0.53773100 5.09326000 -0.30127700
-0.47158300 7.36683000 0.15026400
-0.48575500 7.39933000 0.15285200
-0.47108500 7.38455000 0.16198700
-0.54094500 6.39740000 -0.09843110
-0.53696600 6.47894000 -0.13298900
-0.32530900 6.92601000 0.42164100
-0.29784200 6.93111000 0.42222100
-0.29682500 6.95073000 0.41258800
-0.21109700 -3.67748000 0.22778100
-0.21138000 -3.67521000 0.21061500
-0.21021900 -3.63809000 0.22705200
-0.21729500 -3.73626000 0.20330800
-0.21505100 -3.71260000 0.19797300
-0.21658700 -3.71147000 0.21190400
-0.27919200 9.83490000 -0.15619400
-0.28064000 9.84330000 -0.20070900
-0.27528400 9.85976000 -0.17641000
-0.12130800 9.28185000 0.49957400
-0.11637300 9.30263000 0.51550700
-0.12123600 9.26294000 0.51354600
-0.13508000 9.24301000 0.47778600
-0.54571100 5.19627000 -0.13308200
-0.55169800 5.22003000 -0.12349500
-0.54359500 5.20242000 -0.12166700
-0.43389700 8.96485000 0.09493020
-0.31084400 1.60886000 -0.71479900
-0.29208100 1.59011000 -0.70365600
-0.33490100 1.53413000 -0.71908100
-0.32063100 1.58082000 -0.72238300
-0.28770000 1.54946000 -0.69639500
-0.49352900 8.58127000 -0.29235200
-0.49995800 8.57059000 -0.29343100
-0.49230700 8.54840000 -0.25123700
-0.49765800 8.51655000 -0.24562900
-0.24053100 -0.86351200 -0.49960900
-0.23627900 -1.04382000 -0.47920200
-0.24184500 -1.10155000 -0.49216800
-0.26435700 -1.11375000 -0.54150500
0.17934800 6.80613000 -0.13174700
0.16985400 6.77519000 -0.13657400
-0.38177200 -2.59696000 0.01593940
-0.38958300 -2.58435000 -0.01878820
-0.38518200 -2.55555000 -0.02871410
-0.28442400 1.61339000 -0.69840300
-0.27427800 1.60263000 -0.67368300
-0.28251400 1.55837000 -0.69143000
-0.48950900 8.47449000 -0.22377500
-0.49345200 8.51067000 -0.22718500
-0.50197600 8.50076000 -0.24036600
-0.51492700 8.45399000 -0.23890800
0.02386730 9.26440000 0.45452500
0.02140260 9.28780000 0.45445800
0.02848880 9.30879000 0.49079300
0.03283810 9.28844000 0.50595700
0.11380600 7.33229000 0.32550400
0.13357500 7.31674000 0.30154500
0.05381420 7.18006000 -0.35997400
0.05467180 7.16228000 -0.37398800
0.06883910 7.16349000 -0.34410200
0.08007430 7.15980000 -0.31915700
-0.47293300 8.93218000 0.00769268
-0.45417000 8.94458000 0.00970044
-0.47144900 8.91931000 0.04133680
0.02400600 9.30646000 0.45893600
0.02256820 9.35459000 0.42813600
-0.09897070 7.30464000 0.36761100
-0.06552680 7.33890000 0.38596800
-0.09973070 7.35213000 0.39194500
-0.09957150 7.33907000 0.39098000
-0.57019900 8.18558000 -0.10840800
-0.55652000 8.19499000 -0.10961500
-0.56618400 8.19052000 -0.12736700
0.15951200 8.78329000 -0.25720400
0.16376400 8.77771000 -0.27241800
0.17618000 8.80067000 -0.28155900
0.15358600 8.76186000 -0.25239200
-0.38643000 -3.37215000 -0.37875800
-0.38275300 -3.39405000 -0.39573400
-0.36861700 -3.56829000 -0.36501700
-0.37333100 -3.48905000 -0.38134100
-0.37272500 -3.54920000 -0.39773700
-0.23613500 7.59786000 -0.82112800
-0.23724500 7.57599000 -0.83825800
-0.23674600 7.53868000 -0.85771400
-0.23308000 7.56257000 -0.85460300
-0.53279100 7.90398000 -0.11113500
-0.53020800 7.87186000 -0.09923220
-0.51181000 7.91463000 -0.09883170
-0.54496600 7.88152000 -0.11983900
0.05175000 8.67110000 -0.41705900
0.06283120 8.69733000 -0.36219300
0.05446640 8.67755000 -0.36491400
0.05583230 8.69325000 -0.39382400
-0.59051800 5.43798000 -0.00876480
-0.58413500 5.43817000 0.00010324
-0.58731900 5.45724000 -0.00368121
-0.26649300 -3.98047000 -0.06537240
-0.25766100 -3.98640000 -0.05310500
-0.26132200 -3.99943000 -0.03721750
-0.48591400 7.51719000 -0.57187300
-0.46772600 7.50721000 -0.58300500
-0.37153300 -3.51256000 -0.32987300
-0.37251900 -3.46299000 -0.32343400
0.07126280 7.25108000 0.30564200
-0.05521070 7.24355000 0.32710700
-0.01495280 7.23842000 0.31757100
-0.01843430 7.26006000 0.32745600
-0.53702200 8.15594000 -0.16046600
-0.55979100 8.15927000 -0.13874600
-0.54565400 8.16555000 -0.16594000
-0.54420600 8.15109000 -0.13626500
0.04971660 8.25516000 -0.38019100
0.05302860 8.24648000 -0.39229400
0.06192230 8.23479000 -0.35232300
-0.20942300 4.46128000 0.35717200
-0.18028300 4.47230000 0.41130400
-0.19825500 4.50871000 0.38816100
-0.17783300 4.43368000 0.40984100
-0.04054020 8.93350000 0.39484700
0.00855492 8.90809000 0.36946500
0.03375720 8.92784000 0.37129300
0.01797760 8.93363000 0.38240000
-0.55621200 9.06009000 -0.23819400
-0.55874800 9.06234000 -0.27285500
-0.24504400 -1.32885000 0.27115100
-0.25557100 -1.36561000 0.24504500
-0.23942700 -1.37485000 0.28792700
-0.19720200 -1.23928000 0.38754500
-0.19838800 -1.30330000 0.38756000
-0.18897600 -1.18458000 0.40130100
-0.13757500 9.12671000 0.48741900
-0.13109500 9.10660000 0.49842900
-0.14026100 9.10478000 0.48341900
-0.13005800 9.08830000 0.49349400
-0.13992200 9.08302000 0.47401700
0.14812800 5.55891000 0.00375927
0.13563400 5.57187000 0.00457059
0.14788600 5.57175000 0.02093050
0.13185500 5.56674000 -0.04633210
0.14571900 5.55482000 -0.01273930
0.14853300 5.55553000 -0.04950550
0.17804900 8.26559000 0.04078730
0.16957100 8.29889000 0.05276200
-0.42854200 7.87222000 0.21034300
-0.39198100 7.88311000 0.24688300
-0.39520500 7.89161000 0.24319600
-0.17624600 -1.14005000 0.41679800
-0.17594900 -1.23615000 0.41218200
-0.16970500 -1.17414000 0.41528400
-0.18685500 -1.27792000 0.40270300
-0.18356900 -1.23080000 0.40828000
-0.51504500 9.09481000 -0.21713600
-0.51145500 9.11676000 -0.19565100
-0.49757100 9.11832000 -0.21053700
-0.49712400 9.11398000 -0.22370300
-0.47729300 9.15580000 -0.20867300
0.10636500 9.00007000 0.47503900
0.11804700 8.97365000 0.44007000
0.13911600 8.99922000 0.45997300
0.02441160 9.00762000 0.49195900
0.05360380 9.01751000 0.49251300
-0.22240500 7.34691000 -0.85689300
-0.22417100 7.36273000 -0.87420300
-0.22431500 7.37069000 -0.86518100
-0.23526800 7.35734000 -0.88344000
-0.49891100 6.85649000 0.08135860
-0.49431000 6.87457000 0.07740460
-0.50613600 6.85334000 0.07006170
-0.50241300 6.83981000 0.07309130
0.02559270 4.97886000 0.35325900
0.01905070 4.97723000 0.36441700
0.00776929 4.93050000 0.40154300
-0.36902200 6.00931000 0.24452600
-0.36494000 6.04685000 0.27772900
-0.36712800 6.02373000 0.25185400
-0.36078600 6.00481000 0.27695900
-0.21739300 8.37800000 0.30232500
-0.22744200 8.38797000 0.27244500
-0.23247400 8.41037000 0.23985900
-0.43225900 8.61506000 0.10317200
-0.44111200 8.61613000 0.07808760
-0.44242100 8.60863000 0.06992300
-0.44970300 8.62403000 0.09642960
-0.30693100 7.41159000 -0.80106000
-0.29106900 7.38328000 -0.78558900
-0.29349300 7.41510000 -0.81031400
-0.30823000 7.42578000 -0.80873700
-0.18356400 6.77624000 -0.63818000
-0.20260400 6.74001000 -0.62678600
-0.16162700 6.72715000 -0.62208700
-0.20180800 6.72167000 -0.61013300
0.03468150 6.53994000 -0.40177800
0.01874260 6.52275000 -0.40659400
0.02252710 6.55267000 -0.40930100
0.01619050 6.47269000 -0.41082000
0.18026200 6.75297000 -0.20848800
0.18389800 6.73494000 -0.22049900
0.17747400 6.76245000 -0.22469900
0.19493800 6.70931000 -0.20648100
0.19381800 6.72010000 -0.19411600
0.22012000 8.71623000 -0.06353410
0.21900500 8.71500000 -0.04580320
0.22492100 8.70533000 -0.03745380
0.19737700 8.71968000 -0.07793250
-0.01758720 5.59044000 -0.49561900
-0.02911510 5.62073000 -0.49684600
-0.54588000 6.83091000 0.04493130
-0.54050900 6.83347000 0.06094200
-0.52354300 6.79458000 0.05098540
-0.50162700 8.70080000 -0.03878370
-0.47052500 8.64214000 -0.01773040
0.12685900 7.92370000 0.07859590
0.12147200 7.95554000 0.05971990
0.11827300 7.94328000 0.04543440
-0.22808400 8.43368000 0.28114400
-0.23060000 8.42591000 0.27055500
-0.22657900 8.41545000 0.28578600
-0.23228400 8.40152000 0.25739500
-0.55417300 6.75792000 0.02973190
-0.53682700 6.78653000 0.04357570
-0.54887400 6.77253000 0.03173960
-0.54113000 6.79677000 0.03657160
-0.53697100 6.80645000 0.04946030
-0.54628100 6.82561000 0.05215100
-0.02472460 4.85361000 0.34450900
-0.43023100 8.84316000 -0.61758400
0.01526110 5.62850000 -0.41903600
0.03246830 5.62128000 -0.41228400
0.02239860 5.62059000 -0.43674200
-0.00085748 5.64555000 -0.42971200
-0.00293716 5.63186000 -0.44829500
0.08783840 6.35237000 -0.27428200
-0.52832900 6.25742000 0.09349750
-0.51944000 6.26678000 0.10420400
-0.52552000 6.25822000 0.07647520
-0.50265900 6.24944000 0.07308100
-0.51526600 6.24348000 0.08539460
0.12062000 8.36586000 -0.28069100
0.14174000 8.36125000 -0.25622300
0.12808100 8.36771000 -0.29113500
0.10751500 8.39210000 -0.29920200
0.19208800 8.73133000 -0.03023920
0.17789000 8.73827000 -0.01949170
0.22287200 8.72494000 -0.00812814
0.21926200 8.71600000 -0.02913000
-0.53616500 7.87678000 -0.23922100
-0.51137800 7.86813000 -0.23925200
-0.51329900 7.88333000 -0.22715400
-0.49578900 7.87146000 -0.21283800
0.17256500 6.51226000 -0.20471900
0.14301300 6.50981000 -0.20393400
-0.46882000 5.39553000 -0.66074800
-0.47913600 5.37555000 -0.66964200
-0.43738400 5.36944000 -0.68871800
-0.45936100 5.37662000 -0.68056400
-0.52348100 8.26664000 -0.43133500
-0.50661300 8.20912000 -0.43103700
-0.51163500 8.22561000 -0.42514700
-0.20918200 5.54785000 0.13026400
-0.18947400 5.59097000 0.23559700
-0.18634200 5.54699000 0.23058500
-0.19978500 5.51800000 0.15849000
-0.20918200 5.54785000 0.13026400
-0.18634200 5.54699000 0.23058500
0.15450500 9.37567000 0.01185190
-0.35010000 -1.25613000 0.00728701
-0.36399000 -1.28917000 -0.02618770
-0.34822100 -1.31177000 0.01563130
0.09942790 7.12804000 -0.27647000
0.09009260 7.15320000 -0.29338400
0.06729870 5.17905000 0.24704200
0.08189210 5.19270000 0.20194700
0.07525270 5.19823000 0.23289600
-0.41954000 4.18397000 -0.19207200
-0.41959100 4.12345000 -0.16544200
-0.42333000 4.25456000 -0.16852300
-0.57479500 5.80172000 -0.12861900
-0.52732800 5.78472000 -0.07231480
-0.45007200 8.85435000 0.04642040
-0.44556400 8.83629000 0.04253840
-0.43331700 8.85740000 0.07077540
-0.39024500 4.49658000 -0.03699160
-0.10161500 9.39478000 0.51888100
-0.11504800 9.36962000 0.53295600
-0.11803700 9.35658000 0.53106100
-0.09404120 9.50277000 0.51981100
-0.09977690 9.52191000 0.52530500
-0.09493980 9.48582000 0.52933100
0.04665110 7.56222000 0.35250900
0.08307830 7.57698000 0.35742800
-0.14814800 4.95270000 -0.57659200
-0.08659050 4.95161000 -0.50122100
-0.15099300 0.26777700 0.46266900
-0.13713400 0.21577000 0.45912600
-0.13210600 0.26922000 0.45552100
-0.13725200 0.27945900 0.46205800
-0.10301700 9.52465000 0.42842400
-0.09740460 9.51953000 0.46357300
-0.09895020 9.48813000 0.45397000
0.17561000 7.69159000 -0.16853900
0.16936600 7.70987000 -0.16702400
0.15893700 7.68921000 -0.16282300
0.16452400 7.72302000 -0.18412800
0.16871900 7.71773000 -0.17151700
0.17157900 7.70650000 -0.18082100
-0.18036500 7.74306000 0.35494300
-0.18090900 7.76441000 0.33372000
-0.09029270 3.85418000 0.56723700
-0.08241050 3.84101000 0.56970700
-0.07519590 3.78127000 0.57378400
-0.08241050 3.84101000 0.56970700
-0.08243110 3.78621000 0.57411300
0.11050400 7.64267000 0.12083100
0.11378500 7.63615000 0.11963400
0.11917200 7.64612000 0.07061620
0.19811100 8.95841000 -0.00896512
0.18367200 8.94785000 -0.03905590
0.18814900 8.95914000 -0.04328710
0.19197000 8.97099000 -0.01741720
0.16935000 8.97215000 -0.02099630
0.14143700 6.62211000 0.01425510
0.13497200 6.64978000 0.00841152
0.15024800 6.63564000 0.01562610
0.16015400 6.61066000 0.04136240
0.16845200 7.73250000 -0.17459300
0.18070900 7.76100000 -0.17836700
0.18340000 7.75986000 -0.16744500
-0.55995000 5.85401000 -0.23666400
-0.54886400 5.85648000 -0.23403500
-0.55279200 5.83671000 -0.23114900
-0.58320600 5.84843000 -0.22137200
-0.57871300 5.83968000 -0.22353400
-0.58938300 5.83643000 -0.20965900
-0.47188600 9.39889000 -0.66326400
-0.46730500 9.35478000 -0.65714900
-0.47229600 9.38393000 -0.65405700
-0.47199300 9.41567000 -0.66256600
-0.47592200 9.43049000 -0.64373100
0.11954100 7.63783000 0.09608040
0.13989600 7.64055000 -0.01992820
0.08348390 9.81673000 -0.14444000
0.09799530 9.81472000 -0.07434830
0.09086290 9.81417000 -0.08572730
-0.05714150 7.57698000 0.39968900
-0.06851540 7.56091000 0.38698500
-0.05426590 7.56400000 0.38798100
-0.06776050 7.56852000 0.39428700
0.17388500 7.75806000 -0.15717500
0.18154600 7.75821000 -0.16161700
0.16905300 7.73412000 -0.16748600
-0.62017800 5.90232000 -0.19558900
-0.61923300 5.87413000 -0.18336300
-0.61655700 5.96170000 -0.18487300
-0.61640300 5.98494000 -0.18337300
-0.62075800 5.93665000 -0.20131000
0.15767400 6.81519000 0.11500300
0.15361700 6.79246000 0.12103100
0.16576100 6.80817000 0.09219320
0.17052600 6.79923000 0.07922750
-0.52698900 9.49783000 -0.14873800
-0.53334600 9.50113000 -0.16462100
-0.52116600 9.46669000 -0.17120400
-0.51011000 9.45041000 -0.13365200
-0.51425400 9.45624000 -0.11388700
-0.51996400 9.48074000 -0.12791100
-0.24701100 7.86145000 -0.67647700
-0.20687100 7.89941000 -0.69231300
-0.20739500 7.86955000 -0.68587900
-0.15274400 4.96104000 -0.60759700
-0.16402000 5.00899000 -0.66222700
-0.18679400 5.01754000 -0.69529600
-0.18098100 5.03266000 -0.69498800
-0.51725800 9.44871000 -0.17550700
-0.52138600 9.43194000 -0.18846700
-0.51376100 9.42153000 -0.17271800
-0.50924200 9.44564000 -0.14803500
0.11338500 9.19386000 0.09492500
0.11570100 9.16981000 0.08529700
0.10128200 9.17356000 0.07678330
0.11771300 9.15740000 0.07727620
0.11443700 9.14144000 0.05353230
0.08640580 4.96350000 0.24235400
0.08760730 4.97903000 0.29444300
0.07957630 4.96752000 0.29442800
0.07011770 4.97852000 0.32811800
0.03464560 4.96049000 0.31178400
0.05342400 4.95609000 0.30275100
-0.37568800 5.81305000 0.23330700
-0.38778500 5.77404000 0.21092300
0.12637600 8.20094000 0.25476500
0.12583700 8.16937000 0.24454200
-0.50458000 7.47949000 -0.40125400
-0.50194600 7.46296000 -0.40275900
-0.50026100 7.43738000 -0.38759500
-0.51116300 7.46772000 -0.38983400
0.04207070 4.98028000 -0.01035670
0.04727240 4.98037000 -0.07232510
-0.09921220 9.06924000 -0.81708200
-0.07881620 9.08974000 -0.79994600
-0.08794610 9.06265000 -0.80249300
-0.17081900 0.11711300 0.43992600
-0.17574300 0.05206320 0.43209000
-0.16477000 0.07502150 0.44824500
-0.15332900 0.18757400 0.45727200
-0.14951900 0.13892600 0.46183200
-0.14541100 0.19653000 0.45901300
0.10703800 6.54625000 0.15599000
0.11825800 6.53677000 0.14303900
-0.09076510 9.47321000 0.51137900
-0.09918640 9.49176000 0.49317000
-0.09427740 9.50075000 0.51127100
-0.09778970 9.45229000 0.52938700
-0.10720700 9.44761000 0.53723300
-0.10455200 9.42797000 0.52822700
-0.44223100 5.32403000 0.23138100
-0.44452100 5.30849000 0.25359500
-0.45980300 5.30473000 0.27853000
-0.29395500 7.48152000 -0.82095300
-0.30961100 7.47178000 -0.81241900
-0.27907900 7.42490000 -0.82612400
-0.30913400 7.44697000 -0.81334800
-0.30823000 7.42578000 -0.80873700
-0.18254700 6.80167000 0.24424400
-0.18488900 6.80196000 0.19113800
-0.18818000 6.80469000 0.26303300
-0.07034340 3.86343000 0.54704100
-0.06914700 3.82578000 0.56732900
-0.06562440 3.85254000 0.53635500
-0.06703660 3.81348000 0.56290300
-0.06490040 3.79368000 0.52708700
-0.06337020 3.84129000 0.52329200
-0.38694300 5.62535000 0.26264800
-0.38093500 5.62331000 0.27474600
-0.42205600 5.63523000 0.18005200
-0.40799100 5.63262000 0.21139600
-0.39222200 5.64648000 0.19944700
0.09135070 7.79205000 -0.39895400
0.07839510 7.77944000 -0.43705000
-0.02257320 9.11054000 -0.72485800
-0.05304390 9.13070000 -0.71844400
-0.10087600 9.43543000 0.50981800
-0.09821080 9.47094000 0.49566100
-0.10247300 9.45771000 0.46016800
-0.10172800 9.46757000 0.48539100
-0.10953800 9.43705000 0.48488800
-0.57018900 6.77870000 -0.11480100
-0.54760500 6.81342000 -0.10681100
-0.54605000 6.83437000 -0.10479300
-0.57100000 6.84532000 -0.11236200
0.02297890 7.03735000 -0.53413600
0.02786220 6.99900000 -0.53116800
0.03557490 7.00521000 -0.51220500
-0.14076400 6.78460000 -0.04483270
-0.10874300 6.77719000 0.03848180
-0.22905400 6.81265000 -0.63407700
-0.32772200 -2.44305000 -0.65965400
-0.33594800 -2.43634000 -0.66923600
-0.33835700 -2.49901000 -0.66581600
-0.32829700 -2.54593000 -0.64360800
-0.33948100 -2.53609000 -0.65405200
-0.51892200 5.10001000 -0.47743600
-0.52682900 5.07843000 -0.45624900
-0.54799100 5.09151000 -0.46525100
-0.55666900 5.10697000 -0.46603100
-0.33730400 5.56560000 0.43189000
-0.33960900 5.55453000 0.44688900
-0.33268800 5.57167000 0.44075300
-0.33684200 5.59662000 0.42266800
-0.33979400 5.57928000 0.41755300
-0.03276090 4.98933000 -0.50164200
-0.03099960 4.97382000 -0.50300800
-0.01850630 4.99418000 -0.48998600
-0.58997400 5.27406000 -0.51347300
-0.59577100 5.24967000 -0.49496700
-0.60393100 5.28283000 -0.50964700
-0.57764500 5.32140000 -0.52514000
-0.16802000 7.63580000 0.29574200
-0.14872800 7.63703000 0.34096100
-0.14099500 7.64550000 0.37249400
-0.29795000 7.36710000 -0.76413500
-0.30432200 7.37648000 -0.77010700
-0.27165400 7.34138000 -0.75587800
-0.28652500 7.35676000 -0.76472600
0.16181800 5.96860000 -0.13978300
0.15738100 5.97724000 -0.16999700
0.14568300 5.95808000 -0.13868400
-0.51236900 5.00273000 -0.44078800
-0.52863200 5.01418000 -0.41531300
-0.52486800 5.02384000 -0.42262100
-0.51764300 5.06221000 -0.44114700
-0.53287800 5.05305000 -0.43105700
-0.53795200 5.07709000 -0.45459100
-0.31426300 5.48785000 -0.43934500
-0.33075200 5.49180000 -0.46014100
-0.31796100 5.49679000 -0.40394000
-0.31972200 5.52061000 -0.35038200
-0.33538400 5.50624000 -0.43620200
-0.34218200 5.52011000 -0.43956600
0.13762700 8.80370000 0.32442600
0.13548600 8.82633000 0.31784800
0.11361100 8.81962000 0.32685500
-0.20639900 -2.98481000 0.29484400
-0.20519700 -2.92511000 0.31716500
-0.20240900 -2.96610000 0.33719200
-0.37584200 -0.18990000 -0.25386600
-0.37959000 -0.20259900 -0.18071300
-0.37702800 -0.14883100 -0.22922800
-0.38062700 -0.39558600 -0.12853200
0.07416920 7.67132000 -0.42426400
0.05265370 7.67583000 -0.41173400
0.07109850 7.71582000 -0.41764500
0.07167870 7.73497000 -0.41104600
-0.18429800 5.50030000 -0.27789200
-0.20694300 5.49700000 -0.33243000
-0.24106000 5.48390000 -0.47535600
-0.32408700 9.45289000 0.26536900
-0.32154000 9.42824000 0.27036000
-0.31572200 9.43605000 0.28918000
-0.33597900 9.37926000 0.27753400
-0.32778900 9.41574000 0.26945700
-0.34878600 9.43013000 0.26398300
0.09458570 5.98587000 0.19710500
0.09492460 5.97555000 0.17246300
0.17710400 9.01095000 0.22817700
0.17168200 9.02398000 0.26587700
0.18637300 9.02273000 0.27025800
0.20238900 9.01146000 0.28648400
-0.00075473 6.90003000 0.33921000
-0.00546346 6.89856000 0.35441400
-0.01016710 6.92653000 0.35089200
-0.01168190 6.86796000 0.35326900
0.11874600 6.52204000 0.13595800
0.11042200 6.51175000 0.11390900
-0.10280700 8.60683000 -0.62408500
-0.05687460 8.60933000 -0.61774800
-0.06218930 8.59866000 -0.62237500
0.00917102 8.62283000 -0.59752700
0.01356140 8.61473000 -0.60692400
0.00314773 8.64098000 -0.59806600
0.12744900 5.96691000 0.10364900
0.15763800 5.96805000 0.07418500
0.15337600 5.96967000 0.10400900
0.10014700 5.92680000 0.16901700
0.10009000 5.91943000 0.14518100
0.09494010 5.94342000 0.14518600
-0.56778600 7.25667000 -0.03519950
-0.56677400 7.23817000 -0.04734870
-0.57183200 7.23542000 -0.03815720
-0.55000300 7.15417000 -0.06056090
-0.55386500 7.15391000 -0.05049130
-0.55941600 7.17805000 -0.04803680
-0.20628100 -3.15100000 0.29014000
-0.20979300 -3.11988000 0.25103200
-0.20732300 -3.10208000 0.27476600
-0.19639600 -3.12197000 0.34232600
-0.20271700 -3.16068000 0.31650800
-0.55545700 6.60962000 0.01151310
-0.57402500 6.62246000 0.01558510
-0.55584200 6.58917000 0.00792889
0.11155200 9.55453000 0.25165900
0.12530300 9.54311000 0.26290400
0.12181600 9.53875000 0.25188500
0.11108900 9.58273000 0.21111300
0.10754600 9.58921000 0.22691400
0.10665300 9.56721000 0.23296800
0.18907900 9.46005000 0.22039200
0.19940500 9.39692000 0.24752500
0.19680700 9.34375000 0.25741000
-0.57620200 6.84081000 -0.11990500
-0.57360400 6.88574000 -0.12873200
-0.57058400 6.90322000 -0.11925800
0.14427700 9.55908000 0.26959500
0.13009400 9.54818000 0.26754100
0.11153100 9.57421000 0.25241400
-0.02032410 9.72037000 -0.52170400
-0.02314320 9.69118000 -0.54304500
-0.01474240 9.72465000 -0.51510100
-0.00822104 9.69589000 -0.52776900
-0.57776800 5.75069000 -0.16748100
-0.59300900 5.74249000 -0.17121400
-0.57944200 5.76100000 -0.16670000
-0.58635900 5.77081000 -0.16680800
-0.60315500 5.76162000 -0.17711400
-0.56701600 6.97486000 -0.41347500
-0.56561400 6.94422000 -0.41792700
-0.56729800 6.95604000 -0.39555900
-0.59206900 6.99712000 -0.36923800
-0.58472100 6.98012000 -0.36142700
-0.52380000 6.65653000 0.02420150
-0.53110200 6.68253000 0.01270440
-0.50796400 7.73541000 -0.21509200
-0.50045100 7.77452000 -0.23924700
-0.50283400 7.78545000 -0.23815800
-0.48897000 7.77498000 -0.26669800
0.14077500 9.13898000 0.48227400
0.11000100 9.18409000 0.50499100
0.12071200 9.15444000 0.49718100
0.10999100 9.16770000 0.48686000
0.07252080 9.09198000 -0.43306500
0.06467470 9.06855000 -0.41933900
0.07423590 9.07138000 -0.44330900
0.07544260 9.08377000 -0.45337400
-0.59028200 7.01388000 -0.39447600
-0.57558100 6.99311000 -0.39890700
-0.58171200 6.98644000 -0.38034500
-0.59177100 6.99903000 -0.38151000
0.20218300 5.45089000 -0.03830100
0.19004400 5.43447000 -0.02111950
0.20526400 5.48039000 -0.02852930
-0.14278200 9.70497000 -0.32594500
-0.20392900 9.62514000 -0.51485900
-0.20207500 9.61810000 -0.54295300
-0.20239900 9.60129000 -0.52623900
-0.20508400 9.61922000 -0.52526300
-0.31789400 -0.23936500 -0.72365100
-0.31714400 -0.18993600 -0.72864800
-0.30925200 -0.24097800 -0.70935000
-0.31714400 -0.18993600 -0.72864800
-0.31789400 -0.23936500 -0.72365100
-0.32173500 -0.19071700 -0.73427000
-0.49692900 7.99828000 -0.32488200
-0.49804300 7.95519000 -0.31909000
-0.49102900 7.98438000 -0.31001100
-0.50154000 8.02607000 -0.30369500
0.08060330 8.09069000 0.29314900
0.05679770 8.10300000 0.30140100
0.12313600 8.07390000 0.27887400
-0.49262600 7.80052000 -0.29211600
-0.51033100 7.76217000 -0.26717600
-0.49510100 7.76655000 -0.26603600
-0.36365600 7.17212000 0.24864500
-0.36307100 7.14947000 0.24936900
-0.35719200 7.13850000 0.26076800
-0.36259400 7.11287000 0.24403900
-0.35038800 7.08879000 0.27011400
0.04618880 5.56628000 -0.44764300
0.05315690 5.58709000 -0.45863200
0.06010450 5.58338000 -0.44492200
0.07485730 5.57915000 -0.43203300
-0.48701300 8.00141000 -0.29458100
-0.49359600 8.01705000 -0.30245300
0.13907500 7.87806000 0.13724700
0.13690800 7.88437000 0.11313900
0.13021700 7.88452000 0.13682600
0.14505700 7.86731000 0.15691900
0.14760900 7.54924000 -0.10458800
0.13925400 7.53978000 -0.11248000
0.15287200 7.57801000 -0.05983700
0.15607100 7.57342000 -0.03047030
-0.37857400 4.84187000 -0.87449000
-0.39129800 4.86274000 -0.86115000
-0.40537300 4.87648000 -0.87048500
-0.38707200 4.87475000 -0.88904800
0.02309190 5.01691000 0.45681000
0.02755930 5.02734000 0.42988200
0.02664020 5.09657000 0.45582900
0.11914100 6.40934000 -0.29211100
0.11134600 6.43211000 -0.28474200
0.10867100 6.40625000 -0.29450900
0.10364400 6.43243000 -0.28016200
0.09351250 6.40148000 -0.27511900
0.10596000 6.40129000 -0.29279900
0.12830200 7.87923000 0.15111200
0.13693400 7.90107000 0.16552000
0.13706700 7.90305000 0.13316000
-0.50020000 5.26687000 0.03984770
-0.50131900 5.25392000 0.02988590
-0.48297200 5.23144000 -0.00589437
0.09306580 5.46365000 -0.31158300
0.09505290 5.45641000 -0.31700000
0.04378060 5.52051000 -0.37301700
0.09134040 5.49720000 -0.32053800
0.11879700 5.49278000 -0.31305600
-0.13420700 4.24366000 0.48716800
-0.20182400 4.16973000 0.34722000
-0.38068900 9.01933000 -0.71396700
-0.37412700 9.02480000 -0.68584300
-0.34414900 8.99121000 -0.67650200
-0.34020500 9.00323000 -0.64726900
-0.32635600 8.98934000 -0.63889400
-0.44280100 9.25842000 -0.26944000
-0.44157400 9.26248000 -0.28105000
-0.46313100 9.26004000 -0.22568000
0.17501400 8.85170000 0.05060020
0.14327500 8.85973000 0.07651110
0.14033300 8.85239000 0.05234610
0.12538000 8.84103000 0.11109500
0.04397570 5.54687000 -0.38497100
0.07133980 5.49594000 -0.33483900
0.04384730 5.52989000 -0.36978700
0.07274680 5.50950000 -0.33615300
-0.52488300 5.10494000 -0.62932800
-0.54179800 5.14656000 -0.64092200
-0.51950700 5.10457000 -0.64137900
-0.54975200 5.16739000 -0.62919900
-0.54802700 5.21319000 -0.63085800
0.18631100 7.51325000 -0.10572300
0.16929400 7.53747000 -0.09675210
0.19365900 7.52804000 -0.09918090
0.19885600 7.51764000 -0.09441050
0.19055800 7.49782000 -0.09319870
0.19256500 7.50603000 -0.10210300
-0.41941200 5.00014000 0.12729100
-0.41146300 5.03418000 0.14410800
-0.24626700 4.88403000 -0.83975200
-0.27052400 4.84580000 -0.82228300
-0.23575000 4.86096000 -0.78518800
-0.56040200 7.66210000 -0.21273500
-0.56570600 7.66392000 -0.22830400
-0.54047300 7.67975000 -0.20800000
-0.47782700 9.12125000 -0.00846185
-0.46590800 9.11231000 -0.00149887
-0.44808500 9.08721000 0.02937240
-0.45721000 9.07528000 0.03148290
0.14588900 5.96205000 -0.02457530
0.15584600 5.97121000 -0.04898170
0.17368900 5.96368000 -0.05759300
0.19682700 5.95179000 -0.05995000
0.14082100 7.92115000 -0.32311100
0.09257790 7.93295000 -0.33410400
0.12088700 7.92787000 -0.32749600
0.12767000 7.91506000 -0.33750900
0.16194100 6.83394000 -0.22579300
0.13821700 6.86466000 -0.22136200
0.11558800 6.85458000 -0.23407600
0.11248100 6.89268000 -0.23390100
0.12591400 6.86332000 -0.22513600
-0.59766100 7.02534000 -0.32282300
-0.59118100 7.03548000 -0.35246700
-0.58569100 7.00489000 -0.27816900
-0.59655700 7.01853000 -0.30255500
-0.51592300 9.08224000 0.02072520
-0.51660100 9.10370000 0.01297140
-0.52347600 9.10078000 -0.00730133
-0.50136000 9.11544000 0.01848120
-0.49374000 9.12128000 -0.00475954
-0.50806100 9.12084000 -0.00105211
-0.21552400 9.74625000 -0.35910100
-0.24149600 9.73561000 -0.43074400
-0.44752500 5.16721000 0.14864700
-0.46420400 5.14971000 0.15530200
-0.45598800 5.18081000 0.17416700
-0.51288800 6.05429000 -0.19961500
-0.52290600 6.06020000 -0.22719000
-0.53280700 6.04261000 -0.23274100
-0.52813400 6.06691000 -0.22903300
-0.51709400 6.06890000 -0.20354300
-0.52712700 6.08331000 -0.17651300
-0.47997800 7.68141000 0.16101200
-0.49937800 7.68743000 0.12074900
-0.34174600 9.37527000 -0.79544300
-0.36877600 9.38720000 -0.78731400
-0.37040400 9.35955000 -0.78722700
-0.40275900 9.34082000 -0.79001000
-0.38555200 9.37029000 -0.78500400
0.20815000 7.23264000 -0.12167700
0.21153900 7.22448000 -0.09645420
0.21746000 7.24407000 -0.08296990
0.20912600 7.24403000 -0.11057000
0.21920000 7.27190000 -0.05366480
-0.48585300 7.55405000 0.01026530
-0.49179400 7.54280000 0.01784440
-0.48227400 7.54891000 0.03932900
-0.48470800 7.53766000 0.07583330
-0.49769900 7.53173000 0.04903920
-0.51833600 7.70465000 -0.45641400
-0.50771200 7.69298000 -0.45915000
-0.50244900 7.71238000 -0.46004400
-0.52978700 7.69449000 -0.47070900
-0.51670300 7.68850000 -0.46489100
0.18310700 6.07456000 0.00125854
0.18674200 6.07957000 0.02043760
0.18325100 6.07213000 0.02038110
0.17447500 6.08243000 -0.02643930
0.17151200 6.08793000 -0.05830160
0.17604100 6.08887000 -0.02434940
-0.50639200 7.34988000 -0.27308600
-0.50815900 7.35658000 -0.19422300
-0.53789000 7.39724000 -0.13957700
-0.52354300 7.37907000 -0.15385800
-0.52692700 9.13486000 -0.03829070
-0.51658500 9.11493000 -0.00318824
0.08201540 8.31699000 0.30866700
0.12529800 8.29301000 0.28234500
0.13477200 8.33900000 0.27201400
0.13071000 8.32275000 0.28826100
-0.40055600 7.43333000 0.19474800
-0.40503400 7.45095000 0.17333000
-0.42282600 7.44888000 0.14601800
-0.44540000 7.45063000 0.09892000
0.08541460 6.73715000 -0.45577200
0.07793300 6.74670000 -0.46117900
0.09352790 6.74753000 -0.43461100
0.04194220 6.73188000 -0.52377400
0.01435220 6.72961000 -0.57035300
0.02944380 6.73514000 -0.54422600
0.13130000 7.18175000 -0.14686400
0.14637200 7.16695000 -0.14005000
0.13696400 7.13559000 -0.14355200
0.12243300 7.23980000 -0.17606100
0.12442500 7.19096000 -0.17013000
-0.34228500 9.61852000 0.24800800
-0.32023500 9.60555000 0.25440600
-0.34487800 9.60818000 0.27089400
-0.40409900 7.59187000 -0.83207600
-0.40761200 7.61366000 -0.79618200
-0.40250700 7.61456000 -0.81559800
-0.39498500 7.61825000 -0.83055600
-0.12428600 6.21645000 -0.21536900
-0.13186000 6.21428000 -0.25879000
-0.12883000 6.19297000 -0.26027400
-0.14651500 6.22225000 -0.37556400
-0.14740900 6.22770000 -0.34499000
-0.15086500 6.23119000 -0.46116800
-0.34155000 8.55272000 0.47193200
-0.37581600 8.57843000 0.39901100
-0.36607000 8.56966000 0.42291900
-0.37330500 8.58642000 0.41891400
-0.04345190 8.77891000 -0.56069400
-0.34590000 8.36164000 0.37310500
-0.33169100 8.35644000 0.38111100
-0.35928100 8.37554000 0.39669500
-0.32717800 8.34052000 0.37101000
-0.50552500 7.32904000 -0.36791300
-0.50587400 7.33118000 -0.31085800
-0.50095400 7.34916000 -0.30920500
-0.49487000 9.17525000 -0.68924200
-0.50197100 9.17692000 -0.67254800
-0.49681100 9.20585000 -0.67359600
-0.48939100 9.22953000 -0.67413500
-0.10875300 5.04042000 -0.63866800
-0.12326900 5.06988000 -0.65529500
-0.11438100 5.05977000 -0.66160100
-0.47689700 9.09015000 -0.08535760
-0.46686900 9.08002000 -0.11448300
-0.47459200 9.08490000 -0.13259400
-0.51010000 7.33409000 -0.40217300
-0.50110300 7.34457000 -0.39535900
-0.49807900 7.33877000 -0.35762200
-0.50048200 7.36215000 -0.39804500
0.10459900 6.41539000 0.08365380
0.11243500 6.40864000 0.10766000
0.10921000 6.40224000 0.07478060
0.11409300 6.36822000 0.00028805
-0.39693600 5.98473000 0.19594000
-0.42135300 5.97723000 0.15239000
-0.42362200 5.95637000 0.15553800
-0.42709900 6.00357000 0.19280200
-0.45488400 6.00559000 0.20285100
-0.52077500 7.89652000 -0.28100400
-0.54523800 7.87259000 -0.29063200
-0.54401100 7.88067000 -0.27430800
-0.52791300 7.85191000 -0.30889200
-0.50649500 7.84398000 -0.30164100
-0.53277600 7.85229000 -0.28988700
-0.15599400 9.25734000 0.34449900
-0.16074900 9.25549000 0.33111200
-0.17107000 9.27579000 0.32810300
0.11815000 6.41957000 -0.01233880
0.11340000 6.42158000 0.01062980
0.10771100 6.40280000 0.00336901
0.10866100 6.39814000 0.03174470
-0.42582500 5.99291000 0.15635900
-0.41318300 5.99144000 0.17037800
-0.41195600 6.00371000 0.19864100
-0.39809100 6.01311000 0.21508300
-0.49730900 6.86698000 -0.52119600
-0.49957800 6.85567000 -0.46521000
-0.47275800 7.56596000 0.07237240
-0.48684900 7.56731000 0.04292860
-0.47925900 7.55870000 0.04728820
0.02691740 9.91736000 0.08089120
0.03875860 9.92056000 0.10501000
0.02956190 9.89823000 0.10393700
0.03137970 9.87226000 0.07699890
0.03266860 9.86565000 0.11029900
0.09109400 5.78259000 0.15761200
0.10016700 5.83631000 0.12826600
0.08928140 5.81613000 0.15860300
-0.59089300 6.10860000 -0.18256700
-0.59239200 6.12849000 -0.11975700
0.12472300 7.16191000 -0.15229200
0.12178000 7.19865000 -0.15837100
0.13364200 7.24346000 -0.13861200
0.12075300 7.24599000 -0.15480800
-0.55798300 7.07010000 -0.45641900
-0.56450500 7.08887000 -0.44336100
0.02601890 9.88045000 0.14781500
0.02971600 9.88931000 0.11874100
0.04247640 9.90553000 0.12435300
-0.45765200 7.95333000 0.17479400
-0.46625800 7.93475000 0.18313800
-0.42867500 7.95729000 0.18123300
-0.42500900 7.95076000 0.20189100
-0.26881400 5.56584000 0.50230000
-0.24737600 5.54363000 0.48657200
-0.29380600 9.76214000 0.23802000
-0.27621300 9.80460000 0.22042300
-0.28482000 9.79248000 0.21294700
-0.26704800 9.76765000 0.24593800
-0.12048100 0.55718200 0.39842100
-0.11948500 0.50194600 0.32295700
-0.11884300 0.58163500 0.35182600
-0.11672700 0.59699900 0.31206600
-0.11368200 0.56957800 0.26087600
-0.07597140 9.90404000 -0.11049800
-0.09945350 9.94637000 -0.15933700
-0.09609520 9.94341000 -0.13842700
-0.47620400 6.54692000 0.19372100
-0.45256300 6.55237000 0.19898500
-0.49812000 6.54739000 0.18565400
-0.49664600 6.56228000 0.21551400
-0.51969200 6.55405000 0.17057800
-0.56801200 8.29760000 -0.30303300
-0.56304600 8.31530000 -0.31746700
-0.58043800 8.30440000 -0.31177800
-0.58285200 8.31438000 -0.33683600
-0.15567600 5.77040000 0.35029100
-0.15602500 5.79037000 0.34564900
-0.15567600 5.77040000 0.35029100
-0.13608600 5.78379000 0.34465800
-0.55057300 7.22152000 -0.44260100
-0.54485300 7.19837000 -0.43010200
-0.54789800 7.22951000 -0.41327500
-0.55246300 7.12324000 -0.45507300
-0.55753100 7.11871000 -0.44586600
-0.01902490 8.90117000 -0.57379800
-0.03820910 8.88608000 -0.62384900
-0.03722310 8.91371000 -0.63280900
-0.03473270 8.90705000 -0.61789200
0.13493100 8.98148000 0.03158550
0.13515700 8.97557000 0.05331140
0.14928800 8.97578000 0.09325620
0.15030500 8.98281000 0.11234800
0.15408400 8.31561000 0.11192200
0.13698000 8.30135000 0.10409100
0.13509000 8.31645000 0.09966970
0.15379200 8.35162000 0.10798300
-0.38590100 8.93450000 -0.74906400
-0.36957700 8.92569000 -0.74195200
-0.31936800 9.70798000 0.31903400
-0.31641000 9.67850000 0.34507400
-0.31751900 9.72513000 0.29114700
-0.30762400 9.71112000 0.32218700
0.04306680 7.79202000 -0.43434400
0.11095100 8.55276000 0.12997100
0.13554200 8.51864000 0.00216230
0.14009200 8.52913000 0.03301820
0.12916900 8.52228000 0.03760880
-0.46410600 7.90930000 0.22359600
-0.45217200 7.92999000 0.20509000
-0.43412800 7.94494000 0.19172900
-0.46752100 7.92566000 0.19342900
-0.02920750 8.46052000 -0.62983100
-0.01732010 8.45611000 -0.61861600
-0.00075993 8.43145000 -0.60235900
-0.00588460 8.41486000 -0.61467200
-0.41003000 9.90079000 -0.09169410
-0.41890800 9.88450000 -0.08125480
-0.39126700 9.92780000 -0.07252020
-0.42206600 9.87847000 -0.09732200
-0.43516000 9.83589000 -0.09911410
-0.42707300 9.86528000 -0.08552190
-0.32801000 -1.62725000 0.08194390
-0.34390200 -1.63451000 0.03515430
-0.33570700 -1.69160000 0.06338110
-0.32599200 -1.83176000 0.09235250
-0.29739500 -1.79861000 0.15435700
-0.32476400 -1.78587000 0.09286590
-0.00743021 9.34417000 -0.60876700
-0.00946367 9.35797000 -0.60119300
-0.00836482 9.35132000 -0.58467900
-0.00974608 9.36098000 -0.56807800
-0.52240800 8.99026000 -0.73084500
-0.51804900 9.01142000 -0.74357000
-0.52856500 8.96146000 -0.72810300
-0.50931900 9.04249000 -0.72639800
-0.25268500 9.34731000 0.47650800
-0.24996400 9.37172000 0.48634600
-0.25027200 9.37119000 0.47563500
-0.24854600 9.34903000 0.46519000
-0.48410200 6.09641000 -0.54147900
0.09333270 4.99798000 -0.20673700
0.11140800 5.01111000 -0.22239400
0.12109700 5.03529000 -0.20229600
0.11094000 5.01602000 -0.20098100
-0.40608100 -2.45223000 -0.14358300
-0.40963000 -2.50289000 -0.16231500
-0.40625100 -2.50555000 -0.13371800
-0.39056900 -2.43426000 -0.07648950
-0.40050000 -2.43101000 -0.11615700
-0.39761900 -2.47298000 -0.09637720
0.17241600 7.83438000 0.00839611
0.14745000 7.84394000 0.04581440
0.15380700 7.84460000 0.06009980
-0.38355900 6.94590000 0.21697700
-0.39410100 6.94081000 0.20995300
-0.40098700 6.92683000 0.20888500
-0.37175400 6.97589000 0.23991500
-0.40457200 6.16056000 -0.61812800
-0.41736300 6.16431000 -0.62225700
-0.40240500 6.17931000 -0.61921200
-0.41736300 6.16431000 -0.62225700
-0.42810500 6.18773000 -0.62100900
-0.41318800 6.19934000 -0.62220000
0.04824290 4.98423000 0.34112000
-0.36455000 -2.36688000 0.00345122
-0.34981300 -2.35399000 0.04129060
-0.35017700 -2.31448000 0.04231760
-0.38501300 -2.36492000 -0.05782400
-0.37771600 -2.32227000 -0.02442640
0.05087710 5.04964000 0.25004600
0.04383200 5.00074000 0.25072900
0.04898230 4.99552000 0.23720400
0.04801180 5.00469000 0.22784300
-0.56997300 6.37712000 -0.28153800
-0.57055900 6.36010000 -0.31405200
-0.57061000 6.33861000 -0.32061000
-0.57629400 6.34256000 -0.30007000
-0.00212577 9.04678000 0.39412300
-0.00468810 9.03762000 0.36782700
-0.01170240 9.03378000 0.37557500
-0.39940100 9.01284000 -0.77876500
0.00123763 8.60677000 0.32490400
-0.36506800 7.05216000 0.28970900
-0.34622300 7.05450000 0.27474600
-0.35682200 7.03698000 0.28904600
-0.36352800 7.00430000 0.29169100
-0.55333100 6.80845000 -0.27274700
-0.55588300 6.85444000 -0.29104300
-0.55727500 6.79977000 -0.28444900
-0.57163200 6.76965000 -0.29749700
-0.56404800 6.81499000 -0.29702500
-0.36996200 7.05834000 0.29869000
-0.36289100 7.03580000 0.30249000
-0.36397500 7.04356000 0.31491600
-0.36121700 7.07185000 0.31522400
-0.43461100 9.61642000 -0.27395400
-0.43143800 9.63385000 -0.24487500
-0.42100900 9.64823000 -0.26676000
-0.43940700 9.60198000 -0.25423600
-0.43862100 9.59266000 -0.23887700
-0.43506300 9.61996000 -0.21012600
-0.59663900 6.73550000 -0.36501200
-0.59565300 6.76172000 -0.33523900
-0.59368100 6.75858000 -0.34987400
-0.58531600 6.79839000 -0.32582700
-0.58069500 6.80609000 -0.33640000
0.14499500 6.03476000 0.00701995
0.15874200 6.02375000 0.00617268
0.16036400 6.05352000 0.02774460
0.07414340 8.19425000 -0.50074400
0.07329100 8.20267000 -0.50010700
0.02793410 8.23668000 -0.57996000
0.04102820 8.19802000 -0.57389100
-0.03117410 8.62219000 0.36716900
0.01694540 8.61263000 0.40443400
0.01541520 8.60118000 0.41395900
-0.35263700 7.08282000 0.27884800
-0.36470400 7.07218000 0.28964200
-0.36302500 7.09005000 0.29282100
-0.36811900 7.06126000 0.30625900
0.12102000 5.56002000 -0.36697300
-0.10798300 9.51125000 0.53674600
-0.12822500 9.54408000 0.53473300
-0.14852300 9.55216000 0.53451700
0.13900300 8.38327000 -0.33100300
0.14205300 8.39607000 -0.34050800
0.14131900 8.42260000 -0.34305500
0.12533900 8.35403000 -0.33017100
-0.55144100 8.49963000 -0.40657900
-0.54869400 8.46838000 -0.41504100
-0.55676600 8.48621000 -0.41631000
-0.55420400 8.45325000 -0.42397100
-0.15617400 8.89950000 -0.75794800
-0.16234100 8.91360000 -0.77942200
-0.07969420 8.90855000 -0.77855900
-0.18284000 8.90939000 -0.76611700
-0.18028300 9.43376000 0.54633300
-0.15399200 9.40144000 0.54946000
-0.15607100 9.43583000 0.54639400
-0.19389500 9.40376000 0.53365400
-0.19005400 9.37141000 0.52038100
-0.03558510 8.40443000 0.12326000
-0.01723280 8.41139000 0.14233600
-0.00746097 8.42427000 0.18646600
-0.38949500 -3.12221000 -0.52376300
-0.38678900 -3.13055000 -0.51589700
-0.38530500 -3.19112000 -0.50501100
-0.36437000 -3.24833000 -0.43853400
-0.37076800 -3.21143000 -0.45941200
-0.46286900 7.97157000 0.16669600
-0.45953100 7.99095000 0.16476500
0.05106700 9.81363000 -0.31850400
0.03685350 9.83370000 -0.32618100
0.03856860 9.84247000 -0.31311300
0.02877630 9.80976000 -0.36127300
-0.40099800 7.65190000 -0.72969500
-0.38722100 7.68980000 -0.66485600
-0.33993300 -2.41121000 0.07542260
-0.33419700 -2.37205000 0.08286310
-0.36127900 -2.38826000 0.01318710
-0.29623000 -2.38920000 0.17343800
-0.31854600 -2.42885000 0.12222800
0.06176830 5.14392000 0.26136900
0.05922140 5.11787000 0.27096600
0.06120350 5.11119000 0.25641900
0.05872330 5.06960000 0.24456200
0.05519050 5.07046000 0.25567400
-0.22142400 7.25647000 -0.78232300
-0.22410900 7.31473000 -0.84289500
-0.21672500 7.28699000 -0.81405200
-0.22985000 7.27337000 -0.82387000
-0.57593000 6.74953000 -0.30521000
-0.59250000 6.76952000 -0.32480000
-0.03610890 6.24750000 -0.53252400
-0.01471160 6.22690000 -0.56465800
0.00850859 6.22846000 -0.58078700
-0.09912990 5.46555000 0.27233700
-0.11172600 5.46741000 0.26973900
-0.11156700 5.46290000 0.30388600
-0.11950500 5.47543000 0.16859100
-0.13369800 5.47293000 0.17068600
-0.09855480 5.46360000 0.23207400
-0.07174010 9.04982000 0.34774400
-0.08277000 9.04350000 0.38531600
-0.06704170 9.03958000 0.38482800
0.15842800 9.43449000 -0.33605600
0.13205000 9.43645000 -0.33905500
0.15138800 9.43591000 -0.33991700
0.13987600 9.41990000 -0.34871800
-0.01211330 9.98980000 -0.02878600
-0.02361040 9.99541000 -0.04368760
-0.01303240 9.98871000 -0.00114973
-0.00115531 9.96352000 -0.01796150
-0.00415922 9.98279000 -0.03744350
-0.00075478 9.97641000 -0.00946833
-0.42649300 8.22023000 0.22002800
-0.43784600 8.21118000 0.22464900
-0.43989500 8.17121000 0.22547100
0.00566384 6.43110000 -0.45711700
-0.01728930 6.47592000 -0.49025800
0.00035435 6.45891000 -0.46406500
-0.00628513 6.43089000 -0.47448900
0.09004130 5.59613000 0.16619300
0.10026500 5.52634000 0.20570600
0.09735860 5.60229000 0.13709300
-0.49300600 8.98370000 -0.76713400
-0.51987200 8.98513000 -0.75261200
-0.51245200 8.95932000 -0.74331800
0.18667600 5.49776000 -0.20602400
0.18802600 5.46048000 -0.20966400
0.18923300 5.46674000 -0.22054500
0.17779200 5.52347000 -0.21224700
0.18542300 8.24068000 -0.00455934
0.18395900 8.23972000 -0.01780750
0.16579700 8.26665000 -0.01633890
0.16908900 8.26503000 -0.02564850
0.13681000 5.04641000 -0.12645800
0.13988600 5.05970000 -0.12742300
0.13255900 5.04604000 -0.13991100
-0.23971400 4.94287000 0.57118600
-0.23607400 4.94653000 0.56175800
-0.35714000 9.81554000 0.09608560
-0.32799400 9.78510000 0.19264800
-0.41434900 9.53945000 -0.75686400
-0.38371900 9.57985000 -0.74476100
-0.40543900 9.58322000 -0.73960000
-0.17038200 4.66025000 0.47396600
-0.14641800 4.69830000 0.52654200
-0.17950200 4.69918000 0.45865300
-0.15248200 4.60029000 0.49999500
-0.53841900 8.40284000 -0.49419600
-0.53741300 8.38109000 -0.51467500
0.06019180 7.49412000 -0.41752200
0.05854860 7.54190000 -0.43762000
0.04565480 7.50562000 -0.43578100
0.03584190 7.50876000 -0.44130100
-0.57156500 5.33922000 -0.62901400
-0.57349100 5.35748000 -0.62282200
-0.56847400 5.32805000 -0.64262200
-0.55711000 5.33618000 -0.66089700
-0.53781800 5.35753000 -0.65938700
-0.51443900 5.35386000 -0.67055100
-0.38004200 3.19989000 -0.52696200
-0.38775500 3.15104000 -0.47447800
-0.37430100 2.89045000 -0.56026300
-0.48158000 8.05524000 -0.54984900
-0.49695400 8.05225000 -0.53858300
-0.50803600 8.04846000 -0.50748600
-0.40283600 9.92785000 -0.33060200
-0.38510500 9.92927000 -0.35265200
-0.39635100 9.91997000 -0.34793300
-0.37697700 9.92004000 -0.41263300
-0.38791900 9.91408000 -0.42715500
-0.05612490 5.75563000 -0.60162500
-0.06324190 5.75804000 -0.60715500
-0.06461300 5.78820000 -0.60155800
-0.04555200 5.71509000 -0.60797100
-0.05463060 5.74588000 -0.58955200
-0.05614540 5.73084000 -0.58099200
-0.02733330 8.89330000 -0.60045400
-0.01846520 8.88768000 -0.59245900
