67.72750000 -8.76250000 -2.41560000
63.89410000 -7.81540000 -2.33540000
65.26750000 -8.28240000 -2.30830000
-6.54810000 17.30030000 -1.93030000
-7.37580000 17.96500000 -2.44890000
-6.57840000 18.51630000 -1.80570000
-7.52820000 19.83530000 -2.37480000
-7.72920000 17.19530000 -2.58320000
-7.99050000 18.42200000 -2.53080000
9.74790000 -51.27400000 -3.35120000
10.06140000 -51.68550000 -3.18560000
9.94980000 -49.12840000 -3.10810000
9.56110000 -47.92500000 -3.38050000
68.77230000 -11.13880000 2.03990000
69.32960000 -11.61250000 1.95810000
66.15470000 -12.97240000 1.97110000
68.78570000 -12.52450000 1.97080000
-4.72540000 15.39240000 3.65310000
-5.35370000 14.94740000 3.82490000
-3.62730000 14.47870000 4.00700000
9.05190000 -42.68680000 3.04790000
8.92370000 -44.72090000 3.26260000
9.37590000 -46.65420000 3.15230000
8.97140000 -40.62640000 2.89950000
9.15410000 -39.70970000 2.43150000
37.46440000 -15.56080000 1.81770000
39.56730000 -16.05320000 1.76750000
42.75900000 -15.92170000 1.96580000
42.21670000 -16.38230000 1.87420000
44.79630000 -16.59000000 1.91630000
-90.57830000 25.93700000 -1.45050000
-88.81920000 26.07080000 -1.59780000
10.04490000 -94.52260000 1.12660000
10.94290000 -94.58590000 1.03150000
-31.70810000 0.43790000 -0.19460000
-31.62780000 0.61340000 1.39840000
-31.25780000 0.48560000 -0.12350000
-29.92670000 -0.02090000 -1.73300000
-30.48670000 0.06450000 -1.49670000
10.32850000 -2.96680000 2.25130000
11.96040000 -2.87870000 2.08560000
11.44650000 -1.82970000 1.99380000
13.95600000 -0.09310000 2.05530000
11.74810000 -0.17870000 1.98180000
-6.57900000 -36.32170000 -1.90730000
-5.57590000 -37.56030000 -1.88880000
-6.75600000 -37.27040000 -1.91200000
-8.43440000 -40.34060000 -1.73340000
-9.09450000 -39.58410000 -1.85060000
-8.63000000 -78.56720000 1.37490000
-4.85640000 -78.16630000 1.59400000
-24.16010000 -11.63920000 -2.05980000
-22.98670000 -13.03130000 -2.02030000
7.87990000 -8.87480000 -4.22200000
7.29020000 -8.32400000 -3.73590000
7.38750000 -8.02080000 -3.93620000
8.22270000 -7.86560000 -4.45880000
-133.90600000 14.02650000 -3.08500000
-133.18700000 12.61230000 -3.23150000
-135.57900000 11.01220000 -3.46910000
-129.01700000 14.62530000 -2.99140000
-130.37400000 12.26810000 -3.26770000
-37.67520000 -9.53670000 -1.89280000
-4.46970000 -49.36060000 1.35810000
-5.42940000 -52.23900000 1.30960000
-1.77370000 -51.99300000 1.39380000
-8.42250000 -49.16340000 1.33610000
9.71560000 -9.19090000 7.80110000
9.12780000 -10.09070000 7.58250000
10.76450000 -10.79640000 8.25920000
9.32110000 -13.99050000 7.44790000
26.47070000 11.53820000 2.45830000
28.71830000 11.12650000 2.55010000
34.03080000 12.24650000 2.60070000
8.52580000 -28.04950000 -2.25940000
8.10340000 -28.54040000 -3.55670000
8.21700000 -27.25250000 -3.25120000
7.16750000 -27.33590000 -4.26580000
7.43890000 -27.31310000 -4.17850000
10.13470000 14.48210000 -1.85000000
10.56410000 15.10240000 -1.62460000
10.67410000 14.16110000 -1.62500000
8.19150000 -59.75990000 1.82090000
7.94360000 -57.59020000 1.75670000
7.82230000 -58.50870000 1.67630000
8.46920000 -57.93960000 1.91590000
47.28470000 -5.35630000 2.11150000
46.86210000 -4.66670000 1.94550000
45.69190000 -5.66440000 2.01090000
47.67320000 -2.52660000 1.98070000
50.64450000 -15.25540000 2.11450000
44.76050000 -17.17520000 1.98640000
-39.71070000 2.26170000 2.96830000
-38.56860000 0.87750000 2.68370000
-38.54370000 1.34440000 2.69690000
9.09890000 -16.81090000 -3.48160000
9.08780000 -16.48150000 -3.93970000
9.51600000 -15.44250000 -4.23350000
9.18130000 -16.52470000 -4.34650000
9.59370000 -15.79730000 -4.57740000
14.45430000 -7.71070000 7.32290000
13.75890000 -7.05970000 7.07010000
14.78630000 -5.99140000 7.62870000
14.99750000 -7.13830000 7.67870000
28.51100000 -19.47970000 1.92970000
28.06570000 -19.71820000 1.70570000
29.34800000 -17.47330000 2.15690000
30.32530000 -18.52630000 2.00590000
30.76490000 -17.48630000 2.01000000
-69.47160000 -9.47940000 -1.69510000
7.33640000 4.53220000 2.12850000
7.72960000 4.90410000 2.24920000
6.60550000 5.44500000 2.37420000
8.28900000 8.15000000 2.20920000
7.83810000 7.32840000 2.29200000
9.13240000 7.29390000 2.18390000
-125.44800000 23.99540000 -1.78710000
-127.29900000 23.81780000 -1.95780000
-146.81200000 0.05630000 -1.55800000
-147.02000000 -0.14450000 -2.05410000
-79.06510000 16.72550000 0.53880000
-81.25940000 16.70030000 0.49230000
-80.77200000 15.41510000 0.66240000
-79.40790000 14.12080000 0.82190000
16.17440000 -85.82250000 -0.19840000
16.05020000 -86.36370000 -0.96080000
15.36140000 -86.02760000 -0.41540000
39.71910000 -4.99030000 -1.09580000
39.43700000 -5.19280000 -0.12890000
40.47590000 -4.94880000 -0.71840000
-26.28890000 8.18560000 2.98990000
-25.88690000 7.52000000 2.20990000
-3.02660000 -23.79300000 -3.04960000
-3.70010000 -24.05830000 -2.48840000
9.94340000 -11.85160000 -3.42690000
9.37330000 -12.50460000 -3.75550000
10.33540000 -11.92060000 -4.40590000
10.01170000 -11.87160000 -4.05690000
6.95420000 4.34510000 6.18260000
6.33740000 4.26660000 6.13460000
6.34680000 4.77420000 6.17250000
4.03550000 4.79750000 5.62520000
5.60670000 -33.67620000 2.64300000
5.78330000 -32.84040000 3.15170000
4.81050000 -30.97670000 2.70700000
4.42370000 -27.95580000 3.32060000
-101.99400000 -0.93390000 0.30630000
-102.88300000 -2.99640000 0.04870000
-102.43300000 4.43180000 1.26030000
-103.29600000 1.03160000 0.56870000
-101.11200000 2.35100000 0.83600000
14.08010000 6.84010000 2.24520000
16.65570000 3.79190000 2.28760000
16.73070000 5.54320000 2.34140000
15.85840000 5.97990000 2.24400000
27.95230000 -3.75410000 -1.80790000
26.62880000 -5.00900000 -1.79290000
26.97800000 -2.85400000 -1.69690000
25.65280000 -3.28840000 -1.82750000
25.75890000 -5.44660000 -1.90710000
24.81180000 -4.17530000 -1.62210000
-86.19570000 7.55480000 -3.91060000
-91.90610000 8.01800000 -3.89550000
-97.14500000 7.59190000 -3.98000000
8.93920000 -18.60140000 4.43580000
68.61840000 7.22440000 1.65830000
69.84070000 7.25440000 1.85620000
69.37570000 9.18190000 1.70280000
71.18010000 8.76340000 1.72900000
70.14370000 8.72440000 1.84310000
15.15440000 15.94030000 -1.86220000
14.57640000 16.65880000 -1.77570000
-10.76800000 -80.57580000 0.64720000
-11.78290000 -78.02390000 0.41940000
-11.18390000 -77.71350000 0.88180000
-129.73100000 -5.21260000 -2.57160000
-131.88100000 -5.45260000 -2.38180000
-130.45800000 -4.11790000 -2.70080000
-132.07700000 -4.36300000 -2.66570000
-23.20070000 11.16230000 -2.95800000
-26.16970000 9.42520000 -3.13630000
-26.45630000 10.15720000 -3.12440000
-20.24120000 -7.19140000 2.92140000
-19.64560000 -7.71100000 3.36540000
-19.39520000 -6.40200000 3.67470000
-19.43080000 -7.24440000 3.60210000
-18.30230000 -8.35800000 3.63390000
31.73110000 19.94020000 2.40110000
32.64150000 20.74800000 2.01470000
64.64690000 -9.80790000 1.81060000
64.60540000 -8.86950000 1.96820000
64.24770000 -10.27180000 1.94180000
67.05870000 -6.49380000 1.75750000
64.96910000 -7.45740000 1.96320000
65.44140000 -8.39090000 1.72460000
70.88460000 -19.44880000 -2.42790000
71.46580000 -19.22130000 -2.29340000
71.09700000 -19.61320000 -2.09270000
70.36940000 -19.75190000 -2.12470000
56.75630000 17.70220000 -1.88680000
56.31010000 16.37010000 -1.92240000
54.58950000 16.32860000 -1.92460000
53.59150000 20.81130000 -1.77770000
57.60940000 19.87840000 -1.94140000
54.10460000 18.92440000 -1.95310000
8.26630000 -45.62950000 -3.12770000
8.72370000 -47.57770000 -3.22600000
8.00250000 -46.41350000 -2.75960000
8.65290000 -45.19660000 -3.41320000
8.28830000 -42.35680000 -3.54030000
9.20700000 -45.54220000 -3.43800000
-2.50860000 16.24770000 -2.27130000
-3.64450000 16.34150000 -2.21490000
-5.86990000 16.36370000 -2.61060000
-3.33830000 15.85860000 -2.71150000
-16.09380000 10.51220000 4.00970000
-14.53430000 10.93310000 3.91390000
-17.49840000 9.04120000 4.16370000
-16.64190000 9.14820000 4.37990000
-16.04040000 9.99140000 4.21250000
-40.54380000 23.71060000 -0.85160000
-39.53440000 24.85950000 -0.94650000
-42.60520000 23.96780000 -1.09660000
-8.97920000 -23.50050000 -2.86590000
-9.44090000 -25.72480000 -2.03110000
-10.18870000 -26.81110000 -2.03560000
-10.74110000 -25.85740000 -2.60280000
26.28950000 7.12720000 2.34960000
28.75300000 8.96010000 2.66750000
-10.06180000 -27.60220000 -1.93500000
-9.56600000 -30.13480000 -1.92270000
-8.87040000 -31.75360000 -2.05780000
2.45190000 -22.93290000 2.78720000
1.86470000 -21.44360000 2.65530000
2.55750000 -22.29030000 2.73370000
10.13420000 -71.42370000 -1.64490000
10.29620000 -72.28050000 -1.69100000
9.91420000 -72.36330000 -1.51890000
13.39500000 10.66050000 5.93150000
12.60520000 11.17380000 5.69750000
12.78940000 11.34010000 5.89260000
12.93930000 -69.24360000 1.58450000
13.08410000 -71.31570000 2.26170000
-7.40060000 -21.31620000 -3.09410000
-8.32280000 -22.65080000 -3.04600000
-8.89380000 -20.78950000 -3.19140000
4.17760000 30.71000000 0.91660000
4.65120000 30.50030000 1.12020000
4.96280000 30.76670000 0.83710000
5.51330000 29.93520000 0.85030000
5.68940000 30.33840000 0.39020000
5.11990000 30.41700000 1.07730000
-91.63910000 -6.36480000 -2.28410000
-93.35350000 -4.48320000 -2.47820000
-90.32160000 -4.18960000 -2.43920000
-90.77300000 -5.24330000 -2.36640000
-10.40240000 3.26490000 5.63530000
-11.08380000 2.48350000 5.37240000
-11.99620000 2.83250000 5.62050000
-33.00140000 2.87150000 1.92790000
-32.46680000 2.41850000 2.65200000
-32.23130000 0.62720000 0.72750000
-32.37550000 0.95850000 1.80760000
11.70470000 3.78100000 6.94720000
13.43240000 3.67300000 7.76180000
55.54650000 -2.98220000 1.84110000
56.05910000 -3.74720000 2.00530000
56.90750000 -3.63480000 1.86380000
55.77530000 -6.43190000 1.89230000
-3.22110000 -75.12510000 -0.93750000
-2.97620000 -76.39460000 -0.91140000
-0.13090000 -76.38530000 -1.24830000
0.80210000 -76.35430000 -1.13490000
-0.72990000 -77.08380000 -0.90980000
-81.41060000 21.93460000 -2.11720000
-83.26340000 23.18350000 -2.10060000
-78.76050000 21.63730000 -2.15520000
-27.83820000 30.11470000 0.28290000
-26.72430000 30.33310000 0.17230000
-28.22620000 30.13750000 0.15750000
-131.98200000 22.84620000 -1.61250000
-130.57500000 23.24800000 -1.64640000
-132.48600000 22.84090000 -1.97560000
-130.44500000 22.63350000 -1.29510000
-131.78400000 21.99430000 -1.23030000
13.36000000 8.31750000 -2.15100000
12.63030000 7.72920000 -2.04380000
25.58800000 12.66850000 -1.78410000
11.78010000 -16.38110000 7.93540000
-17.44440000 -14.87930000 -1.91690000
-18.47590000 -13.71970000 -1.94450000
-17.21930000 -13.72370000 -2.24380000
-20.06750000 -14.65640000 -1.86030000
5.04050000 3.15520000 -4.78720000
5.54830000 3.00450000 -4.38200000
-125.22800000 -8.08980000 -1.50500000
-125.25000000 -8.24590000 -1.70660000
-123.26900000 -8.38470000 -1.56540000
-128.15500000 -7.43320000 -1.39140000
-15.07310000 -19.13940000 3.06460000
68.70010000 12.53670000 -1.99610000
67.88740000 9.56890000 -2.18200000
67.77990000 12.49670000 -2.12410000
69.64470000 9.17220000 -2.04690000
51.36670000 5.25990000 -1.78030000
52.79860000 7.33560000 -1.83000000
54.32460000 9.60760000 -1.88250000
55.52430000 7.26090000 -1.85950000
1.36560000 9.49170000 -4.23410000
0.68550000 11.19560000 -3.90210000
1.36500000 11.37090000 -4.25740000
-104.62400000 6.96260000 1.43070000
-103.31900000 7.86650000 1.38700000
-104.19100000 9.11740000 1.10680000
-102.90400000 11.28830000 0.69020000
5.33050000 -1.30300000 -4.00630000
5.62530000 -2.83970000 -3.52290000
5.41340000 -2.48050000 -4.21840000
4.87990000 -0.35490000 -4.32160000
4.75810000 -1.13090000 -4.85060000
4.41110000 0.75960000 -4.95380000
7.90210000 -40.39610000 3.51600000
8.29780000 -40.33600000 3.54410000
7.22420000 -38.72930000 3.12070000
6.55790000 -39.23180000 2.47120000
7.46810000 -39.58470000 3.33410000
-111.89500000 -7.20270000 -0.80150000
-113.21800000 -5.99880000 -0.51190000
-113.70500000 -7.42240000 -0.88210000
-116.47300000 -8.03790000 -1.06470000
-116.02400000 -8.84080000 -1.31640000
-98.63260000 20.99680000 -0.27760000
-100.78500000 20.88660000 -0.29970000
-99.80280000 19.30720000 -0.22330000
-101.87000000 18.20270000 -0.18950000
61.28900000 -4.20180000 1.95730000
58.19410000 -9.91020000 2.16920000
-12.89300000 -10.64130000 -3.46280000
-12.77580000 -9.21840000 -3.60070000
-13.58920000 -10.88790000 -3.57920000
-14.81400000 -10.50290000 -3.72940000
16.60470000 -9.27830000 2.13560000
10.97510000 -12.05200000 1.97630000
-16.22110000 3.42210000 4.66370000
-17.05370000 4.93460000 4.89890000
-17.01060000 3.50300000 4.04330000
12.87780000 -15.67900000 6.47120000
13.59930000 -14.56360000 6.95900000
-14.82520000 8.42830000 5.53420000
-13.77380000 9.36910000 5.33770000
3.03570000 -67.58260000 -0.28000000
2.95880000 -67.90760000 0.30300000
3.13740000 -68.55050000 -0.33000000
51.72910000 -12.21440000 -2.35910000
53.61030000 -11.67830000 -2.44850000
48.61680000 -10.19080000 -2.25130000
47.51050000 -11.73400000 -2.19060000
42.57320000 20.25230000 2.41810000
45.62540000 20.26220000 2.41010000
37.33410000 -7.05070000 2.04390000
40.58140000 -7.17830000 2.06400000
38.21140000 -6.64970000 2.05960000
14.48550000 19.34020000 2.47450000
12.00510000 19.50870000 2.37980000
14.88180000 20.04930000 2.04100000
-42.69740000 14.79270000 2.41070000
-54.89080000 -1.96420000 -2.25710000
-51.23330000 -0.65430000 -2.43040000
-47.92640000 1.73220000 -2.82710000
-10.41540000 7.84640000 5.72510000
-10.68170000 7.87270000 5.70570000
-10.77960000 6.22250000 5.88140000
-11.20290000 4.84980000 5.89520000
-10.86880000 4.45080000 5.67540000
11.51620000 -64.07010000 3.00250000
11.67210000 -66.45000000 3.05480000
11.18970000 -65.70330000 3.04970000
39.88970000 12.15450000 2.55180000
39.25140000 13.86030000 2.61320000
37.32770000 13.46880000 2.52780000
34.17430000 13.91690000 2.61790000
34.55610000 13.07650000 2.43750000
35.91170000 13.05810000 2.41300000
14.35110000 1.41860000 -7.77160000
14.62690000 1.43770000 -7.62680000
14.11790000 1.05100000 -7.65080000
14.75620000 1.48600000 -7.47300000
42.96220000 11.68490000 -1.79710000
40.53690000 13.23980000 -1.85680000
42.62630000 15.01120000 -1.83470000
38.97280000 15.39220000 -1.77650000
40.01910000 14.33430000 -1.87890000
0.13140000 19.55290000 -1.40170000
-0.28620000 19.44040000 -0.24090000
0.42810000 20.00610000 -1.33900000
-0.49500000 19.22050000 -1.17730000
-1.02410000 19.20530000 -0.71120000
6.02780000 -51.83660000 1.54550000
4.51330000 -52.07650000 1.54820000
3.68580000 -53.62770000 1.48340000
11.48630000 2.45850000 -4.55640000
-21.74540000 29.79610000 0.08750000
-22.39590000 29.75760000 -0.16280000
-21.74270000 29.80340000 0.28080000
-23.01250000 29.93350000 0.17590000
21.20790000 -88.29630000 1.05400000
21.08710000 -90.92540000 1.04680000
32.55130000 -13.90660000 1.97060000
30.45910000 -12.50320000 2.02240000
29.13670000 -13.58030000 2.04670000
27.95080000 -11.08770000 2.02890000
17.50900000 3.33630000 2.35040000
18.37570000 3.32920000 2.29280000
5.43890000 17.40640000 4.79930000
4.71510000 19.52530000 4.52390000
46.68180000 15.08030000 2.58640000
47.24250000 16.51550000 2.58220000
-38.98240000 28.28200000 0.52540000
-36.84540000 28.31530000 0.57830000
-32.88020000 28.92790000 0.49350000
-30.90620000 29.84320000 0.29580000
-27.31970000 -3.35680000 -3.24080000
-25.66930000 -2.63410000 -3.71760000
-139.68500000 12.02570000 -0.17470000
-140.04300000 13.29490000 -0.44230000
-140.91300000 12.50990000 -0.35370000
-143.37800000 9.58100000 0.04420000
-141.66000000 8.81420000 0.27140000
-105.76900000 22.62740000 -0.51450000
-99.82420000 24.86850000 -0.81060000
-102.08300000 24.66330000 -0.81580000
4.57470000 4.40350000 5.76550000
4.63970000 3.82860000 5.47730000
6.05170000 4.14560000 6.03630000
3.89550000 4.02340000 5.59720000
4.18520000 3.41000000 5.35860000
-11.31750000 -57.54390000 -1.04270000
-16.59480000 -57.16580000 -0.87470000
-14.78790000 -41.73690000 -1.51980000
-15.75380000 -43.01160000 -1.36060000
-16.15750000 -41.75260000 -1.44670000
-15.65690000 -38.78430000 -1.32680000
-14.45050000 2.10030000 4.68480000
-13.34290000 1.64030000 4.45990000
-12.90920000 2.27850000 5.28300000
-13.98690000 1.01500000 3.60570000
-15.88930000 1.91540000 3.76870000
10.74730000 10.64800000 5.34880000
8.96350000 8.99040000 5.22140000
7.18340000 10.08660000 4.71140000
8.32760000 9.99420000 5.06350000
22.34850000 10.47200000 2.79350000
21.56230000 12.12260000 2.74110000
21.03240000 10.83540000 2.60450000
19.79370000 12.83400000 2.80400000
19.75720000 12.01250000 3.01920000
20.66240000 12.06060000 2.87100000
0.78920000 -75.12470000 -1.26250000
1.39750000 -74.87030000 -1.12570000
1.49300000 -75.64110000 -1.14470000
51.00470000 18.80550000 2.47050000
53.59330000 21.36770000 2.16840000
55.44100000 21.27210000 2.25510000
44.01760000 -5.49280000 -1.99370000
42.03100000 -6.49230000 -1.96160000
46.13400000 -3.49130000 -1.89420000
44.75610000 -4.87830000 -1.96660000
46.29560000 -2.38860000 -1.89260000
-81.63340000 17.49170000 -2.37420000
-80.83160000 19.10770000 -2.27860000
3.74010000 -22.89950000 -2.62130000
37.05930000 -19.58090000 1.66330000
41.11950000 -19.41670000 1.73050000
37.06230000 -19.19650000 1.85520000
42.14040000 -19.54330000 1.67980000
40.60480000 -19.68190000 1.48740000
-22.07890000 17.12360000 -2.16620000
-22.51370000 19.88160000 -1.85840000
-21.73280000 20.58010000 -1.34900000
-22.28500000 19.13470000 -1.91850000
-99.29990000 -9.03450000 -1.19580000
32.80190000 -9.15100000 -1.94890000
32.59120000 -12.20880000 -2.10110000
34.39870000 -12.10050000 -2.01850000
7.60550000 -1.10360000 2.19520000
7.09520000 -1.55900000 2.37140000
-81.51420000 22.57420000 0.08620000
-78.84330000 21.57830000 0.17730000
-77.59900000 23.09150000 0.13290000
-82.34550000 21.50720000 0.09060000
-16.83110000 18.15490000 -1.70370000
-17.26270000 18.49820000 -1.45350000
-16.53810000 19.12780000 -1.72380000
-18.50780000 19.84740000 -1.24310000
-33.32470000 6.33740000 2.36900000
-33.52330000 7.14410000 1.82120000
-33.30730000 7.21970000 2.65460000
-32.72920000 4.84230000 3.86050000
-32.65690000 4.88490000 3.56350000
-32.96180000 6.46990000 3.73020000
17.34170000 10.50460000 -1.66090000
16.04450000 11.26750000 -1.59590000
16.54260000 13.73890000 -1.90250000
0.34320000 17.09510000 -2.41170000
13.34890000 1.80210000 5.86060000
12.81730000 1.73270000 5.89280000
12.71650000 11.13440000 -7.51000000
12.88220000 11.20290000 -7.35500000
-105.98800000 -4.11760000 -2.58550000
-102.02600000 -1.67080000 -2.75350000
-101.17400000 -3.08030000 -2.62360000
5.29340000 -1.66760000 -3.38080000
5.47180000 -2.00730000 -3.10600000
5.73800000 -2.28920000 -2.42240000
6.27210000 -2.91770000 -2.47890000
13.79370000 -12.81550000 8.75410000
-76.33040000 -9.64950000 -0.83250000
-75.86690000 -9.33100000 -0.60020000
11.34270000 -5.62110000 8.56020000
11.08740000 -6.72210000 8.43790000
11.08600000 -4.73070000 8.21200000
-16.96730000 -3.16060000 2.91860000
-17.09990000 -2.56730000 3.32250000
-18.70270000 -3.38970000 2.87420000
-17.76380000 -3.40840000 2.89020000
-19.05990000 -3.82760000 2.83290000
-18.56920000 -3.99380000 2.99160000
41.55700000 9.43190000 2.49260000
41.50050000 10.89270000 2.52500000
40.36330000 10.14630000 2.27530000
42.59870000 8.46460000 2.50920000
42.10660000 8.95330000 -1.82920000
43.97550000 6.19480000 -1.83280000
45.91040000 7.30760000 -1.86020000
45.98690000 5.18610000 -1.78000000
70.28810000 19.81560000 -1.81500000
70.06260000 19.68430000 -1.96880000
70.78330000 18.42200000 -1.57280000
70.75450000 17.25550000 -1.89430000
38.64000000 -12.63850000 1.77720000
39.14440000 -10.16580000 1.95690000
38.52600000 -10.88730000 1.93190000
35.26170000 -12.63470000 2.01070000
56.41750000 -2.82450000 1.72980000
57.30860000 -3.13790000 1.93300000
57.28060000 -2.69670000 1.97390000
57.29100000 1.49920000 1.87490000
56.19380000 -0.16750000 1.99430000
57.56120000 -0.81640000 1.82220000
-100.78000000 14.88180000 -2.84710000
-101.90000000 19.49900000 -2.48690000
-103.07800000 17.89510000 -2.64230000
-118.33100000 24.63650000 -1.81300000
-118.81100000 24.34860000 -1.54020000
-117.86200000 24.67980000 -1.48290000
-120.27300000 24.31320000 -1.91560000
-118.80600000 24.24950000 -2.00910000
26.21410000 10.18330000 -1.71670000
26.58870000 11.48030000 -1.82740000
26.75140000 9.38650000 -1.73710000
7.08980000 -8.02380000 6.56040000
11.24280000 20.07640000 -1.75430000
11.62730000 20.53930000 -1.70090000
-151.28800000 9.74900000 -1.20350000
-150.79300000 11.89250000 -1.37790000
-151.22800000 11.06090000 -1.67760000
-151.15800000 7.73530000 -1.31820000
-151.39100000 9.26210000 -1.50500000
-22.52920000 -7.53200000 -3.36740000
-22.12770000 -8.34530000 -3.53300000
-20.95090000 -8.39340000 -3.31190000
-21.68630000 -7.53430000 -3.44360000
-110.04400000 -5.93660000 -2.48930000
-104.72400000 -7.37560000 -2.20580000
-106.52000000 -6.73720000 -2.32350000
9.79240000 9.47160000 6.97550000
8.54400000 10.56050000 6.70490000
9.69360000 8.03400000 6.97940000
-1.12380000 -30.87840000 -2.14070000
-2.95690000 -30.54470000 -2.14000000
14.08150000 -11.27890000 -6.02680000
14.43480000 -8.88980000 -5.75940000
3.07020000 18.74780000 3.45020000
4.06880000 19.74530000 4.18570000
3.64190000 19.95400000 3.62620000
48.69210000 -6.30110000 2.10160000
47.74150000 -6.63440000 1.86440000
49.49450000 -7.29110000 2.13600000
6.64620000 -46.42510000 -1.89550000
6.66950000 -43.74350000 -2.02270000
7.07940000 -46.40850000 -2.05480000
11.38020000 11.89360000 7.19230000
12.58600000 10.74790000 7.40150000
12.04210000 11.99090000 7.05310000
-2.18650000 4.97640000 -3.95820000
-1.39880000 6.30530000 -4.04140000
-3.15650000 5.96050000 -3.97950000
8.13360000 -83.20060000 -0.95830000
10.65860000 -82.80000000 -1.19630000
11.20000000 -77.38640000 -1.75580000
11.62990000 -75.56140000 -2.24460000
43.85170000 -3.01280000 -0.56810000
43.38340000 -4.00460000 0.05360000
43.01500000 -4.38590000 0.29510000
-148.49500000 12.60760000 -3.12240000
-148.13300000 13.43210000 -3.00420000
-147.44900000 12.36060000 -3.32110000
46.99740000 21.20060000 -1.51820000
7.44000000 -13.39260000 1.80090000
7.04860000 -14.25800000 1.94520000
8.74240000 -14.58110000 1.98330000
9.07990000 -15.68770000 2.00640000
7.24610000 -16.30240000 1.86980000
8.26780000 -17.11630000 2.01670000
10.92250000 -64.34350000 -2.97950000
10.49020000 -64.76570000 -2.77230000
10.34480000 -61.99920000 -2.87760000
10.95470000 11.19670000 -7.54050000
8.97750000 12.48010000 -6.91070000
9.78340000 12.76680000 -7.11010000
-13.70290000 -69.94180000 -0.61290000
-13.58810000 -72.08160000 -0.40740000
19.67380000 -17.09000000 2.18580000
20.25260000 -18.40280000 2.04990000
21.75200000 -16.31780000 2.06150000
20.81070000 -15.51370000 2.31000000
21.69780000 -15.70910000 1.97810000
21.17300000 -14.98420000 1.91690000
64.52470000 -14.33590000 2.10550000
64.70550000 -10.73230000 1.92200000
64.79560000 -12.09850000 1.85940000
12.41190000 -17.68260000 1.91920000
13.28370000 -18.89220000 2.36070000
12.09310000 -17.69280000 1.89970000
13.42570000 -15.99150000 2.01930000
-17.42410000 -53.02890000 1.13380000
-18.53580000 -52.97150000 1.00170000
-18.94330000 -49.53960000 1.13400000
-2.03530000 19.54540000 2.30650000
-1.56910000 19.55930000 1.90840000
-1.78710000 19.64240000 1.46930000
-1.73970000 19.46060000 2.23930000
63.06920000 11.61590000 -2.06870000
61.47290000 8.83240000 -2.02000000
-118.22900000 -5.84020000 -2.51110000
-115.02000000 -5.75510000 -2.53270000
-116.88600000 -6.80040000 -2.36530000
-120.10400000 -6.09890000 -2.48970000
-140.35100000 5.57670000 -3.92030000
-138.92200000 6.34790000 -4.01770000
-136.67400000 5.16710000 -3.83110000
-139.66300000 3.14240000 -3.50450000
-137.67400000 2.84340000 -3.48190000
-137.04800000 0.89500000 -3.30420000
8.40320000 -18.97410000 -2.88730000
-31.43380000 -10.19430000 2.80700000
-30.57820000 -7.75700000 2.66270000
-25.88280000 11.89690000 3.81150000
-27.79210000 11.31810000 3.79170000
-25.83020000 10.72130000 3.96990000
25.85190000 -2.84520000 2.06990000
27.07910000 -3.30430000 2.03360000
26.54160000 -1.87290000 2.06600000
27.64650000 -1.35800000 2.12150000
-3.64770000 17.62180000 2.87650000
-5.83630000 18.17620000 2.79020000
-4.62670000 17.42430000 3.31370000
-116.57600000 18.10030000 -0.49290000
-115.32000000 20.91180000 -0.66220000
-113.00900000 23.67150000 -0.94040000
11.81050000 12.81330000 -1.93490000
-33.32200000 7.94040000 1.96680000
-33.32780000 8.06720000 2.54570000
-8.28790000 22.71020000 3.29550000
-9.05320000 22.09090000 2.93980000
-18.47480000 6.70170000 -3.62500000
-16.84810000 6.80510000 -4.42960000
-58.93920000 6.39790000 -3.57660000
-57.11050000 8.19310000 -3.49310000
-55.83070000 6.22650000 -3.49830000
-50.49540000 5.77790000 -3.35260000
-52.87330000 4.03410000 -3.21680000
-55.44020000 5.24580000 -3.40060000
40.88070000 -6.42950000 1.92990000
6.95670000 -22.18680000 3.44490000
6.72980000 -22.23880000 3.71500000
-72.18230000 11.71370000 -3.07510000
-73.12410000 13.92950000 -2.77320000
-69.62120000 15.20010000 -2.54680000
-70.01510000 4.12230000 -3.55150000
-70.55530000 1.94540000 -3.07560000
-72.29040000 2.02070000 -3.09010000
-68.93930000 0.09920000 -2.71860000
-68.37300000 -3.33510000 -2.36170000
-6.62990000 -51.99450000 -1.29730000
-5.52540000 -49.45930000 -1.33300000
-4.25570000 -44.42300000 -1.54100000
-3.35210000 -45.93030000 -1.47510000
-6.07070000 -47.41750000 -1.36770000
-76.53840000 6.09550000 -3.89790000
-77.41740000 8.31980000 -3.74230000
-74.33790000 7.37470000 -3.84060000
-69.52590000 11.22270000 -3.13520000
11.16190000 -86.59200000 1.89990000
11.93950000 -85.96830000 1.95210000
9.71360000 -89.73700000 1.88680000
10.52570000 -90.00440000 1.79970000
11.62440000 -89.41630000 1.89390000
8.72050000 -79.12930000 1.52130000
8.73300000 -79.36450000 1.68420000
10.08630000 -79.00100000 1.76500000
8.06560000 -22.98890000 1.23000000
8.28490000 -23.44630000 1.03390000
8.45290000 -23.57660000 0.65240000
8.04420000 -25.70470000 0.90400000
8.07520000 -24.64840000 0.90850000
-93.25030000 0.93090000 0.67190000
-89.72510000 2.72990000 1.02780000
-94.55500000 2.57120000 0.96120000
-37.67550000 -1.36660000 -2.99870000
-37.99110000 -2.18650000 -2.61710000
-39.83680000 -3.36330000 -2.27860000
-41.09790000 -2.13360000 -2.38120000
-39.47990000 -1.50070000 -2.55650000
39.78080000 -7.27160000 -2.05060000
40.77730000 -9.52180000 -2.07020000
-125.25900000 22.47770000 -0.98500000
-126.46100000 21.26110000 -0.85940000
-125.48900000 20.75750000 -0.80010000
-123.34700000 21.73370000 -0.84030000
-124.75300000 22.09640000 -0.88340000
-123.98000000 19.30480000 -0.72880000
-133.28300000 -6.42390000 -1.65290000
-133.23200000 -6.25800000 -1.46330000
-131.65400000 13.13130000 -0.22090000
-133.79900000 14.24920000 -0.35620000
-133.08700000 11.96180000 -0.04570000
16.25810000 -5.65380000 -2.21070000
17.57330000 -6.18520000 -2.17560000
17.19130000 -6.64950000 -2.11280000
16.00420000 -7.61140000 -2.32050000
-100.77600000 25.27740000 -0.93290000
-100.80000000 25.56290000 -1.13920000
-102.63800000 25.29450000 -1.19780000
-100.80200000 25.61250000 -1.37570000
-32.87810000 5.89160000 -1.11470000
-33.15590000 7.14550000 -1.00760000
-32.18350000 3.72620000 -2.85820000
19.22490000 2.41310000 2.38480000
20.07160000 2.40260000 2.36350000
21.33040000 2.85070000 2.34750000
22.92600000 0.99270000 2.21830000
22.13620000 2.39610000 2.30560000
22.53050000 0.07360000 2.00540000
68.08300000 -15.96650000 2.12350000
67.46080000 -17.51710000 2.13440000
70.25190000 -15.86420000 2.05750000
69.12890000 -18.89730000 2.05410000
12.40740000 -74.13240000 -2.42480000
11.97000000 -72.06360000 -2.69620000
12.06320000 -72.90430000 -2.57800000
11.73120000 -72.08750000 -2.68090000
7.30340000 3.34320000 -5.86890000
8.88300000 2.79110000 -6.40480000
8.47600000 2.40280000 -6.17240000
9.63310000 2.74130000 -6.64090000
-0.20020000 -0.31170000 -4.04200000
-0.81500000 -0.95130000 -4.10350000
6.54470000 -44.92890000 1.69190000
5.30620000 -47.01480000 1.52380000
6.39150000 -46.79780000 1.59340000
32.00380000 8.75870000 -1.74300000
32.17650000 11.45540000 -1.61960000
11.83960000 -77.35890000 2.63300000
11.83850000 -74.91800000 2.85750000
11.02670000 -76.27340000 2.07610000
-5.42240000 -1.44330000 4.01370000
-2.72340000 -2.06480000 4.30070000
-4.22600000 -3.57270000 4.02120000
-149.37700000 3.57720000 -1.24120000
18.47270000 -7.26070000 -2.39970000
11.41680000 -18.06240000 -5.74540000
10.97480000 -18.01860000 -6.65290000
11.96940000 -16.92450000 -6.97570000
29.48570000 -17.89910000 -2.37010000
30.38390000 -17.78160000 -2.53920000
32.18480000 -17.66200000 -2.29960000
32.61580000 -16.50810000 -2.23420000
-12.54930000 -32.73820000 -1.91750000
-15.23760000 -32.59620000 -1.75970000
7.87840000 -20.94370000 -5.19790000
-21.48710000 24.62390000 1.87750000
-22.22070000 24.19280000 1.98670000
-21.40110000 23.74430000 1.88530000
-25.11940000 26.47270000 1.44660000
-23.19410000 24.84820000 1.90020000
-21.91620000 26.76920000 1.44290000
-11.30720000 15.94420000 3.41600000
-14.35410000 14.92970000 3.36590000
-10.49570000 14.09530000 3.66410000
-8.54590000 15.73540000 3.44250000
-9.70950000 15.84820000 3.49720000
-16.36190000 -11.06160000 2.26210000
-16.56280000 -11.93720000 2.16480000
-16.09080000 -12.78370000 2.10700000
-5.28970000 -18.73030000 -3.48160000
-3.23640000 -17.67000000 -3.70020000
-18.83020000 24.87950000 1.62620000
-18.14510000 24.04000000 2.01350000
-16.09060000 24.23360000 2.11690000
-19.65820000 24.29690000 1.94110000
-63.19780000 -0.12690000 0.96600000
-64.40450000 1.62080000 1.22610000
-55.90080000 1.10410000 1.37860000
-59.19450000 -0.15120000 1.05240000
-53.49830000 -2.43700000 1.07900000
67.83950000 -6.00440000 1.64070000
68.83510000 -6.93180000 1.69030000
68.47120000 -5.51580000 1.86790000
69.68820000 -7.85960000 1.69730000
-64.95950000 25.74240000 0.10140000
-63.23730000 26.30490000 0.01140000
-61.87950000 25.69680000 0.22000000
-64.90790000 24.96520000 0.25510000
22.35400000 -17.51590000 2.04380000
22.99980000 -19.27430000 1.89090000
25.73920000 -19.08860000 1.86370000
24.30790000 -18.57240000 2.01810000
-146.10600000 15.79990000 -1.84110000
-146.11000000 15.72750000 -2.52130000
-23.93700000 1.82040000 0.77690000
-24.46860000 4.48980000 -1.54080000
-24.56790000 4.27050000 -0.33740000
15.98720000 15.48030000 -1.83310000
22.28850000 16.01660000 -1.90110000
21.37690000 15.93500000 -1.92700000
20.93700000 16.54900000 -1.96290000
15.19510000 -9.25640000 -6.11340000
-95.49600000 -5.63250000 -0.11950000
-92.92380000 -5.24320000 -0.00740000
-72.65400000 -7.66460000 -2.06640000
-71.52520000 -8.69110000 -1.85760000
36.73730000 -11.11840000 2.00070000
36.03190000 -9.00420000 1.83170000
36.10280000 -6.31330000 2.03760000
36.34330000 -7.45190000 1.79210000
20.10920000 -20.16420000 0.48590000
18.83350000 -20.32490000 0.79430000
19.79220000 -20.31710000 -0.49560000
18.79230000 -20.16300000 1.14200000
17.55370000 -19.86490000 1.25360000
17.64760000 -20.25230000 0.46760000
-87.93770000 26.27870000 -1.52460000
-85.21310000 26.68030000 -1.16780000
-84.33510000 26.30160000 -1.47380000
-85.66010000 26.50820000 -1.46500000
-34.48800000 1.19850000 -3.89790000
6.98190000 -7.67180000 -2.54100000
6.77710000 -6.50400000 -2.69180000
-95.22970000 23.12320000 -0.28990000
-94.63790000 20.40070000 -0.11210000
-92.48050000 21.29620000 -0.11960000
-91.68300000 22.79240000 -0.16520000
-93.01270000 22.86150000 -0.23100000
-5.98310000 -35.30150000 -1.92680000
-8.13560000 -37.99350000 -2.00890000
-8.34860000 -37.11300000 -2.08520000
-131.49100000 18.91870000 -0.75630000
-132.99600000 20.94430000 -0.98440000
-133.75900000 20.17260000 -0.92050000
15.08500000 -8.27510000 -5.92630000
17.42820000 -19.63340000 -2.43180000
19.93490000 -19.41230000 -2.36050000
18.66820000 -19.81870000 -2.21370000
17.42270000 -19.37870000 -2.48070000
-141.37600000 3.85320000 0.08270000
-140.84300000 2.04440000 -0.21690000
-139.36700000 2.59430000 0.00400000
-139.94000000 5.42020000 0.38080000
-137.75200000 4.95930000 0.45090000
10.08510000 -5.14600000 7.59640000
-28.26140000 16.21660000 2.87780000
-31.18790000 18.19220000 2.39810000
-32.01450000 18.63140000 2.62460000
14.06240000 -82.42320000 -0.92930000
13.97930000 -79.83350000 -0.36680000
-54.35720000 7.57560000 2.53330000
-54.85440000 8.91310000 2.51260000
-57.10210000 5.45590000 2.20490000
-54.38310000 3.65800000 1.99840000
11.83920000 13.05610000 2.54850000
12.32530000 14.63070000 2.84130000
14.85500000 13.11850000 2.78650000
-58.10300000 28.47110000 -0.64350000
-59.91970000 28.41340000 -0.70860000
0.35590000 -41.82450000 -1.70060000
-2.29690000 -42.03120000 -1.61500000
9.40920000 -54.85590000 -3.15130000
9.10310000 -56.20850000 -2.54150000
9.78860000 -56.59850000 -3.14990000
8.93870000 -57.99390000 -2.24180000
9.35530000 3.56110000 6.76630000
53.14180000 2.42140000 2.08030000
52.96070000 -0.04250000 2.06020000
54.25420000 0.78630000 2.04280000
51.07440000 0.76200000 2.09240000
48.88230000 2.26010000 2.20750000
57.14130000 3.27240000 -1.97020000
59.87730000 2.55900000 -2.06030000
60.24550000 -0.02050000 -1.92870000
62.17180000 -0.24720000 -2.13600000
-31.96990000 0.63410000 3.57550000
-31.83340000 0.83040000 3.19460000
-32.38850000 0.92800000 3.67830000
7.82960000 -22.44340000 0.80440000
8.38400000 -23.04430000 0.27680000
-24.20000000 -5.80940000 3.21190000
-24.78590000 -6.52110000 3.15350000
3.56840000 20.49240000 -2.90840000
3.89240000 19.28280000 -3.26950000
4.03510000 18.64870000 -3.28000000
-10.37280000 -11.66050000 2.15680000
-7.49240000 -9.93900000 3.21220000
-8.14590000 -10.05120000 2.80000000
-7.29660000 -10.58520000 2.48730000
-146.24400000 4.46250000 -3.63100000
-148.15600000 3.68930000 -3.19590000
-147.03100000 4.49650000 -3.57300000
-146.89300000 3.26190000 -3.29570000
11.34520000 6.59220000 -3.31840000
11.80550000 6.87170000 -3.82820000
12.35460000 7.05280000 -4.13980000
-14.85830000 -60.19060000 1.08570000
-12.57560000 -59.84110000 1.11360000
-15.62860000 -58.21750000 1.09430000
-13.17340000 -65.49040000 1.10330000
-13.43800000 -62.85470000 1.10500000
-14.87870000 -62.48880000 1.01390000
-30.03590000 19.35750000 -1.78520000
-31.48420000 19.44730000 -1.29930000
63.05720000 -4.62660000 1.83830000
61.37610000 -5.61020000 1.82720000
62.24530000 -5.58890000 1.98710000
63.58190000 -6.04530000 1.98330000
63.96400000 -5.09430000 1.77180000
19.15830000 -92.01450000 -0.82580000
20.45460000 -92.20760000 -0.73710000
19.53450000 -93.05200000 -0.53910000
17.66820000 -93.28810000 -0.49710000
-108.95400000 21.24620000 -2.50840000
-108.05100000 20.67310000 -2.48050000
-106.98700000 22.32730000 -2.43590000
-106.32900000 20.62000000 -2.48100000
-138.81300000 10.05590000 -3.68110000
-140.65200000 9.47290000 -3.89390000
-141.29800000 10.35800000 -3.64150000
-137.71400000 12.69430000 -3.29270000
-137.44600000 10.48020000 -3.59370000
-96.86560000 12.36580000 0.65740000
-97.77580000 13.63180000 0.44820000
-98.11580000 10.17360000 1.03740000
-38.29930000 13.08400000 3.30460000
-38.08170000 14.05100000 2.65230000
-37.93190000 14.57820000 2.49650000
61.77260000 8.92410000 2.08200000
59.49420000 8.80810000 2.11760000
58.44810000 7.25490000 1.92700000
56.12980000 7.55350000 2.01890000
56.69900000 7.07040000 2.04090000
-38.06100000 4.75920000 3.15380000
-37.57990000 7.64660000 3.01830000
-37.52270000 9.14950000 3.32540000
-37.38120000 7.68910000 3.08520000
34.39850000 -0.26130000 2.15170000
34.88810000 2.42830000 2.22150000
-23.51670000 -25.09910000 -1.78980000
-26.00630000 -28.08610000 -1.61200000
-25.41840000 -23.72680000 -1.75910000
-24.49790000 -23.46210000 -1.82210000
-22.84070000 -23.98960000 -1.79180000
0.91190000 22.73610000 1.24260000
0.71990000 23.75000000 0.91490000
0.92460000 21.72440000 1.90040000
0.73560000 22.00380000 0.98720000
0.33700000 21.16400000 1.22010000
-15.60250000 25.10200000 1.88990000
-9.23720000 -15.44960000 -2.72310000
-11.24640000 -18.26810000 -3.00110000
-9.12110000 -18.10580000 -3.12870000
-1.76350000 -29.05950000 2.40990000
0.30440000 -29.03150000 2.38700000
0.77690000 -27.50680000 2.55770000
0.82630000 -26.27150000 2.50890000
14.18570000 1.48010000 -6.06570000
14.77440000 1.36650000 -6.31370000
14.51960000 1.60010000 -6.17240000
-12.95140000 28.63550000 -0.86020000
-13.77190000 27.32780000 -1.08710000
-9.98400000 27.66930000 -1.18680000
-11.67070000 28.06240000 -1.00350000
-10.15270000 29.62170000 -0.71480000
17.50930000 -8.62140000 2.30360000
18.37100000 -6.86960000 1.99870000
-15.79050000 -30.47450000 -1.88930000
-16.32850000 -28.41050000 -2.14420000
-17.59870000 -28.74910000 -1.72760000
-18.11160000 -26.70720000 -1.72850000
23.87750000 -3.34880000 -1.80470000
24.33510000 -3.76040000 -1.59730000
24.85330000 -5.02920000 -1.83910000
6.70380000 -31.12520000 4.05450000
7.44350000 -33.92090000 3.77110000
7.36580000 -32.24670000 3.78110000
5.79390000 -26.79230000 4.45610000
6.13080000 -30.00470000 4.23200000
6.75890000 -30.29880000 4.15480000
53.13480000 -7.46930000 -2.48040000
53.20470000 -8.47620000 -2.55230000
51.37250000 -9.21540000 -2.23820000
57.15910000 -7.65170000 -2.21910000
3.25120000 -92.59550000 -0.04540000
1.98420000 -92.92210000 0.30100000
1.42820000 -92.89080000 0.23020000
-95.51810000 13.21950000 -3.29140000
-95.53160000 13.66000000 -3.28440000
-95.09310000 13.65310000 -3.23910000
-98.51530000 11.87390000 -3.21460000
-102.41100000 11.41900000 -3.32410000
51.99470000 -0.37050000 -2.00480000
52.10640000 -1.78740000 -1.99710000
53.24990000 2.96090000 -1.95730000
-124.53100000 -3.55020000 -0.41290000
-123.70500000 -0.99600000 -0.11830000
-125.20000000 -1.86530000 -0.22720000
-130.85200000 4.41520000 0.62000000
-129.99300000 1.84230000 0.23550000
-128.81700000 0.92930000 0.07300000
9.83810000 14.50540000 -3.34270000
9.52300000 14.86810000 -3.47910000
-10.07660000 21.15520000 3.19730000
-9.71620000 23.15040000 3.09750000
-12.39590000 23.80270000 2.78400000
-13.41650000 24.67760000 2.74640000
-85.43180000 -1.67660000 -2.58230000
-85.98200000 -4.59800000 -2.38160000
-87.18450000 -1.94820000 -2.59780000
-87.12600000 0.32410000 -2.89030000
-19.70350000 -24.36400000 1.84230000
-17.76190000 -24.77750000 1.84900000
-20.52970000 -20.48690000 1.88690000
1.63640000 -46.03570000 -0.75150000
2.11450000 -46.38150000 -1.21700000
1.54560000 -46.30980000 -1.46880000
1.27380000 -45.14860000 -1.36770000
12.36570000 5.08660000 -1.98020000
11.19610000 5.88370000 -1.95960000
12.05230000 6.14420000 -1.84560000
11.95210000 5.19710000 -1.96740000
-5.15400000 -12.68490000 3.46240000
-1.41470000 -12.29100000 4.08670000
6.96420000 4.15210000 2.16200000
6.07800000 5.10010000 2.50090000
6.03650000 3.92780000 2.18330000
7.14970000 2.40300000 1.99740000
6.50950000 3.82000000 2.11500000
6.57210000 1.61270000 2.17770000
-9.78530000 30.73160000 0.78630000
-8.67300000 31.23130000 0.59970000
70.80750000 13.61250000 -2.03180000
69.80300000 11.13670000 -2.11750000
37.07290000 -6.17970000 -1.90600000
37.35430000 -5.35320000 -1.93000000
38.16730000 -5.93280000 -2.16920000
-92.87540000 21.44370000 -2.44730000
-92.81230000 20.40260000 -2.68200000
-35.91810000 -7.49540000 2.83700000
-37.35080000 -4.65800000 3.02540000
-37.48760000 -1.11560000 3.38230000
-65.66900000 24.19850000 -1.79900000
-63.32150000 22.46350000 -1.79480000
-68.19680000 22.88030000 -1.94720000
-58.60370000 24.13190000 -1.59610000
-89.35270000 -0.83000000 -2.74910000
-89.31870000 0.74690000 -3.00170000
-91.05210000 2.41690000 -3.37160000
-54.19580000 28.61120000 -0.21870000
-52.03130000 28.74230000 -0.10720000
-55.90050000 27.82510000 -0.07460000
-57.61080000 26.75630000 0.14830000
-53.73330000 27.23760000 0.16760000
8.04260000 -9.67220000 -3.65910000
8.62930000 -9.62420000 -3.72730000
8.71500000 2.24710000 -4.14560000
-52.34010000 23.17020000 0.90910000
-50.33540000 24.03330000 0.92720000
-51.79880000 20.78660000 1.04140000
-50.13120000 20.40060000 1.16360000
-51.00150000 21.17140000 0.94990000
29.20600000 19.97910000 -1.52330000
35.47040000 20.90680000 -1.34740000
14.72800000 4.00590000 -6.19490000
13.94510000 4.35560000 -5.40590000
26.84460000 -15.07960000 2.12420000
24.92430000 -14.55890000 1.93550000
-10.84830000 -9.04630000 -2.47540000
-10.48790000 -8.97820000 -2.58240000
-10.86310000 -10.35940000 -2.18410000
-18.92590000 -21.50560000 -1.97040000
-19.62840000 -20.41250000 -1.74570000
-20.13360000 -17.60840000 -1.98040000
-20.78720000 -19.34950000 -1.74270000
-21.82650000 -18.65550000 -1.71120000
10.76950000 6.94570000 -2.90590000
12.84160000 8.25480000 7.58120000
13.17340000 6.53100000 7.78960000
13.85560000 6.65190000 8.04750000
13.90540000 -80.61770000 -0.78780000
13.65740000 -79.54020000 -1.10040000
61.10600000 -15.58910000 2.02580000
61.03280000 -14.40320000 2.19710000
58.78410000 -12.68460000 2.07020000
59.01410000 -9.41590000 2.05110000
58.08610000 -16.24450000 2.25270000
59.32700000 -14.81840000 2.19990000
57.29270000 -18.95820000 2.20780000
56.38260000 -18.01210000 2.25720000
54.62710000 -19.04590000 2.20050000
-25.82210000 0.54690000 3.11080000
-26.12160000 0.64450000 2.04990000
2.19020000 -64.56270000 -1.20460000
-0.88260000 -64.08450000 -1.18900000
1.36380000 -62.75400000 -1.23580000
3.65220000 -64.48890000 -1.22550000
13.82230000 1.42130000 -7.82930000
-25.90760000 7.60650000 3.17430000
-25.84910000 8.22030000 4.26170000
-26.21460000 8.56210000 4.11290000
5.75060000 4.15400000 -5.49090000
6.28600000 3.54800000 -5.54230000
5.18570000 -1.27860000 4.05840000
5.39100000 -2.22950000 4.08680000
-68.30860000 11.64180000 1.56750000
-66.13370000 13.39830000 1.37070000
-72.79860000 14.18530000 0.97250000
-119.78900000 5.97510000 1.05660000
-120.29400000 3.37300000 0.66660000
-117.67600000 5.06110000 1.02900000
-115.55000000 3.74660000 0.86180000
-117.76800000 2.02120000 0.46590000
-114.74000000 1.18200000 0.40370000
-150.21400000 5.14220000 -2.74870000
-149.94700000 5.86300000 -3.30180000
-148.96100000 4.51550000 -3.16660000
-2.07450000 -65.16290000 -1.18110000
-7.72330000 -63.13000000 -1.10090000
-6.62250000 -60.13090000 -1.19790000
-75.59570000 -10.04100000 -1.04640000
-75.14300000 -9.89100000 -0.80120000
-1.86480000 -26.50820000 3.00810000
-2.76020000 -26.16870000 2.97050000
0.39520000 15.26080000 -3.21740000
4.46250000 -39.79180000 -1.81980000
5.57560000 -41.39550000 -1.85060000
63.29700000 0.65010000 -1.95450000
64.22450000 0.61150000 -2.03470000
64.49070000 -0.85750000 -2.15350000
67.43780000 -0.80510000 -2.23700000
66.45770000 -2.73650000 -2.25270000
65.48830000 0.11630000 -2.25920000
9.57690000 -14.85890000 -7.17960000
9.79980000 -15.75140000 -7.13610000
8.92500000 -16.06400000 -6.90720000
10.34800000 -13.31330000 -7.46630000
31.27300000 -12.01220000 -1.89920000
30.40080000 -12.33460000 -2.06760000
29.54080000 -12.24320000 -2.09240000
29.08860000 -13.49340000 -1.92990000
28.24820000 -12.56880000 -1.95540000
53.11710000 13.24670000 -1.90900000
54.92860000 14.13690000 -1.89110000
58.16040000 12.40220000 -1.94340000
58.33580000 10.41290000 -1.92330000
56.70310000 10.81630000 -1.92830000
-118.06800000 7.69970000 1.05060000
-15.31250000 -24.50800000 -2.60110000
-14.40890000 -26.33450000 -2.60060000
-12.95800000 -28.93650000 -2.52020000
-11.66450000 -28.21640000 -2.62990000
-91.09230000 21.29320000 -2.56390000
-92.48180000 22.14840000 -2.42970000
-90.08110000 19.29410000 -2.60790000
-90.00070000 17.81720000 -2.62430000
45.08080000 -1.30370000 -0.45650000
45.08540000 -1.04440000 -0.87480000
45.08030000 -2.17250000 0.59420000
44.55450000 -3.19230000 1.08330000
-15.26500000 -47.04290000 -1.12630000
-13.49080000 -47.34580000 -1.09970000
-10.51810000 -48.68070000 -1.18730000
-22.55080000 1.66860000 -3.85870000
-22.82810000 -0.03130000 -3.99430000
18.08140000 -94.41500000 0.65930000
19.46110000 -93.93000000 0.14900000
18.13000000 -94.62290000 0.48700000
9.20890000 -66.40370000 1.81260000
9.37870000 -67.99670000 1.83670000
6.35420000 -12.05640000 3.28700000
6.58190000 -10.79510000 3.47550000
6.79220000 -12.01700000 3.80580000
28.16380000 -17.50300000 -2.39470000
25.10410000 -17.43440000 -2.45550000
9.62720000 -70.63780000 -1.54590000
-8.54830000 -43.86470000 1.42520000
-9.21180000 -39.65030000 1.54400000
-9.39590000 -42.31320000 1.43850000
-17.89660000 -9.34770000 3.69170000
-19.47530000 -8.80050000 3.52460000
-16.81560000 -9.07280000 3.83200000
-16.22660000 -8.20930000 3.91680000
8.48230000 -20.58750000 -2.90900000
8.55430000 -20.88210000 -2.98580000
70.17400000 -1.15210000 -2.30320000
-108.08800000 6.34460000 -4.16240000
-112.02100000 7.70990000 -4.09360000
-108.52200000 7.64210000 -4.10430000
-27.37180000 9.76340000 -3.29260000
-28.73370000 8.91780000 -3.60910000
-28.58260000 9.70420000 -3.19480000
-29.40850000 9.30430000 -3.46180000
-29.26320000 10.22140000 -3.08520000
-56.47650000 -10.30480000 0.41070000
-57.79080000 -6.12650000 0.67860000
-56.06020000 -4.05280000 0.81440000
66.96030000 20.21220000 2.31100000
61.81050000 19.47250000 2.31950000
64.00700000 19.33060000 2.29850000
63.88860000 20.88810000 2.29030000
21.84390000 17.25520000 -1.65360000
24.12460000 17.45230000 -1.75130000
12.11850000 -3.20750000 6.74460000
-19.03590000 6.27400000 3.93100000
-18.47210000 6.44170000 3.96760000
-18.95710000 5.01380000 4.06980000
71.55620000 5.81390000 1.50140000
71.80400000 7.80630000 0.95190000
71.52410000 9.75540000 1.37740000
12.52020000 -2.16350000 8.28250000
70.80120000 0.83530000 1.70730000
71.25570000 2.82250000 1.64130000
70.69860000 -2.09970000 1.76430000
69.93800000 -2.10910000 1.80560000
11.73940000 -3.29490000 7.78270000
32.44270000 -7.85050000 1.81670000
33.30990000 -7.44220000 1.99590000
33.99650000 -8.91810000 1.80930000
9.49650000 -66.38900000 -1.62840000
8.45970000 -65.42790000 -1.89510000
3.99830000 30.16510000 -0.78830000
3.42060000 28.85600000 -1.25760000
1.83930000 28.05370000 -1.49370000
3.28880000 26.31450000 -1.79870000
2.47140000 26.41750000 -1.70740000
2.62680000 27.61880000 -1.58930000
-107.28400000 24.56920000 -1.91970000
-109.31400000 24.08810000 -1.61950000
-108.53000000 24.22780000 -1.99300000
-32.43110000 8.99250000 1.74200000
-31.49920000 8.91440000 1.18990000
-31.00110000 9.28950000 2.48590000
5.75660000 -86.46920000 1.90250000
2.95530000 -84.07750000 1.86480000
3.62470000 -82.76900000 2.01430000
2.46370000 -82.89930000 2.12000000
72.16890000 -0.10370000 0.25910000
71.87100000 0.36940000 1.03680000
71.79070000 -4.50700000 1.25000000
67.54410000 -1.15440000 1.85770000
66.43660000 1.78730000 1.85170000
-40.64090000 19.51690000 -1.14730000
-41.03820000 19.45260000 -1.04360000
-40.92800000 21.26310000 -0.85390000
15.80500000 -85.24600000 1.05370000
15.64990000 -85.53470000 1.61130000
30.63210000 20.97360000 -1.17810000
34.00180000 21.15510000 -1.08590000
32.53280000 20.75310000 -1.34970000
30.66040000 21.20630000 -0.34810000
33.52320000 21.25470000 -0.70820000
10.42220000 10.71800000 -7.37300000
8.53440000 11.85350000 -6.78930000
10.91810000 9.46870000 -7.57400000
10.29260000 8.52750000 -7.35940000
9.97050000 8.78380000 -7.28580000
6.42940000 -5.60400000 -5.33010000
7.88490000 -6.98810000 -6.06220000
-7.03700000 24.87910000 2.94770000
-7.80920000 24.79830000 3.08810000
-9.49970000 24.80590000 2.88440000
-6.76750000 -83.14340000 1.49870000
-6.71430000 -85.06450000 1.38180000
-5.08150000 -84.46080000 1.65980000
-4.64520000 -87.00940000 1.57390000
-5.39520000 -85.41190000 1.52420000
-6.30640000 -86.17800000 1.33760000
0.97880000 24.53940000 1.53630000
0.39250000 25.20240000 -0.32740000
9.18990000 -37.94410000 1.97790000
-93.14450000 25.16010000 -0.57840000
-91.03590000 26.05430000 -0.76780000
-93.60790000 25.65860000 -0.74480000
-93.61650000 25.82660000 -0.85740000
-92.32700000 26.08850000 -1.02450000
-3.41640000 10.46210000 4.47220000
-3.27690000 8.55970000 4.43850000
-2.10400000 8.09900000 4.70290000
-6.33250000 -27.87470000 2.21800000
-8.29550000 -30.82260000 2.14060000
-9.63500000 -32.81260000 1.87410000
13.57790000 -84.17090000 -2.03470000
13.86380000 -85.62720000 -1.83680000
13.48540000 -81.81840000 -2.08800000
-5.49810000 31.64260000 0.41720000
-4.23430000 31.86640000 0.30680000
-40.90360000 15.53220000 -1.43020000
-41.19680000 12.97700000 -1.90160000
-41.29550000 15.48860000 -1.44380000
-40.28390000 11.77600000 -2.03270000
-39.91400000 9.81140000 -2.32960000
8.45270000 -7.18010000 5.15790000
7.39150000 -6.45750000 4.71370000
8.92230000 -6.53340000 5.46670000
11.05950000 -5.04270000 6.23610000
10.50820000 -6.62450000 5.95550000
10.52900000 -4.93400000 6.05500000
-49.88040000 -10.13510000 -1.61770000
