88.78040000 -12.47160000 0.12540000
-27.04940000 5.90740000 1.39010000
-26.00790000 5.67060000 0.67680000
96.17840000 21.92220000 -0.66200000
97.37810000 20.99270000 -0.47230000
96.10930000 20.93830000 -0.49150000
-23.77890000 6.56900000 -0.27650000
-25.05510000 6.68560000 -0.57420000
40.16710000 -1.31760000 -3.95950000
37.80590000 -2.01790000 -3.86310000
-37.35890000 -98.32360000 -3.04830000
-96.11400000 -19.15140000 -5.63130000
63.95310000 23.33730000 -1.44720000
63.44040000 23.22100000 -1.23090000
65.02740000 23.52280000 -1.31120000
116.11300000 -10.39460000 -0.82650000
114.62800000 -11.58390000 -0.89130000
117.02800000 -9.91580000 -1.10610000
62.87430000 -14.48560000 0.35030000
-14.12210000 -23.55490000 -1.54890000
15.90210000 0.88760000 -3.71260000
-3.10590000 -16.50550000 -2.44840000
-0.25110000 -16.66830000 -2.36030000
-3.18080000 -17.16130000 -2.40670000
7.04220000 -18.59880000 0.20980000
-36.59160000 4.11180000 -7.25800000
-25.87920000 -18.84460000 0.32200000
-24.88000000 -18.46950000 0.24530000
-1.03480000 -84.84730000 -1.82360000
-2.54890000 -88.76770000 -1.66620000
-16.77220000 -66.64040000 -0.18920000
25.54350000 20.06950000 -2.72850000
25.01670000 21.09510000 -2.57160000
-23.84090000 16.96320000 -3.51990000
-22.25030000 16.79910000 -3.41890000
9.28010000 -0.62940000 -0.20100000
22.49170000 6.38330000 1.65040000
23.61960000 6.71480000 1.21800000
-35.07660000 -99.51080000 -1.40070000
-31.71630000 13.32490000 -0.48430000
-32.27900000 13.79580000 -0.67570000
104.81400000 -0.28010000 -2.15070000
105.24200000 0.83910000 -2.21000000
113.66100000 2.21670000 -2.18090000
-29.07400000 -84.63380000 -2.88880000
23.69040000 14.37840000 -2.88810000
12.36650000 1.32580000 0.47320000
5.88250000 -56.89210000 -2.37500000
-81.40470000 -12.11200000 -5.56080000
-80.46100000 -16.19240000 -5.60540000
-83.73940000 -12.63150000 -5.55970000
-80.09980000 -18.08380000 -5.61090000
-3.75750000 -7.83550000 1.28060000
-22.58940000 -83.03980000 -0.60390000
11.60070000 -44.34190000 -2.17300000
35.74220000 14.60820000 -2.90610000
34.47190000 14.17720000 -3.36890000
56.09580000 20.97210000 -2.57090000
55.50220000 22.22200000 -2.29060000
-3.33360000 -34.34240000 -1.07260000
-54.37810000 -18.07540000 -4.91070000
-51.76210000 -17.81860000 -4.73160000
-55.69700000 -18.75250000 -5.16080000
136.57500000 9.25340000 -0.19440000
-10.14510000 24.18550000 -2.31210000
-23.85000000 -18.34900000 0.12460000
-23.29140000 -28.96300000 0.21450000
-57.73970000 -7.85740000 -0.19310000
61.80410000 0.21660000 1.47910000
57.10300000 0.11630000 1.57240000
59.51700000 -0.84750000 1.20650000
59.95760000 1.30650000 1.60760000
-26.09090000 0.21610000 0.90690000
-23.03330000 -25.75330000 0.09860000
-32.60760000 -94.34610000 -3.58070000
121.06100000 -0.06210000 -1.80270000
-15.34280000 -45.52500000 0.33650000
96.23830000 22.81920000 -2.08940000
-29.27390000 -49.92860000 -1.49910000
-29.50780000 -48.94520000 -1.39990000
6.69420000 -39.44470000 -2.39450000
6.60910000 -37.18680000 -2.35250000
11.71730000 20.64580000 -2.76440000
12.24370000 19.34820000 -2.96200000
-41.44400000 6.18610000 1.35170000
62.89810000 23.11830000 -2.03480000
62.38770000 23.38580000 -1.59240000
59.54150000 24.23950000 -1.49830000
1.80610000 -67.91800000 -2.55350000
-100.33700000 15.59900000 -0.48650000
94.74050000 0.86360000 -2.53470000
36.86210000 -5.10460000 -0.13590000
74.36190000 -12.37600000 0.32640000
79.03390000 -11.70980000 0.33030000
69.95630000 24.08890000 -1.96350000
72.59560000 24.24210000 -1.86070000
100.33400000 -5.79090000 -2.26500000
102.45300000 -4.15590000 -2.18880000
96.15000000 -6.25570000 -2.29660000
94.26110000 -5.82690000 -2.30530000
84.94840000 24.05780000 -1.86950000
-59.98840000 3.49950000 -5.38650000
-59.04800000 1.16000000 -5.28230000
-98.93970000 -2.37900000 -5.77700000
-100.01600000 -0.42880000 -5.75620000
-102.22800000 14.52120000 -0.05340000
-32.54790000 -64.64580000 -4.11740000
-32.84190000 -67.22190000 -4.02580000
68.01150000 11.81830000 -2.55420000
-5.75050000 10.21120000 0.23960000
-73.26140000 -11.16750000 -5.48350000
73.55150000 12.53290000 -0.15810000
71.86930000 10.10100000 -0.00640000
21.62800000 -32.70480000 -1.37230000
20.96970000 -33.34190000 -1.31900000
33.25090000 -24.16710000 -0.40920000
34.68680000 -24.92160000 -0.65540000
35.18530000 -22.74800000 -0.23930000
122.43500000 7.03310000 0.72140000
122.00300000 4.89810000 1.32000000
-104.99900000 -26.35480000 -4.84270000
-50.96190000 0.30020000 -5.94230000
-51.79390000 0.98640000 -5.45460000
41.43790000 9.68200000 -0.17360000
40.71670000 14.08030000 -0.28030000
133.45700000 3.32720000 -1.54580000
133.91700000 4.02890000 -1.65430000
133.96700000 2.40790000 -1.54430000
-16.91410000 11.47760000 -4.56510000
128.81100000 1.45810000 0.37750000
128.59500000 -0.23990000 0.31840000
128.51300000 -1.06980000 0.34530000
-105.70600000 -21.85690000 -0.15350000
-13.77300000 -57.82840000 -4.10120000
-13.84900000 -59.83180000 -3.77300000
-11.81200000 -58.36560000 -3.44570000
-4.02580000 5.48280000 1.49270000
-0.60170000 4.47160000 1.46190000
-60.21690000 14.16070000 -5.43180000
-25.84320000 -81.32130000 -0.08560000
-26.23080000 -80.81600000 -0.22490000
-24.79260000 -93.92290000 -3.62450000
-72.05250000 -8.33820000 -5.22500000
29.08870000 -28.05710000 -1.29310000
-28.73470000 -93.04900000 -2.73940000
-29.09990000 -93.25930000 -2.72410000
57.30380000 18.35160000 -2.64410000
123.08300000 -4.85410000 0.20960000
124.88200000 -3.89060000 0.23220000
-21.17970000 -73.93840000 -5.03030000
-18.88310000 -73.95010000 -5.19550000
-38.40740000 -98.42980000 -2.54980000
13.36630000 -44.46160000 -1.60450000
-18.83080000 -43.53340000 0.73550000
-8.73630000 -14.45950000 0.61540000
3.00690000 -0.09650000 -3.68020000
2.44050000 -0.57340000 -3.46770000
-14.88960000 -59.92140000 -0.03580000
-3.78150000 -65.16700000 -0.58820000
10.53830000 -50.33280000 -1.86660000
-85.55940000 -25.42060000 -5.59680000
-28.69000000 -20.83790000 -3.11360000
8.08700000 -10.41390000 -4.24810000
7.26970000 -9.41330000 -4.18090000
-15.52480000 -19.02180000 -2.89870000
23.44380000 -22.35470000 -0.24050000
23.95760000 -19.90150000 -0.33130000
20.55910000 -18.32050000 -0.39880000
20.96950000 -20.48500000 -0.41220000
-20.24080000 -97.48670000 -3.49580000
-23.61600000 -98.14490000 -3.51790000
46.87110000 9.36570000 -2.60260000
-48.11770000 -13.49110000 -9.23680000
-104.82100000 15.43430000 -1.45790000
-11.61590000 -56.23330000 -0.59790000
-40.15940000 -14.03820000 -7.71990000
41.52830000 -10.07150000 0.04110000
7.29480000 13.08120000 -0.02070000
-28.36470000 0.33340000 1.17660000
86.61540000 -15.56940000 -1.39300000
72.40890000 7.93320000 -2.55330000
-9.36700000 6.07710000 0.25900000
-47.06980000 -5.71650000 -8.78120000
-45.95640000 -4.63810000 -8.51720000
3.62090000 -67.92330000 -1.80430000
18.88240000 -9.22330000 -0.56320000
19.18460000 -6.51970000 -0.52450000
-32.99630000 -57.46290000 -3.74950000
-27.77830000 -37.55200000 -2.73680000
-101.20000000 -10.80330000 0.08540000
-65.99440000 -0.32270000 -3.60920000
113.37500000 -6.96240000 0.13140000
-13.56380000 -30.39990000 -2.69530000
6.78630000 -5.30560000 -2.75190000
94.96510000 0.45240000 0.64220000
94.33970000 1.02300000 0.84080000
97.14550000 2.85630000 1.30110000
1.84830000 -43.64070000 -2.26980000
0.45490000 -44.69790000 -2.27290000
44.71010000 4.00940000 0.27820000
37.37950000 5.00520000 -2.62910000
123.57800000 -6.71080000 -1.53270000
-35.15340000 -2.52300000 -6.27610000
-4.58620000 -54.88920000 -2.71150000
-24.70280000 -56.00200000 -3.05410000
-105.48700000 11.96470000 -3.17500000
-105.57500000 10.89610000 -1.95250000
-7.87160000 -75.33870000 -2.80350000
4.44310000 16.23920000 -2.95680000
-10.21800000 -7.30130000 1.21870000
-9.44460000 -8.82930000 1.29410000
-8.83890000 -7.85770000 1.30840000
-59.19170000 -12.35270000 -0.08150000
-3.59830000 12.78230000 -4.51420000
-32.17240000 -43.42810000 -3.95740000
-32.43160000 -43.91070000 -3.78900000
-26.10870000 -20.13830000 -0.31890000
-16.12960000 -38.24740000 -3.48340000
-16.06910000 -36.10700000 -3.23920000
-31.47380000 15.42680000 -2.75840000
63.70800000 3.40290000 -3.61460000
64.46000000 1.69400000 -3.87430000
-105.70100000 -14.68540000 -5.31810000
-105.55900000 -11.47110000 -5.44230000
-105.72000000 -10.81710000 -5.32680000
-105.94800000 4.90060000 -3.71820000
-34.02060000 -69.82360000 -2.57060000
93.32230000 -11.22290000 -2.31950000
92.89900000 -12.18770000 -2.30200000
11.66580000 -20.44400000 -2.68460000
13.40500000 -16.05930000 -2.78260000
12.46450000 -18.61470000 -2.80270000
51.01170000 18.96610000 -2.67370000
-7.96520000 6.19760000 -0.31930000
-7.31860000 4.93050000 0.24810000
76.22260000 6.63390000 0.09050000
-28.18480000 -2.22280000 -5.07200000
0.06810000 -37.83530000 -2.28970000
1.52320000 -38.05810000 -2.34250000
-68.54260000 0.23280000 -4.32480000
-68.98910000 0.32870000 -3.51880000
-10.08750000 19.31250000 -1.03610000
0.16010000 -76.53150000 -2.42700000
-0.39210000 -74.82370000 -2.64780000
-68.69000000 -25.36570000 -5.47780000
-66.09630000 -25.42420000 -5.49980000
118.61600000 -9.43020000 -1.31180000
7.15790000 -18.45870000 -3.69220000
11.08950000 -42.83320000 -2.38250000
12.69210000 -41.05800000 -2.23810000
-36.79660000 -11.43700000 3.07460000
-35.43300000 -11.28320000 2.18020000
-14.25760000 20.05140000 -1.22380000
-103.10700000 -15.29820000 -5.58400000
-104.30800000 -14.67920000 -5.57400000
-105.15800000 -14.05230000 -5.53540000
-104.96400000 -17.16360000 -5.55490000
97.45750000 4.53700000 -3.61020000
101.48800000 4.73270000 -3.53030000
-17.26400000 -77.91310000 -3.07740000
-15.47540000 3.19750000 0.19010000
-86.91110000 -0.99130000 -5.61540000
-15.55680000 7.23900000 0.30540000
7.58660000 16.95120000 -1.00020000
6.06300000 18.08900000 -0.89790000
-17.79230000 -89.60610000 -3.32370000
52.97960000 -15.85950000 -2.43720000
52.50880000 -13.36120000 -2.28030000
51.16030000 -15.70190000 -2.47690000
43.75030000 1.85890000 1.17070000
42.58190000 2.34820000 1.04040000
38.64250000 -16.05550000 -2.42750000
36.14190000 -15.85920000 -2.46070000
26.12830000 -7.21530000 -2.46580000
-20.69030000 -51.04620000 0.20960000
-19.79720000 -50.59090000 0.46810000
-0.99010000 -4.29660000 -2.66580000
-16.08230000 -70.58180000 -4.43100000
-4.56040000 -93.07100000 -2.26790000
27.43700000 16.19160000 -0.83610000
24.91740000 15.22930000 -0.82380000
-37.38130000 -1.24320000 4.02310000
-39.09140000 -1.06530000 4.81450000
-29.11060000 18.38900000 -3.36210000
-22.81390000 -22.65530000 -4.27210000
-22.80450000 -21.36600000 -4.23240000
-29.31810000 -4.72260000 0.34160000
-98.26380000 -21.38410000 0.07940000
-9.94410000 -1.45080000 0.97120000
-21.80060000 -86.93060000 -4.00010000
-23.00310000 -86.02740000 -4.06270000
-6.18540000 -21.52420000 -1.04440000
-5.35920000 -21.20380000 -1.15750000
-23.45020000 -7.16880000 -0.30130000
-24.44610000 -7.85160000 -0.27470000
-35.51160000 -100.50700000 -2.20830000
109.98900000 -12.89560000 -0.95590000
9.90520000 20.70300000 -0.92800000
11.25370000 21.21700000 -1.01070000
-7.19280000 -36.75800000 -2.94150000
30.01740000 22.47170000 -0.96500000
54.05050000 -21.18990000 -1.17750000
-66.56050000 0.08790000 -0.46070000
-65.78540000 -0.16140000 -0.28170000
28.21010000 -8.48790000 -0.38860000
-6.79930000 -45.76800000 -2.60390000
-6.48510000 -44.09310000 -2.88840000
-13.94770000 -52.07750000 0.79690000
-15.72280000 -52.65870000 0.95980000
-15.20150000 -52.83730000 0.88150000
6.32470000 -48.37140000 -2.76030000
69.91510000 24.67200000 -1.60230000
3.77880000 6.45840000 1.33980000
-26.42130000 -66.95230000 -4.34340000
-17.60820000 -20.79210000 -3.80960000
-18.82490000 -21.81490000 -3.99390000
-101.04100000 4.81030000 0.23340000
-23.23580000 13.54050000 -3.43480000
69.27940000 -18.10340000 -0.76580000
-43.04670000 -1.34260000 6.60720000
-36.05280000 -99.14660000 -2.62100000
-35.33150000 -99.54190000 -2.83610000
-96.51270000 10.08640000 0.03910000
-14.81260000 -3.71630000 -3.75060000
100.38000000 7.15750000 0.10100000
-8.08930000 -57.97530000 0.03180000
-61.58790000 14.99060000 -4.12590000
3.65330000 -14.95020000 0.21110000
-44.01870000 1.73290000 4.97770000
-40.59220000 -9.11810000 -5.65320000
11.49790000 -13.66780000 -4.10550000
-10.02410000 -97.60250000 -1.54820000
-33.83630000 -87.82850000 -4.18470000
12.28630000 13.33700000 -0.51340000
15.03790000 13.42640000 -0.58120000
-14.29670000 -76.20140000 -1.23940000
-22.48840000 -31.13250000 0.81660000
-22.01740000 -33.89150000 0.87630000
-19.85590000 -39.14440000 -4.39600000
-49.32920000 14.81790000 -3.45540000
-15.23440000 -90.18350000 -1.54660000
-12.58540000 -90.63100000 -1.56430000
13.28280000 -38.73290000 -2.22660000
-92.52320000 2.30090000 -5.64120000
-2.13170000 -82.82570000 -1.40430000
-2.93340000 -86.10080000 -1.46250000
-4.22260000 -86.59270000 -1.17170000
-4.09600000 -85.80380000 -1.28380000
42.97370000 -21.14860000 -2.06850000
1.18110000 8.37330000 1.40090000
41.84240000 -10.97580000 -2.50570000
-60.67760000 -6.11860000 -0.07200000
124.97300000 8.44670000 0.15820000
122.62000000 8.67700000 0.07810000
120.70000000 8.05180000 0.14560000
40.77230000 -21.66700000 -2.09830000
51.52020000 -9.13360000 0.15320000
48.58470000 -9.24470000 0.12150000
-31.13310000 -70.97550000 -1.60420000
-31.03320000 -66.90620000 -1.55640000
-73.48580000 10.89210000 0.07690000
-74.80870000 9.50740000 0.02540000
-19.03300000 -31.43660000 -4.95260000
-21.32160000 -77.37060000 -3.18660000
15.59310000 16.51360000 -2.77980000
16.05960000 14.51240000 -2.88470000
14.12380000 13.50260000 -2.93290000
-64.68420000 -8.87480000 -0.30980000
113.49100000 3.63050000 -2.90840000
107.90900000 2.94050000 -2.98200000
106.74100000 19.03860000 -2.39760000
-32.47380000 -103.25000000 -4.03830000
-31.45080000 -102.92500000 -4.01480000
-7.24060000 -66.09830000 -0.43100000
-22.27260000 -31.98510000 -4.60220000
-92.37760000 -18.97960000 -5.59340000
-32.68890000 -57.89850000 -3.99090000
5.90430000 -8.95990000 0.99580000
119.00100000 9.71220000 -1.92450000
118.70700000 10.70400000 -1.88910000
127.55700000 -0.92980000 0.30110000
126.11000000 -1.18590000 0.29940000
-29.74890000 17.41310000 -2.31180000
85.01790000 -2.04800000 -2.34930000
86.68470000 -0.95880000 -2.36800000
17.47060000 22.96650000 -2.06950000
-18.49440000 15.49270000 0.49100000
-41.58240000 4.47260000 -8.43410000
-18.41190000 -41.83680000 0.22160000
-0.24480000 -83.23660000 -1.77430000
-37.79020000 -8.76700000 -4.22460000
-38.00700000 -9.05440000 -4.22840000
-38.72900000 -9.23180000 -4.85840000
-23.79790000 -11.95820000 -0.31030000
12.17210000 11.67700000 -4.08830000
9.99690000 11.69660000 -3.88140000
14.34970000 -41.36770000 -1.30920000
-17.81940000 -72.00030000 -0.04980000
-25.40370000 -44.66200000 -2.79790000
-11.03900000 6.55280000 -3.98080000
-37.23950000 -22.61610000 0.03930000
-62.91300000 8.55350000 -5.55160000
-66.49230000 8.32340000 -5.66870000
-12.77550000 22.83930000 -2.78620000
-98.35910000 -26.74620000 -2.37850000
-40.99590000 -19.57470000 4.39460000
-101.20600000 -26.73430000 -4.61890000
-104.66600000 8.60880000 -0.15620000
58.93980000 -3.68920000 -2.35770000
54.15150000 -3.87300000 -2.42140000
-44.98000000 -14.61450000 5.26470000
-44.77550000 -16.19530000 5.02360000
-15.12120000 -8.27810000 -0.27710000
-78.22660000 -7.96460000 -5.51280000
-79.87970000 -5.40140000 -5.54420000
4.45820000 -3.66050000 -0.75250000
-43.78590000 -15.56700000 -0.34680000
-40.99890000 -14.16270000 -0.42280000
-41.42780000 1.04230000 0.70860000
-45.39020000 -4.09710000 -8.83460000
-7.40020000 -20.16590000 -2.48820000
-11.83090000 -2.76220000 0.06480000
-16.20900000 -92.80530000 -3.25240000
44.15060000 -15.23330000 0.04540000
44.32980000 -16.18910000 0.09110000
47.72630000 -15.39270000 0.08620000
47.88890000 -12.77070000 0.11920000
1.91970000 2.33930000 1.35620000
-0.18120000 1.79360000 1.23860000
4.05040000 23.36620000 -2.22960000
-62.34290000 -26.33730000 -4.97730000
37.71580000 -25.16020000 -1.36470000
119.35200000 -2.33850000 0.14760000
-18.75430000 -44.38750000 -4.32000000
-17.18410000 12.69630000 -4.60720000
35.56660000 -5.04430000 -2.50070000
35.65850000 -6.11870000 -2.47680000
-8.37120000 13.07470000 0.78050000
-12.56760000 -84.52160000 -3.04410000
-14.23000000 -83.58270000 -3.03040000
-18.99080000 -8.38350000 -3.67840000
83.67770000 24.38660000 -1.56640000
83.67990000 24.30560000 -1.72450000
-88.22540000 7.70380000 0.03180000
-17.60060000 -3.83320000 -4.31870000
11.87030000 -1.79670000 -0.03540000
11.59510000 -2.27600000 -0.26190000
-15.97600000 21.18070000 -3.11970000
124.78100000 12.64070000 -1.68100000
98.43900000 19.04510000 -2.52460000
-45.13190000 -2.48670000 -5.45830000
-8.44370000 10.03650000 -0.79440000
-14.33570000 17.55880000 -0.94600000
-24.96460000 5.96560000 -4.76550000
-50.55520000 -19.59020000 -0.06980000
-47.53360000 -20.59300000 -0.13800000
112.31600000 12.56020000 -0.22390000
116.00100000 12.85350000 -0.21910000
32.88180000 12.54600000 -3.87060000
30.71940000 13.18860000 -3.89640000
59.53640000 24.23220000 -1.69770000
-32.09670000 -108.41300000 -2.50630000
-40.87210000 -89.61940000 -2.82030000
-76.51990000 -26.43260000 -4.86540000
-80.40590000 -26.48810000 -4.79180000
-77.17700000 -26.57860000 -4.41580000
-80.41690000 -26.66780000 -4.05510000
-36.60950000 5.81300000 4.74730000
-39.78020000 5.57800000 5.94360000
52.33260000 19.28830000 -0.18150000
52.31580000 19.83600000 -0.26070000
54.21730000 20.31050000 -0.32640000
-32.18860000 -36.43420000 -2.53100000
-2.85630000 16.38360000 -1.11110000
-3.35050000 15.15590000 -1.09770000
-58.23730000 1.95900000 -0.12930000
-57.68350000 1.87080000 -0.21350000
-32.04320000 6.41350000 -5.36490000
-18.19270000 -18.05400000 -4.16870000
7.63990000 21.78640000 -2.59400000
9.39720000 21.93190000 -2.52880000
34.36420000 -1.57990000 1.39890000
34.39070000 -0.96450000 1.47700000
27.84380000 -4.13300000 0.63210000
78.46610000 -11.96820000 -2.37250000
114.84200000 -7.54070000 0.10200000
-11.84150000 -51.49200000 -3.93650000
-12.12340000 -52.69550000 -4.03500000
-13.69650000 -52.46680000 -4.28290000
-39.74520000 -2.10490000 -0.42280000
115.34500000 -10.12820000 -0.21570000
-6.76900000 -41.64720000 -3.20710000
-7.36110000 -42.15880000 -3.44830000
-4.90620000 15.98040000 -3.21520000
-0.98700000 16.69680000 -3.04640000
7.26840000 -59.92680000 -1.37470000
6.59740000 -61.86380000 -1.36090000
-19.61860000 -89.28770000 -0.46150000
17.97250000 -16.89010000 -2.42300000
20.45730000 -17.64970000 -2.40900000
19.36230000 -14.66510000 -2.41240000
16.00050000 13.62900000 -0.68580000
72.00830000 21.19710000 -2.57260000
72.04860000 19.50540000 -2.70620000
135.92700000 5.49750000 -1.61900000
129.80000000 11.48630000 -1.52600000
-22.48740000 -27.93940000 -4.11340000
-20.91080000 -26.80780000 -4.23760000
-21.92740000 -27.03650000 -4.08420000
-38.79180000 13.82660000 -0.17920000
-27.78590000 -64.33460000 -3.70590000
9.56890000 14.39670000 -0.87200000
-57.29690000 -13.18970000 -5.07990000
-58.64500000 -14.92330000 -5.27590000
-69.37880000 2.94760000 -5.65080000
-73.38000000 1.34460000 -5.68120000
23.94420000 23.32160000 -2.04580000
-11.24250000 -15.33160000 0.76180000
99.69190000 -8.63310000 -2.30740000
118.98300000 4.80110000 -2.88840000
-5.66010000 -55.89220000 -3.12000000
-10.26700000 -64.87100000 0.05780000
-63.31360000 -5.46210000 -5.34590000
-41.06720000 -94.28010000 -2.59490000
-41.31460000 -93.02000000 -2.75340000
-41.56210000 9.28160000 -4.64760000
-38.27830000 0.41050000 4.69630000
-14.69830000 -18.69040000 -0.14720000
-21.23500000 -56.47030000 0.21210000
114.26000000 18.44560000 -2.26200000
-33.39440000 -9.57050000 1.08240000
-29.42860000 -77.81520000 -4.42730000
-28.68030000 -78.62160000 -4.60830000
-24.50750000 13.46500000 -3.52370000
59.76750000 19.48460000 -2.72370000
-38.50890000 -0.60150000 1.12890000
-32.81320000 -17.89240000 -5.94430000
-34.51800000 -17.74770000 -6.19550000
-2.55620000 -18.56820000 -2.46430000
-24.36510000 -1.04140000 -3.84270000
-25.29730000 -0.07960000 -3.90970000
-7.53740000 19.34850000 -3.13640000
115.36000000 9.08490000 -2.14140000
-30.67700000 12.68560000 -0.33800000
125.33200000 8.68820000 -2.13970000
-28.85560000 -33.10620000 -2.74900000
126.23000000 -5.47670000 0.05240000
75.75780000 19.51110000 -0.13930000
-39.49550000 -3.75260000 3.35840000
-25.21250000 -83.32620000 -4.22180000
-93.80410000 -26.68570000 -4.20910000
13.68870000 -23.22970000 -2.41140000
12.39270000 -27.40070000 -2.36570000
11.56340000 -25.60150000 -2.34130000
16.83660000 8.94210000 -3.80880000
-21.72680000 -20.92930000 -0.12120000
1.49640000 4.00260000 -4.38110000
1.55490000 7.10690000 -4.33490000
-34.14700000 -26.69540000 -0.57200000
-27.36430000 -46.05980000 -2.88530000
40.30380000 -3.69200000 -2.79570000
12.85710000 -5.39830000 -3.51550000
-30.79370000 -93.45670000 -3.36150000
103.18600000 -12.56140000 -0.26800000
-39.18820000 -9.30270000 4.15670000
-16.01550000 -23.51120000 -3.54740000
-35.15590000 -93.21560000 -1.52560000
-35.52630000 -93.41840000 -1.65870000
57.51010000 -17.88950000 -1.94210000
-21.35290000 -94.86990000 -0.74820000
92.73410000 11.83630000 -0.16150000
93.37760000 15.08090000 -0.20960000
90.43580000 7.44360000 -0.00750000
89.78630000 9.86020000 -0.06480000
117.06400000 20.09330000 -1.68950000
-73.93610000 -7.18010000 -0.18800000
-7.90670000 -14.20400000 0.52360000
-32.11310000 -42.82980000 -2.06800000
-43.93670000 -1.16070000 4.79140000
-41.97650000 -0.87700000 3.28280000
53.33320000 3.43250000 1.04270000
-9.90980000 -85.56550000 -1.52320000
-65.44500000 -26.94450000 -3.14260000
-21.82770000 -100.11900000 -3.48920000
4.80780000 -31.50560000 -2.37680000
6.74670000 -32.54030000 -2.34950000
29.43830000 -21.72580000 -2.52080000
27.83840000 -20.83320000 -2.47720000
-82.25420000 -17.57580000 0.00010000
18.91840000 -31.05370000 -0.48390000
19.01180000 -32.37860000 -2.10410000
17.12620000 -34.13090000 -2.16910000
127.73200000 12.24870000 -1.21840000
111.11200000 -11.91150000 -0.43260000
109.05500000 -11.91920000 -0.32490000
-3.71400000 -48.36090000 -1.13010000
3.44890000 11.53240000 1.61260000
125.68800000 13.29470000 -0.79880000
-7.24550000 -11.79780000 1.26340000
-13.18450000 13.11270000 0.12500000
-9.20110000 13.74390000 -4.97540000
-19.45940000 2.85540000 0.23610000
-19.66460000 4.40830000 0.08730000
43.15280000 19.19150000 -2.72480000
43.76290000 20.30430000 -2.60310000
44.47930000 19.27140000 -2.74070000
-30.10240000 -100.60900000 -1.80480000
94.07000000 -4.37750000 -2.33910000
95.32700000 -4.80180000 -2.40170000
-73.49200000 6.36410000 -5.73780000
-76.67830000 6.40410000 -5.75970000
-74.35520000 2.35280000 -5.68420000
-0.89330000 22.77790000 -1.62110000
86.13110000 20.71690000 -2.62930000
84.32200000 22.24120000 -2.32010000
1.29520000 -7.25240000 -3.85870000
32.33530000 2.13120000 -3.79210000
-99.78280000 9.03570000 -5.74380000
-90.96020000 15.77120000 -2.17490000
131.60000000 7.39150000 0.77470000
41.01920000 15.26450000 -2.58690000
42.07220000 16.88530000 -2.58060000
-88.05050000 15.73780000 -3.31950000
37.31230000 -14.33150000 -0.00470000
100.56100000 -10.12580000 0.19010000
103.15200000 -7.72190000 0.09180000
103.53400000 -6.55810000 0.07830000
99.37100000 14.38990000 -0.23650000
-9.31950000 -62.30820000 -3.35390000
-15.65340000 -103.88700000 -1.98580000
31.12320000 -3.71260000 -3.08950000
-21.78970000 23.36290000 -2.81490000
-28.15330000 -40.49670000 -2.90400000
10.59640000 2.07360000 -0.29920000
-5.50560000 -78.14180000 -1.31640000
104.63400000 18.11070000 -2.32870000
-18.14990000 -38.20070000 0.30650000
-18.10110000 -37.06740000 0.32900000
-92.25110000 -14.18440000 -5.63900000
-89.42870000 -8.19130000 -5.58730000
51.16460000 -8.82850000 -2.36900000
-54.41430000 7.57400000 -5.38560000
-18.84860000 -43.63670000 -4.35980000
-18.70930000 -42.45910000 -4.10350000
25.79480000 -9.97960000 -0.39340000
118.52400000 -7.43340000 0.08910000
120.78800000 -7.95990000 -0.04450000
85.04550000 -1.01990000 0.29990000
-30.06130000 -71.61320000 -1.58400000
-22.49830000 -57.85150000 -4.13970000
-21.60000000 -55.84970000 -4.29130000
-87.46940000 -26.71450000 -3.59960000
-8.85560000 -66.02530000 0.19120000
-10.21020000 -66.04700000 0.18140000
-41.54140000 -18.87940000 -0.17670000
-6.38900000 -17.59220000 0.06930000
-5.12310000 -18.22150000 -0.80100000
82.55730000 13.00990000 -0.12390000
-28.42450000 16.65060000 -3.77240000
43.88260000 14.28040000 -0.22870000
18.07460000 -11.75300000 -2.52900000
-40.01250000 -13.87560000 -0.47830000
-60.41730000 -4.26140000 -5.37860000
-34.29790000 -74.91440000 -2.17470000
126.78700000 -5.95020000 -1.21810000
-11.61400000 11.30350000 0.51660000
-13.17980000 11.37160000 0.98880000
-40.04360000 5.79610000 -8.25480000
47.73890000 20.81960000 -2.56620000
4.16590000 20.95080000 -2.81630000
3.14050000 20.40210000 -2.92100000
2.75370000 -5.97120000 -4.55150000
21.13150000 7.86740000 -3.73870000
20.03320000 8.70460000 -3.88620000
29.48640000 15.95460000 -2.66860000
28.32590000 17.05340000 -2.61410000
-40.37010000 -2.80630000 1.78040000
-40.69500000 -2.96540000 2.30320000
-25.25280000 -42.44620000 -3.05410000
-49.51370000 2.93420000 -0.14380000
-46.63090000 2.84500000 -0.42640000
-4.15100000 -70.60820000 -2.62820000
-96.81810000 14.05230000 -0.07180000
-20.81120000 -70.47110000 -4.42380000
-1.94460000 3.51860000 -4.76190000
32.45080000 -21.71410000 -2.43100000
-28.28020000 -107.91000000 -2.96740000
-63.56560000 14.99770000 -4.29350000
-4.84030000 -50.28490000 -2.45300000
-3.70940000 -49.25200000 -2.35580000
-32.10180000 -14.83010000 1.48890000
-33.19100000 -16.89550000 1.86590000
-32.68220000 -15.58370000 1.68990000
-74.34680000 -15.39310000 -0.01710000
93.83090000 6.73570000 -3.07340000
98.47680000 6.87930000 -3.03910000
98.54480000 5.72670000 -3.28290000
-57.52500000 -27.05960000 -3.01840000
-4.66010000 -4.58800000 -4.41150000
-3.90280000 -3.69560000 -4.25220000
-26.84010000 23.91450000 -2.39170000
32.95030000 -26.63110000 -1.14770000
-21.67300000 -54.19340000 -4.15460000
35.78570000 23.75680000 -1.56220000
35.78430000 23.55170000 -1.28920000
36.42170000 23.83850000 -1.76880000
-36.50230000 -98.59700000 -2.06750000
-36.24180000 -98.99620000 -2.28350000
-36.97620000 -98.64330000 -2.27390000
-60.97200000 15.10310000 -2.78150000
-42.06590000 -19.82870000 -0.09960000
-28.28320000 -45.73700000 -1.45950000
-13.98120000 -23.38940000 -2.60080000
-33.80410000 -81.94760000 -1.10360000
-33.57230000 -82.69790000 -1.04620000
65.31990000 -11.72810000 -2.13510000
-0.38690000 8.05120000 -4.60250000
62.92210000 19.09720000 -0.12210000
66.06060000 19.19740000 -0.13000000
69.51190000 -6.45850000 0.23130000
-32.17400000 -106.29100000 -3.24530000
50.85620000 5.74680000 -2.58200000
44.44430000 21.01910000 -0.56660000
-9.49080000 -75.07270000 -1.16460000
-42.72540000 1.83080000 -8.84960000
-25.68350000 8.39400000 -4.34750000
-31.15990000 -14.34520000 1.19920000
-39.83540000 -1.90950000 -0.51650000
-50.08910000 14.28650000 -0.37160000
118.66500000 17.34920000 -1.58240000
118.71000000 17.39350000 -1.25930000
-82.23560000 14.38150000 -5.78740000
-10.21550000 -62.04600000 -0.48360000
-32.69910000 -51.56320000 -2.15610000
-4.35920000 1.33450000 0.94660000
7.47400000 15.77250000 -2.93410000
10.38220000 14.46010000 -2.93360000
-11.01860000 -23.29690000 -2.51410000
-30.73220000 -36.94760000 -0.97480000
-30.50420000 -35.23860000 -0.92780000
-42.67350000 -5.06620000 -6.57500000
-13.26640000 4.46520000 -0.05610000
59.25230000 21.20750000 -0.51460000
68.40570000 20.50650000 -2.69150000
97.69360000 -11.44920000 -2.53340000
96.66640000 -12.20200000 -2.80830000
118.45400000 0.82810000 0.21980000
115.18400000 0.03260000 0.15700000
122.53900000 0.67880000 0.24690000
12.58680000 -10.33820000 0.47370000
-30.58730000 -8.99700000 -5.29980000
60.69940000 6.56250000 0.07470000
-20.26650000 -45.55350000 0.20120000
-24.74250000 -43.99940000 -1.30860000
-12.45510000 -47.45620000 0.34410000
51.36160000 5.58090000 0.07030000
50.05430000 6.71750000 -0.01140000
-13.40640000 -43.69310000 0.69650000
-34.57300000 -94.88810000 -1.13890000
130.32500000 1.30860000 0.37710000
131.85200000 1.95750000 0.52300000
131.88300000 2.56630000 0.82890000
91.20010000 4.36370000 1.16470000
105.94400000 7.64320000 -2.82110000
-30.08270000 6.20370000 2.45630000
-62.92260000 14.82230000 -0.76640000
82.28330000 -13.77710000 0.16790000
-13.76470000 -13.94870000 -4.33900000
-18.77080000 -24.68740000 -0.01570000
-30.83330000 -74.72720000 -3.50870000
11.45000000 -16.16990000 -3.95830000
-96.26710000 -26.41750000 -5.18570000
-93.28790000 -13.48710000 0.25330000
6.16280000 -18.30690000 -0.53030000
90.62820000 -13.25780000 -2.26280000
66.24280000 10.45450000 -2.51340000
65.55000000 12.18860000 -2.52720000
99.29820000 21.06100000 -2.39040000
97.35170000 20.66370000 -2.47400000
98.71620000 21.60180000 -0.61050000
97.87830000 19.56920000 -0.23780000
99.78320000 19.86250000 -0.28130000
-81.67010000 -0.23560000 0.02680000
-36.20300000 -10.57650000 -6.59270000
-104.15200000 -26.39800000 -0.73050000
-1.78480000 -28.15980000 -2.48760000
9.39950000 22.21690000 -2.22550000
-42.66170000 -7.95140000 3.98100000
-24.17930000 -95.72700000 -4.27890000
-35.03480000 -85.86090000 -1.95390000
57.14570000 12.52400000 -0.11810000
-27.17570000 -32.16480000 -0.51950000
8.43790000 -41.59140000 -2.61390000
97.35110000 -13.02410000 -2.02370000
98.43560000 -12.91280000 -1.81010000
-90.00000000 -26.75360000 -2.46450000
-25.38710000 21.88280000 -1.58370000
97.55970000 5.64400000 0.88300000
-90.96970000 -20.48150000 -5.59640000
-88.45650000 -19.78930000 -5.65150000
-84.27330000 -16.63910000 -5.61140000
95.86520000 -11.71610000 0.07550000
-29.18300000 -0.16250000 1.30130000
-105.46600000 3.64740000 -0.79740000
-105.62500000 5.55470000 -1.16120000
-26.94570000 -17.48080000 -4.38450000
-47.54100000 4.11810000 -10.07260000
104.78300000 -14.38170000 -0.95250000
101.23600000 -14.31140000 -0.91330000
-34.83310000 0.32880000 3.15680000
-35.09610000 1.35400000 3.35880000
-30.67450000 -83.21460000 -3.13450000
12.00320000 7.16190000 -3.72440000
-7.12670000 -32.86890000 0.15220000
-6.01430000 -32.80910000 -0.11800000
73.88740000 17.48290000 -2.55710000
23.09280000 16.12100000 -2.75630000
-72.62160000 -26.71410000 -1.22260000
-7.25020000 -58.36500000 0.26890000
137.37200000 7.76020000 -0.17960000
137.37400000 7.28190000 -0.33210000
-38.36120000 -13.50570000 3.97670000
-33.13660000 -88.97700000 -4.07220000
-17.00510000 -33.76450000 -3.83550000
-49.40640000 -22.21630000 -4.81710000
83.10850000 -15.44690000 -1.61620000
-4.85870000 11.42870000 -4.27670000
-42.94000000 -23.38370000 -4.41110000
63.87120000 -4.93580000 -2.30250000
-78.32330000 4.62120000 0.06660000
-20.27630000 -34.24220000 0.91380000
17.52140000 17.54220000 -2.75590000
-6.29940000 8.33880000 -0.63290000
1.09020000 -63.06350000 -0.86370000
-53.76240000 12.82960000 -5.52890000
-17.01730000 6.07790000 -3.63580000
-18.04390000 5.43980000 -3.64320000
-24.91020000 -74.79280000 -4.61770000
-70.77120000 0.22620000 -0.28930000
-73.29820000 -6.38780000 -4.25940000
-8.50900000 2.16060000 -4.32170000
-13.41130000 -70.54280000 0.59630000
-44.68090000 4.91340000 -0.47530000
-19.76090000 -39.79070000 0.56720000
-23.69280000 -51.09770000 -2.97050000
46.78020000 4.81870000 -2.70360000
-20.11650000 -44.07120000 -4.38980000
-20.16900000 -44.81810000 -4.02330000
76.93070000 -13.88050000 -2.16060000
70.16030000 21.66390000 -0.59470000
-15.90630000 12.85910000 -4.58720000
-31.05650000 14.06570000 -3.86000000
-106.19500000 -13.36840000 -2.67890000
-106.19400000 -14.67430000 -4.10690000
42.19620000 3.20580000 -3.58320000
38.09870000 3.25050000 -3.47010000
-41.76680000 -8.43310000 -7.11040000
-30.48540000 7.43490000 2.40730000
-11.13390000 -90.17870000 -3.14470000
-14.27060000 15.97420000 -1.08450000
36.66700000 10.91160000 -0.24810000
40.42520000 -2.77720000 0.93250000
42.77730000 -2.61610000 0.94560000
-94.90260000 15.88670000 -2.49790000
-97.50690000 15.95410000 -2.40170000
-26.83280000 -9.08720000 -4.22170000
-80.43100000 -26.78720000 -2.82910000
-79.14390000 -26.76470000 -2.32350000
-13.64390000 -28.82970000 -1.12380000
45.08340000 -15.20710000 -2.38980000
-34.18460000 -20.90540000 -4.13560000
-34.73130000 -22.07110000 -4.37180000
-27.02330000 -34.99620000 -2.92920000
-7.79490000 -47.24030000 -2.50690000
-29.26970000 -6.32320000 0.40270000
-40.58950000 -95.09860000 -2.36890000
-88.77030000 -25.71650000 -5.62780000
-26.67510000 -97.40080000 -1.79150000
-24.85350000 -1.18360000 0.26600000
115.41300000 15.13030000 -1.98120000
-41.10630000 -19.82530000 3.12720000
123.02100000 14.77080000 -1.30650000
-24.64780000 -17.09110000 -0.29390000
-18.92480000 -63.96200000 0.73030000
-17.47800000 -73.67810000 -5.21230000
-25.50520000 12.52980000 -1.65430000
-19.53260000 -12.21160000 -3.82100000
-15.42340000 -17.90770000 0.07710000
-98.59140000 15.63430000 -0.59490000
113.52700000 16.87800000 -2.06640000
46.61660000 -6.30770000 -2.52260000
51.80100000 -4.42460000 -2.45810000
-96.08940000 -13.16290000 -5.72800000
114.60700000 21.26920000 -1.47550000
-37.50350000 -97.72790000 -1.92810000
-22.88620000 1.62530000 0.25490000
-24.26570000 1.67830000 0.29770000
35.07900000 1.94130000 0.81790000
33.17260000 2.16360000 0.66280000
-21.29400000 -21.60940000 -4.05900000
75.83610000 -4.20230000 0.17340000
76.59660000 -5.90010000 0.19250000
-31.69630000 12.59610000 -0.24370000
-15.46020000 -25.22160000 -1.21300000
6.03110000 -22.25250000 -0.46270000
4.38450000 -60.07600000 -0.90820000
17.96080000 22.54610000 -1.19840000
44.24060000 7.25780000 -0.04670000
42.06950000 6.88970000 -0.04930000
-24.92700000 -97.69880000 -3.48220000
1.32830000 -72.43500000 -1.20390000
0.40730000 -75.84340000 -1.36130000
87.96040000 6.55290000 -3.07640000
84.41990000 6.39440000 -3.09350000
86.14710000 7.58610000 -2.61230000
-6.49670000 23.44530000 -1.92140000
109.82600000 -12.21700000 -1.44290000
-9.09320000 -50.58450000 -2.63380000
-25.53140000 24.11020000 -2.46450000
-16.36280000 12.58750000 -4.68830000
-87.72190000 -11.32240000 0.00680000
-31.45080000 -18.71430000 -5.08210000
-32.25900000 -18.32390000 -5.54310000
-55.02770000 -8.16710000 -4.90550000
-17.85090000 -62.11000000 -3.97570000
-5.55580000 -14.71910000 -3.89930000
0.64630000 -76.69840000 -1.62150000
39.62450000 -19.25690000 0.14960000
-42.60120000 6.55910000 -9.37940000
-40.33440000 8.36940000 -6.11200000
-21.40270000 -93.60170000 -4.23810000
78.28080000 14.78180000 -0.18380000
-83.24700000 1.56570000 0.05790000
-66.46890000 -0.01530000 -1.61630000
57.75000000 -19.06990000 -0.25260000
56.57810000 -19.03510000 -0.25120000
57.35700000 -20.31670000 -0.67250000
-42.40580000 12.96170000 -0.02450000
-68.31780000 -16.09950000 -5.46370000
-70.38460000 -17.06290000 -5.49890000
-70.05770000 -15.07500000 -5.43490000
-43.39390000 4.25410000 -0.33560000
122.42200000 4.10380000 -2.49050000
-14.90740000 -103.69100000 -2.68830000
37.13990000 -8.34860000 -2.55530000
-41.32630000 -5.84290000 -4.22720000
-5.36680000 -13.44350000 -4.04880000
-16.61900000 8.80820000 -4.51820000
111.83300000 20.80970000 -2.17910000
4.71410000 -47.57210000 -0.83480000
-5.06220000 15.02550000 -3.61730000
24.93910000 1.14410000 0.69970000
27.67300000 1.58560000 0.59310000
48.96650000 -21.57450000 -0.54360000
1.38520000 -0.71620000 -3.20160000
-49.49760000 14.46640000 -0.68710000
-103.67600000 -19.42060000 -5.55320000
-104.81500000 -20.43930000 -5.56920000
-14.73400000 -49.85770000 -4.50110000
-34.63860000 10.52820000 -0.43100000
85.42390000 2.27680000 1.48080000
91.56850000 -15.08560000 -1.52900000
45.09200000 -22.65930000 -1.47860000
-33.31420000 -23.48100000 -0.14780000
-33.99530000 -24.21750000 -0.12350000
-61.93230000 4.79740000 -0.01290000
36.39180000 -24.69300000 -0.71350000
-13.99300000 -76.76660000 -3.03550000
-29.92520000 4.32720000 0.98600000
-24.44070000 -75.11440000 -0.69550000
-96.00850000 -4.23450000 -5.74470000
-101.96200000 -25.38020000 -5.67720000
-30.77070000 -62.42660000 -1.54320000
106.62500000 7.87860000 -0.02460000
107.96400000 10.47070000 -0.17770000
-77.80280000 -11.43450000 -5.51480000
-77.99710000 -14.04830000 -5.52690000
-12.48780000 8.74370000 -0.91370000
-1.13240000 -4.87740000 1.10610000
-2.50890000 6.76630000 1.44040000
-12.18910000 -59.52840000 -3.30380000
121.36100000 -0.82670000 -1.89040000
-30.35360000 -23.48640000 -3.05650000
-7.41270000 3.81500000 -4.92460000
-5.36550000 2.46370000 -4.85840000
57.32260000 16.79860000 -2.53250000
49.70080000 23.47730000 -1.04020000
-3.62060000 -8.74640000 -4.01440000
-3.93680000 -7.31090000 -4.02890000
-15.04820000 -94.23210000 -3.15470000
12.73310000 -9.73100000 0.33390000
93.07850000 23.04530000 -2.08660000
7.56520000 -24.91250000 -0.74820000
-23.81640000 -37.17470000 0.14560000
-19.44970000 -2.98890000 0.72890000
88.71290000 6.51620000 0.17440000
57.37730000 21.55070000 -2.43800000
-8.32250000 -1.27170000 1.07720000
80.12910000 -0.27740000 -2.71920000
45.79140000 -20.42400000 -0.19590000
-45.48600000 -16.02690000 -9.21560000
34.11460000 0.85480000 -4.19290000
-52.37010000 6.35390000 -9.00840000
-25.66340000 17.67160000 -3.66160000
47.72990000 1.26190000 -4.07710000
38.19420000 7.28310000 -2.63760000
2.13290000 -72.71820000 -1.54880000
78.24890000 11.96170000 -2.53960000
-64.09270000 -20.82120000 -5.44430000
67.14610000 -1.72340000 -2.49940000
69.56040000 -1.98620000 -2.41880000
-35.60160000 -13.13840000 2.80160000
-50.10810000 -10.74500000 -0.20190000
51.40580000 14.56810000 -0.14820000
99.53650000 -11.25300000 -2.53730000
98.31050000 -11.53240000 -2.36730000
28.73450000 -25.71780000 -2.04690000
-40.83220000 -6.34460000 2.89890000
90.56190000 22.42280000 -0.76030000
-35.70310000 -98.50260000 -1.74640000
-30.85200000 7.16010000 2.83690000
8.77430000 -54.40430000 -1.91430000
12.48100000 -27.41080000 -0.63340000
-35.92390000 -22.74690000 -4.47630000
69.16010000 -17.09800000 -0.23180000
96.88500000 -13.78630000 -0.64790000
-106.05800000 -8.14130000 -1.81850000
-106.19300000 -7.51600000 -3.45670000
102.81400000 22.54030000 -1.02680000
105.27200000 21.79970000 -0.73330000
85.55650000 19.92610000 -0.22410000
-14.90390000 -18.66180000 -2.77940000
0.67810000 -59.42670000 -1.01970000
-17.54830000 -17.50570000 -0.40010000
-35.78700000 -9.93290000 0.24650000
-36.24970000 -10.37820000 0.78030000
-25.85880000 -39.36440000 -0.92200000
-26.20120000 -37.75620000 -0.67200000
-38.35480000 -9.74600000 -5.88250000
-73.40210000 9.17870000 0.03870000
-36.59730000 6.87610000 5.08850000
-7.88200000 6.67020000 -4.62900000
20.88690000 -33.29620000 -1.12590000
-22.10420000 22.62030000 -1.80560000
-66.85250000 15.24220000 -2.24560000
-30.08830000 -25.70770000 -1.17580000
-10.23630000 -4.21710000 -4.74860000
-10.95680000 -4.74410000 -4.87240000
68.72870000 -18.02770000 -1.41410000
9.16820000 -21.35450000 -3.48010000
-24.29790000 -106.45700000 -1.77630000
-63.78910000 -15.43990000 -0.03380000
-65.92920000 -14.77060000 -0.08170000
-41.26650000 -3.95630000 3.02860000
-46.73430000 13.52650000 -0.05890000
-29.68730000 -42.38620000 -2.95950000
-4.38400000 18.64740000 -0.91100000
-11.21330000 0.97710000 -4.66720000
-28.11330000 -25.41250000 -1.18340000
-33.14880000 -53.46580000 -3.25570000
-89.96760000 -26.45370000 -0.72440000
-32.98450000 -5.07690000 1.25520000
133.47200000 1.60920000 -1.54580000
-2.11240000 -13.75780000 0.51350000
-104.91900000 -19.98190000 0.21690000
-33.17180000 9.18320000 0.26850000
23.90330000 -23.05350000 -2.39140000
23.61770000 -24.76120000 -2.48960000
5.93400000 -5.21320000 0.26310000
-104.72400000 -8.87540000 -5.64600000
-16.42440000 10.76470000 -4.14990000
-1.71560000 -63.70230000 -2.54740000
-24.01550000 -9.98240000 -3.98660000
12.50960000 -15.80780000 0.82040000
108.67600000 12.57380000 -2.13840000
-35.90940000 -98.99230000 -2.77510000
-44.50300000 -12.55810000 6.56380000
-22.67530000 -39.69580000 -3.96980000
-9.09160000 -11.91080000 1.01250000
-54.49720000 -26.98750000 -1.12730000
34.88310000 -19.96800000 -2.52680000
-43.08480000 -7.28050000 6.49020000
-42.33130000 -9.97500000 5.97650000
100.54900000 4.01720000 1.33040000
-33.58960000 -106.51700000 -2.00640000
-3.20910000 -34.03040000 -2.51960000
53.74100000 -12.43140000 0.17300000
-35.93940000 -25.80470000 -4.49870000
-31.50370000 11.69660000 -4.77600000
-72.96180000 -2.13090000 -4.94300000
1.09420000 -46.25150000 -2.28540000
111.73900000 20.32990000 -2.34340000
-99.34860000 14.12470000 -0.08020000
-99.70050000 14.95840000 -0.11710000
97.62060000 23.66980000 -1.26910000
19.22090000 -30.99830000 -2.23580000
101.34000000 -11.41000000 -2.05330000
-3.72310000 -22.04850000 -2.53190000
5.51290000 -38.29340000 -2.37450000
1.94570000 -27.63990000 -1.09320000
1.41460000 -30.81270000 -1.05840000
-19.86130000 7.34440000 -4.30920000
-17.28030000 7.82900000 -4.40820000
58.58120000 -3.99720000 0.14870000
-7.70290000 7.67950000 -0.91000000
-37.15640000 4.32690000 -7.42400000
-24.60450000 -92.82870000 -1.36740000
12.27210000 -4.86020000 -4.08260000
17.99080000 19.97540000 -2.84870000
-89.87910000 13.57130000 -5.81220000
-42.45750000 1.58510000 1.33410000
31.11850000 -10.13270000 -2.56130000
122.93600000 6.57720000 -2.86040000
122.32800000 7.68880000 -2.64180000
-14.13050000 -35.19780000 -0.75520000
-43.73850000 -17.32330000 -8.73760000
-19.58050000 -19.57750000 -4.09230000
-19.55680000 -69.53490000 0.04160000
-104.30300000 5.54170000 -0.09540000
-23.31360000 -74.53540000 -1.14130000
-33.46260000 -62.62150000 -1.87670000
-44.20230000 -17.51810000 4.83630000
27.37690000 -20.18810000 -0.18170000
-29.93590000 -37.55460000 -1.20590000
-30.57870000 -39.15160000 -0.99480000
-4.90600000 -32.33750000 -3.31320000
-18.94100000 -91.08250000 -0.54420000
-23.82940000 14.14140000 -0.97450000
-35.95620000 -90.78540000 -3.35910000
-23.95760000 -24.29250000 -4.14790000
-24.04140000 -10.25240000 -0.26570000
-24.94760000 -10.92510000 -0.25970000
-13.78920000 -16.94860000 -3.46310000
-71.23070000 -18.59290000 -5.53380000
-42.15870000 9.65920000 -4.63980000
-4.67880000 -30.57210000 -2.71520000
-65.28320000 1.75520000 -5.60160000
-57.55130000 -27.00040000 -3.53210000
69.10740000 3.60530000 -3.63150000
3.15630000 8.78160000 -4.74120000
1.87200000 8.62120000 -4.91450000
-14.11220000 -30.32350000 -3.14450000
-44.80740000 0.84360000 -0.41950000
31.20230000 21.98740000 -2.37790000
-71.62490000 -8.62090000 -2.39050000
-3.88600000 15.33570000 -3.18240000
-13.51430000 -103.22500000 -2.12390000
28.55310000 -0.58420000 -4.34690000
-77.96520000 -11.31150000 0.00360000
-11.95010000 -47.21310000 0.19500000
-10.68100000 -46.38600000 -0.31510000
-10.53730000 -45.67150000 -0.35570000
-8.99030000 7.59770000 -3.97150000
-28.04060000 -93.85890000 -1.70190000
-44.35840000 -4.39300000 -4.56400000
26.57490000 -29.40220000 -1.17050000
32.67850000 6.61630000 0.10110000
-65.39500000 -26.84690000 -1.55990000
-66.69770000 -26.88980000 -1.99490000
1.13620000 19.57140000 -3.15560000
-13.78440000 -16.68970000 0.25860000
-18.43240000 -47.90430000 0.51990000
-13.19910000 -9.72180000 -0.45880000
-27.67940000 -83.09610000 -4.52140000
0.35090000 -9.06660000 0.62020000
113.15000000 1.84560000 0.80360000
-72.29060000 14.38290000 -5.33280000
-63.26150000 0.40040000 -0.07280000
25.31740000 -13.87730000 -2.39290000
-18.34430000 -30.78070000 0.97450000
-14.58360000 -41.27920000 0.20950000
-15.65990000 -42.42110000 0.17310000
-57.83600000 -26.12480000 -0.14800000
-60.84510000 -26.00170000 -0.13770000
87.93120000 -10.85740000 -2.38450000
39.86980000 -4.05860000 0.21800000
38.71650000 -13.76580000 -2.51180000
-31.99400000 -108.20300000 -2.31930000
-43.26870000 -5.43470000 -0.51920000
-45.29610000 -6.58240000 -0.42230000
-8.41820000 -56.40890000 -1.10740000
11.98400000 1.04920000 -4.84010000
-12.12230000 -36.92580000 0.10380000
98.92270000 -3.67130000 0.10930000
84.17740000 -9.57680000 0.19310000
111.14600000 -2.76730000 -2.03470000
-88.44580000 -6.78540000 -5.57830000
-31.93310000 -99.74760000 -1.80490000
-32.32440000 -98.39190000 -1.78400000
28.66930000 6.37640000 1.19190000
-15.95320000 -90.12060000 -1.47470000
99.20970000 7.56490000 -0.00180000
63.09560000 11.94720000 -2.54670000
-29.92590000 -27.09760000 -3.04090000
21.73980000 7.27720000 -3.69370000
102.60500000 11.08050000 -2.23520000
-44.52140000 -10.65450000 5.01690000
-43.60630000 -10.67490000 4.35080000
-27.63290000 1.50030000 1.12880000
-19.91830000 -84.50630000 -3.24030000
117.20100000 15.33530000 -0.22410000
-11.51870000 5.80660000 -3.83850000
32.51740000 18.83540000 -2.60300000
-92.54130000 -17.26960000 -5.65560000
-95.46990000 -19.64780000 -5.58750000
104.58000000 -13.31500000 -0.46710000
-73.87970000 -12.82560000 -0.01520000
-52.19570000 1.35130000 -5.29560000
24.03040000 -6.40480000 -2.47850000
-29.75550000 17.41120000 -2.47170000
-1.36460000 21.68470000 -2.82540000
-44.67840000 -3.67820000 -8.60640000
64.10950000 19.18100000 -2.72750000
59.14680000 18.31800000 -2.68800000
-41.77280000 -13.83580000 5.68610000
49.11630000 -2.19170000 0.95750000
110.07200000 -8.53960000 0.15520000
-26.82840000 4.56610000 -4.78040000
10.87730000 -8.88760000 -3.39970000
54.16990000 -18.86580000 -1.88150000
-43.12470000 -4.87080000 -4.47510000
-25.29290000 12.72100000 -3.89130000
-105.94400000 -23.69160000 -2.39690000
-38.99700000 -5.64330000 2.45610000
-38.92470000 -6.78150000 2.49840000
-59.32670000 -7.61060000 -0.09730000
49.05350000 20.84790000 -2.51810000
49.09040000 19.17500000 -2.65770000
56.54420000 -3.76460000 -2.37710000
-36.34100000 -11.41930000 -6.78930000
-23.68410000 -72.82590000 -5.23850000
-74.76300000 15.42190000 -2.20910000
90.82670000 10.17480000 -2.44120000
-11.42680000 -28.53420000 -1.38420000
-13.06040000 19.66740000 -1.03200000
-56.77550000 7.41440000 -5.43360000
126.50700000 0.44490000 -1.53760000
95.30020000 -8.08890000 0.09260000
40.45430000 19.80230000 -2.61240000
51.05770000 17.83260000 -2.63470000
-14.79740000 12.03780000 -4.36660000
-22.73050000 -4.03310000 -0.06280000
-6.65280000 -38.97170000 -0.70430000
131.99700000 5.41900000 1.17160000
-50.10320000 8.91840000 -6.49410000
35.77000000 7.54010000 -2.72220000
130.95400000 5.01830000 -2.14830000
-42.34450000 -3.33300000 3.91080000
-24.11670000 -58.06830000 -4.08100000
-22.83770000 -84.24850000 -3.40290000
-65.62190000 -9.14200000 -2.65660000
69.95860000 24.17190000 -1.14600000
-25.76800000 -15.53640000 -0.23380000
21.90060000 22.28410000 -1.06270000
-28.15130000 -81.44560000 -1.45460000
45.27420000 -5.60370000 -0.00390000
109.05100000 -7.05230000 0.07390000
-64.29320000 -11.98000000 -5.40670000
-64.15220000 -10.39780000 -5.39770000
-99.09260000 -17.62440000 -5.61850000
63.31850000 3.79120000 1.04830000
-40.34430000 14.72530000 -2.92750000
-5.76470000 -94.09420000 -1.63020000
-5.88520000 -74.81750000 -1.40830000
-31.83280000 -73.43180000 -3.43800000
97.01030000 2.28050000 -3.32640000
28.18480000 19.10450000 -2.69300000
-23.73400000 6.42050000 -4.67000000
42.38740000 22.99000000 -2.15020000
-34.86640000 -5.26430000 -5.53470000
-34.23690000 -5.35860000 -5.80320000
38.36790000 21.46480000 -0.72840000
-41.08800000 2.95160000 -8.38250000
22.00590000 11.19100000 0.76700000
10.53370000 2.13590000 -3.81790000
-63.88330000 -2.70840000 -3.49600000
-9.29990000 -60.01190000 -0.25770000
-10.90100000 -51.56720000 -0.25750000
16.41540000 -30.03030000 -2.53200000
2.20030000 -69.30540000 -1.22890000
-9.18710000 -9.11420000 -4.86570000
50.83000000 -13.98820000 -2.35280000
2.07330000 -36.82870000 -0.81880000
-4.61080000 10.20930000 -4.57330000
-89.70510000 -16.07870000 0.14680000
-5.47780000 -60.47210000 -3.71990000
31.00100000 -27.44930000 -1.10130000
-95.08550000 9.43350000 -5.80880000
-26.41340000 10.95600000 -0.98580000
-29.13750000 -35.02870000 -2.80220000
-74.07990000 -4.97300000 -5.44040000
3.04460000 -48.10700000 -2.40760000
-9.27940000 -34.46430000 0.31880000
-92.09880000 15.69710000 -4.08130000
-55.98290000 14.90700000 -2.01180000
-57.83100000 15.00320000 -2.27000000
-73.78790000 -4.67390000 -2.66240000
-41.69560000 9.39280000 -0.25660000
-20.18930000 -72.07540000 0.32100000
26.37120000 19.53110000 -0.55590000
-22.02410000 -67.69120000 -4.90010000
80.76080000 12.48540000 -0.12690000
-11.92190000 -43.46390000 -4.33740000
-77.20570000 -26.62630000 -1.02290000
60.64070000 -18.66600000 -0.25220000
61.65440000 -17.62820000 -0.06550000
31.35150000 -16.64940000 -2.50870000
-5.14110000 -31.66050000 0.04300000
-20.57030000 13.14870000 -3.85500000
