4.19261312 3.97858238 -0.17229797
3.97988915 3.53558922 -0.19057326
4.17101955 4.04880762 -0.14447863
3.90841937 3.86288023 -0.10980258
3.87446475 3.86518741 -0.13044141
4.22584772 4.15833235 -0.15923792
3.82495809 3.81491685 -0.09620775
4.13182497 4.05480433 -0.13956895
4.19029665 4.15680933 -0.15625250
4.16666698 4.10784531 -0.15031631
3.81063771 3.14518237 -0.30723086
3.91979909 3.89148116 -0.19270590
4.25617552 3.84736085 -0.29582965
4.15984869 3.78039980 -0.21490173
4.14497471 3.81674361 -0.18913555
3.91740274 3.51290154 -0.17018284
3.85369277 3.29017615 -0.23845284
3.80335903 3.38843656 -0.16428837
4.17322874 3.69854069 -0.26159588
3.78106046 3.19313550 -0.25869980
3.72810435 3.32514644 -0.16179137
4.13090467 3.94801283 -0.13755062
4.09702730 3.66894555 -0.20263942
4.33568096 4.47463703 -0.21874692
4.31118298 4.38512993 -0.19821265
4.32569838 4.33576727 -0.21672545
3.52634263 3.58696604 -0.04416250
3.92444873 3.60224748 -0.13700938
4.27370548 4.68771887 -0.46849135
4.28522587 4.58678770 -0.51907039
4.28071022 4.68377542 -0.38056543
4.29706049 4.27688885 -0.19472170
4.27356195 4.33164549 -0.18036854
4.28855991 4.40027428 -0.18596214
3.85231662 3.49018526 -0.14275089
4.10598326 4.06050348 -0.15270956
4.23236465 4.21411657 -0.16817252
4.22597075 4.23087597 -0.17596017
4.25122929 4.27081442 -0.17784822
3.49508810 3.77358556 -0.08593418
3.45963264 3.75795555 -0.05701698
4.19029665 4.15680933 -0.15625250
4.23236465 4.21411657 -0.16817252
4.22597075 4.23087597 -0.17596017
3.16929722 3.74814487 0.00453862
3.18439579 3.71985221 0.01448688
3.27752709 3.74272919 -0.02950628
3.22485089 3.75889540 -0.03513281
3.26346493 3.57338357 -0.00018704
3.23569441 3.62856269 0.00926046
3.10720038 3.57172322 0.01529921
1.00052214 0.68360591 1.37848508
0.86882287 0.63615209 1.38952935
0.94312763 0.65851241 1.50213063
3.10827184 3.65972948 0.02504230
0.76381946 0.59450680 1.46443617
3.13428521 3.44064164 -0.01040164
2.99985886 3.47384167 0.01134896
0.84842867 0.62252504 1.56587934
3.02331471 0.61138421 0.65552640
3.05943656 0.54017299 0.60228169
3.02614594 3.61747694 0.03314738
3.25028133 3.68340993 0.00479964
0.68696874 0.55007017 1.60703027
0.95054018 0.66363293 1.57715046
1.01702511 0.68935055 1.49105704
0.91280085 0.64083570 1.63050580
2.91225576 3.49459720 0.03685191
3.01434016 0.61980772 0.57874823
3.00648928 0.62101823 0.44511351
3.09512568 3.73289132 0.01790892
3.07525325 3.78494906 -0.01283862
3.12197208 3.79830480 -0.06571779
0.77117324 0.56770760 1.67462373
0.73588920 2.42586470 1.08085787
0.70131195 2.37260556 1.02064586
0.64460522 2.41621995 1.06884706
0.63022947 2.39189792 1.03552616
0.67918772 2.46771550 1.12307990
3.02706409 3.77533865 0.01365886
2.94150448 0.66466945 0.57694268
0.55002475 2.48045254 1.10068631
2.99273491 3.70268083 0.03237599
2.95161772 0.68466246 0.68654805
1.77458727 0.83542585 1.66019261
1.74477756 0.81187731 1.84177864
1.86048281 0.83075833 1.80525863
1.80953407 0.80642158 1.86650491
2.90874624 3.67149305 0.04486481
3.00828266 0.59035385 0.77974576
1.71991670 0.79289544 1.88104844
0.94838458 2.26340890 0.92782694
1.05502379 2.27821827 0.92906517
1.03055274 2.25988889 0.89425844
2.91560817 3.75564599 0.04427090
2.99254847 0.63004112 0.79530531
1.02004337 2.31988072 0.97897625
0.95771503 2.35022354 1.01330948
1.64088869 0.78869051 1.84870541
0.55274308 2.38653183 1.00505388
0.95362478 2.23108244 0.85687631
1.60581934 0.75882828 1.88670850
0.85962439 2.22368431 0.85334659
1.68152940 0.82647169 1.71258473
0.85746372 2.27234817 0.92361701
3.10767126 3.81753778 -0.12370048
3.01619029 3.85160542 -0.09494655
3.08253527 3.82615638 -0.17513189
2.94678092 3.88218665 -0.17823978
3.04095268 3.83118033 -0.25415558
2.94543409 0.61810249 0.96387070
1.56466389 0.80327266 1.76160657
1.49384606 0.77010304 1.83042359
2.98036718 0.66620493 0.74159986
3.00195384 3.82233787 -0.00210929
2.95086789 3.87035513 -0.06075063
1.74790847 0.77106315 1.90683794
2.94679761 3.80963993 0.02580850
1.70272648 0.73308438 1.93120623
2.93658710 3.84455228 0.00212156
0.89964998 2.33633184 0.98791981
2.91013694 0.70554549 0.68768674
2.94525766 0.68800527 0.87049896
1.56624651 0.82014662 1.65379131
2.84472442 3.81671715 0.05436368
0.45603770 2.42386389 1.01057351
2.83769917 3.88933992 0.02512111
2.89284110 0.73686171 0.89102423
1.40686476 0.68510461 1.90178716
1.59777677 0.66149896 1.95778728
0.81804913 2.41258025 1.07375765
1.39330411 0.71570992 1.87698114
0.47429311 2.49643207 1.09163582
2.86880827 0.74222994 0.81669074
1.49010587 0.62415475 1.94919240
0.88857698 2.40233707 1.06252933
0.77750033 2.36266017 1.01819384
0.75999784 2.31124949 0.97014058
2.80622935 0.69826317 0.45744696
0.35386059 2.48940635 1.02987182
1.32629132 0.64540654 1.91487515
1.41173768 0.57658935 1.95042884
0.57933879 2.54582953 1.16097784
1.31853569 0.59992671 1.93160355
2.84854293 3.92347813 -0.09523086
2.85454321 3.89750004 -0.00407300
0.49150252 2.58084941 1.15989935
0.55751276 2.63408589 1.21098113
1.32689726 0.72975838 1.84271586
1.34703803 0.74819851 1.80126679
1.46534777 0.79138017 1.71531236
2.79511929 0.71329683 0.56188184
2.75980330 3.96562982 -0.03999910
2.83470178 0.70967680 0.61424887
2.78613806 3.86144161 0.06586809
2.74580503 0.71137667 0.43239099
2.74509954 3.95654249 0.03760255
2.71489286 3.95565820 0.08567075
3.06913757 3.41857743 -0.00440382
1.25091183 0.73360896 1.78956330
1.31425774 0.76301616 1.66495836
2.88410640 3.41476965 0.02336453
2.94362450 3.32452250 -0.01087394
2.68991923 0.73765242 0.46254879
1.20148563 0.68381655 1.85786700
2.82579374 3.48676991 0.05424270
2.83761835 3.33163810 0.02008922
1.23745024 0.75382918 1.65679181
2.87257051 3.57460833 0.04533977
1.19870234 0.50198442 1.90598309
1.11832261 0.49888080 1.89082968
1.13104641 0.47368374 1.88920808
0.38259739 2.40050006 0.95344448
2.76628542 3.49179053 0.08527643
2.78196263 3.40442610 0.06698731
1.24347496 0.59838104 1.91438901
1.18738127 0.64878148 1.87881708
1.31853569 0.59992671 1.93160355
1.24347496 0.59838104 1.91438901
2.75125694 0.74462730 0.63827634
1.10787034 0.54667556 1.88636708
2.44448471 3.26371551 0.41743809
2.43615484 3.19107628 0.40653124
2.38329196 3.26480722 0.55427152
2.79477310 3.76073265 0.07389397
2.80971217 3.58820295 0.05591840
1.18856549 0.70309550 1.82988751
2.35642695 3.10967469 0.53095436
2.81535506 0.74760759 0.74908012
2.35025597 3.20459652 0.58950537
2.76745272 3.58144927 0.07972229
2.74403214 3.56155038 0.11546761
2.82957578 0.75627565 0.84904379
2.73585248 0.76486063 0.82819408
2.76565814 3.68900108 0.08305851
1.06538737 0.64917356 1.81033742
2.73983049 3.63552141 0.11107459
2.73816013 0.76101065 0.75751942
1.10787034 0.54667556 1.88636708
1.06988513 0.57605982 1.86492145
1.03073239 0.52741385 1.86206186
2.77360368 3.27245235 0.05855400
1.03269529 0.60605919 1.83118677
2.61671567 3.26886296 -0.08068129
2.60603738 3.15963316 -0.07236876
2.57950759 3.18789935 0.03545760
2.60225534 3.29622626 -0.00815940
1.01735032 0.45298195 1.85413539
1.00680530 0.42569873 1.84249759
1.07266808 0.44244012 1.86164248
2.57051659 3.27541685 0.10615549
0.93075800 0.40543771 1.81983674
1.03073239 0.52741385 1.86206186
2.75538683 3.42040277 0.10217334
2.75876379 3.30583429 0.09486670
0.93335378 0.45334792 1.83528256
0.92707735 0.49766049 1.82907426
0.87218088 0.54006183 1.78440177
2.31644702 3.02534175 0.53972697
2.27673626 2.94874001 0.55452096
2.25422478 3.02806211 0.65187889
2.27575159 3.12107921 0.65959340
2.20429397 2.91990066 0.63105565
0.85527080 0.39363435 1.78652382
0.92707735 0.49766049 1.82907426
0.84386694 0.47204435 1.79150498
2.54628539 3.38024282 0.20559104
2.37489247 3.10316849 0.48592916
2.34187794 3.01510668 0.48424029
2.30888700 3.11420584 0.60021549
1.16652012 0.72604215 1.71578944
2.62229872 3.39838791 -0.06738486
1.07321930 0.67454183 1.77284610
2.59011292 3.42162824 0.05256441
2.94191980 0.66033983 0.93851507
2.58355522 3.50886941 0.03841370
0.89489901 0.57867575 1.77148652
2.88432288 0.64211464 1.09666097
2.29052877 3.20593572 0.69033206
1.01034808 0.68131632 1.66599214
2.55516887 3.51783705 0.15086673
0.51072788 2.71300578 1.24740648
0.42345995 2.60948873 1.14118111
0.88199842 0.59779245 1.73181415
0.37046993 2.61411572 1.12935388
0.33173952 2.57171082 1.07417512
2.90567517 0.71467161 0.95031697
0.43093088 2.69312239 1.20197868
2.84104896 0.73812264 1.01923823
0.26636606 2.65877700 1.09296739
0.30720878 2.73573399 1.17079020
0.84386694 0.47204435 1.79150498
2.83075762 0.74837279 0.95860153
0.79705811 0.55807555 1.72986209
2.82379794 0.72130531 1.11625969
2.82379746 0.68417257 1.18256044
0.71537638 0.47103053 1.73223293
0.32310176 2.52586365 1.04105890
2.77459955 0.75998014 1.09061563
2.74413013 0.77036834 1.03874123
0.73021162 0.52857512 1.70244431
0.27512527 2.54756856 1.01231921
0.28799167 2.43173170 0.92141348
0.21067058 2.45790029 0.90312779
2.80305672 0.65153676 1.24314713
3.66494203 3.10801244 -0.25147891
3.66484737 3.00758624 -0.31185132
2.76246810 0.74823320 1.18042064
3.60206318 3.00256753 -0.29107466
2.72308230 0.75503719 1.28025174
2.68564105 0.78013062 1.25267065
3.49267673 2.91701531 -0.34220305
3.44565082 2.94570088 -0.27803177
3.54477453 3.02215171 -0.25772151
2.54274106 3.48320365 0.21122625
2.72956395 0.72780997 1.31167746
2.71971893 0.68879807 1.35471785
2.52415609 3.57002449 0.23911811
0.21970092 2.57000375 1.00737321
2.64860487 0.74541706 1.42551136
2.62559199 0.78738141 1.37229860
0.20466237 2.67908692 1.07115674
0.19598997 2.58529282 1.00204515
0.12551658 2.61706829 0.95292348
0.08337561 2.56159449 0.88695914
2.59446239 0.80414784 1.31371558
2.47007465 3.47041202 0.39434481
2.48109078 3.52899671 0.37378386
2.62179995 0.79055649 0.98461640
2.63045645 3.51946902 -0.13754936
2.64967394 3.41103530 -0.19736731
2.61017728 3.58521986 -0.05132928
2.64180899 3.62748313 -0.30702600
2.61616111 3.61236453 -0.11761210
2.64069152 0.79513264 1.17090440
2.57455111 3.60478592 0.06374682
2.59052753 3.66747999 -0.03814936
0.36378944 2.75882983 1.20780492
2.61538839 3.68877339 -0.23201159
2.59589887 3.71655297 -0.15465364
2.58001709 3.75847340 -0.08306351
2.55900884 3.71488786 0.07255908
2.53667212 3.78364825 0.07946114
0.50537068 2.86878324 1.33344579
2.74292994 3.76440167 0.10339328
2.52893186 0.81491762 1.09550989
2.51750302 0.81635433 1.25677752
0.36560130 2.81267428 1.24441087
0.29575723 2.85391116 1.23772478
2.72659516 3.88744879 0.10474250
0.41906926 2.90428090 1.31621587
0.33858812 2.94941092 1.30543542
2.14793134 2.69579983 0.56144685
2.06307173 2.62489796 0.60188067
2.01827884 2.53816390 0.58885801
2.53090525 3.70754838 0.18980789
2.51261854 3.65458179 0.24400075
2.37597632 0.84392327 1.30905557
2.42051315 0.83644527 1.22835100
2.24760509 0.85103756 1.20995045
2.44275308 3.58310199 0.45949045
2.48262286 3.73093367 0.30987433
2.49325037 3.76637459 0.26449567
2.50937963 3.82854247 0.16396479
2.46596646 3.82648540 0.27576435
2.95465779 2.70423651 -0.31173599
2.92273712 2.74035001 -0.26786777
2.82921576 2.68665266 -0.27864444
2.75588560 2.56841421 -0.31574655
2.75449657 2.62170267 -0.26790607
2.79571033 2.72215986 -0.20355254
2.82306099 2.75169396 -0.19534519
2.80114079 2.81245732 -0.13828579
2.23228598 2.83797288 0.53629637
2.21197581 2.76070428 0.53515935
2.77345610 2.83249664 -0.09184651
2.87073088 2.86154413 -0.13483441
2.79233098 2.95097852 -0.05500041
2.51325727 2.73674512 -0.08578622
2.50078225 2.70774317 -0.10194101
2.48724508 2.70089912 -0.06340254
2.48983693 2.73251390 -0.02192652
2.42469478 2.66536474 0.01131085
2.43125367 2.68360615 0.04557867
2.42625904 2.71704149 0.08449034
2.40216422 2.66696715 0.12044158
2.39271116 2.63851047 0.09484840
2.62538886 2.77655673 -0.41641632
2.58732557 2.72945023 -0.39718252
2.62174582 2.80361462 -0.37914085
2.59207487 2.73964977 -0.33977234
2.59169221 2.80660367 -0.33356726
2.61220932 2.85937476 -0.31788594
2.56196475 2.74501753 -0.26661634
2.58088493 2.80166793 -0.28929043
2.54751301 2.76756525 -0.20409648
2.59628320 2.85829425 -0.22650999
2.64936256 2.93649554 -0.38240832
2.67061329 3.04436255 -0.38164204
2.63212037 2.98297453 -0.24737237
2.60856581 2.91921258 -0.25630143
2.64713669 3.04252720 -0.25092533
2.57803726 2.89510036 -0.16960682
2.57265472 2.71585274 -0.33646858
2.54966164 2.71038747 -0.35911730
2.54634261 2.72361517 -0.27919856
2.51524425 2.73199797 -0.16620570
2.54800010 2.82819462 -0.16240996
2.53946257 2.84336138 -0.09894885
2.76949692 2.92573476 -0.03604837
2.57296085 2.95539069 -0.07242402
2.52769828 2.92259026 0.01043772
2.50926304 2.83530617 0.00154665
2.59395146 2.95146346 -0.15510230
2.59651303 3.03826141 -0.10805203
2.62855554 3.08687568 -0.17530067
3.69795346 3.22563720 -0.20091692
3.58460617 3.12215400 -0.21275954
2.56392169 3.03575158 -0.02216546
2.59221697 3.11358762 -0.04171832
3.61475372 3.30875468 -0.14129686
2.53311062 3.00155640 0.04590858
3.36449194 2.89499784 -0.29097018
2.52127075 2.79263043 -0.13893731
3.47751832 3.06952071 -0.21272825
3.34312987 3.00626802 -0.20962064
2.48590183 2.80013061 0.03275169
3.47268152 3.22002172 -0.13622952
3.29110169 2.91086459 -0.24027491
3.39108539 3.07838273 -0.18041882
3.22381616 3.02771974 -0.15446252
3.52694345 3.29171658 -0.12331682
3.53534603 3.37693977 -0.09328476
3.38297606 3.24649096 -0.10771112
3.41886330 3.34444833 -0.07419686
3.28562021 3.21916461 -0.09962009
3.21812201 3.13359547 -0.11595826
3.36710906 3.34107733 -0.06454056
3.39593768 3.52162170 -0.03412446
2.36045551 2.65650606 0.17824101
2.37649083 2.76788211 0.22769354
2.40137625 2.76055050 0.14113739
2.38215470 2.71501875 0.19287504
2.40088701 2.79520798 0.16945581
2.32854629 2.69882703 0.26819599
3.25525951 3.30733609 -0.05778720
2.32053351 2.78457546 0.35796094
3.22515869 3.41520047 -0.02569018
3.17211390 3.28227162 -0.05475793
3.04116654 3.34089971 -0.02415349
3.21310115 2.84992456 -0.26970077
3.04104829 2.76787639 -0.29292786
3.13798833 2.84541678 -0.24413297
3.22374105 2.95558524 -0.20202009
3.13197422 2.95695186 -0.17380102
3.01417994 2.94896245 -0.14083791
3.01193810 2.86347699 -0.19215162
2.49741530 2.89634681 0.08401977
2.90648770 2.83145905 -0.16605155
2.54451203 3.11549330 0.10255910
3.16414213 3.06529069 -0.12364696
3.12617493 3.16257882 -0.08254983
2.48978853 2.98159266 0.14112851
2.98787665 3.07376099 -0.08337438
2.52770233 3.11211300 0.15704092
2.46998978 3.04070759 0.23992518
2.45342445 2.94078207 0.19066089
0.49253476 2.92985535 1.36255574
2.49200392 3.11899710 0.23148461
2.44246054 2.85313582 0.14287812
2.94330049 2.96544456 -0.11582684
2.41605091 2.79017544 0.12604190
2.40493798 2.82386088 0.21012540
2.81067181 2.95424867 -0.06527667
2.40204787 2.89550614 0.28475156
2.39353132 2.84707355 0.27563274
3.04011464 3.21681619 -0.04979230
2.93739700 3.22174311 -0.02798016
2.64114428 0.70732355 1.46411443
2.85805154 3.12964821 -0.02678279
2.56168056 0.74388379 1.53565800
2.56259274 0.79162771 1.46342123
2.43120837 3.36153436 0.47864249
2.45758319 3.39606595 0.42345363
2.40752625 3.40917015 0.52386338
2.39932609 3.32031584 0.52213407
2.33360863 3.41479826 0.67093456
2.51821518 0.78965539 1.53774416
2.38868642 3.45040512 0.57657737
2.46737480 0.74599832 1.63279080
2.28860283 3.29596424 0.71431112
2.43237138 0.80746627 1.59517646
2.49059606 3.26056647 0.31428927
2.81791902 3.04706717 -0.03846299
2.79594803 3.14544654 0.01443175
2.42627835 3.09130573 0.35092798
2.53416348 0.80915809 1.42188847
2.78494930 3.02950716 -0.00875488
2.43706703 0.83446431 1.38835323
0.31652844 2.13409901 0.48159444
0.28092095 2.13273787 0.44502494
0.25499028 2.16252804 0.50043023
2.41621447 3.56358004 0.53929085
2.87546897 3.24279523 -0.00924417
2.38711262 3.09222627 0.42252713
2.36972666 3.52134609 0.62009525
2.47722578 0.82089901 1.49554229
3.40979838 3.65700293 -0.01793051
2.34154344 0.84739971 1.46409142
2.31797695 2.93596315 0.47876051
2.36187863 3.63796806 0.63659352
2.40369296 2.99254203 0.33439896
2.32923198 3.59788632 0.71033436
2.35641098 2.99634886 0.42594478
2.32024145 0.83460814 1.63812017
2.27386069 3.33812451 0.76065022
2.27210665 2.80485201 0.45771083
2.29238701 3.44310045 0.75124973
2.25188756 3.39853621 0.78840852
2.30570388 0.79404128 1.73614025
2.39671469 0.73687547 1.70179379
2.33482289 0.72096533 1.75060284
2.24325013 0.78033501 1.78651237
2.24325013 0.78033501 1.78651237
2.20655394 0.73880023 1.82650185
2.33482289 0.72096533 1.75060284
2.25304985 0.66938233 1.81053877
2.31645012 2.59312081 0.12995313
2.31207848 2.63721013 0.22825325
2.16621113 0.67804331 1.85997283
2.27515101 2.65456772 0.28470665
2.29573131 3.55297852 0.76041996
2.27110672 0.84939176 1.60502446
2.77390051 3.13699222 0.04389733
2.24863744 0.85303003 1.32064927
2.23790860 0.84966707 1.42234659
2.25603938 3.50744820 0.82563758
2.26413369 2.69316196 0.36254135
2.23834538 2.60242701 0.24972561
2.20641899 2.61107421 0.35393727
2.23888540 3.66051984 0.86216545
2.15140128 0.85863203 1.34148669
2.25630212 3.57390380 0.84771937
2.19371367 0.85709947 1.56433058
2.23971868 2.73675323 0.46887469
0.85399830 2.21062088 0.81527764
0.79239118 2.19260240 0.81276810
2.22461867 2.67949224 0.42405447
0.75263584 2.19498444 0.80380338
0.75859857 2.24507356 0.88446373
2.19781876 2.69721198 0.47340766
2.75713968 3.22340322 0.09187550
2.14627266 2.59444642 0.42964220
2.15192246 2.65338039 0.50143939
0.68935484 2.21077347 0.75981241
0.72692645 2.28571343 0.93542892
2.05420351 0.85755330 1.45241928
0.05336003 2.13660550 0.16803166
-0.00031577 2.15163660 0.15655929
0.05920593 2.15732908 0.24474242
2.05420351 0.85755330 1.45241928
2.05311728 0.86575669 1.60148418
2.19371367 0.85709947 1.56433058
0.63784319 2.30933428 0.93632412
0.64295977 2.28144336 0.89950579
2.31845951 0.81956351 1.68268311
0.67951196 2.33822870 0.96754575
2.07806182 2.59047389 0.50888586
2.24917150 0.81889409 1.75074637
2.23256731 0.84189147 1.72010386
2.33396506 3.71236992 0.66121072
2.05665183 2.57947803 0.54105753
2.16063786 0.81644136 1.79785454
1.94739127 2.52919078 0.64967573
1.96040189 2.50134254 0.59454823
2.08697605 0.76355207 1.85730231
2.26637149 3.73583341 0.79704112
2.16063786 0.81644136 1.79785454
2.12530446 0.84438097 1.76501179
2.30037642 3.80237627 0.70158648
2.66451883 3.11218262 -0.32660484
2.64366174 3.18725920 -0.21038708
2.63312340 3.21200228 -0.14642398
2.18469119 0.85648376 1.67201519
0.21291652 2.14501882 0.35299978
0.12678939 2.14470768 0.31240484
0.13987778 2.16657972 0.35384017
0.20379758 2.16889930 0.44657305
0.26796734 2.13613582 0.35653952
2.18469119 0.85648376 1.67201519
0.13025559 2.19645882 0.41569915
0.15148292 2.20893312 0.48407516
2.08095241 0.85810387 1.69047844
2.12530446 0.84438097 1.76501179
2.52402663 3.27680111 0.23164587
0.10324282 2.14110851 0.24703132
0.17823079 2.13515544 0.27405381
0.12621571 2.13458562 0.18445206
0.08952484 2.15780854 0.32507885
2.02317142 0.84685671 1.78043282
1.98115468 0.85188174 1.68908465
0.00969665 2.20133758 0.28570548
0.04196985 2.20488811 0.34907851
1.95319557 0.85064191 1.74468315
2.49177599 3.33819818 0.34595585
0.05657988 2.23352623 0.43512079
-0.02689524 2.25650239 0.34608090
0.00717360 2.24434948 0.39977446
2.06839681 0.72752327 1.87773502
1.95314503 0.78862983 1.87817776
1.94494331 0.73533362 1.90874267
0.55808401 2.25289488 0.73604059
0.53274018 2.26895881 0.75187325
0.57292604 2.27970505 0.81327498
2.01955700 0.83216441 1.81594193
0.30892736 2.19754314 0.59212303
0.42555800 2.21472669 0.68120426
0.47690839 2.24571681 0.73350632
0.45556229 2.20004964 0.65206307
1.89005029 0.78959894 1.88283038
0.38375187 2.17503810 0.56920624
0.47074288 2.27897835 0.77989429
0.32909179 2.30620337 0.80275029
0.36338130 2.25412464 0.72063756
0.37063092 2.20953584 0.66798794
1.83408606 0.73169506 1.92526460
0.26932099 2.24145079 0.67093498
0.62463981 2.21138310 0.74323928
0.59320486 2.33149076 0.95002431
2.10372877 0.85627812 1.27086484
0.54333597 2.30977225 0.85585195
0.52882916 2.34355617 0.92865640
0.62973934 2.36651349 0.99704772
0.48325092 2.30425310 0.82896692
1.98803723 0.85264909 1.43224287
1.97093761 0.85735410 1.28118289
0.43865249 2.38986111 0.96191525
1.98803723 0.85264909 1.43224287
1.88956618 0.85749900 1.38408720
1.88501048 0.84985054 1.50958002
2.42286253 3.63696551 0.49016061
1.97093761 0.85735410 1.28118289
0.39348719 2.33639693 0.86473280
0.33064899 2.35053301 0.86326897
1.95866835 0.85533756 1.57614183
2.91371560 3.88433695 -0.28000900
2.69573212 3.14039016 -0.47434908
1.86265492 0.83964556 1.69025683
2.69425893 3.20594358 -0.41631553
2.67412066 3.19429636 -0.33821544
0.20614068 2.21649003 0.55973440
0.23640768 2.21896005 0.60089988
0.19310834 2.27901387 0.68896186
0.17479780 2.31122494 0.72990960
0.24081109 2.33762145 0.79717410
0.26599491 2.36589074 0.85678190
0.21160284 2.38063312 0.82160997
2.69156885 3.33529711 -0.43867481
0.16016260 2.34724498 0.75617653
2.64727664 3.33178926 -0.17397785
2.66770411 3.31248307 -0.30092603
2.42184067 3.70511317 0.46349734
0.14004306 2.42087007 0.79773593
0.09947472 2.47672296 0.82794613
2.66831017 3.41612673 -0.30716094
1.73300064 0.68293953 1.95247221
2.40199566 3.76858902 0.49857530
2.43305588 3.84705186 0.37051335
2.39402294 3.85328341 0.47024593
2.39912701 3.92753720 0.41703793
2.34066248 3.89854765 0.57350135
2.66266727 3.60014915 -0.49149662
2.67058778 3.60064244 -0.54870498
2.67932916 3.56617808 -0.61598480
2.70265055 3.36424327 -0.54203427
2.68993568 3.44055057 -0.49979612
2.68351388 3.38714480 -0.43805212
2.67195535 3.45297360 -0.35148561
2.64716363 3.60648298 -0.40567547
2.65474272 3.56098318 -0.35482261
2.62770653 3.71000338 -0.36858159
1.67845178 0.83573848 1.60735178
1.60398650 0.82983196 1.57062423
2.65102315 3.48820519 -0.19926006
0.07219845 2.28380775 0.54122877
1.51169121 0.81526536 1.58190608
0.16408923 2.27252793 0.61657858
0.11752670 2.27444220 0.58659995
0.50671506 3.00605845 1.40188932
0.41113323 3.05044317 1.38880527
1.37276149 0.77819264 1.59957635
0.12817377 2.32901382 0.69619042
3.37861228 3.73822570 -0.03450970
3.32439590 3.71389985 -0.01491409
3.38188720 3.77199745 -0.10933350
3.29007053 3.77705383 -0.11823540
0.02076561 2.27563000 0.48291045
-0.02356577 2.36526346 0.57721305
0.05985836 2.35628819 0.64881951
0.01878355 2.38205671 0.62863660
0.01939394 2.43577600 0.68637484
0.07300643 2.39785123 0.72823632
0.01365000 2.49075389 0.76609349
1.23674607 0.75178188 1.49356878
1.38010323 0.78541487 1.50610113
1.30614650 0.77357095 1.42677891
1.24957144 0.75790793 1.59161246
1.15291297 0.73287129 1.47144842
1.20618296 0.75653857 1.34601843
1.08743274 0.72132367 1.32045245
1.13138998 0.73134327 1.54952896
1.12720561 0.73115247 1.60239327
2.19524169 2.57304502 0.22424661
2.29026413 2.57854652 0.10721292
2.14289665 2.56104827 0.15500392
0.45040974 2.16455173 0.43734488
0.42555761 2.15848422 0.33521834
0.35244870 2.12718225 0.44211379
0.31120431 2.13929629 0.32700628
2.07230258 2.55514288 0.27720356
0.31719369 2.12369895 0.44655341
0.35095015 2.13565111 0.48510569
0.44531986 2.17637253 0.54367840
2.16251230 2.58229232 0.35534713
0.39451337 2.16022158 0.20274138
0.57618368 2.22653842 0.67208529
0.65908504 2.21242833 0.60474318
0.58478940 2.20338440 0.54976678
0.53380573 2.21102715 0.63547724
0.67743284 2.20432091 0.71240538
2.10306191 2.57331300 0.43735296
0.59749115 2.22418761 0.74056208
2.02374458 2.51113963 0.53124619
1.99404967 2.49312782 0.54051906
2.05521464 2.55253649 0.45458284
2.02837396 2.54441619 0.35889223
1.99820328 2.52302599 0.44569626
0.46073911 2.19033861 0.62064111
1.89492965 2.48824215 0.52921695
0.23155269 2.14716959 0.11107069
0.13086483 2.14169598 -0.10975423
0.04712090 2.13148832 0.05333873
0.01455360 2.13927341 0.08916252
1.73494422 2.44105148 0.64080000
1.74673617 2.42722201 0.73709029
1.80543733 2.47027278 0.66962665
1.64728796 2.40775466 0.75051922
1.56197405 2.38156414 0.68038356
1.45784652 2.31202960 0.80012429
1.40423059 2.29772615 0.79512751
1.39226329 2.29224086 0.83211654
1.29235792 2.29548144 0.76434129
1.22641277 2.29068470 0.86496609
1.83779800 2.47958207 0.58328348
1.85302091 2.49268794 0.63940644
1.12632108 2.28719044 0.87839663
1.09190667 2.27229261 0.82127303
0.94556266 2.22691774 0.81503075
1.02964675 2.25624514 0.68347359
1.87315106 2.51676250 0.67442465
0.86301088 2.20842600 0.77467453
2.42488766 2.66548514 -0.04388824
2.35981011 2.60856700 0.05395065
2.46404028 2.69466639 -0.36895663
2.47604036 2.69657731 -0.31993943
2.49116325 2.71299410 -0.20725340
2.45889854 2.70367885 -0.17672995
2.41946387 2.68006825 -0.23659992
2.42591858 2.68612814 -0.15050504
2.35728216 2.63999629 -0.10805663
2.30820632 2.61197329 -0.03449978
2.31761432 2.59192348 0.04220846
2.22114420 2.58299446 -0.00300838
0.79406482 2.18490005 0.77599865
0.75541097 2.18265986 0.76813251
0.73642904 2.20473623 0.67243856
2.33163261 2.63480687 -0.38247323
2.37978172 2.65447497 -0.28603426
0.44747156 2.14447880 -0.16264912
0.35822687 2.12359762 -0.28132096
0.10032694 2.12571955 -0.26037577
0.33580431 2.15119743 -0.03324973
2.22311354 2.58696032 -0.29252502
2.29374719 2.61334515 -0.10967110
2.21241379 2.58760715 -0.11203539
2.17633390 2.56638718 -0.36963674
2.08727193 2.55531883 0.01703825
2.04697514 2.53797412 -0.13639769
0.73013866 2.21707773 0.42907712
0.75833994 2.21799421 0.54324663
0.86654681 2.23007202 0.56808609
0.51463759 2.17861295 0.27427962
0.54072744 2.18703747 0.44073310
2.08727193 2.55531883 0.01703825
2.04697514 2.53797412 -0.13639769
1.92453039 2.51460791 0.18733343
0.41934079 2.16251040 0.09136981
0.56166774 2.18131638 0.16380346
1.92423058 2.50227880 0.43692419
1.92423058 2.50227880 0.43692419
2.02837396 2.54441619 0.35889223
1.90396035 2.50657821 0.34973145
2.07230258 2.55514288 0.27720356
1.79429829 2.47476077 0.31996498
1.51055789 2.35141182 0.75592148
1.75272346 2.45546198 0.53284431
1.75272346 2.45546198 0.53284431
1.56197405 2.38156414 0.68038356
1.41180074 2.33474541 0.65176642
1.51055789 2.35141182 0.75592148
1.45753324 2.36283851 0.52854711
1.31291819 2.32043624 0.53516775
1.26830661 2.30205917 0.66463751
1.59597373 2.40992332 0.47076419
1.14984345 2.28007126 0.72581029
1.42650616 2.35822678 0.33510616
0.84832567 2.21691060 0.66287249
1.15060842 2.28732848 0.46753052
0.95935535 2.24901962 0.43718404
1.71242416 2.39037490 -0.32023954
1.95456588 2.48793721 -0.31757754
1.79895246 2.45283055 -0.13701007
1.65371740 2.38997269 -0.19267376
1.57837641 2.37570095 -0.10328732
1.60170054 2.37930465 -0.13100550
1.90154469 2.49640179 -0.06635689
1.76479530 2.46090007 0.07681504
1.51074672 2.37261057 0.06647142
1.51074672 2.37261057 0.06647142
1.57837641 2.37570095 -0.10328732
1.47434127 2.34493709 -0.06815960
1.36734760 2.32290077 0.01930316
1.33653522 2.31421757 0.02014221
1.43288505 2.33615685 -0.03726455
1.76479530 2.46090007 0.07681504
1.56997359 2.40179777 0.20466179
1.90154469 2.49640179 -0.06635689
1.34856558 2.33150864 0.19321242
1.22364998 2.29135799 0.10593141
1.22168374 2.30442214 0.32054445
0.95668513 2.24530172 0.30006745
0.68774492 2.14828324 -0.25899595
0.98153770 2.19608665 -0.22927123
0.87656635 2.15259361 -0.36800086
1.24149036 2.28013825 -0.04225286
1.21679175 2.27352166 -0.04356478
1.19209445 2.26614809 -0.05778023
1.07329702 2.25144196 0.04194497
1.11733198 2.24556184 -0.08780260
1.08390605 2.23654103 -0.09918529
1.06043744 2.22696710 -0.12503546
0.68491322 2.16775513 -0.12772648
0.79474032 2.20407152 0.06776447
1.08414948 2.26513052 0.17534693
0.91852373 2.23204041 0.16121601
0.68659794 2.20888305 0.27089092
0.63856238 2.17781544 -0.00338535
0.53047329 2.12466216 -0.31859806
0.05451673 0.06435318 0.24608624
0.33313051 0.20966855 1.33898818
0.35385227 0.18009794 1.34080398
0.41611263 0.21998478 1.43530560
0.70680237 0.55603576 0.48790237
0.69639426 0.55538929 0.35081694
0.55730140 0.43906459 0.45859465
0.58408660 0.48206067 0.36723486
0.37689936 0.31491065 1.42106926
0.41525614 0.25720662 1.46037281
0.16839287 0.17686698 0.27649847
0.10167941 0.13379192 0.31216073
0.20625952 0.23001231 0.39799070
0.12230153 0.18518852 0.45419770
0.36429799 0.37498960 0.67156154
0.50789261 0.45257750 0.67484140
0.36105829 0.36065841 0.50634474
0.49157241 0.39417633 0.27164397
0.49956980 0.42458305 0.40784419
0.21946388 0.25944558 0.50522429
0.62262207 0.34373331 1.66841424
0.59769654 0.29495633 1.62230790
0.61812645 0.30326548 1.64004242
0.68482101 0.34648800 1.70812678
0.49314827 0.43005300 0.47364941
0.74458528 0.36384937 1.74424386
0.69866240 0.38351345 1.73211670
0.08260941 0.13412978 0.39142752
0.64186710 0.42348492 1.69654012
0.25045675 0.31686935 0.78598088
0.26758465 0.29822639 0.56919861
0.06208407 0.10128903 0.43632340
0.18796182 0.26166213 0.67075223
0.30468962 0.32338896 0.49741676
0.58210707 0.35070962 1.64456093
0.09083138 0.16397989 0.49996474
0.06713068 0.13100697 0.49911544
0.61941588 0.50259143 0.50236505
0.44807917 0.43240219 0.76123202
0.62092596 0.53491145 1.49045658
0.40449882 0.41804671 0.85676485
0.16037251 0.22801928 0.56156230
0.67163420 0.51989514 1.67129767
0.66876405 0.53603405 1.63591373
0.49641022 0.44029108 0.58282143
0.61441642 0.47181138 1.65771317
0.62143952 0.51031309 1.61887908
0.55036950 0.46492684 1.58021522
0.14613158 0.23927192 0.72824693
0.05163328 0.03798065 0.48363757
0.06602614 0.09759588 0.57463634
0.27332780 0.34539941 0.91598570
0.09069516 0.16117644 0.60228795
0.70242804 0.55054235 0.26725340
0.08043443 0.14627574 0.66724342
0.53412449 0.50600779 1.30562532
0.44121045 0.46670216 1.37681377
0.62916744 0.54465854 1.38826001
0.58735013 0.46662328 0.27140763
0.50793320 0.49289438 1.20843315
0.56016672 0.41727123 1.62464643
0.51423645 0.38638121 1.58159208
0.64186710 0.42348492 1.69654012
0.56016672 0.41727123 1.62464643
0.11174826 0.20119061 0.66944981
0.38431597 0.36589900 0.42942524
0.12351882 -0.00096098 0.75211561
0.13387658 -0.02284724 0.73075885
0.14912879 0.00315726 0.81895435
0.15166794 0.02503236 0.86968678
0.12775305 0.03851655 0.82626861
0.49572626 0.48237315 1.45167220
0.13645607 0.08274888 0.91133809
0.05429281 -0.06020095 0.44640252
0.05163328 0.03798065 0.48363757
0.04586107 -0.03938043 0.38961002
0.17248154 0.09489190 1.02193463
0.30978748 0.27059525 0.25882724
0.32544383 0.32955605 0.44482768
0.03800001 -0.02306013 0.34393525
0.04586107 -0.03938043 0.38961002
0.51753062 0.46761703 1.53096688
0.08187655 -0.01990946 0.62990415
0.10853295 0.10565683 0.80863911
0.05558988 0.02839381 0.52415395
0.08191223 0.10676918 0.70649278
0.53758246 0.30367962 1.58766198
0.58572149 0.28992590 1.61130714
0.06602614 0.09759588 0.57463634
0.12576216 0.13179016 0.90496188
0.37764105 0.42257997 1.30770242
0.37689936 0.31491065 1.42106926
0.45008588 0.32377300 1.51510918
0.42624676 0.37832859 1.48379445
0.39054522 0.43236625 1.37334001
0.43153909 0.45159191 1.42052662
0.41290057 0.42716837 1.42934191
0.35761014 0.38775080 1.36670792
0.10555830 0.17806667 0.78861946
0.08191223 0.10676918 0.70649278
0.10853295 0.10565683 0.80863911
0.29281023 0.35046262 1.23916006
0.12576216 0.13179016 0.90496188
0.51423645 0.38638121 1.58159208
0.13757826 0.21927796 0.90709764
0.29719701 0.26757145 1.30197275
0.50145894 0.26165271 1.53351450
0.42806146 0.21666946 1.43987715
0.50477070 0.25308239 1.52620351
0.34477353 0.33898076 1.37008536
0.29719701 0.26757145 1.30197275
0.09558532 -0.04295254 0.63265383
0.11596783 -0.04322910 0.66562933
0.45008588 0.32377300 1.51510918
0.40345848 0.34876847 0.29526451
0.36289299 0.31940794 0.27971381
0.27411437 0.30968910 1.24329770
0.53710514 0.49901533 0.86612087
0.47474074 0.47153413 0.97313172
0.15915950 0.01749198 0.86648130
0.19806997 0.06661970 1.02632093
0.19360703 0.07934655 1.02863050
0.21772404 0.10883596 1.11003482
0.17259324 0.15397775 1.03814149
0.04134233 -0.07618377 0.33530292
0.05750617 -0.10511229 0.37427729
0.23584569 0.09673576 1.11495543
0.27179605 0.12425558 1.19498777
0.23684385 0.22531714 1.18951857
0.37977865 0.42329234 1.20633817
0.45785955 0.46540815 1.07811940
0.36884800 0.41550884 1.10878718
0.07442935 -0.13463245 0.34752399
0.08290832 -0.10253663 0.46332601
0.29507911 0.13967542 1.23772335
0.33208460 0.16292711 1.30089045
0.08785595 -0.06663118 0.53702158
0.73930162 0.39163193 1.75287437
0.22711763 0.32657179 1.00285733
0.26539916 0.34874845 1.10360050
0.16894463 0.25324637 0.98598164
0.16530807 0.26744080 0.90526098
0.21256572 0.31174991 1.02813172
0.28071895 0.35308412 1.18384552
0.18951979 0.24194524 1.06487429
0.72247571 0.43577865 1.74744976
0.72247571 0.43577865 1.74744976
0.17259324 0.15397775 1.03814149
0.14936686 0.14717692 0.18938211
0.35124815 0.27403525 0.14679222
0.29854664 0.36838531 1.02910423
0.65067035 0.47732076 0.14276706
0.21382762 0.29754001 1.08683479
0.09581767 0.10071395 0.18189138
0.57982057 0.43591219 0.19558588
0.48241571 0.37168798 0.17155232
0.67391902 0.54398727 0.65164477
0.12162744 0.21929944 0.79171097
0.58928061 0.50583452 0.74247271
0.29507911 0.13967542 1.23772335
0.03800001 -0.02306013 0.34393525
0.23684385 0.22531714 1.18951857
0.73082668 0.34444124 1.72022927
0.76637387 0.35702312 1.74398613
0.35889423 0.17896472 1.34359634
0.41304886 0.20887966 1.42047083
0.10024106 -0.07784653 0.52350605
0.10526977 -0.06189494 0.60215539
0.10817048 -0.05371013 0.63119024
0.55672413 0.27714995 1.58241701
0.85290909 0.38275358 1.78327656
7.33532381 6.77153635 -1.16993451
7.36906290 6.79113436 -1.13971794
7.38089228 6.73293257 -1.30228555
7.44240665 6.77077246 -1.27718616
7.17037201 6.38691902 -1.91945696
7.10994005 6.38975906 -1.86355722
7.22191763 6.40078306 -1.95122063
7.56764507 6.34668303 -2.35920525
7.60708904 6.35847521 -2.37285638
7.59578753 6.35095119 -2.40718746
7.16893530 6.44648886 -1.78878379
8.11360073 6.93934774 -1.51397538
8.02860260 6.85477924 -1.64242995
7.99506712 6.91674709 -1.48607576
7.76273680 6.51793861 -2.18329835
7.70874071 6.60350370 -1.94872355
7.78392649 6.58515882 -2.05643177
7.57591248 6.34468126 -2.42512441
8.41555691 6.75781345 -2.23178411
8.42304325 6.72792768 -2.32931948
8.30270672 6.69579983 -2.27642798
7.71528625 6.50789595 -2.17058969
7.13015652 6.29323864 -2.10490108
7.24526501 6.31603289 -2.17349076
7.13515711 6.27560186 -2.16506338
7.96287632 6.86003828 -1.57356679
7.74059248 6.64386272 -1.87601507
7.81702089 6.62085915 -2.00049329
7.41587687 6.81943417 -1.13249171
7.36815357 6.82976055 -1.03734541
7.48362970 6.31996155 -2.36203265
7.09169340 6.25679541 -2.17273855
8.11261368 6.96561575 -1.45901239
7.28130913 6.75652504 -1.12896240
7.29395056 6.71928501 -1.24453938
7.57591248 6.34468126 -2.42512441
7.52199459 6.32421255 -2.43233228
7.48362970 6.31996155 -2.36203265
8.33422184 6.74147034 -2.18578482
7.35563374 6.55088282 -1.72874296
7.38643456 6.51686478 -1.85046828
7.29368973 6.47835493 -1.83336461
7.57450390 6.36183262 -2.33685899
7.53884077 6.34360933 -2.32395148
7.58925724 6.38225126 -2.32449961
7.63600159 6.38010263 -2.33837843
7.57450390 6.36183262 -2.33685899
7.33540916 6.66571665 -1.41208899
7.27819967 6.66076565 -1.37438595
7.28793621 6.51909876 -1.74352264
8.07294655 6.98504925 -1.39606106
7.66165352 6.57358885 -1.95990121
7.55877733 6.38456345 -2.28668785
7.53884077 6.34360933 -2.32395148
7.56764507 6.34668303 -2.35920525
7.47769308 6.31544495 -2.34084606
7.98686266 6.94951820 -1.41203630
7.57450390 6.36183262 -2.33685899
7.53884077 6.34360933 -2.32395148
7.52896690 6.35428572 -2.30919576
7.22091055 6.73617077 -1.12177086
7.48362970 6.31996155 -2.36203265
7.02860165 6.22362804 -2.18604922
7.02936029 6.26378632 -2.07173491
7.39840746 6.21116209 -2.54338932
7.59959650 6.29968834 -2.55213594
7.45105028 6.21334124 -2.54612589
7.97210121 6.97204494 -1.31508756
7.49561167 6.27335262 -2.52543426
7.59959650 6.29968834 -2.55213594
7.39840746 6.21116209 -2.54338932
7.78948116 6.70792103 -1.76692915
7.84653807 6.68338919 -1.89134502
8.17978954 6.70549440 -2.13511491
8.23648548 6.65806818 -2.31310511
8.18708515 6.63250160 -2.33160400
7.88242340 6.72416496 -1.81568956
7.89521408 6.67556953 -1.94341612
7.21720457 6.50042343 -1.72485328
7.86420536 6.81714439 -1.57926488
6.95050955 6.21936035 -2.10637069
7.03529167 6.16740036 -2.34330010
8.24845982 6.72472477 -2.14751577
7.25725365 6.60928679 -1.47814012
7.30187559 6.56920862 -1.61690283
7.06716442 6.33864880 -1.94315672
7.21637726 6.57323742 -1.52933562
7.41555500 6.16811895 -2.53550196
7.28319502 6.11758614 -2.52805877
8.41625023 6.80204391 -2.11822176
7.91802073 6.89820576 -1.47467160
8.62869072 6.71820784 -2.54427409
6.90529776 6.11909866 -2.32710695
6.86863232 6.14790678 -2.21067476
6.95259047 6.17381668 -2.23991680
7.64825916 6.64946032 -1.77100635
7.83036089 6.87375593 -1.43600011
8.36415577 6.82928371 -2.01013255
8.30090427 6.78910351 -2.04693270
7.04252958 6.51927471 -1.48811078
7.13426018 6.51865101 -1.57831609
7.09790897 6.49018764 -1.61783957
8.52240086 6.65130758 -2.58386564
7.64452791 6.61761856 -1.83379519
7.41862392 6.29692984 -2.36255479
8.52240086 6.65130758 -2.58386564
8.51166153 6.67180395 -2.54677725
8.12404537 6.85161543 -1.74322772
8.16120338 6.77747822 -1.95158768
8.08610725 6.74818563 -1.94608533
8.05869007 6.82375717 -1.74659264
7.88985634 6.95101881 -1.30453837
6.79901648 6.10026836 -2.25722241
6.80253887 6.07003307 -2.33751345
8.00466633 6.73966360 -1.89004815
7.98575497 6.79273844 -1.75639737
8.36781406 6.56954479 -2.60440898
8.24070072 6.78612709 -1.99665356
8.31698322 6.50416088 -2.59974670
8.35306263 6.54008627 -2.60802889
8.31698322 6.50416088 -2.59974670
7.73409462 6.48333216 -2.22889495
7.69862127 6.42186117 -2.31945300
7.64738417 6.46034908 -2.20617819
6.87492990 6.18601942 -2.11347818
7.16341686 6.56639719 -1.50244319
8.36781406 6.56954479 -2.60440898
8.38997555 6.59900999 -2.58479166
8.36897469 6.60934830 -2.55752444
7.79414654 6.88451195 -1.36546600
8.24953079 6.58409548 -2.50209475
8.19659328 6.54115772 -2.57001662
8.13611794 6.53590536 -2.50274897
7.58925724 6.38225126 -2.32449961
6.90680885 6.23957491 -2.02178121
8.18686676 6.58731031 -2.43942904
7.57309771 6.42831373 -2.21049500
7.19884062 6.67170238 -1.27173257
7.55877733 6.38456345 -2.28668785
8.08417988 6.49195576 -2.56510234
7.14035892 6.64688587 -1.28359544
7.14324427 6.35549831 -1.97535610
7.22231817 6.34909773 -2.06377506
6.81455755 6.17899370 -2.07455540
7.64471865 6.50832510 -2.09399962
7.09376907 6.62122965 -1.29016018
6.76924419 6.14351511 -2.12099004
7.06933355 6.56642485 -1.40051782
8.12347794 6.57668209 -2.40037823
7.80634260 6.76387548 -1.64917636
8.21309853 6.50277853 -2.60576272
8.20916176 6.46789646 -2.59585547
8.04134369 6.54593134 -2.38975859
7.72577000 6.74898434 -1.60040724
7.93733788 6.78212357 -1.72240162
7.94764996 6.70898485 -1.90443718
6.75514555 6.03378820 -2.37621570
6.71880817 6.06666422 -2.25138426
8.22767353 6.53578615 -2.59506631
7.49295378 6.42641973 -2.13729525
7.49902964 6.34788179 -2.29348397
7.44134092 6.35476971 -2.23600960
7.64602470 6.70663500 -1.62594843
7.67303371 6.78487873 -1.46550918
8.19659328 6.54115772 -2.57001662
6.73148251 6.11614561 -2.14079452
8.36897469 6.60934830 -2.55752444
6.98770857 6.28878784 -1.98583674
7.87998962 6.77902842 -1.68349957
7.71916914 6.83068895 -1.41595221
8.13164043 6.61640024 -2.30355501
7.63246775 6.80308056 -1.38986588
7.02748156 6.33277130 -1.91260958
8.14467812 6.43944931 -2.59124160
8.04760742 6.42748785 -2.59042239
8.22767353 6.53578615 -2.59506631
7.54309130 6.48126745 -2.06673789
7.57664633 6.52680540 -1.98998559
8.55165577 6.87375498 -2.07405543
6.91549397 6.28265142 -1.93867147
8.05412102 6.59647369 -2.27249694
8.52222443 6.90251350 -1.97400129
8.11560154 6.48707151 -2.58788681
8.11560154 6.48707151 -2.58788681
8.08417988 6.49195576 -2.56510234
7.10580921 6.67000437 -1.18373322
7.99767590 6.51165581 -2.41493940
7.99898386 6.45581722 -2.55441833
7.98185921 6.42176485 -2.58132529
8.41467285 6.87306404 -1.94881094
8.46628475 6.81800365 -2.13971162
8.04760456 6.39914274 -2.57491803
7.44817209 6.33093023 -2.28015995
7.16822243 6.70243502 -1.15771651
7.40993929 6.31150055 -2.28902125
8.48529816 6.93145466 -1.87879443
7.36684704 6.30125141 -2.28137565
7.38923073 6.35837317 -2.19677758
7.42786932 6.44409609 -2.03367257
7.98185921 6.42176485 -2.58132529
7.99898386 6.45581722 -2.55441833
7.56576300 6.73212814 -1.48299873
7.96446228 6.56905651 -2.25397921
7.92685223 6.51900434 -2.32776022
6.97479153 6.35191774 -1.82770991
7.02867413 6.42390060 -1.70935225
7.38577127 6.39979124 -2.10066414
7.72926140 6.70007420 -1.72976220
7.94443130 6.36295891 -2.57510376
7.91765547 6.42321873 -2.56314611
7.57416773 6.77878475 -1.37052631
7.86293125 6.33476496 -2.56660056
6.89644575 6.32811499 -1.80934632
8.01817417 7.01111221 -1.26146948
7.91765547 6.42321873 -2.56314611
7.89304876 6.45423841 -2.44189715
7.87921429 6.42247105 -2.53604007
7.89396238 6.39744186 -2.57667708
7.77969027 6.37334776 -2.55119395
6.82567167 6.24775648 -1.92538130
7.77969027 6.37334776 -2.55119395
7.03078938 6.67876387 -1.07739663
7.31503344 6.20256853 -2.53112006
7.46564054 6.28234863 -2.48282218
8.49211597 7.00131845 -1.72989321
7.89396238 6.39744186 -2.57667708
7.78604174 6.34559393 -2.56869793
7.02689838 6.47698021 -1.58753097
7.80169201 6.30926371 -2.56133962
7.92438221 7.01213694 -1.17928112
8.41273785 6.92327642 -1.83562005
7.71216679 6.30211353 -2.56678534
7.49561167 6.27335262 -2.52543426
7.39840746 6.21116209 -2.54338932
7.31503344 6.20256853 -2.53112006
7.77969027 6.37334776 -2.55119395
7.72609806 6.38696003 -2.47082686
7.71564960 6.36470795 -2.52899027
8.04104805 7.06268406 -1.15847957
6.76143122 6.20103407 -1.96862531
7.29049444 6.21434498 -2.49751663
7.92894220 7.05517817 -1.09060585
7.80055857 6.41687775 -2.42985129
7.23742104 6.14265299 -2.53033757
7.31503344 6.20256853 -2.53112006
7.16630745 6.14553261 -2.50779915
7.29049444 6.21434498 -2.49751663
7.31503344 6.20256853 -2.53112006
7.16630745 6.14553261 -2.50779915
7.35637808 6.25748205 -2.45300508
6.96346188 6.47111702 -1.53419948
7.72609806 6.38696003 -2.47082686
7.72011471 6.39054775 -2.39035082
7.74729204 6.39992189 -2.39960957
7.76484251 6.40586758 -2.39935517
7.80055857 6.41687775 -2.42985129
6.95796728 6.41949463 -1.65884840
6.86006260 6.28813887 -1.86140764
6.89951086 6.46037436 -1.49106824
7.79805613 6.94376278 -1.23857403
7.36430311 6.27712107 -2.38969016
8.29153919 6.85247469 -1.88700402
7.58962488 6.66259098 -1.67283750
8.58907223 6.74639368 -2.45281935
8.51166153 6.67180395 -2.54677725
7.85818815 7.02399063 -1.10758317
6.87277746 6.42623186 -1.56109047
7.41862392 6.29692984 -2.36255479
6.86060953 6.48882484 -1.39381206
7.31830931 6.25947332 -2.35702181
7.86362743 6.50554657 -2.30567241
8.47683334 7.08838272 -1.49872530
8.40889835 7.01343918 -1.61825514
7.21383953 6.21619272 -2.40861678
6.69224691 6.20635128 -1.88530624
6.67450905 6.15048409 -2.01170516
8.48215866 6.72947073 -2.39028430
7.25990868 6.26588869 -2.30866194
7.77422047 6.43628502 -2.35789061
6.99445057 6.58728409 -1.28074467
7.79892159 6.99047613 -1.13828707
8.41030407 7.08587980 -1.46617138
7.31830931 6.25947332 -2.35702181
7.31258106 6.28335810 -2.28547645
7.76484251 6.40586758 -2.39935517
7.25990868 6.26588869 -2.30866194
7.31830931 6.25947332 -2.35702181
7.35637808 6.25748205 -2.45300508
6.94713449 6.51388931 -1.40742266
7.74729204 6.39992189 -2.39960957
7.83350229 6.52070332 -2.23692226
8.58522797 6.81605053 -2.28169513
6.72218609 6.27100563 -1.77177918
7.73583317 6.91167927 -1.24121892
7.74257278 6.97523832 -1.10057306
8.35679913 7.06166458 -1.46622312
8.34482765 6.91341257 -1.79317462
8.33111000 6.98474932 -1.60431039
7.32058334 6.34753418 -2.16312885
7.07283306 6.41767311 -1.77384233
8.27611732 6.90285730 -1.74806726
8.20019245 6.84329224 -1.81720614
8.12041855 6.70263481 -2.08494806
8.42819214 7.11810923 -1.38825619
8.49181938 6.78162909 -2.26222324
6.91012001 6.54469061 -1.30719817
8.08627701 6.67242527 -2.13026237
7.22461891 6.26694155 -2.25855446
8.42290783 7.18317223 -1.21476460
6.76371670 6.38765383 -1.53684890
6.83517027 6.36980724 -1.65280032
6.79337645 6.35464525 -1.65284312
7.64412308 6.87522507 -1.24141681
6.90327835 6.38874245 -1.68068719
8.33285809 6.61996794 -2.49088192
7.57508755 6.82050228 -1.28462875
6.76926088 6.42795467 -1.44370008
7.34558821 6.42232180 -2.00758123
7.31168747 6.36959362 -2.09806752
7.63183784 6.91002321 -1.15675783
8.32409859 7.09537745 -1.33774066
8.28445911 7.04781818 -1.41523683
6.71258688 6.34149313 -1.59978747
8.37721634 7.12597752 -1.31464863
6.69137096 6.40308332 -1.43206382
8.02122974 6.67295837 -2.06652951
7.71532679 6.94704056 -1.15502989
8.46542549 7.01053381 -1.67516291
6.80321026 6.47888803 -1.37131536
8.23000526 6.94308376 -1.61387825
8.25847149 7.00623608 -1.50581360
7.64348078 6.93906307 -1.07310939
6.77099514 6.50110006 -1.29234886
8.20158386 6.98724031 -1.47791469
7.56620455 6.87756872 -1.14350212
7.15808249 6.06728268 -2.51178145
7.49820757 6.82131386 -1.21082854
8.13159275 6.90423393 -1.62451696
7.50573635 6.86150360 -1.12152243
7.95267963 6.60982370 -2.14523005
8.30705929 6.66625690 -2.35807705
7.54847145 6.90562868 -1.04490709
6.64341831 6.34146833 -1.52910352
7.88252068 6.60568380 -2.09256840
7.95636272 6.67073631 -2.01128030
7.14048004 6.16663456 -2.46430016
7.14048004 6.16663456 -2.46430016
6.64261198 6.41000223 -1.35625100
6.79163933 6.29791164 -1.77515614
6.58508730 6.35360289 -1.43749905
7.61861944 6.56166077 -1.95400822
7.01168346 6.03713560 -2.50175905
8.22174454 7.09681654 -1.24317837
7.52953959 6.54982519 -1.89459717
6.58652496 6.40702200 -1.31187892
8.22249603 7.05129528 -1.35986197
7.48817778 6.51641130 -1.92496049
7.04712725 6.62322330 -1.24554443
6.99380398 6.06752348 -2.48930693
8.11614227 7.01526833 -1.36792803
8.15594387 7.04050779 -1.33257186
6.99380398 6.06752348 -2.48930693
6.91976595 6.57644033 -1.23333526
6.97380447 6.08176231 -2.46765423
7.43947268 6.52644300 -1.86556506
6.96300745 6.61543655 -1.17184412
7.57032967 6.59055758 -1.83114719
6.83494806 6.52763700 -1.28178704
7.11269331 6.19714355 -2.34710956
7.17427397 6.25572586 -2.24950004
8.19846439 6.88566875 -1.71786416
8.54393864 6.83400440 -2.16804695
6.63152361 6.28345156 -1.64903891
6.97380447 6.08176231 -2.46765423
6.63735723 6.23601437 -1.76705766
6.97891378 6.11969090 -2.40549374
6.92185068 6.65198517 -1.04087210
6.90240765 6.60009336 -1.14692163
7.01982117 6.00828886 -2.49430060
8.33419418 7.16981649 -1.17033434
6.89024973 5.95111609 -2.47914696
6.86599493 5.99173975 -2.49301863
7.48135281 6.69498920 -1.49551320
7.47065449 6.64603329 -1.59414053
6.81828022 6.57235670 -1.15642500
8.27505016 7.15653419 -1.14073002
7.69894934 6.27455711 -2.55778289
8.28261471 7.12130404 -1.24872792
7.62505341 6.28515768 -2.56260777
7.51622295 6.61947155 -1.71336603
6.86714268 6.02555037 -2.46889281
6.86714268 6.02555037 -2.46889281
7.54452753 6.21659613 -2.54924250
6.90096378 6.07446194 -2.42913461
7.39096308 6.65884399 -1.49332583
7.57509995 6.26034641 -2.55653620
7.39409924 6.59813499 -1.64071846
8.39235878 7.23407507 -1.07098103
7.41313791 6.55949163 -1.75873220
6.68917084 6.47333431 -1.27257490
7.45105028 6.21334124 -2.54612589
7.54452753 6.21659613 -2.54924250
7.41555500 6.16811895 -2.53550196
6.78343821 6.00939703 -2.45307565
6.75542498 5.92334270 -2.47295928
6.77302313 5.90519381 -2.46938872
6.72862291 5.96820927 -2.46483469
6.72862291 5.96820927 -2.46483469
6.73177719 6.52175188 -1.18306410
8.33434772 7.21720219 -1.04596508
7.52357483 6.78381443 -1.31842411
6.90096378 6.07446194 -2.42913461
6.88728905 6.08574200 -2.39910936
6.75235891 6.55236626 -1.11813331
7.67519140 6.36596918 -2.42508030
6.64353180 6.49946308 -1.14492404
6.78343821 6.00939703 -2.45307565
6.70568752 6.56687784 -1.04694116
8.10933876 7.05422735 -1.23741722
6.60725403 6.46075583 -1.21363509
6.50834751 6.39496613 -1.25956583
7.67767525 6.36929560 -2.38765430
7.67767525 6.36929560 -2.38765430
7.67119789 6.37814951 -2.35861850
7.72011471 6.39054775 -2.39035082
7.63727093 6.36381245 -2.38700795
8.19520855 7.15113831 -1.07554066
7.72011471 6.39054775 -2.39035082
7.30025864 6.42743158 -1.96341765
6.55794191 6.45420837 -1.16181505
7.67119789 6.37814951 -2.35861850
7.67119789 6.37814951 -2.35861850
7.63600159 6.38010263 -2.33837843
7.69862127 6.42186117 -2.31945300
8.14005280 7.11969471 -1.10062575
7.25745821 6.41466665 -1.94381821
7.58925724 6.38225126 -2.32449961
8.06866837 7.13869715 -1.00846088
7.60708904 6.35847521 -2.37285638
7.63727093 6.36381245 -2.38700795
7.49902964 6.34788179 -2.29348397
7.52896690 6.35428572 -2.30919576
4.73459959 5.30712223 -2.03090477
4.71787167 5.40663958 -1.78267789
