2.99136806 -2.60634089 -2.88382435
3.03199482 -2.74852300 -2.84836674
2.97173429 -3.19375634 -2.96067333
2.94321752 -3.29510546 -3.03299618
2.90171719 -3.39426994 -3.09118199
2.86534953 -3.48743987 -3.15184331
2.84445357 -3.57039285 -3.22244263
2.82622719 -3.64850378 -3.29902458
2.80673909 -3.73846984 -3.33513737
2.72040081 -3.78626871 -3.36809492
2.75152612 -3.89465570 -3.39163637
2.70409155 -3.99463320 -3.42421818
2.63902545 -3.91899800 -3.56090307
3.05318213 -2.97055125 -2.82947326
3.00879335 -3.08623099 -2.89434528
3.25160837 -2.28374076 -2.59727621
-3.53767157 -1.02851725 -0.76758504
-3.51332927 -1.00889552 -0.89104325
-0.87471628 -4.77398300 -4.09755945
-0.74665904 -4.65884924 -4.06281757
-0.74378312 -4.54826593 -3.99756932
-0.86162299 -4.43518305 -3.91606092
-0.97542202 -4.32052231 -3.84007382
-1.08204937 -4.21326351 -3.76023936
-1.17284107 -4.12340689 -3.68034458
-1.23033524 -4.01685143 -3.61270595
-1.29949069 -3.88259387 -3.53472877
-1.40286601 -3.75522828 -3.44132781
-1.50898385 -3.63568926 -3.35839963
-1.61931229 -3.51649022 -3.28557968
-1.73170376 -3.39760709 -3.21535611
-1.73268664 -3.27187991 -3.19936228
-1.73160672 -3.14680767 -3.17665839
-1.83780932 -3.03149176 -3.08754110
-1.95039487 -2.91666126 -3.00545025
-2.06056547 -2.80465817 -2.91683078
-2.16653776 -2.69548225 -2.82077265
-2.27406311 -2.58935261 -2.72568536
-2.37974405 -2.48765182 -2.63107133
-2.39329863 -2.36926579 -2.61510205
-2.40462017 -2.24942374 -2.59295630
-2.51386857 -2.15683603 -2.49746847
-2.61264491 -2.06512213 -2.38996720
-2.70821762 -1.97126031 -2.27832818
-2.80830455 -1.87472904 -2.17089987
-2.90466595 -1.77691150 -2.05924869
-2.99957132 -1.67838991 -1.94475806
-3.09304476 -1.57988060 -1.82706380
-3.17917657 -1.48191750 -1.70250130
-3.25512767 -1.38486421 -1.57082784
-3.32246304 -1.28793252 -1.43462825
-3.36876893 -1.18903482 -1.29094160
-3.42451572 -1.08921504 -1.15096807
-3.48295641 -0.98804814 -1.01306963
-3.60992122 -0.97252786 -0.25166702
-3.60869575 -0.98847288 -0.12650999
-3.60715485 -1.00390816 -0.00148632
-3.58448720 -0.89323997 0.13741930
-3.54671192 -0.78322697 0.27223557
-3.52029467 -0.67255861 0.40790129
-3.50705552 -0.56232727 0.54457414
-3.48556519 -0.45150116 0.67848039
-3.45988822 -0.34059024 0.81094253
-3.42684555 -0.35463005 0.92881876
-3.39325666 -0.36840287 1.04584563
-3.35083389 -0.50336486 1.14896619
-3.31576467 -0.63785338 1.25646722
-3.55616474 -1.04711974 -0.64308327
-3.57954836 -0.93948519 -0.50013667
-3.59637904 -0.95627958 -0.37615669
-3.23634315 -0.65583700 1.49060595
-3.27876592 -0.64733058 1.37444067
-3.10093212 -0.54861504 1.70799875
-3.16564655 -0.54044843 1.60315502
-3.05151987 -0.68037331 1.81204128
-2.99286079 -0.81305391 1.91093898
-2.82117939 -0.70374471 2.10515451
-2.89691186 -0.69652462 2.00652361
-2.75123501 -0.83630401 2.19612813
-2.68022299 -0.96888751 2.28717470
-2.59852028 -1.10121620 2.36989689
-2.51726627 -1.23349619 2.45385671
-2.43569708 -1.36566722 2.53796220
-2.35089993 -1.49769247 2.61888838
-2.26118827 -1.62964499 2.69462085
-2.17046952 -1.76152468 2.76895761
-2.07939863 -1.89342856 2.84251833
-1.98864329 -2.02532053 2.91581178
-1.89731777 -2.15698171 2.98766112
-1.80679309 -2.28798771 3.06022644
-1.71426618 -2.41778016 3.13108110
-1.61949432 -2.54686904 3.20193553
-1.51546371 -2.67769313 3.26092196
-1.40258694 -2.80941486 3.31333160
-1.28498983 -2.94017816 3.36626315
-1.16375232 -3.07077146 3.41310310
-1.04316998 -3.20137715 3.45843816
-1.04747772 -3.32226300 3.48757362
0.33244157 -4.84209538 4.46750975
0.45727098 -4.96658421 4.51131582
0.70415103 -5.09915638 4.52918959
0.83495075 -5.20055294 4.58891678
0.96238905 -5.30978918 4.63385153
1.08099353 -5.32426596 4.59769011
0.57830232 -4.98084259 4.48788357
1.19951284 -5.34239531 4.55662680
1.33572459 -5.41531324 4.62346411
1.47905946 -5.53445101 4.78774357
1.46302950 -5.49362993 4.68266916
1.59182692 -5.53608894 4.75260162
1.72819650 -5.53746080 4.81680584
1.87903059 -5.53282547 4.86977386
2.04435349 -5.51644325 4.91924715
2.19492054 -5.41684198 4.92438030
2.33654428 -5.30173206 4.90604448
2.46435905 -5.17196417 4.86001778
2.53726411 -4.91716003 4.72321177
2.56940889 -5.03644419 4.77636147
2.59676051 -4.82024097 4.56842136
2.64667034 -4.73863506 4.40228558
2.69001555 -4.70419598 4.21601868
2.79966450 -4.56931973 4.20273066
2.88899994 -4.44497490 4.14651108
2.90728688 -4.35647774 4.02425432
2.89060163 -4.26669216 3.89748311
-0.92536646 -3.33245587 3.50552058
-0.81132472 -3.46169019 3.56194687
-0.69926095 -3.58950448 3.62326360
-0.58802235 -3.71410370 3.69224930
-0.47614065 -3.83661556 3.76525140
-0.36531460 -3.94815707 3.85641932
-0.25498611 -4.05122948 3.95765853
-0.14295875 -4.15288162 4.05825520
-0.02664787 -4.26562500 4.14064980
0.09250254 -4.38641357 4.20639563
0.21321833 -4.50164413 4.27987099
0.33303615 -4.72641516 4.41410494
0.33400694 -4.61294317 4.35761833
2.95490336 -4.24459505 3.80382776
3.02658296 -4.20882225 3.71327853
3.24009252 -4.10225582 3.44462895
3.23108864 -3.95555973 3.32319736
3.22019172 -3.81961465 3.19611073
3.20573926 -3.69562244 3.08664393
3.42434549 -3.66717887 2.84625578
3.32842088 -3.74309349 2.96945930
3.46065259 -3.54696083 2.75825500
3.30188227 -3.43569779 2.67678308
3.26988339 -3.28142953 2.72039485
3.20646739 -4.24697351 3.68208027
3.27152133 -4.21772957 3.58585238
3.64110732 -2.71063876 2.25147438
3.67002416 -2.59653616 2.20420980
3.44337273 -3.26325178 2.64661622
3.56104279 -3.19154787 2.49941039
3.63706660 -2.96041870 2.30760956
3.64775729 -2.86951804 2.22199941
3.63871670 -2.53871441 2.13550329
3.62064838 -2.44190383 2.03109670
3.72407198 -2.36490941 2.05157995
3.82968020 -2.10496044 1.91462803
3.82923126 -2.24209452 1.93398285
3.76335192 -1.96940386 2.00967884
3.75914145 -1.84158921 1.99470472
3.81351662 -1.67937291 2.15569544
3.77869034 -1.72092199 1.99418283
4.02657747 -1.69232070 2.27939630
4.05940199 -1.70562029 2.45985126
4.09402180 -1.65276158 2.65662718
4.11725998 -1.56122959 2.75918961
4.23062229 -1.53334415 2.88832688
4.35293961 -1.53618360 3.02091026
4.37947845 -1.62212145 3.11994123
4.27543545 -1.68595004 3.14732933
4.00792646 -1.67643619 3.36657882
3.94728947 -1.66648591 3.52394104
4.00384903 -1.62236428 3.76438975
3.98670292 -1.65648687 3.64423227
4.13904190 -1.65574670 3.86360312
4.30037212 -1.60736585 4.10055685
4.27828693 -1.62519169 3.97065496
4.32267570 -1.57232070 4.22435474
4.23027039 -1.55201948 4.37143946
4.29997158 -1.46505034 4.72812605
4.19613552 -1.47616553 4.87332964
4.39475584 -1.48048556 4.58786154
4.37026787 -1.52766514 4.46964502
4.09902143 -1.40997088 5.25542641
4.01477051 -1.44457901 5.40564156
3.91349459 -1.47292566 5.53522778
3.84603786 -1.50492489 5.65652609
3.74479795 -1.52367282 5.71044064
3.63221264 -1.49225616 5.74692917
3.54042578 -1.51030052 5.83205414
3.44366384 -1.47072923 6.04373121
3.48782206 -1.52970374 6.00238895
3.35599089 -1.48088586 6.08530521
4.20413208 -1.39600396 5.11226177
4.19891453 -1.43425238 4.99315929
3.30176091 -1.54840326 6.18439674
3.36751890 -1.52549314 6.42301321
3.33235264 -1.39741158 6.59069014
3.41437078 -1.46287811 6.52948284
3.30358124 -1.41230083 6.70893002
3.28392315 -1.40287197 6.83985138
3.23000860 -1.36507261 6.94805622
3.16815829 -1.33409274 7.05491400
3.09558058 -1.30750585 7.16025543
3.02511454 -1.31837845 7.27070522
2.79257774 -1.28668261 7.34225130
2.94047523 -1.28613639 7.35721302
2.76374578 -1.23797405 7.51166344
2.65673018 -1.19075799 7.57547998
2.53442454 -1.13480496 7.62951517
2.40175629 -1.08430040 7.64762020
3.87743044 -1.67650914 2.04641056
3.98681211 -1.67961574 2.10412312
2.28150153 -1.02846885 7.64764500
2.21525836 -0.87110621 7.71777105
2.11473441 -0.80468106 7.84200668
2.02263236 -0.76585001 7.97866583
1.92511809 -0.71045518 8.10798550
1.85056257 -0.68671978 8.25369930
1.80650151 -0.70705748 8.42023468
1.70868397 -0.76401770 8.47532749
1.63568175 -0.75241697 8.64208126
1.53305888 -0.72255355 8.82921028
1.41159070 -0.78143102 8.81989098
1.30831242 -0.81016582 8.83781433
1.22795653 -0.77360404 8.95612621
1.12380457 -0.78510773 8.98748302
0.55459112 -0.54439211 9.43126106
0.54467708 -0.44496059 9.52782822
0.39893958 -0.39148313 9.60034466
0.52186388 -0.31213444 9.61949348
0.56239372 -0.14673877 9.63849640
0.47183257 -0.03452937 9.77184391
0.37085995 0.04295058 9.91015530
0.25888112 0.17504865 9.98234558
0.14087138 0.31925720 9.99713802
0.01643025 0.32928047 9.97881413
-0.10570530 0.33914593 9.94742203
-0.09502677 0.46149990 9.92009449
-0.18601260 0.56661046 9.81577301
-0.26366243 0.64905351 9.70009232
-0.22494064 0.69834453 9.60721397
1.01828146 -0.79218227 9.00712872
0.91465133 -0.74022156 9.11932659
0.79974800 -0.67970592 9.22976398
0.68109506 -0.60377926 9.32809162
-0.05158465 0.71374345 9.53742695
-0.00950157 0.70810086 9.41310596
-0.10081504 0.67016786 9.27108288
-0.18853661 0.60640007 9.14890957
-0.27440161 0.52807075 9.03889656
-0.38556737 0.41794854 8.98134327
-0.39360055 0.28421223 8.99796677
-0.35951424 0.26567042 8.87043190
-0.44205433 0.27406764 8.72337246
-0.40629342 0.22103912 8.63256741
-0.47597075 0.05493961 8.46922302
-0.45122814 -0.01615745 8.39505577
-0.38065284 0.13275933 8.57173729
-0.42981043 -0.09559108 8.32892227
-0.49474308 -0.14893512 8.20806026
-0.55246776 -0.21688926 8.09267235
-0.58200353 -0.28009889 8.00143147
-0.47834915 -0.34596592 7.97136164
-0.45456520 -0.44422042 7.89243793
-0.43084186 -0.46404845 7.76190519
-0.52833188 -0.46440035 7.59811115
-0.62685335 -0.53276718 7.45973921
-0.70679665 -0.54755932 7.30075073
-0.79820716 -0.58865947 7.15149450
-0.62277615 -0.70895052 6.97128248
-0.65561253 -0.67424530 7.08906078
-0.58927226 -0.71674103 6.85002041
-0.55561066 -0.71979898 6.72954702
-0.40799227 -0.75974631 6.64251709
-0.26406285 -0.76538897 6.54092550
-0.23599535 -0.81475282 6.42408085
-0.21681042 -0.81964308 6.30972385
-0.26855269 -0.80321270 6.17771006
-0.32700542 -0.79999703 6.02076054
-0.39583334 -0.79670846 5.73847151
-0.49213415 -0.78495002 5.58826828
-0.29291910 -0.79999703 5.88954830
-0.41268837 -0.80003339 5.34899664
-0.45548740 -0.78367585 5.46746778
-0.36251152 -0.85119325 5.23679972
-0.34377557 -0.82419360 5.01831484
-0.31531975 -0.92976528 5.14495230
-0.15742330 -0.75968564 4.89336395
-0.20135084 -0.79176968 4.98430109
-0.05816163 -0.73811018 4.72583246
-0.12251182 -0.74973524 4.82425690
0.04090589 -0.73304999 4.45270538
0.04891478 -0.73835284 4.58707285
-0.08472444 -0.69893944 4.32586145
-0.21607020 -0.57210773 4.35161114
-0.34234366 -0.45732585 4.42955208
-0.34290186 -0.56794560 4.34303236
-0.46679690 -0.34217983 4.51680088
-0.58665115 -0.21944968 4.60664606
-0.69272041 -0.08161192 4.68599415
-0.78620595 0.03534210 4.79264641
-0.85699964 0.17297365 4.88883781
-1.03511250 0.38312203 5.00080442
-1.11050522 0.55379623 5.08634186
-0.91746676 0.32028866 4.99188566
-1.31167400 0.75929707 5.03112888
-1.18622565 0.72044182 5.00870419
-1.48325825 0.67453635 5.03259706
-1.67378485 0.60375476 4.97765112
-1.80598009 0.66042364 4.98090363
-1.92358935 0.72825658 4.97481203
-2.09052610 0.73885012 4.89458942
-2.25172329 0.76627445 4.84210682
-2.31904650 0.83863360 4.87129068
-2.36663866 0.92054266 4.90373898
-2.46259975 1.01343369 4.81111526
-2.52346730 1.10545087 4.66974592
-2.67979836 1.22147048 4.62966537
-2.91672778 1.26635671 4.53432322
-2.94496536 1.25420988 4.53762388
-3.03147340 1.37079990 4.67933273
-3.18559599 1.45317018 4.68586111
-3.30864167 1.56455445 4.63704300
-3.44461083 1.65982366 4.59903717
-3.56571460 1.74949896 4.53255129
-3.65691900 1.84417367 4.43867779
-3.82482648 2.02599978 4.38773632
-3.96287084 2.10779953 4.30992842
-4.13484335 2.21846795 4.26274872
-3.69776416 1.94887173 4.45336056
-4.18373394 2.35159731 4.06782961
-4.19953346 2.63710213 3.96933246
-4.12397051 2.30847096 4.26550341
-4.33613348 2.73437381 3.88914633
-4.37392044 2.86423898 3.87571335
-4.84728241 3.06302953 3.71218634
-4.79283428 3.09764957 3.79674077
-4.93784380 3.10376549 3.59238076
-4.58696938 3.04440284 3.96303463
-4.71837568 3.13325262 3.88610053
-4.42363691 2.98091388 3.91598821
-4.98405218 3.20977402 3.54884148
-5.02639008 3.31891346 3.49643183
-5.13398838 3.34571886 3.33652091
-5.20239162 3.37103176 3.16041040
-5.27701998 3.38242626 2.99523306
-5.41075611 3.39027739 2.87848544
-5.50873184 3.38487744 2.73646116
-5.58217049 3.39303184 2.58957100
-5.69760799 3.40515447 2.34806657
-5.76784372 3.35640955 2.18087506
-5.86454439 3.46575522 1.98703563
-5.81749868 3.41248369 2.08606672
-5.95345545 3.53640318 1.73607826
-5.90313292 3.54083228 1.89773643
-5.98854876 3.53356361 1.56228554
-5.97170639 3.53561449 1.38001049
-5.92482948 3.60690570 1.26423347
-6.00059891 3.61248755 1.12139606
-6.09484863 3.67348886 1.01489007
-6.13002729 3.57149649 0.81140363
-6.13073111 3.50592089 0.66689175
-6.10677719 3.53879380 0.57040894
-6.07993555 3.44482279 0.41938072
-6.14844751 3.38754702 0.25528345
-6.16020632 3.32163143 0.11290728
-6.10971355 3.14672208 -0.07710969
-6.11947012 3.02465963 -0.11114745
-6.06127214 3.03317809 -0.61700583
-6.10187435 3.03187966 -0.48398548
-6.07997131 2.90664983 -0.77413779
-6.02977037 2.79947639 -0.92153770
-6.01374054 2.81424427 -1.03820050
-5.99970055 2.82202268 -1.14707279
-5.96954584 2.82550526 -1.24125004
-5.93308115 2.92771554 -1.34231985
-5.98079491 3.10215139 -1.48023045
-5.93837214 3.07530975 -1.66414368
-5.87784433 2.91990089 -1.77347696
-5.77933502 2.78125000 -1.82150602
-5.82965755 2.82682776 -1.77388966
-5.72946119 2.74130273 -1.92645895
-5.72926712 2.58983755 -2.02262616
-5.66432285 2.56368732 -2.12845278
-5.57666159 2.39443278 -2.33067727
-5.64635086 2.53634810 -2.24785805
-5.46474314 2.42474532 -2.65525556
-5.52354813 2.46097922 -2.56202483
-5.07673693 1.96992540 -2.70259285
-5.09047365 2.01743269 -2.84727478
-5.31763458 2.33242464 -2.72305202
-5.15869474 2.24139023 -2.73055124
-5.07943106 2.07468414 -2.75471139
-5.38750648 2.43366432 -2.73246861
-5.14072323 2.10185361 -2.95978761
-5.09712315 2.07964730 -3.16949916
-4.94552517 2.00390244 -3.37751174
-5.01352739 2.08612704 -3.32205629
-4.87681818 1.92466307 -3.42577100
-4.84691811 1.78106117 -3.38566637
-4.73832512 1.76727617 -3.49328852
-4.56661940 1.65660799 -3.65713096
-4.61251307 1.75276315 -3.60206389
-4.54022694 1.46261084 -3.63362622
-4.48438263 1.31926394 -3.63485193
-4.35817003 1.08620536 -3.63358974
-4.22256470 1.00638342 -3.72805810
-4.07507992 0.92753226 -3.80415487
-4.02023125 0.81321144 -3.79000592
-4.42358828 1.19785655 -3.63692665
-3.96458173 0.70211846 -3.76633120
-3.82212067 0.59782088 -3.82906723
-3.66149378 0.50374073 -3.87248516
-3.48268914 0.42720729 -3.87287354
-3.30962443 0.36451954 -3.84651685
-3.21612692 0.23479983 -3.92013812
-3.09480429 0.11660807 -3.98318982
-2.93574286 0.04281709 -4.01504326
-2.77176714 -0.01900910 -4.02728701
-2.61558175 -0.11748202 -4.05775785
-2.46536636 -0.24221435 -4.07256174
-2.31155944 -0.34858698 -4.04039288
-2.26947618 -0.43840787 -3.96114135
-2.12498856 -0.53459942 -3.94289064
-2.09449410 -0.63795048 -3.88391614
-1.98849785 -0.63611823 -3.93505192
-1.87074292 -0.74361926 -3.95682120
-1.84692240 -0.77834880 -4.20383501
-1.80199993 -0.77955014 -4.09960985
-1.89423561 -0.77351910 -4.30884838
-1.84392524 -0.77024281 -4.47036123
-1.89981759 -0.79849225 -4.57594442
-1.94386637 -0.88991505 -4.65253878
-2.01399255 -0.87216198 -4.76135063
-2.26427031 -0.80698663 -4.88945627
-2.33573174 -0.81544441 -4.98872995
-2.08421612 -0.81063914 -4.85175371
-2.40585804 -0.83568513 -5.08830738
-2.58389783 -0.81981295 -5.11522198
-2.65584445 -0.82436347 -5.21313667
-6.07873392 3.04169655 -0.35261539
-6.11699486 3.04130816 -0.23378052
-2.72935629 -0.81271410 -5.31225300
-2.80192161 -0.79259491 -5.41355276
-2.87665915 -0.79019225 -5.51490164
-2.86784935 -0.80391657 -5.69275951
-2.95333815 -0.83090407 -5.78551722
-3.03800201 -0.86460209 -5.86496305
-2.99701095 -0.82311356 -5.95278215
-2.91568422 -0.77530289 -6.03574610
-2.93581581 -0.76092333 -6.21606779
-2.93887377 -0.77834880 -6.39862204
-3.00023866 -0.70821035 -6.64866924
-2.92603517 -0.76267076 -6.60755682
-2.96986556 -0.70965433 -6.77830362
-2.98630810 -0.71183854 -6.87198353
-2.98857737 -0.71841556 -6.98534632
-2.94867849 -0.63565707 -7.09925413
-3.03241992 -0.52501309 -7.21619606
-3.09638190 -0.45805386 -7.36215162
-3.21328735 -0.45232639 -7.40615225
-3.32839680 -0.44903782 -7.45450878
-3.38641262 -0.38661709 -7.59910583
-3.32229304 -0.36095223 -7.70550299
-3.38981032 -0.27028191 -7.82703066
-3.34204841 -0.15125287 -7.85443068
-3.38528419 -0.01609675 -7.94203186
-3.52323127 0.12036984 -8.08318138
-3.42648149 0.09857592 -8.05156040
-3.38005424 0.17168735 -8.15083408
-3.24020219 0.11626830 -8.25303173
-3.22881961 0.10943645 -8.36385727
-3.24461913 0.21897618 -8.36525345
-3.13431478 0.34091759 -8.33030415
-3.12108803 0.43382069 -8.40033436
-2.99742365 0.44123498 -8.36221886
-1.37586641 -0.58990932 -9.45315075
-1.40428579 -0.48706794 -9.53856754
-1.62798870 -0.14989379 -9.72973633
-1.65451503 -0.08749725 -9.79270363
-1.56513095 -0.19155213 -9.57889175
-1.40934587 -0.35271281 -9.56373405
-2.57203031 0.40813160 -8.36287403
-2.43211746 0.43133309 -8.49753380
-2.31452012 0.43999726 -8.64169216
-2.20417953 0.46086890 -8.78016090
-2.22295189 0.50791502 -8.87258053
-2.25108004 0.53493899 -8.96524048
-2.18691206 0.54179507 -9.12056351
-2.12990308 0.53009725 -9.28889656
-2.07472658 0.49909315 -9.46304035
-2.00457621 0.41680789 -9.61906815
-1.91005921 0.29422334 -9.73113251
-1.79464626 0.15846059 -9.79809189
-1.78330040 0.02329238 -9.78956127
-1.67414892 0.02605908 -9.83731079
-2.73259640 0.34512836 -8.27143955
-2.87383175 0.34595346 -8.28552914
-1.21570075 -0.66960990 -9.39031887
-1.05801058 -0.74749029 -9.32839489
-0.89379203 -0.80050671 -9.25426483
-0.72865111 -0.82583183 -9.16471004
-0.57564503 -0.87443113 -9.08165932
-0.44260037 -0.94175434 -9.00655842
-0.33478376 -0.93066323 -9.01056385
-0.22282922 -0.91697532 -9.00783253
0.01291118 -0.81369710 -9.09343052
-0.10490442 -0.83193552 -9.10447311
0.24212311 -0.84033263 -8.94015789
0.13050835 -0.79037428 -9.07314205
0.48191649 -0.71796656 -8.98178005
0.36459845 -0.74217528 -9.01614475
1.20964539 -0.95398611 -7.77996111
1.07166183 -0.97917771 -7.68835592
1.16513526 -1.01467168 -7.54498529
0.70754874 -0.71495724 -8.79110813
0.80047607 -0.66473174 -8.60704899
0.89556348 -0.70372057 -8.45730591
1.02649665 -0.75627583 -8.36668491
1.12226343 -0.74301255 -8.23023033
1.22925496 -0.75491673 -8.08266163
1.34989798 -0.79576200 -7.94727373
1.35281026 -0.89038825 -7.86415148
0.59804541 -0.69050586 -8.94424629
1.25305116 -1.04210818 -7.39423609
1.36206901 -1.12834930 -7.28741407
1.44735146 -1.14981544 -7.13940811
1.56562829 -1.13014519 -7.10902214
1.68152654 -1.11080265 -7.08014202
1.79748559 -1.17632973 -6.95771551
1.90124905 -1.23204017 -6.80515814
1.98202980 -1.29619622 -6.64362144
2.06285882 -1.31829345 -6.48277617
2.14592075 -1.34367919 -6.32654190
2.22312140 -1.40841758 -6.18798828
2.37360382 -1.42280936 -6.27041912
2.49336100 -1.44456697 -6.22720718
2.69221187 -1.53816164 -6.02692461
2.77856231 -1.54692292 -5.84581470
2.86288619 -1.63792074 -5.66357613
2.89783406 -1.67034471 -5.44813681
2.90516353 -1.61527753 -5.25187063
2.89401150 -1.65266442 -5.06982613
2.88324809 -1.70046294 -4.90356922
2.88518977 -1.63783586 -4.76827908
2.93370414 -1.68112040 -4.64210272
3.00703382 -1.68084121 -4.48748302
2.61282659 -1.47849548 -6.18834019
3.05767202 -1.72396791 -4.31871367
3.10266733 -1.73072696 -4.15875435
3.14248133 -1.72661316 -4.00485039
3.02993202 -1.66760218 -3.76000905
3.19626212 -1.69759917 -3.86062980
3.15727329 -1.64673066 -3.78137779
3.23974061 -1.78816020 -2.62825584
3.20616412 -1.90513861 -2.59966660
3.10079861 -1.74763048 -3.63923240
3.14800262 -1.77970231 -3.48856831
3.19555831 -1.77744544 -3.33942103
3.23817539 -1.77436328 -3.23199272
3.27738261 -1.77080774 -3.16352868
3.36606264 -1.77387786 -3.07603765
3.34903789 -1.76088142 -2.88985538
3.24122119 -1.74880767 -2.80291033
3.33247375 -1.74574971 -2.70447397
3.29790235 -2.02021170 -2.50398469
3.31293702 -2.14233518 -2.50501609
2.57187223 -3.95106959 -3.75610161
2.48236680 -4.05485773 -3.90791845
2.39655042 -4.16626596 -4.05198145
2.30268860 -4.29696894 -4.17260027
2.20478606 -4.42984390 -4.27805042
2.12331390 -4.52112055 -4.42657900
2.02240181 -4.66600847 -4.48119688
1.92108953 -4.74761438 -4.60706997
1.83302808 -4.76323175 -4.77609396
1.73160648 -4.85938644 -4.90598345
1.62161767 -4.97115946 -5.01128864
1.50186050 -5.09486055 -5.09296703
1.37404597 -5.22800207 -5.15048504
1.23188818 -5.36077976 -5.15212345
1.08516788 -5.48599720 -5.12479591
0.92769611 -5.51825142 -5.01575422
0.77403468 -5.55998278 -4.91046143
0.61815256 -5.56515169 -4.80383396
0.45523238 -5.52215815 -4.71249628
0.29749367 -5.43384218 -4.63116980
0.15656154 -5.43404865 -4.62300301
0.02274028 -5.32504272 -4.54210091
-0.10917581 -5.21004248 -4.47595501
-0.23723307 -5.20972681 -4.46722984
-0.36421037 -5.21055269 -4.45298433
-0.48780206 -5.32447243 -4.50018787
-0.61571372 -5.21006680 -4.42485619
-0.61571372 -5.21006680 -4.42485619
-0.62225431 -5.09426546 -4.36709452
-0.62506956 -4.98187399 -4.30048752
-0.75222886 -4.87848663 -4.19947863
3.19167519 -2.42371416 -2.64950371
3.11861229 -2.43910074 -2.64969802
3.05229640 -2.45988750 -2.65195513
3.06372714 -2.54614091 -2.76967359
3.12459493 -2.85529590 -2.77758527
3.00921798 -3.37106848 -2.95026183
3.05062175 -3.26702571 -2.88936996
2.96845770 -3.47121620 -3.01109314
2.94781685 -3.56001735 -3.08724999
2.93676209 -3.63607764 -3.17118549
2.91228628 -3.71611834 -3.23681021
2.89136624 -3.79365897 -3.29622173
2.79279613 -3.80868149 -3.39417243
2.74903870 -3.97384620 -3.50911236
2.79695845 -4.05169058 -3.33372974
2.84560633 -3.94041538 -3.36054730
2.68720007 -3.97448969 -3.68335438
3.06748891 -3.16525245 -2.80879569
3.11674356 -3.05560303 -2.74824357
3.25922894 -2.39844966 -2.56431842
3.33003473 -2.26332998 -2.50076890
-3.52256370 -0.88428456 -0.87074190
-3.54014707 -0.90361506 -0.74698031
-0.74995965 -4.76852274 -4.13066292
-0.62242419 -4.65886116 -4.08413839
-0.62235141 -4.54560804 -4.02239704
-0.74255747 -4.43496418 -3.93705392
-0.86113757 -4.31975746 -3.86124873
-0.97536129 -4.20833731 -3.78389001
-1.08286238 -4.11212111 -3.70063400
-1.16665232 -4.05044079 -3.64361286
-1.15699327 -3.90999365 -3.58382559
-1.27768481 -3.75791001 -3.48349571
-1.38865626 -3.63297105 -3.40178132
-1.50051391 -3.51248622 -3.32808733
-1.61598730 -3.39180636 -3.26367640
-1.61689758 -3.26566672 -3.24842310
-1.61771047 -3.13961172 -3.22955370
-1.73234689 -3.02106786 -3.15467072
-1.84635210 -2.90438080 -3.07479978
-1.96238375 -2.78964758 -2.99454141
-2.07378030 -2.67834830 -2.90469623
-2.18175459 -2.57071352 -2.80930543
-2.28955913 -2.46727753 -2.71375704
-2.30385375 -2.34517860 -2.69762993
-2.31619501 -2.22219348 -2.67777753
-2.42379284 -2.12692404 -2.57835817
-2.52951026 -2.03352356 -2.47751904
-2.62554431 -1.94000161 -2.36675382
-2.72622538 -1.84467149 -2.26006556
-2.82631230 -1.74770331 -2.15257645
-2.92288017 -1.64957011 -2.04075551
-3.01663256 -1.55096388 -1.92488134
-3.10991216 -1.45273340 -1.80672610
-3.19371414 -1.35593522 -1.68046463
-3.27081800 -1.26014400 -1.54973781
-3.33377242 -1.16346717 -1.41227627
-3.38336706 -1.06506693 -1.27002144
-3.44577551 -0.96572036 -1.13306928
-3.49766350 -0.86376470 -0.99336284
-3.60204601 -0.84660637 -0.23352569
-3.60798001 -0.86216295 -0.10942430
-3.60355067 -0.87763476 0.01482268
-3.56970692 -0.76810712 0.15177467
-3.54122710 -0.65776646 0.28758597
-3.52676249 -0.54747438 0.42456222
-3.51791620 -0.43801960 0.56123513
-3.49766350 -0.32756975 0.69492286
-3.46462083 -0.21548170 0.82528567
-3.43123817 -0.23046800 0.94378084
-3.40363193 -0.24691048 1.06168139
-3.34897709 -0.38012502 1.15928066
-3.31049824 -0.51398265 1.26497376
-3.55810618 -0.92203552 -0.62329155
-3.57252240 -0.81435233 -0.47984749
-3.59174371 -0.83047932 -0.35728720
-3.22267938 -0.53211182 1.49440408
-3.26812387 -0.52354479 1.38031375
-3.08463526 -0.42492622 1.70919991
-3.15268660 -0.41696593 1.60654056
-3.02835488 -0.55698788 1.80814624
-2.97258377 -0.68903756 1.90808725
-2.81195712 -0.57846630 2.11095500
-2.88559031 -0.57154959 2.01102591
-2.74536204 -0.71085572 2.20389438
-2.67464113 -0.84349984 2.29452848
-2.59284115 -0.97609544 2.37634039
-2.51122332 -1.10847259 2.45945096
-2.43023634 -1.24075294 2.54390812
-2.34666491 -1.37288737 2.62605977
-2.25705051 -1.50475502 2.70202303
-2.16727805 -1.63670731 2.77782822
-2.07459331 -1.76842928 2.84985971
-1.98369253 -1.90043044 2.92346883
-1.89399290 -2.03241944 2.99744153
-1.80060446 -2.16386199 3.06585693
-1.70436418 -2.29440689 3.12958837
-1.60683787 -2.42389607 3.19339252
-1.50318336 -2.55427098 3.24941850
-1.39108336 -2.68636918 3.29212022
-1.27723575 -2.81676841 3.34591317
-1.15916526 -2.94751954 3.39406371
-1.03842521 -3.07969069 3.43228817
-0.91965103 -3.21114540 3.47665238
0.45753798 -4.84981298 4.46281338
0.69917578 -4.99359655 4.46419668
0.82625014 -5.10540533 4.50915575
0.95647955 -5.21084309 4.55993938
1.07247496 -5.23363304 4.51501656
0.57645774 -4.86968899 4.43068075
1.18623757 -5.26325321 4.46390581
1.32334733 -5.35206699 4.52244329
1.45733833 -5.42381954 4.59187746
1.59182692 -5.53608894 4.75260162
1.57656157 -5.50075293 4.65262413
1.69670713 -5.53651381 4.71730185
1.83228791 -5.53640461 4.76798868
1.98935914 -5.52797127 4.81151533
2.15848017 -5.51064301 4.85504246
2.31436229 -5.41777611 4.86488390
2.45689607 -5.29914713 4.84620857
2.58193207 -5.16655207 4.79536438
2.65412116 -4.90316868 4.66490412
2.68393588 -5.02969694 4.70903778
2.70909119 -4.81661177 4.50029707
2.75908613 -4.73662043 4.33547211
2.80973601 -4.69391870 4.16581678
2.92347455 -4.56280279 4.17611933
2.98351693 -4.43668747 4.08013391
2.97901487 -4.34322643 3.94405580
-0.80342507 -3.34198165 3.52566433
-0.68966246 -3.47167730 3.58023381
-0.57729530 -3.59967351 3.64016700
-0.46549854 -3.72387242 3.70884943
-0.35404149 -3.84168768 3.78882909
-0.24344602 -3.95053530 3.88182926
-0.13271709 -4.05311060 3.98076344
-0.01869965 -4.16090250 4.06957674
0.09843642 -4.27540493 4.14553976
0.21769604 -4.38836670 4.22173357
0.33730751 -4.49850130 4.30204153
0.45565709 -4.63029671 4.33684301
0.45978287 -4.73106289 4.41466284
3.05082798 -4.32424784 3.85228133
3.12403655 -4.29973507 3.75634456
3.33748531 -4.19479465 3.48719740
3.31961107 -4.05512428 3.35501432
3.30763435 -3.90706897 3.22985721
3.27615690 -3.78742123 3.08701992
3.42553473 -3.84469700 2.99973536
3.50549006 -3.79888868 2.89659047
3.57433009 -3.62529016 2.69179344
3.56316614 -3.68921542 2.77069306
3.42597151 -3.52437806 2.63852239
3.33761907 -3.33459187 2.60176611
3.30826521 -4.33032751 3.71742845
3.34043431 -4.33120060 3.60000134
3.69139361 -2.75905609 2.17105794
3.72614717 -2.64009976 2.12552857
3.51328063 -3.31683874 2.54114127
3.63218856 -3.26652813 2.40456557
3.66330147 -3.14144397 2.32901502
3.69189072 -3.03505921 2.23753190
3.70578527 -2.93067670 2.14881516
3.66637182 -2.55496287 2.05795074
3.65142155 -2.45440269 1.88578379
3.77626324 -2.37477493 1.92801249
3.88256288 -2.24431491 1.81101000
3.88614297 -2.10895276 1.79457951
3.82136798 -1.97272873 1.89568567
3.81615019 -1.84456217 1.88261664
3.87743044 -1.67650914 2.04641056
3.83912110 -1.72491431 1.88874459
4.09518719 -1.69347334 2.16375279
4.12943077 -1.70418835 2.34489942
4.15219545 -1.66294265 2.52082777
4.31615925 -1.64326012 2.85379124
4.34112024 -1.56756389 2.91839647
4.16305637 -1.67744350 2.68441558
4.21875429 -1.66521180 2.77188230
4.20199633 -1.61974311 2.79837227
4.47143507 -1.55028427 3.00576615
4.49600744 -1.59919906 3.10796428
4.41320038 -1.65884113 3.16017985
4.17712069 -1.66157138 3.43853712
4.30753183 -1.65936279 3.40597987
4.20880365 -1.63901293 3.57398462
4.09403419 -1.64842951 3.61133504
4.11725998 -1.61419749 3.73709893
4.25785208 -1.64549291 3.83867836
4.41726589 -1.58046317 4.07188272
4.39615154 -1.60406506 3.94342470
4.43802786 -1.55161905 4.19638395
4.34626532 -1.53606236 4.34417295
4.41180515 -1.41780984 4.69931793
4.31055307 -1.42589164 4.85051632
4.51867485 -1.47723341 4.56218433
4.49248838 -1.53645074 4.44663763
4.20652246 -1.35441828 5.22648525
4.13640833 -1.42079508 5.36973524
4.03552103 -1.40338194 5.54415894
3.91658854 -1.47455156 5.61639690
3.90439343 -1.46878779 5.73980618
3.79646754 -1.45615542 5.80067396
3.61306429 -1.50908697 5.87420988
3.49597645 -1.52540827 5.91323519
3.56069064 -1.52767742 6.06664181
3.46221781 -1.52869666 6.09518242
3.49674082 -1.53361106 6.05313587
3.39644790 -1.53472757 6.12397814
4.30702209 -1.33692014 5.08573484
4.31124496 -1.38340819 4.97132921
3.39039278 -1.54345238 6.28015137
3.47559047 -1.47930861 6.51676559
3.43111658 -1.32841361 6.62727594
3.49831843 -1.41290748 6.60736322
3.38075757 -1.30471468 6.73021460
3.34174490 -1.28500807 6.84394073
3.29718614 -1.25963438 6.96254492
3.24612355 -1.23659074 7.08836937
3.20283890 -1.25536299 7.23942184
3.10333467 -1.25189233 7.34785748
2.85804415 -1.25975573 7.43812752
3.01822209 -1.23470974 7.44346666
2.83381128 -1.18375635 7.61462593
2.72229385 -1.13923407 7.69827032
2.58355784 -1.05869627 7.78982639
2.42014003 -1.01114047 7.77575064
3.93673205 -1.66985929 1.93433464
4.04839563 -1.67968833 1.98884368
2.30514002 -0.94674176 7.74918795
2.22708964 -0.82061386 7.82681322
2.13450193 -0.75581461 7.94919205
2.03696346 -0.68958354 8.07278347
1.94151199 -0.62934703 8.20023346
1.89706290 -0.64470953 8.36441612
1.84458029 -0.64904159 8.52868366
1.74450564 -0.70334435 8.58558369
1.66993809 -0.68429279 8.75763988
1.44861364 -0.70294392 8.93446636
1.39693201 -0.74995363 8.89284420
1.32378411 -0.75949144 8.92164040
1.25329375 -0.71038240 9.04512215
1.14301383 -0.72220165 9.08156300
0.68179893 -0.43505868 9.53889465
0.68177462 -0.52553493 9.43411255
0.70213664 -0.15603395 9.62444496
0.68275762 -0.30749893 9.61325550
0.59599465 -0.04225912 9.74622822
0.49567726 0.03113138 9.89566612
0.38527596 0.16267131 9.98008823
0.26714483 0.30920970 9.99924850
0.02515507 0.45391575 9.94997025
0.01643025 0.32928047 9.97881413
0.14673240 0.44810322 9.97273350
0.14087138 0.31925720 9.99713802
-0.07278390 0.56133187 9.85465145
-0.15225393 0.64536452 9.73894787
-0.10865404 0.69101524 9.64370155
1.03050101 -0.73585308 9.10931492
0.92236894 -0.67906284 9.22870827
0.80505091 -0.60852396 9.33812714
0.12850614 0.70448470 9.44455910
0.09602158 0.71712905 9.59621906
0.02494879 0.66141874 9.29810715
-0.07198302 0.58784616 9.18160152
-0.16480118 0.51018417 9.07626057
-0.26871040 0.40752485 9.02508736
-0.25214660 0.29399282 9.00390148
-0.25416097 0.31053239 8.89169216
-0.32609534 0.29218471 8.76003075
-0.28774974 0.22304133 8.67368031
-0.35637137 0.05051045 8.50363636
-0.33905518 -0.03546373 8.43868065
-0.26582238 0.12104937 8.62195110
-0.33196852 -0.12115885 8.38151455
-0.42557544 -0.19061776 8.28658390
-0.46788904 -0.22591756 8.15822315
-0.50441444 -0.27139831 8.03395176
-0.35453904 -0.33118582 8.01749802
-0.29733613 -0.43767974 7.93613482
-0.30023634 -0.47738451 7.79565144
-0.40353885 -0.47109866 7.63265848
-0.50315243 -0.52475828 7.48545265
-0.60070312 -0.59466612 7.35030842
-0.67876554 -0.60432535 7.18993711
-0.53570980 -0.66196513 7.11959219
-0.50256997 -0.69067574 7.00195885
-0.46913892 -0.71381652 6.88307524
-0.43778291 -0.73758835 6.76331806
-0.29063782 -0.73844993 6.66651964
-0.11762156 -0.78680658 6.43426180
-0.14310439 -0.74729609 6.56354427
-0.11367778 -0.82575887 6.30825520
-0.20397192 -0.80827290 6.22456217
-0.18095244 -0.79633236 6.06859541
-0.26571319 -0.79083532 5.76278925
-0.36832401 -0.77047336 5.61944246
-0.15559098 -0.78711003 5.91317415
-0.30371901 -0.82429069 5.40411234
-0.33861831 -0.77070385 5.50149345
-0.26958415 -0.89827573 5.31438875
-0.24884596 -0.87547475 5.05293465
-0.20308609 -0.92989874 5.21472645
-0.07107294 -0.76990306 4.93885708
-0.10239254 -0.82009208 5.03092289
-0.04244721 -0.75155538 4.84213114
0.06610962 -0.73722428 4.72899961
0.16823509 -0.73093855 4.44695330
0.17867091 -0.73686033 4.58030128
0.04174319 -0.68902540 4.33137083
-0.08704216 -0.56952304 4.35283709
-0.21394664 -0.46632972 4.43419981
-0.21607020 -0.57210773 4.35161114
-0.33877608 -0.35727540 4.52024651
-0.46006221 -0.23845258 4.60750723
-0.57292688 -0.10899988 4.69031477
-0.67365682 0.00842741 4.78339958
-0.75242299 0.12330642 4.87970066
-0.80654365 0.26503944 4.96336889
-0.97895318 0.49360827 5.07260513
-1.05873871 0.67439073 5.02818012
-0.85689044 0.43234026 5.04264498
-1.14504051 0.82220322 5.07658529
-1.26662993 0.81023842 5.13452864
-1.43519282 0.78287476 5.06266689
-1.61307514 0.70996958 5.03794861
-1.74138725 0.75734335 5.04305744
-1.86465120 0.81067526 5.04427052
-2.03112698 0.78888142 4.97302818
-2.17784715 0.79869831 4.91052246
-2.24234319 0.85715109 4.93308067
-2.27333498 0.93028682 4.96225262
-2.37037611 1.02261961 4.89219904
-2.42909575 1.11040187 4.76670218
-2.55721378 1.21854615 4.71459579
-2.86392975 1.29493392 4.65102243
-2.74976683 1.26935399 4.73945999
-3.08944058 1.45426214 4.75606012
-2.93577933 1.34542632 4.75899649
-3.21213460 1.57782972 4.70374727
-3.35339451 1.68722379 4.67831326
-3.49740887 1.77836728 4.63256550
-3.61693525 1.85618711 4.55021954
-3.73541832 2.05000210 4.46674538
-3.87494278 2.13678932 4.39681292
-4.05400229 2.24770045 4.33660078
-3.65788960 1.95502412 4.55627489
-4.06462002 2.38357234 4.14470291
-4.09163141 2.53103304 4.09865189
-4.15038776 2.66783929 4.10120010
-4.23192120 2.77377510 3.96924782
-4.09854841 2.36291933 4.30623960
-4.26321602 2.90407729 3.95828986
-4.88164806 3.16510630 3.68365788
-4.82216358 3.21399713 3.77913356
-4.46138763 3.09635115 3.95006227
-4.61845875 3.17425585 3.96218467
-4.74672222 3.25891948 3.87288594
-4.30238676 3.02810574 3.95765853
-4.92625475 3.27571368 3.65111256
-4.96753740 3.39334750 3.60441828
-5.08259773 3.42736101 3.44226265
-5.19064522 3.44784427 3.27492547
-5.26062584 3.46638608 3.09811115
-5.31865406 3.47491693 2.92538595
-5.43787718 3.47233200 2.79763222
-5.54321861 3.46625280 2.67127371
-5.63746834 3.47938228 2.49683785
-5.60390377 3.46738100 2.56851721
-5.75433731 3.46523309 2.24625659
-5.68657780 3.52530003 2.40257549
-5.84889126 3.57721210 2.05241704
-5.80576468 3.52315211 2.14875436
-5.93333626 3.62761974 1.82753742
-5.98506641 3.63579845 1.66078258
-5.88768530 3.63263130 1.96543586
-6.02410364 3.61617661 1.46964920
-5.99871778 3.62996149 1.29288340
-5.88893557 3.65436459 1.14973068
-6.03188181 3.70168972 1.02883279
-6.12076855 3.75459695 0.93335718
-6.10992002 3.61474466 0.71558821
-6.14441872 3.65313864 0.61886269
-6.10728693 3.57633853 0.45958292
-6.08645153 3.48212481 0.29194233
-6.15213633 3.38646698 0.12658307
-6.13375282 3.26992559 -0.05439356
-6.08305407 3.16496062 -0.19913596
-6.07794523 3.17307878 -0.60132784
-6.07790899 3.17272687 -0.60136414
-6.06298304 3.17504454 -0.46656004
-6.06061649 3.03789854 -0.75075418
-6.05668497 2.91926980 -0.89952534
-6.04070377 2.93208408 -1.02294719
-6.00631428 2.93093133 -1.13539934
-5.98204470 2.92881966 -1.24043691
-5.99040556 3.03885722 -1.35690570
-5.96067572 3.19107461 -1.61237693
-5.99059963 3.19464231 -1.47489107
-5.89866734 3.02395558 -1.76276219
-5.83756971 2.90834856 -1.78845119
-5.76904488 2.89165139 -1.86324954
-5.74731159 2.85512590 -1.97224307
-5.69736481 2.71072340 -2.04437160
-5.65792751 2.68289828 -2.15869236
-5.61084509 2.51086497 -2.36586761
-5.64512539 2.65359330 -2.27562213
-5.49717903 2.59875655 -2.62213993
-5.44963551 2.55650353 -2.76022077
-5.11081123 2.12574673 -2.90720797
-5.32688141 2.43728042 -2.74059868
-5.20700264 2.35321140 -2.72390151
-5.07831478 2.18285251 -2.81538486
-5.40472555 2.52909160 -2.78132272
-5.10277796 2.17240453 -3.04098082
-5.05428791 2.17015982 -3.24473405
-4.90442467 2.08918500 -3.45916581
-4.97094727 2.17367864 -3.39982724
-4.83158016 2.00534654 -3.50527763
-4.80274820 1.85022891 -3.45778251
-4.66724014 1.84674633 -3.55280924
-4.52231550 1.72282696 -3.74912429
-4.57968855 1.81723475 -3.70352197
-4.50792408 1.56916559 -3.70967436
-4.40056849 1.33945608 -3.74015641
-4.44399834 1.44824350 -3.74167347
-4.28794622 1.11375105 -3.73920989
-4.14199066 1.03622246 -3.82331538
-3.93715763 0.82524902 -3.88652492
-4.00092506 0.94387764 -3.91046667
-4.34922647 1.22509885 -3.74274135
-3.87892294 0.71026081 -3.86020494
-3.71108818 0.62244213 -3.88707113
-3.54161549 0.54706150 -3.88974071
-3.36596584 0.47482377 -3.87587070
-3.24847794 0.35340419 -3.95347214
-3.15953064 0.21861218 -4.03354883
-3.00484991 0.13533184 -4.07645702
-2.84246373 0.06547252 -4.10019207
-2.67180157 0.00325801 -4.10678148
-2.48260975 -0.09290931 -4.13484907
-2.34933448 -0.25550181 -4.11931658
-2.19877958 -0.34511650 -4.08259726
-2.15987587 -0.43542275 -4.00900030
-2.01681995 -0.53140807 -3.99282479
-1.98849785 -0.63611823 -3.93505192
-1.88179755 -0.63096094 -3.98508310
-1.75571823 -0.74268490 -3.98868680
-1.69358873 -0.77645576 -4.14369535
-1.74138725 -0.78058159 -4.25594091
-1.79082394 -0.77411371 -4.36167049
-1.78791153 -0.80358893 -4.63289261
-1.73468876 -0.77249980 -4.52756357
-1.84049106 -0.85422689 -4.72111177
-1.90145564 -0.81743455 -4.81456089
-2.15406322 -0.79907483 -4.95688868
-2.22667718 -0.79863799 -5.05889273
-1.96922779 -0.79215807 -4.91911316
-2.30129313 -0.80783606 -5.16087246
-2.47968507 -0.83794212 -5.18853998
-2.55060029 -0.81077260 -5.28644180
-6.06713343 3.17415881 -0.32993564
-2.62635708 -0.79834670 -5.38800955
-2.70341229 -0.78965825 -5.49077845
-2.78452039 -0.78161293 -5.59437180
-2.78421736 -0.80290937 -5.77546978
-2.88161016 -0.83364654 -5.86769342
-2.80227375 -0.81264132 -5.95528173
-2.82750154 -0.75909108 -6.12719345
-2.84117723 -0.77226925 -6.30747843
-2.83748841 -0.78670961 -6.49685192
-2.91993141 -0.78837198 -6.72498417
-2.96038842 -0.72266269 -6.71844387
-2.93751454 -0.76326537 -6.79884768
-2.90802741 -0.80548185 -6.88226175
-2.84935594 -0.70128143 -6.94066620
-2.82588768 -0.61467618 -7.04971981
-2.90676522 -0.53762102 -7.18300772
-2.97741342 -0.47522449 -7.32743454
-3.04374146 -0.38349840 -7.45314932
-3.15976119 -0.38005224 -7.49704075
-3.27250457 -0.38661709 -7.54821253
-3.21618748 -0.33337015 -7.64583683
-3.27056313 -0.28737962 -7.79214478
-3.23026371 -0.17671140 -7.83149672
-3.28086543 -0.06792399 -7.92671728
-3.31481814 0.05616526 -8.02229023
-3.24469185 0.13920285 -8.11567879
-3.14242077 0.04708852 -8.25258350
-3.11721706 0.11126879 -8.34385967
-3.12406111 0.22409704 -8.34268188
-3.00802898 0.34612337 -8.29324627
-1.27461457 -0.49044132 -9.57639027
-1.24899828 -0.59009135 -9.49022198
-1.55232882 -0.09441397 -9.81927776
-1.54111648 -0.15622802 -9.71366978
-1.41282856 -0.22352703 -9.61029434
-1.27744198 -0.35668081 -9.58442402
-2.57510018 0.33242333 -8.27074718
-2.42179084 0.36268720 -8.40433884
-2.30688739 0.37036845 -8.55404472
-2.19509077 0.38908014 -8.69576454
-2.09160614 0.42070311 -8.83653831
-2.11432242 0.48272344 -8.92653084
-2.14491367 0.52530402 -9.02108479
-2.08012676 0.53581268 -9.18230534
-2.02121305 0.53093457 -9.35220337
-1.96106124 0.49751562 -9.52376366
-1.89009774 0.41912562 -9.67999649
-1.79331148 0.29463595 -9.78741360
-1.68093216 0.15807228 -9.84928703
-1.67414892 0.02605908 -9.83731079
-1.56141782 0.02249150 -9.87413883
-2.75289750 0.23518816 -8.24798393
-2.88455868 0.24023615 -8.26658535
-1.09408700 -0.67167282 -9.42754650
-0.93617845 -0.73252815 -9.35637665
-0.76634145 -0.77963507 -9.28746414
-0.60115212 -0.80128336 -9.18844509
-0.45789009 -0.86997765 -9.10116100
-0.34029293 -0.86093742 -9.11048031
-0.22251371 -0.84897262 -9.11157227
0.01356645 -0.73323202 -9.19577408
-0.10695516 -0.74409258 -9.19507027
0.24851808 -0.76877451 -9.04875088
0.13191599 -0.70676631 -9.17601967
0.48771688 -0.63798696 -9.08901405
0.36929458 -0.66189218 -9.12325764
1.33503294 -0.95426518 -7.75495195
1.18674719 -0.95399827 -7.65496159
1.27744174 -0.98804814 -7.50960016
0.71439272 -0.65888286 -8.90567017
0.81945479 -0.66528988 -8.74841690
0.84308088 -0.60256582 -8.48288631
0.98021495 -0.65264565 -8.37460995
1.14170325 -0.73244321 -8.34982967
1.24807584 -0.71179008 -8.19878864
1.35118425 -0.70635378 -8.03929138
1.47137821 -0.85331678 -7.82192230
1.46186459 -0.74685925 -7.89297199
0.60053301 -0.60705566 -9.04428482
1.37362134 -1.02485263 -7.36368084
1.47941136 -1.11428523 -7.25728416
1.59405971 -1.09721172 -7.22604942
1.70901155 -1.07888830 -7.19471741
1.80258214 -1.09398389 -7.05239010
1.94563782 -1.13146794 -6.91978168
2.03075051 -1.23085093 -6.75198364
2.10466266 -1.31573296 -6.60559130
2.18191218 -1.34189546 -6.44563150
2.26200104 -1.37686765 -6.29631424
2.41637826 -1.35166383 -6.36354065
2.53851390 -1.37294805 -6.32123947
2.73427057 -1.49526548 -6.14073563
2.80738211 -1.50201249 -5.96528006
2.93746591 -1.60196590 -5.81005383
3.02445936 -1.62709677 -5.56465387
3.00312662 -1.66990793 -5.34670305
2.99568796 -1.63754463 -5.15806913
2.97501063 -1.69287872 -4.98883915
2.96285152 -1.65267670 -4.83315134
2.94842339 -1.66020024 -4.71826029
3.07442999 -1.67825663 -4.61746979
3.12492228 -1.69994116 -4.41502666
2.65608692 -1.41204607 -6.28550243
3.16331649 -1.72813010 -4.24965525
3.19699025 -1.73418522 -4.09507179
3.23817539 -1.72099483 -3.95342350
3.11731386 -1.66018796 -3.69761229
3.23903704 -1.58977044 -3.74863863
3.28746629 -1.64190102 -3.83750105
3.32470775 -1.78358567 -2.53083873
3.28900743 -1.89796710 -2.50183678
3.19381070 -1.72720766 -3.57836509
3.24838066 -1.78328216 -3.43955636
3.28588891 -1.78718948 -3.29827237
3.36748242 -1.78693473 -3.24131179
3.47211981 -1.78978646 -3.17315149
3.47147655 -1.78026056 -2.98030734
3.44077587 -1.75699842 -2.78603125
3.33247375 -1.74574971 -2.70447397
3.41841173 -1.74022841 -2.60428977
3.38902140 -2.13307643 -2.40539050
3.37543058 -2.01338005 -2.40320635
2.60031581 -4.06234455 -3.84247613
2.51321316 -4.17099857 -3.98718238
2.42322230 -4.29275846 -4.11817598
2.32086635 -4.43091106 -4.21939135
2.24617743 -4.50704432 -4.38709259
2.14344525 -4.64255238 -4.47253275
2.04357696 -4.74687386 -4.57405186
1.95579457 -4.77435875 -4.73174191
1.85534370 -4.86024857 -4.86482286
1.74554920 -4.97211790 -4.96870804
1.62777007 -5.09397459 -5.05200005
1.50080478 -5.22471380 -5.10744381
1.36098909 -5.35622931 -5.11869287
1.21517873 -5.48289108 -5.10143709
1.05572903 -5.52835941 -5.00138664
0.89983481 -5.55585670 -4.89359426
0.74431676 -5.56363535 -4.78466129
0.58685720 -5.52575064 -4.68616438
0.43638721 -5.42721748 -4.62064886
0.29038277 -5.32348919 -4.55025530
0.15596694 -5.32762766 -4.54400635
0.02050748 -5.21450853 -4.47514200
-0.24083708 -5.09141397 -4.41505098
-0.23723307 -5.20972681 -4.46722984
-0.11258566 -5.09415627 -4.41939497
-0.10917581 -5.21004248 -4.47595501
-0.36851817 -5.09016418 -4.40511274
-0.36421037 -5.21055269 -4.45298433
-0.49092066 -5.20848894 -4.44297314
-0.49561679 -5.08983612 -4.39085436
-0.49092066 -5.20848894 -4.44297314
-0.49880821 -4.97671700 -4.32696533
-0.62652576 -4.87078142 -4.23270321
3.11396480 -2.49229932 -2.68761873
3.21437907 -2.54364133 -2.67168593
3.13117170 -2.64693165 -2.75198102
3.18490410 -2.75619197 -2.69220567
3.18041420 -2.94974041 -2.69869781
3.12322354 -3.34442067 -2.81605220
3.09094524 -3.44627929 -2.88151884
3.05631304 -3.54531050 -2.94650006
3.03767395 -3.63374782 -3.02765679
3.03110909 -3.70445633 -3.11998963
3.01189995 -3.77556586 -3.20222640
2.99387980 -3.83123994 -3.28138065
2.88616037 -3.84906578 -3.37065578
2.82845998 -4.04005289 -3.45568323
2.79231095 -4.01128197 -3.61667395
2.94981909 -3.96375036 -3.35559654
2.92261291 -4.05035543 -3.36967254
2.71095991 -4.08049870 -3.77131844
3.18845940 -3.13895631 -2.67896676
3.14710450 -3.24410343 -2.74150896
3.33548331 -2.38109708 -2.48030996
3.29537797 -2.51228523 -2.56379676
3.41008735 -2.25271225 -2.40938282
-3.52523351 -0.75970984 -0.84871751
-3.54251313 -0.77882200 -0.72587812
-0.62475407 -4.76465082 -4.15819597
-0.49962124 -4.65309715 -4.11199951
-0.50100458 -4.54036617 -4.04933596
-0.62340713 -4.43057156 -3.96473312
-0.74468106 -4.31679678 -3.88703465
-0.86391646 -4.20264626 -3.81187248
-0.97835857 -4.10158825 -3.72299814
-1.09880745 -4.01573515 -3.64631891
-1.14673936 -3.76134419 -3.52532411
-1.26568353 -3.63088417 -3.44286919
-1.38051403 -3.50838447 -3.37006092
-1.49731028 -3.38706207 -3.30606246
-1.49856007 -3.26041245 -3.29236245
-1.49945807 -3.13410234 -3.27326274
-1.61985838 -3.01309562 -3.21044159
-1.73735845 -2.89381146 -3.13702679
-1.85939693 -2.77595949 -3.06675458
-1.97375405 -2.66172361 -2.98022246
-2.08916712 -2.55145597 -2.89310741
-2.19799089 -2.44589639 -2.79679441
-2.21562266 -2.32094550 -2.78393173
-2.23387313 -2.19564271 -2.76921225
-2.33516145 -2.09854102 -2.66206312
-2.44316006 -2.00361156 -2.56241322
-2.54437518 -1.90942204 -2.45614982
-2.64090681 -1.81456530 -2.34560275
-2.74482799 -1.71832538 -2.24209428
-2.84406543 -1.62071383 -2.13371921
-2.94008732 -1.52222884 -2.02121878
-3.03150988 -1.42384076 -1.90317249
-3.11961985 -1.32658148 -1.78113413
-3.20530248 -1.23105717 -1.65663218
-3.28611946 -1.13594556 -1.52861130
-3.34400225 -1.03945065 -1.38936591
-3.39925122 -0.94147521 -1.24945307
-3.46070123 -0.84169173 -1.11285305
-3.50192285 -0.73944497 -0.97064674
-3.58610106 -0.72155845 -0.21475331
-3.59033608 -0.73710299 -0.09215664
-3.58488750 -0.75268394 0.03024585
-3.56054544 -0.64265877 0.16742837
-3.54603243 -0.53230602 0.30464736
-3.54151821 -0.42332447 0.44255796
-3.53093672 -0.31405166 0.57827222
-3.51069617 -0.20360179 0.71146244
-3.50022388 -0.09650114 0.84939730
-3.46498489 -0.11209420 0.96769834
-3.44297242 -0.13329346 1.08673954
-3.35813880 -0.25830492 1.17361164
-3.30460072 -0.39065787 1.27310395
-3.55766940 -0.79698759 -0.60284466
-3.56713438 -0.68906182 -0.45963109
-3.57446384 -0.70583194 -0.33701017
-3.21277761 -0.40887213 1.49969471
-3.26248121 -0.40028065 1.38797081
-3.06896949 -0.30143157 1.71037710
-3.13822222 -0.29424793 1.60834873
-3.01271319 -0.43280169 1.80984509
-2.95451522 -0.56472993 1.90780830
-2.80045319 -0.45329711 2.11527491
-2.87470555 -0.44659880 2.01597667
-2.73565435 -0.58539522 2.20897889
-2.66569781 -0.71800303 2.29945493
-2.58708930 -0.85084134 2.38322067
-2.50518012 -0.98337632 2.46522689
-2.42478800 -1.11575353 2.54985404
-2.34442019 -1.24809432 2.63507605
-2.25793600 -1.38021672 2.71450949
-2.16589451 -1.51199937 2.78831267
-2.07418084 -1.64380610 2.86198235
-1.97889912 -1.77540684 2.93118644
-1.89001274 -1.90769899 3.00667620
-1.79917252 -2.03979707 3.07859850
-1.69886732 -2.17079091 3.13690567
-1.59431493 -2.30100822 3.18574786
-1.49176466 -2.43120122 3.24096060
-1.38167894 -2.56234050 3.28446341
-1.26681209 -2.69426894 3.32367039
-1.15219998 -2.82452250 3.37506080
-1.03349853 -2.95628095 3.41565132
-0.91399628 -3.08897352 3.45194602
-0.79622918 -3.22139955 3.49275494
0.69291437 -4.89229584 4.39311171
0.81595999 -5.01292706 4.42858124
0.94754845 -5.11585331 4.47932863
1.06225741 -5.14308405 4.43048668
0.57534134 -4.75950623 4.37065077
1.17325342 -5.17851686 4.37459469
1.30972004 -5.28050900 4.42407990
1.45102835 -5.35620451 4.49538326
1.57730174 -5.43764067 4.56381035
1.69670713 -5.53651381 4.71730185
1.67948794 -5.50989056 4.62829399
1.78883350 -5.53407526 4.67745161
1.93309069 -5.53623533 4.70878363
2.10045218 -5.52488947 4.74846363
2.27710867 -5.51701355 4.79535198
2.43288159 -5.41496038 4.80235386
2.57501507 -5.29498577 4.78170061
2.69658041 -5.16073990 4.72685194
2.76997089 -4.89572954 4.59794521
2.79909396 -5.02355719 4.64181185
2.82744074 -4.79333782 4.44348288
2.86980295 -4.73654747 4.27208042
2.92415428 -4.67225790 4.13607502
3.03763771 -4.55149317 4.10886908
3.06739187 -4.42267132 3.99829745
-0.68104684 -3.35212612 3.54250717
-0.56773317 -3.48119068 3.59820557
-0.45497775 -3.60928440 3.65639138
-0.34252569 -3.73354316 3.72394490
-0.23196663 -3.84623837 3.81147242
-0.12205072 -3.95177317 3.90638995
-0.00976852 -4.05877733 3.99583435
0.10560797 -4.17046452 4.07559538
0.22314450 -4.27751684 4.15994406
0.34223422 -4.38624382 4.24171972
0.45913970 -4.51763773 4.27914286
0.57432204 -4.65236950 4.30491686
3.15369368 -4.40192175 3.90870762
3.22998452 -4.36683989 3.81502771
3.43279123 -4.29207897 3.53522635
3.41841173 -4.15795422 3.39241338
3.39550138 -4.00425625 3.26201415
3.36796784 -3.87511873 3.11756277
3.59808969 -3.78264046 2.81360126
3.51411772 -3.93716311 3.04064131
3.58338261 -3.89312649 2.94220471
3.61992025 -3.72727013 2.69862533
3.59324837 -3.72779179 2.62305021
3.48250699 -3.57858372 2.53508615
3.45689082 -3.42869592 2.55514479
