1.63870000 3.41130000 1.75440000
1.89920000 3.43880000 1.74670000
2.16270000 3.46340000 1.74130000
2.17970000 3.68330000 1.73780000
1.61410000 3.18340000 1.76390000
1.87720000 3.21880000 1.77690000
2.14250000 3.24750000 1.75710000
2.41090000 3.27310000 1.75710000
2.42990000 3.48480000 1.74670000
1.85500000 2.99860000 1.74770000
2.12040000 3.03530000 1.77870000
2.38970000 3.06520000 1.77120000
2.65590000 3.09100000 1.74640000
2.67800000 3.29660000 1.73960000
2.09780000 2.82750000 1.79230000
2.36620000 2.86150000 1.78400000
2.62990000 2.88910000 1.75860000
2.88910000 2.91330000 1.70550000
2.92090000 3.11680000 1.68970000
2.34100000 2.66480000 1.79450000
2.60600000 2.69300000 1.78630000
2.85570000 2.70980000 1.72390000
3.09200000 2.72880000 1.66110000
2.57850000 2.50490000 1.80660000
2.82610000 2.51420000 1.74380000
3.05460000 2.51720000 1.67780000
3.26380000 2.52230000 1.63670000
3.31650000 2.74850000 1.60540000
2.79710000 2.32630000 1.75990000
3.02750000 2.31790000 1.69650000
2.77140000 2.15330000 1.78060000
3.00480000 2.13160000 1.71430000
2.74490000 1.99250000 1.79850000
2.97970000 1.96380000 1.72840000
2.71410000 1.85530000 1.80580000
2.95190000 1.81350000 1.74750000
3.15310000 1.76340000 1.67520000
3.34040000 1.73770000 1.60050000
3.48950000 1.53080000 1.52940000
3.53390000 1.71160000 1.50260000
3.68740000 1.51100000 1.41550000
3.72830000 1.68820000 1.37820000
3.77580000 1.85860000 1.34130000
3.91820000 1.67320000 1.23660000
3.95000000 1.83890000 1.19610000
3.98200000 2.01440000 1.15320000
3.82970000 2.02700000 1.28310000
4.01510000 2.16760000 1.11530000
3.89820000 2.17730000 1.22280000
4.04790000 2.30030000 1.09240000
3.94740000 2.31660000 1.18020000
3.86210000 2.37190000 1.24740000
3.99730000 2.43600000 1.13350000
3.92810000 2.47960000 1.19600000
3.88690000 2.54790000 1.24530000
3.79340000 2.45380000 1.30280000
3.87050000 2.63190000 1.28110000
3.76350000 2.56430000 1.34930000
3.86800000 2.71850000 1.30160000
3.75550000 2.67850000 1.36050000
3.62070000 2.62250000 1.44610000
3.76600000 2.80420000 1.33910000
3.65400000 2.78770000 1.42790000
3.49920000 2.76700000 1.51360000
3.45510000 2.56580000 1.54240000
3.72320000 2.94470000 1.37950000
3.81780000 2.92430000 1.28640000
3.90470000 3.02850000 1.25630000
3.81210000 3.08000000 1.28630000
4.01740000 3.08300000 1.19710000
3.95310000 3.15040000 1.19890000
4.12660000 3.08800000 1.11260000
4.09210000 3.16580000 1.09810000
4.06900000 3.27860000 1.10130000
4.20050000 3.12220000 0.97280000
4.22770000 3.22420000 0.95880000
4.05010000 3.45900000 1.11450000
4.01600000 3.57810000 1.13280000
3.99360000 3.78620000 1.14910000
3.73230000 3.72390000 1.33500000
3.47520000 3.63370000 1.48180000
3.98460000 3.96220000 1.15430000
3.72740000 3.91360000 1.34060000
3.47080000 3.84460000 1.48480000
3.21990000 3.78610000 1.59220000
3.21970000 3.56170000 1.58980000
3.72850000 4.11070000 1.34050000
3.46860000 4.06160000 1.48110000
3.22370000 4.01880000 1.58920000
2.98250000 3.98440000 1.66760000
2.97140000 3.75290000 1.67210000
3.47070000 4.29850000 1.47270000
3.22780000 4.27000000 1.58190000
2.99240000 4.23620000 1.66740000
3.22500000 4.59900000 1.56650000
2.97850000 4.56820000 1.65180000
2.72720000 4.54470000 1.72490000
2.74400000 4.20120000 1.73230000
2.73110000 3.94850000 1.72710000
2.46700000 4.18310000 1.74150000
2.46070000 3.91940000 1.73830000
2.44690000 3.69780000 1.73490000
2.71250000 3.72320000 1.72380000
2.69780000 3.50690000 1.73850000
2.95940000 3.53120000 1.67530000
2.94590000 3.31980000 1.68550000
2.18920000 3.90690000 1.74740000
2.19110000 4.17130000 1.74560000
1.94020000 4.16040000 1.75300000
2.19670000 4.50550000 1.75050000
1.94540000 4.49520000 1.75170000
1.69670000 4.49410000 1.73870000
1.94590000 4.84100000 1.76910000
1.70130000 4.83510000 1.74480000
1.44740000 4.84010000 1.71080000
1.71400000 5.10250000 1.78530000
1.46950000 5.10730000 1.75580000
1.71790000 5.33400000 1.87090000
1.51730000 5.33870000 1.83640000
1.71530000 5.56170000 1.97100000
1.56210000 5.57390000 1.95070000
1.70300000 5.69390000 2.11450000
1.57190000 5.72040000 2.11210000
1.69100000 5.72100000 2.27190000
1.56390000 5.71930000 2.27150000
1.67920000 5.64860000 2.40950000
1.55970000 5.62970000 2.40360000
1.46410000 5.63680000 2.41380000
1.56320000 5.51900000 2.53950000
1.46620000 5.52300000 2.55060000
1.38950000 5.55870000 2.58070000
1.38840000 5.66770000 2.43840000
1.34350000 5.61540000 2.62650000
1.34910000 5.71690000 2.47800000
1.34840000 5.68480000 2.67910000
1.34680000 5.77680000 2.52160000
1.39340000 5.74600000 2.72770000
1.38530000 5.83530000 2.56540000
1.46680000 5.79870000 2.77450000
1.45510000 5.88990000 2.61820000
1.44480000 5.96300000 2.48470000
1.56130000 5.93220000 2.66590000
1.55320000 6.01440000 2.55250000
1.55310000 6.08430000 2.47140000
1.44410000 6.03530000 2.38900000
1.54690000 6.15370000 2.42640000
1.71980000 6.11410000 2.53930000
1.71770000 6.18480000 2.49880000
1.69860000 6.26310000 2.49810000
1.91130000 6.20670000 2.53920000
1.90480000 6.28940000 2.55040000
1.88990000 6.35510000 2.59620000
1.66540000 6.33130000 2.53250000
1.86960000 6.41040000 2.65780000
1.63050000 6.38700000 2.58780000
1.84670000 6.46620000 2.72830000
1.59230000 6.44080000 2.65510000
1.32980000 6.42800000 2.58860000
1.06080000 6.42860000 2.51070000
1.55070000 6.50040000 2.73250000
1.28010000 6.49030000 2.66350000
0.99450000 6.50850000 2.58560000
1.25240000 6.56460000 2.71200000
0.96730000 6.58060000 2.62680000
0.68410000 6.60320000 2.52300000
0.39930000 6.63710000 2.39940000
0.95300000 6.65620000 2.65330000
0.66890000 6.68280000 2.54910000
0.38030000 6.72150000 2.43220000
0.06890000 6.79320000 2.26960000
0.07110000 6.71220000 2.21740000
0.65770000 6.76330000 2.56860000
0.37050000 6.80450000 2.45840000
0.08520000 6.87330000 2.30070000
0.37160000 6.88700000 2.47510000
0.10380000 6.94800000 2.32290000
-0.12980000 7.07340000 2.18970000
-0.29530000 7.26010000 2.07810000
0.12880000 7.01770000 2.34240000
-0.07490000 7.13820000 2.23520000
-0.23270000 7.29400000 2.12990000
-0.32820000 7.50580000 2.07350000
-0.39960000 7.49820000 2.01320000
-0.01280000 7.19800000 2.26350000
-0.15020000 7.33980000 2.18440000
-0.24590000 7.52050000 2.13340000
-0.29810000 7.75640000 2.12700000
-0.38560000 7.75050000 2.05170000
-0.08030000 7.35970000 2.19410000
-0.16190000 7.53330000 2.17910000
-0.20430000 7.75940000 2.17740000
-0.22870000 8.00810000 2.17580000
-0.31190000 8.01200000 2.10430000
-0.07390000 7.53650000 2.16610000
-0.10530000 7.75860000 2.18390000
-0.12770000 8.00340000 2.19760000
-0.14180000 8.24700000 2.19100000
-0.23660000 8.25440000 2.16330000
-0.03140000 7.75600000 2.11980000
-0.04450000 8.00150000 2.13900000
-0.05400000 8.24090000 2.14740000
-0.05990000 8.43900000 2.16080000
-0.14830000 8.43730000 2.20750000
0.01130000 7.99800000 2.05310000
0.00750000 8.24060000 2.06730000
0.00340000 8.44540000 2.07810000
-0.01590000 8.61460000 2.09790000
-0.07520000 8.59430000 2.17970000
0.04880000 8.23980000 1.97230000
0.05000000 8.45270000 1.98560000
0.03910000 8.63530000 1.99590000
0.04570000 8.77220000 2.00780000
-0.01580000 8.73870000 2.12490000
0.07310000 8.46040000 1.87210000
0.07310000 8.64800000 1.87010000
0.07980000 8.79040000 1.86940000
0.12430000 8.88880000 1.85950000
0.08540000 8.85780000 2.01350000
0.07210000 8.64610000 1.73110000
0.07540000 8.78620000 1.71840000
0.11080000 8.87620000 1.68610000
0.21180000 8.87980000 1.63780000
0.22900000 8.94580000 1.82920000
-0.00020000 8.75450000 1.55900000
0.05300000 8.82980000 1.50040000
0.16220000 8.83230000 1.43740000
0.26650000 8.83770000 1.37110000
0.32600000 8.87170000 1.59140000
-0.03080000 8.79650000 1.34150000
0.05000000 8.82350000 1.25570000
0.12830000 8.84160000 1.16970000
0.19870000 8.86510000 1.08610000
0.36300000 8.85220000 1.30520000
-0.14140000 8.84560000 1.13280000
-0.08430000 8.87400000 1.03680000
-0.03500000 8.90650000 0.94160000
-0.00100000 8.94950000 0.85460000
0.26290000 8.89860000 1.00530000
-0.31470000 8.90980000 0.96200000
-0.28410000 8.94880000 0.87290000
-0.27310000 8.99720000 0.78970000
-0.26010000 9.05890000 0.72090000
0.02990000 9.00710000 0.78130000
-0.52750000 8.99870000 0.84780000
-0.52480000 9.04610000 0.78890000
-0.52760000 9.10370000 0.73480000
-0.52260000 9.17290000 0.70190000
-0.24610000 9.13540000 0.67760000
-0.74860000 9.09630000 0.83770000
-0.75350000 9.14860000 0.79410000
-0.75080000 9.21280000 0.76880000
-0.73650000 9.27760000 0.78040000
-0.51090000 9.24670000 0.70860000
-0.93600000 9.19940000 0.88510000
-0.93170000 9.26100000 0.87230000
-0.91180000 9.31960000 0.88710000
-0.88440000 9.36480000 0.92020000
-0.71890000 9.33080000 0.80960000
-1.08720000 9.30880000 1.00860000
-1.04930000 9.35340000 1.03780000
-1.00380000 9.38640000 1.07580000
-0.96510000 9.43710000 1.10570000
-0.85250000 9.40780000 0.95280000
-1.17870000 9.37720000 1.23490000
-1.12540000 9.40640000 1.26930000
-1.08260000 9.46940000 1.28870000
-1.00590000 9.53590000 1.31650000
-0.91370000 9.50210000 1.13300000
-1.21830000 9.42520000 1.51110000
-1.14360000 9.49160000 1.52560000
-1.06500000 9.55990000 1.54130000
-0.95480000 9.64660000 1.55350000
-0.89530000 9.62280000 1.34170000
-1.14990000 9.48230000 1.80880000
-1.06740000 9.55650000 1.80030000
-0.96470000 9.64160000 1.79320000
-0.82780000 9.74060000 1.77740000
-0.80290000 9.74040000 1.56820000
-1.00600000 9.52280000 2.07500000
-0.91160000 9.61050000 2.04050000
-0.79730000 9.71370000 1.99020000
-0.64560000 9.83110000 1.94270000
-0.65130000 9.85400000 1.75560000
-0.79660000 9.55610000 2.27660000
-0.70700000 9.66280000 2.21250000
-0.56380000 9.79490000 2.12970000
-0.51730000 9.60440000 2.36740000
-0.59920000 9.47980000 2.46960000
-0.31620000 9.41200000 2.54700000
-0.29380000 9.52390000 2.46160000
-0.02790000 9.38910000 2.49910000
-0.02960000 9.51000000 2.42590000
0.20940000 9.40400000 2.37960000
0.17790000 9.52280000 2.30860000
0.13250000 9.65830000 2.21100000
0.06830000 9.81570000 2.08930000
0.32340000 9.51340000 2.13240000
0.38150000 9.40020000 2.19470000
0.50070000 9.39310000 1.96260000
0.43290000 9.50150000 1.92800000
0.56150000 9.38860000 1.70760000
0.47980000 9.50650000 1.70400000
0.53710000 9.39370000 1.46320000
0.44800000 9.51890000 1.49470000
0.31680000 9.67180000 1.54450000
0.17840000 9.83820000 1.60430000
0.32260000 9.52330000 1.31820000
0.18500000 9.67390000 1.41280000
0.07930000 9.86720000 1.48600000
-0.05560000 9.90450000 1.60000000
0.02220000 9.87010000 1.69700000
0.05010000 9.72940000 1.25410000
-0.05670000 9.88500000 1.38040000
-0.17170000 9.92000000 1.53710000
-0.24640000 9.86850000 1.29690000
-0.33360000 9.89650000 1.48080000
-0.39130000 9.90600000 1.61330000
-0.54020000 9.82410000 1.41970000
-0.60820000 9.84840000 1.58500000
-0.43790000 9.91530000 1.73620000
-0.73260000 9.71370000 1.37740000
-0.45610000 9.77780000 1.24420000
-0.65510000 9.68060000 1.19660000
-0.80350000 9.57420000 1.16910000
-0.36960000 9.70710000 1.07850000
-0.14590000 9.75350000 1.14220000
-0.04630000 9.60210000 1.01610000
-0.29040000 9.59520000 0.94990000
0.00790000 9.43030000 0.95120000
-0.24220000 9.44410000 0.88350000
0.05270000 9.34630000 0.85550000
-0.22480000 9.37360000 0.78920000
-0.47890000 9.37070000 0.79010000
-0.22640000 9.29800000 0.73120000
-0.49350000 9.31360000 0.74550000
-0.68530000 9.39700000 0.85040000
-0.23380000 9.22050000 0.68770000
0.06360000 9.26030000 0.79890000
0.06710000 9.17610000 0.74830000
0.05710000 9.08410000 0.73430000
0.36410000 9.11960000 0.89800000
0.35940000 9.02350000 0.88890000
0.31720000 8.94850000 0.93450000
0.59440000 8.98900000 1.15220000
0.53370000 8.91680000 1.18920000
0.45100000 8.87570000 1.24440000
0.63790000 8.92650000 1.48470000
0.54540000 8.89270000 1.51630000
0.44140000 8.87610000 1.55270000
0.56180000 8.93070000 1.78730000
0.45640000 8.93120000 1.78870000
0.32400000 8.94340000 1.80340000
0.39770000 8.96510000 2.02950000
0.27360000 8.96930000 2.02140000
0.16310000 8.92250000 2.02300000
0.20010000 8.93540000 2.22960000
0.28060000 8.95880000 2.25280000
0.13570000 8.90760000 2.46470000
0.05240000 8.88550000 2.42960000
-0.04800000 8.95470000 2.63700000
-0.11240000 8.95570000 2.57640000
-0.20420000 8.97250000 2.51140000
-0.42250000 8.97890000 2.61340000
-0.45270000 8.98300000 2.60380000
-0.45990000 9.00220000 2.49750000
-0.25950000 8.98210000 2.45680000
-0.68640000 9.03110000 2.46150000
-0.65130000 9.03350000 2.37000000
-0.60590000 9.03160000 2.28110000
-0.83870000 9.06180000 2.22190000
-0.75720000 9.05500000 2.14370000
-0.68150000 9.04710000 2.05430000
-0.55110000 9.02620000 2.19680000
-0.60740000 9.01560000 1.96730000
-0.48200000 9.00470000 2.10190000
-0.57000000 8.92160000 1.90500000
-0.44260000 8.91500000 2.04210000
-0.34180000 8.90000000 2.13680000
-0.44570000 8.79860000 2.01380000
-0.34740000 8.78640000 2.11060000
-0.27250000 8.75570000 2.17330000
-0.25760000 8.87280000 2.21060000
-0.20830000 8.72050000 2.22160000
-0.18970000 8.82670000 2.25500000
-0.14480000 8.69350000 2.25010000
-0.22850000 8.61110000 2.19000000
-0.15010000 8.59040000 2.22090000
-0.07770000 8.70460000 2.21600000
-0.23700000 8.45250000 2.17280000
-0.29470000 8.63130000 2.13870000
-0.31050000 8.47170000 2.11020000
-0.32070000 8.26220000 2.09730000
-0.38480000 8.48620000 2.03960000
-0.40650000 8.27090000 2.02500000
-0.39580000 8.01530000 2.02490000
-0.50340000 8.27560000 1.94520000
-0.48930000 8.01600000 1.93760000
-0.47310000 7.74620000 1.96460000
-0.58800000 8.01490000 1.83940000
-0.56310000 7.74650000 1.86850000
-0.68920000 8.01340000 1.73310000
-0.66470000 7.75860000 1.75600000
-0.79460000 8.01760000 1.61690000
-0.79360000 7.78240000 1.61470000
-0.78600000 7.55690000 1.60860000
-0.93970000 7.81520000 1.44580000
-0.96530000 7.62450000 1.40780000
-1.00760000 7.43810000 1.37040000
-1.12050000 7.65120000 1.23680000
-1.14280000 7.49050000 1.17920000
-1.17300000 7.33720000 1.10260000
-1.02500000 7.25050000 1.29700000
-1.16490000 7.11550000 0.99730000
-0.98280000 7.05650000 1.17910000
-0.78800000 6.96060000 1.42470000
-0.53080000 6.87380000 1.71100000
-0.88760000 6.80910000 1.02710000
-0.69790000 6.76460000 1.27310000
-0.46920000 6.70930000 1.55260000
-0.38500000 6.46720000 1.36720000
-0.14510000 6.42230000 1.63020000
-0.20610000 6.62730000 1.82030000
-0.23890000 6.76340000 1.94880000
-0.07550000 6.16890000 1.43160000
0.16930000 6.15080000 1.63950000
-0.30340000 6.16830000 1.19160000
-0.21470000 5.84780000 1.04160000
0.00760000 5.86790000 1.25830000
-0.14470000 5.53900000 0.91940000
-0.35650000 5.49600000 0.67410000
-0.33210000 5.22640000 0.61310000
-0.54410000 5.42660000 0.39450000
-0.52210000 5.19000000 0.33490000
-0.50380000 4.97520000 0.28380000
-0.69500000 5.17660000 0.01760000
-0.66830000 4.98360000 -0.02160000
-0.71050000 4.78350000 -0.02810000
-0.80290000 5.00280000 -0.34860000
-0.84060000 4.80820000 -0.35930000
-0.90480000 4.53710000 -0.37030000
-0.91720000 4.84060000 -0.70540000
-0.98380000 4.57350000 -0.72640000
-1.03220000 4.24410000 -0.75300000
-0.98520000 4.60760000 -1.09030000
-1.03110000 4.27370000 -1.12220000
-1.07620000 3.93180000 -1.15780000
-0.99390000 4.29070000 -1.48580000
-1.03910000 3.94750000 -1.52940000
-1.08380000 3.61530000 -1.57450000
-0.96820000 3.95420000 -1.89380000
-1.01130000 3.62250000 -1.95160000
-1.05050000 3.30080000 -2.00450000
-0.90150000 3.63050000 -2.31840000
-0.93270000 3.29900000 -2.38260000
-0.97310000 2.97800000 -2.43370000
-0.78320000 3.30330000 -2.72770000
-0.75740000 3.65610000 -2.65620000
-0.58690000 3.71950000 -2.93980000
-0.72980000 3.99750000 -2.58580000
-0.56720000 4.05640000 -2.86560000
-0.44390000 4.14110000 -3.11790000
-0.43750000 3.82040000 -3.19240000
-0.26540000 4.19470000 -3.31920000
-0.23800000 3.91000000 -3.40260000
-0.24900000 3.67970000 -3.44140000
-0.01070000 3.97370000 -3.59740000
-0.01470000 3.79120000 -3.63340000
0.25020000 3.99260000 -3.75890000
0.24930000 3.80320000 -3.80160000
0.53880000 3.97450000 -3.89870000
0.54180000 3.76680000 -3.94410000
0.83420000 3.96260000 -4.02600000
0.83250000 3.74160000 -4.06240000
1.15370000 3.97670000 -4.13470000
1.16070000 3.75460000 -4.16900000
1.15070000 3.54320000 -4.19690000
1.12580000 3.34860000 -4.21830000
1.49080000 3.78340000 -4.27510000
1.47180000 3.55950000 -4.30440000
1.46390000 3.35830000 -4.33990000
1.41820000 3.18900000 -4.35060000
1.10340000 3.16320000 -4.24140000
1.61860000 3.57700000 -4.34960000
1.64140000 3.80680000 -4.33300000
1.75430000 3.82640000 -4.39290000
1.73440000 3.60810000 -4.40720000
1.87180000 3.84030000 -4.41340000
1.85810000 3.61980000 -4.44000000
1.99320000 3.83440000 -4.37000000
1.97620000 3.62090000 -4.40500000
1.93820000 3.43050000 -4.42430000
1.97340000 3.25950000 -4.42660000
2.09980000 3.62140000 -4.34580000
2.08110000 3.43190000 -4.36450000
2.15800000 3.25490000 -4.37700000
2.23450000 3.08150000 -4.38110000
2.05800000 3.11180000 -4.49350000
2.40820000 3.42740000 -4.26330000
2.45270000 3.23990000 -4.28580000
2.46940000 3.06080000 -4.30060000
2.47490000 2.87680000 -4.31200000
2.26400000 2.89610000 -4.35720000
2.68170000 2.85840000 -4.27820000
2.65160000 2.66810000 -4.30630000
2.47810000 2.67550000 -4.33040000
2.88820000 2.84280000 -4.24000000
2.83510000 2.67360000 -4.27130000
2.83380000 2.48530000 -4.29010000
2.65990000 2.45910000 -4.32950000
3.07850000 2.82060000 -4.19820000
3.02080000 2.68580000 -4.22640000
3.02740000 2.54650000 -4.23230000
3.21460000 2.69620000 -4.16390000
3.24310000 2.78940000 -4.14290000
3.30910000 2.87710000 -4.08890000
3.42390000 2.96260000 -4.04040000
3.51770000 2.89990000 -4.09030000
3.60120000 2.79950000 -4.12790000
3.56440000 3.01560000 -3.96990000
3.60790000 2.94190000 -4.02690000
3.66790000 2.82640000 -4.07680000
3.71770000 2.70430000 -4.08940000
3.65260000 2.67450000 -4.13850000
3.67950000 2.54870000 -4.12960000
3.58940000 2.53580000 -4.16170000
3.75270000 2.58790000 -4.07600000
3.76430000 2.47130000 -4.02530000
3.67210000 2.43160000 -4.07650000
3.63990000 2.33160000 -3.99910000
3.52980000 2.32320000 -4.03600000
3.57470000 2.42020000 -4.11690000
3.74220000 2.37370000 -3.94680000
3.74960000 2.24730000 -3.90400000
3.63490000 2.19530000 -3.96660000
3.85040000 2.33710000 -3.83220000
3.77260000 2.09050000 -3.88610000
3.93120000 2.47240000 -3.77450000
3.95340000 2.64160000 -3.72090000
4.07540000 2.61210000 -3.65090000
3.91330000 2.80560000 -3.73940000
4.01610000 2.83150000 -3.66060000
4.16500000 2.56670000 -3.54450000
4.30400000 2.57510000 -3.40100000
4.45800000 2.59250000 -3.22190000
4.45440000 2.27750000 -3.24910000
4.44780000 1.98580000 -3.27930000
4.65230000 2.58360000 -2.95200000
4.64670000 2.28300000 -2.98120000
4.64470000 1.99240000 -3.00940000
4.65320000 1.70590000 -3.02720000
4.45380000 1.71080000 -3.30040000
4.81970000 2.28170000 -2.66400000
4.82080000 1.98950000 -2.69380000
4.82330000 1.69950000 -2.71800000
4.82530000 1.41030000 -2.73590000
4.66950000 1.41680000 -3.03420000
4.95370000 1.98610000 -2.36600000
4.94860000 1.69640000 -2.39590000
4.94970000 1.40780000 -2.42270000
4.94560000 1.11920000 -2.44530000
4.82940000 1.12230000 -2.74690000
5.05280000 1.69030000 -2.06390000
5.04610000 1.40160000 -2.09940000
5.04170000 1.11180000 -2.13190000
4.94290000 0.83750000 -2.14700000
4.86790000 0.84350000 -2.44630000
5.11150000 1.38390000 -1.76800000
5.09650000 1.09140000 -1.81000000
4.99120000 0.81820000 -1.83980000
4.91280000 0.53340000 -1.86770000
4.86670000 0.55370000 -2.16060000
5.12480000 1.06190000 -1.49170000
5.00210000 0.78990000 -1.53900000
4.93190000 0.49880000 -1.58810000
4.91470000 0.19140000 -1.65670000
4.88820000 0.23190000 -1.90580000
4.99340000 0.75410000 -1.25850000
4.93340000 0.45630000 -1.34020000
4.92270000 0.14460000 -1.44890000
4.93390000 -0.18730000 -1.58540000
4.92120000 -0.13800000 -1.73830000
4.92300000 0.40730000 -1.11050000
4.91480000 0.09620000 -1.26920000
4.92860000 -0.26400000 -1.47250000
4.96430000 -0.52590000 -1.59640000
4.97220000 -0.48200000 -1.69780000
4.88100000 0.03380000 -1.07820000
4.88530000 0.34550000 -0.88630000
4.81560000 0.28000000 -0.64840000
4.80020000 -0.04320000 -0.85570000
4.70570000 0.21710000 -0.38040000
4.68820000 -0.09910000 -0.58640000
4.64090000 -0.39830000 -0.80900000
4.55570000 -0.65910000 -1.04650000
4.54660000 -0.14800000 -0.27840000
4.50640000 -0.43560000 -0.48450000
4.42640000 -0.68830000 -0.64090000
4.27270000 -0.92240000 -0.70750000
4.35870000 -0.90370000 -0.99310000
4.31730000 -0.47610000 -0.10250000
4.22360000 -0.71770000 -0.24360000
4.10480000 -0.94860000 -0.34520000
3.96440000 -1.17940000 -0.41600000
4.09660000 -1.16160000 -0.72670000
3.99860000 -0.74440000 0.13650000
3.88410000 -0.97330000 0.03260000
3.76290000 -1.20360000 -0.05310000
3.62240000 -1.42550000 -0.13480000
3.81280000 -1.41330000 -0.47590000
3.59680000 -0.96280000 0.35970000
3.48190000 -1.18990000 0.27410000
3.35650000 -1.40990000 0.18670000
3.21490000 -1.61910000 0.09720000
3.46760000 -1.63720000 -0.21720000
3.15400000 -1.15490000 0.54830000
3.04620000 -1.37140000 0.45450000
2.92580000 -1.58010000 0.35950000
2.78610000 -1.76890000 0.25570000
3.06140000 -1.81660000 0.00640000
2.77290000 -1.33050000 0.63690000
2.68310000 -1.52960000 0.51320000
2.55960000 -1.71710000 0.41860000
2.40990000 -1.88610000 0.32530000
2.63660000 -1.94290000 0.14980000
2.48870000 -1.48930000 0.61590000
2.36830000 -1.66560000 0.52630000
2.24540000 -1.80360000 0.43810000
2.09880000 -1.90910000 0.37380000
2.27110000 -2.01420000 0.23080000
2.23340000 -1.63920000 0.59930000
2.11960000 -1.75480000 0.53390000
2.00310000 -1.83990000 0.50510000
2.03130000 -1.75930000 0.62640000
1.96660000 -1.86830000 0.59800000
1.91210000 -1.95140000 0.57970000
1.97330000 -1.92650000 0.65430000
1.92220000 -1.99850000 0.61030000
1.86060000 -2.03920000 0.58040000
1.84860000 -1.98630000 0.55220000
1.78850000 -2.00580000 0.61440000
1.78450000 -1.95340000 0.57130000
1.73070000 -1.91310000 0.68520000
1.73580000 -1.84920000 0.61710000
1.69760000 -1.82380000 0.52090000
1.67470000 -1.71030000 0.67460000
1.58140000 -1.70100000 0.59190000
1.43680000 -1.73840000 0.54160000
1.56960000 -1.87550000 0.43660000
1.25290000 -1.76590000 0.46980000
1.38550000 -1.94430000 0.35730000
1.51780000 -2.09250000 0.22310000
1.64760000 -2.23230000 0.06110000
1.16430000 -1.98070000 0.23900000
1.29810000 -2.14970000 0.09400000
1.43560000 -2.30700000 -0.06940000
1.58220000 -2.45170000 -0.25630000
1.79810000 -2.36240000 -0.11090000
1.03860000 -2.17260000 -0.08940000
1.18380000 -2.33810000 -0.25230000
1.34020000 -2.48620000 -0.43590000
1.51530000 -2.60470000 -0.64600000
1.75380000 -2.54560000 -0.47990000
0.92490000 -2.34880000 -0.46030000
1.08750000 -2.50830000 -0.62630000
1.26990000 -2.62750000 -0.82460000
1.46810000 -2.71620000 -1.04640000
1.71030000 -2.68470000 -0.87570000
0.85560000 -2.48060000 -0.84110000
1.03840000 -2.60060000 -1.01710000
1.23800000 -2.69030000 -1.22360000
1.44880000 -2.72850000 -1.45520000
1.67480000 -2.75690000 -1.28600000
0.83680000 -2.51650000 -1.20800000
1.03070000 -2.60320000 -1.39340000
1.23950000 -2.65390000 -1.60900000
1.45100000 -2.66320000 -1.84420000
1.65400000 -2.72380000 -1.69710000
0.83380000 -2.49550000 -1.54660000
1.03700000 -2.55510000 -1.74650000
1.25340000 -2.58060000 -1.97190000
1.46290000 -2.56400000 -2.19270000
1.64570000 -2.63270000 -2.07490000
0.83130000 -2.44370000 -1.87630000
1.04180000 -2.47990000 -2.09020000
1.26130000 -2.47860000 -2.30330000
1.45060000 -2.44870000 -2.48530000
1.65060000 -2.52910000 -2.37850000
0.81980000 -2.34430000 -2.20440000
1.01580000 -2.35120000 -2.41290000
1.19260000 -2.31750000 -2.58640000
1.34680000 -2.26350000 -2.74780000
1.59850000 -2.42370000 -2.65820000
0.73750000 -2.24960000 -2.53600000
0.92160000 -2.16530000 -2.68310000
1.08600000 -2.09980000 -2.85190000
1.24060000 -2.01390000 -3.03050000
1.49450000 -2.16770000 -2.91130000
0.69200000 -1.98030000 -2.78200000
0.84940000 -1.92050000 -2.96150000
1.00810000 -1.82940000 -3.15210000
1.16860000 -1.68830000 -3.35750000
1.39790000 -1.87710000 -3.23320000
0.63870000 -1.71420000 -3.07360000
0.80150000 -1.61840000 -3.27820000
0.96880000 -1.46990000 -3.48280000
1.12840000 -1.28720000 -3.67680000
1.32030000 -1.51360000 -3.56300000
0.62690000 -1.38210000 -3.38520000
0.80250000 -1.23000000 -3.59080000
0.96520000 -1.07720000 -3.75930000
0.65150000 -1.00860000 -3.66000000
0.81240000 -0.89400000 -3.79710000
0.50390000 -0.81820000 -3.69730000
0.65810000 -0.71920000 -3.82710000
0.79060000 -0.60290000 -3.94300000
0.89910000 -0.47260000 -4.04340000
0.51650000 -0.54850000 -3.85030000
0.64110000 -0.44150000 -3.96420000
0.74460000 -0.32320000 -4.05590000
0.81450000 -0.20640000 -4.13340000
0.98440000 -0.33990000 -4.13060000
0.51030000 -0.27210000 -3.98010000
0.60850000 -0.16020000 -4.06990000
0.68030000 -0.05640000 -4.14480000
0.73390000 0.03690000 -4.22270000
0.85800000 -0.10920000 -4.21750000
0.48770000 0.00260000 -4.07780000
0.56880000 0.10040000 -4.14860000
0.63800000 0.18930000 -4.21370000
0.69040000 0.25700000 -4.27190000
0.77640000 0.11410000 -4.29820000
0.46490000 0.25990000 -4.13970000
0.54430000 0.33570000 -4.19500000
0.62300000 0.39710000 -4.23610000
0.67430000 0.44550000 -4.30460000
0.73270000 0.32700000 -4.33320000
0.63630000 0.56450000 -4.28620000
0.69850000 0.59580000 -4.35920000
0.71570000 0.49480000 -4.37210000
0.75690000 0.53920000 -4.42600000
0.81340000 0.45890000 -4.42620000
0.77380000 0.38930000 -4.38960000
0.74650000 0.62240000 -4.41990000
0.90000000 0.37020000 -4.39990000
0.86380000 0.28580000 -4.38810000
0.82220000 0.20040000 -4.35760000
0.96870000 0.19420000 -4.34840000
0.94340000 0.09570000 -4.33040000
0.89730000 -0.01600000 -4.29440000
1.08670000 0.01140000 -4.29350000
1.06130000 -0.09780000 -4.25510000
1.03140000 -0.21430000 -4.19760000
1.11540000 0.13010000 -4.31920000
1.27820000 0.08640000 -4.34760000
1.27910000 0.18490000 -4.34940000
1.44880000 0.18540000 -4.37740000
1.47440000 0.09010000 -4.37810000
1.13040000 0.22460000 -4.33540000
1.13570000 0.29890000 -4.35140000
1.27570000 0.26030000 -4.35850000
1.00100000 0.29090000 -4.35970000
1.02660000 0.37330000 -4.37020000
1.05510000 0.44420000 -4.42460000
1.15790000 0.37660000 -4.38460000
0.93090000 0.44090000 -4.42420000
0.95850000 0.49050000 -4.47720000
0.97510000 0.51870000 -4.54470000
1.06960000 0.47080000 -4.49770000
0.85510000 0.51070000 -4.46190000
0.87880000 0.54080000 -4.51750000
0.89600000 0.57630000 -4.58080000
0.92490000 0.63520000 -4.62410000
0.99340000 0.56460000 -4.60260000
0.88090000 0.70600000 -4.60600000
0.85310000 0.75400000 -4.55160000
0.90080000 0.81130000 -4.55970000
0.93090000 0.76050000 -4.61560000
0.97230000 0.69380000 -4.64650000
1.02970000 0.62060000 -4.63680000
1.00030000 0.82420000 -4.63030000
1.03560000 0.75540000 -4.66440000
1.08740000 0.88950000 -4.65780000
1.11600000 0.80820000 -4.68470000
1.18820000 0.93450000 -4.67520000
1.21070000 0.84470000 -4.69250000
1.29800000 0.94940000 -4.65670000
1.30650000 0.85740000 -4.66730000
1.32160000 0.76800000 -4.65710000
1.32780000 0.68370000 -4.63300000
1.38870000 0.86190000 -4.62250000
1.40520000 0.76800000 -4.62370000
1.41400000 0.68690000 -4.62020000
1.49770000 0.78640000 -4.59210000
1.51840000 0.70780000 -4.62650000
1.52070000 0.62500000 -4.63170000
1.41260000 0.60810000 -4.61630000
1.31980000 0.60060000 -4.61220000
1.40410000 0.52940000 -4.59310000
1.30240000 0.51330000 -4.58770000
1.20690000 0.53000000 -4.58700000
1.29040000 0.44120000 -4.53400000
1.18520000 0.46230000 -4.53580000
1.08460000 0.50610000 -4.56090000
1.11200000 0.56790000 -4.60840000
1.17230000 0.42030000 -4.45370000
1.28510000 0.38340000 -4.44980000
1.28520000 0.33170000 -4.38780000
1.39790000 0.40380000 -4.47390000
1.41250000 0.34150000 -4.40950000
1.43190000 0.25850000 -4.38270000
1.56570000 0.28340000 -4.40140000
1.61290000 0.21990000 -4.39150000
1.66630000 0.35680000 -4.41910000
1.75810000 0.28980000 -4.39580000
1.85260000 0.22360000 -4.38390000
1.67350000 0.13670000 -4.37830000
1.98770000 0.12080000 -4.40610000
2.07190000 -0.00150000 -4.38580000
2.17700000 -0.09420000 -4.31780000
2.29060000 -0.20540000 -4.27370000
2.08120000 -0.27530000 -4.28820000
2.36950000 -0.31880000 -4.24470000
2.18730000 -0.36360000 -4.29280000
1.89760000 -0.35510000 -4.25780000
1.75730000 -0.45940000 -4.22560000
2.41020000 -0.44350000 -4.20300000
2.22820000 -0.45850000 -4.24140000
2.40670000 -0.56550000 -4.15090000
2.23820000 -0.54380000 -4.20740000
2.60490000 -0.41650000 -4.14290000
2.55760000 -0.57410000 -4.06160000
2.47060000 -0.72420000 -4.00250000
2.72230000 -0.59950000 -4.00690000
2.62210000 -0.77600000 -3.93630000
2.87130000 -0.62400000 -3.93400000
2.76410000 -0.82910000 -3.85930000
3.02050000 -0.65800000 -3.85370000
2.93760000 -0.88200000 -3.76440000
2.83290000 -1.10610000 -3.65200000
3.16850000 -0.94290000 -3.60340000
3.08450000 -1.18190000 -3.47280000
2.96530000 -1.40950000 -3.33730000
2.71030000 -1.34120000 -3.52590000
2.82910000 -1.63640000 -3.19910000
2.57960000 -1.57780000 -3.38920000
2.67750000 -1.85840000 -3.05520000
2.43430000 -1.80820000 -3.23410000
2.18840000 -1.72190000 -3.38300000
2.27420000 -2.02580000 -3.05550000
2.03950000 -1.94700000 -3.19400000
1.79720000 -1.84160000 -3.32530000
1.93620000 -1.62310000 -3.51720000
1.54850000 -1.69850000 -3.43890000
1.68640000 -1.49490000 -3.62430000
1.46360000 -1.32050000 -3.73530000
1.57960000 -1.16840000 -3.82710000
1.67790000 -1.03600000 -3.89840000
1.64380000 -2.03180000 -3.11030000
1.88360000 -2.14460000 -2.98480000
1.74070000 -2.28580000 -2.79280000
2.10860000 -2.21920000 -2.85760000
1.95880000 -2.36060000 -2.67950000
1.81230000 -2.49130000 -2.54800000
2.15440000 -2.40130000 -2.56940000
1.99360000 -2.50870000 -2.42840000
1.82260000 -2.58110000 -2.26870000
2.19890000 -2.53480000 -2.29210000
2.02250000 -2.62180000 -2.12770000
1.84360000 -2.68550000 -1.92810000
2.25200000 -2.63320000 -1.96030000
2.07050000 -2.70710000 -1.76040000
1.87830000 -2.74770000 -1.52990000
2.30880000 -2.67670000 -1.58860000
2.11350000 -2.71820000 -1.36000000
1.91240000 -2.72250000 -1.11650000
2.34910000 -2.65310000 -1.20770000
2.14870000 -2.65000000 -0.96130000
1.94640000 -2.60880000 -0.71710000
2.37290000 -2.55690000 -0.82200000
2.16890000 -2.52210000 -0.56790000
1.97380000 -2.46520000 -0.32340000
2.37020000 -2.40780000 -0.43790000
2.16380000 -2.34570000 -0.18980000
1.97960000 -2.25280000 0.01530000
2.33130000 -2.22270000 -0.06790000
2.13330000 -2.12950000 0.12550000
2.48700000 -2.09940000 0.04420000
2.55470000 -2.28170000 -0.31900000
2.73830000 -2.16640000 -0.19370000
2.90440000 -2.00550000 -0.08650000
2.96460000 -2.18310000 -0.48440000
3.14150000 -2.02580000 -0.38720000
3.30700000 -1.83770000 -0.30180000
3.31160000 -2.02250000 -0.69320000
3.48050000 -1.83640000 -0.61220000
3.64940000 -1.63300000 -0.54090000
3.57490000 -1.82700000 -0.85880000
3.74270000 -1.62440000 -0.79600000
3.91720000 -1.40230000 -0.75030000
3.79330000 -1.62470000 -0.99850000
3.97690000 -1.40310000 -0.96320000
4.16060000 -1.15310000 -0.95380000
4.00450000 -1.40660000 -1.13740000
4.20230000 -1.16040000 -1.13570000
4.40660000 -0.90770000 -1.17690000
4.24440000 -1.18040000 -1.28530000
4.44320000 -0.93550000 -1.32720000
4.31560000 -1.22810000 -1.40180000
4.51100000 -1.03300000 -1.44200000
4.71480000 -0.86920000 -1.45660000
4.60710000 -1.17620000 -1.45110000
4.78490000 -1.01850000 -1.45890000
4.91350000 -0.96950000 -1.46930000
4.88860000 -0.75650000 -1.47190000
5.00600000 -0.95520000 -1.52820000
4.96630000 -0.74470000 -1.52840000
5.02270000 -0.96120000 -1.64180000
4.98740000 -0.73380000 -1.63440000
5.01260000 -0.97010000 -1.76130000
4.98830000 -0.72220000 -1.74870000
4.99390000 -0.97950000 -1.88750000
4.97820000 -0.71180000 -1.87200000
4.96370000 -0.44260000 -1.82000000
4.92750000 -0.70320000 -2.01440000
4.92990000 -0.40520000 -2.00310000
4.89100000 -0.08580000 -1.95500000
4.88040000 -0.38330000 -2.20530000
4.85040000 -0.05770000 -2.19490000
4.85330000 0.25730000 -2.17770000
4.82200000 -0.05760000 -2.39680000
4.80080000 0.25880000 -2.43740000
4.79630000 0.55990000 -2.44430000
4.73960000 0.24720000 -2.64950000
4.73500000 0.55310000 -2.70600000
4.77320000 0.84270000 -2.73060000
4.64840000 0.53620000 -2.92240000
4.65370000 0.83250000 -2.98420000
4.69780000 1.12340000 -3.03490000
4.51140000 0.81780000 -3.21310000
4.52240000 1.12580000 -3.29320000
4.47780000 1.42900000 -3.30840000
4.33650000 1.12040000 -3.51210000
4.30700000 1.41230000 -3.51360000
4.28330000 1.67930000 -3.49980000
4.15750000 1.36700000 -3.66180000
4.13240000 1.63150000 -3.65240000
4.01220000 1.31590000 -3.79140000
3.99090000 1.57010000 -3.77460000
3.85750000 1.27020000 -3.90340000
3.84140000 1.50630000 -3.88710000
3.82220000 1.72360000 -3.87660000
3.67780000 1.45510000 -3.99490000
3.66040000 1.65240000 -3.98090000
3.65190000 1.84050000 -3.96820000
3.80210000 1.91030000 -3.87310000
3.64200000 2.02450000 -3.96610000
3.48700000 1.79690000 -4.06340000
3.50150000 1.98200000 -4.04280000
3.50990000 2.16560000 -4.03180000
3.34620000 1.96160000 -4.11760000
3.38290000 2.15780000 -4.08970000
3.30060000 1.79220000 -4.15180000
3.69740000 1.23310000 -4.00870000
3.70450000 0.97270000 -4.01280000
3.54900000 0.96280000 -4.10080000
3.86630000 1.00250000 -3.91710000
3.82190000 0.71530000 -3.87330000
3.65340000 0.68590000 -3.97600000
4.02250000 1.04320000 -3.80600000
3.98920000 0.75350000 -3.76000000
4.02940000 0.42970000 -3.64500000
3.81790000 0.41570000 -3.81240000
4.17240000 1.08730000 -3.67390000
4.16380000 0.78780000 -3.61030000
4.20120000 0.45200000 -3.49600000
4.30890000 0.11440000 -3.33430000
4.11360000 0.09960000 -3.50410000
4.33980000 0.80350000 -3.41890000
4.38060000 0.47620000 -3.31720000
4.45660000 0.14710000 -3.16570000
4.53720000 0.50820000 -3.12920000
4.58750000 0.18760000 -2.99190000
4.67560000 -0.13830000 -2.82210000
4.76860000 -0.42060000 -2.72040000
4.66600000 0.23450000 -2.83760000
4.73530000 -0.09610000 -2.69140000
4.80290000 -0.39540000 -2.62130000
4.86540000 -0.65470000 -2.58350000
4.83420000 -0.65830000 -2.68380000
4.78390000 -0.07190000 -2.55720000
4.82570000 -0.38390000 -2.51380000
4.88560000 -0.66110000 -2.47450000
4.88650000 -0.67630000 -2.34930000
4.95870000 -0.95610000 -2.32580000
4.95130000 -0.93520000 -2.46140000
4.92380000 -0.92310000 -2.57580000
4.83420000 -0.37890000 -2.37600000
4.88870000 -0.69270000 -2.18630000
4.96970000 -0.98430000 -2.02090000
4.95620000 -0.97660000 -2.17610000
5.03340000 -1.26600000 -2.00780000
5.01380000 -1.26180000 -2.17290000
5.01900000 -1.24060000 -2.33100000
5.05630000 -1.55740000 -2.18680000
5.04660000 -1.53780000 -2.35300000
5.03980000 -1.51820000 -2.49170000
5.01940000 -1.21710000 -2.47080000
5.03440000 -1.49810000 -2.61980000
4.99730000 -1.20170000 -2.59590000
5.00700000 -1.48260000 -2.73430000
4.95950000 -1.19130000 -2.70750000
4.89160000 -0.91690000 -2.68270000
4.89830000 -1.18660000 -2.80390000
4.84080000 -0.91300000 -2.77260000
4.78240000 -0.66650000 -2.76620000
4.74860000 -0.92500000 -2.79130000
4.69670000 -0.68540000 -2.77830000
4.66290000 -0.94960000 -2.73130000
4.61170000 -0.71850000 -2.72540000
4.57460000 -0.98540000 -2.66000000
4.50320000 -0.78970000 -2.64620000
4.37290000 -0.68440000 -2.64890000
4.35630000 -0.95690000 -2.52830000
4.22230000 -0.89480000 -2.56790000
4.10570000 -0.90200000 -2.68290000
4.25700000 -0.67740000 -2.75890000
3.97970000 -0.92690000 -2.82820000
4.11850000 -0.69850000 -2.91120000
4.17360000 -0.47310000 -3.08460000
4.17180000 -0.21080000 -3.29950000
3.93170000 -0.72550000 -3.12270000
3.96220000 -0.48290000 -3.30600000
3.95210000 -0.21020000 -3.50050000
3.89850000 0.09610000 -3.67850000
3.73700000 -0.48430000 -3.51310000
3.72380000 -0.20420000 -3.68920000
3.68030000 0.09780000 -3.83240000
3.63440000 0.40020000 -3.93800000
3.48230000 -0.18670000 -3.85410000
3.49670000 -0.46970000 -3.70110000
3.25850000 -0.44680000 -3.85500000
3.27600000 -0.17340000 -3.96950000
3.08070000 -0.42140000 -3.95110000
3.09940000 -0.16810000 -4.05490000
2.93090000 -0.40450000 -4.02680000
2.93500000 -0.17600000 -4.12490000
2.77220000 -0.40370000 -4.09290000
2.76410000 -0.19960000 -4.17720000
2.57700000 -0.26050000 -4.20360000
3.22600000 -0.70270000 -3.73960000
3.47860000 -0.73410000 -3.54410000
3.42390000 -0.97670000 -3.39960000
3.71640000 -0.73810000 -3.33440000
3.64780000 -0.97400000 -3.18950000
3.54810000 -1.20810000 -3.05530000
3.33210000 -1.21030000 -3.26090000
3.42670000 -1.43610000 -2.91750000
3.20970000 -1.43380000 -3.12200000
3.28450000 -1.65560000 -2.78240000
3.06960000 -1.65640000 -2.98830000
3.13130000 -1.86490000 -2.65130000
2.91380000 -1.87130000 -2.85200000
2.96180000 -2.06680000 -2.52770000
2.74380000 -2.07550000 -2.71390000
2.51550000 -2.08280000 -2.90830000
2.56190000 -2.26080000 -2.57310000
2.32990000 -2.26470000 -2.73740000
2.37700000 -2.41730000 -2.43320000
2.78910000 -2.25050000 -2.40410000
2.60890000 -2.40940000 -2.27250000
2.43030000 -2.53870000 -2.12960000
2.82200000 -2.37520000 -2.10520000
2.66100000 -2.50330000 -1.95890000
2.49240000 -2.60820000 -1.78970000
2.86690000 -2.43470000 -1.80180000
2.71710000 -2.53650000 -1.63520000
2.54250000 -2.61200000 -1.43650000
2.91510000 -2.44270000 -1.50000000
2.76110000 -2.52250000 -1.30770000
2.57620000 -2.56780000 -1.07350000
2.94920000 -2.41120000 -1.20440000
2.77890000 -2.45170000 -0.96200000
2.57910000 -2.44020000 -0.70070000
2.96780000 -2.32780000 -0.86260000
2.77380000 -2.31330000 -0.59000000
3.14310000 -2.18500000 -0.77370000
3.11080000 -2.28760000 -1.11680000
3.26220000 -2.15350000 -1.02560000
3.40850000 -2.00700000 -0.94110000
3.35180000 -2.11330000 -1.23070000
3.48110000 -1.98480000 -1.14540000
3.62830000 -1.81890000 -1.05700000
3.53280000 -1.96540000 -1.30320000
3.66520000 -1.81340000 -1.22630000
3.82070000 -1.63080000 -1.16850000
3.69950000 -1.81750000 -1.36410000
3.85290000 -1.64200000 -1.31500000
4.03860000 -1.41940000 -1.28830000
3.91360000 -1.68160000 -1.42370000
4.10280000 -1.46400000 -1.40390000
4.00890000 -1.75950000 -1.45130000
4.20140000 -1.54620000 -1.44630000
4.41700000 -1.33980000 -1.43920000
4.30960000 -1.64140000 -1.44400000
4.53650000 -1.43180000 -1.43780000
4.70010000 -1.35800000 -1.44130000
4.65380000 -1.62620000 -1.43420000
4.80260000 -1.58120000 -1.42140000
4.93280000 -1.54970000 -1.41020000
4.84620000 -1.26630000 -1.44680000
5.05070000 -1.53360000 -1.41350000
4.97620000 -1.22890000 -1.45260000
5.13970000 -1.52770000 -1.46910000
5.07720000 -1.21630000 -1.50860000
5.15160000 -1.53590000 -1.58620000
5.09590000 -1.22900000 -1.62340000
5.13090000 -1.54600000 -1.71030000
5.07900000 -1.24370000 -1.74230000
5.11180000 -1.55580000 -1.84660000
5.05840000 -1.25630000 -1.87210000
5.08700000 -1.56400000 -1.99270000
5.16310000 -1.88180000 -1.85540000
5.13580000 -1.87900000 -2.00570000
5.10500000 -1.86770000 -2.21550000
5.15050000 -2.21110000 -2.04670000
5.12390000 -2.19630000 -2.25450000
5.12150000 -2.17840000 -2.43030000
5.09390000 -1.84950000 -2.38900000
5.11630000 -2.16230000 -2.56760000
5.07920000 -1.83160000 -2.52550000
5.10260000 -2.14650000 -2.69680000
5.06660000 -1.81280000 -2.65350000
5.09680000 -2.12870000 -2.82130000
5.06070000 -1.79070000 -2.77650000
5.04860000 -2.11680000 -2.92730000
5.00430000 -1.77860000 -2.88080000
4.95070000 -1.47480000 -2.82800000
4.89290000 -1.78600000 -2.88610000
4.85210000 -1.48160000 -2.84880000
4.79780000 -1.19650000 -2.83100000
4.75720000 -1.49650000 -2.78810000
4.70560000 -1.21240000 -2.76520000
4.66140000 -1.51790000 -2.71540000
4.61590000 -1.23800000 -2.68960000
4.56340000 -1.54550000 -2.63550000
4.51160000 -1.29650000 -2.59560000
4.44740000 -1.08890000 -2.55540000
4.37770000 -1.40100000 -2.47310000
4.30610000 -1.26310000 -2.41340000
4.20380000 -1.14840000 -2.37990000
4.14440000 -1.45540000 -2.25680000
4.03750000 -1.35750000 -2.23020000
3.92090000 -1.34570000 -2.33040000
4.07560000 -1.11780000 -2.45450000
3.81350000 -1.36530000 -2.46070000
3.96280000 -1.13330000 -2.57960000
3.70000000 -1.38940000 -2.60050000
3.84330000 -1.15630000 -2.71650000
3.57590000 -1.41430000 -2.74880000
3.71170000 -1.18680000 -2.87530000
3.83250000 -0.95600000 -3.00010000
3.55360000 -1.61630000 -2.47430000
3.42910000 -1.63840000 -2.62260000
3.40910000 -1.82490000 -2.34970000
3.27960000 -1.84860000 -2.49660000
3.27150000 -2.01190000 -2.22030000
3.13120000 -2.04250000 -2.36780000
3.12860000 -2.18610000 -2.08870000
2.98090000 -2.22260000 -2.23710000
2.99670000 -2.32300000 -1.94940000
3.26700000 -2.13980000 -1.94160000
3.16030000 -2.25430000 -1.80130000
3.04930000 -2.35110000 -1.65870000
3.30910000 -2.18380000 -1.69060000
3.20830000 -2.26480000 -1.55210000
3.08080000 -2.34230000 -1.39210000
3.37480000 -2.16690000 -1.47100000
3.22660000 -2.23280000 -1.30300000
3.44930000 -2.07040000 -1.38210000
3.51360000 -2.16230000 -1.50060000
3.54470000 -2.07230000 -1.46960000
3.59760000 -1.96180000 -1.41770000
3.62570000 -2.11970000 -1.48840000
3.68620000 -2.00620000 -1.46730000
3.77750000 -1.86570000 -1.44180000
3.76820000 -2.06250000 -1.47890000
3.86660000 -1.93460000 -1.46310000
3.84330000 -2.15000000 -1.47970000
3.95240000 -2.02430000 -1.46620000
4.10270000 -1.85520000 -1.45370000
4.03510000 -2.13490000 -1.46750000
4.20520000 -1.96800000 -1.44360000
4.42940000 -1.75820000 -1.42590000
4.28800000 -2.17070000 -1.45670000
4.51370000 -2.01110000 -1.44230000
4.69970000 -1.93860000 -1.43040000
4.52920000 -2.35030000 -1.44760000
4.71840000 -2.29510000 -1.44610000
4.84910000 -2.28190000 -1.44770000
4.84050000 -1.91300000 -1.42460000
4.97500000 -2.27180000 -1.44540000
4.96530000 -1.89830000 -1.41960000
5.09460000 -2.26400000 -1.44830000
5.08380000 -1.89110000 -1.41860000
5.18190000 -2.25280000 -1.51890000
5.18180000 -1.88540000 -1.47430000
5.19940000 -2.24260000 -1.63720000
5.18360000 -1.88250000 -1.59070000
5.19820000 -2.23230000 -1.76290000
5.17650000 -1.88330000 -1.71750000
5.17710000 -2.22210000 -1.89670000
5.22840000 -2.57320000 -1.80310000
5.21090000 -2.56040000 -1.94210000
5.18580000 -2.54700000 -2.09840000
5.26100000 -2.89550000 -1.97250000
5.24210000 -2.87900000 -2.13630000
5.22830000 -2.85990000 -2.32800000
5.16760000 -2.52870000 -2.29710000
5.21390000 -2.84550000 -2.49820000
5.15900000 -2.51230000 -2.46960000
5.19890000 -2.83600000 -2.63490000
5.15040000 -2.49850000 -2.60330000
5.18490000 -2.82810000 -2.75800000
5.13910000 -2.48550000 -2.73110000
5.17070000 -2.81920000 -2.87970000
5.12480000 -2.47350000 -2.85190000
5.13310000 -2.81550000 -2.98920000
5.08370000 -2.46510000 -2.95870000
5.02820000 -2.82590000 -2.99270000
4.97860000 -2.47550000 -2.95860000
4.93530000 -2.12500000 -2.92230000
4.88490000 -2.49060000 -2.88660000
4.83790000 -2.13850000 -2.85400000
4.79520000 -1.80270000 -2.82010000
4.74190000 -2.15390000 -2.78090000
4.69690000 -1.82050000 -2.74870000
4.64200000 -2.17120000 -2.70690000
4.59650000 -1.84000000 -2.67300000
4.53860000 -2.19390000 -2.62460000
4.48320000 -1.87830000 -2.58470000
4.43900000 -1.61130000 -2.53480000
4.34330000 -1.95490000 -2.46880000
4.28020000 -1.72720000 -2.41270000
4.21250000 -1.57950000 -2.33320000
4.11160000 -1.89770000 -2.25770000
4.04790000 -1.77210000 -2.17960000
3.98110000 -1.66290000 -2.10490000
3.90140000 -1.95510000 -2.03230000
3.83610000 -1.85080000 -1.96540000
3.72240000 -1.77990000 -1.97630000
3.87200000 -1.58080000 -2.10130000
3.61780000 -1.78300000 -2.08710000
3.76220000 -1.57620000 -2.20660000
3.51770000 -1.80670000 -2.21700000
3.65970000 -1.59340000 -2.33460000
3.49830000 -1.95970000 -1.95900000
3.38990000 -1.98240000 -2.08650000
3.40720000 -2.08520000 -1.81420000
3.60930000 -1.94910000 -1.85390000
3.54160000 -2.07420000 -1.73410000
3.47500000 -2.18720000 -1.61270000
3.63530000 -2.13170000 -1.74870000
3.57210000 -2.23550000 -1.66400000
3.54130000 -2.28850000 -1.58980000
3.51770000 -2.24390000 -1.57960000
3.50650000 -2.21370000 -1.53460000
3.56560000 -2.28440000 -1.52980000
3.53840000 -2.24010000 -1.52890000
3.61590000 -2.24290000 -1.50460000
3.57430000 -2.19260000 -1.50400000
3.67040000 -2.17630000 -1.49210000
3.65520000 -2.30710000 -1.50370000
3.73020000 -2.24970000 -1.49130000
3.68630000 -2.38920000 -1.50570000
3.78840000 -2.33090000 -1.49000000
3.89960000 -2.25130000 -1.47960000
3.83070000 -2.43360000 -1.49350000
3.95590000 -2.38150000 -1.48210000
4.10440000 -2.29410000 -1.47380000
3.99200000 -2.55120000 -1.48910000
4.14150000 -2.50450000 -1.47940000
4.32570000 -2.42970000 -1.46320000
4.14360000 -2.75800000 -1.48780000
4.33760000 -2.71650000 -1.47530000
4.55170000 -2.67820000 -1.46870000
4.32260000 -3.04570000 -1.48770000
4.53630000 -3.02340000 -1.49390000
4.72710000 -3.00340000 -1.49440000
4.72450000 -2.65610000 -1.46200000
4.88720000 -2.98810000 -1.49170000
4.86620000 -2.64190000 -1.46290000
5.03070000 -2.97280000 -1.49650000
4.99830000 -2.62750000 -1.47130000
5.16200000 -2.95820000 -1.50340000
5.12400000 -2.61370000 -1.47720000
5.26170000 -2.94050000 -1.56900000
5.22190000 -2.59820000 -1.54320000
5.27690000 -2.92560000 -1.69240000
5.23590000 -2.58550000 -1.67010000
5.27260000 -2.91050000 -1.82750000
5.31810000 -3.25840000 -1.71830000
5.31520000 -3.24540000 -1.85400000
5.31090000 -3.23060000 -1.99650000
5.36930000 -3.57230000 -1.87980000
5.35800000 -3.56260000 -2.02180000
5.34230000 -3.55380000 -2.17050000
5.29830000 -3.21550000 -2.15130000
5.32820000 -3.54390000 -2.35560000
5.28670000 -3.19910000 -2.34660000
5.31710000 -3.53670000 -2.51680000
5.26820000 -3.18980000 -2.51580000
5.30180000 -3.53170000 -2.65340000
5.25340000 -3.18390000 -2.64580000
5.28970000 -3.52640000 -2.78110000
5.23930000 -3.17850000 -2.77250000
5.28130000 -3.52210000 -2.89990000
5.23050000 -3.17290000 -2.89340000
5.23530000 -3.52260000 -2.99250000
5.19370000 -3.17100000 -3.00120000
5.13200000 -3.53320000 -3.02120000
5.08670000 -3.18170000 -3.01520000
5.03290000 -3.54800000 -2.98300000
4.98660000 -3.19600000 -2.94420000
4.93400000 -2.84210000 -2.91790000
4.88110000 -3.21220000 -2.86140000
4.83580000 -2.85750000 -2.83700000
4.79070000 -2.50560000 -2.81030000
4.73430000 -2.87390000 -2.75470000
4.69590000 -2.52090000 -2.73340000
4.62550000 -2.89350000 -2.66510000
4.59750000 -2.53800000 -2.65070000
4.46320000 -2.92990000 -2.52800000
4.44630000 -2.57550000 -2.52000000
4.39500000 -2.23970000 -2.50600000
4.27010000 -2.63380000 -2.36020000
4.22920000 -2.31950000 -2.34300000
4.17250000 -2.07510000 -2.31440000
4.05140000 -2.41600000 -2.18370000
4.00950000 -2.20710000 -2.15700000
3.96100000 -2.06160000 -2.10660000
3.87280000 -2.32170000 -2.01590000
3.83070000 -2.19630000 -1.96740000
3.78580000 -2.09160000 -1.90820000
3.72290000 -2.28600000 -1.84100000
3.68500000 -2.19670000 -1.79020000
3.71710000 -2.00540000 -1.84700000
3.63690000 -2.35030000 -1.73210000
3.60750000 -2.28420000 -1.69270000
3.57190000 -2.39600000 -1.63440000
3.56060000 -2.33160000 -1.60980000
3.58670000 -2.40220000 -1.53850000
3.58180000 -2.33530000 -1.53550000
3.58030000 -2.48420000 -1.66160000
3.58040000 -2.50270000 -1.54670000
3.70650000 -2.47560000 -1.50900000
3.57250000 -2.63510000 -1.56280000
3.70160000 -2.63500000 -1.51780000
3.84640000 -2.60870000 -1.50150000
3.69670000 -2.82800000 -1.52580000
3.84060000 -2.81020000 -1.50840000
3.98890000 -2.78640000 -1.49870000
3.83110000 -3.09250000 -1.50450000
3.97500000 -3.07860000 -1.49150000
4.13230000 -3.06440000 -1.48400000
3.98240000 -3.41630000 -1.53260000
4.12340000 -3.40400000 -1.52820000
4.30840000 -3.38670000 -1.52360000
4.13180000 -3.75020000 -1.52280000
4.30820000 -3.73190000 -1.51120000
4.54030000 -3.70650000 -1.51280000
4.53230000 -3.36410000 -1.52530000
4.78220000 -3.67670000 -1.52440000
4.74340000 -3.34220000 -1.52610000
4.94830000 -3.65450000 -1.53650000
4.91250000 -3.32440000 -1.52230000
5.09680000 -3.63390000 -1.54780000
5.06150000 -3.30760000 -1.52210000
5.23110000 -3.61510000 -1.55860000
5.19510000 -3.29080000 -1.53560000
5.33990000 -3.59570000 -1.61620000
5.29650000 -3.27210000 -1.59490000
5.36570000 -3.58320000 -1.74320000
5.38650000 -3.91880000 -1.62420000
5.41200000 -3.90800000 -1.75610000
5.41100000 -3.90040000 -1.89800000
5.47160000 -4.23680000 -1.76430000
5.46850000 -4.22920000 -1.91040000
5.46030000 -4.22290000 -2.06700000
5.40200000 -3.89360000 -2.04590000
5.44730000 -4.21710000 -2.23320000
5.39060000 -3.88760000 -2.20560000
5.42970000 -4.21110000 -2.41820000
5.37890000 -3.88110000 -2.37200000
5.42000000 -4.20490000 -2.58090000
5.36780000 -3.87450000 -2.53110000
5.40200000 -4.20230000 -2.70750000
5.35930000 -3.86740000 -2.67120000
5.38760000 -4.19900000 -2.83210000
5.34260000 -3.86280000 -2.79700000
