3.28880000 2.02910000 -1.43070000
1.08570000 0.05840000 -1.80370000
1.46570000 0.02130000 -1.60090000
1.44270000 0.35460000 -1.82900000
3.16730000 2.27900000 -1.36940000
3.30930000 2.12250000 -1.03330000
3.44990000 2.47820000 -1.22110000
1.11260000 -0.29620000 -2.07800000
-1.51640000 2.06210000 -2.66790000
-1.29190000 1.76240000 -2.65310000
-1.62250000 1.66910000 -2.51610000
-1.85290000 1.98820000 -2.51920000
0.96610000 0.30690000 -1.98550000
1.78040000 0.19850000 2.83530000
1.88580000 0.50880000 2.81140000
1.61450000 0.57570000 2.95840000
1.75620000 0.67000000 2.88550000
-0.93470000 -0.74410000 -0.85530000
1.72530000 0.73600000 2.90250000
1.57900000 0.70630000 2.97260000
-1.20330000 -0.60580000 -0.97460000
1.63900000 0.78610000 2.91790000
2.89930000 -2.43650000 1.22170000
2.74780000 -2.47240000 1.55390000
2.89870000 -2.54840000 1.28130000
-1.13450000 -0.50570000 -1.20700000
1.44470000 0.69360000 2.99380000
1.46920000 0.76040000 2.96240000
1.21910000 -1.81860000 -2.14150000
1.21640000 -1.93040000 -2.18340000
1.30690000 -1.81730000 -2.21310000
2.88580000 2.13560000 -1.56620000
2.98350000 1.97860000 -1.36270000
1.26150000 -1.71820000 -2.18810000
3.06120000 -2.68040000 0.91460000
3.13160000 -2.58380000 0.81180000
1.30080000 -1.72600000 -2.27340000
1.33620000 -1.80780000 -2.29440000
3.09890000 -2.48440000 0.93320000
1.60760000 0.02790000 2.87040000
1.73450000 0.48490000 -2.04070000
1.56190000 0.22280000 -2.09200000
1.36160000 0.54980000 -2.26050000
3.18260000 -2.32920000 0.75470000
1.22780000 -1.64620000 -2.25600000
1.45340000 0.15150000 2.93910000
1.35400000 0.37290000 2.99980000
3.05400000 -2.38800000 0.94600000
3.13080000 -2.32350000 0.83000000
1.29630000 -1.81940000 -2.41870000
1.30950000 -1.87440000 -2.33040000
1.25460000 -1.93570000 -2.26210000
1.52390000 0.67370000 -2.21290000
1.70830000 0.72030000 -2.14750000
1.55700000 0.64750000 -2.17750000
1.27870000 -1.74960000 -2.39290000
1.39520000 0.53020000 3.00940000
3.03130000 -2.84610000 0.74130000
-1.76230000 1.67550000 -2.48950000
-1.93330000 1.78460000 -2.45490000
2.98490000 -2.92520000 0.77410000
-1.92770000 1.71500000 -2.48690000
-1.69220000 1.61450000 -2.57000000
3.06010000 -2.77910000 0.66630000
1.25430000 -1.89170000 -2.45750000
1.18740000 -1.99980000 -2.32420000
-0.93760000 -0.87770000 -0.31620000
-1.13700000 -0.83760000 -0.08700000
-1.03690000 -0.82230000 0.15770000
-1.95770000 2.11500000 -2.54370000
-1.99870000 2.00150000 -2.53550000
1.21680000 -1.67180000 -2.35330000
1.36330000 0.62310000 3.00900000
3.17920000 -2.48290000 0.59110000
-1.16170000 -0.78880000 -0.45420000
3.22030000 -2.31950000 0.63270000
1.39930000 0.72900000 2.95120000
1.29350000 0.62650000 2.94240000
1.18360000 -1.72450000 -2.48170000
1.37030000 0.72230000 2.87970000
1.12000000 -1.68580000 -2.38510000
1.26990000 0.25110000 -2.24500000
1.13420000 -1.92170000 -2.10930000
1.23160000 0.56750000 2.89220000
1.37460000 0.76480000 2.79130000
-1.50670000 -0.69790000 0.05840000
-1.37700000 -0.73320000 -0.30040000
1.15850000 -1.71380000 -2.13730000
1.28940000 0.49940000 3.01430000
-1.32470000 2.48920000 -2.66570000
-1.65570000 2.39580000 -2.53210000
-1.26260000 2.11430000 -2.52770000
-1.64210000 2.43780000 2.58270000
-1.03400000 2.54120000 2.77360000
-1.12880000 2.02390000 2.55980000
1.02280000 -1.78970000 -2.06250000
1.19840000 0.38400000 3.01330000
1.05560000 -1.69810000 -2.13190000
0.86850000 -1.97930000 -1.90970000
1.14460000 0.42130000 -2.32360000
2.87670000 -2.70860000 1.20120000
2.91880000 -2.64720000 1.19870000
-1.91220000 2.24220000 -2.35400000
-1.61420000 1.81870000 -2.31780000
1.21090000 0.48570000 2.98280000
-1.42910000 2.66220000 2.75920000
0.80100000 -1.90900000 -1.88480000
3.48130000 2.68130000 -1.75770000
3.58620000 2.60350000 -1.55430000
-1.81840000 1.65420000 -2.16790000
1.30440000 0.60950000 2.98830000
0.86880000 -1.71350000 -2.03420000
0.84900000 -1.77100000 -1.96850000
1.16450000 -1.65260000 -2.19120000
1.14960000 -1.63850000 -2.25380000
1.81110000 0.92110000 2.84220000
1.66500000 1.08140000 2.92050000
1.49060000 1.05130000 2.91330000
3.66930000 2.80270000 -1.72410000
1.02320000 -1.70030000 -2.28090000
0.98860000 -1.68840000 -2.17640000
1.51700000 0.79350000 2.87230000
1.67660000 0.82950000 2.82440000
1.43500000 0.69990000 -1.98820000
2.76760000 -2.76500000 1.22450000
2.85200000 -2.79370000 1.08330000
1.60540000 0.96550000 2.85370000
1.58330000 0.89680000 2.76440000
1.72630000 0.87710000 2.80180000
1.03630000 -1.74060000 -2.41110000
0.92420000 -1.74830000 -2.32890000
3.01120000 -2.46860000 1.07820000
0.83190000 -1.71570000 -2.12180000
0.81270000 -1.72800000 -2.29760000
2.95890000 -2.34730000 0.99300000
0.73480000 -1.69770000 -2.09540000
1.64490000 1.18340000 2.93000000
1.46020000 1.28680000 2.97890000
0.72680000 -1.67110000 -2.19640000
-1.88150000 2.32940000 2.44070000
-1.27960000 1.78260000 2.43070000
1.08400000 -2.05710000 -2.35660000
1.18230000 -1.92150000 -2.50490000
1.08120000 0.80340000 -2.15700000
1.23280000 -1.80270000 -2.50970000
1.39990000 1.18180000 2.99900000
1.16590000 -1.80920000 -2.53130000
1.03450000 -1.95390000 -2.49470000
-1.67000000 2.24010000 -2.68410000
1.11450000 -1.88370000 -2.52480000
2.97260000 -2.80520000 0.92590000
-1.94110000 2.28460000 -2.60740000
0.99850000 -1.82910000 -2.46870000
1.18940000 1.12220000 3.00310000
2.92790000 -2.88290000 0.85130000
1.27490000 0.99450000 2.87750000
1.59260000 0.83510000 2.78220000
3.29470000 2.62540000 -1.88960000
1.02770000 -2.03080000 -2.42380000
2.81090000 -2.86490000 0.93220000
0.88770000 -2.13030000 -2.38880000
2.71720000 -2.81260000 1.14350000
-1.74340000 2.53490000 -2.81270000
1.46520000 0.94080000 2.79350000
2.69320000 -2.83440000 1.00190000
2.74730000 -2.87810000 0.87330000
0.64420000 0.46810000 -2.15500000
0.87520000 -1.91830000 -2.47970000
1.46490000 0.79590000 2.77090000
0.90430000 -1.80230000 -2.41850000
1.50180000 0.86070000 2.71600000
0.77410000 -1.82060000 -2.46300000
1.45870000 0.89920000 2.74180000
-2.10220000 2.34810000 2.74550000
-1.77370000 2.29770000 2.83570000
-1.97960000 2.55390000 2.88240000
1.35790000 0.81270000 2.78660000
-1.65740000 -0.61940000 -0.24200000
2.93810000 -3.11940000 0.66620000
0.83720000 -1.77290000 -2.39170000
2.92350000 -3.14360000 0.58970000
1.41330000 -0.16680000 -2.01100000
2.92510000 -3.07150000 0.52230000
1.33270000 0.90760000 2.82450000
2.99860000 -2.87670000 0.57630000
0.67820000 -1.62330000 -2.28190000
1.26750000 0.84910000 2.87150000
2.84770000 -3.20570000 0.50390000
-1.95730000 1.84140000 2.62020000
0.71390000 -1.69980000 -2.40970000
2.91110000 -3.08450000 0.73230000
2.86890000 -2.94360000 0.81690000
3.45690000 2.80760000 -1.62790000
3.23950000 2.94280000 -1.97860000
3.13900000 2.66500000 -1.74910000
0.76250000 -2.04870000 -2.48120000
2.76610000 -2.93750000 0.80960000
3.37110000 2.59730000 -1.45280000
0.72650000 -1.94490000 -2.50780000
1.18980000 0.94980000 2.87620000
2.85670000 -3.07510000 0.74900000
2.78150000 -3.04860000 0.74910000
-1.88160000 -0.46190000 -0.39110000
-1.85460000 -0.52150000 -0.02060000
-1.87470000 2.64860000 2.62540000
0.66920000 -1.78650000 -2.49890000
-2.25830000 2.62480000 -2.40300000
-2.25480000 2.40380000 -2.26840000
-0.97700000 -0.80840000 -0.61830000
-1.30280000 -0.64750000 -0.77700000
2.70200000 -2.91020000 0.76740000
0.57350000 -1.91160000 -2.55540000
0.60080000 -2.04420000 -2.51090000
2.87390000 -3.21130000 0.65020000
2.81120000 -3.20750000 0.70090000
1.08880000 0.65620000 2.94600000
2.81510000 -3.24210000 0.65420000
2.94010000 2.52500000 -1.79430000
0.74550000 0.08620000 -2.30430000
2.71970000 -3.15870000 0.68590000
0.54540000 -1.72300000 -2.57630000
1.08620000 0.90670000 2.98550000
-2.06520000 2.32810000 -2.61950000
2.78420000 -3.24810000 0.55030000
1.07110000 0.85680000 3.00630000
2.73280000 -3.24490000 0.62460000
2.67300000 -3.21030000 0.59870000
-2.13000000 2.51700000 -2.67060000
-1.58750000 2.82900000 2.84700000
0.87840000 0.69580000 3.09040000
0.59330000 -1.58720000 -2.48990000
0.90770000 0.87000000 3.05670000
2.69870000 -3.02140000 0.69770000
-1.59710000 -0.56490000 -0.62260000
2.66500000 -3.09370000 0.62170000
4.12510000 3.05010000 -1.68890000
4.24230000 3.10160000 -1.58480000
4.19700000 3.00590000 -1.52790000
-2.06140000 2.83910000 2.71630000
4.13580000 3.14480000 -1.67720000
4.16460000 3.16310000 -1.56580000
1.12550000 -1.25010000 -1.32740000
1.28490000 -1.38700000 -0.99590000
0.94970000 -1.43480000 -1.17510000
1.04460000 0.93070000 2.95170000
1.05560000 0.98610000 2.92430000
4.05630000 3.09670000 -1.78110000
-2.46490000 1.79390000 -1.80360000
-2.18880000 1.89080000 -2.05870000
-2.49910000 2.25690000 -2.01050000
0.99490000 1.04890000 3.00030000
3.06870000 -2.67260000 0.57550000
-1.85860000 2.99160000 2.94350000
-2.42590000 2.92420000 2.69730000
0.87000000 1.08480000 3.05360000
3.00380000 -2.65600000 0.48220000
3.97440000 3.13810000 -1.72330000
4.12730000 3.10850000 -1.43120000
0.90290000 0.91990000 2.96700000
0.81270000 0.85910000 3.05360000
3.15920000 -2.39210000 0.45260000
0.96830000 -1.33940000 -1.33550000
0.90320000 0.35960000 -2.37180000
4.05010000 3.15410000 -1.71880000
0.82740000 0.96840000 3.01490000
-2.54920000 1.94230000 -2.24370000
-2.52420000 1.87060000 -2.16890000
-2.58160000 2.11050000 -2.21940000
-1.51880000 -0.46480000 -0.95890000
3.84210000 3.08470000 -1.72290000
2.94830000 -2.82170000 0.48610000
0.67600000 -1.40790000 -1.38290000
0.92490000 -1.33610000 -1.41360000
2.89120000 -3.02040000 0.46870000
0.80000000 0.75490000 3.12940000
-2.16310000 2.52010000 2.43140000
3.70390000 2.97930000 -1.64530000
2.86640000 -2.68340000 0.42130000
0.62550000 0.76510000 3.17290000
2.82000000 -2.99780000 0.42820000
2.76250000 -2.84670000 0.42500000
4.03160000 3.01220000 -1.76880000
0.59860000 0.70040000 3.19580000
3.92060000 2.96090000 -1.79160000
3.91770000 2.94800000 -1.70510000
-1.77850000 -0.41060000 -0.76450000
0.97370000 0.69490000 -2.46220000
0.70920000 0.96410000 3.08790000
4.00600000 3.13040000 -1.80180000
2.94670000 -2.44810000 0.36430000
-2.46180000 2.74120000 2.47580000
0.70310000 1.08620000 3.08600000
3.88860000 2.97980000 -1.86760000
0.64410000 0.98940000 3.11700000
0.51300000 1.01770000 3.11310000
2.82280000 -2.46410000 0.37320000
1.65530000 -0.19380000 2.81770000
0.64050000 -1.55890000 -1.13830000
0.88990000 -1.61640000 -0.90230000
0.49860000 -1.74900000 -0.79560000
3.90430000 3.07860000 -1.88090000
1.63020000 -0.24850000 2.79130000
1.74740000 -0.23780000 2.72280000
2.65310000 -2.82420000 0.81240000
2.62740000 -2.80270000 1.01500000
1.46760000 -0.22040000 2.84430000
2.56930000 -2.74400000 0.99090000
-2.62600000 1.83440000 -2.02920000
-2.54470000 1.81740000 -2.10790000
-2.63100000 1.79810000 -2.05310000
-2.71970000 1.79650000 -2.07010000
-2.55610000 1.80070000 -2.15200000
-2.79500000 1.80810000 -1.96600000
-2.85540000 1.84490000 -1.88790000
-2.90930000 1.78970000 -1.98630000
1.30990000 -0.14340000 2.87260000
2.59510000 -2.71330000 0.77940000
2.50350000 -2.64170000 0.98850000
1.63960000 -0.22710000 2.66850000
1.48190000 -0.25490000 2.75510000
-2.55880000 1.90730000 -2.09610000
-2.67000000 1.88150000 -1.99680000
-2.61570000 2.05970000 -2.11290000
2.50490000 -2.50350000 0.85440000
2.56760000 -2.54170000 0.69390000
0.42110000 -1.50480000 -1.28000000
0.35770000 -1.67180000 -0.99190000
3.88860000 3.13290000 -1.85290000
0.52180000 0.27840000 -2.38750000
2.64480000 -2.84910000 0.69330000
3.80660000 3.13120000 -1.87080000
1.52090000 -0.16380000 2.58780000
-2.84760000 2.02090000 -1.90780000
2.62350000 -2.80160000 0.62400000
0.60750000 0.56480000 -2.50380000
-2.95960000 1.90550000 -1.79520000
1.35470000 -0.22200000 2.81370000
3.66830000 2.93190000 -1.95430000
2.64310000 -2.94910000 0.55040000
3.78430000 3.03860000 -1.96020000
1.93800000 0.68790000 -2.35690000
1.93480000 0.78990000 -2.48650000
2.12220000 0.73640000 -2.37020000
2.06270000 0.80030000 -2.46590000
3.67730000 2.97510000 -2.03090000
1.33760000 -0.21170000 2.73440000
2.65260000 -2.86480000 0.48980000
2.62540000 -2.61360000 0.50370000
1.20860000 -0.10510000 2.65030000
2.69650000 -2.60010000 0.43870000
2.06120000 0.91620000 -2.53050000
1.94630000 0.96360000 -2.59140000
3.89800000 2.90310000 -1.61310000
1.23010000 -0.18870000 2.77860000
-2.05580000 -0.23180000 -0.71830000
1.83190000 0.93440000 -2.57950000
1.24030000 -1.18440000 -1.34880000
1.12250000 -0.10190000 2.86600000
-2.40470000 2.23090000 2.13170000
-2.06060000 1.90080000 2.14110000
1.98710000 1.23400000 -2.64830000
2.08080000 1.21500000 -2.50710000
2.10810000 1.00520000 -2.47560000
1.95530000 1.11770000 -2.67530000
1.15890000 -1.17890000 -1.46550000
-0.91710000 -1.48490000 -1.06230000
-0.44640000 -1.61850000 -1.01970000
-0.92800000 -1.62100000 -0.79230000
3.78260000 3.10990000 -1.97550000
1.91070000 1.10220000 -2.69870000
-2.55590000 2.57600000 -2.17450000
1.80540000 1.03500000 -2.61840000
3.71190000 3.15520000 -2.02460000
1.82080000 1.14620000 -2.72810000
-1.24830000 -1.44920000 -0.93450000
0.95310000 -1.24870000 -1.52490000
3.58360000 3.15230000 -2.04680000
2.47530000 -2.16910000 1.97820000
2.52870000 -2.50990000 1.85700000
2.61140000 -2.48560000 1.77850000
2.33760000 -2.30510000 2.03950000
2.58490000 -2.21840000 1.84540000
0.86370000 -1.15360000 -1.66160000
1.71410000 0.73150000 -2.49770000
1.65550000 0.63370000 -2.42210000
1.25650000 0.03910000 2.92680000
2.40310000 -2.62970000 1.88810000
1.75980000 0.80860000 -2.56640000
0.59170000 -1.32970000 -1.55740000
1.67230000 0.89690000 -2.66190000
3.49430000 3.03770000 -1.93080000
2.29980000 -2.45740000 1.99880000
3.44770000 2.84460000 -1.98600000
1.19240000 -0.90900000 -1.68730000
-2.60390000 2.36870000 -2.29470000
-2.56170000 2.44390000 -2.39170000
-2.60080000 2.27380000 -2.29450000
2.68910000 -2.73850000 1.48930000
2.63770000 -2.69660000 1.63630000
2.54170000 -2.78380000 1.65590000
-0.60600000 -1.48730000 -1.17650000
2.44690000 -2.85530000 1.62010000
2.69390000 -2.76920000 1.40500000
3.46800000 2.96810000 -2.20880000
3.57250000 2.98600000 -2.16530000
3.11360000 2.90690000 -2.33260000
2.38300000 -2.82080000 1.87700000
2.45370000 -2.80040000 1.83590000
-2.92410000 2.32040000 -1.66630000
3.69400000 3.12370000 -2.10910000
1.51620000 0.63340000 -2.53480000
1.53230000 0.73730000 -2.65240000
3.63070000 3.17950000 -2.15770000
1.53240000 0.62100000 -2.41750000
3.62530000 3.08160000 -2.17290000
1.41960000 0.63910000 -2.56490000
3.52290000 3.16690000 -2.27780000
1.14350000 0.26120000 2.99490000
2.29680000 -2.80820000 1.90300000
0.48730000 -1.41060000 -1.46540000
2.29770000 -2.64420000 1.91980000
2.25290000 -2.78050000 1.87640000
2.38260000 -2.92800000 1.79150000
2.30280000 -3.00520000 1.87060000
2.27700000 -2.92340000 1.90590000
1.64120000 0.85320000 -2.67320000
3.49780000 3.20730000 -2.21000000
2.23730000 -3.01680000 1.88860000
0.30810000 -1.37810000 -1.52440000
2.24990000 -3.05640000 1.79930000
1.11690000 0.08980000 2.95200000
2.20800000 -3.06680000 1.82620000
0.14520000 -1.42460000 -1.40410000
-2.80450000 2.56970000 -1.96200000
2.29440000 -2.96410000 1.67670000
1.65250000 0.97200000 -2.65350000
1.06840000 0.03350000 2.92450000
1.08740000 0.19120000 2.96120000
1.05350000 0.12270000 2.90010000
1.10380000 0.31690000 2.93370000
1.12040000 0.30840000 2.98370000
1.04890000 0.20970000 2.85570000
2.56180000 -2.72400000 1.76100000
-0.70690000 -1.32200000 -1.34190000
1.12230000 -0.04740000 2.90940000
1.56060000 0.97330000 -2.71980000
3.51950000 3.20790000 -2.24490000
1.12200000 -0.11540000 2.78690000
-2.80910000 2.40570000 -2.11870000
2.00580000 1.38480000 -2.57760000
0.66380000 -1.23830000 -1.65000000
1.05110000 -0.02820000 2.85240000
1.05990000 -0.02320000 2.75570000
1.04360000 0.06640000 2.81790000
2.22350000 -2.90180000 1.87750000
1.85570000 1.28210000 -2.76610000
2.17210000 -2.94400000 1.80480000
2.20740000 -2.80570000 1.76930000
2.21550000 -2.70090000 1.86970000
1.90140000 1.43340000 -2.71580000
1.00400000 0.04440000 2.74540000
1.93780000 1.50160000 -2.61050000
0.90820000 -0.94860000 -1.79830000
-1.27430000 -1.58700000 -0.57030000
-3.06020000 2.34200000 -1.85470000
1.78500000 1.44340000 -2.81400000
2.72000000 -2.62080000 1.56300000
1.75660000 1.13850000 -2.69530000
0.95950000 0.20470000 2.84420000
0.66740000 -1.06120000 -1.79490000
-2.67540000 2.42530000 -2.24090000
0.88610000 0.05920000 2.79110000
0.78910000 0.26230000 2.97150000
-1.19010000 -1.32610000 -1.16790000
-2.29440000 1.50720000 1.82240000
2.68460000 -2.32110000 1.63230000
2.77700000 -2.41220000 1.43260000
1.73430000 1.33510000 -2.82990000
0.35930000 -1.18230000 -1.75700000
1.27490000 -0.00420000 2.45820000
1.54630000 -0.02000000 2.34170000
1.67040000 1.30410000 -2.81800000
1.40600000 1.25100000 -2.48490000
1.48840000 1.24180000 -2.50580000
1.42870000 1.11980000 -2.46500000
1.51660000 1.36360000 -2.61030000
1.50580000 1.25550000 -2.55730000
1.49800000 1.41770000 -2.52960000
1.35400000 1.38480000 -2.53470000
1.66160000 1.09350000 -2.66520000
-1.99130000 2.87050000 3.11310000
-1.74140000 2.82420000 3.18170000
-1.77630000 2.92620000 3.22400000
-1.94290000 2.98090000 3.15060000
-1.83830000 3.02200000 3.21380000
-1.93420000 3.05710000 3.13390000
-1.82770000 3.08920000 3.17410000
3.09630000 3.12530000 -2.30630000
1.58100000 1.06020000 -2.66090000
1.34260000 0.05280000 2.33130000
-1.92140000 3.07140000 3.05900000
-1.35510000 -1.75940000 -1.44930000
-1.40440000 -1.88020000 -1.44900000
-1.24260000 -1.80690000 -1.59510000
1.54820000 1.15450000 -2.65260000
1.61110000 1.25350000 -2.76960000
-1.21980000 -1.65410000 -1.52180000
-2.04290000 3.03260000 3.09820000
-1.46420000 -1.80890000 -1.41040000
-2.00310000 3.06730000 3.04700000
1.46200000 1.05590000 -2.48300000
1.49840000 1.09990000 -2.55040000
1.40230000 0.94760000 -2.51320000
1.48280000 1.04410000 -2.58140000
-0.61670000 -1.25810000 -1.70190000
-0.87790000 -1.38790000 -1.63090000
-0.77310000 -1.43670000 -1.71980000
0.15720000 -1.34510000 -1.52520000
1.53470000 1.07030000 -2.63980000
1.50140000 1.00710000 -2.71400000
1.45180000 1.01620000 -2.64540000
1.37990000 0.91690000 -2.64200000
-2.22060000 2.73770000 2.94760000
-2.26990000 2.83790000 3.03160000
-0.91260000 -1.25420000 -1.57680000
-1.11820000 -1.45100000 -1.52590000
-2.12920000 2.90500000 3.08450000
-1.09400000 -1.30160000 -1.52410000
2.70030000 -2.25300000 1.49870000
3.87310000 1.59440000 1.71160000
4.02080000 1.66500000 1.49710000
3.86010000 1.67630000 1.75440000
1.55630000 1.27090000 -2.73980000
3.86100000 1.72570000 1.73250000
-0.80520000 -1.57570000 -1.92270000
-0.76070000 -1.53070000 -1.83760000
-0.97730000 -1.61550000 -1.75640000
3.90190000 1.31850000 1.51150000
4.00150000 1.51190000 1.48240000
-2.12980000 3.06420000 2.97000000
1.60010000 1.40570000 -2.85750000
1.22920000 -0.21100000 2.19470000
1.47100000 -0.02800000 2.16310000
0.97170000 0.05160000 2.42240000
-2.18130000 2.98840000 3.09220000
-0.99910000 -1.55250000 -1.64420000
-2.10850000 3.06690000 3.07510000
3.74570000 1.51870000 1.80370000
1.23400000 0.05300000 2.33050000
-1.12760000 -1.67490000 -1.64200000
1.52510000 1.30900000 -2.69960000
3.99920000 1.74410000 1.48330000
-2.26150000 3.03850000 3.07790000
3.99250000 1.76020000 1.40800000
3.86890000 1.78360000 1.57190000
1.53030000 1.42180000 -2.75390000
0.84900000 -0.29840000 2.29220000
2.22760000 -2.53600000 1.96450000
3.58170000 1.76700000 1.65720000
3.71480000 1.76360000 1.77010000
3.87210000 1.76950000 1.67000000
1.05170000 -0.03160000 2.67260000
1.45800000 0.64980000 -2.64190000
-2.43090000 2.99530000 3.02010000
-2.20650000 3.08630000 3.03900000
-1.28130000 -1.39360000 -1.48700000
3.59940000 1.77280000 1.55060000
1.44460000 0.70360000 -2.72080000
0.86500000 0.01610000 2.72600000
1.48360000 0.79110000 -2.76180000
4.08660000 1.40430000 1.24950000
4.09670000 1.52600000 1.32360000
4.04000000 1.37590000 1.33290000
0.92970000 0.02850000 2.63840000
1.39640000 0.69770000 -2.68380000
1.37240000 0.68840000 -2.62670000
-2.36080000 3.06240000 3.02330000
0.04410000 -0.86890000 -0.86660000
-0.05880000 -0.93870000 -0.59620000
0.28200000 -0.86220000 -0.86690000
2.17100000 -2.68470000 1.79730000
-2.33250000 3.07580000 2.95240000
-1.36540000 -1.60910000 -1.44850000
4.11260000 1.52550000 1.24710000
0.92410000 0.10170000 2.55880000
2.15400000 -2.73440000 1.67910000
4.08980000 1.61510000 1.24870000
4.09510000 1.63930000 1.34220000
1.51520000 0.91250000 -2.78380000
0.18400000 -1.56390000 -1.19840000
4.02240000 1.25850000 1.30520000
0.74410000 0.05420000 2.84140000
4.04500000 1.37210000 1.19350000
4.00630000 1.28070000 1.24510000
2.15030000 -2.30550000 2.12560000
2.08400000 -2.37520000 2.06360000
1.41740000 0.79210000 -2.76340000
4.07590000 1.40090000 1.10680000
4.03690000 1.23030000 1.09450000
4.13130000 1.24140000 1.00690000
1.45400000 0.84260000 -2.79710000
3.98880000 1.32090000 1.17400000
0.73120000 0.11700000 2.71600000
-1.65830000 -1.75830000 -1.36190000
0.76390000 0.17680000 2.62120000
1.38150000 0.81250000 -2.70300000
-2.40490000 1.87930000 2.42830000
-2.43760000 2.21510000 2.54480000
1.91860000 -2.25980000 2.23110000
1.88190000 -2.31400000 2.16560000
4.15050000 1.43020000 0.98540000
4.11080000 1.47740000 1.06720000
-0.01320000 -1.66510000 -1.02650000
1.41270000 0.90630000 -2.76640000
1.46300000 0.92630000 -2.80190000
0.92230000 0.10480000 2.48400000
4.10300000 1.48600000 0.95010000
4.09590000 1.53620000 1.06100000
2.17350000 -3.03040000 1.83200000
4.07470000 1.48430000 1.16580000
-3.41560000 1.69030000 -0.24960000
-3.61840000 2.01970000 -0.02020000
-3.35910000 1.52330000 0.08110000
-2.38100000 0.04760000 2.23150000
-2.43620000 0.43330000 2.28910000
-2.42520000 0.18130000 2.29720000
4.06230000 1.55770000 1.15580000
-2.46660000 0.34190000 2.32680000
4.04500000 1.58410000 1.08060000
-2.38240000 0.38220000 2.17100000
4.01150000 1.63610000 1.18460000
1.42080000 0.98670000 -2.70570000
2.15750000 -2.52990000 1.92800000
3.94990000 1.57900000 1.01420000
-1.60750000 -1.48920000 -1.43980000
0.51810000 -0.20880000 2.40580000
1.58850000 0.68740000 -2.23680000
3.98310000 1.32100000 1.42000000
1.46440000 0.68650000 -2.31270000
1.61630000 0.65180000 -2.29880000
2.07130000 -2.44390000 1.97340000
-1.34490000 -1.29750000 -1.50890000
1.40300000 0.69960000 -2.29930000
1.35460000 0.69700000 -2.30480000
-2.50240000 0.42160000 2.28260000
-2.52020000 0.28010000 2.22500000
-2.49900000 0.19550000 2.30370000
2.09320000 -2.52950000 1.83570000
0.71730000 0.10270000 2.90950000
2.01160000 -2.44480000 1.88900000
-2.46890000 0.51820000 2.28150000
0.67920000 0.21940000 2.99550000
-2.47870000 0.69290000 2.22320000
-2.44480000 0.68990000 2.15980000
1.91820000 -2.36530000 2.01970000
-2.53240000 0.61820000 2.21440000
0.60290000 0.16410000 2.96920000
3.80710000 1.17850000 1.53710000
-2.38430000 0.56430000 2.09690000
0.71450000 0.05500000 2.79980000
-2.53700000 0.46470000 2.18080000
1.37260000 1.33720000 -2.22370000
-1.48670000 -1.43280000 -0.79820000
0.62770000 0.11400000 2.85700000
-2.43170000 0.72770000 2.10730000
0.08090000 -1.78310000 -0.76510000
-2.57530000 0.46460000 2.14690000
2.06950000 -2.54080000 1.71010000
-0.23540000 -1.73530000 -0.83260000
0.61940000 0.24150000 2.72420000
-2.63410000 0.53590000 2.15130000
1.41080000 0.67570000 -2.45480000
-2.62770000 0.75360000 2.18770000
0.54500000 0.19120000 2.93370000
1.21860000 0.63560000 2.86010000
-1.55010000 -1.48000000 -0.54150000
1.34350000 0.77100000 -2.38800000
1.94320000 -2.38240000 1.78770000
-2.53550000 0.74000000 2.23090000
1.12220000 0.40230000 2.89190000
-2.49970000 0.84310000 2.19450000
-2.53450000 0.84820000 2.23820000
1.07770000 0.37680000 2.87720000
3.93460000 1.18000000 1.32080000
1.36430000 0.74970000 -2.48770000
-2.49640000 0.88070000 2.10940000
-2.39800000 0.77930000 2.08090000
1.25710000 0.78840000 -2.38320000
3.90580000 1.20430000 1.29640000
-1.31050000 -1.30930000 -1.16470000
3.88450000 1.25590000 1.26610000
2.02390000 -2.43990000 1.63480000
-1.53100000 -1.36870000 -0.96390000
3.82340000 1.18630000 1.23270000
-2.45770000 0.90860000 2.07420000
1.79060000 -2.29420000 1.94930000
3.73600000 1.13830000 1.38740000
-2.59270000 0.87320000 2.22490000
3.78090000 1.20320000 1.27890000
1.02520000 0.43070000 2.91020000
0.88550000 0.46730000 3.02420000
-2.63180000 0.87400000 2.18810000
1.10850000 0.72950000 -2.42070000
-1.40690000 -1.29620000 -1.19980000
3.66890000 1.15300000 1.36810000
2.57510000 -2.81270000 1.42390000
-2.66340000 0.77020000 2.11970000
-2.68490000 0.58450000 2.14210000
4.05370000 1.70960000 1.33110000
-1.49170000 -1.27170000 -1.19250000
-1.66500000 -1.31660000 -0.90230000
1.35790000 0.85970000 -2.45930000
1.35070000 0.83250000 -2.55970000
-2.64530000 0.85870000 2.14290000
1.30400000 0.89570000 -2.43990000
2.20770000 -3.01800000 1.70320000
-0.21910000 -1.51430000 -1.24030000
1.13680000 0.56670000 2.88320000
2.16260000 -3.05410000 1.75540000
-2.37600000 0.95530000 2.13060000
1.37860000 0.97270000 -2.46440000
2.15030000 -2.97030000 1.72740000
-2.53130000 0.91200000 2.19850000
-2.53990000 0.93310000 2.07430000
-2.58090000 0.94810000 2.16280000
2.39370000 -2.85700000 1.53420000
1.29980000 1.02360000 -2.47470000
2.45880000 -2.80940000 1.39160000
1.17810000 0.85940000 -2.45370000
1.10310000 1.01730000 -2.53370000
-2.55440000 0.98190000 2.01960000
2.27450000 -2.89230000 1.57670000
3.82550000 1.62900000 1.07730000
3.86020000 1.70750000 1.27890000
2.34950000 -2.78340000 1.41070000
-2.60840000 0.87790000 2.05500000
2.27970000 -2.71380000 1.39360000
-2.61170000 0.87420000 1.95560000
2.18810000 -2.91910000 1.64880000
3.66940000 1.71880000 1.31260000
-1.71080000 -1.44500000 -0.49650000
2.17460000 -2.83640000 1.67000000
2.14600000 -2.75940000 1.59360000
-1.93000000 -1.28850000 -0.44330000
-3.46460000 1.05460000 -0.22890000
-3.62880000 1.30140000 0.05220000
-3.76590000 1.72140000 -0.19020000
-2.17000000 1.13120000 2.30870000
-2.57150000 1.28550000 2.11090000
-1.96710000 -1.07680000 -0.81780000
2.58460000 -2.80120000 1.25200000
-2.67910000 1.70000000 2.20230000
0.67100000 0.23680000 2.60440000
0.60250000 0.23510000 2.58240000
-0.23120000 -1.33100000 -1.45620000
0.91220000 1.61400000 -2.45140000
0.77130000 0.98260000 -2.30820000
2.50560000 -2.76870000 1.21680000
3.70540000 1.69390000 1.87510000
3.72690000 1.62680000 1.88260000
2.44140000 -2.70280000 1.19660000
0.69870000 -0.63380000 -1.22360000
1.00430000 -0.37710000 -1.44520000
0.60680000 -0.49590000 -1.46300000
3.62420000 1.57210000 1.92580000
3.58210000 1.60910000 1.99340000
3.50830000 1.51100000 2.04410000
3.56470000 1.71610000 1.89450000
1.37550000 0.75670000 2.12200000
0.94970000 0.93930000 2.31130000
1.31940000 1.13600000 2.27640000
3.66550000 1.72460000 1.86770000
3.56060000 1.66370000 2.00630000
3.58470000 1.73790000 2.04630000
3.53840000 1.67660000 2.09290000
0.72240000 -0.74670000 -0.98320000
0.31550000 -0.73590000 -1.16940000
3.58430000 1.77530000 1.99550000
-3.28470000 0.96570000 -0.66190000
3.54090000 1.74560000 1.93290000
0.98820000 0.70210000 2.21250000
2.42840000 -2.44280000 0.98860000
2.35220000 -2.51910000 1.15490000
3.62300000 1.37080000 1.76280000
3.61600000 1.49190000 1.83260000
0.83900000 0.49290000 2.14450000
1.29190000 0.31020000 1.93630000
3.43740000 1.42310000 1.85380000
-0.71190000 -1.20270000 -1.48780000
-0.87330000 -1.17330000 -1.51350000
3.48480000 1.53200000 1.90250000
3.51960000 1.52900000 1.96420000
0.22570000 -0.60340000 -1.40830000
2.09660000 -2.58980000 1.59550000
-0.96060000 -0.40660000 -1.42960000
-0.66270000 -0.37850000 -1.56850000
2.15140000 -2.67600000 1.49790000
-3.53640000 2.05550000 -0.59050000
-3.20660000 1.36680000 -0.45140000
3.37970000 1.41740000 2.14500000
3.43060000 1.50750000 2.14350000
2.20500000 -2.56880000 1.37090000
-3.16620000 1.47830000 -0.71960000
-2.88920000 1.90590000 2.32810000
-2.91980000 1.94640000 2.43660000
-2.91670000 1.85340000 2.43470000
3.28270000 1.40890000 2.23920000
3.27810000 1.29400000 2.21230000
-2.94190000 1.83950000 2.33590000
3.11350000 1.31000000 2.32770000
-2.93780000 1.89580000 2.51110000
-2.96520000 1.81610000 2.50540000
-2.97200000 1.90230000 2.54970000
3.42750000 1.59910000 2.16470000
3.31850000 1.50660000 2.20720000
-3.04900000 1.87190000 2.53640000
3.18580000 1.48800000 2.25030000
3.14990000 1.40250000 2.30890000
2.09420000 -2.47360000 1.49640000
-3.00210000 1.78480000 2.44070000
-3.05860000 1.79000000 2.47820000
3.49800000 1.73370000 2.13300000
3.41380000 1.70010000 2.16620000
-3.14680000 1.83090000 2.42200000
2.25570000 -2.38960000 1.24220000
2.01570000 -2.29450000 1.55800000
-3.18200000 1.92530000 2.40920000
3.30980000 1.58340000 2.18430000
3.33530000 1.67750000 2.13720000
3.16640000 1.62100000 2.09850000
3.08780000 1.53780000 2.18200000
0.52640000 0.75190000 2.33470000
3.35470000 1.33830000 2.13020000
3.43660000 1.46790000 2.02940000
3.37330000 1.36770000 2.04440000
3.38940000 1.26460000 2.07820000
-3.71690000 2.22500000 -0.32830000
0.97580000 -0.20630000 -1.63530000
-0.77850000 -1.17210000 -1.59200000
-1.04570000 -1.19730000 -1.50830000
3.40840000 1.47260000 1.99040000
-3.64170000 1.64970000 -0.49640000
3.34450000 1.32300000 1.98310000
3.45680000 1.22480000 1.95110000
3.34700000 1.37110000 1.96760000
-1.14050000 -1.18990000 -1.45040000
3.37600000 1.27010000 1.92860000
0.64390000 0.38580000 3.10230000
0.70830000 0.53990000 3.14090000
3.38400000 1.41280000 1.88920000
3.37710000 1.41970000 1.93570000
1.34660000 0.76550000 -2.61510000
-1.15850000 -1.21800000 -1.50800000
-1.32350000 -1.01760000 -1.81570000
-1.27710000 -1.05430000 -1.69530000
-1.25750000 -0.99320000 -1.71230000
3.44160000 1.53900000 1.94360000
0.44230000 -0.35770000 -1.66900000
-1.26330000 -1.21980000 -1.38180000
4.13350000 1.01890000 0.55230000
4.16660000 1.12030000 0.77120000
4.14090000 0.88510000 0.55560000
-3.44160000 1.42820000 -0.74860000
-3.74980000 1.88360000 -0.52290000
3.36060000 1.75140000 2.08800000
3.24490000 1.72130000 2.05560000
-1.25740000 -1.21900000 -1.52240000
4.12590000 0.92500000 0.27330000
-2.87910000 1.46530000 1.94910000
-1.22980000 -1.17740000 -1.49160000
3.02070000 1.66210000 2.07230000
3.76610000 1.77150000 1.79710000
0.56530000 0.60710000 3.19350000
-3.89000000 2.06450000 -0.43440000
-2.70530000 0.95890000 1.88730000
-1.31800000 -1.14240000 -1.48050000
3.61240000 1.92370000 2.08590000
3.57950000 1.90990000 2.12700000
-1.30530000 -1.13050000 -1.53450000
3.60300000 1.92890000 2.04140000
0.46370000 0.52250000 3.17460000
3.54500000 1.89120000 1.98000000
0.53280000 0.35610000 3.09140000
-1.43990000 -1.17540000 -1.35060000
3.39040000 1.86230000 1.88680000
3.42480000 2.02120000 1.95090000
3.57260000 2.01720000 2.03100000
3.49890000 2.18960000 2.08860000
-3.76670000 2.25310000 -0.12110000
-1.36470000 -1.04960000 -1.55340000
-1.55050000 -1.00740000 -1.41060000
-2.79440000 1.89750000 2.21900000
-2.84270000 1.84940000 2.16410000
0.52170000 0.26640000 3.04000000
0.46010000 0.29630000 3.00520000
3.54910000 -1.02570000 -0.69850000
3.59970000 -0.99410000 -0.55380000
3.51980000 -1.26800000 -0.61390000
-1.33770000 -1.19140000 -1.55310000
3.48990000 1.74750000 1.76470000
-3.42280000 2.05990000 -0.84510000
3.47510000 1.77630000 1.88300000
3.81400000 -0.05990000 -0.21420000
3.83750000 0.07870000 -0.04270000
3.71320000 -0.15850000 -0.09890000
3.41310000 1.75840000 1.78810000
-1.59950000 -1.33880000 -1.49460000
-1.43720000 -1.21060000 -1.56370000
0.41980000 0.65010000 3.20210000
-3.69150000 2.32680000 -0.63540000
0.32880000 0.55420000 3.14340000
0.42040000 0.40310000 3.10360000
3.48990000 1.82710000 2.13660000
0.36830000 0.44140000 3.02850000
-1.68210000 -1.25990000 -1.62060000
3.93590000 0.26000000 -0.00760000
3.89650000 0.36790000 0.43000000
3.84850000 0.21660000 0.18260000
0.46450000 0.33620000 2.92770000
4.00970000 0.43160000 0.22890000
-1.51020000 -1.19230000 -1.64570000
4.10700000 0.67850000 0.18190000
3.42400000 1.85440000 2.11880000
-1.30330000 -1.09060000 -1.60570000
-1.36550000 -1.10510000 -1.68370000
3.48320000 1.94960000 2.17940000
3.33840000 1.86140000 2.11610000
0.33770000 0.49120000 3.08510000
-1.39570000 -0.93770000 -1.59760000
0.25920000 0.56450000 3.08930000
-2.97570000 1.74190000 1.98860000
-3.05780000 1.79920000 2.30170000
-3.14020000 1.78730000 2.35620000
4.10280000 0.74580000 0.04010000
4.03920000 0.51690000 -0.00730000
0.30180000 0.57930000 3.00110000
4.07450000 0.61550000 0.47640000
4.11730000 0.75170000 0.54750000
0.21850000 0.57630000 3.14510000
3.26470000 1.94810000 2.24330000
3.07940000 1.75690000 2.12210000
0.12470000 0.53910000 3.03300000
0.72910000 0.89570000 -2.57370000
0.12640000 0.50910000 3.10830000
-3.25090000 1.83370000 2.28730000
-3.12690000 1.84620000 2.14700000
-3.22390000 1.81420000 2.20120000
0.12960000 0.58070000 3.18080000
0.01520000 0.44040000 3.10740000
-1.28330000 -0.95990000 -1.81660000
-1.29980000 -0.83410000 -1.76610000
-1.34210000 -0.77690000 -1.86570000
0.63920000 0.80360000 3.11260000
3.31300000 1.81700000 1.81520000
0.70090000 0.85320000 3.05760000
0.36580000 -0.16980000 -1.85470000
4.12920000 0.87880000 0.05290000
0.55890000 0.84090000 3.14150000
0.51240000 0.77660000 3.18360000
-1.54040000 -0.80210000 -1.53870000
-1.69600000 -0.80270000 -1.38260000
-1.58090000 -0.63550000 -1.55020000
0.75550000 0.90760000 3.02350000
3.14320000 1.72460000 2.06190000
-1.32730000 -0.82430000 -1.70660000
4.03060000 0.58000000 -0.09050000
0.52950000 -0.71430000 -2.03190000
-1.42650000 -0.75710000 -1.62460000
0.55200000 0.92860000 3.14770000
1.02560000 1.32180000 -2.62210000
-3.92130000 2.02180000 -0.20470000
0.46590000 0.92700000 3.11010000
0.44330000 0.97480000 3.10060000
3.21300000 2.00450000 1.82510000
3.25760000 2.10720000 1.89690000
0.40300000 -0.42620000 -2.17610000
0.43480000 0.76530000 3.20920000
0.35280000 0.71980000 3.19420000
-2.41620000 2.51410000 2.71520000
0.47720000 0.87040000 3.17100000
4.11430000 0.87250000 -0.04470000
-3.87450000 2.08680000 -0.53620000
4.03210000 0.81250000 -0.13870000
-3.79690000 1.96290000 -0.60030000
0.38370000 0.79500000 3.16190000
0.17460000 -0.39870000 -1.66970000
3.66910000 1.20110000 1.66480000
3.99460000 0.65620000 -0.16720000
-1.37820000 -0.59360000 -1.74270000
0.28460000 0.64620000 3.18360000
-1.33690000 -0.53560000 -1.84050000
0.29470000 0.74270000 3.13750000
0.30830000 0.76330000 3.04740000
0.21910000 0.67810000 3.20610000
3.73970000 0.03290000 0.05800000
0.15900000 0.73190000 3.19000000
-1.36320000 -0.57560000 -1.89640000
3.38630000 1.29760000 1.81660000
0.41690000 0.86560000 3.10280000
0.30790000 0.87510000 3.03370000
3.44350000 1.21880000 1.76250000
-3.89250000 2.23960000 -0.65770000
0.58340000 1.39990000 -2.46570000
3.33650000 1.30150000 1.89330000
3.37880000 1.24180000 1.84300000
0.24750000 0.98770000 3.10450000
0.11440000 0.84750000 3.00710000
-1.67800000 -1.16540000 -1.12860000
0.20170000 0.72840000 3.06210000
0.16220000 0.60940000 2.98660000
-2.43340000 2.89340000 3.00840000
0.25460000 0.65190000 2.92020000
0.25000000 0.74440000 2.97850000
0.12960000 0.72930000 2.99410000
-2.60940000 2.75540000 2.83390000
3.48360000 1.71620000 1.35680000
-0.00520000 0.65320000 3.19060000
3.30870000 1.76660000 1.68860000
0.58350000 1.30050000 -2.67970000
0.32360000 0.88580000 -2.63260000
0.08530000 0.74350000 3.15560000
3.88020000 0.08490000 -0.35030000
3.38550000 1.73380000 1.45300000
3.89150000 0.21270000 -0.42670000
0.00430000 0.73140000 3.08350000
-2.57910000 2.65670000 2.75410000
0.29670000 0.82050000 2.99960000
-1.84840000 -1.03690000 -1.06230000
-3.95920000 2.31010000 -0.60250000
-3.63190000 2.48810000 -0.96430000
-3.84130000 2.57130000 -0.71630000
0.08490000 0.76620000 2.95550000
0.41830000 0.22310000 -2.71300000
0.47630000 0.35800000 -2.68770000
0.38370000 0.29180000 -2.56990000
3.45680000 1.72970000 1.24050000
-2.07690000 -0.86590000 -0.92290000
-0.01230000 0.96560000 3.06920000
0.48080000 0.28030000 -2.79820000
-3.93600000 2.54960000 -0.41390000
0.43210000 0.26350000 -2.85100000
3.30370000 1.76860000 1.50160000
-0.06130000 0.87710000 3.00940000
3.89610000 0.78600000 -0.31290000
-2.54850000 2.89730000 2.93700000
-0.12390000 -0.77330000 -1.09180000
3.41300000 1.80800000 1.34180000
3.57750000 2.04460000 1.32980000
3.41320000 2.06680000 1.56720000
3.87930000 0.40700000 -0.44320000
3.79790000 0.49620000 -0.52360000
3.27580000 1.85260000 1.54650000
0.49440000 0.39780000 2.77230000
3.20800000 1.83260000 1.60730000
-0.03250000 -0.67510000 -1.29810000
0.51270000 0.41670000 -2.83670000
0.49700000 0.41880000 -2.73040000
-1.90940000 -0.54910000 -1.34110000
-2.26630000 -0.41080000 -1.10950000
0.50220000 0.36690000 -2.87180000
-2.68870000 2.81220000 2.83000000
0.46620000 0.50900000 -2.76520000
-2.68450000 2.92710000 2.85420000
0.45690000 0.52770000 -2.87570000
0.50080000 0.38230000 2.67550000
3.21410000 1.77470000 1.62690000
0.36340000 0.60150000 -2.75350000
3.18550000 1.80630000 1.71720000
0.35080000 0.59650000 -2.87230000
3.15790000 1.85200000 1.71640000
3.18760000 1.98610000 1.75500000
-3.03340000 1.85670000 -1.25590000
-2.64180000 0.92840000 -1.14310000
-2.53760000 1.14730000 -1.40520000
3.74000000 -0.41460000 -0.44690000
3.71300000 -0.41760000 -0.33340000
3.65980000 -0.40150000 -0.20580000
0.42150000 0.50570000 2.75650000
-0.49530000 -0.83670000 -0.81870000
0.37560000 0.45960000 2.69210000
0.46190000 0.35410000 -2.93610000
3.24530000 2.13710000 1.80290000
0.46440000 0.44910000 -2.94010000
0.37190000 0.33800000 -2.97360000
0.33070000 0.30500000 -2.93680000
0.29970000 0.18610000 -2.80030000
0.10450000 0.18230000 -2.75980000
0.37870000 0.43280000 -2.98250000
0.41510000 0.51270000 -2.93710000
-2.74140000 2.39810000 2.48110000
0.29820000 0.42230000 -2.99130000
-2.85800000 0.99730000 -0.85240000
0.23420000 0.55850000 -2.90980000
0.23020000 0.30890000 2.65920000
3.68900000 -0.57380000 -0.61560000
-1.86450000 -0.85290000 -1.16880000
0.24560000 0.36150000 -2.96900000
-1.75540000 -1.35540000 -1.50560000
3.73620000 2.30010000 1.34430000
3.90550000 2.51920000 1.37570000
3.78710000 2.55350000 1.63540000
3.59500000 2.35650000 1.62080000
-3.10830000 1.66330000 -0.99870000
0.60390000 0.00530000 -1.92410000
3.63790000 -0.75380000 -0.41280000
0.06520000 0.44800000 3.04390000
-0.00190000 0.36650000 3.04960000
4.34040000 2.88710000 1.22690000
4.42930000 2.88790000 1.20260000
4.36230000 2.92420000 1.41360000
-0.07160000 0.40860000 2.97630000
4.28180000 2.78090000 0.94870000
4.20260000 2.91000000 1.57150000
-2.55680000 2.57600000 2.28180000
4.17500000 2.81000000 1.33940000
3.57940000 -1.05590000 -0.36000000
-0.07470000 0.44430000 2.70510000
-0.06020000 0.27240000 2.66100000
-1.75330000 -0.67190000 -1.37680000
-3.11970000 1.17430000 -1.11150000
-3.05150000 0.91190000 -1.05640000
-3.09310000 0.74450000 -0.86460000
4.00300000 2.76290000 1.57950000
4.08080000 2.68800000 1.26560000
3.63410000 -0.69740000 -0.66200000
0.33280000 0.63040000 2.82450000
0.31860000 0.61650000 2.75040000
0.17440000 0.66150000 2.75710000
-3.31440000 1.49850000 -0.99950000
-3.07470000 1.39280000 -1.25860000
4.07550000 2.49280000 0.88390000
3.99680000 2.51820000 1.16980000
0.23730000 0.69950000 2.79500000
0.17690000 0.71060000 2.82510000
3.78410000 -0.21680000 -0.64780000
-0.10490000 -0.46610000 -1.59250000
0.07490000 0.68680000 2.83670000
3.68490000 -0.40750000 -0.73240000
3.71310000 -0.23700000 -0.81100000
4.15310000 2.60880000 0.82220000
3.59850000 -0.50960000 -0.78210000
-2.83820000 1.90640000 -1.50370000
-0.04050000 0.59150000 2.88090000
-2.37740000 1.18850000 -1.58470000
-0.21040000 0.44760000 2.87010000
3.94690000 2.79410000 1.25790000
4.18370000 2.97830000 1.30510000
4.06380000 2.74690000 0.82420000
3.42730000 -0.95170000 -0.87010000
3.60710000 -0.29380000 -0.85960000
0.06210000 0.67510000 2.78160000
0.05070000 -0.20520000 -1.85730000
-0.00310000 0.72830000 2.99250000
-0.06470000 0.73340000 2.94290000
-0.05030000 0.79690000 2.94840000
-1.37620000 -1.68430000 0.28050000
-1.53500000 -1.60380000 0.45230000
-1.75930000 -1.53500000 0.24470000
-1.71920000 -1.55300000 0.40160000
3.49610000 -0.32620000 -0.91630000
-1.71540000 -1.52140000 0.59130000
-0.06320000 0.77170000 2.87480000
-0.10010000 0.70210000 2.85930000
-0.14010000 0.85790000 2.91150000
-0.07840000 0.80630000 2.83130000
-0.22680000 0.96690000 2.87180000
-0.29710000 -0.27520000 -1.76460000
-2.79960000 2.76100000 2.72490000
-1.73330000 -1.53270000 0.01240000
-1.28730000 -1.71740000 0.07150000
3.85200000 2.78240000 1.84330000
-2.83790000 2.86920000 2.73180000
0.11630000 0.02540000 -2.01920000
-2.91970000 2.78570000 2.67860000
-0.04030000 0.63140000 2.79350000
0.27570000 0.31580000 -2.16400000
-0.13660000 0.50930000 2.72380000
3.78500000 0.17110000 -0.67990000
-2.86580000 2.54010000 2.52370000
-1.83890000 -1.52920000 0.33030000
-1.92810000 -1.48660000 0.25580000
-0.18870000 0.53040000 2.80020000
-1.89980000 -1.47340000 0.43070000
-2.03000000 -1.35570000 0.30420000
-1.85580000 -1.50060000 0.05760000
-1.92030000 -1.43040000 0.03630000
3.75640000 2.78950000 1.51960000
3.96640000 3.01070000 1.74380000
-2.89100000 2.67470000 2.64270000
-0.12570000 0.56320000 2.76030000
-0.09070000 0.69920000 2.79650000
-0.08360000 0.76230000 2.78230000
-0.17520000 0.65400000 2.82990000
-0.13650000 0.72120000 2.74890000
3.74790000 -0.05790000 -0.84960000
-0.21640000 0.90850000 2.80640000
-2.94590000 2.59940000 2.58430000
-0.34080000 0.59170000 2.71830000
-3.03420000 2.64690000 2.64940000
-0.57540000 1.18090000 2.80800000
-3.05880000 2.50130000 2.63860000
-2.99500000 2.58340000 2.61160000
-3.07390000 2.73330000 2.62710000
-0.15560000 -0.38800000 3.07920000
-0.06470000 -0.45640000 3.04350000
-0.32200000 -0.15470000 3.08480000
-3.08330000 2.65550000 2.60590000
-3.10560000 2.58680000 2.65970000
-0.30750000 -0.21430000 3.09670000
0.62060000 -1.99680000 -1.78490000
0.65420000 -1.79750000 -1.90910000
-3.15880000 1.57570000 -1.27440000
-3.25490000 1.68300000 -1.18680000
0.01440000 0.52600000 3.15940000
3.78290000 0.77260000 -0.41850000
-3.36050000 1.73040000 -1.04800000
0.62550000 -1.70820000 -1.98590000
-2.48680000 3.01550000 2.80930000
-0.06380000 0.69480000 3.19510000
-3.30270000 1.71510000 -1.23060000
-2.55340000 3.04320000 2.87730000
3.69750000 0.42550000 -0.64600000
-0.08760000 0.54410000 3.13440000
3.67560000 0.83340000 -0.38600000
3.58960000 0.48960000 -0.62830000
0.57110000 -1.60270000 -2.07720000
-0.10720000 0.72880000 3.15900000
-2.86570000 1.05960000 -1.45530000
-2.83630000 0.92650000 -1.43710000
-2.93410000 0.99220000 -1.32240000
-0.20610000 0.69570000 3.03710000
-2.93230000 1.12970000 -1.32270000
0.48930000 -1.46440000 -2.17660000
-2.97880000 1.33820000 -1.34430000
-2.90340000 1.20970000 -1.41040000
3.70080000 0.16020000 -0.82790000
-0.09040000 0.45650000 3.10740000
-2.99900000 1.37710000 -1.39410000
-0.15540000 0.37630000 3.09870000
3.84600000 2.23890000 1.02120000
0.41730000 -1.62330000 -1.99980000
0.44470000 -1.72430000 -1.95710000
-2.54290000 3.00430000 2.94660000
-2.86570000 1.07670000 -1.51830000
-2.95480000 1.24460000 -1.46060000
-0.05990000 0.34180000 3.06980000
-0.10050000 0.31830000 2.98970000
-0.11210000 0.27050000 3.02220000
3.62340000 0.27710000 -0.80760000
-0.15340000 0.25650000 3.05150000
-2.79330000 0.93090000 -1.54800000
-2.84080000 0.86550000 -1.49010000
-0.22690000 0.27080000 3.08770000
-2.81170000 0.87270000 -1.58340000
3.46680000 0.42700000 -0.63140000
-2.84570000 0.95430000 -1.66250000
0.36740000 -1.91100000 -1.96780000
0.44370000 -1.89930000 -1.88810000
0.29070000 -1.74140000 -2.01920000
3.52590000 0.82340000 -0.32830000
-2.71380000 2.99040000 2.80550000
-2.88780000 1.06400000 -1.62340000
-0.27580000 0.50980000 3.10290000
-0.26470000 0.40840000 3.04720000
0.31060000 -1.65580000 -2.00150000
3.52440000 0.32040000 -0.77380000
-0.27480000 0.31230000 3.08940000
-2.84990000 0.85310000 -1.64510000
-2.88840000 0.93070000 -1.72730000
0.28490000 -1.55720000 -2.00450000
-0.18800000 0.24180000 2.96000000
-0.20010000 0.19320000 2.98280000
-0.24810000 0.18600000 3.03150000
-0.28570000 0.11860000 2.96990000
3.74920000 -0.14770000 -0.81110000
-0.29410000 0.13240000 2.90920000
-0.32640000 0.26890000 2.84830000
0.31280000 -1.43330000 -2.05880000
-0.36540000 0.17370000 3.03610000
-0.32760000 0.24550000 3.07270000
-2.92440000 1.18200000 -1.67090000
-2.91400000 1.07670000 -1.75600000
-2.91140000 1.19420000 -1.73620000
-2.70550000 2.98430000 2.68470000
-0.37190000 0.07740000 2.95420000
3.70380000 2.02890000 1.05720000
-3.05230000 1.30990000 -1.47900000
-2.17720000 -1.14950000 0.60960000
-2.36870000 -0.97450000 0.48060000
-2.97530000 1.18850000 -1.58190000
-0.47510000 0.23280000 2.97210000
0.09230000 -1.23200000 -1.73720000
-3.08670000 1.33310000 -1.65470000
-2.02340000 -1.30480000 0.00990000
-2.89510000 2.85730000 2.41150000
3.66350000 -0.16430000 -1.01650000
3.61580000 -0.23370000 -0.92370000
-2.16220000 -1.21000000 0.10930000
-2.79370000 2.70010000 2.26610000
3.58910000 -0.20630000 -1.09500000
-2.78770000 2.99080000 2.69450000
-3.01340000 0.94100000 -1.15830000
-0.36980000 0.32940000 3.02230000
-0.08600000 -1.12760000 -1.83720000
3.61200000 -0.14530000 -1.18020000
-2.90540000 2.97170000 2.60160000
3.62570000 -0.02680000 -1.09480000
0.19580000 -1.45060000 -2.00760000
-2.84480000 2.94090000 2.72210000
-0.44170000 0.36710000 3.01630000
-2.34190000 -1.03610000 0.14330000
-3.08920000 2.94150000 2.64820000
-2.92440000 2.96510000 2.67690000
0.28100000 0.63600000 -2.29930000
0.03080000 -1.35060000 -1.98390000
0.58400000 -1.48820000 -2.40140000
-3.03000000 1.34080000 -1.72820000
0.50870000 -2.21330000 -2.35720000
0.36130000 -2.09920000 -2.29980000
0.32390000 -1.97270000 -2.38430000
-0.56880000 0.40200000 3.10140000
-0.63660000 0.43870000 3.13740000
-0.70110000 0.41930000 3.11210000
-3.33870000 1.51790000 -1.46440000
0.24600000 -1.90460000 -2.24470000
0.30760000 -2.03500000 -2.23290000
0.20580000 -1.86320000 -2.36860000
3.54100000 0.12750000 -1.00570000
-1.77440000 -1.50190000 -0.19820000
3.39550000 0.21250000 -0.84450000
-0.35230000 0.56110000 3.16120000
-3.07530000 2.86090000 2.63910000
3.35070000 0.33480000 -0.63450000
0.34130000 0.98110000 -2.40020000
-0.35870000 0.63380000 3.17500000
-0.28700000 0.69010000 3.14800000
0.29690000 -1.94510000 -2.09020000
0.34840000 -2.03500000 -2.01880000
0.28140000 -1.85640000 -2.06840000
-3.09240000 2.97830000 2.59800000
-3.10310000 2.97160000 2.48740000
-3.16110000 1.54170000 -1.33540000
3.44750000 0.09330000 -1.05460000
0.18270000 -1.62010000 -2.03520000
-3.23690000 2.99900000 2.49500000
0.15310000 -1.73110000 -2.10200000
-3.24340000 1.48370000 -1.42030000
-0.42590000 0.63420000 3.11080000
-3.23390000 2.79250000 2.56010000
0.28980000 -1.99220000 -2.16230000
-3.21830000 2.90450000 2.59630000
-0.23200000 0.94140000 2.98850000
-3.31850000 1.61020000 -1.31580000
-3.22780000 2.99640000 2.58320000
-0.33160000 0.60880000 2.89350000
3.14790000 -0.73490000 1.68230000
3.05230000 -0.80130000 1.69900000
3.17690000 -0.75470000 1.61170000
-3.44210000 1.71090000 -1.24220000
2.99630000 -0.75860000 1.74470000
-1.83520000 -1.46170000 -0.23190000
3.21840000 -0.65690000 1.52450000
3.24470000 -0.63580000 1.58630000
3.20810000 -0.71220000 1.54880000
3.23010000 -0.69810000 1.62150000
3.22310000 -0.65070000 1.64440000
3.16000000 -0.65170000 1.68530000
0.11020000 -1.76030000 -2.16730000
0.16920000 -1.82920000 -2.23770000
3.18440000 -0.61120000 1.52480000
4.20930000 2.61650000 0.56490000
3.20240000 -0.58300000 1.60430000
-1.90830000 -1.37870000 -0.18260000
3.15010000 -0.57810000 1.67270000
3.12340000 -0.55300000 1.62730000
3.13930000 -0.57710000 1.55230000
-3.52400000 1.68690000 -1.31440000
3.04280000 -0.66550000 1.71600000
-2.76760000 2.04230000 2.27270000
0.00990000 -1.73600000 -2.24250000
-0.33730000 0.38870000 2.77690000
3.06530000 -0.59090000 1.67790000
3.02000000 -0.59050000 1.58200000
2.94960000 -0.63820000 1.67170000
-3.34390000 1.53770000 -1.59970000
-0.53980000 0.31010000 2.99530000
3.07150000 -0.79830000 1.62420000
0.47490000 -1.34200000 -2.34010000
2.93210000 -0.89070000 1.75360000
-2.86530000 2.17830000 2.28320000
2.93030000 -0.87640000 1.67020000
2.99580000 -0.77180000 1.55140000
2.87790000 -0.83270000 1.59450000
0.39680000 -0.10570000 -2.28190000
-0.55650000 0.48430000 2.86010000
3.11970000 -0.73480000 1.51080000
3.09570000 -0.69120000 1.48160000
-2.06590000 -1.24140000 -0.23840000
3.10160000 -0.63670000 1.48640000
-2.83210000 1.97680000 2.25250000
-0.41270000 0.53410000 2.75370000
-0.44550000 0.58970000 2.68500000
2.98940000 -0.64430000 1.50910000
4.05640000 2.35040000 0.49100000
3.95200000 2.22060000 0.64580000
-0.50000000 0.52480000 3.16320000
