44.60270000 121.79560000 49.85700000
-21.36390000 -121.45970000 -39.65390000
-22.23030000 -121.66950000 -39.12350000
-20.20890000 -121.43650000 -40.25960000
-19.88750000 -122.01920000 -40.49940000
4.13960000 61.48590000 -25.64920000
2.99510000 60.82630000 -25.75420000
6.63570000 68.33350000 -27.37740000
5.42270000 68.08460000 -27.71020000
4.85550000 66.29150000 -27.15630000
4.56720000 69.30090000 -28.50660000
2.70900000 67.08140000 -28.17570000
21.44360000 67.78290000 17.41910000
21.27280000 67.32110000 17.94580000
21.25060000 66.87370000 17.58020000
21.30060000 66.95390000 17.13900000
20.98990000 66.79270000 18.48390000
21.02010000 66.35480000 17.67740000
21.09110000 65.97650000 16.75680000
19.02820000 64.94320000 19.43330000
18.58380000 64.55310000 19.80060000
18.42650000 64.26650000 19.59640000
18.28800000 64.55150000 20.43100000
17.57360000 63.88400000 20.74890000
17.42790000 -107.49350000 -20.74190000
17.44800000 -107.86960000 -21.06200000
16.50760000 -106.97640000 -20.85530000
16.92990000 -107.73550000 -21.21430000
16.86840000 -105.92700000 -19.46870000
17.71360000 -106.27890000 -19.06950000
17.49220000 -105.52460000 -18.34170000
16.99610000 -105.00680000 -18.26010000
18.60860000 -106.74990000 -18.71850000
17.85750000 -105.41900000 -17.82600000
17.03680000 -103.91530000 -16.88890000
-30.07150000 117.29940000 -60.16040000
-30.68330000 117.51120000 -60.16600000
-30.78380000 117.77940000 -60.84090000
-30.81310000 117.09180000 -58.69850000
-31.41320000 117.58490000 -59.42170000
-32.02610000 118.03190000 -60.04020000
-34.91140000 119.84430000 -59.85940000
-35.45260000 120.39580000 -60.21200000
-35.42420000 120.55340000 -60.68940000
-35.78390000 120.23770000 -59.23400000
-36.14360000 120.85660000 -60.00870000
36.63810000 118.03910000 50.23150000
35.53900000 118.50660000 51.74060000
35.13960000 118.01770000 51.55050000
35.56900000 117.54490000 50.69360000
37.27390000 119.00980000 51.10930000
36.29160000 118.99750000 51.84450000
8.75880000 -77.58690000 13.69280000
7.37620000 -75.52760000 14.37600000
6.65540000 -75.90410000 14.77080000
6.81650000 -76.96360000 14.72390000
8.80540000 -73.53370000 13.57080000
8.42820000 -73.52040000 13.83210000
8.08950000 -73.98440000 14.01220000
8.22520000 -72.82720000 13.98120000
7.71110000 -73.21970000 14.27270000
-46.24590000 123.68500000 48.23780000
-48.94450000 124.44640000 46.76000000
-48.79780000 125.25360000 48.37030000
-47.40960000 125.40070000 50.05770000
-50.14100000 125.88370000 48.11160000
-48.65260000 126.73500000 51.34420000
-46.78570000 119.78440000 41.45070000
-46.75930000 120.69950000 42.91780000
20.60830000 63.72670000 15.65690000
20.34380000 63.93830000 16.08710000
21.03880000 64.73600000 15.68170000
20.47680000 64.65260000 16.28180000
20.50140000 65.80460000 17.87210000
20.21350000 65.39440000 17.57390000
20.24580000 65.78130000 18.37420000
8.14760000 90.49390000 37.76670000
7.61580000 90.66410000 38.02100000
7.28990000 90.50030000 37.85620000
8.28090000 90.85540000 38.11390000
7.58090000 90.97810000 38.33740000
6.64720000 91.14140000 38.54240000
7.90030000 92.22030000 39.03870000
7.58800000 92.71550000 39.28090000
6.82920000 92.56620000 39.23010000
9.33890000 93.05640000 39.32860000
8.10390000 93.47450000 39.59360000
-32.31930000 117.93310000 -59.01240000
-33.03420000 118.35780000 -59.26860000
-32.41510000 117.90250000 -58.59090000
-34.22650000 118.81590000 -58.52840000
-31.92360000 116.43400000 -56.85870000
-32.60340000 115.98900000 -56.08160000
-27.42310000 61.65270000 -18.72870000
-27.79410000 61.24580000 -17.94130000
-26.66910000 60.21060000 -19.06620000
-25.65830000 60.57080000 -20.53380000
-25.88540000 59.16840000 -19.58430000
5.89420000 90.14200000 38.07810000
5.75160000 90.31000000 38.35850000
5.34050000 90.05850000 38.35070000
5.90350000 90.83280000 38.66800000
5.41290000 90.66700000 38.76730000
4.38340000 91.30810000 39.12840000
3.24890000 91.39340000 39.14670000
21.58090000 73.69970000 20.97540000
22.04330000 74.77340000 20.75700000
21.28200000 74.80340000 21.57300000
20.70680000 74.19770000 22.07750000
21.14900000 75.25670000 21.83440000
22.36590000 71.20610000 18.34470000
23.00750000 72.80000000 18.35290000
22.76620000 72.79180000 18.82990000
22.25980000 71.99720000 19.07940000
23.59050000 74.47270000 18.47480000
22.88290000 73.45430000 19.07460000
22.11410000 72.63430000 19.75820000
38.08460000 97.43950000 8.13000000
37.54530000 96.44330000 7.44650000
37.30310000 96.39890000 8.30770000
37.48720000 96.92470000 9.03180000
38.98250000 100.75720000 11.02590000
39.10210000 100.19740000 9.98410000
38.69650000 99.78410000 10.37560000
38.45780000 99.81640000 11.02590000
39.09250000 99.57440000 9.05460000
38.53730000 99.29890000 10.09990000
37.95130000 98.86440000 11.11250000
11.70890000 -49.21560000 -12.26980000
11.10140000 -49.29870000 -13.20730000
10.85280000 -48.36660000 -13.71550000
11.48280000 -51.40300000 -12.30140000
10.62670000 -50.20980000 -13.69910000
9.89170000 -49.24450000 -14.85070000
9.25770000 -59.38170000 -15.75340000
9.27790000 -60.46310000 -15.98280000
9.82140000 -60.99900000 -15.50060000
-23.48470000 12.40800000 -2.92950000
-23.42170000 11.47500000 -3.69390000
-23.39710000 10.47480000 -3.66560000
-23.78810000 19.96170000 -3.37840000
-23.75880000 19.20670000 -2.46190000
-23.74500000 19.90010000 -1.32120000
-23.64560000 17.45240000 -4.60790000
-23.67250000 17.49930000 -2.67250000
54.74230000 113.66090000 -13.99260000
54.61990000 113.17410000 -12.03080000
53.88810000 112.62330000 -12.72440000
53.70110000 112.74180000 -14.19000000
54.44980000 112.71620000 -10.02490000
53.43290000 112.08020000 -11.96510000
51.88480000 110.64650000 -11.99030000
50.75280000 109.69280000 -13.10770000
50.46390000 109.65120000 -14.61250000
21.05620000 67.74580000 18.55550000
20.75170000 67.76610000 18.94360000
20.58510000 67.33250000 19.10330000
21.12830000 68.73740000 18.52540000
20.57660000 68.32200000 19.16870000
21.67260000 71.39850000 19.36920000
21.46020000 70.76650000 19.16480000
21.35670000 71.50990000 19.82870000
20.51000000 70.41480000 20.07440000
19.20460000 121.00330000 -65.52260000
18.17190000 121.03180000 -65.90330000
17.91670000 121.79380000 -66.89400000
17.40340000 120.31160000 -65.25420000
17.98270000 123.55620000 -68.06550000
17.85470000 122.88630000 -67.83730000
60.21020000 126.45140000 29.82020000
59.75440000 126.18660000 29.58420000
58.89280000 125.94760000 30.24530000
60.06290000 125.94440000 28.40840000
59.00550000 125.54330000 28.89640000
57.59360000 126.64060000 35.66650000
58.80740000 126.68860000 33.54950000
-2.54990000 82.05850000 35.03280000
-2.94310000 82.14550000 34.80810000
-2.58820000 82.69380000 35.58090000
-3.14860000 82.54450000 35.02020000
0.42670000 84.60290000 36.04480000
0.61660000 84.15140000 35.57740000
-0.01060000 84.55730000 36.14090000
0.01420000 83.78490000 35.41290000
13.08690000 -105.20640000 -29.16760000
12.71390000 -103.93020000 -28.37690000
12.41250000 -105.42000000 -29.85200000
11.39660000 -103.47960000 -28.99220000
10.00150000 -98.58270000 -26.64640000
9.63590000 -99.20850000 -27.26240000
11.58080000 -100.34910000 -26.68180000
10.19660000 -100.41060000 -27.64910000
-14.86230000 -110.94320000 26.34130000
-14.73530000 -110.01870000 25.85740000
-15.46260000 -109.92800000 25.64820000
-15.86590000 -110.19860000 25.68770000
-18.38800000 -111.59190000 25.88720000
-19.45740000 -111.77860000 25.27160000
-19.14650000 -112.33360000 25.84390000
-18.38850000 -112.45460000 26.42260000
-38.48820000 -116.92860000 -0.42550000
-38.15610000 -116.34230000 -0.12070000
-38.14020000 -116.68820000 0.34080000
-38.38650000 -117.22150000 0.23200000
-37.75670000 -115.67700000 0.27000000
-38.05900000 -116.71440000 0.86300000
-38.35240000 -117.61000000 1.04230000
-35.88190000 -112.49250000 -4.05520000
-36.70140000 -113.47290000 -4.02270000
-36.22280000 -113.20870000 -1.85000000
-37.23670000 -114.25960000 -2.93140000
14.53890000 -117.60640000 -33.74840000
13.82810000 -117.84880000 -34.22970000
13.90230000 -116.63370000 -33.67430000
13.19970000 -117.44070000 -34.40190000
16.11890000 -116.28510000 -32.24110000
15.52720000 -115.21080000 -31.65020000
15.01390000 -115.29730000 -31.94460000
14.96400000 -115.74460000 -32.33870000
13.18510000 -71.45790000 -7.48630000
13.49320000 -74.76250000 -7.48710000
12.92770000 -72.37360000 -8.76030000
13.44070000 -75.67210000 -8.08720000
13.36920000 -59.82960000 7.02390000
13.55920000 -61.51930000 6.43960000
14.21250000 -54.83290000 6.02080000
14.18240000 -55.61930000 6.49590000
14.10190000 -56.60080000 6.36220000
14.07750000 -56.62630000 5.96120000
14.01370000 -56.02540000 7.05960000
13.94930000 -57.24660000 6.66250000
15.44500000 12.37600000 2.14120000
15.43810000 12.48550000 2.64220000
15.39940000 12.08200000 2.89410000
15.49230000 13.28510000 2.13290000
15.46150000 13.05980000 2.85190000
15.40810000 12.77860000 3.61890000
14.66680000 11.79400000 7.26590000
14.37200000 10.72340000 7.56690000
14.46460000 10.62120000 7.26200000
14.63290000 11.06990000 6.97990000
14.08460000 9.47410000 7.76120000
14.40810000 10.15590000 7.16440000
14.61420000 10.59890000 6.75570000
9.10700000 119.74680000 60.81500000
10.28250000 118.76310000 59.42500000
9.31660000 118.44900000 59.17330000
8.30510000 118.83380000 59.79440000
9.41060000 117.83640000 58.27880000
7.56940000 118.02220000 58.80310000
9.53620000 112.83340000 52.54120000
9.14020000 113.14690000 52.96250000
9.61810000 113.92090000 53.63520000
8.06720000 112.64990000 52.65050000
8.34340000 113.51260000 53.44500000
-12.90560000 118.99670000 63.16990000
-14.45220000 119.35620000 63.38120000
-16.16070000 119.18190000 62.72600000
-19.35390000 114.01680000 55.34120000
-16.97450000 113.51310000 55.38110000
-16.38550000 114.31450000 56.45220000
-17.35030000 114.88390000 56.87200000
-2.36670000 -18.39550000 20.01210000
-1.92150000 -16.59270000 19.83370000
-2.67760000 -16.34890000 19.84830000
-3.23830000 -16.89720000 19.92440000
-3.84090000 -17.70130000 19.92810000
-4.44880000 -18.26680000 19.68640000
-4.27230000 -18.89340000 19.58980000
-5.04150000 -17.08840000 19.74760000
-5.43750000 -18.11430000 19.45250000
-38.70320000 -117.73740000 0.02350000
-38.85980000 -117.65380000 -0.51730000
-38.79550000 -118.14890000 0.38570000
-39.28660000 -118.80880000 -0.40430000
-38.14120000 -116.89090000 1.57440000
-38.34230000 -117.48480000 2.00000000
-37.97440000 -116.41050000 1.77970000
11.97370000 -29.35950000 11.91780000
11.40620000 -29.85870000 12.59070000
11.76070000 -30.51300000 12.22490000
12.20620000 -30.63410000 11.71470000
11.62040000 -31.08980000 12.42420000
12.61690000 -31.85000000 11.44550000
12.13640000 -27.91560000 12.49200000
11.81150000 -28.06870000 12.84940000
11.54520000 -28.73650000 12.81400000
7.36520000 -93.45670000 -21.43790000
6.93770000 -94.00450000 -21.84580000
7.01830000 -93.05630000 -21.16450000
6.09290000 -93.60430000 -21.64800000
5.67650000 -92.44190000 -20.99810000
4.97340000 -91.38250000 -21.34400000
4.74930000 -91.77670000 -21.55110000
4.98260000 -92.53860000 -21.51800000
4.28390000 -91.32290000 -21.85830000
16.51040000 -97.19520000 -13.20840000
16.00590000 -97.21640000 -14.20750000
15.74600000 -97.67270000 -14.91430000
20.88990000 -103.16340000 -8.08310000
20.54000000 -102.32570000 -7.95580000
20.07320000 -101.40080000 -8.56780000
7.14250000 115.48880000 55.62990000
6.81660000 114.73330000 54.96830000
6.28740000 114.87730000 55.31100000
6.39470000 115.48480000 55.89440000
5.60500000 114.53680000 55.08000000
5.31820000 115.61640000 56.29660000
3.76460000 114.42930000 55.20950000
3.30200000 115.17450000 56.08550000
3.98410000 116.11410000 57.05120000
22.63300000 114.24180000 -55.67340000
24.15890000 114.80840000 -55.61080000
32.31520000 116.35020000 -52.74800000
30.32770000 116.09940000 -53.73460000
30.73630000 116.64680000 -54.16840000
31.97160000 117.12870000 -54.01400000
28.16520000 115.72290000 -54.57690000
30.02530000 116.83590000 -54.88730000
-39.01760000 -120.95090000 0.49200000
-39.01110000 -120.94260000 0.99890000
-38.82830000 -121.69010000 1.75220000
-39.15430000 -119.94310000 0.89600000
-38.96610000 -120.60940000 1.86670000
-38.83510000 -118.43230000 0.93440000
-39.05530000 -118.87000000 0.96520000
-38.61400000 -118.23930000 1.59790000
-38.81430000 -118.95540000 2.12690000
25.28180000 91.74490000 29.83640000
26.41190000 92.82100000 29.64460000
26.48750000 93.42830000 30.14920000
25.80510000 93.08280000 30.48120000
27.75290000 94.07200000 29.42460000
26.98440000 94.24090000 30.31210000
32.51460000 96.30030000 26.19730000
31.85460000 96.69220000 27.38010000
31.25090000 96.22090000 27.51590000
31.34830000 95.79170000 26.92890000
30.52260000 96.18090000 28.18250000
29.99610000 95.24240000 27.78630000
-14.03500000 45.43530000 16.54920000
-13.32130000 42.97870000 16.20340000
-13.76700000 42.53520000 15.80290000
-14.34880000 43.57100000 15.76850000
-12.61820000 40.40870000 15.83060000
-13.57610000 40.33570000 15.26100000
-14.61530000 41.52680000 14.97210000
-18.48630000 46.72680000 13.72720000
-18.03600000 45.80710000 13.80690000
-18.68240000 47.98130000 13.98600000
10.79800000 119.57560000 -65.84230000
9.13340000 118.71490000 -65.03260000
8.01540000 117.39380000 -63.57900000
5.69920000 115.55260000 -62.67910000
6.41130000 115.79900000 -62.61630000
6.69910000 115.36850000 -62.40350000
6.38940000 115.05660000 -62.37040000
7.26780000 116.01070000 -62.46810000
7.20910000 115.29950000 -62.23370000
-0.84250000 -66.02320000 16.69630000
-0.07530000 -64.84590000 16.63100000
0.86920000 -64.85300000 16.56610000
-1.41890000 -70.46880000 16.83300000
-0.59130000 -71.63720000 16.77360000
-0.26250000 -70.48010000 16.78120000
-0.67710000 -69.35750000 16.80600000
0.29500000 -70.38460000 16.72910000
-1.75460000 -24.64450000 19.63480000
-1.95100000 -23.70820000 19.66100000
-0.57310000 -23.76400000 19.38400000
-1.49030000 -22.88320000 19.60080000
1.28060000 -25.08290000 18.89100000
0.65180000 -25.07880000 19.06100000
1.53350000 -24.55210000 18.76030000
0.77560000 -24.37330000 18.93750000
10.90030000 116.35000000 55.16190000
11.08630000 115.57700000 54.60240000
10.23690000 115.32580000 54.47890000
9.65300000 115.60120000 54.67580000
9.88010000 114.79960000 54.21520000
8.55660000 114.83140000 54.32170000
10.00780000 116.97070000 56.63800000
9.29630000 117.30080000 57.36180000
8.76240000 116.25900000 55.63240000
8.42060000 117.19860000 57.22930000
19.38820000 60.48190000 -15.49010000
19.60890000 62.28050000 -16.33120000
18.69670000 58.44540000 -15.34340000
18.03220000 56.57290000 -15.37090000
17.82740000 54.78180000 -14.65470000
11.71450000 115.56110000 -61.85770000
11.10180000 115.76610000 -61.98160000
11.79640000 115.18230000 -61.76890000
10.57280000 115.11650000 -61.87150000
15.47510000 115.28660000 -60.28010000
15.36980000 115.54050000 -60.75660000
15.75330000 116.13840000 -61.05240000
14.02380000 114.32240000 -60.22880000
14.56070000 115.18150000 -60.94960000
14.80770000 115.86260000 -61.42500000
16.82470000 115.94380000 -55.89020000
16.60080000 116.96450000 -57.19960000
15.52400000 116.06900000 -56.59540000
15.23130000 115.09480000 -55.57710000
16.05170000 118.37930000 -59.01200000
14.68530000 115.96220000 -56.79760000
13.52980000 114.06790000 -55.06120000
20.58000000 121.05230000 -60.16040000
19.83590000 122.47440000 -62.10920000
19.16530000 122.24300000 -62.13670000
19.17500000 121.58890000 -61.38390000
19.15950000 123.66840000 -63.73980000
18.50510000 122.88490000 -63.11710000
17.89160000 122.19540000 -62.57480000
8.03380000 -12.54260000 16.10610000
7.56820000 -12.45720000 16.43170000
8.26380000 -12.08780000 15.95000000
6.81260000 -12.60570000 16.90030000
7.08480000 -12.15660000 16.75740000
6.79890000 -11.97090000 16.94940000
6.52390000 -12.26160000 17.10400000
26.13820000 68.75950000 -7.13990000
26.45880000 69.95380000 -6.99980000
26.29390000 69.56520000 -6.52910000
26.14140000 68.85050000 -6.32520000
26.74210000 70.93110000 -6.67140000
26.43230000 70.01630000 -6.16670000
26.19010000 69.04120000 -5.54080000
26.93260000 71.04750000 -5.66100000
26.67390000 70.41240000 -5.65090000
27.26040000 71.08600000 -4.40940000
26.71070000 70.06790000 -5.10760000
13.04580000 116.55310000 55.63380000
12.40580000 116.60090000 55.55970000
12.31080000 116.80590000 55.87200000
12.49280000 116.09530000 55.07860000
11.83260000 116.26350000 55.12170000
14.68610000 114.92410000 53.50510000
14.55660000 115.55980000 54.34640000
13.67570000 115.35370000 54.25300000
13.90530000 116.08270000 55.11530000
12.60670000 114.62970000 -61.23270000
11.93320000 114.77860000 -61.50320000
12.19280000 114.04630000 -60.74810000
11.40090000 114.50740000 -61.34130000
10.35120000 114.41120000 -61.24060000
9.73880000 114.63820000 -61.41800000
9.58330000 115.15290000 -61.85040000
10.25240000 113.70370000 -60.44190000
9.44010000 114.42890000 -61.14750000
8.69560000 -7.69020000 15.56230000
8.67720000 -8.35560000 15.58150000
7.63850000 -4.20780000 16.50920000
8.08180000 -3.75340000 16.11850000
7.98580000 -3.36030000 16.19610000
7.73270000 -3.25950000 16.40580000
8.41900000 -3.32620000 15.78970000
8.14330000 -2.94740000 16.03940000
7.85730000 -2.52970000 16.27130000
16.55110000 114.73660000 -54.66410000
15.46200000 114.44960000 -54.77650000
14.95320000 113.76770000 -54.24320000
17.81680000 114.71400000 -54.03720000
17.49110000 115.06700000 -54.59180000
19.24020000 115.75500000 -54.50210000
17.95570000 115.85550000 -55.24440000
10.98200000 114.23820000 -61.08480000
11.29280000 113.85880000 -60.60420000
9.72450000 112.08800000 -58.56000000
9.84310000 111.32630000 -57.77570000
9.10730000 111.46900000 -57.78810000
8.62910000 111.87640000 -58.16510000
8.98530000 111.15150000 -57.34810000
22.49790000 59.49850000 -0.04250000
22.94690000 60.59530000 -0.20310000
22.88530000 60.52740000 0.73840000
22.59340000 59.79760000 1.25850000
23.46580000 61.60680000 -0.50280000
23.15590000 61.15310000 1.06730000
22.84490000 60.52520000 2.63360000
22.91310000 60.39550000 -1.30570000
23.04950000 60.74000000 -1.06890000
23.20230000 60.89860000 -2.56870000
23.31450000 61.21780000 -1.62530000
15.46990000 -5.12930000 -2.34850000
15.40670000 -4.97420000 -3.14360000
15.40170000 -4.37490000 -2.93450000
15.41930000 -4.21570000 -2.51480000
15.33060000 -4.75170000 -3.80680000
15.35920000 -4.04640000 -3.24230000
15.35370000 -3.31350000 -2.66080000
14.57420000 -2.86360000 -6.68200000
14.52800000 -3.50460000 -6.95190000
14.85680000 -3.12410000 -5.88850000
14.65480000 -3.95380000 -6.66180000
23.72450000 90.42640000 30.29400000
23.18930000 90.10250000 30.45460000
22.84840000 90.73630000 31.08690000
25.09160000 92.74820000 30.81810000
24.54380000 91.81220000 30.57310000
62.10770000 123.60980000 27.41110000
61.99550000 124.16380000 28.72270000
61.28330000 123.96710000 29.91000000
60.89950000 123.64470000 30.11690000
65.99070000 125.75740000 19.67350000
65.79810000 125.27250000 19.68250000
65.94930000 125.16500000 18.99750000
65.47530000 125.44650000 20.96350000
65.41640000 124.88170000 20.34490000
65.30440000 124.35540000 19.64630000
-14.48940000 -120.50590000 31.84710000
-13.67010000 -118.99020000 32.03090000
-13.74670000 -118.29450000 31.91320000
-14.15480000 -118.52520000 31.80960000
-12.95320000 -117.93370000 32.16680000
-13.30090000 -117.39360000 31.94980000
-13.69550000 -116.82400000 31.70800000
-12.91870000 -119.82510000 32.56710000
-13.01080000 -118.84790000 32.36980000
-13.47250000 -119.35150000 32.20950000
-13.62250000 -120.09080000 32.25000000
25.52350000 64.79720000 -0.83630000
25.26920000 64.34440000 -0.66660000
25.06000000 63.79540000 -1.15140000
25.64390000 65.46890000 0.38060000
25.14260000 64.41350000 0.05130000
24.66260000 63.46240000 -0.34080000
25.92140000 67.14670000 -2.96400000
25.73040000 67.01130000 -3.46020000
25.92310000 66.81510000 -2.35910000
25.57230000 66.28680000 -2.76640000
8.50860000 51.51180000 -19.25630000
9.41040000 51.46150000 -18.38080000
7.60760000 50.22240000 -19.43710000
19.61900000 125.49200000 -65.91390000
21.56490000 125.57750000 -65.39000000
20.87230000 125.72830000 -66.06760000
19.54330000 125.75540000 -66.65480000
21.53650000 122.79420000 -61.78330000
20.69990000 123.02130000 -62.38840000
22.71600000 124.29590000 -63.04770000
20.69480000 123.95100000 -63.47880000
-25.61310000 65.25840000 19.61420000
-25.91440000 66.14380000 19.99800000
-25.66430000 66.68560000 20.47290000
-25.41810000 64.42900000 19.15120000
-25.80510000 64.06060000 18.61580000
27.20100000 69.90870000 -4.32790000
26.86570000 69.69190000 -4.72100000
27.13850000 68.99470000 -4.11150000
26.65200000 69.05400000 -4.77340000
27.25000000 69.66470000 -1.46090000
27.09840000 69.68320000 -0.33790000
26.94630000 69.05790000 -0.12740000
26.87690000 68.65290000 -0.47960000
-23.11710000 -108.25230000 20.91290000
-24.17440000 -107.84520000 19.50870000
-24.41850000 -108.83980000 19.94730000
-24.04930000 -109.62270000 20.87360000
-22.17480000 -106.67340000 20.61920000
-22.42020000 -106.08640000 20.01890000
-22.96070000 -106.15890000 19.68960000
-23.07810000 -106.50340000 19.82630000
-22.48930000 -105.62810000 19.52610000
-23.14020000 -105.83330000 19.23420000
-23.83890000 -106.15150000 18.83520000
25.53140000 90.72150000 28.01040000
26.54580000 92.34040000 28.80300000
26.12070000 92.11750000 29.10130000
25.36410000 91.16270000 28.97030000
23.91580000 87.25970000 27.24400000
23.88170000 87.72800000 27.77710000
23.52560000 87.59060000 28.27530000
24.17370000 88.25110000 27.79710000
27.56520000 71.44270000 -2.61830000
27.74520000 71.82390000 -1.76950000
27.58220000 71.10340000 -1.61810000
27.41690000 70.66530000 -2.13070000
27.92730000 72.43440000 -0.84660000
27.57880000 71.06170000 -1.14670000
27.03270000 71.73450000 -6.25450000
27.07760000 71.55830000 -5.63250000
27.26400000 71.86650000 -5.09670000
-16.37430000 -9.04610000 15.53050000
-16.18640000 -10.15340000 15.66690000
-17.14870000 -8.43080000 14.92070000
-17.53230000 -10.16360000 14.66590000
-18.10740000 -6.89530000 13.92080000
-17.91330000 -7.93360000 14.19100000
-18.44710000 -8.53940000 13.70620000
-3.46060000 45.02760000 19.26160000
-3.85020000 43.75790000 18.86020000
26.12540000 89.59020000 26.54180000
26.33290000 89.14440000 26.02580000
26.98710000 89.07300000 25.30040000
25.12310000 89.16520000 27.38290000
25.83070000 88.73890000 26.26530000
28.38330000 88.55300000 23.76200000
27.61420000 88.38440000 24.30940000
27.76250000 87.95370000 23.59580000
28.25250000 87.90620000 23.00970000
27.41930000 87.60380000 23.45560000
28.06770000 87.09690000 21.98490000
-35.41110000 80.56050000 15.76150000
-35.58720000 81.30350000 16.22140000
-36.01960000 81.56200000 15.76600000
-36.04930000 81.27020000 15.32090000
-35.93020000 82.18520000 16.51560000
-36.40330000 82.10750000 15.61210000
-36.74390000 82.04060000 14.72550000
-38.70210000 85.15880000 13.57580000
-39.01040000 85.64050000 14.21100000
-39.44730000 85.83070000 13.66220000
-39.52090000 85.71990000 13.10010000
-39.80550000 86.13050000 13.71070000
-9.64510000 -98.32180000 20.53430000
-9.22990000 -96.58950000 19.92520000
-10.27360000 -96.07530000 19.52510000
-10.89840000 -96.82970000 19.69630000
-13.11040000 -101.48820000 21.37010000
-14.11400000 -101.22110000 21.00260000
-14.43190000 -101.91930000 21.16950000
-14.07810000 -102.42900000 21.43020000
-15.12700000 -100.93070000 20.61190000
-15.10000000 -102.11950000 21.02440000
-15.11000000 -103.35070000 21.42360000
-71.26630000 126.49840000 -2.55610000
-71.90250000 126.88900000 -2.09790000
-72.11730000 126.96490000 -3.75390000
-66.60420000 122.47620000 -6.16750000
-68.14960000 123.86850000 -6.34980000
-69.36270000 124.89640000 -4.82970000
-18.54100000 -4.90180000 13.20170000
-17.89040000 -4.44660000 13.78890000
-18.16430000 -3.89850000 13.39970000
-18.64170000 -3.93790000 12.89290000
-17.27020000 -3.96620000 14.24580000
-17.91550000 -3.38770000 13.52040000
-18.63830000 -2.90430000 12.66320000
-17.54530000 -0.19890000 13.32920000
-17.70900000 -1.08410000 13.26220000
36.42950000 106.57600000 -36.23950000
36.47860000 107.67630000 -37.63600000
34.12850000 105.65840000 -37.79490000
35.37750000 107.66070000 -38.93850000
32.57070000 107.24420000 -41.28190000
34.33100000 108.24770000 -40.74190000
34.43790000 107.59000000 -39.85970000
33.54900000 106.76470000 -39.74020000
-6.78400000 -107.88890000 25.96600000
-5.66220000 -106.70820000 25.28700000
-6.10230000 -106.08690000 25.03620000
-6.85050000 -106.40950000 25.28120000
-4.56560000 -105.46390000 24.49650000
-5.87860000 -105.26140000 24.58820000
-7.16040000 -105.14140000 24.68200000
-7.16220000 -102.55340000 22.75470000
-7.20140000 -103.43370000 23.26740000
-7.77240000 -102.20930000 22.51740000
-8.57300000 -103.70910000 23.25970000
13.67110000 49.77260000 17.25850000
13.51220000 50.14650000 17.68560000
14.54880000 50.38030000 16.61910000
13.95730000 50.56390000 17.46410000
14.63410000 50.95650000 17.11100000
14.21470000 50.86170000 17.49970000
-21.40630000 -65.31590000 -13.27880000
-21.02650000 -63.88400000 -13.66000000
-21.94300000 -65.79270000 -12.41230000
-21.68750000 -63.01180000 -12.36210000
-19.98280000 -58.77990000 -14.90050000
-20.36800000 -58.65280000 -14.30050000
-20.05960000 -60.30010000 -14.84200000
-20.61580000 -59.33620000 -13.92340000
-18.46220000 79.15800000 30.26130000
-19.89950000 79.70030000 29.79320000
-20.42450000 78.98100000 29.16100000
-19.99310000 78.32680000 29.03850000
-20.98470000 80.28770000 29.49690000
-21.26710000 79.08820000 28.71820000
-23.07560000 79.14630000 27.58010000
-23.53920000 79.70250000 27.56920000
-23.85510000 79.20860000 27.08280000
7.61140000 80.46390000 -34.77870000
8.65860000 78.95350000 -33.69580000
7.60420000 77.80080000 -33.51100000
6.50840000 78.22410000 -34.06230000
9.97910000 77.84960000 -32.69860000
7.89050000 76.63260000 -32.84000000
7.83780000 70.21010000 -30.06740000
6.98530000 68.16740000 -29.64700000
7.39150000 66.91050000 -29.02220000
7.62780000 43.99230000 20.80430000
7.24970000 44.20310000 21.10630000
7.92240000 44.96220000 20.95820000
7.27440000 44.86210000 21.31670000
9.07660000 42.41860000 19.22370000
9.03950000 43.35810000 19.58640000
8.46040000 43.17410000 19.93600000
8.22510000 42.54490000 19.87990000
9.04750000 44.32420000 19.92940000
8.21080000 43.57610000 20.25470000
29.25810000 108.60250000 -45.42010000
28.00660000 108.65090000 -46.31570000
29.11470000 107.44490000 -44.28720000
27.51260000 107.96410000 -45.90050000
35.28310000 110.37870000 -42.44270000
34.14420000 109.79740000 -42.77990000
32.99660000 109.90410000 -43.96550000
34.02720000 109.08000000 -41.96610000
31.87860000 108.56440000 -43.30360000
-26.25030000 101.21930000 -44.01410000
-28.21460000 101.33300000 -42.91920000
-28.11830000 101.88800000 -43.45580000
-26.63300000 101.94710000 -44.40310000
-25.43950000 101.79680000 -44.86610000
-24.86610000 101.21900000 -44.68210000
-18.58790000 80.09870000 30.42230000
-19.50430000 80.18230000 30.11490000
-18.91890000 80.90970000 30.49550000
-19.99320000 80.61300000 30.02900000
-17.31270000 85.20060000 33.81920000
-17.40630000 86.78560000 34.70160000
-17.79560000 86.83060000 34.49700000
-17.90600000 86.13690000 33.98890000
-17.61880000 88.38160000 35.45210000
-18.11290000 87.57830000 34.75090000
-35.61090000 72.04910000 -4.57670000
-35.93020000 72.51570000 -3.68000000
-36.31770000 73.27420000 -4.03000000
-36.28870000 73.32110000 -4.81450000
-36.60750000 73.79480000 -3.70940000
-37.04590000 74.67050000 -5.03900000
-39.06940000 78.40300000 -4.03560000
-38.94160000 78.36720000 -2.98100000
-39.11280000 78.87410000 -2.86750000
-39.32330000 79.15970000 -3.33080000
9.10700000 120.46250000 67.01670000
7.51580000 120.92340000 67.68550000
7.12640000 120.53700000 67.27630000
7.75700000 120.12600000 66.74920000
5.70330000 121.45180000 68.30410000
6.18270000 120.51190000 67.26100000
6.65890000 119.67590000 66.18590000
7.47870000 122.21890000 69.04270000
7.57380000 121.61680000 68.46500000
6.38300000 122.47590000 69.32520000
18.98780000 77.72020000 -27.22770000
18.58040000 76.77610000 -26.92200000
17.89400000 77.20720000 -27.58100000
17.89130000 77.97750000 -28.03820000
19.57110000 77.09490000 -26.74820000
19.15410000 76.61110000 -26.63340000
-0.64900000 82.34180000 34.84650000
-1.17260000 82.47570000 35.33030000
-1.49370000 82.04710000 34.97600000
-1.45970000 81.77300000 34.57560000
-1.59760000 82.56950000 35.62710000
-1.89910000 82.01220000 35.09860000
-0.76020000 81.53810000 34.24510000
-1.33620000 81.43590000 34.25170000
4.70240000 122.59820000 69.59410000
3.51800000 122.14900000 69.21670000
4.10580000 123.08670000 70.11800000
2.97190000 120.04040000 66.26840000
2.29840000 119.88460000 65.96720000
3.31940000 120.52690000 67.03110000
-17.13950000 80.51700000 30.92340000
-17.44280000 80.06020000 30.75010000
-16.84160000 79.67990000 30.86950000
-15.38720000 77.76520000 30.54510000
-15.95170000 77.80090000 30.37070000
-15.72340000 77.31670000 30.31360000
-15.24370000 77.16660000 30.43410000
-16.67450000 77.85310000 30.19540000
-16.02820000 77.10750000 30.16410000
-15.12630000 76.30750000 30.27710000
-33.83990000 76.73360000 15.18810000
-34.43130000 77.15930000 14.67090000
-34.29490000 76.61700000 14.43240000
-33.81980000 76.16210000 14.76190000
-35.12410000 77.65310000 14.05700000
-34.55180000 76.57510000 14.04780000
-33.78030000 75.30100000 14.13570000
-35.77540000 77.23780000 10.61290000
-36.09850000 78.20180000 10.47830000
-0.96530000 83.25930000 35.60050000
-1.16350000 83.02910000 35.68870000
-1.52600000 84.22970000 36.30750000
-1.48630000 83.23970000 35.98960000
-2.10990000 83.37810000 35.99140000
-2.50410000 83.49610000 35.79120000
-2.95730000 83.15860000 35.46880000
-2.51680000 83.89100000 35.77920000
-3.31840000 83.60530000 35.28530000
-29.83970000 91.03140000 -33.61560000
-30.86330000 91.23090000 -32.95290000
-29.40890000 89.96590000 -33.19240000
-31.40130000 89.70640000 -31.35530000
-34.11340000 93.75970000 -33.01530000
-33.40370000 92.90930000 -32.60950000
-33.73370000 92.75790000 -32.01310000
-34.29510000 93.12490000 -31.96470000
-32.55980000 92.20500000 -32.46620000
-33.37000000 92.17750000 -31.63830000
-34.39490000 92.48230000 -30.88120000
-34.95500000 75.92130000 11.86890000
-34.56230000 75.43700000 12.05130000
-34.76900000 75.80610000 12.31260000
-35.11550000 76.26570000 12.24540000
-34.14660000 75.05080000 12.40340000
-34.62830000 75.75450000 12.63880000
-35.16390000 76.52420000 12.78050000
-32.71460000 71.15330000 12.21710000
-32.97550000 71.62060000 11.87120000
-32.78050000 72.09550000 12.59920000
-33.13150000 72.32040000 11.90670000
-7.83390000 34.36640000 21.59440000
-8.43400000 35.35270000 21.52380000
-8.88860000 34.99880000 21.32350000
-8.78990000 34.25560000 21.26410000
-9.03160000 36.46980000 21.45080000
-9.55070000 35.33640000 21.08960000
-9.80540000 34.13520000 20.84940000
-13.23660000 38.58560000 19.74070000
-12.69740000 38.13670000 19.98720000
-28.21200000 95.69050000 -39.10790000
-27.84600000 94.88370000 -38.66380000
-28.31020000 94.78160000 -38.41540000
-28.68170000 95.07360000 -38.49530000
-27.64730000 94.26710000 -38.11650000
-28.40310000 94.40420000 -37.99770000
-29.12960000 94.60480000 -37.88910000
-29.25840000 96.62670000 -38.89660000
-29.07830000 95.90010000 -38.63930000
-28.89910000 96.87900000 -39.28470000
40.13460000 107.46510000 21.30850000
40.82580000 107.85780000 21.01580000
40.87870000 107.90310000 20.42490000
40.51950000 107.68330000 20.34810000
41.65300000 108.36670000 20.63590000
41.29360000 108.12650000 19.97650000
38.64100000 108.27520000 27.12210000
38.54610000 107.63170000 26.29020000
40.25600000 109.11180000 25.69540000
39.18210000 107.62210000 25.19230000
-35.06220000 98.00590000 31.15250000
-35.80480000 98.15610000 30.78080000
-34.65940000 98.30220000 31.84310000
-35.91120000 99.01030000 31.75800000
-36.50510000 100.11900000 31.97890000
-37.41340000 100.52760000 31.40060000
-37.62190000 100.21000000 31.00070000
-36.85300000 101.03880000 32.27160000
-37.96480000 101.24280000 31.34620000
-23.38090000 125.41790000 64.84660000
-24.02590000 124.62000000 63.44140000
-25.68010000 125.15300000 63.52050000
-25.98330000 125.75470000 64.28220000
-24.63110000 123.46220000 61.60300000
-26.68260000 124.83750000 62.64910000
-28.69940000 125.92570000 63.35230000
-17.13590000 124.37590000 65.31980000
-16.14560000 125.05740000 66.48430000
-18.84770000 124.46940000 65.02880000
-18.71000000 125.86180000 67.02880000
16.74150000 31.50000000 -1.36670000
16.70370000 31.75150000 -2.02380000
16.81280000 32.34880000 -1.89150000
16.87480000 32.45150000 -1.49100000
16.83910000 32.74040000 -2.15150000
16.87950000 31.28110000 0.72790000
16.84050000 31.23770000 0.11880000
-9.94310000 43.23010000 22.25360000
-10.28720000 43.44910000 22.19070000
-10.67700000 43.27400000 22.01060000
-11.16100000 43.23810000 21.80500000
-11.51570000 43.67560000 21.76310000
-32.48900000 94.05420000 -34.38080000
-32.89550000 94.07680000 -34.13490000
-32.14130000 93.67800000 -34.38120000
-32.60100000 93.41970000 -33.92940000
-32.25460000 94.97200000 -35.64850000
-31.93910000 95.14690000 -36.24220000
-32.94630000 95.19070000 -35.20330000
-32.91020000 95.59400000 -35.89360000
17.96860000 81.64190000 28.31180000
18.78500000 82.04680000 28.08000000
18.41110000 82.23400000 28.45090000
17.79660000 82.05680000 28.79900000
18.70200000 82.64190000 28.58710000
17.79290000 82.61310000 29.28820000
19.32530000 81.80460000 27.74160000
19.09010000 81.47700000 27.68880000
-6.84530000 -104.23580000 -29.69090000
-7.18450000 -103.71810000 -29.16110000
-6.98070000 -103.34030000 -29.00740000
-4.49930000 -99.66770000 -27.81840000
-5.05590000 -100.03150000 -27.77590000
-5.02600000 -100.56800000 -28.00670000
-5.06440000 -98.96550000 -27.32490000
-5.58710000 -99.70310000 -27.44200000
-6.25460000 -100.51130000 -27.46930000
-24.00860000 -8.25660000 -7.25340000
-24.18840000 -10.04010000 -6.80740000
-24.67800000 -13.06340000 -2.43380000
-24.67550000 -13.60030000 -1.82080000
-24.68670000 -13.71200000 -3.02560000
58.00740000 120.26560000 26.07590000
57.40340000 119.73210000 26.53170000
57.04610000 119.20440000 26.04260000
57.28650000 119.81470000 27.27420000
56.50310000 118.78960000 27.11870000
58.96900000 120.82540000 25.29770000
32.34050000 125.59770000 -60.59980000
30.29460000 125.62240000 -61.92060000
29.53520000 125.57980000 -62.69200000
30.57170000 124.63050000 -62.70720000
30.48210000 124.15590000 -62.78560000
31.35860000 123.78550000 -62.19160000
-34.42220000 96.03870000 -34.82510000
-33.70210000 95.32860000 -34.59590000
-33.89570000 94.88630000 -34.07520000
-34.30340000 94.86400000 -33.87840000
-33.63850000 94.36270000 -33.78900000
-35.60050000 96.95090000 -34.28930000
-35.09160000 96.62310000 -34.53450000
-35.36770000 96.33120000 -34.10670000
-35.82490000 96.50280000 -33.81850000
-35.34470000 95.97100000 -33.96120000
-36.26820000 96.00290000 -33.11910000
-24.97670000 -25.07660000 -5.72500000
-24.92800000 -22.49940000 -5.75560000
-25.02970000 -26.42690000 -4.90770000
-24.99980000 -22.60880000 -4.23820000
-24.78840000 -31.89870000 -1.34780000
-24.90100000 -31.65660000 -2.71530000
-24.98200000 -29.66270000 -3.59500000
-6.68550000 -107.98260000 -32.69690000
-7.35540000 -108.39190000 -32.90050000
-7.60420000 -109.12980000 -33.19740000
-5.29380000 -105.53450000 -31.27380000
-5.22810000 -106.22590000 -31.73280000
-6.05560000 -105.47410000 -31.16180000
-20.97190000 117.67560000 -58.24800000
-22.13270000 119.14150000 -59.41930000
-23.06000000 119.21110000 -59.18580000
-23.01780000 118.53650000 -58.48580000
-23.20910000 120.70540000 -60.67880000
-24.25440000 119.83980000 -59.42140000
-25.09940000 119.15210000 -58.38110000
-14.18770000 112.83330000 -55.34370000
-14.98810000 112.78030000 -55.12160000
-14.69040000 113.89050000 -56.16550000
-15.56780000 113.34530000 -55.49290000
-39.95560000 -114.55540000 -12.25540000
-40.89800000 -115.17300000 -10.87320000
-41.72010000 -116.01260000 -10.82950000
-43.07930000 -119.92520000 -10.48030000
-43.21930000 -121.50490000 -9.84820000
-43.10370000 -122.80130000 -10.42580000
15.16600000 43.61670000 13.94290000
14.94090000 43.71060000 14.26630000
14.65510000 43.36760000 14.45340000
15.46520000 44.35830000 13.88790000
15.00580000 44.18950000 14.39790000
14.44720000 43.95950000 14.94020000
16.81040000 46.77560000 13.49220000
16.39910000 46.42170000 13.85830000
16.07970000 45.81380000 13.75830000
10.17970000 -89.38080000 -18.00220000
11.41770000 -90.16980000 -17.00290000
11.77190000 -89.66420000 -16.34320000
11.42280000 -88.82550000 -16.39180000
12.31320000 -90.71910000 -16.22000000
12.51490000 -89.94590000 -15.60620000
12.50130000 -88.77120000 -15.00550000
14.60100000 -90.58590000 -12.70480000
13.89810000 -89.90230000 -13.47550000
13.51970000 -90.50820000 -14.50460000
13.44950000 -88.45270000 -13.32010000
-9.06010000 -50.81510000 -22.38680000
-9.87860000 -50.28070000 -22.08860000
-9.37600000 -51.81680000 -22.34180000
-11.25570000 -47.45140000 -21.49310000
-12.23660000 -47.88230000 -21.00850000
-12.76430000 -47.33210000 -20.70240000
-11.35410000 -48.86870000 -21.46130000
-12.55490000 -49.05090000 -20.86150000
-14.20970000 -49.35270000 -19.90730000
17.57340000 48.64790000 12.50200000
17.26010000 48.08760000 13.36480000
17.10150000 47.33680000 13.15990000
17.14500000 47.18960000 12.64370000
16.99290000 48.61690000 14.07820000
16.54830000 48.65430000 14.42220000
-31.01650000 -112.63390000 -22.34690000
-31.41520000 -112.73510000 -21.43450000
-31.67500000 -113.00560000 -21.42520000
-30.93200000 -112.18160000 -21.46970000
-31.50710000 -112.45960000 -20.54390000
-29.85320000 -112.31600000 -23.89790000
-29.78690000 -112.67080000 -24.57520000
-30.35640000 -112.40310000 -23.24580000
28.01450000 78.42980000 5.15570000
28.26750000 79.34420000 6.05260000
27.42460000 77.32560000 5.54510000
25.65050000 73.02930000 5.08310000
25.21920000 71.81100000 4.21410000
24.83470000 71.15620000 4.84370000
24.79930000 71.33430000 5.58110000
24.41180000 70.25840000 4.71050000
24.00280000 69.79680000 6.09240000
1.33020000 -113.87380000 -36.49560000
0.70590000 -113.85970000 -36.57570000
1.65930000 -113.30940000 -36.04520000
-3.33710000 -113.83320000 -37.13280000
-3.79560000 -113.67390000 -36.94360000
-4.34230000 -113.82250000 -37.16020000
-57.02290000 126.96030000 -44.37180000
-57.12410000 126.75540000 -44.47630000
-55.78600000 126.56140000 -46.12970000
-52.15140000 126.44330000 -49.99330000
-53.35210000 126.41460000 -48.84300000
-51.33360000 126.21270000 -50.92240000
-2.27290000 20.11870000 20.61290000
-2.35740000 21.19250000 20.73150000
-2.88140000 21.16080000 20.88230000
-3.11790000 20.66400000 20.92410000
-1.74200000 21.18020000 20.65270000
-1.32310000 20.64400000 20.57260000
-44.61800000 113.48250000 -35.81800000
-44.78370000 113.79190000 -36.10610000
-44.52700000 113.85540000 -36.73640000
-44.41240000 112.37650000 -35.04330000
-44.94210000 112.96470000 -34.97430000
-45.23590000 112.54250000 -34.50320000
-44.91730000 111.99790000 -34.43620000
-45.67060000 112.65780000 -34.23030000
-45.47070000 111.46690000 -33.73340000
10.33070000 9.26530000 13.90810000
10.31910000 8.62510000 13.81380000
9.94360000 8.25870000 14.21730000
10.27190000 9.96400000 14.10760000
10.59700000 10.42850000 13.78290000
-42.16540000 86.67600000 0.18740000
-42.68870000 87.81930000 1.01910000
-43.17490000 88.64850000 0.81400000
-41.58090000 85.15970000 -0.25160000
-41.88890000 85.81750000 -0.43070000
-49.87630000 108.11970000 23.73060000
-49.26410000 107.94550000 24.55620000
-50.10990000 109.01620000 24.91030000
-50.76020000 109.47060000 24.50410000
-48.38540000 107.50670000 25.50540000
-50.08060000 109.22790000 25.47070000
-45.85590000 105.67800000 26.87790000
-46.69160000 106.22940000 26.36400000
-47.12360000 106.10880000 25.61700000
-47.09370000 106.88450000 26.59040000
11.63180000 14.70860000 13.18440000
11.10190000 15.03180000 13.86610000
10.94840000 14.47880000 13.99750000
11.14950000 14.02140000 13.70110000
10.60080000 14.32580000 14.38080000
10.68760000 13.44170000 14.17890000
11.65400000 12.19230000 12.74750000
11.66210000 13.53390000 12.96760000
11.32680000 13.44920000 13.39240000
11.12140000 12.85860000 13.55660000
-30.30490000 70.13160000 16.24780000
-30.37040000 71.27370000 16.89870000
-31.00000000 71.50490000 16.41440000
-31.31300000 71.23560000 15.86210000
-30.52080000 72.25750000 17.34730000
-31.30130000 72.21160000 16.50580000
-31.08560000 72.97130000 16.98310000
-31.45080000 72.77240000 16.53190000
-31.86660000 73.01910000 16.12680000
-43.10220000 117.38790000 -44.03470000
-43.19020000 117.92910000 -44.67540000
-43.63540000 118.15520000 -44.37630000
-43.67780000 117.81360000 -43.82800000
-43.19030000 118.70870000 -45.66490000
-43.93880000 118.60580000 -44.62170000
-44.34560000 118.34190000 -43.62830000
-45.54110000 114.90560000 -38.19780000
-47.14050000 115.73130000 -37.70810000
-47.43960000 115.35710000 -36.85580000
-46.79740000 114.86100000 -36.72970000
-0.52200000 -116.62500000 -38.99280000
0.05540000 -115.89790000 -38.32880000
-0.60030000 -115.70900000 -38.38270000
-1.28130000 -115.97150000 -38.72980000
-0.67540000 -115.21170000 -37.98290000
-1.89480000 -115.33490000 -38.35170000
-0.79680000 -114.63030000 -37.55710000
-1.55790000 -114.46000000 -37.61750000
-0.27570000 -114.22390000 -37.10110000
-1.22700000 -113.47310000 -36.70450000
-26.65880000 61.69110000 10.57640000
-27.13560000 62.28100000 10.02110000
-27.43370000 63.36470000 10.25340000
-26.07710000 59.70500000 10.14380000
-27.22620000 61.77330000 9.42200000
-28.33820000 63.98960000 8.74730000
-26.06510000 61.59120000 11.60250000
-25.71060000 60.90270000 11.52570000
-25.92010000 60.62070000 11.00410000
-26.22830000 60.92060000 10.81830000
-25.25580000 60.29910000 11.70460000
-25.63220000 60.09400000 11.01080000
47.59070000 118.36660000 40.02010000
48.22840000 118.95200000 40.30770000
47.98480000 118.95680000 40.88570000
47.57810000 118.70300000 41.07960000
51.43200000 119.30740000 35.77920000
51.82070000 119.84260000 36.49960000
51.07670000 119.61480000 36.82860000
50.52080000 119.28820000 36.82150000
52.13030000 120.15870000 37.07080000
51.12620000 119.79140000 37.34350000
49.95650000 119.27890000 37.81350000
-22.61600000 -4.39080000 -11.05690000
-22.96190000 -4.67240000 -10.11390000
-23.14530000 -3.64500000 -9.34350000
-21.09290000 -4.66680000 -14.34670000
-21.54980000 -5.45360000 -13.58720000
-21.96420000 -4.62720000 -12.73600000
-21.55190000 -7.20990000 -13.68010000
-44.01700000 117.28910000 -42.23930000
-44.24240000 117.11980000 -41.75780000
-44.12340000 116.79870000 -41.67380000
-44.69210000 117.68040000 -41.87080000
-44.72470000 117.27480000 -41.34080000
-44.76120000 116.78080000 -40.86030000
-44.88610000 119.04710000 -44.37960000
-45.48110000 118.84630000 -43.57510000
-45.43330000 118.41820000 -42.83590000
-46.11460000 119.10510000 -43.46210000
-46.61420000 118.33270000 -41.79650000
-8.38110000 -124.51890000 33.59190000
-6.89050000 -124.58830000 33.91980000
-6.75720000 -123.89730000 34.14760000
-7.53260000 -123.56640000 34.04960000
-5.38850000 -124.75690000 34.14490000
-5.92290000 -123.64670000 34.30760000
-8.78340000 -120.53490000 33.94020000
-9.74580000 -119.48340000 33.67330000
-10.29550000 -120.15410000 33.50680000
-10.14440000 -121.05000000 33.52490000
-23.88900000 65.75890000 16.85050000
-24.00570000 66.78630000 17.32750000
-23.22460000 66.52770000 17.96280000
-24.77640000 67.88390000 17.08670000
-24.81310000 65.66450000 15.55860000
-25.49270000 65.58970000 14.70510000
-25.67160000 64.94610000 13.97890000
5.91830000 77.13890000 31.40260000
6.03060000 78.27930000 31.78770000
5.63890000 78.17960000 31.82210000
5.31570000 77.57900000 31.66680000
9.03250000 78.96230000 31.21930000
9.59690000 79.95400000 31.56330000
9.24810000 79.94320000 31.73980000
8.83180000 79.55120000 31.64820000
9.25270000 80.41440000 31.98830000
8.70100000 80.04000000 31.95100000
11.65180000 15.79700000 13.28000000
11.30420000 15.65580000 13.68440000
11.10530000 16.10940000 13.95920000
12.26170000 15.00000000 12.39150000
12.18260000 14.48540000 12.41790000
12.03870000 15.34950000 12.74040000
-7.59640000 27.38880000 20.69090000
-6.86540000 27.40410000 20.88290000
-7.11800000 27.97160000 20.89270000
-7.63320000 28.21920000 20.79500000
-6.09020000 27.52550000 21.07040000
-6.82440000 28.30590000 21.03510000
-7.53710000 29.19950000 21.04060000
-6.13870000 26.74640000 21.19010000
-6.64460000 26.89280000 21.01980000
-7.00120000 26.66620000 20.98770000
4.97680000 -114.41840000 30.06910000
4.44070000 -113.64070000 29.44410000
4.74310000 -111.51460000 28.01600000
3.27190000 -111.04680000 27.94270000
3.20900000 -111.46980000 28.15470000
4.01720000 -111.91710000 28.30830000
11.33250000 79.90520000 30.69660000
12.47880000 80.17660000 30.57190000
12.51350000 80.76030000 30.92800000
11.91960000 80.88100000 31.18980000
13.60130000 80.51010000 30.49840000
13.03350000 81.19090000 31.10650000
12.41530000 81.89540000 31.78990000
14.08990000 82.64060000 31.71410000
14.20820000 83.36440000 32.28690000
13.71960000 83.67280000 32.43520000
13.44370000 83.59890000 32.30900000
14.39520000 83.94930000 32.60650000
13.74100000 84.19500000 32.70470000
12.86740000 84.53050000 32.82870000
-11.69420000 -117.14290000 -38.47490000
-11.89430000 -116.35440000 -38.20530000
-12.44040000 -116.32110000 -37.93790000
-12.51230000 -116.75120000 -38.00690000
-12.71990000 -115.92330000 -37.63090000
-13.48790000 -116.38250000 -37.39970000
-15.18840000 -117.72400000 -36.88820000
-14.38380000 -117.07120000 -37.11540000
-14.79010000 -116.70100000 -37.07410000
-15.40240000 -116.90310000 -36.92490000
-14.66630000 -116.16860000 -37.12330000
-36.29450000 99.82940000 -32.37670000
-34.72210000 100.40460000 -34.21240000
-34.61270000 101.72860000 -35.41160000
-35.18480000 102.15400000 -35.28440000
-33.15770000 97.40220000 -32.97840000
-33.91800000 97.57300000 -32.47740000
-33.86940000 96.98510000 -32.03550000
-33.29330000 96.70890000 -32.29100000
-45.56450000 117.96400000 -41.79720000
-45.85150000 117.66730000 -41.13740000
-45.47490000 117.41890000 -40.93570000
-46.54010000 117.66580000 -40.72620000
-46.37380000 116.97880000 -39.76880000
-50.72000000 119.10570000 -38.00880000
-50.82500000 119.62240000 -38.68830000
-49.91770000 118.90560000 -38.61710000
-50.25050000 119.60270000 -39.32250000
47.81480000 107.83030000 16.93110000
48.10500000 108.43870000 17.50210000
49.17780000 108.39100000 15.72580000
48.83400000 109.03060000 17.23110000
48.92490000 107.66300000 11.16710000
48.69010000 107.82580000 12.76720000
48.09860000 107.44600000 13.34930000
47.88670000 107.08350000 12.69340000
48.74340000 108.03830000 13.92100000
47.92360000 107.43300000 14.27500000
11.40290000 77.10480000 29.51720000
10.84240000 76.95740000 29.63270000
10.97390000 77.52610000 29.77940000
10.38320000 77.23590000 29.86280000
10.69370000 80.47070000 31.34280000
10.12120000 79.95190000 31.27580000
10.18350000 79.46510000 30.94660000
-31.72080000 71.18890000 15.23550000
-31.46380000 70.66670000 15.06500000
-30.81730000 68.33020000 14.63270000
-31.25340000 68.80380000 14.11980000
-31.39700000 68.49430000 13.79500000
-30.98450000 69.36210000 14.78930000
-31.58620000 69.64050000 13.99980000
-32.14580000 69.95110000 13.22500000
-10.28210000 61.84490000 -27.24090000
-9.39240000 60.71180000 -26.96220000
-8.56700000 61.20220000 -27.15540000
-7.02420000 62.85120000 -27.63720000
-5.96540000 61.59140000 -27.22690000
-6.96230000 61.28550000 -27.13940000
-5.65440000 60.11470000 -26.75620000
3.52840000 -94.14320000 -27.70680000
2.79620000 -94.83850000 -28.22420000
2.27180000 -93.96210000 -27.98820000
3.80110000 -97.07880000 -28.93080000
2.54010000 -96.51470000 -29.03310000
1.44210000 -96.29410000 -29.20250000
0.25370000 -99.52060000 -31.00870000
-0.50010000 -100.31450000 -31.49690000
1.49280000 -100.32270000 -31.22710000
-0.23570000 -101.08300000 -31.86610000
-21.41730000 42.14070000 13.32270000
-21.14880000 42.69120000 13.86710000
-21.52450000 42.91650000 13.43470000
-21.81940000 42.56010000 12.91790000
-21.61230000 43.38890000 13.48270000
-21.61280000 41.47650000 12.81770000
-21.89560000 41.94470000 12.59520000
-11.70040000 12.62070000 19.15600000
-12.07060000 12.82480000 19.11050000
-11.25820000 13.55210000 19.68610000
-12.06960000 13.29150000 19.34110000
-12.33090000 14.17690000 19.52930000
-12.05550000 14.87980000 19.50720000
-12.51040000 14.84960000 19.36240000
-12.83010000 14.31920000 19.33410000
10.63810000 -87.63630000 13.73530000
9.89350000 -87.24000000 14.22300000
