11.67620000 -10.36890000 16.52800000
11.44950000 -7.04390000 17.81500000
10.80070000 -0.10730000 19.72680000
12.42430000 -10.26840000 20.81640000
11.98250000 -1.19520000 21.46590000
11.73180000 -5.74790000 17.24590000
12.21290000 -7.18350000 15.59030000
12.26140000 -5.29370000 20.78160000
11.56080000 -2.03250000 17.97380000
12.09560000 -3.62340000 16.38250000
12.67950000 -7.37830000 19.97010000
12.96020000 -5.01850000 19.14560000
13.07270000 -10.09400000 19.22110000
12.75130000 -2.58860000 19.76120000
13.30010000 -2.49100000 18.28960000
13.56110000 -6.36280000 17.35990000
13.76070000 -3.87730000 17.01060000
14.24620000 -13.33150000 15.63160000
13.81670000 -9.77210000 16.71560000
10.21640000 5.13330000 20.90930000
11.12240000 2.18830000 23.03660000
10.83580000 3.23770000 19.79090000
11.35030000 0.32130000 18.62380000
11.26350000 2.56600000 18.89960000
11.03170000 5.36500000 19.38830000
12.40290000 -0.19280000 20.80070000
11.79200000 1.05420000 17.45830000
11.93340000 1.88540000 21.57890000
12.07780000 4.75290000 21.33120000
11.96260000 -1.35670000 16.92340000
11.75030000 5.88640000 17.57120000
12.43250000 -0.44720000 15.35570000
12.73700000 0.76290000 19.97320000
12.25620000 2.92820000 16.15610000
12.65150000 2.83170000 14.71840000
13.17970000 4.92930000 18.83730000
12.54400000 6.56680000 15.10950000
13.55910000 -0.49820000 17.69170000
13.05910000 2.05650000 19.06660000
9.79660000 11.99510000 21.57140000
10.11660000 8.11140000 21.11700000
10.46780000 7.96310000 20.47330000
9.79050000 14.83020000 21.49770000
10.32140000 9.99710000 20.67330000
10.77170000 7.16340000 19.87770000
10.61530000 12.71320000 19.95410000
10.83330000 9.02220000 19.71820000
10.91070000 10.58390000 19.47160000
11.21340000 8.08230000 18.91650000
11.45860000 6.77980000 22.58770000
11.15020000 9.73910000 19.00400000
11.43250000 10.71700000 18.20900000
11.81920000 9.92140000 22.03170000
11.24430000 14.14280000 18.46400000
12.37720000 12.73820000 21.04780000
12.63450000 8.96890000 20.30110000
12.14760000 14.65930000 21.40310000
11.96810000 13.77080000 16.54380000
9.97700000 17.68310000 21.07900000
10.16820000 25.02300000 20.98010000
10.82800000 19.37010000 19.27220000
10.65240000 15.98140000 19.73110000
11.42010000 16.76750000 17.87110000
10.86740000 22.98960000 19.34790000
11.67870000 19.55200000 17.11500000
22.73870000 -75.53240000 21.43560000
22.21770000 -72.62170000 21.73600000
21.59000000 -74.97900000 20.70360000
23.06830000 -75.01350000 21.69810000
22.53050000 -72.34030000 21.92160000
23.34120000 -74.20970000 21.73340000
23.59970000 -78.23120000 21.56690000
24.18240000 -77.96010000 21.65740000
24.19490000 -76.48420000 21.51470000
23.84410000 -74.47550000 21.30060000
23.83340000 -80.34570000 21.29250000
24.23050000 -79.15510000 21.52890000
24.23320000 -75.51390000 21.20120000
-33.80620000 -51.38400000 10.63830000
-33.81610000 -51.35430000 11.08370000
-34.13570000 -53.07700000 10.86040000
25.06050000 -79.80010000 21.01240000
24.72440000 -77.91710000 21.08530000
24.06210000 -73.59430000 20.42800000
21.15530000 -70.50650000 21.39680000
19.59580000 -69.92120000 19.90880000
21.39180000 -68.59840000 21.91250000
21.28720000 -66.96620000 22.02490000
21.06930000 -64.52540000 21.96970000
21.10430000 -72.04000000 20.90930000
21.64730000 -67.10500000 22.02140000
21.72300000 -68.65570000 22.02540000
22.42450000 -70.23720000 21.92000000
21.40720000 -64.70780000 21.75990000
22.52500000 -68.70240000 21.48670000
23.09530000 -72.50780000 21.74300000
22.25680000 -66.94260000 21.25140000
21.79350000 -65.26450000 21.19870000
23.15920000 -71.66290000 21.37650000
22.77470000 -68.42310000 20.74600000
22.67550000 -67.26060000 20.26900000
20.05340000 -59.61110000 21.93330000
19.60410000 -56.03440000 21.73010000
20.26590000 -59.56060000 21.69050000
19.96060000 -56.59640000 21.14560000
20.92460000 -62.41120000 21.63700000
20.94120000 -60.96820000 20.89560000
21.46000000 -63.79440000 21.30130000
21.20140000 -62.67830000 21.17680000
21.49920000 -61.88360000 19.45620000
22.74710000 -66.78020000 19.26230000
18.63290000 -48.76020000 20.53830000
19.02630000 -51.33370000 20.96370000
19.69040000 -53.98630000 20.24640000
18.71100000 -45.32970000 17.05430000
19.03500000 -49.35490000 19.31750000
20.00310000 -53.15960000 17.98470000
14.09140000 -6.29390000 15.33100000
13.90380000 -2.41260000 16.25700000
13.73070000 4.41300000 17.28970000
14.17400000 0.13230000 15.68590000
14.38710000 1.34940000 14.73110000
14.36030000 -1.83990000 14.49600000
14.62290000 3.59660000 14.14020000
13.97270000 6.41700000 16.54820000
12.14340000 9.80900000 16.29740000
12.93100000 11.59470000 19.63850000
12.67130000 11.75880000 14.42610000
13.39240000 14.03530000 18.67120000
13.89000000 10.46650000 16.93510000
13.12590000 15.58210000 19.40560000
13.96340000 11.75700000 16.64080000
14.39480000 14.74340000 15.26560000
14.45290000 10.13950000 15.01710000
13.99390000 15.31440000 16.63680000
14.97060000 13.09770000 13.12550000
11.45300000 21.79450000 17.81570000
12.73520000 16.00920000 20.34660000
12.17500000 19.99810000 21.34780000
12.14440000 17.34460000 15.78170000
12.58400000 18.61550000 20.61690000
12.90290000 17.17720000 20.30800000
12.08930000 22.09060000 15.89210000
12.13160000 19.79050000 15.75280000
12.41330000 14.86310000 15.11180000
12.57340000 19.94720000 14.13250000
12.96880000 22.47250000 19.64690000
12.68820000 16.01050000 14.01650000
13.39080000 18.89560000 18.60360000
13.64530000 17.08850000 18.49210000
13.52700000 17.65900000 18.76540000
12.50430000 22.84390000 14.38480000
14.08720000 16.94690000 17.17990000
13.71650000 22.10970000 17.48980000
13.86780000 19.60260000 17.11910000
14.12930000 17.49530000 17.09020000
13.79330000 23.48600000 17.41050000
14.31260000 18.44790000 15.92770000
14.85170000 14.82370000 13.31270000
14.29860000 19.46430000 15.56550000
14.62960000 17.39540000 15.38630000
14.45620000 22.04410000 14.83870000
14.49980000 23.43560000 15.04400000
15.14620000 17.41670000 13.33010000
14.90700000 19.00720000 13.11030000
14.91250000 15.71550000 13.26550000
15.23020000 16.94330000 12.97750000
14.75230000 22.11190000 13.58870000
14.88740000 23.93010000 13.38490000
10.87410000 27.89100000 19.74350000
11.15970000 26.29020000 18.93230000
12.23610000 24.36970000 21.23110000
11.26460000 30.24200000 18.92560000
11.73890000 24.98330000 17.16810000
12.34280000 26.54550000 20.76520000
11.30370000 28.32720000 18.76830000
12.61280000 28.92400000 20.13920000
11.67790000 28.22510000 17.67900000
12.43690000 25.37100000 14.66770000
11.99260000 30.94090000 16.88110000
12.21770000 28.23750000 15.79600000
12.90300000 25.83200000 19.45700000
12.55900000 31.33250000 14.66600000
12.82920000 23.50860000 12.79680000
12.83700000 26.70370000 12.82820000
13.46480000 28.52210000 17.73810000
13.51850000 25.43050000 17.77860000
13.20580000 30.92960000 19.14020000
12.71140000 28.81350000 13.64740000
13.52660000 29.50170000 17.70910000
13.97120000 28.35230000 16.06720000
13.34680000 32.19990000 18.40320000
13.89720000 30.68920000 17.11180000
13.01280000 31.65940000 12.39330000
14.12430000 26.21420000 15.70990000
14.18340000 31.50850000 15.93450000
14.46780000 26.17380000 14.39390000
14.42100000 30.39020000 15.18100000
14.39430000 29.34410000 14.59310000
14.07380000 33.00800000 15.62650000
14.36900000 27.92740000 14.38670000
14.75180000 28.82140000 12.70070000
14.93000000 26.45380000 11.92810000
14.95740000 27.92550000 11.49000000
14.97960000 31.40700000 12.96310000
15.08500000 29.88810000 11.77850000
15.31830000 30.88560000 11.57140000
10.92130000 36.21130000 20.35240000
11.57710000 33.35120000 18.37330000
11.33280000 38.09950000 20.13900000
11.91130000 36.92700000 18.26700000
11.74180000 35.31460000 18.21070000
11.98270000 38.24710000 19.10080000
12.28140000 34.16310000 16.26190000
12.90790000 34.52890000 19.50620000
12.54970000 38.83560000 18.90520000
12.77740000 36.25890000 20.08020000
12.66790000 35.70940000 15.20830000
12.57360000 37.06460000 16.67480000
12.87660000 38.21700000 17.64250000
13.05740000 33.30010000 19.14900000
12.96770000 39.35570000 18.97970000
12.90370000 36.36100000 14.87640000
13.37770000 40.71540000 20.15610000
12.94370000 34.00580000 13.29200000
13.29500000 36.85470000 19.10350000
13.64290000 38.02680000 19.84690000
13.22670000 35.59150000 18.65000000
13.31520000 37.05510000 14.70620000
13.97080000 34.72810000 15.93610000
13.25310000 35.60690000 12.60310000
14.03690000 38.36130000 15.80050000
14.14400000 37.34310000 17.77660000
13.94750000 36.02710000 16.60400000
13.74330000 33.43890000 16.85470000
13.61400000 36.37460000 12.11090000
14.53970000 38.50470000 18.99880000
13.98020000 36.65310000 17.11970000
15.53650000 38.07980000 16.20310000
14.46050000 39.32800000 17.04890000
14.26120000 39.71200000 17.97170000
13.86630000 37.02890000 12.86690000
14.17200000 40.33500000 18.94680000
15.84690000 39.08620000 17.95390000
14.63290000 34.21980000 13.17800000
15.04820000 38.02100000 12.31300000
14.83990000 36.86300000 15.08100000
14.89710000 33.73240000 12.02060000
14.73310000 36.05750000 13.85110000
15.06880000 32.50670000 11.70720000
15.03400000 38.64710000 14.34630000
15.01300000 35.38930000 11.88680000
16.82700000 39.31800000 11.75700000
16.90390000 39.18380000 16.18240000
15.84670000 37.12490000 12.41200000
16.21780000 37.81480000 13.71240000
17.53600000 40.68840000 18.48310000
17.58010000 40.04550000 17.03510000
18.13890000 39.47540000 14.17960000
16.45470000 41.40290000 18.06820000
19.94960000 42.81050000 18.92360000
19.11050000 42.78480000 19.98750000
16.93780000 40.42610000 15.17210000
17.51440000 40.16330000 13.17050000
17.12460000 41.33730000 17.05950000
17.63760000 38.57430000 12.11630000
18.55850000 40.30030000 15.76710000
18.77260000 42.18280000 16.05020000
17.54180000 43.21210000 19.41460000
19.38620000 43.23460000 17.33070000
19.97410000 41.69870000 16.60680000
21.03060000 41.79540000 14.70240000
19.84730000 40.30470000 12.35160000
20.14060000 42.40330000 17.86820000
24.19840000 44.39610000 15.34470000
22.85260000 42.75810000 13.15270000
20.61120000 44.65610000 18.14050000
20.63430000 45.33900000 19.07270000
20.87430000 44.16190000 16.96710000
20.35370000 42.31350000 13.36830000
21.03050000 43.71530000 15.69250000
20.80160000 42.37470000 12.11380000
22.85540000 44.58890000 18.14650000
22.12090000 43.49340000 17.04470000
23.23960000 46.37440000 17.99330000
18.43070000 40.25810000 10.26350000
24.29190000 44.86830000 11.15880000
23.61690000 45.03120000 14.08420000
23.34790000 42.83670000 11.68170000
24.50900000 46.71910000 16.90080000
25.36590000 45.95030000 12.42420000
27.37870000 47.57430000 17.62720000
24.42290000 44.21220000 14.25920000
27.76750000 49.11590000 16.97580000
25.42850000 44.26340000 10.77020000
25.11730000 46.00820000 13.71480000
26.89830000 48.12530000 15.87140000
29.05870000 47.67330000 14.64860000
27.43880000 46.11710000 13.11400000
27.11440000 49.15500000 18.00900000
25.62650000 45.76990000 9.95080000
26.90810000 47.37700000 12.43140000
27.90640000 46.04680000 10.83530000
28.48860000 47.66040000 15.85830000
26.83700000 47.80000000 14.31220000
28.01340000 48.91230000 15.21650000
28.21390000 49.24190000 16.44870000
29.90010000 49.24150000 17.46660000
28.24270000 48.26600000 12.13080000
28.50850000 48.66510000 12.89960000
28.46090000 48.93110000 14.24320000
28.15920000 48.01300000 11.04860000
29.38540000 48.51930000 16.69760000
29.34870000 50.04760000 16.68210000
29.18260000 48.85550000 11.68900000
30.91780000 51.99680000 18.32470000
28.99300000 48.88650000 12.34490000
30.47210000 50.35780000 15.12600000
30.52840000 47.89480000 10.83140000
29.87550000 49.63110000 13.30030000
30.06380000 48.01770000 13.17670000
29.70490000 49.34950000 12.29460000
30.98130000 50.00250000 12.24130000
32.83850000 49.94130000 12.99560000
29.64020000 48.94850000 10.91010000
32.08980000 50.55810000 16.87530000
31.94100000 49.87220000 15.14470000
31.04930000 49.81530000 10.41370000
31.51550000 50.62750000 13.56180000
32.84080000 52.56620000 16.85280000
33.10670000 51.49990000 12.99650000
33.36120000 52.24810000 15.04190000
32.33860000 50.72710000 11.53660000
32.77110000 49.42140000 10.36300000
34.28740000 50.63220000 11.41590000
33.71850000 51.45370000 16.18830000
34.13470000 51.29850000 14.85660000
33.57580000 51.52140000 11.29140000
33.31650000 51.25340000 9.60160000
34.69850000 50.74190000 9.74820000
34.45390000 52.16650000 12.19230000
36.00370000 52.26680000 13.91700000
35.61530000 53.76630000 15.30540000
35.70990000 52.61560000 15.72950000
36.32500000 51.94230000 11.05370000
36.19530000 52.04530000 12.35890000
36.48670000 53.32120000 10.43280000
36.55360000 53.48800000 11.54440000
36.53090000 53.77210000 13.42470000
35.98070000 54.46750000 16.54520000
38.33350000 54.39540000 16.09530000
40.57210000 56.10750000 17.03150000
38.15300000 53.79470000 14.50980000
39.05130000 53.99870000 13.05890000
39.35830000 55.94890000 14.91000000
37.97360000 52.94640000 9.91340000
40.30900000 57.37880000 16.98640000
39.01260000 53.73480000 11.63330000
41.14470000 56.59990000 12.96800000
41.71710000 55.94370000 14.38140000
41.11410000 56.96960000 14.76990000
41.62440000 56.75160000 12.00460000
41.93990000 56.83940000 10.06970000
38.53010000 54.71720000 8.91240000
41.23570000 56.10670000 15.90970000
41.46870000 55.22760000 11.29760000
43.04960000 56.36320000 12.63830000
40.56560000 54.62830000 9.45550000
43.03160000 58.67460000 16.24050000
44.28480000 56.93090000 10.99180000
43.07690000 57.54970000 11.03740000
44.24070000 57.70360000 15.37110000
42.81380000 57.61840000 13.41370000
44.22510000 59.10990000 15.49250000
43.81030000 57.84650000 16.57540000
43.19260000 57.73240000 12.80450000
43.59210000 57.88990000 9.39930000
42.14610000 57.13310000 8.11350000
46.65720000 60.20630000 14.55000000
43.74830000 56.60800000 9.57430000
47.70920000 60.44510000 13.07460000
45.89880000 58.85130000 15.97970000
43.89290000 56.82580000 8.07910000
47.57010000 58.91560000 8.98050000
46.00550000 58.26190000 13.51750000
48.29340000 61.51020000 15.61510000
47.66080000 60.02940000 16.52270000
47.20770000 58.69700000 11.88780000
46.63530000 58.31480000 10.34410000
48.01730000 59.92310000 15.63150000
49.53830000 60.06520000 12.41620000
47.62720000 60.24740000 11.91790000
48.70890000 59.93660000 14.23820000
49.05700000 61.05630000 9.13170000
48.80210000 59.52080000 10.45990000
51.13600000 62.36270000 13.19070000
50.64670000 60.49170000 10.70460000
53.33800000 63.89730000 14.58730000
51.70790000 61.76950000 15.25890000
50.46650000 61.81740000 11.72400000
51.26750000 62.39620000 8.31610000
46.28960000 59.69930000 7.45330000
51.51640000 62.35970000 10.42650000
52.29290000 61.47000000 12.15310000
51.59950000 61.06010000 9.27160000
49.00370000 59.88150000 7.63950000
51.65180000 61.47730000 14.18550000
53.55130000 62.05300000 10.38170000
53.55610000 63.55860000 12.57140000
55.66950000 63.32570000 13.44730000
53.28790000 62.06620000 8.53430000
55.76440000 63.14700000 11.80470000
56.53390000 63.58180000 9.32180000
58.68230000 64.51010000 10.54930000
52.97530000 63.14460000 11.21050000
55.72820000 64.66230000 9.53020000
56.24460000 65.31400000 14.37090000
55.68110000 64.88280000 7.77990000
55.60070000 64.54310000 12.22850000
56.41880000 64.08730000 15.15010000
55.38600000 63.25370000 7.84500000
58.46430000 64.62810000 8.21240000
58.70340000 66.09600000 10.60780000
58.72420000 64.86440000 13.78610000
59.45130000 64.90910000 9.44990000
59.44430000 66.84290000 14.29990000
58.76730000 64.65020000 12.30450000
61.03000000 67.39760000 9.32460000
61.95560000 66.23590000 13.33120000
63.17650000 68.52340000 13.71680000
60.92060000 67.23220000 11.78710000
62.28780000 66.14430000 11.40170000
62.29750000 68.29550000 8.07750000
62.70310000 66.30060000 9.88680000
65.31170000 69.43330000 11.66940000
62.29520000 66.22350000 8.76070000
61.43930000 66.22260000 6.58940000
66.28520000 67.86740000 12.33530000
65.32150000 69.70910000 14.40060000
64.01330000 67.09840000 7.50950000
66.22820000 67.70300000 10.29720000
65.95170000 69.86280000 13.53490000
65.75560000 67.55580000 9.03890000
64.44450000 69.15630000 9.75390000
66.68000000 70.45920000 9.00220000
65.72590000 69.71720000 10.32810000
68.27680000 71.05720000 11.42520000
68.11670000 71.23870000 14.55520000
67.26440000 71.16370000 7.67740000
65.89250000 67.99920000 6.74250000
68.15780000 71.12270000 9.82670000
67.64790000 70.72080000 13.17800000
68.36470000 71.52760000 8.44980000
68.32940000 68.56400000 8.87610000
71.14350000 69.56990000 10.37220000
71.20630000 69.86420000 7.92940000
64.04360000 70.10310000 5.92770000
67.99570000 72.28050000 6.11780000
69.87820000 72.02920000 13.14630000
71.42980000 69.77650000 12.15160000
70.04800000 69.44110000 13.26390000
69.91120000 72.04300000 10.93190000
72.86080000 70.80620000 6.64420000
72.52250000 73.51290000 10.39640000
71.83140000 73.09580000 12.97060000
72.43600000 73.77000000 8.90850000
70.79750000 73.24980000 7.64730000
73.47860000 70.67950000 13.29910000
72.41810000 73.96930000 8.22810000
72.87110000 70.23460000 11.77620000
73.32050000 70.48940000 9.06180000
73.61050000 70.80110000 7.88120000
72.31980000 73.30620000 11.69460000
73.30990000 73.80680000 13.92760000
73.00540000 73.87780000 14.75820000
74.25130000 70.80240000 10.70010000
73.29930000 73.86450000 10.14250000
73.60390000 73.76360000 13.08320000
73.16750000 73.75020000 10.68180000
74.50250000 71.07100000 12.55730000
73.94570000 73.72660000 11.49220000
74.54520000 71.06700000 9.05550000
74.55160000 71.57150000 6.75080000
74.64140000 71.40420000 13.81470000
74.64270000 71.03490000 10.40490000
74.19840000 73.63670000 11.45260000
74.95830000 71.58700000 13.17050000
74.56320000 73.32820000 11.93260000
74.20610000 73.95280000 9.02080000
73.62800000 74.20020000 8.71850000
75.09130000 71.55110000 8.79490000
75.05210000 71.53740000 12.04960000
75.08190000 72.36930000 12.92000000
74.64020000 73.45810000 9.37120000
75.00660000 72.77850000 9.94620000
75.15500000 71.88600000 11.68390000
74.28240000 74.35790000 6.78110000
74.89180000 73.47650000 7.01430000
75.03910000 72.14480000 6.44220000
74.71900000 72.19120000 5.51330000
75.24800000 71.92870000 9.27530000
75.27940000 72.41300000 7.99910000
75.24660000 72.56520000 6.72940000
75.04230000 73.51600000 6.20080000
70.13080000 73.40910000 6.41010000
71.04640000 74.17940000 6.26130000
72.05380000 75.19310000 5.59740000
72.62570000 74.34350000 7.58600000
73.14230000 74.58250000 7.35620000
74.00470000 74.36670000 7.72200000
73.59650000 75.00970000 5.93520000
74.08010000 74.78370000 5.48660000
74.49350000 74.48850000 4.57190000
-53.47170000 -87.28140000 16.90000000
-53.23830000 -87.93710000 17.31280000
-52.89500000 -85.54030000 17.68330000
-52.81790000 -87.15080000 17.84020000
-52.68580000 -88.33380000 17.64750000
-52.45000000 -86.86820000 18.06210000
-52.19100000 -85.18640000 18.38040000
-52.45420000 -83.81050000 17.85440000
-53.09350000 -85.70650000 17.22810000
-52.08150000 -87.83980000 17.76800000
-52.23900000 -84.12830000 18.27840000
-51.79770000 -85.46810000 18.43430000
-50.96200000 -84.20790000 18.61510000
-51.23130000 -85.99280000 18.06150000
-51.40650000 -82.25040000 18.86950000
-50.31820000 -84.33540000 18.22920000
-50.46490000 -80.02080000 19.22530000
-49.95560000 -85.11820000 17.46010000
-50.24200000 -83.25590000 18.59000000
-49.30150000 -82.94860000 18.00670000
-49.21870000 -84.00310000 17.26570000
-49.06940000 -82.39050000 17.91520000
-50.09240000 -80.97430000 18.88170000
-48.07190000 -82.86060000 16.43860000
-51.82360000 -80.98220000 18.19380000
-51.25440000 -80.24270000 18.89130000
-52.82160000 -82.89500000 16.23830000
-52.54510000 -82.05840000 16.48420000
-50.70840000 -76.95180000 18.76060000
-49.90960000 -76.76240000 19.46920000
-50.75790000 -76.17470000 18.19180000
-50.51070000 -77.29250000 19.11560000
-50.92320000 -74.49980000 15.91320000
-49.62440000 -77.63130000 19.39170000
-49.82360000 -74.53940000 19.36990000
-49.31060000 -81.31970000 18.14750000
-48.81800000 -80.21520000 17.99510000
-49.12610000 -77.89970000 19.06150000
-49.66380000 -72.90430000 19.17140000
-49.98130000 -71.73080000 17.46810000
-48.66250000 -81.27680000 17.47590000
-49.08540000 -76.73930000 19.32110000
-49.05450000 -73.03510000 19.70270000
-50.34690000 -71.76110000 15.95700000
-73.57120000 75.73040000 7.42000000
-73.32590000 75.44560000 6.64900000
-73.16220000 75.33590000 8.06020000
-74.61720000 76.48950000 4.68370000
-73.73590000 76.32110000 8.93630000
-73.67490000 75.99110000 8.53270000
-72.24900000 75.00100000 10.99480000
-71.26390000 73.91780000 4.54980000
-72.01110000 74.58420000 10.66590000
-72.38600000 75.41830000 11.14810000
-70.23700000 73.01730000 10.58610000
-72.03190000 76.08090000 11.81710000
-70.51910000 73.29990000 5.06090000
-71.99400000 76.66640000 11.51800000
-69.27460000 72.30780000 5.75620000
-70.38380000 75.92960000 12.66630000
-71.52300000 76.61620000 11.65830000
-72.63990000 77.76390000 8.06340000
-71.27760000 76.72810000 8.28280000
-69.07810000 74.92350000 5.97420000
-71.30000000 76.78910000 5.32250000
-67.66720000 71.04670000 8.81710000
-69.54310000 75.31730000 8.35900000
-65.93980000 69.74620000 10.55100000
-67.70880000 73.86270000 10.20240000
-66.85530000 70.47060000 5.93480000
-66.28520000 72.49640000 6.45900000
-64.77660000 68.94450000 11.50820000
-64.88000000 71.46520000 10.63100000
-64.72980000 68.82780000 7.35270000
-65.89240000 69.85710000 3.68760000
-74.57540000 76.83530000 5.92120000
-74.92550000 76.90080000 4.60750000
-73.94500000 76.28370000 7.06520000
-74.20410000 77.57670000 7.22580000
-74.50680000 78.30370000 5.89000000
-74.13040000 77.88740000 7.35460000
-74.00450000 78.43670000 6.90360000
-73.88860000 77.50240000 7.89400000
-73.87650000 76.51060000 7.78080000
-73.67460000 77.87910000 7.93190000
-73.66230000 76.80800000 9.34680000
-73.24740000 78.10150000 7.73780000
-73.97700000 78.68140000 6.09130000
-73.57230000 77.30750000 9.22890000
-73.07360000 76.50080000 10.36540000
-73.72750000 78.70200000 5.50360000
-73.01870000 78.11740000 7.18190000
-73.01210000 77.01750000 10.31490000
-73.03610000 77.51540000 9.71410000
-72.61520000 77.64530000 9.17150000
-49.08810000 -74.82130000 19.60870000
-49.09260000 -71.67830000 19.64660000
-47.31600000 -76.79200000 17.82150000
-48.12820000 -75.96410000 18.76770000
-47.37520000 -82.27690000 15.99590000
-47.73300000 -80.41100000 16.92600000
-47.83920000 -74.28600000 18.98550000
-48.14970000 -72.42510000 19.57960000
-47.01010000 -78.02110000 17.16170000
-47.09950000 -72.07460000 18.95330000
-46.77950000 -74.66530000 17.96120000
-46.35100000 -79.52780000 15.90720000
-47.11100000 -73.51670000 18.65390000
-46.03030000 -75.83570000 16.88740000
-45.55440000 -72.18910000 17.43200000
-44.94410000 -76.00320000 15.71530000
-44.97200000 -74.50860000 16.12250000
-49.00890000 -66.49230000 16.82900000
-49.22670000 -70.20030000 18.95790000
-48.92410000 -67.38450000 18.07630000
-48.81390000 -69.61770000 19.59190000
-48.34070000 -70.49830000 19.88150000
-48.66530000 -70.15490000 19.84410000
-48.26460000 -66.26620000 19.38670000
-48.08680000 -68.32470000 20.02630000
-49.56350000 -66.93200000 14.31260000
-48.69830000 -64.46130000 15.95530000
-46.89680000 -69.44760000 19.44180000
-47.38810000 -68.90100000 19.92240000
-47.83790000 -65.47070000 19.80240000
-47.17290000 -62.89560000 20.04970000
-47.32960000 -65.55350000 20.21370000
-47.70570000 -62.87240000 18.69440000
-46.98990000 -65.89240000 20.21330000
-47.20930000 -64.06700000 20.26820000
-46.24040000 -64.53360000 20.15430000
-46.92960000 -64.61070000 20.38920000
-46.11980000 -66.07840000 19.70910000
-46.00430000 -61.36010000 20.45800000
-45.41290000 -68.69360000 18.30170000
-42.57470000 -73.01560000 14.02980000
-43.43210000 -68.24300000 16.47580000
-43.35920000 -62.01280000 18.29240000
-42.86310000 -65.05570000 16.89700000
-40.69550000 -65.85090000 14.46430000
-47.55750000 -60.50040000 16.80000000
-46.25730000 -58.20020000 19.71080000
-45.80100000 -54.86540000 18.53680000
-46.40880000 -60.94100000 20.40630000
-45.80360000 -57.59820000 20.28100000
-47.31160000 -57.91650000 13.70930000
-46.46320000 -54.75940000 14.61010000
-44.44070000 -59.79510000 19.87060000
-46.17190000 -54.42200000 16.18400000
-45.45290000 -57.96430000 20.61090000
-44.88450000 -53.34130000 20.20380000
-44.89930000 -58.08770000 20.57760000
-44.98690000 -52.79950000 19.70010000
-44.32460000 -57.09390000 20.48640000
-44.85930000 -55.70990000 20.70310000
-45.13800000 -55.44960000 20.49890000
-44.07070000 -57.73040000 20.17950000
-44.10260000 -51.94000000 20.69750000
-44.23160000 -54.06900000 20.78030000
-42.75040000 -56.91850000 19.16140000
-43.53820000 -52.75330000 20.67930000
-40.73560000 -61.57440000 15.94300000
-42.44770000 -59.09860000 18.30540000
-42.65260000 -53.00260000 20.12270000
-43.09810000 -53.19270000 20.43590000
-41.30840000 -59.96120000 16.91660000
-44.92790000 -51.00220000 18.34430000
-45.24530000 -48.68680000 13.61710000
-44.20330000 -49.87290000 19.87950000
-43.69040000 -43.77630000 16.72530000
-44.19380000 -48.14890000 18.72470000
-44.00610000 -50.17970000 20.43680000
-44.35450000 -44.15690000 12.84340000
-44.21330000 -44.00490000 14.07700000
-43.56420000 -47.88200000 20.28960000
-43.21750000 -48.16610000 20.79130000
-42.56300000 -48.98980000 20.71800000
-43.66600000 -46.82340000 19.43350000
-62.02810000 66.67150000 9.04910000
-62.81920000 67.29410000 7.88410000
-61.04440000 65.83640000 7.33750000
-61.21010000 66.00170000 9.14430000
-62.72600000 67.23940000 5.69050000
-60.13880000 65.14140000 9.74680000
-60.48490000 67.64290000 11.62710000
-58.75620000 64.03960000 11.05910000
-58.79750000 64.19300000 12.82790000
-55.86100000 63.30070000 11.42510000
-62.78530000 69.55830000 9.52970000
-57.16300000 64.39880000 9.77140000
-58.30270000 63.48850000 7.91510000
-57.62880000 63.01120000 10.50230000
-57.75310000 63.24490000 12.55590000
-60.58720000 67.45440000 8.06050000
-59.61530000 64.67270000 5.56910000
-62.67420000 69.30220000 5.48690000
-58.07700000 63.33040000 5.25250000
-57.00370000 62.32070000 9.14860000
-57.45090000 64.60630000 6.89150000
-56.39650000 61.75800000 5.28350000
-56.14130000 61.39010000 7.73460000
-56.45570000 61.92690000 10.78500000
-55.54800000 60.77610000 8.64480000
-55.55280000 62.82040000 8.48660000
-55.26570000 60.85540000 12.05510000
-55.99530000 63.26100000 5.66080000
-55.32150000 60.86380000 10.60540000
-66.14360000 72.42200000 4.51090000
-64.17210000 70.74910000 7.45060000
-64.23180000 70.87100000 5.57580000
-40.38690000 -64.14570000 14.77070000
-41.17470000 -57.90540000 17.32650000
-40.07140000 -56.57260000 16.71170000
-39.57250000 -59.72910000 15.18650000
-41.93590000 -52.69440000 19.52640000
-39.15490000 -60.84320000 14.46720000
-38.83930000 -52.66690000 16.52120000
-39.46830000 -58.15430000 15.63670000
-37.73890000 -58.79110000 13.65350000
-37.60420000 -55.25200000 14.49510000
-42.80430000 -48.00230000 20.86960000
-42.86940000 -42.39820000 18.82290000
-42.18520000 -41.39950000 20.04170000
-42.60630000 -44.64910000 20.49950000
-42.20440000 -44.54420000 20.76590000
-41.67910000 -45.96610000 20.54520000
-41.73120000 -45.00240000 20.67610000
-40.86480000 -46.26190000 19.79960000
-39.48620000 -51.63030000 17.27770000
-41.11350000 -43.61500000 20.46550000
-39.57150000 -44.81990000 18.80740000
-38.04670000 -46.29380000 16.99680000
-36.88990000 -52.71840000 14.36030000
-37.08080000 -51.64410000 14.74790000
-35.60060000 -53.39570000 12.72190000
-36.04590000 -46.62270000 14.95280000
-35.01110000 -49.52060000 13.23440000
-35.93070000 -51.26420000 13.83060000
-35.97770000 -52.35820000 13.63540000
-34.75400000 -48.40700000 13.32990000
-34.91900000 -45.96430000 14.09730000
-35.56850000 -45.21190000 14.83120000
-43.21260000 -41.94390000 17.16580000
-43.76350000 -41.98920000 14.77250000
-43.82330000 -41.16770000 13.18520000
-42.00300000 -39.60180000 19.58560000
-43.54260000 -40.45990000 14.71140000
-43.53940000 -40.82980000 15.61880000
-43.54110000 -40.04100000 13.71990000
-43.06570000 -40.63100000 16.87170000
-43.42600000 -38.71270000 12.84730000
-43.09130000 -39.86530000 16.06440000
-43.50480000 -38.91670000 12.07280000
-42.78840000 -37.92910000 15.03960000
-42.67960000 -39.60090000 17.32290000
-41.62590000 -41.14580000 20.61910000
-43.16550000 -37.83690000 12.32340000
-42.04770000 -38.56000000 18.80040000
-41.49550000 -42.06830000 20.70730000
-43.05680000 -37.22410000 12.15150000
-41.25640000 -33.10080000 17.56070000
-41.17680000 -39.69990000 20.67560000
-41.49340000 -38.88110000 20.26600000
-40.96020000 -38.13950000 20.62180000
-40.89940000 -34.86930000 19.82530000
-40.35880000 -39.47890000 20.47400000
-40.80420000 -33.30700000 19.31850000
-40.49580000 -35.50310000 20.55640000
-39.83910000 -36.94580000 20.51970000
-39.81500000 -34.64930000 20.70900000
-38.85470000 -41.73840000 18.74090000
-40.14410000 -34.79820000 20.69570000
-39.37550000 -35.10560000 20.47880000
-36.10720000 -39.24880000 16.66750000
-42.59910000 -36.28340000 13.69380000
-41.68730000 -33.31250000 15.58690000
-41.59810000 -31.95050000 14.27350000
-41.79860000 -32.41020000 13.11600000
-41.70380000 -31.52210000 11.51570000
-40.55330000 -34.20910000 20.18160000
-40.91430000 -28.42350000 14.56250000
-40.74960000 -28.95640000 16.10070000
-41.30400000 -29.30880000 11.70150000
-39.92800000 -33.22930000 20.67280000
-40.92350000 -27.67480000 13.42300000
-40.00160000 -27.10520000 17.84020000
-39.96160000 -30.94240000 20.07860000
-39.33220000 -32.79180000 20.73010000
-39.38330000 -29.91400000 20.49290000
-39.78450000 -27.10790000 18.60140000
-39.29190000 -26.69090000 19.63750000
-39.47970000 -22.14010000 16.39900000
-38.98190000 -30.04240000 20.70190000
-38.79280000 -25.44430000 20.07900000
-37.97050000 -27.38840000 20.58620000
-38.54750000 -26.60470000 20.56680000
-38.22950000 -29.68510000 20.46570000
-33.47320000 -32.09410000 15.70030000
-37.61110000 -26.80160000 20.38380000
-36.84990000 -23.54730000 20.26460000
-35.88990000 -25.77080000 19.05990000
-40.58230000 -24.57750000 11.99790000
-40.70350000 -25.38180000 11.42180000
-40.04620000 -23.64120000 14.89310000
-38.62020000 -21.27050000 18.74920000
-39.24760000 -17.52900000 14.01390000
-40.21800000 -22.32810000 11.75720000
-38.86490000 -20.04010000 17.35860000
-40.18490000 -22.27410000 10.91070000
-39.74030000 -19.54530000 12.09200000
-39.25320000 -19.51980000 15.55560000
-39.82240000 -20.30000000 10.61830000
-38.27790000 -22.56940000 20.01640000
-39.38480000 -17.73920000 13.20150000
-39.30700000 -15.87530000 11.54730000
-38.55230000 -17.40340000 17.04100000
-38.23190000 -16.89020000 17.77840000
-37.91070000 -18.23190000 19.09270000
-38.91110000 -16.62240000 15.23030000
-39.00540000 -14.25070000 13.12490000
-38.86350000 -14.50800000 14.23920000
-39.13950000 -13.91030000 11.44390000
-38.40790000 -13.27710000 15.86350000
-37.95900000 -14.77860000 17.73970000
-46.89960000 50.09830000 9.11160000
-48.26640000 52.23130000 9.16390000
-48.26490000 52.16530000 7.62270000
-47.97120000 51.98070000 10.90260000
-46.54820000 49.84630000 11.55880000
-47.05330000 50.28670000 7.65100000
-48.01670000 51.87870000 5.43930000
-46.39300000 49.29040000 6.18140000
-45.60900000 47.85930000 6.92840000
-46.36540000 52.20050000 12.95230000
-45.42780000 47.49420000 9.26180000
-45.55880000 50.50660000 9.52300000
-46.34780000 51.82720000 8.89050000
-45.79810000 51.05820000 11.23290000
-45.03260000 47.02400000 11.38210000
-44.98680000 46.57540000 8.42630000
-45.87700000 51.06310000 6.33450000
-54.07100000 59.25150000 8.33240000
-53.13480000 58.49120000 11.24110000
-54.01770000 59.39210000 5.16780000
-54.00590000 59.70340000 13.49610000
-52.23390000 57.25740000 7.98520000
-52.40490000 57.57230000 9.80280000
-50.95570000 56.11450000 12.16830000
-51.32880000 56.35990000 10.49870000
-52.15090000 57.30670000 5.51610000
-53.22640000 60.71380000 11.96480000
-51.69150000 56.55320000 8.76590000
-51.82700000 59.01590000 6.55150000
-52.95860000 60.24150000 5.19330000
-52.91180000 60.16520000 9.06270000
-51.26950000 58.41150000 9.25010000
-50.79480000 58.06950000 11.98300000
-50.73540000 55.50860000 8.07290000
-50.37200000 55.11880000 9.39770000
-50.91250000 55.81250000 5.76810000
-51.81570000 59.11120000 4.13020000
-50.09560000 57.02860000 6.16910000
-49.33340000 54.02940000 11.69670000
-49.85790000 56.73980000 7.96990000
-49.37100000 56.34730000 10.12620000
-49.60460000 54.13050000 9.05480000
-49.13180000 56.01700000 12.06240000
-49.05540000 56.02120000 13.34060000
-49.07390000 53.35150000 5.85610000
-48.76860000 55.50000000 4.55090000
-48.80780000 55.51230000 9.50060000
-47.71770000 53.99070000 11.06070000
-47.64280000 53.83940000 6.44000000
-46.16670000 51.75180000 4.31980000
-33.80290000 -45.82990000 12.92130000
-33.62930000 -38.68930000 14.37160000
-32.88260000 -44.08790000 12.38870000
-32.08390000 -39.60540000 12.59610000
-31.91160000 -33.01050000 14.04900000
-31.04830000 -34.27930000 12.91250000
-34.34740000 -29.16450000 17.06470000
-33.15710000 -26.55690000 16.50770000
-29.71010000 -28.59150000 12.90010000
-29.21950000 -30.33290000 12.01060000
-29.88210000 -33.03900000 12.01690000
-31.16760000 -26.47670000 14.64570000
-30.05070000 -27.59070000 13.47880000
-28.28170000 -31.02220000 10.96970000
-28.00170000 -30.33680000 11.10840000
-28.72650000 -28.79780000 12.23410000
-28.91830000 -27.84720000 13.17220000
-28.15800000 -28.66090000 12.35540000
-30.03810000 -26.13200000 14.68090000
-27.65560000 -28.55670000 13.09550000
-29.13820000 -26.78850000 14.56190000
-28.18190000 -29.56030000 11.65980000
-28.95640000 -24.98640000 18.50170000
-29.90180000 -25.45400000 15.92790000
-27.58970000 -27.19990000 16.71080000
-34.54950000 -20.57750000 18.86820000
-34.10430000 -20.13310000 18.81790000
-33.96380000 -21.00300000 18.37700000
-32.84240000 -23.82630000 16.67370000
-33.47810000 -20.04320000 18.98800000
-34.87180000 -18.89310000 12.02200000
-34.97910000 -17.92950000 13.68840000
-33.80380000 -19.32090000 14.95880000
-34.45140000 -17.37960000 16.01080000
-33.57450000 -18.56970000 16.89430000
-33.78230000 -20.37700000 12.68600000
-32.95170000 -21.75470000 17.77360000
-34.33400000 -20.08620000 11.15950000
-32.89520000 -20.93680000 14.28580000
-33.46840000 -21.36200000 10.82080000
-32.61620000 -21.96980000 12.40020000
-33.32280000 -17.66410000 18.42430000
-32.47260000 -20.63070000 16.07720000
-32.69480000 -19.41480000 17.60430000
-32.26030000 -24.23340000 16.14570000
-31.87690000 -23.94930000 16.24260000
-32.04680000 -22.65970000 17.35870000
-31.92610000 -19.72710000 18.91420000
-31.88270000 -22.38760000 17.91000000
-30.78260000 -24.69460000 15.92320000
-31.41710000 -22.42590000 14.93840000
-31.32190000 -24.69680000 15.63920000
-30.80540000 -24.04680000 16.92170000
-31.08580000 -23.72060000 12.26180000
-29.87990000 -23.32040000 16.64290000
-29.56140000 -24.64080000 14.47760000
-29.21520000 -25.64830000 12.42280000
-28.85710000 -23.69730000 17.92700000
-30.57030000 -24.76210000 10.15560000
-28.73090000 -26.58790000 10.34740000
-27.94280000 -25.59940000 15.84580000
-28.04550000 -26.34750000 13.91080000
-27.46520000 -24.97140000 17.87690000
-38.72850000 -11.62030000 13.83980000
-38.86410000 -9.47950000 12.47940000
-38.39950000 -11.29940000 15.43340000
-38.37330000 -8.20360000 15.34150000
-38.61820000 -7.59210000 14.18210000
-37.80550000 -12.05020000 17.52000000
-37.78930000 -9.57100000 17.42090000
-37.32470000 -12.65660000 18.76920000
-37.33850000 -12.06340000 10.40170000
-37.87630000 -8.11580000 10.26340000
-37.21750000 -10.10910000 12.85010000
-36.72780000 -15.17950000 10.43460000
-36.92690000 -13.47100000 11.87340000
-36.54370000 -15.04340000 12.24800000
-36.66500000 -13.30710000 13.44410000
-36.71590000 -10.96920000 14.66470000
-36.81070000 -8.11050000 15.32010000
-35.92430000 -16.83100000 11.87440000
-36.11220000 -15.22520000 13.81970000
-36.26150000 -12.97030000 15.04680000
-36.23770000 -10.45090000 16.30240000
-35.77420000 -14.29170000 15.58900000
-35.35270000 -15.67050000 15.62580000
-35.47240000 -16.70390000 14.05400000
-35.46740000 -12.53090000 17.27190000
-35.75570000 -10.13070000 17.70380000
-35.27620000 -14.50920000 16.72550000
-38.92140000 -6.66650000 12.19440000
-39.09150000 -9.34760000 9.65340000
-39.11460000 -6.02660000 10.30000000
-39.17130000 -2.18890000 12.16690000
-39.57110000 1.55500000 8.95610000
-39.41820000 0.37640000 10.79160000
-38.49270000 -5.01010000 15.47730000
-38.81070000 -2.28260000 14.73820000
-38.41840000 -3.74610000 16.37260000
-39.23850000 1.69360000 13.22450000
-38.71740000 0.48890000 15.87880000
-38.56940000 -2.04300000 15.92760000
-38.11540000 -0.97820000 17.82150000
-38.11430000 -3.54450000 11.23980000
-38.02610000 -7.69120000 9.00430000
-37.74470000 -7.08720000 11.84050000
-38.34450000 -2.72700000 9.67140000
-37.47180000 -6.37240000 13.45130000
-37.81640000 -1.61660000 13.44030000
-38.16600000 1.38770000 12.50410000
-37.38530000 -3.06980000 14.81350000
-37.17030000 -5.01650000 15.04710000
-37.27410000 -1.06470000 15.53820000
-39.37540000 2.28450000 12.24400000
-39.61730000 5.14630000 10.04520000
-39.58730000 2.96100000 8.61490000
-39.64820000 8.17770000 11.48710000
-39.58400000 10.38340000 13.02600000
-39.05580000 3.65720000 14.76710000
-38.84510000 5.82540000 16.12210000
-39.27450000 10.62380000 15.08640000
-39.69420000 6.02190000 8.75190000
-39.99040000 11.88800000 7.91830000
-39.75590000 10.41360000 11.50960000
-38.55400000 0.92220000 9.00210000
-38.46340000 3.06590000 10.78600000
-38.66510000 3.46420000 8.71230000
-37.73410000 2.86630000 14.47460000
-38.21220000 4.17680000 12.65760000
-38.55900000 5.25520000 9.72420000
-38.40590000 5.91860000 11.52670000
-38.06540000 6.48390000 13.42180000
-38.62490000 8.00110000 10.15000000
-38.43930000 9.10950000 11.79890000
-37.44080000 4.28620000 15.75650000
-37.58870000 6.73880000 15.36080000
-37.21600000 5.24020000 16.49770000
-37.11340000 7.39010000 16.92400000
-40.10290000 16.02670000 9.82750000
-39.05890000 11.44850000 16.26280000
-39.36110000 12.02170000 15.05350000
-40.07930000 14.11790000 7.61830000
-40.22060000 16.32590000 8.41430000
-40.14960000 16.84830000 10.65610000
-39.91510000 17.09980000 13.09470000
-39.74410000 15.70140000 13.15440000
-39.41120000 15.67290000 15.23650000
-39.66310000 17.91890000 15.12840000
-38.72070000 8.85370000 8.90400000
-38.72010000 9.62270000 7.73200000
-38.72460000 11.77190000 9.03100000
-38.57700000 13.68420000 11.44650000
-37.88270000 10.54000000 14.46770000
-38.16110000 13.57580000 13.74140000
-38.75240000 17.00170000 10.33920000
-38.73620000 14.06000000 8.67360000
-38.33830000 16.17310000 13.50060000
-38.77010000 17.57630000 8.27630000
-38.55810000 19.38680000 13.01170000
-37.72640000 13.66710000 15.48390000
-37.16650000 10.19160000 16.93020000
-38.04930000 16.04730000 14.81200000
-38.15120000 18.15410000 14.86840000
-37.78980000 15.23190000 15.57820000
-37.82120000 16.23980000 15.72260000
-37.90270000 17.02150000 15.61880000
-37.79670000 17.95710000 16.16560000
-37.69300000 16.08400000 16.13280000
-37.93940000 19.79090000 15.99510000
-40.66660000 18.53480000 8.45570000
-40.59710000 17.70760000 8.47340000
-40.47740000 17.69390000 9.86850000
-40.37720000 18.50300000 11.33340000
-40.42840000 17.16010000 7.80380000
-40.34270000 19.63750000 10.66240000
-40.66260000 19.12070000 6.83730000
-40.10700000 17.93470000 12.89450000
-40.60790000 20.50350000 7.36530000
-40.48330000 20.75480000 10.05590000
-40.73110000 23.55210000 8.32230000
-41.04250000 25.48120000 8.91680000
-40.98920000 24.93290000 8.92770000
-40.95620000 25.75730000 9.90230000
-40.69270000 24.08470000 9.73290000
-40.24040000 23.53370000 12.67800000
-40.58870000 23.26370000 9.77420000
-39.82680000 19.61390000 14.20440000
-40.64650000 25.43660000 12.23010000
-40.28920000 22.43280000 11.36820000
-40.03250000 22.13380000 13.32560000
-39.35920000 20.44560000 16.53320000
-40.17150000 26.81580000 14.45620000
-38.84860000 20.92650000 11.16710000
-38.87550000 20.28910000 9.39170000
-39.05810000 23.62150000 9.97510000
-38.87000000 24.11530000 12.64840000
-38.95020000 22.17140000 7.92550000
-38.27230000 20.14400000 14.79460000
-39.23600000 26.79540000 11.28060000
-39.11230000 27.36450000 12.74720000
-38.33310000 22.31560000 14.95830000
-38.59360000 24.70220000 14.47890000
-38.80350000 26.53220000 14.14470000
-39.16320000 25.14710000 7.00830000
-38.91740000 23.06110000 5.23000000
-40.89190000 26.78130000 9.45790000
-40.70660000 27.28700000 10.95380000
-40.99060000 27.72460000 6.60280000
-40.97570000 27.99720000 7.94940000
-41.49040000 32.41740000 8.02700000
-41.49470000 32.69390000 5.92450000
-41.48040000 31.85880000 7.14630000
-41.37120000 32.15660000 9.42600000
-41.18790000 30.48450000 7.43340000
-41.06720000 30.19950000 8.77010000
-40.86720000 28.87240000 9.80410000
-41.39450000 33.54140000 7.83760000
-41.14510000 33.59110000 10.67270000
-40.93520000 33.59130000 12.35100000
-40.63040000 28.96110000 11.73550000
-40.55610000 30.54100000 13.13020000
-40.93320000 31.83520000 12.16630000
-41.40630000 34.64010000 6.22600000
-41.41330000 34.37320000 7.86220000
-40.23620000 29.64560000 14.54490000
-41.28340000 34.39070000 9.70170000
-41.20590000 36.05780000 12.34890000
-40.96650000 36.39700000 14.17290000
-39.42080000 30.11030000 12.03410000
-39.43860000 28.21820000 9.24180000
-39.90090000 33.32070000 10.65310000
-40.08660000 35.49660000 12.30840000
-39.66050000 33.31890000 12.91330000
-40.35400000 36.05120000 9.04670000
-40.01870000 33.86720000 8.07700000
-39.74560000 31.40830000 8.34810000
-39.47140000 28.98150000 5.94510000
-39.03350000 29.06070000 13.98210000
-39.77940000 31.95690000 6.43010000
-43.02920000 41.75290000 6.08530000
-43.10950000 41.77260000 7.69250000
-44.01900000 44.26010000 7.55810000
-44.07020000 44.45750000 8.54110000
-42.97100000 41.52040000 9.12370000
-43.29790000 42.90880000 10.93830000
-42.70040000 41.10770000 10.84790000
-42.15690000 38.78910000 8.98390000
-42.24100000 39.04690000 6.34160000
-42.53170000 41.48910000 12.99360000
-42.15250000 39.27900000 10.80270000
-41.80010000 39.35230000 13.55330000
-41.43910000 37.10770000 12.30100000
-41.71330000 36.87650000 8.96340000
-41.90770000 37.94430000 5.81010000
-42.47430000 44.13540000 12.25630000
-42.30050000 43.28780000 10.68480000
-42.96020000 45.05840000 10.68600000
-41.68870000 42.32340000 13.40360000
-42.60300000 44.03000000 7.62750000
-42.14790000 42.71760000 9.26030000
-41.53780000 40.96690000 7.35230000
-41.78400000 41.83070000 10.87920000
-41.05660000 39.95100000 12.49640000
-42.30320000 43.51070000 5.51730000
-41.14170000 39.55040000 9.93790000
-40.93160000 38.87650000 8.30450000
-40.47020000 37.57560000 12.46690000
-40.88340000 38.86820000 7.15140000
-41.57570000 41.43160000 5.31900000
-41.08120000 39.69670000 5.94030000
-40.49420000 36.90080000 10.73140000
-40.71380000 37.85840000 9.18750000
-40.59320000 37.53000000 7.82510000
-40.57190000 37.53910000 6.05700000
-40.29340000 35.88040000 7.26950000
-45.03890000 46.81700000 6.22430000
-45.07020000 49.57680000 6.77560000
-44.48980000 48.56350000 10.77320000
-44.49650000 48.43330000 9.03270000
-44.35190000 45.28800000 6.26250000
-43.78020000 44.03980000 10.52560000
-44.43640000 48.41690000 5.65050000
-43.86620000 47.08530000 8.49660000
-43.76080000 47.14790000 11.59530000
-43.18530000 46.20320000 13.19900000
-43.23080000 45.75920000 6.02920000
-27.42100000 -29.57970000 11.66370000
-26.84470000 -27.10460000 17.92570000
-27.36870000 -27.39570000 12.43190000
-26.72710000 -28.54100000 15.30340000
-26.86560000 -29.80670000 11.63520000
-26.52710000 -27.66320000 13.81090000
-26.71760000 -29.60320000 12.27280000
-25.31490000 -28.78060000 16.89520000
-26.20620000 -28.34540000 12.54560000
-26.79660000 -28.23120000 10.78190000
-26.26960000 -30.39360000 10.86010000
-25.78910000 -27.29310000 15.90820000
-24.99870000 -30.94240000 12.10580000
-25.53920000 -29.75470000 14.37140000
-23.82390000 -27.95150000 17.35590000
-24.78260000 -29.64420000 11.34070000
-24.61300000 -29.09840000 13.73580000
-23.82060000 -30.20030000 15.95580000
-24.16430000 -28.65780000 15.53750000
-23.38650000 -30.08350000 13.10330000
-23.73950000 -31.06890000 13.92740000
-22.88410000 -28.12690000 18.12850000
-23.14250000 -30.85530000 15.36760000
-23.08990000 -29.81530000 14.38380000
-23.62890000 -31.91910000 11.42040000
-22.74560000 -31.94500000 12.87520000
-22.62750000 -30.83810000 11.76000000
-21.69480000 -32.75880000 11.76030000
-22.29830000 -31.60830000 14.54250000
-21.63250000 -29.79030000 16.14730000
-21.67270000 -30.81500000 13.67890000
-21.91050000 -30.39130000 17.76150000
-20.84260000 -32.82360000 12.81950000
-21.11420000 -31.56010000 16.05040000
-20.92470000 -31.59080000 12.20500000
-19.94560000 -30.70880000 15.78180000
-22.26460000 -32.95430000 9.83700000
-20.29680000 -33.39020000 11.54830000
-20.13330000 -31.77540000 16.46130000
-19.81650000 -32.65330000 14.56330000
-19.98500000 -31.73970000 13.05100000
-19.79860000 -32.03640000 12.18070000
-20.02240000 -31.35590000 14.16330000
-18.75820000 -32.11500000 16.76910000
-19.30570000 -33.62960000 11.99370000
-17.60200000 -32.78700000 15.99630000
-19.11980000 -31.11860000 15.43820000
-19.20710000 -29.77540000 18.13690000
-18.16880000 -34.29060000 10.48850000
-17.71480000 -31.19060000 19.26810000
-16.65520000 -34.11890000 12.79230000
-16.90430000 -34.38670000 11.50330000
-14.64620000 -34.60750000 12.18860000
-15.42620000 -33.69870000 14.88070000
-16.01670000 -34.81260000 10.07120000
-13.71690000 -33.94810000 14.85820000
-12.89710000 -34.83940000 12.14370000
-12.06570000 -33.82590000 15.55890000
-13.63000000 -33.41220000 16.27990000
-11.79190000 -34.21340000 14.52220000
-13.83990000 -35.16060000 10.18630000
-11.70660000 -35.23970000 10.76000000
-10.78660000 -35.07740000 11.68850000
-11.55670000 -33.41230000 16.52190000
-10.68250000 -34.06030000 14.93380000
-11.50740000 -33.60630000 12.12500000
-11.07850000 -33.92400000 10.54930000
-11.77830000 -33.87260000 10.96180000
-9.79230000 -33.62660000 15.88150000
-8.80780000 -34.61130000 13.00700000
-17.96630000 -30.83690000 16.74060000
-17.75980000 -33.99070000 12.38060000
-18.27280000 -33.45560000 13.70350000
-17.51870000 -31.99830000 14.03850000
-17.57650000 -32.44910000 12.68060000
-17.57210000 -30.49950000 17.58570000
-17.68610000 -32.90090000 11.02190000
-14.94990000 -33.21210000 16.35610000
-16.27710000 -33.22320000 10.98930000
-16.01680000 -31.11890000 16.87340000
-15.59600000 -32.59180000 13.39090000
-14.67080000 -32.54420000 17.91130000
-14.34350000 -31.46120000 16.87080000
-14.55190000 -33.20810000 11.98290000
-16.02390000 -33.23510000 10.41350000
-14.87740000 -33.26020000 11.17120000
-14.22610000 -30.81270000 18.21870000
-14.03850000 -33.36470000 11.13470000
-13.64060000 -32.81910000 13.56320000
-11.72220000 -31.67520000 17.04510000
-13.17210000 -33.55050000 11.63760000
-11.83690000 -33.27850000 13.16110000
-12.06320000 -32.28740000 15.54590000
-13.19030000 -33.64210000 11.08880000
-12.80500000 -32.56570000 14.38570000
-10.64120000 -32.19110000 15.60960000
-10.78780000 -33.18940000 13.66190000
-10.13990000 -32.47250000 18.32710000
-10.04470000 -31.97210000 16.60290000
-11.35300000 -32.42640000 15.17490000
-10.82930000 -32.70810000 14.45770000
-10.23490000 -33.40590000 11.27600000
-8.52790000 -32.75710000 17.43670000
-10.41080000 -33.18680000 13.19310000
-9.74630000 -32.98770000 12.48520000
-10.01050000 -33.00550000 13.82100000
-9.66740000 -33.03290000 13.61960000
-9.89910000 -32.16550000 14.68920000
-8.43330000 -33.45870000 15.93270000
-8.86270000 -35.06570000 11.21360000
-7.97200000 -34.71720000 12.13380000
-7.62540000 -34.89000000 10.61870000
-8.07710000 -33.64040000 11.19430000
-8.50130000 -33.33680000 12.77000000
-7.82500000 -33.36690000 12.36080000
-8.28350000 -32.94340000 13.93170000
-5.34910000 -34.05000000 11.95280000
-6.81420000 -33.42780000 15.26870000
-8.00640000 -33.91560000 9.82290000
-6.66460000 -33.99200000 13.55610000
-6.54760000 -32.95430000 12.62350000
-6.68190000 -32.98500000 16.20650000
-6.15640000 -32.94820000 12.14020000
-6.14180000 -33.37780000 9.92000000
-5.06740000 -34.26370000 10.22770000
-4.35660000 -32.90630000 14.58920000
-4.44140000 -32.16090000 16.56620000
-2.21390000 -32.46360000 13.40540000
-3.81040000 -33.61030000 11.62430000
-2.09470000 -33.26380000 9.83810000
-0.90080000 -32.54660000 10.84200000
-0.91130000 -32.02580000 12.87760000
-9.53730000 -33.88340000 10.05560000
