-0.51890000 23.48390000 -20.37600000
-24.04760000 131.26440000 30.33510000
-22.48430000 132.12420000 30.07060000
12.38780000 51.08110000 -20.29880000
14.68230000 49.76240000 -19.88940000
11.59020000 49.55780000 -20.79460000
15.06610000 51.68080000 -20.11140000
15.85760000 50.48180000 -19.92190000
19.31610000 127.32700000 -2.11270000
15.39870000 -21.67560000 -20.64860000
14.25780000 -22.58640000 -19.90500000
15.71220000 -23.20750000 -20.68950000
12.83250000 -36.38780000 -16.31410000
12.88590000 -39.35020000 -16.58720000
13.47190000 -41.32630000 -16.89120000
12.71780000 -41.18620000 -17.48400000
12.90430000 -41.98510000 -18.32120000
-14.07750000 96.87510000 20.23170000
-13.64970000 95.62850000 19.33970000
-12.52870000 95.74730000 18.70120000
-11.59920000 95.44960000 18.12890000
-12.59230000 94.63300000 18.00300000
-20.25400000 122.11330000 -5.63100000
-19.13020000 119.01630000 -6.50620000
-19.43310000 119.80350000 -5.27160000
-17.75060000 114.08060000 -4.10110000
-13.37540000 -1.55450000 -11.69350000
-13.16360000 -1.54700000 -13.04880000
-13.46100000 -2.78520000 -11.23150000
-13.69360000 -3.09330000 -11.74800000
-13.39400000 -2.27390000 -12.13280000
13.34860000 -3.89570000 10.22910000
13.56050000 -7.45670000 7.93080000
13.25050000 -1.41980000 8.65810000
13.49200000 -7.46890000 9.63640000
14.09630000 -36.19870000 13.19320000
10.52120000 -20.47740000 11.79190000
8.52580000 -5.84550000 9.13610000
10.92280000 -20.62940000 11.47540000
-25.04300000 130.46660000 27.34710000
-24.57090000 130.16950000 25.96410000
-6.51870000 14.33730000 0.85920000
-6.23760000 14.83190000 -6.65260000
-6.34480000 14.68920000 5.55680000
-5.82360000 15.01480000 -7.14250000
-3.56970000 14.36890000 -7.57270000
5.12110000 14.45310000 -7.61120000
27.80640000 129.65840000 -31.01900000
26.07270000 128.21180000 -28.43850000
18.00930000 34.63040000 11.41210000
18.13920000 37.98390000 14.03570000
18.08700000 35.00070000 13.31910000
18.14620000 33.20560000 11.75300000
-13.08850000 6.51040000 15.00890000
-13.40610000 4.84210000 15.22950000
-12.72040000 5.82040000 14.49670000
-33.91120000 139.93170000 46.53040000
-34.85180000 139.04470000 42.42780000
-32.28800000 139.35520000 43.40230000
-36.50500000 138.80430000 41.90550000
-34.64440000 137.92340000 39.92780000
-18.31410000 91.91820000 -18.65830000
-15.02810000 96.96290000 -18.48490000
-15.97020000 97.94590000 -18.45040000
-14.86800000 98.12450000 -19.02520000
-13.76660000 96.63370000 -18.01270000
-14.19400000 97.50520000 -18.80060000
-18.33660000 129.11940000 -11.34710000
-18.40110000 128.76210000 -6.88370000
-17.01450000 126.57420000 -9.60160000
-14.59450000 118.51540000 -5.10200000
-12.78210000 112.89830000 -8.52800000
-14.37530000 119.02990000 -9.38550000
13.87040000 6.51840000 -3.84490000
13.82040000 2.75570000 -3.68460000
13.05530000 12.68970000 -7.89770000
12.48490000 122.95960000 -22.95280000
12.80670000 124.95070000 -23.72240000
16.43130000 117.34700000 19.99180000
17.45500000 117.37630000 20.68670000
11.75010000 67.60170000 -6.60990000
11.75420000 67.92000000 -13.82060000
-2.78210000 139.93480000 45.82730000
-0.82440000 140.18700000 48.08490000
-11.73660000 140.21880000 47.77900000
-8.75950000 140.22280000 47.39660000
-11.21950000 140.50130000 48.48620000
-16.43440000 -4.01590000 -14.23530000
-17.04290000 -0.77970000 -14.97200000
-18.55620000 45.34820000 24.01340000
-18.73860000 46.03680000 24.38170000
-18.70610000 42.95670000 24.30550000
-18.23180000 46.10250000 23.56010000
-17.40970000 46.62500000 23.09630000
-19.93020000 52.25450000 -3.35090000
-19.91340000 48.73620000 -3.14430000
-19.50160000 52.37450000 -7.12130000
-2.03280000 -18.52640000 17.61800000
-3.42810000 -21.33570000 17.48410000
25.80670000 131.69190000 -26.81360000
26.64730000 131.01430000 -28.01200000
26.88390000 132.31690000 -27.67340000
24.88020000 131.04480000 -29.93890000
25.20040000 130.87930000 -29.07770000
24.80720000 131.25900000 -28.91130000
10.73570000 83.13090000 -17.57950000
13.29090000 85.35820000 -17.31830000
-47.39250000 142.71780000 -22.61590000
-45.15500000 142.12030000 -18.91940000
-47.92830000 142.95840000 -18.61510000
-48.67660000 143.37010000 -7.36210000
-48.52850000 143.25620000 -12.67200000
-48.17900000 142.77940000 -4.29290000
1.80540000 1.49730000 -15.31090000
-42.51430000 141.38410000 7.62200000
-42.46500000 141.37880000 3.07780000
-40.77350000 140.95160000 5.27050000
-37.66160000 139.57980000 4.22250000
21.72820000 -35.57880000 22.19180000
12.76910000 -35.67710000 23.62430000
9.89950000 -35.60610000 23.58180000
-14.66860000 3.40010000 -13.57550000
-14.16990000 3.50240000 -14.24050000
-14.22150000 3.60850000 -15.53930000
-14.38150000 4.01290000 -14.86090000
-13.69890000 3.25730000 -14.80840000
17.59000000 48.45190000 -9.01270000
17.57460000 46.68100000 -9.07190000
17.45350000 50.25570000 -7.85490000
17.98250000 50.20050000 -4.85930000
8.94530000 50.11610000 -20.41880000
10.58090000 51.22560000 -20.46530000
10.11380000 48.99850000 -20.83970000
-16.33250000 -23.20630000 9.23180000
-15.41050000 -20.77390000 7.10880000
-16.80190000 -24.19170000 6.17880000
-14.93340000 -17.16050000 8.89360000
19.43540000 38.77660000 -20.28360000
20.07890000 40.17290000 -19.62920000
20.88630000 38.97000000 -20.12500000
20.76330000 41.28570000 -19.93930000
-19.56910000 121.44560000 14.94530000
-19.19660000 119.98060000 13.55650000
-18.45510000 118.50910000 14.58990000
-20.22980000 122.47030000 14.12550000
-20.34510000 123.26140000 13.17830000
-19.30250000 120.64770000 12.70610000
22.61850000 37.82460000 19.44200000
22.49470000 33.05580000 18.96820000
22.33670000 40.00870000 19.34360000
20.29570000 119.46420000 -22.65480000
20.42530000 118.93730000 -23.05290000
-14.27550000 77.90800000 14.53050000
-14.12870000 76.43930000 13.78020000
-14.34640000 75.59600000 14.33280000
-15.60480000 73.35340000 15.69480000
-14.31430000 76.17890000 14.95260000
-0.95110000 36.53040000 -23.07250000
1.31100000 36.45360000 -22.98350000
-4.99600000 45.79230000 20.53140000
-6.60020000 46.21100000 20.53800000
-1.90850000 41.41900000 20.79210000
-0.47460000 10.58640000 13.09120000
1.74710000 10.65430000 13.09410000
0.89940000 11.30350000 12.66680000
3.04100000 7.51780000 13.65140000
13.74170000 -9.68420000 -16.96130000
15.14370000 -9.69960000 -16.16370000
14.49280000 -10.39700000 -15.98620000
12.49900000 -10.12630000 -16.69520000
24.32380000 122.53940000 23.75940000
25.37350000 124.03600000 22.95040000
-4.12990000 -25.62720000 -20.69360000
-2.90290000 -22.87130000 -19.24920000
-2.39200000 -21.70560000 -18.97800000
-2.23820000 -18.27940000 -18.23260000
-1.95690000 -21.67340000 -19.49540000
39.08730000 137.30140000 -5.66850000
31.17820000 134.61170000 -9.88200000
-5.24350000 15.29880000 5.96000000
-6.82950000 13.50700000 6.01900000
-18.06250000 117.25840000 -15.10860000
-19.38720000 121.78450000 -18.54850000
-20.97590000 28.45640000 -22.36520000
-6.83440000 -25.11770000 -19.66390000
-8.77330000 -16.77080000 -16.88960000
-11.88940000 -16.84590000 -16.75510000
-12.90570000 8.34350000 14.59900000
-13.48520000 8.48120000 15.03850000
-1.32470000 52.43430000 21.31280000
-3.26680000 56.85450000 20.94110000
-4.10310000 54.65830000 20.96580000
16.30590000 72.68470000 17.40890000
7.82240000 19.16700000 14.15490000
4.57190000 18.97990000 14.67990000
13.15510000 18.19800000 10.82010000
12.59080000 18.73460000 12.40470000
-9.92250000 94.53080000 -1.08480000
-9.05230000 81.59760000 1.99660000
-8.93130000 81.90410000 -1.03320000
-8.62900000 71.70190000 6.51970000
13.84260000 89.57850000 -16.86800000
20.75120000 53.99970000 -22.81600000
20.01990000 55.31350000 -22.72500000
20.79460000 55.23390000 -22.12170000
19.64370000 56.73320000 -20.51250000
19.90480000 56.47180000 -21.67710000
-14.38020000 82.26110000 9.26790000
-14.69210000 87.79220000 8.94930000
-14.60420000 83.91120000 6.96750000
-15.21320000 90.76750000 4.13190000
-47.49160000 148.22980000 -28.39700000
-44.22900000 146.68640000 -32.95330000
-45.45340000 147.20360000 -30.99740000
7.87840000 69.14400000 -16.74120000
10.35480000 67.98990000 -16.11270000
11.28970000 67.38470000 -14.99860000
14.24400000 90.52490000 -0.65150000
14.20990000 90.32200000 1.25010000
14.56600000 91.03790000 0.24300000
16.76130000 91.27500000 1.16040000
14.47500000 91.00140000 1.57840000
-25.77020000 130.25470000 -29.33420000
-24.35740000 128.79630000 -28.32000000
-24.14480000 128.20620000 -28.25880000
19.20020000 25.47980000 -3.81950000
19.66540000 26.68850000 -3.75310000
18.24840000 28.56410000 -7.87330000
18.54110000 27.42290000 -5.71980000
18.27300000 27.10320000 -7.44830000
-14.43260000 79.89940000 -14.91580000
-13.10060000 79.87770000 -16.28980000
-14.42570000 77.62480000 -13.43920000
-21.84780000 56.06820000 1.95040000
-22.27780000 55.70620000 1.15960000
27.06760000 135.27070000 -26.29310000
28.74370000 137.82550000 -29.68660000
25.42620000 136.11300000 -26.75830000
21.42120000 133.09770000 -23.16940000
24.62310000 133.94000000 -24.51220000
23.27280000 135.21140000 -25.33770000
-18.54460000 113.63680000 -19.59010000
-19.49890000 112.37400000 -19.38290000
-18.66660000 113.40710000 -18.81990000
-19.27030000 113.48430000 -19.52890000
3.86160000 108.41970000 19.43440000
3.56510000 106.48500000 19.49150000
4.29870000 104.70010000 18.42090000
3.12780000 108.20760000 19.22940000
14.71550000 108.09440000 13.44610000
14.61370000 105.28570000 13.65580000
13.73270000 101.46200000 8.04950000
-15.48790000 85.15180000 -19.82630000
-14.52650000 82.38480000 -19.21450000
-9.73510000 110.02110000 -19.53730000
-7.36560000 110.16410000 -19.62630000
-9.26250000 107.49950000 -19.12730000
-3.92010000 107.67320000 -19.56870000
-19.73970000 111.60410000 3.18050000
-19.64090000 108.73720000 2.76680000
-0.20130000 -37.24170000 -21.97330000
-8.43980000 -37.31460000 -21.71560000
-17.57560000 -38.51500000 -21.11970000
-17.69360000 -40.32410000 -20.94970000
-15.61830000 -7.67260000 -15.75700000
-15.45250000 -9.07820000 -15.96700000
-15.10540000 -7.55270000 -16.25030000
13.99920000 97.10340000 17.12400000
14.55810000 96.43970000 17.23380000
13.75660000 95.73650000 16.33550000
14.92730000 95.69830000 16.58460000
21.15460000 31.36770000 -20.37130000
20.45280000 31.22240000 -20.16430000
19.91590000 33.43880000 -19.16910000
14.78770000 -37.25160000 -22.71930000
15.34090000 -37.74420000 -22.05680000
5.66610000 -37.32750000 -22.14800000
19.27610000 -37.05270000 -20.98270000
18.11450000 -37.77930000 -20.08100000
-17.86890000 108.68070000 20.19930000
-17.79690000 108.44960000 20.91460000
-19.25000000 -30.76340000 23.12340000
-15.88970000 -29.67910000 22.12760000
-19.97460000 -29.35900000 22.36200000
21.64310000 -33.69910000 -21.85410000
21.57350000 -35.37430000 -20.33770000
21.71120000 -34.25730000 -23.41280000
21.19070000 -36.10410000 -21.27450000
21.30380000 -36.09900000 -25.27780000
-14.41160000 10.11620000 -2.37300000
-16.12430000 10.30750000 -1.87360000
-13.94660000 10.75800000 -2.23930000
-12.99650000 11.96310000 -1.71690000
-25.96240000 130.31910000 30.94700000
-26.04030000 130.71970000 30.27630000
-25.52330000 131.14790000 31.24500000
-25.73180000 131.02930000 31.96380000
-46.75960000 142.70200000 -38.39540000
-47.35320000 142.89910000 -36.39310000
-48.01010000 143.09970000 -32.01530000
-45.74790000 142.43840000 -31.54940000
-48.33960000 143.30940000 -29.14100000
-19.40380000 -27.76320000 -3.09870000
-21.80240000 -32.25940000 -9.87020000
-21.78550000 -32.38490000 -2.92650000
-19.86030000 -29.82900000 -4.79310000
21.54660000 43.17320000 19.15260000
21.94250000 42.36890000 18.55920000
-25.98570000 132.14200000 -27.21820000
-26.82120000 132.26570000 -27.01250000
-26.22090000 131.95540000 -28.11230000
20.31510000 54.67220000 16.98920000
20.53570000 53.87660000 18.06410000
-1.87120000 3.19370000 -16.51890000
-42.12220000 144.16270000 20.35870000
-45.93540000 145.90950000 18.97520000
-44.91660000 145.28720000 22.76100000
-48.71890000 146.31450000 21.25740000
-48.70450000 146.40840000 17.10570000
-10.48750000 35.87380000 -19.85900000
-7.96150000 35.10460000 -20.06910000
-11.37050000 34.36220000 -19.34940000
-8.07210000 37.60640000 -20.24610000
17.98800000 -7.50280000 -1.11080000
18.36750000 -8.94190000 -2.56960000
17.31180000 -7.64020000 0.19130000
17.68950000 33.19380000 -21.19140000
14.55380000 39.01140000 -19.99460000
14.81570000 36.15120000 -19.96520000
16.27790000 87.30820000 -19.42760000
15.99210000 88.37890000 -20.52150000
15.96210000 91.11020000 -21.07250000
10.35530000 106.35030000 11.55920000
8.67980000 94.51290000 9.33090000
7.95880000 85.57490000 8.47150000
-16.27290000 -21.64660000 19.32880000
-16.26650000 -22.46170000 18.87400000
-19.08320000 -28.32510000 22.14900000
-17.52810000 -25.28940000 19.87230000
16.31530000 -15.90260000 18.00800000
16.03360000 -16.94640000 17.78130000
16.92750000 -15.01370000 18.10670000
18.82710000 139.20570000 46.10530000
24.74340000 139.58150000 48.31540000
21.27100000 139.35520000 47.76560000
25.80530000 139.10380000 47.49430000
0.26680000 81.24290000 -19.13050000
-19.13890000 31.80850000 -22.27720000
-18.93450000 32.47390000 -22.80420000
-18.02310000 33.76310000 -21.68070000
-14.58920000 94.46350000 16.12880000
-14.59230000 93.32920000 16.11850000
-45.76400000 142.02750000 10.08600000
-43.80120000 141.31020000 18.97690000
-45.53030000 141.67830000 16.81910000
-48.42930000 143.36600000 3.99340000
-48.10050000 142.88110000 4.25550000
-17.46230000 114.78390000 13.28190000
-18.41460000 119.99980000 19.19060000
-2.43000000 -13.17550000 -16.86870000
-2.72150000 -10.78510000 -15.89220000
-2.49060000 -14.75770000 -16.78630000
14.44490000 55.93980000 -20.28450000
12.92350000 54.20510000 -20.71660000
13.42060000 58.79680000 -20.33730000
17.30700000 49.65400000 -15.10290000
17.33180000 46.26920000 -14.64750000
17.16350000 44.43830000 -14.97830000
13.62690000 82.66300000 -3.63610000
14.50680000 81.61220000 -3.40680000
13.33170000 76.46720000 -3.70430000
2.72790000 -15.05390000 16.14230000
2.86410000 -11.68000000 15.10810000
2.30080000 -16.39320000 17.72790000
2.43300000 -17.90760000 19.15900000
-18.75330000 127.29310000 16.39090000
-16.96170000 124.04780000 14.94260000
-17.20110000 124.14030000 12.43040000
-13.77680000 113.18410000 11.48820000
-25.57280000 129.21730000 -24.84260000
-18.49760000 147.29720000 -47.56620000
-24.46740000 147.46280000 -46.97400000
-15.98200000 147.47940000 -47.40020000
-15.06190000 145.47660000 -47.77330000
-10.03580000 147.15800000 -48.13730000
-17.56600000 144.24200000 -47.53840000
14.71540000 99.99350000 1.66890000
-15.70940000 -13.56370000 18.31880000
-16.41290000 -15.47530000 19.26180000
-17.23780000 -13.43350000 17.44770000
12.66370000 80.54730000 -18.08530000
13.44840000 79.93400000 -18.85570000
16.62920000 108.92080000 -2.41930000
17.72980000 107.68350000 -2.93340000
16.24190000 108.05090000 -2.82270000
16.17400000 113.29200000 -3.65700000
11.50860000 1.58180000 13.04650000
11.83410000 -1.48390000 13.50520000
13.78660000 0.08950000 15.08590000
14.13940000 -1.45570000 15.09740000
-20.77060000 53.85910000 22.07550000
-20.39810000 54.55480000 21.66500000
-21.03040000 55.00430000 22.71860000
-20.97130000 54.56570000 22.19930000
-21.25700000 52.12160000 22.62790000
13.32060000 -0.18660000 -7.95160000
13.51050000 -3.43570000 -4.44710000
13.40670000 -0.06200000 -4.37870000
-20.11400000 123.36520000 21.61740000
-19.32320000 121.49760000 20.48920000
-20.44730000 123.59690000 22.13490000
-16.38330000 96.51870000 -20.02480000
-19.52990000 31.11750000 -18.66250000
-12.71790000 69.08960000 -15.81650000
-11.18810000 67.86440000 -15.33990000
1.73220000 67.97030000 -15.62810000
-4.30990000 67.76040000 -15.46430000
17.15030000 24.16040000 -18.03520000
18.81330000 -37.07150000 -9.12490000
19.42790000 -36.96630000 -12.33200000
20.44540000 -36.97450000 -9.19990000
20.76420000 -36.63590000 -15.15050000
21.36340000 -36.10200000 -18.82980000
21.22150000 -36.21480000 -14.30430000
-13.91380000 -39.61070000 -17.10250000
-14.34070000 -36.15170000 -16.41710000
-14.53360000 -39.55420000 -16.54520000
-7.76530000 -39.67100000 -17.07570000
-16.97640000 -6.47020000 -14.80690000
-17.33890000 -7.54950000 -15.32930000
-16.53700000 -9.20550000 -15.31530000
-17.44850000 -23.31140000 -16.82420000
-16.88710000 -21.97150000 -15.20170000
-16.00660000 -19.28560000 -14.03000000
-16.20320000 104.61210000 -5.53080000
-15.95310000 101.87840000 -4.15270000
18.25410000 49.47930000 14.90580000
18.23980000 48.97810000 17.36310000
18.65680000 48.91950000 16.00130000
-13.34260000 89.54980000 19.38510000
-12.20540000 89.99280000 18.17530000
-12.84190000 92.61240000 17.81240000
31.31800000 132.89460000 -2.24700000
33.05350000 134.56520000 -2.07220000
34.22400000 135.19260000 -1.65030000
14.16850000 -0.34820000 0.76090000
14.26390000 3.02010000 0.65470000
13.87920000 6.37130000 0.90710000
13.79090000 1.25380000 0.81150000
-9.28010000 81.77330000 6.73820000
-10.31740000 94.57990000 8.06540000
-9.04480000 81.93150000 7.36490000
-10.19450000 95.12300000 8.57830000
-9.71250000 94.97560000 8.96080000
-19.32850000 31.51590000 24.01700000
-20.04520000 29.35460000 23.50550000
-20.14100000 31.66810000 23.66920000
-20.98140000 30.32520000 22.88660000
15.61550000 -2.60460000 13.37920000
16.36670000 -2.21860000 13.24350000
16.16010000 -3.12400000 13.64310000
15.25780000 -2.13390000 12.17420000
-13.06210000 -3.14670000 14.79860000
-13.40140000 -2.32580000 15.56620000
-13.82990000 -1.89190000 15.99020000
36.97530000 146.08370000 -48.95600000
38.10470000 146.14470000 -48.58030000
41.68670000 145.93050000 -49.00960000
28.47410000 146.38020000 -49.02540000
34.30550000 146.31070000 -49.00340000
36.22720000 145.56850000 -49.22700000
4.76220000 -36.22570000 22.95420000
3.08530000 -36.92800000 21.28370000
-4.38920000 -35.49920000 24.02960000
-19.31450000 -35.44590000 24.06820000
-9.64810000 -35.99960000 23.88210000
15.77250000 95.75750000 15.34250000
16.62720000 96.91020000 15.61910000
14.33410000 95.54200000 15.59430000
18.39520000 111.87800000 17.51280000
17.35720000 114.05020000 16.26260000
18.66090000 113.23450000 17.48200000
-18.26420000 139.57200000 44.16100000
-19.88490000 140.52360000 48.47730000
38.90410000 139.25730000 36.36050000
30.18270000 136.01100000 19.56730000
33.55150000 137.62680000 22.07690000
-3.27260000 67.08420000 -5.24880000
1.20430000 67.12190000 -5.13760000
-5.98950000 67.68260000 -6.05600000
-6.26210000 68.34890000 -7.17950000
-25.96410000 135.76500000 13.18100000
-28.51180000 137.65180000 14.89560000
11.70160000 100.19920000 -18.58570000
30.61030000 133.76510000 -7.86530000
28.07380000 132.99170000 -11.01740000
25.15050000 130.26170000 -8.41210000
26.88030000 131.85440000 -9.72420000
27.69480000 131.97140000 -7.42800000
-44.93900000 147.52670000 -47.04200000
-46.23770000 147.82440000 -46.41790000
-41.96360000 145.67630000 -40.53680000
-43.28200000 146.42590000 -43.04540000
-45.11310000 146.82090000 -43.76620000
14.41700000 71.28370000 15.43740000
13.48680000 71.44840000 15.61000000
12.94370000 69.03410000 14.67690000
-22.39260000 134.91740000 -23.52300000
-24.06890000 136.55590000 -24.98370000
-26.66740000 138.09530000 -22.54040000
13.69220000 101.49160000 -19.63220000
14.51610000 101.20820000 -18.36740000
5.36190000 58.25030000 -20.97950000
7.70330000 56.39330000 -20.88970000
0.92560000 56.35820000 -22.94380000
17.75320000 -38.13920000 6.10720000
20.89790000 -37.14560000 12.88860000
18.92220000 -37.24010000 14.66590000
18.61850000 -37.28140000 12.06960000
-18.74310000 52.36230000 19.00160000
-18.47180000 51.73420000 19.70200000
-18.48450000 52.10760000 21.11010000
-13.59280000 10.81920000 -14.64960000
-15.76090000 10.26400000 -14.87830000
-15.46260000 9.07980000 -15.63810000
-15.99630000 8.86490000 -15.28980000
10.23760000 66.61370000 -15.74730000
10.50130000 65.29920000 -15.70940000
9.78570000 65.02320000 -15.91590000
12.30810000 61.14210000 -18.61490000
9.88830000 62.56190000 -17.75150000
11.30620000 63.41440000 -16.44470000
14.52440000 -18.37130000 -9.53890000
15.31510000 -20.42700000 -11.68950000
15.95700000 -24.27240000 -11.80710000
14.98410000 -21.10470000 -10.16530000
15.40100000 -22.84880000 -9.38570000
-2.74290000 31.51390000 -21.46830000
-2.23800000 34.53600000 -22.71850000
-2.29600000 30.56680000 -22.68610000
-1.48910000 35.29460000 -22.99830000
-2.22730000 35.50180000 -22.22520000
-0.34990000 35.70000000 -21.93320000
13.92980000 2.57250000 11.93920000
14.43120000 1.41040000 13.23350000
-14.77870000 83.05700000 20.09050000
-15.28470000 84.51710000 20.34370000
-15.54030000 81.00390000 20.18720000
-15.09410000 84.18480000 19.12960000
22.52470000 125.35240000 -28.14260000
22.37850000 124.25520000 -26.16190000
21.49920000 124.02370000 -26.64590000
20.84570000 123.92960000 -26.72150000
20.10660000 124.27130000 -26.63820000
22.87140000 126.61710000 -29.25800000
14.68670000 105.27590000 18.09620000
14.33700000 107.37010000 18.18740000
16.06410000 106.65900000 19.06040000
15.55230000 105.46720000 18.06740000
-18.42770000 106.70760000 -19.05820000
-18.72060000 104.28840000 -19.14910000
-18.91600000 105.46590000 -19.42490000
-18.88320000 102.45000000 -19.79120000
16.35390000 29.56980000 18.56450000
17.75600000 29.79150000 18.95940000
-10.68820000 106.35080000 -10.90020000
-11.09230000 106.37000000 -9.92550000
-9.21730000 94.55010000 -9.02120000
-11.33050000 106.25480000 -6.54480000
14.91820000 105.56540000 -18.76870000
1.61670000 -21.12410000 -19.81650000
0.67840000 -22.45600000 -19.86880000
0.31730000 -23.02620000 -19.73230000
-1.30530000 -22.46060000 -19.76300000
-13.68570000 7.09880000 -11.62330000
-13.56920000 7.39550000 -12.15790000
-12.50180000 7.66900000 -13.08430000
6.77970000 6.50190000 -8.20570000
5.82470000 13.18860000 -7.84010000
6.25590000 5.14160000 -8.83000000
3.14570000 13.54320000 -7.91990000
-3.09660000 13.33180000 -7.87490000
0.13960000 5.17420000 -8.83290000
-14.37170000 -11.72840000 15.92940000
18.98160000 28.41570000 -18.95930000
17.71920000 28.37600000 -20.35020000
16.82470000 28.55830000 -20.58590000
11.78220000 76.33890000 -17.85570000
10.72730000 76.55890000 -17.42400000
12.47750000 76.24300000 -17.74070000
10.54010000 106.33950000 -12.23330000
8.18770000 94.55450000 -10.65040000
8.73090000 94.49820000 -10.41650000
8.25530000 88.72520000 -10.01700000
7.44480000 81.84740000 -9.61520000
16.73580000 -7.20080000 -18.11760000
16.75550000 -10.02380000 -19.15720000
17.04450000 -7.56180000 -17.38760000
17.40680000 -10.84920000 -17.93990000
27.86580000 131.98280000 11.19930000
25.96050000 130.49060000 10.60530000
25.38980000 129.73260000 7.94800000
-14.71750000 80.88150000 -17.70200000
-15.75050000 81.16680000 -16.90200000
-15.21020000 79.93530000 -18.32680000
-29.39940000 136.75660000 -31.31800000
-28.39710000 135.64250000 -29.15620000
-29.73300000 138.42160000 -34.25510000
14.07960000 83.62700000 15.73030000
14.43340000 82.89790000 16.13880000
14.85980000 7.32910000 15.15020000
13.54830000 8.44110000 14.07790000
13.59590000 7.62470000 13.83950000
0.49330000 15.52140000 -12.68530000
2.51890000 17.12270000 -12.58360000
14.19930000 85.02310000 -16.97740000
28.94430000 130.20670000 26.80230000
28.79130000 130.76950000 25.99540000
29.17540000 130.82060000 27.51990000
29.63130000 131.50700000 27.49190000
15.97850000 -5.69160000 -15.90800000
15.44370000 -5.27350000 -15.94660000
14.77550000 -4.72990000 -16.73890000
-13.90650000 64.19820000 6.83460000
-13.52740000 65.08200000 5.96750000
-14.23300000 64.13580000 3.64690000
-14.33130000 63.72920000 -13.62840000
-14.35870000 64.05920000 -1.18670000
-24.71200000 135.23030000 25.76700000
-27.51630000 137.20400000 28.51230000
-33.02210000 140.13010000 31.88010000
-36.56570000 141.71190000 35.84070000
-31.96440000 139.77720000 32.41430000
16.16980000 118.52540000 -12.70560000
14.94920000 115.27980000 -14.53070000
14.03500000 110.57800000 -11.91170000
14.52560000 112.82000000 -11.23130000
13.69850000 108.52400000 -10.59240000
-10.52730000 116.53450000 21.53600000
-13.55950000 119.01540000 22.02540000
3.91880000 131.95800000 32.77900000
4.10460000 130.92080000 32.40930000
1.73560000 131.72910000 33.82330000
2.98600000 131.19560000 33.55390000
10.47300000 127.32290000 19.84010000
9.51060000 129.83860000 21.63750000
7.14080000 131.44290000 22.94950000
8.01410000 132.74970000 24.46260000
14.36530000 79.89210000 -20.58240000
14.77900000 78.32680000 -20.87000000
15.53030000 77.87360000 -20.44490000
37.00440000 144.41450000 -43.77410000
35.46920000 143.46500000 -41.46290000
37.70440000 143.41480000 -40.74490000
36.02850000 144.85520000 -44.83550000
49.12900000 140.30870000 -9.97460000
49.58680000 139.88550000 4.55320000
45.47070000 139.69300000 -27.43520000
48.06300000 140.57080000 -27.47080000
46.77250000 139.93230000 -23.45500000
-12.81990000 -12.12390000 15.75250000
-14.17120000 -11.98940000 16.77220000
-13.34110000 -11.70660000 15.81930000
-5.17440000 121.71150000 23.52600000
-5.59010000 119.28750000 22.48300000
-4.58900000 118.18880000 22.10530000
-3.26960000 125.96620000 25.34250000
-4.08720000 124.52050000 24.58720000
-3.29120000 123.24260000 24.11540000
21.95420000 126.59480000 -23.53710000
23.85200000 128.32490000 -25.31340000
23.40950000 129.09780000 -24.72540000
24.38040000 128.36910000 -26.32930000
23.89970000 129.94090000 -26.06780000
-1.48730000 89.65270000 18.92120000
-1.55030000 89.27680000 18.58060000
-0.34990000 89.28550000 18.23380000
-1.18640000 89.84370000 20.11230000
-1.33460000 92.64200000 20.58530000
-16.37060000 80.22790000 -17.40860000
-16.45360000 82.28090000 -16.43460000
-47.86310000 145.52040000 42.50070000
-48.10200000 145.09320000 42.20450000
-47.43760000 145.02670000 49.41600000
-46.34930000 145.33100000 49.65730000
-47.36830000 145.51990000 48.27690000
-16.66260000 -18.76390000 16.39160000
-16.76060000 -21.61290000 15.78960000
-16.71200000 -19.43280000 15.74220000
-15.74030000 -17.85230000 14.79140000
-2.03060000 -30.86700000 -15.20420000
10.47400000 -30.84350000 -15.31920000
8.29420000 -30.84230000 -15.40520000
-17.41890000 49.68170000 -20.31840000
-17.67170000 96.60420000 21.16040000
-18.20470000 96.86330000 20.12990000
-18.01650000 93.44630000 20.58740000
-18.12130000 94.67440000 19.42020000
-17.60570000 94.38570000 18.84400000
14.54440000 52.32540000 18.99490000
11.87520000 51.14260000 19.00830000
14.74210000 50.53570000 18.61170000
-16.52810000 96.82580000 19.07150000
-15.68590000 96.23060000 19.82530000
-17.39420000 96.30800000 19.17160000
-17.94750000 96.54100000 19.31880000
-17.25370000 97.28770000 18.82410000
21.25150000 125.87200000 -6.29910000
20.29470000 124.94220000 -8.31660000
22.43080000 127.61150000 -8.47180000
24.26860000 129.37890000 -6.78560000
27.46410000 131.74680000 -5.88670000
25.49210000 129.91280000 -4.55420000
15.90020000 88.11140000 16.13230000
16.79300000 88.02990000 15.90400000
15.99600000 87.41490000 16.57690000
20.10710000 27.24880000 21.22740000
21.22950000 26.20630000 20.32780000
20.67560000 27.11720000 21.22620000
20.04730000 25.76190000 20.39400000
18.14760000 52.28730000 2.98020000
18.22470000 57.24360000 2.17810000
18.25970000 55.70050000 5.39650000
18.07980000 55.30400000 3.31240000
15.08860000 7.00320000 13.06660000
-36.60030000 139.66750000 -8.44210000
-34.62310000 138.83010000 -11.15350000
-33.63940000 138.35880000 -7.79800000
-39.66620000 140.72080000 -4.45530000
-43.45540000 141.55610000 -3.08530000
-18.78910000 52.17400000 -18.70280000
-16.76270000 52.20170000 -20.05770000
-19.61480000 53.03020000 -18.87400000
0.25980000 35.33570000 -23.14420000
-20.76160000 41.46440000 22.77510000
-20.96670000 42.07390000 22.04400000
-20.32420000 40.94180000 23.27360000
26.02530000 132.04460000 -21.31680000
29.15780000 134.36400000 -26.66030000
30.28320000 134.83440000 -25.38560000
27.45050000 133.07250000 -22.75230000
-13.78780000 67.88070000 0.41380000
-13.52680000 67.93280000 8.01290000
-11.77140000 -36.32240000 -25.34450000
-7.67940000 -36.46770000 -25.36310000
-12.91300000 -36.67320000 -24.53120000
-18.86690000 -36.28160000 -25.24310000
11.03530000 -4.82950000 -15.17340000
11.20370000 -2.17050000 -15.14690000
-1.73130000 63.29470000 15.54350000
-0.01420000 63.50590000 15.08410000
-2.16790000 63.94400000 14.89200000
0.27050000 64.17200000 14.62560000
17.72470000 117.94770000 2.69310000
16.55560000 114.02920000 2.29350000
17.83090000 116.35200000 2.01820000
-15.89700000 36.79660000 21.32930000
-17.68240000 36.16980000 23.16220000
-15.53520000 43.20820000 21.00840000
-15.74080000 38.28440000 21.06370000
-14.53810000 41.16070000 20.66040000
-13.19900000 10.63620000 1.59920000
-13.52070000 7.63720000 1.72020000
-12.88060000 4.33380000 1.97880000
-12.60440000 4.31510000 2.57630000
-12.75910000 7.27980000 2.26110000
-19.60310000 46.35750000 20.23170000
-20.11410000 45.96340000 21.68750000
10.59620000 139.23500000 40.50020000
10.99880000 137.87480000 36.23020000
36.54960000 141.25820000 -47.83110000
26.54580000 130.75950000 4.03970000
25.18030000 129.55770000 5.88560000
24.30700000 128.72360000 3.51510000
14.07220000 102.11780000 -20.46070000
14.77160000 100.68040000 -19.98130000
14.31330000 101.16530000 -20.03240000
-33.42530000 143.19300000 41.60590000
-36.00290000 143.11930000 41.46310000
-35.52640000 144.06320000 44.74800000
-19.78430000 -27.89220000 -20.22690000
-21.87540000 -33.04680000 -25.05840000
-22.28370000 -34.82920000 -23.98390000
-18.75940000 34.42150000 18.76480000
-14.56240000 -15.80840000 -16.16980000
-14.72680000 -14.81080000 -16.60360000
-15.64020000 -14.11760000 -17.84710000
-14.07150000 -14.48330000 -16.62870000
8.19320000 -5.51140000 9.29740000
20.59060000 111.36790000 19.21520000
20.74950000 113.46130000 19.50130000
20.93490000 111.69880000 19.78860000
17.39460000 58.38430000 -9.18180000
17.81530000 58.75200000 -2.62280000
17.52990000 58.18810000 -12.28900000
17.53120000 56.57570000 -8.50930000
-27.84670000 144.75670000 46.40930000
-27.66490000 145.42400000 47.70830000
-24.27810000 144.77140000 46.80280000
-21.96980000 143.15040000 42.42750000
-15.98210000 142.73330000 41.55230000
14.19680000 -2.73050000 -17.60200000
-20.96920000 41.32850000 -20.00370000
-20.58610000 42.69150000 -19.76100000
-21.16220000 42.91390000 -19.98300000
-19.21050000 108.98550000 -19.61990000
-12.07070000 75.21600000 16.92880000
-10.96880000 74.92550000 16.30890000
-10.98130000 78.37050000 16.58010000
16.86000000 91.38600000 15.70720000
16.19680000 91.72450000 15.83410000
22.56560000 118.57680000 21.06110000
13.15120000 71.90680000 -3.83520000
13.59540000 71.31810000 -2.60920000
-1.96940000 90.49400000 -19.25010000
-3.08860000 89.53730000 -19.02220000
-3.29510000 90.19950000 -18.38190000
-17.81540000 115.35990000 21.18530000
-18.15350000 115.15770000 20.33920000
-25.01800000 128.89080000 31.12600000
-24.25540000 128.25880000 29.96450000
15.25500000 -21.30290000 17.28420000
15.45750000 -23.82980000 17.83880000
15.99420000 -20.79770000 17.15530000
15.51670000 -20.00460000 16.92160000
-1.65660000 -16.38830000 18.07160000
-0.78480000 -16.19830000 19.31150000
-12.56490000 18.41210000 -10.24730000
-11.24720000 18.62940000 -12.77220000
-11.89050000 19.10840000 -13.25090000
-5.31430000 18.43650000 -12.74940000
17.01650000 103.75950000 20.08160000
17.57600000 105.24730000 20.39320000
17.54820000 103.82100000 20.32160000
-17.53510000 43.19050000 -20.20240000
-17.58840000 44.90070000 -20.57880000
-18.23880000 46.39370000 -22.01130000
13.25140000 97.97090000 -16.18830000
13.19480000 96.41520000 -15.58230000
13.94540000 96.54560000 -16.57220000
13.18190000 99.53500000 -15.70980000
-14.82510000 9.36650000 12.97170000
-15.16700000 9.29910000 13.99440000
-16.42180000 32.44930000 20.66150000
-16.52290000 33.74390000 20.75600000
-11.69030000 18.77070000 12.36230000
5.02410000 18.30860000 12.03020000
-3.75580000 18.63150000 12.85490000
-3.74560000 18.12490000 12.26350000
1.21880000 133.96650000 -31.58330000
2.67210000 133.38100000 -30.63360000
1.83500000 133.24790000 -30.84060000
-20.60960000 44.37640000 2.34800000
-19.27600000 47.79970000 4.83620000
-19.70710000 44.39700000 3.40210000
-11.92130000 66.43410000 15.03160000
-12.74160000 67.03070000 14.73130000
-12.40620000 64.54150000 15.03760000
-47.00170000 140.85270000 44.32310000
-47.11320000 141.45320000 33.20370000
-43.89040000 140.61360000 34.75570000
-47.65020000 141.72800000 35.38020000
-47.67290000 141.46080000 41.56650000
-17.27290000 98.82180000 -17.93780000
-17.94450000 98.34790000 -18.37980000
-16.46310000 -18.99610000 18.26790000
15.47980000 87.58390000 17.58140000
15.11600000 86.50000000 17.28270000
15.02830000 86.30450000 17.79200000
15.43920000 84.14180000 18.26420000
21.01260000 46.80720000 21.94190000
21.36600000 49.29580000 21.53210000
-18.51970000 -40.58700000 18.26890000
-18.73370000 -41.30400000 15.24910000
-17.92090000 -41.45810000 18.24300000
-18.71830000 -39.54130000 18.63850000
-16.15620000 -3.79730000 -17.25920000
-16.21430000 -6.42390000 -17.92400000
-17.02150000 -6.57260000 -17.77070000
6.07820000 94.59920000 -10.37210000
5.09170000 75.57130000 -9.01270000
14.03280000 95.42540000 -17.07850000
13.23110000 95.50020000 -18.11240000
-16.24170000 80.69090000 17.07240000
-15.52780000 81.07190000 16.47050000
-16.44420000 2.17630000 -2.20650000
-15.24490000 2.48560000 -2.36040000
-14.62350000 1.05930000 -2.64000000
16.98350000 -25.84530000 6.65570000
16.09140000 -23.34690000 7.14780000
16.63710000 -24.62460000 8.67600000
16.17110000 -21.47460000 4.38070000
16.27920000 85.49330000 18.61830000
15.85330000 83.13000000 18.45350000
1.42760000 126.78530000 26.59440000
-19.08730000 -41.10500000 -15.92590000
-18.47840000 -41.61190000 -16.08180000
-19.15320000 -41.78360000 -12.22300000
-18.12300000 -42.27390000 -6.25970000
17.74230000 44.78260000 18.45300000
18.20830000 43.68260000 17.29450000
16.69170000 44.74740000 18.42760000
15.48720000 43.75820000 18.31690000
-3.40000000 138.47270000 37.55440000
-5.38710000 137.27520000 35.57900000
-2.55400000 137.31570000 35.72300000
-3.92360000 135.28970000 32.90250000
-6.89330000 135.29030000 32.38040000
-5.47320000 133.30780000 30.54860000
15.35460000 -18.80880000 -15.96190000
15.47880000 -17.72450000 -16.23880000
16.84340000 -17.08100000 -17.36020000
-10.76780000 145.32540000 -47.89330000
-9.85070000 142.63270000 -46.02990000
-10.05130000 141.49200000 -42.39450000
-13.11510000 141.98940000 -43.68120000
-45.52320000 146.35270000 -5.74500000
-48.52280000 147.68640000 -7.48570000
-47.20050000 146.91250000 -3.65090000
-44.11430000 145.54280000 3.99210000
-46.87710000 146.57500000 -0.43450000
-46.37190000 146.32140000 5.65590000
18.78100000 23.39380000 3.09590000
18.91500000 24.12740000 3.86110000
18.73300000 23.43210000 6.95720000
16.00020000 20.38410000 -0.20530000
18.22590000 22.68880000 -3.58080000
17.77350000 22.04920000 1.19850000
-18.69850000 43.08950000 -22.77680000
-18.27520000 42.74420000 -22.15260000
-18.48700000 41.74710000 -22.42080000
-18.32970000 40.71230000 -21.57420000
-14.83610000 19.60950000 1.90810000
-16.27710000 21.07750000 11.02580000
-15.62270000 20.26450000 8.80580000
-14.23180000 19.55720000 11.00870000
19.47500000 123.33380000 -23.99470000
20.24730000 123.23370000 -23.38720000
-21.98420000 126.82930000 -12.96810000
-21.59960000 126.64330000 -14.89280000
-20.57000000 124.15210000 -14.49710000
-25.08840000 131.52000000 -13.24730000
-25.27960000 131.74900000 -15.34460000
-23.77420000 129.72280000 -13.76850000
-15.87870000 -12.66420000 -14.38650000
-4.05940000 72.14860000 -16.59140000
-3.22570000 71.05300000 -16.61340000
-7.85890000 69.76200000 -16.03320000
-3.47910000 72.87010000 -17.18350000
21.28670000 41.42350000 -21.58740000
20.82400000 41.27490000 -22.35880000
19.75760000 44.52320000 -23.39430000
20.50700000 43.20900000 -23.29510000
13.30180000 10.00110000 13.14730000
14.06910000 10.51290000 12.37270000
13.51580000 11.13530000 11.98490000
13.65740000 11.41220000 10.97070000
-12.01760000 14.25010000 -12.10490000
-12.44920000 14.15720000 -11.28850000
-11.98310000 15.79430000 -11.60590000
-11.94680000 18.00720000 -12.01350000
-11.44500000 15.91580000 -12.01850000
-19.31390000 53.48880000 24.77180000
-18.66220000 53.15010000 24.38100000
-17.62920000 -22.20000000 -18.80330000
-17.39730000 -21.75760000 -19.40840000
-16.74400000 -22.72480000 -19.59200000
-19.56000000 44.10370000 -5.45040000
-19.55780000 45.25330000 -10.87830000
-19.32980000 43.47380000 -8.08390000
-19.11960000 43.45920000 -10.79810000
34.58840000 138.73260000 7.17920000
37.15810000 139.85130000 7.57540000
33.98890000 138.44350000 3.83780000
45.44330000 143.01610000 -2.46140000
40.35580000 141.15750000 -0.65210000
43.83470000 142.45850000 2.99330000
-10.19070000 106.27270000 -11.66420000
-16.87960000 90.26500000 -1.76950000
-15.93940000 94.41860000 -2.58280000
-15.67770000 92.44240000 -2.87850000
18.40800000 33.11550000 19.66620000
17.61370000 33.34810000 18.89290000
20.00880000 31.02550000 20.57710000
17.74570000 -7.53510000 -2.46630000
15.00720000 -8.08450000 -3.30230000
17.21390000 -7.61710000 -3.00320000
8.67040000 45.61420000 19.59150000
5.71600000 44.63020000 19.77640000
8.34240000 43.32270000 19.77530000
-19.80960000 -16.23520000 -19.68070000
-20.83520000 -20.31590000 -20.41470000
46.93770000 144.11260000 -27.41940000
49.76200000 144.48360000 -30.03750000
49.84910000 144.13150000 -23.59620000
49.24800000 141.49180000 -25.52900000
49.53470000 142.23870000 46.34010000
50.81570000 142.52900000 41.16770000
50.40680000 142.94170000 36.78110000
50.41040000 142.66490000 41.84150000
-14.80430000 73.34320000 19.58100000
-16.18330000 72.63220000 18.95680000
-15.89410000 73.90570000 19.66090000
-21.18300000 130.92810000 -26.27660000
43.99790000 142.20440000 47.99470000
-18.10290000 111.52420000 -22.62560000
-13.70750000 128.67730000 -19.46260000
-15.17730000 128.69610000 -19.08400000
-6.79280000 119.97110000 -15.48740000
-7.05320000 124.04110000 -16.86640000
14.69410000 2.31450000 15.28960000
-16.36260000 -14.47610000 -2.57290000
-18.01800000 -14.63530000 -2.29120000
-15.64300000 -14.39220000 -2.31990000
-15.94870000 -13.85660000 0.63840000
-15.85430000 -14.03540000 -1.17300000
20.96810000 117.44640000 23.05920000
21.52490000 117.25470000 22.75720000
19.50770000 115.42670000 22.28560000
20.11630000 117.03410000 22.93580000
20.95890000 -36.17560000 22.71380000
21.54630000 -36.82460000 13.28960000
21.65670000 -36.21060000 20.38050000
-1.23750000 72.51740000 19.10750000
-1.55170000 72.49670000 17.16310000
-0.07580000 71.25050000 16.41680000
-12.64880000 80.63350000 -16.68260000
-12.53270000 78.74790000 -16.61640000
-9.32540000 27.66790000 20.29320000
-6.79130000 23.58200000 20.09730000
-13.13940000 25.36270000 20.09580000
-11.61760000 27.98230000 20.17410000
13.87190000 -7.64030000 1.94580000
15.55780000 -19.18330000 1.83980000
16.01620000 -19.64330000 1.19850000
-32.68030000 142.07920000 49.75930000
-26.29610000 141.47050000 49.39350000
-32.91270000 141.00300000 49.28500000
-26.58780000 140.79010000 48.96840000
3.70020000 67.22680000 3.57410000
2.26430000 67.56320000 5.45980000
5.06140000 68.06610000 4.84720000
17.04070000 -37.65910000 -21.84040000
17.30050000 -38.78720000 -20.87350000
17.48920000 -38.86280000 -19.99610000
17.17560000 -40.62550000 -19.78040000
32.92050000 134.90890000 35.87430000
32.19030000 135.80770000 37.72830000
24.78220000 136.69390000 36.63460000
25.85580000 137.46940000 40.15090000
18.83810000 138.03860000 39.37190000
-20.05550000 25.38900000 -3.44140000
-19.89640000 25.26580000 -7.07760000
-19.76960000 24.13860000 -7.58450000
-19.83040000 30.88990000 -6.15960000
-19.76990000 27.30420000 -8.34990000
22.71190000 131.27890000 10.50340000
26.41280000 133.97530000 12.38150000
34.80100000 138.64860000 9.56530000
32.90530000 137.91650000 6.61110000
33.19660000 137.87780000 13.65350000
22.11120000 30.35710000 18.84370000
22.65790000 30.06950000 19.19050000
21.70090000 28.44380000 18.33860000
-19.69350000 113.83020000 24.36510000
-19.47480000 111.10280000 22.95580000
-18.53300000 112.01190000 24.09760000
-20.48390000 114.34240000 23.50470000
25.64450000 134.09730000 -30.96770000
27.00050000 133.88470000 -30.64210000
25.63830000 133.27640000 -30.62040000
24.21830000 131.78490000 -29.57890000
25.06750000 132.55750000 -30.44620000
20.39300000 28.99420000 -23.29430000
20.31650000 32.40710000 -23.17150000
20.91830000 30.43520000 -23.02490000
19.72080000 28.40530000 -23.22550000
13.02860000 18.33350000 -7.20750000
12.67890000 17.49910000 -0.81420000
12.19100000 17.88520000 -12.73550000
-20.59260000 36.88730000 -19.71180000
-18.52470000 38.53650000 -19.56040000
-17.21420000 38.43150000 -20.28420000
12.32590000 79.33960000 -16.66370000
12.67390000 79.04910000 -15.41400000
-14.32670000 -3.67560000 16.65740000
10.73170000 79.76020000 15.39340000
11.66730000 77.04280000 15.15090000
-2.98550000 7.92360000 -13.47850000
-2.45150000 8.78900000 -13.86850000
-3.01330000 4.39050000 -13.50520000
-2.65930000 13.02420000 -13.27550000
-5.15150000 11.98240000 -13.25000000
-14.59410000 89.89990000 -18.00060000
-13.55080000 89.56370000 -18.03410000
-13.17590000 88.03180000 -17.61480000
-47.63330000 143.56620000 -45.99160000
-45.18020000 142.68080000 -44.30960000
-49.07990000 146.31520000 -46.49290000
-48.54480000 144.14170000 -46.13270000
12.80570000 110.95540000 18.53110000
14.00690000 113.32690000 18.92600000
11.47580000 113.61590000 19.30590000
10.06440000 109.17230000 18.72640000
7.01910000 107.20880000 18.76860000
-18.70210000 54.17850000 -22.38110000
-18.56580000 54.37930000 -20.66270000
-2.76040000 116.85010000 -22.60130000
-2.83910000 118.39390000 -23.13910000
-2.84190000 118.26530000 -24.43820000
18.65760000 42.82980000 15.82160000
2.30500000 47.88140000 -21.31440000
2.95830000 46.19170000 -20.83390000
3.73770000 45.57990000 -20.74040000
3.27170000 42.56240000 -20.99190000
-18.94720000 37.10320000 18.77290000
-18.76740000 35.85590000 18.25720000
-18.97550000 37.24080000 20.15480000
-17.14960000 83.55040000 -17.33100000
-17.78030000 83.98330000 -18.24090000
-17.74000000 134.42260000 -23.96640000
-16.17610000 136.16670000 -26.33850000
-13.45010000 139.44190000 -31.71860000
16.41850000 -20.31510000 14.31900000
17.17010000 -20.06060000 15.41700000
18.22010000 -21.28160000 16.29730000
-18.03120000 79.06530000 -18.47710000
-17.75890000 77.65210000 -18.93770000
-17.58990000 78.62480000 -19.34730000
10.81800000 144.33960000 48.94050000
1.39630000 144.73360000 48.86130000
6.16150000 144.41910000 49.37450000
-3.61000000 144.95410000 49.59130000
16.42220000 8.05360000 12.61790000
16.82750000 6.97400000 13.50760000
16.57670000 4.21290000 13.35710000
11.01250000 104.44840000 1.93920000
9.57710000 93.51120000 0.21050000
-16.54880000 123.89750000 -0.82010000
-16.47810000 123.93160000 3.18530000
-17.39310000 126.91210000 -6.91640000
-16.24690000 123.56790000 -4.84520000
-15.91280000 123.53300000 -7.50030000
17.90700000 24.42700000 17.07470000
17.70210000 23.31820000 16.10990000
16.87250000 100.42220000 18.01090000
15.19120000 99.98100000 18.01860000
18.21800000 25.45890000 -21.39080000
-16.10890000 145.36660000 48.97300000
-13.42320000 145.61350000 49.29720000
-21.85850000 130.38330000 29.06420000
-19.81200000 129.19920000 27.38090000
-18.98030000 132.17810000 29.70840000
-19.97630000 130.35670000 28.22780000
-16.69920000 131.23620000 28.88120000
-16.35870000 -12.22780000 -17.57430000
-16.98860000 -11.84960000 -16.97410000
24.37810000 126.60210000 0.80760000
25.83970000 125.67400000 0.82360000
24.30740000 126.99930000 1.76770000
25.28080000 125.81190000 -0.81780000
6.35980000 68.40480000 2.88780000
-8.97250000 127.24800000 -25.17170000
-12.96000000 126.80180000 -24.61420000
17.05270000 109.15110000 -22.98070000
16.42590000 104.69880000 -22.28810000
3.86960000 53.98600000 21.09440000
5.06800000 57.16680000 20.36190000
13.43430000 73.26350000 12.00210000
13.15510000 73.48720000 10.89330000
-14.16160000 69.24740000 -15.23780000
-13.56660000 67.47800000 -14.12420000
-14.37500000 69.29830000 -8.53740000
-14.34190000 69.23790000 -14.33120000
-13.80760000 67.70150000 -12.54800000
13.05590000 93.29530000 16.03010000
4.24410000 126.35860000 25.91710000
4.52450000 122.74640000 23.38120000
3.92630000 127.15550000 26.42090000
-14.66980000 56.03580000 21.16090000
-14.90810000 59.16880000 20.30840000
16.41020000 60.09060000 14.37370000
13.13100000 63.42360000 13.09850000
12.83900000 64.19270000 11.49040000
-31.30940000 136.84160000 23.12160000
-31.52190000 137.04150000 19.13800000
-29.81330000 135.76550000 17.07940000
-29.93170000 136.04900000 21.21440000
19.23750000 -29.94120000 -17.46360000
19.59990000 -30.54640000 -14.28550000
21.73380000 -35.38420000 -18.80850000
21.75890000 -34.35210000 -17.97730000
12.51420000 33.05510000 18.59430000
9.87960000 32.75660000 18.90110000
11.86880000 30.76480000 18.85350000
-24.59330000 126.26200000 30.85600000
-24.91050000 126.13100000 30.32730000
-22.78280000 124.47760000 28.74140000
-12.47340000 7.48150000 3.04740000
-12.54240000 11.67300000 2.10310000
-13.26820000 11.60500000 0.92330000
-12.74080000 12.34030000 0.73830000
15.95790000 27.50610000 -20.18140000
14.51570000 23.47750000 -19.49420000
12.66740000 23.34540000 -19.97320000
15.30100000 25.53120000 -19.79950000
-17.31110000 111.00210000 4.88260000
-16.77450000 107.51510000 6.83580000
17.46950000 48.29190000 -21.32430000
13.58670000 5.98750000 -17.04780000
13.92000000 8.35300000 -17.60000000
-15.73270000 -6.71710000 1.45410000
-15.16310000 -4.97390000 -0.03830000
-15.60990000 -4.85210000 0.74020000
-17.15240000 -4.34740000 1.34940000
-18.48740000 142.03580000 -43.34940000
-14.76110000 141.40390000 -41.92970000
-18.18330000 140.48640000 -39.39010000
-13.47350000 140.31240000 -39.08540000
-11.43220000 139.45660000 -36.89790000
-22.28960000 -34.82040000 -5.56170000
-21.73020000 -36.25470000 -10.88780000
-21.47450000 -36.12640000 -20.54580000
-20.27980000 -36.80950000 -14.11150000
16.02670000 -17.68120000 -21.15960000
16.40670000 -18.59060000 -21.40610000
16.68590000 -18.40640000 -21.79650000
16.82500000 -40.73560000 -20.79840000
16.86710000 -41.25210000 -19.93940000
15.93750000 -42.06470000 -18.18800000
16.71530000 -41.74640000 -15.66840000
14.93030000 72.46530000 -17.85910000
17.87660000 106.33930000 -19.46730000
17.60400000 104.56440000 -19.29550000
17.75770000 108.45900000 -19.49520000
16.86220000 108.20720000 -19.12940000
17.40900000 106.51780000 -19.10160000
37.60920000 136.42610000 -2.68370000
37.74740000 136.26430000 0.17190000
36.28290000 135.90070000 -1.76400000
4.82740000 130.77790000 28.62700000
4.27770000 135.71130000 33.21150000
5.25280000 134.03160000 31.28630000
6.50840000 133.12430000 29.92870000
18.15230000 122.18110000 -22.62750000
48.65170000 137.87860000 38.55860000
49.77640000 138.41750000 39.05610000
48.95410000 137.48480000 44.77150000
45.39020000 136.91180000 37.16030000
45.28120000 136.62310000 41.41890000
8.45490000 88.98380000 -17.73370000
10.89160000 87.37840000 -17.75170000
10.70250000 84.75580000 -17.58210000
11.64080000 85.24230000 -17.88940000
-14.71810000 102.07810000 -19.62540000
-15.56930000 101.75390000 -20.38940000
-15.50000000 102.21640000 -19.67830000
1.98890000 71.49350000 16.43370000
2.40430000 71.12620000 15.84440000
1.79890000 71.70780000 17.09370000
2.32670000 72.16820000 16.95290000
13.48610000 18.60510000 1.38020000
13.57200000 18.85910000 -7.72220000
14.42930000 19.27090000 -4.26430000
14.27050000 18.96740000 10.33910000
13.24900000 18.63600000 3.68350000
-14.68960000 -39.64430000 -1.62850000
-14.72340000 -36.20970000 11.44960000
-14.41650000 -36.14800000 14.90660000
-14.71350000 78.24600000 -14.37280000
-15.83460000 77.44810000 -15.79340000
-15.86260000 75.58420000 -15.54900000
-15.61690000 76.12730000 -16.30250000
50.27060000 144.63530000 -0.32860000
50.39320000 143.97710000 11.05070000
50.59730000 144.09120000 1.29940000
48.03300000 143.79370000 2.86930000
44.71340000 142.61900000 9.19130000
49.00340000 143.81860000 9.95830000
-27.83930000 134.28640000 -27.98550000
-27.91630000 134.85860000 -26.93980000
13.38890000 22.61720000 -19.43550000
13.31290000 19.95900000 -15.45450000
15.92530000 -20.31050000 -16.71450000
17.33880000 -21.62680000 -18.10460000
17.18290000 -20.62590000 -20.10980000
18.38090000 -15.79890000 -19.20490000
18.60180000 -17.33160000 -19.84570000
-22.11310000 47.88910000 0.79960000
-16.02270000 -42.17040000 -1.01220000
-14.60410000 -41.80580000 16.08990000
-2.71870000 -42.08620000 16.23500000
