4.70250000 2.72950000 -0.19040000
4.65880000 2.84330000 -0.20060000
4.70090000 2.67820000 -0.30430000
4.69860000 2.77190000 -0.34170000
4.58190000 3.03220000 -0.41280000
4.67450000 2.64740000 -0.39120000
4.31270000 3.23170000 -0.39970000
4.42250000 3.15500000 -0.34480000
4.25250000 3.27390000 -0.38290000
4.53510000 3.14430000 -0.50970000
4.39280000 3.22220000 -0.47980000
4.40860000 3.24510000 -0.62830000
4.72770000 2.82740000 -0.48860000
4.68480000 2.97350000 -0.50580000
4.79260000 2.79170000 -0.58670000
4.83010000 2.93280000 -0.65070000
4.73560000 2.72030000 -0.47030000
4.69290000 2.63160000 -0.54060000
4.76750000 2.68030000 -0.57490000
4.83240000 2.74510000 -0.63750000
4.79730000 2.65910000 -0.65350000
4.62400000 2.57270000 -0.59680000
4.76390000 2.59510000 -0.72170000
4.68900000 3.04460000 -0.56820000
4.65150000 3.11770000 -0.63130000
4.53520000 3.22290000 -0.66550000
4.73670000 3.09250000 -0.68840000
4.86020000 3.17150000 -0.77390000
4.77010000 3.15380000 -0.74310000
4.66110000 3.31350000 -0.75120000
4.77900000 3.33770000 -0.77230000
4.61200000 3.24240000 -0.71500000
4.49120000 3.27610000 -0.76060000
4.55660000 3.31220000 -0.77460000
4.40290000 3.26780000 -0.73280000
4.40690000 3.79620000 -0.37690000
4.48950000 3.82030000 -0.50270000
4.24380000 3.54080000 -0.56350000
4.42370000 3.76060000 -0.60660000
4.33370000 3.69620000 -0.57010000
4.61430000 3.83880000 -0.56400000
4.69880000 3.82060000 -0.59130000
4.52720000 3.80010000 -0.62040000
4.55530000 3.74760000 -0.69020000
4.88440000 3.61810000 -0.68950000
4.67620000 3.65650000 -0.72480000
4.81280000 3.55690000 -0.73760000
4.35240000 3.67180000 -0.70480000
4.40770000 3.68920000 -0.72810000
4.47830000 3.64680000 -0.75270000
4.65770000 3.56070000 -0.75240000
4.82730000 3.44210000 -0.76910000
4.62350000 3.41510000 -0.77290000
4.56180000 3.54010000 -0.75560000
4.21800000 3.47920000 -0.39110000
4.29010000 3.61350000 -0.67010000
4.25440000 3.29990000 -0.56240000
4.30430000 3.27580000 -0.63450000
4.23400000 3.43340000 -0.65100000
4.24710000 3.36290000 -0.68110000
4.27580000 3.53180000 -0.74930000
4.32140000 3.53470000 -0.78730000
4.40580000 3.52910000 -0.77710000
4.52170000 3.46870000 -0.78670000
4.48450000 3.39800000 -0.80660000
4.32220000 3.41670000 -0.79420000
4.41330000 3.34130000 -0.79650000
4.34840000 3.31830000 -0.76880000
4.28920000 3.31300000 -0.70920000
4.26240000 3.39710000 -0.74940000
4.57490000 2.52160000 -0.60720000
4.53910000 2.43660000 -0.63880000
4.59160000 2.46360000 -0.72720000
4.65970000 2.52520000 -0.74460000
4.64170000 2.42610000 -0.79050000
4.57910000 2.37110000 -0.74500000
4.46240000 2.26810000 -1.06030000
4.22950000 2.21420000 -1.36950000
4.35520000 2.24830000 -1.14680000
3.99560000 2.05350000 -1.31340000
3.76840000 1.76650000 -1.38950000
5.29940000 2.90410000 -0.74390000
5.35430000 3.15700000 -0.73800000
5.22410000 3.10980000 -0.77130000
5.13440000 3.12520000 -0.79230000
5.14920000 2.80660000 -0.75830000
5.00850000 2.99750000 -0.76820000
5.02480000 3.43250000 -0.79150000
4.96050000 3.50960000 -0.78990000
5.09830000 3.49260000 -0.80980000
5.19280000 3.46440000 -0.79520000
5.30100000 3.30910000 -0.75800000
5.21680000 3.30680000 -0.79370000
5.01480000 3.25930000 -0.79410000
5.11530000 3.56820000 -0.81220000
4.93810000 2.72160000 -0.71690000
5.05440000 2.82230000 -0.75450000
5.02060000 2.65160000 -0.75890000
4.92000000 2.83440000 -0.70350000
4.90110000 2.99110000 -0.72980000
4.88240000 2.65240000 -0.71830000
4.87960000 2.58170000 -0.77470000
4.79290000 2.47100000 -0.80810000
4.92620000 3.59240000 -0.72210000
4.98760000 3.60080000 -0.77130000
5.03910000 3.57500000 -0.81660000
4.91180000 3.53590000 -0.77040000
4.73450000 2.51690000 -0.79310000
4.51370000 2.27890000 -0.95380000
4.54010000 2.25520000 -1.16990000
4.59960000 2.21890000 -1.30730000
4.48130000 2.25900000 -1.28230000
4.53910000 2.24690000 -1.37090000
4.36360000 2.24940000 -1.51830000
4.45230000 2.25400000 -1.61130000
4.63160000 2.18330000 -1.43670000
4.65680000 2.06740000 -1.57380000
4.64080000 2.13560000 -1.63150000
4.57800000 2.21720000 -1.59100000
4.48650000 2.24000000 -1.88480000
4.57560000 2.19480000 -1.82480000
4.13930000 2.18060000 -1.60340000
4.02730000 2.10690000 -1.76100000
4.62060000 2.05850000 -1.82370000
4.21650000 2.26060000 -2.22720000
4.31560000 2.26300000 -2.29180000
4.20550000 2.23650000 -2.00470000
4.07790000 2.17880000 -2.00120000
3.92650000 1.98220000 -1.50220000
3.79810000 1.84890000 -1.73170000
3.91340000 2.02540000 -1.86270000
3.91680000 2.12830000 -2.20450000
4.00460000 2.19930000 -2.28390000
3.84570000 1.97660000 -1.95040000
3.81240000 2.01460000 -2.14810000
4.52250000 1.89380000 -1.98440000
4.57390000 2.04420000 -2.04740000
4.60260000 2.14940000 -1.86980000
4.47120000 2.21740000 -2.19880000
4.59720000 2.10250000 -1.96690000
4.57150000 2.15680000 -2.01150000
4.54860000 2.11540000 -2.16700000
4.50700000 2.16710000 -2.25100000
4.51590000 2.06660000 -2.27760000
4.48320000 1.97330000 -2.26390000
4.44360000 2.15520000 -2.46650000
4.36360000 2.21410000 -2.55780000
4.33280000 2.25480000 -2.46170000
4.42370000 1.81740000 -2.20610000
4.30890000 1.83460000 -2.51460000
4.23270000 1.65050000 -2.36470000
3.94240000 2.23800000 -2.55440000
3.98060000 2.27840000 -2.77270000
4.39980000 1.99370000 -2.50190000
4.43190000 2.08920000 -2.51510000
4.36970000 2.14100000 -2.64350000
4.25830000 2.24480000 -2.67830000
4.14370000 2.26580000 -2.75800000
4.34460000 2.06900000 -2.67960000
4.24190000 1.99960000 -2.78310000
4.27010000 2.19860000 -2.76820000
4.29670000 2.11870000 -2.77610000
4.16300000 2.16110000 -2.95280000
4.21330000 2.10910000 -2.89640000
3.82210000 2.19120000 -2.57280000
3.86100000 2.26090000 -2.76670000
4.10380000 2.21710000 -2.97130000
3.64520000 1.60360000 -1.81310000
3.72060000 1.80100000 -1.96980000
3.63510000 1.75930000 -2.14760000
3.59870000 1.80790000 -2.28690000
3.74490000 2.08820000 -2.45890000
3.69930000 1.99450000 -2.36010000
3.48500000 1.78280000 -2.43210000
3.43450000 1.86240000 -2.57470000
3.36270000 1.49510000 -2.35300000
3.24870000 1.63340000 -2.56020000
3.13000000 1.43960000 -2.54260000
3.33590000 1.91870000 -2.73920000
4.19320000 1.50950000 -2.29270000
4.14610000 1.52790000 -2.40090000
4.15640000 1.69360000 -2.58090000
4.09290000 1.41380000 -2.45410000
4.01610000 1.39640000 -2.53170000
4.02470000 1.56080000 -2.62890000
4.18580000 1.83350000 -2.72580000
4.10900000 2.06420000 -2.99850000
4.06150000 1.82150000 -2.86970000
3.99560000 1.90360000 -2.99660000
3.90280000 1.65560000 -2.86550000
3.86310000 1.43540000 -2.73800000
3.66120000 1.24390000 -2.85690000
3.63690000 1.36120000 -2.91030000
3.69450000 1.65670000 -3.04460000
3.71100000 1.82070000 -3.17080000
3.67140000 1.50520000 -2.95980000
3.59360000 2.10050000 -2.68600000
3.62430000 2.21420000 -2.86870000
3.82450000 2.28220000 -3.08590000
4.05610000 2.11920000 -3.07790000
3.97640000 2.16770000 -3.14900000
3.95960000 2.25010000 -3.06810000
3.58700000 2.25340000 -3.00630000
3.48700000 2.29510000 -3.26240000
3.93360000 2.00760000 -3.12920000
3.94400000 2.10440000 -3.18080000
3.78530000 2.03550000 -3.25690000
3.79610000 2.20560000 -3.27320000
3.74770000 2.14440000 -3.32610000
3.28260000 2.28360000 -3.30220000
3.68010000 2.25810000 -3.29600000
3.33680000 2.09670000 -2.94220000
3.20720000 2.13880000 -3.08110000
3.30850000 2.24100000 -3.17950000
2.88470000 2.13310000 -3.20380000
3.62920000 2.12290000 -3.39760000
3.45160000 1.80420000 -3.31230000
3.54120000 2.03220000 -3.39900000
3.48730000 2.28840000 -3.33970000
3.64470000 2.19750000 -3.37900000
3.23640000 2.28150000 -3.45900000
3.49900000 2.24040000 -3.42490000
3.50340000 2.17870000 -3.46170000
3.41250000 2.13390000 -3.50850000
3.37180000 2.26210000 -3.45120000
3.36650000 2.19710000 -3.51390000
1.79330000 0.33350000 -2.80270000
1.24030000 -0.19170000 -2.80730000
1.09250000 0.12100000 -2.84830000
1.31890000 0.73290000 -2.89560000
0.87180000 1.10460000 -2.98210000
0.72060000 0.71650000 -2.93180000
0.80390000 -0.39810000 -2.80270000
0.35940000 0.17770000 -2.88280000
0.32960000 -0.55090000 -2.78660000
0.11230000 0.92280000 -2.96720000
0.78420000 1.00010000 -3.50830000
0.83030000 0.81750000 -3.44830000
0.46730000 1.08080000 -3.49740000
1.01240000 0.40580000 -3.39050000
-0.26680000 0.37400000 -2.89250000
0.80280000 0.00880000 -3.40850000
0.61270000 0.04660000 -3.39110000
0.78030000 0.06280000 -3.37420000
0.56750000 0.13910000 -3.38690000
0.47350000 0.01020000 -3.42730000
0.42260000 0.06150000 -3.39490000
0.49820000 -0.03860000 -3.46970000
0.27790000 0.62630000 -3.44610000
1.34940000 1.70790000 -3.13950000
0.52770000 1.46020000 -3.08610000
1.52010000 1.57880000 -3.07290000
1.34900000 1.31890000 -3.00300000
1.08780000 1.87580000 -3.24240000
0.51070000 1.70980000 -3.18560000
0.10600000 1.22140000 -3.02470000
-0.01540000 1.55520000 -3.12120000
0.57150000 1.99340000 -3.34350000
0.10800000 1.82450000 -3.24460000
0.41180000 2.11320000 -3.45750000
1.16790000 2.05330000 -3.36640000
0.61860000 2.16470000 -3.52800000
-0.08440000 2.05880000 -3.39190000
-0.21400000 1.95270000 -3.30530000
-0.06710000 2.15340000 -3.50530000
0.56850000 2.21830000 -3.74680000
0.17900000 2.22690000 -3.73340000
0.48690000 2.20710000 -3.64400000
0.22210000 2.21260000 -3.79350000
-0.11670000 2.22350000 -3.64610000
0.35980000 2.19120000 -3.81980000
0.21720000 2.15120000 -3.85250000
0.04400000 2.21140000 -3.80840000
-0.46530000 1.20440000 -2.99850000
-0.39310000 1.57820000 -3.11810000
-1.10170000 1.32890000 -2.97690000
-1.13430000 0.94670000 -2.88230000
-0.44670000 0.93610000 -2.94610000
-0.45880000 1.79990000 -3.20520000
-1.05130000 1.87540000 -3.19060000
-0.65730000 2.02070000 -3.32270000
-0.95070000 2.19130000 -3.43560000
-0.49370000 2.13870000 -3.45030000
-1.21100000 1.64880000 -3.06410000
-1.50700000 1.81810000 -3.09900000
-1.03920000 2.08630000 -3.32970000
0.57570000 1.17830000 -3.51400000
0.67310000 1.26760000 -3.54730000
0.68450000 1.06920000 -3.51190000
0.71030000 1.37280000 -3.55310000
0.31980000 1.48870000 -3.57240000
0.00240000 1.37230000 -3.55960000
0.02830000 0.68970000 -3.46750000
0.00990000 1.13250000 -3.52270000
-0.02540000 0.64290000 -3.47970000
-0.05090000 1.28580000 -3.57320000
-0.08050000 1.35750000 -3.61700000
-0.04890000 1.07760000 -3.54270000
-0.07930000 1.08170000 -3.60200000
-0.09370000 1.28690000 -3.72580000
-0.05760000 0.61380000 -3.51360000
-0.08970000 0.93690000 -3.69380000
-0.10950000 1.14250000 -3.79660000
-0.13780000 1.25280000 -3.84780000
-0.16770000 1.16770000 -3.86450000
-0.10940000 0.73760000 -3.76660000
-0.26320000 1.67210000 -3.60000000
0.03900000 1.64920000 -3.61100000
-0.16380000 1.55860000 -3.57180000
-0.18860000 1.88460000 -3.69770000
-0.52230000 2.21900000 -3.56250000
0.81270000 1.62680000 -3.61210000
0.67280000 1.87810000 -3.71990000
0.40870000 1.96480000 -3.75850000
-0.07870000 1.48930000 -3.57510000
-0.05620000 2.00040000 -3.76460000
-0.07270000 2.22870000 -3.78230000
-0.17680000 2.24160000 -3.73960000
-0.06910000 2.19430000 -3.83510000
-0.16220000 2.22650000 -3.80220000
-0.16930000 2.11160000 -3.84490000
-0.02700000 2.15480000 -3.85420000
-0.03960000 2.06640000 -3.83120000
-0.20750000 2.18850000 -3.83730000
-0.14330000 2.15900000 -3.84980000
0.21510000 2.03860000 -3.82050000
0.17340000 2.09530000 -3.85690000
0.01940000 2.11720000 -3.85860000
-0.58980000 2.01840000 -3.73160000
-0.30510000 2.15750000 -3.84100000
-0.34890000 2.08720000 -3.81620000
-0.56120000 1.60720000 -3.56900000
-0.37760000 1.56470000 -3.55900000
-0.11670000 1.43170000 -3.60700000
-0.18880000 1.45980000 -3.58940000
-0.24030000 1.49040000 -3.56540000
-0.37090000 1.48020000 -3.56140000
-0.32870000 1.45120000 -3.60020000
-0.16110000 1.42650000 -3.65600000
-0.27690000 1.43760000 -3.66210000
-0.41740000 1.52590000 -3.55010000
-0.54990000 1.51190000 -3.55050000
-0.50330000 1.47310000 -3.56430000
-0.47330000 1.45400000 -3.59650000
-0.63340000 1.52530000 -3.55200000
-0.75130000 1.49030000 -3.53580000
-0.62760000 1.45240000 -3.58730000
-0.58440000 1.44480000 -3.63540000
-0.47630000 1.43160000 -3.72590000
-0.68440000 1.88600000 -3.66550000
-0.67860000 2.09410000 -3.79080000
-0.94850000 1.71690000 -3.57310000
-0.93990000 1.54220000 -3.52630000
-0.11070000 1.39250000 -3.67070000
-0.15240000 1.39010000 -3.77360000
-0.26280000 1.40930000 -3.79170000
-0.11260000 1.33980000 -3.78260000
-0.19850000 1.35290000 -3.85720000
-0.20540000 1.27700000 -3.88180000
-0.37100000 1.37730000 -3.86760000
-0.40000000 1.33030000 -3.88500000
-0.42310000 1.40460000 -3.83310000
-1.46570000 2.21080000 -3.34470000
-1.42930000 2.09090000 -3.27180000
-1.42740000 2.29390000 -3.45280000
-1.07200000 2.28850000 -3.56230000
-0.55460000 2.25800000 -3.65060000
-0.72180000 2.28820000 -3.69370000
-1.13920000 2.33770000 -3.66510000
-0.94930000 2.31730000 -3.72470000
-1.01560000 2.05270000 -3.71110000
-1.01510000 2.16030000 -3.79430000
-1.13020000 2.22510000 -3.79650000
-0.96660000 2.22890000 -3.80570000
-1.53130000 2.36720000 -3.55770000
-1.15710000 2.34250000 -3.72030000
-1.29100000 2.34850000 -3.74070000
-1.03770000 2.31580000 -3.75970000
-0.92450000 2.28010000 -3.78750000
-1.12270000 2.28990000 -3.78350000
-0.33040000 2.25190000 -3.74170000
-0.47710000 2.25770000 -3.76800000
-0.35510000 2.23570000 -3.80180000
-0.61330000 2.27050000 -3.77430000
-0.57220000 2.21300000 -3.82610000
-0.40830000 2.16710000 -3.83660000
-0.25740000 2.22450000 -3.81060000
-0.70840000 2.28640000 -3.75380000
-0.74070000 2.23750000 -3.81400000
-0.83930000 2.29290000 -3.76780000
-0.57350000 2.14210000 -3.82860000
-0.74570000 2.17140000 -3.82600000
-0.96800000 2.08810000 -3.75670000
-0.90770000 2.12400000 -3.80140000
3.11640000 1.10620000 -2.39870000
3.02880000 1.62280000 -2.74060000
2.89430000 1.42830000 -2.73160000
2.67300000 1.27120000 -2.79990000
3.11230000 1.86360000 -2.87250000
2.94280000 1.76340000 -2.89270000
2.82660000 1.55220000 -2.83500000
2.61930000 1.56310000 -2.91700000
2.76090000 1.77550000 -2.97430000
2.59160000 1.82070000 -3.04770000
2.44550000 1.21400000 -2.85380000
2.88620000 2.00740000 -3.09120000
2.42710000 2.03590000 -3.22560000
2.17450000 1.83030000 -3.12660000
2.30940000 1.63850000 -3.01560000
3.67180000 1.10350000 -2.85690000
3.60140000 1.05030000 -2.92170000
3.56320000 0.92380000 -2.90440000
3.34990000 0.86550000 -3.01010000
3.41700000 1.02910000 -3.05600000
3.52020000 1.20160000 -2.99360000
3.47180000 1.30080000 -3.02110000
3.41660000 1.38720000 -3.08480000
3.38360000 1.51650000 -3.15940000
3.38190000 1.18710000 -3.09300000
3.22980000 1.27400000 -3.16070000
3.12370000 1.38440000 -3.23600000
3.27530000 0.92110000 -3.11000000
3.25270000 0.76330000 -3.02200000
3.18110000 0.79180000 -3.10430000
3.08900000 0.73840000 -3.17200000
3.17630000 0.95500000 -3.17860000
3.24990000 1.14580000 -3.16550000
3.11070000 1.15440000 -3.21260000
3.03250000 1.02040000 -3.24560000
2.83380000 1.23750000 -3.29610000
2.89520000 1.11320000 -3.27640000
3.05600000 1.96120000 -2.98650000
2.98990000 2.20740000 -3.26970000
2.84520000 2.25450000 -3.40590000
3.40700000 1.63430000 -3.21380000
3.25170000 1.96640000 -3.49360000
3.13800000 1.63180000 -3.33390000
3.05990000 1.83860000 -3.49300000
3.02980000 2.28060000 -3.49140000
3.24460000 2.08010000 -3.56120000
3.13960000 2.20650000 -3.58080000
3.24330000 2.14900000 -3.57140000
3.13430000 2.13490000 -3.60870000
2.99660000 2.01570000 -3.60670000
3.04990000 2.09560000 -3.63050000
2.93390000 1.41980000 -3.31620000
2.76670000 1.60010000 -3.42800000
2.64720000 1.38420000 -3.37840000
2.40730000 1.60290000 -3.50860000
2.80920000 1.71820000 -3.48710000
2.70720000 1.90910000 -3.61710000
2.35570000 0.56490000 -2.71140000
2.21800000 0.71700000 -2.78910000
2.25140000 1.12830000 -2.87520000
1.96980000 0.92080000 -2.86650000
1.97990000 1.35850000 -2.96590000
2.14200000 0.92380000 -3.41300000
2.28790000 1.03230000 -3.36220000
2.30340000 0.83470000 -3.33160000
2.20060000 1.04340000 -3.40560000
2.25600000 0.70930000 -3.36450000
2.16010000 1.08610000 -3.45510000
2.09790000 1.10510000 -3.48060000
2.03880000 1.30360000 -3.47460000
2.19670000 1.25550000 -3.45860000
1.98270000 1.17870000 -3.50950000
1.98700000 0.98770000 -3.47700000
1.85020000 1.25070000 -3.52150000
1.78550000 1.35480000 -3.51690000
1.95950000 1.41020000 -3.49330000
1.60440000 1.44270000 -3.54640000
2.92960000 0.83830000 -3.25740000
2.97330000 0.66270000 -3.20850000
2.88590000 0.50660000 -3.17280000
2.73180000 0.40550000 -3.19070000
2.77220000 0.61190000 -3.26540000
2.73990000 1.10740000 -3.34720000
2.73390000 0.83580000 -3.31570000
2.67800000 1.02200000 -3.35900000
2.59140000 0.92160000 -3.33410000
2.57720000 0.43160000 -3.27660000
2.63550000 0.26530000 -3.19550000
2.51810000 0.28460000 -3.26090000
2.54480000 0.59560000 -3.31400000
2.43610000 0.64650000 -3.33160000
2.57670000 0.73700000 -3.31550000
2.39420000 0.97040000 -3.33450000
2.48320000 0.82970000 -3.30320000
2.38370000 0.74920000 -3.31480000
2.23160000 0.59210000 -3.37320000
2.34420000 0.37340000 -3.32020000
2.64670000 1.24000000 -3.36170000
2.50440000 1.22810000 -3.37600000
2.58800000 1.13440000 -3.38590000
2.48710000 1.09410000 -3.37090000
2.29490000 1.23690000 -3.41630000
2.34080000 1.83810000 -3.63750000
1.95680000 1.66490000 -3.58400000
2.25740000 1.39240000 -3.45720000
1.94210000 1.53280000 -3.53300000
2.44290000 2.16630000 -3.35860000
1.99540000 2.07140000 -3.32080000
2.19880000 2.21940000 -3.48430000
1.80160000 2.14420000 -3.41560000
3.12500000 2.25880000 -3.53270000
2.74470000 2.27060000 -3.49020000
2.96810000 2.23370000 -3.59960000
2.87400000 2.26410000 -3.57800000
2.78640000 2.27570000 -3.54580000
2.97490000 2.15810000 -3.64960000
2.90220000 2.09040000 -3.66530000
2.58090000 2.24860000 -3.64600000
2.49670000 2.26630000 -3.60310000
2.24430000 2.25320000 -3.57680000
2.43820000 2.06510000 -3.74410000
2.12280000 1.96530000 -3.71030000
2.58700000 2.13390000 -3.73160000
2.35250000 2.13540000 -3.76860000
2.41020000 2.19960000 -3.72610000
2.27340000 2.24550000 -3.67540000
2.83280000 2.18610000 -3.66510000
2.78260000 2.13630000 -3.69370000
2.68010000 2.08810000 -3.70810000
2.76280000 2.24220000 -3.63090000
2.69110000 2.19800000 -3.68530000
1.92350000 1.89210000 -3.19290000
1.70070000 2.21760000 -3.53720000
1.70110000 2.24710000 -3.63040000
1.89730000 2.24950000 -3.66620000
1.40460000 2.16660000 -3.47540000
1.22830000 2.22880000 -3.63110000
1.10340000 2.19910000 -3.56110000
1.56950000 2.01940000 -3.79560000
1.79650000 2.05810000 -3.80830000
1.58490000 2.24090000 -3.71120000
1.79550000 2.22770000 -3.73380000
1.64530000 2.19010000 -3.78890000
1.72490000 2.15450000 -3.80810000
1.50630000 2.21980000 -3.76080000
1.41550000 2.17200000 -3.81330000
1.66970000 2.08850000 -3.82830000
1.51010000 2.12660000 -3.83580000
1.30750000 1.95140000 -3.75210000
1.53990000 1.79630000 -3.67160000
1.44990000 2.05130000 -3.82750000
1.20720000 2.07640000 -3.84800000
1.38860000 2.23910000 -3.70490000
1.30680000 2.21400000 -3.77170000
1.21180000 2.23190000 -3.72130000
2.20660000 2.07050000 -3.77610000
2.19440000 2.01510000 -3.73990000
2.02300000 2.22500000 -3.72370000
2.11980000 2.19090000 -3.75670000
2.23000000 2.15860000 -3.77300000
2.17090000 2.10890000 -3.78960000
2.05150000 2.13270000 -3.79580000
2.00670000 2.06150000 -3.78980000
1.90460000 2.18000000 -3.77970000
1.90020000 2.10100000 -3.81070000
1.80310000 2.13390000 -3.81460000
2.07250000 0.11460000 -3.27180000
2.33330000 0.10260000 -3.23590000
2.00960000 0.37410000 -3.32300000
2.35270000 0.23490000 -3.27200000
2.04580000 0.53340000 -3.38490000
1.91980000 0.67270000 -3.41770000
1.83050000 0.48700000 -3.35220000
1.72440000 0.60540000 -3.41480000
1.82030000 0.04550000 -3.29980000
1.95880000 0.03280000 -3.28470000
1.69140000 0.15650000 -3.32130000
1.91250000 -0.01360000 -3.32420000
2.17110000 0.00500000 -3.27460000
1.90720000 -0.05910000 -3.38320000
1.67780000 0.05200000 -3.31700000
1.76140000 -0.00250000 -3.33280000
1.69120000 -0.02110000 -3.37050000
1.80140000 -0.12620000 -3.42890000
1.69990000 -0.24790000 -3.44550000
1.62290000 -0.08080000 -3.43710000
1.63360000 0.45550000 -3.36080000
2.10410000 0.83900000 -3.42590000
1.77680000 0.85170000 -3.46570000
1.84370000 0.99890000 -3.47710000
1.61450000 0.70780000 -3.45770000
1.58930000 0.79620000 -3.46760000
1.58350000 0.89220000 -3.45780000
1.70160000 0.92750000 -3.45420000
1.58450000 1.15230000 -3.41830000
1.66370000 1.20800000 -3.45920000
1.61910000 1.10130000 -3.40650000
1.67560000 1.03390000 -3.41590000
1.79510000 1.06240000 -3.46750000
1.73270000 1.16250000 -3.46380000
1.59030000 1.22670000 -3.46680000
1.71350000 1.27670000 -3.51720000
1.58610000 1.28030000 -3.51980000
1.62630000 1.34780000 -3.54540000
1.84530000 1.16810000 -3.51210000
1.57780000 0.99150000 -3.40900000
1.49980000 1.07240000 -3.42330000
1.50320000 0.94450000 -3.44410000
1.42980000 1.01440000 -3.46510000
1.49350000 1.19090000 -3.47510000
1.43350000 1.25260000 -3.55410000
1.39670000 1.12320000 -3.50740000
1.16670000 0.60840000 -3.41710000
1.22360000 0.73770000 -3.48140000
1.43310000 0.61920000 -3.42530000
1.26040000 0.83300000 -3.49950000
1.25910000 0.96200000 -3.50720000
1.34820000 0.97980000 -3.50900000
1.34910000 0.83890000 -3.50240000
1.22300000 1.09560000 -3.55050000
1.30070000 1.12690000 -3.55590000
1.15570000 1.01240000 -3.49510000
1.11860000 1.11420000 -3.54280000
1.03770000 0.80800000 -3.45470000
1.02430000 0.95360000 -3.46170000
0.86520000 0.95640000 -3.48170000
0.97790000 1.05660000 -3.49450000
1.18920000 0.87920000 -3.47520000
1.42770000 0.88340000 -3.48960000
1.38870000 0.06660000 -3.34240000
1.54540000 0.02880000 -3.33650000
1.43940000 -0.00490000 -3.38300000
1.27480000 0.01780000 -3.36960000
1.16520000 -0.04730000 -3.44830000
1.35960000 -0.06850000 -3.45500000
1.24650000 -0.11790000 -3.47430000
1.21550000 0.05100000 -3.35460000
1.06730000 0.08270000 -3.36180000
1.08740000 0.01600000 -3.38270000
1.52390000 -0.36150000 -3.45210000
1.43160000 -0.15810000 -3.46300000
1.26130000 -0.25920000 -3.48050000
1.47350000 -0.47930000 -3.44530000
1.51270000 -0.03010000 -3.41300000
1.20510000 -0.34000000 -3.46430000
1.26640000 -0.47080000 -3.41790000
1.03830000 -0.67910000 -3.39390000
1.23530000 -0.61310000 -3.43220000
0.97570000 -0.49240000 -3.40910000
0.79850000 -0.02250000 -3.44290000
0.97900000 -0.10640000 -3.48350000
0.91900000 -0.17960000 -3.48470000
0.87040000 -0.26040000 -3.48700000
0.78010000 -0.07740000 -3.48070000
0.49010000 -0.10070000 -3.48760000
0.81380000 -0.33480000 -3.46600000
0.93980000 0.69800000 -3.43710000
1.17410000 1.33670000 -3.52970000
0.95060000 1.42360000 -3.55430000
1.42210000 1.47100000 -3.55420000
1.41550000 1.30170000 -3.56730000
1.34640000 1.33030000 -3.55160000
1.11500000 2.01200000 -3.81130000
1.19560000 1.18490000 -3.56230000
1.10140000 1.22700000 -3.53920000
0.93540000 1.32440000 -3.54480000
0.91680000 1.11250000 -3.53540000
0.83790000 1.19050000 -3.57590000
1.00340000 1.17910000 -3.55660000
0.87980000 1.26250000 -3.57190000
0.75560000 1.19550000 -3.56840000
0.77300000 2.21990000 -3.69830000
1.12640000 2.20920000 -3.77700000
1.02520000 2.22960000 -3.71530000
0.87290000 2.22180000 -3.74600000
0.95230000 2.20810000 -3.78320000
1.01100000 2.17980000 -3.81440000
0.77370000 2.20290000 -3.78760000
0.64850000 2.18020000 -3.82100000
0.82340000 1.99520000 -3.80310000
0.93880000 2.04310000 -3.84570000
0.84090000 2.15830000 -3.83460000
0.93310000 2.10850000 -3.85560000
0.75170000 2.12260000 -3.85530000
0.75900000 2.06400000 -3.85860000
1.14950000 2.14830000 -3.83110000
1.24020000 2.11750000 -3.84510000
0.56030000 2.02590000 -3.82820000
0.46760000 2.07340000 -3.85610000
0.61150000 2.10350000 -3.85940000
0.53160000 2.20780000 -3.78710000
0.53170000 2.16670000 -3.83510000
0.41290000 2.12070000 -3.85860000
-1.46950000 -0.66510000 -2.62940000
-1.46780000 -1.03760000 -2.54110000
-0.86840000 -1.02440000 -2.62880000
-1.02020000 -0.54090000 -2.71890000
-1.65920000 -0.09420000 -2.68740000
-1.30530000 0.05090000 -2.75710000
-1.90510000 -0.74600000 -2.52250000
-2.05460000 -0.18920000 -2.59630000
-1.78660000 1.00880000 -2.81840000
-1.76240000 1.49100000 -2.94750000
-2.28230000 1.53230000 -2.85900000
-2.03390000 1.72950000 -2.97440000
-2.41030000 0.38320000 -2.60340000
-2.38860000 -0.22430000 -2.50890000
-2.72640000 1.50460000 -2.74420000
-2.87950000 1.02870000 -2.58680000
-2.33860000 0.96470000 -2.70740000
-2.81490000 0.39280000 -2.50220000
-2.19590000 0.60950000 -2.67220000
-1.69700000 0.43130000 -2.73100000
-1.81720000 0.05520000 -3.18600000
-1.69880000 0.08510000 -3.19130000
-1.77310000 0.01650000 -3.20510000
-1.81840000 0.15420000 -3.21190000
-1.64810000 0.22080000 -3.23300000
-1.92310000 0.09630000 -3.17840000
-1.90580000 -0.00070000 -3.20380000
-1.95740000 0.03950000 -3.16680000
-1.80670000 -0.03280000 -3.25790000
-1.91830000 -0.05680000 -3.25410000
-1.74700000 0.54150000 -3.23920000
-1.90610000 0.46450000 -3.23440000
-1.96730000 0.58720000 -3.21230000
-1.95870000 0.28300000 -3.22100000
-2.17310000 0.39140000 -3.19460000
-1.73770000 0.40710000 -3.27060000
-2.10270000 0.18120000 -3.16060000
-2.22170000 0.08440000 -3.09760000
-1.80050000 0.77280000 -3.25550000
-2.05990000 1.00460000 -3.24820000
-1.68150000 1.01290000 -3.31440000
-1.75760000 1.11090000 -3.34440000
-1.97570000 1.06180000 -3.28810000
-1.87330000 1.10590000 -3.34860000
-1.92340000 1.14490000 -3.37090000
-2.01230000 1.21870000 -3.32820000
-1.88190000 1.22740000 -3.39420000
-1.90450000 1.33710000 -3.36450000
-2.06590000 1.48530000 -3.35850000
-1.88340000 1.46650000 -3.41360000
-2.12420000 1.22430000 -3.28220000
-1.87140000 1.28600000 -3.38750000
-2.27750000 1.33610000 -3.27630000
-2.01810000 1.13770000 -3.31050000
-2.50680000 1.12070000 -3.18020000
-2.18420000 0.83530000 -3.19960000
-2.38890000 0.89890000 -3.18590000
-2.42720000 1.28250000 -3.23710000
-2.75360000 1.18910000 -3.12940000
-2.66900000 1.01090000 -3.13860000
-2.90120000 1.14160000 -3.08920000
-2.85660000 1.03570000 -3.09530000
-2.80270000 0.92660000 -3.12770000
-2.57570000 0.90390000 -3.17550000
-2.41330000 0.65810000 -3.17910000
-2.20710000 0.66170000 -3.20810000
-0.22140000 -0.93580000 -2.69660000
-0.41620000 -0.66830000 -2.74540000
-0.02080000 -0.29830000 -2.82230000
-0.79130000 0.52580000 -2.86350000
-0.76670000 -0.13740000 -2.79780000
-0.71480000 0.04840000 -3.43110000
-0.76070000 0.09930000 -3.37390000
-0.73760000 0.17510000 -3.38410000
0.39900000 -0.49210000 -3.45560000
0.60110000 -0.61570000 -3.40070000
0.56250000 -0.74320000 -3.42280000
0.68560000 -0.58710000 -3.39260000
0.49480000 -0.41530000 -3.43580000
0.64510000 -0.40380000 -3.42830000
0.54620000 -0.32400000 -3.47060000
0.27100000 -0.39870000 -3.48130000
0.45800000 -0.24050000 -3.48370000
0.52990000 -1.04940000 -3.38730000
0.36350000 -0.68530000 -3.44040000
0.56540000 -0.92260000 -3.41360000
0.20500000 -0.69530000 -3.43710000
0.39220000 -0.89390000 -3.39370000
0.26060000 -1.08540000 -3.36830000
0.17370000 -0.91980000 -3.40830000
0.03790000 -0.73990000 -3.45420000
0.06300000 -0.58230000 -3.46820000
-0.02150000 -0.48730000 -3.51150000
-0.02260000 -0.66200000 -3.50850000
-0.07900000 -0.56920000 -3.60500000
-0.03280000 0.16710000 -3.45030000
0.00480000 0.15260000 -3.42280000
0.20700000 0.15450000 -3.39700000
0.22810000 0.04270000 -3.41550000
0.12400000 0.11050000 -3.40190000
0.02020000 0.01810000 -3.45710000
0.11370000 -0.02910000 -3.46940000
0.11940000 -0.11860000 -3.48500000
0.10830000 -0.27210000 -3.48210000
-0.19540000 -0.21230000 -3.46330000
-0.05050000 0.05890000 -3.49820000
-0.05500000 0.28780000 -3.51570000
-0.06010000 0.13210000 -3.62010000
-0.07200000 0.38970000 -3.64700000
-0.08560000 0.20350000 -3.70690000
-0.11330000 0.21880000 -3.74080000
-0.25160000 -0.12700000 -3.47770000
-0.38260000 -0.34720000 -3.45560000
-0.18420000 -0.31050000 -3.46710000
-0.23890000 -0.39510000 -3.48210000
-0.16990000 -0.37200000 -3.47520000
-0.07170000 -0.05090000 -3.48610000
-0.22540000 -0.03940000 -3.49840000
-0.10320000 0.00090000 -3.49720000
-0.22660000 -0.00280000 -3.54960000
-0.39580000 -0.04990000 -3.48400000
-0.65000000 -0.08790000 -3.44670000
-0.56380000 -0.03240000 -3.47910000
-0.42460000 -0.01600000 -3.51730000
-0.50740000 -0.00640000 -3.55650000
-0.46760000 0.00070000 -3.65230000
-0.35300000 0.01190000 -3.69420000
-0.29830000 -0.00260000 -3.65410000
-0.40040000 0.05030000 -3.72860000
0.02440000 -0.41040000 -3.49050000
-0.06120000 -0.39400000 -3.49600000
-0.14610000 -0.44750000 -3.55600000
-0.06750000 -0.50360000 -3.56570000
-0.13140000 -0.48730000 -3.60270000
-0.33030000 -0.45000000 -3.58630000
-0.10800000 0.03400000 -3.54940000
-0.08130000 0.06590000 -3.61750000
-0.10570000 0.08160000 -3.71330000
-0.17420000 0.00740000 -3.62570000
-0.12330000 0.03220000 -3.67780000
-0.20530000 0.02550000 -3.71300000
-0.15510000 0.12780000 -3.75440000
-0.22960000 0.06130000 -3.74250000
-0.27270000 0.15860000 -3.76170000
-0.18710000 0.61400000 -3.81290000
-0.52250000 0.14100000 -3.74510000
-0.79190000 -1.17520000 -3.30550000
-0.86140000 -0.87050000 -3.34390000
-0.71480000 -0.72370000 -3.41000000
-0.69240000 -1.11520000 -3.36490000
-0.98970000 -1.12390000 -3.28180000
-1.03780000 -0.91630000 -3.30510000
-0.83780000 0.14980000 -3.34860000
-0.80610000 0.04370000 -3.37240000
-0.92370000 0.04840000 -3.34200000
-0.76760000 -0.01170000 -3.41830000
-0.95690000 -0.00530000 -3.37510000
-0.87240000 -0.08980000 -3.42070000
-0.75390000 -0.21690000 -3.42400000
-1.24110000 -0.09810000 -3.37820000
-1.02450000 -0.06850000 -3.40180000
-1.03280000 -0.23050000 -3.40120000
-0.76220000 -0.40380000 -3.42620000
-0.93290000 -0.41400000 -3.40280000
-1.54180000 -0.38370000 -3.28200000
-1.20410000 -0.42670000 -3.31840000
-1.49690000 -0.46920000 -3.25320000
-1.29980000 -0.34130000 -3.34940000
-1.65090000 -0.32090000 -3.30430000
-1.45850000 -0.27890000 -3.34070000
-0.82140000 -0.67930000 -3.36760000
-0.77790000 -0.55790000 -3.40360000
-0.95050000 -0.73340000 -3.33330000
-1.07780000 -0.59520000 -3.35220000
-0.94920000 -0.58120000 -3.37820000
-1.16920000 -0.83310000 -3.31740000
-1.39940000 -0.65490000 -3.24620000
-1.07380000 -0.44660000 -3.35090000
-1.23180000 -0.68470000 -3.28480000
-1.29510000 -0.81960000 -3.28730000
-1.15300000 -0.31630000 -3.38220000
-1.40020000 -0.13300000 -3.35330000
0.04640000 -1.18490000 -3.37510000
0.01170000 -0.97020000 -3.43690000
-0.03290000 -0.94680000 -3.50780000
-0.10640000 -0.91410000 -3.60830000
-0.06850000 -1.08150000 -3.56010000
-0.14260000 -1.19230000 -3.57620000
-0.06360000 -0.73340000 -3.58890000
-0.09920000 -0.67730000 -3.62990000
-0.18990000 -0.66360000 -3.65200000
-0.22020000 -1.01310000 -3.60900000
-0.41590000 -0.77090000 -3.63310000
-0.48210000 -1.40510000 -3.52920000
-0.27870000 -1.41270000 -3.53840000
-0.46970000 -1.08200000 -3.58570000
-0.63480000 -1.07850000 -3.51330000
-0.66130000 -0.73170000 -3.48980000
-0.60960000 -0.69310000 -3.58780000
-0.56000000 -0.86550000 -3.59700000
-0.66220000 -1.18160000 -3.42940000
-0.61560000 -1.45810000 -3.46910000
-0.59070000 -0.36690000 -3.44940000
-0.49740000 -0.39620000 -3.47050000
-0.34650000 -0.41340000 -3.50040000
-0.49280000 -0.43600000 -3.53680000
-0.69160000 -0.46340000 -3.43910000
-0.65390000 -0.50260000 -3.47230000
-0.58570000 -0.46520000 -3.53130000
-0.62380000 -0.51570000 -3.54220000
-0.63780000 -0.57840000 -3.54770000
-0.40990000 -0.56390000 -3.65180000
-0.50080000 -0.47870000 -3.61100000
-0.40290000 -0.50230000 -3.64190000
-0.58930000 -0.54720000 -3.60760000
-0.53970000 -0.54720000 -3.63720000
-0.66620000 -0.01990000 -3.45350000
-0.63050000 0.00750000 -3.52200000
-0.68090000 0.05830000 -3.53160000
-0.69420000 0.16450000 -3.49760000
-0.57590000 0.00050000 -3.60550000
-0.62390000 0.02040000 -3.62560000
-0.64830000 0.06740000 -3.66150000
-0.53120000 0.03050000 -3.70150000
-0.58930000 0.08840000 -3.71860000
-0.23840000 -0.49000000 -3.63330000
-0.14900000 -0.56130000 -3.64900000
-0.23480000 -0.54190000 -3.65520000
-0.78640000 0.81150000 -3.44850000
-0.73900000 1.25590000 -3.52990000
-0.70700000 0.78980000 -3.50970000
-1.12350000 0.36920000 -3.32790000
-0.73670000 0.49800000 -3.42590000
-0.69670000 0.35330000 -3.47180000
-1.11780000 1.21610000 -3.45040000
-0.80990000 1.29680000 -3.50570000
-1.34860000 1.91330000 -3.60730000
-1.24310000 1.32310000 -3.45210000
-1.42860000 1.58150000 -3.47840000
-1.42640000 1.08290000 -3.37430000
-1.45430000 1.17420000 -3.41890000
-1.40570000 1.24500000 -3.44300000
-1.25480000 0.81750000 -3.36250000
-1.63020000 1.19510000 -3.39360000
-1.43240000 1.34380000 -3.43260000
-1.60100000 1.54560000 -3.44570000
-1.77480000 1.20660000 -3.41520000
-1.63360000 1.30070000 -3.44900000
-1.75410000 1.26960000 -3.43720000
-1.77000000 1.41430000 -3.45220000
-1.64150000 1.42470000 -3.44870000
-0.14610000 0.71520000 -3.80620000
-0.25520000 1.18280000 -3.88450000
-0.30460000 0.62040000 -3.81930000
-0.47130000 1.20480000 -3.87770000
-0.55550000 0.71520000 -3.81530000
-0.68130000 0.42030000 -3.64300000
-0.68940000 0.96820000 -3.61940000
-0.62340000 0.51920000 -3.76820000
-0.67460000 0.18520000 -3.64640000
-0.65010000 0.34390000 -3.71890000
-0.67410000 0.98030000 -3.74300000
-0.64070000 1.08740000 -3.82400000
-0.68400000 1.42190000 -3.58170000
-0.64050000 1.41380000 -3.68560000
-0.70770000 1.27000000 -3.57250000
-0.67870000 1.33250000 -3.68310000
-0.65850000 1.36120000 -3.75710000
-0.55350000 1.40840000 -3.79680000
-0.53200000 1.37200000 -3.85510000
-0.61870000 1.38930000 -3.79400000
-0.64890000 1.29010000 -3.81440000
-0.56690000 1.30660000 -3.86780000
-0.59470000 1.17970000 -3.85970000
-1.31210000 0.06970000 -3.26320000
-1.07010000 0.13600000 -3.31170000
-1.16810000 0.02440000 -3.30770000
-1.36990000 -0.00780000 -3.29990000
-1.42780000 0.03690000 -3.24600000
-1.53540000 0.08370000 -3.21460000
-1.47070000 0.31140000 -3.25580000
-1.48590000 0.46160000 -3.29740000
-1.51830000 0.58440000 -3.29060000
-1.61950000 0.32550000 -3.27160000
-1.05580000 0.07260000 -3.31230000
-1.21690000 -0.04360000 -3.36170000
-1.63590000 0.01470000 -3.22120000
-1.61100000 -0.03100000 -3.28090000
-1.46870000 -0.06000000 -3.33080000
-1.75990000 -0.08760000 -3.29540000
-1.66000000 -0.13800000 -3.30870000
-1.60660000 -0.21870000 -3.31240000
-2.37060000 -1.70240000 -1.99310000
-2.40070000 -1.41490000 -2.13820000
-2.10850000 -1.73110000 -2.09070000
-1.86660000 -1.67640000 -2.21980000
-2.04240000 -1.50380000 -2.25050000
-2.25190000 -1.20250000 -2.28410000
-2.70200000 -0.89600000 -2.20360000
-2.79530000 -0.40290000 -2.32690000
-2.34360000 -0.75870000 -2.39240000
-1.93910000 -1.11690000 -2.41270000
-1.65040000 -1.40150000 -2.39300000
-1.75120000 -1.61170000 -2.97160000
-1.88690000 -1.70420000 -2.87020000
-1.98680000 -1.59240000 -2.88430000
-1.91340000 -1.46550000 -2.98910000
-2.04290000 -1.49380000 -2.93720000
-2.21210000 -1.38070000 -2.95360000
-1.72740000 -1.51960000 -3.03720000
-1.70310000 -1.80730000 -2.93760000
-1.84950000 -1.40230000 -3.05490000
-2.05710000 -1.26940000 -3.04020000
-1.47220000 -1.49560000 -3.10270000
-1.61860000 -1.35030000 -3.08490000
-1.94220000 -0.51110000 -3.19930000
-1.73240000 -0.64080000 -3.20860000
-1.93730000 -0.65920000 -3.20830000
-2.10650000 -0.54130000 -3.19840000
-2.53620000 -0.86410000 -2.94180000
-2.61900000 -0.77790000 -2.94030000
-2.47560000 -0.72410000 -2.98110000
-2.18850000 -0.93620000 -3.03930000
-2.30860000 -0.99340000 -2.99370000
-2.56100000 -1.01360000 -2.93500000
-2.19340000 -1.15120000 -3.02440000
-2.33110000 -0.68760000 -3.04160000
-2.50890000 -0.62550000 -3.01750000
-1.94140000 -0.96430000 -3.15940000
-1.85380000 -0.83040000 -3.20480000
-1.82890000 -0.96270000 -3.17740000
-1.79110000 -1.04270000 -3.12920000
-1.86860000 -1.13860000 -3.08110000
-2.05150000 -1.00240000 -3.09720000
-2.04520000 -1.15790000 -3.04680000
-2.03000000 -0.78390000 -3.16040000
-2.07850000 -0.88260000 -3.12730000
-2.16810000 -0.75660000 -3.09240000
-2.14900000 -0.65370000 -3.15620000
-2.72450000 -2.34330000 -2.26150000
-2.87540000 -2.33300000 -2.27650000
-2.75300000 -2.30300000 -2.30310000
-2.83620000 -2.05720000 -2.48900000
-3.03370000 -2.19250000 -2.31040000
-3.18320000 -1.98690000 -2.32980000
-3.25200000 -1.81090000 -2.38600000
-3.03220000 -1.84810000 -2.48070000
-2.74580000 -1.73570000 -2.65880000
-2.51750000 -2.11160000 -2.60280000
-2.44430000 -2.24980000 -2.49150000
-2.61310000 -2.20850000 -2.48180000
-2.82080000 -2.22770000 -2.40000000
-3.03370000 -1.54630000 -2.62280000
-3.15890000 -1.60600000 -2.53180000
-2.79270000 -0.91590000 -2.85600000
-2.88760000 -0.84870000 -2.82590000
-2.72780000 -0.79950000 -2.91440000
-2.82380000 -0.77140000 -2.89600000
-3.09590000 -0.95070000 -2.72150000
-2.92670000 -1.17720000 -2.78590000
-3.18760000 -1.16620000 -2.68110000
-3.04110000 -1.05980000 -2.76770000
-3.26940000 -1.05450000 -2.64930000
-2.75680000 -1.04150000 -2.87950000
-2.70080000 -1.30880000 -2.81980000
-3.21340000 -0.64030000 -2.70900000
-3.22820000 -1.68610000 -2.43320000
-3.23120000 -1.45970000 -2.56560000
-3.33790000 -0.94510000 -2.61280000
-3.46530000 -1.09360000 -2.54730000
-3.46730000 -0.93490000 -2.57200000
-2.57300000 -1.70410000 -2.72070000
-2.26560000 -2.16810000 -2.65840000
-2.25620000 -2.06420000 -2.69790000
-2.26090000 -1.94770000 -2.72680000
-2.06830000 -1.87350000 -2.77760000
-2.25400000 -1.84120000 -2.76940000
-2.16040000 -1.69860000 -2.84600000
-2.03990000 -1.70880000 -2.82940000
-2.22960000 -1.48940000 -2.92760000
-2.25470000 -1.71350000 -2.84240000
-2.39200000 -1.76670000 -2.76720000
-2.54620000 -1.58270000 -2.78520000
-2.34830000 -1.67300000 -2.84450000
-2.51590000 -1.48280000 -2.85580000
-2.38790000 -1.49870000 -2.89470000
-1.74720000 -1.98460000 -2.86030000
-2.55600000 -1.23730000 -2.89910000
-2.35040000 -1.24450000 -2.96280000
-2.41940000 -1.12620000 -2.98000000
-2.53470000 -1.35190000 -2.88680000
-2.63860000 -0.67110000 -2.99050000
-3.02770000 0.29810000 -2.40810000
-2.72600000 -0.09370000 -2.43750000
-2.88690000 0.11710000 -2.89850000
-2.74180000 0.18610000 -2.93630000
-2.63200000 0.09680000 -2.97530000
-3.19760000 0.06120000 -2.78630000
-3.00420000 0.13690000 -2.88930000
-3.11610000 0.01080000 -2.83620000
-2.70960000 0.02260000 -2.96840000
-2.93670000 -0.03750000 -2.93610000
-3.31850000 0.03030000 -2.71890000
-3.14200000 -0.07440000 -2.87320000
-3.38810000 -0.03630000 -2.73630000
-3.40060000 -0.10690000 -2.76220000
-3.27020000 -0.18530000 -2.81470000
-3.05800000 -0.36830000 -2.87060000
-3.25090000 -0.31640000 -2.81030000
-2.89760000 -0.30720000 -2.97030000
-2.97190000 -0.11860000 -2.94990000
-2.70530000 -0.21010000 -3.03900000
-3.13880000 0.44160000 -2.84000000
-3.04190000 0.45990000 -2.91780000
-3.06140000 0.33750000 -2.87460000
-3.13590000 0.52670000 -2.90250000
-2.85540000 0.22940000 -2.93650000
-2.75590000 0.28350000 -2.97170000
-2.81510000 0.33300000 -2.99380000
-2.97670000 0.35880000 -2.94370000
-2.92110000 0.45740000 -2.99080000
-3.21980000 0.66170000 -2.94530000
-3.46260000 0.69170000 -2.85120000
-3.31040000 0.94760000 -2.98750000
-3.10370000 0.59730000 -2.96320000
-2.59000000 0.37250000 -3.06800000
-2.68870000 0.61110000 -3.10720000
-2.98900000 0.89930000 -3.07970000
-3.43430000 0.38730000 -2.73200000
-3.36640000 0.44120000 -2.80500000
-3.30110000 0.21070000 -2.77380000
-3.27750000 0.38080000 -2.81760000
-3.49120000 0.33730000 -2.66830000
-3.61750000 0.57230000 -2.68420000
-3.53450000 0.53510000 -2.68630000
-3.42780000 0.53410000 -2.76200000
-3.45080000 0.58380000 -2.75720000
-3.41180000 0.63450000 -2.82960000
-3.63480000 0.61760000 -2.73040000
-3.33980000 0.59590000 -2.85150000
-3.29480000 0.52890000 -2.86270000
-3.16790000 0.33660000 -2.82220000
-3.04580000 0.23730000 -2.89330000
-3.17140000 0.18610000 -2.83310000
-3.22200000 0.45830000 -2.83580000
-2.60570000 0.18510000 -2.98840000
-2.61860000 0.27200000 -3.02270000
-2.29850000 0.04480000 -3.08170000
-2.54980000 -0.01890000 -3.05710000
-2.09490000 0.00920000 -3.15150000
-2.15660000 -0.02310000 -3.16920000
-2.11080000 -0.08400000 -3.22030000
-1.93550000 -0.12100000 -3.26020000
-2.03230000 -0.19440000 -3.22520000
-2.28260000 -0.14150000 -3.17440000
-2.27710000 -0.32970000 -3.17350000
-2.10960000 -0.40310000 -3.20430000
-1.96060000 -0.30050000 -3.25110000
-1.94200000 -0.37220000 -3.23140000
-1.83880000 -0.45760000 -3.20600000
-2.40690000 -0.05960000 -3.13290000
-2.48500000 -0.10140000 -3.12210000
-2.52170000 -0.32830000 -3.10640000
-2.61110000 -0.52560000 -3.04560000
-2.75480000 -0.52370000 -2.99800000
-2.86490000 -0.44220000 -2.93530000
-2.84490000 -0.53980000 -2.94470000
-2.40420000 -0.51670000 -3.12030000
-2.38920000 -0.56870000 -3.10310000
-2.75310000 -0.08780000 -3.03180000
-3.02130000 1.04860000 -3.09140000
-3.55780000 -0.20260000 -2.66040000
-3.27570000 -0.44620000 -2.71310000
-2.94520000 -0.70000000 -2.84340000
-2.96280000 -0.54250000 -2.85320000
-2.82690000 -0.66010000 -2.94480000
-2.74020000 -0.70230000 -2.97270000
-1.20010000 -1.50460000 -3.13050000
-1.17700000 -1.63540000 -3.13050000
-1.05430000 -1.48750000 -3.17180000
-1.50460000 -1.30650000 -3.10940000
-1.57110000 -1.20320000 -3.12690000
-1.47270000 -1.19530000 -3.17360000
-1.39510000 -1.20130000 -3.18270000
-1.31670000 -1.35800000 -3.12290000
-1.11820000 -1.23870000 -3.18410000
-1.11420000 -1.42090000 -3.14500000
-1.21530000 -1.18300000 -3.18830000
-1.26910000 -1.11370000 -3.24330000
-1.01290000 -1.29610000 -3.21290000
-0.93560000 -1.47220000 -3.21680000
-0.71470000 -1.50390000 -3.26040000
-0.80340000 -1.47110000 -3.23940000
-0.90770000 -1.31060000 -3.25890000
-1.12430000 -1.05840000 -3.27770000
-1.38500000 -1.71430000 -3.05060000
-1.55820000 -1.76950000 -3.00200000
-1.50050000 -1.56220000 -3.08770000
-1.63790000 -0.83530000 -3.18870000
-1.46320000 -0.84710000 -3.22070000
-1.39690000 -0.93020000 -3.26910000
-1.53010000 -1.12000000 -3.17950000
-1.63360000 -1.01090000 -3.15550000
-1.52580000 -1.01730000 -3.20190000
-1.70520000 -0.95040000 -3.16560000
-1.76940000 -0.82930000 -3.20250000
-1.42890000 -1.08830000 -3.24450000
-1.31440000 -1.05020000 -3.27390000
-2.44160000 1.95510000 -2.98140000
-2.61270000 2.22690000 -3.06220000
-2.79330000 1.93320000 -2.87290000
-2.94960000 2.34770000 -2.99110000
-2.70210000 2.50960000 -3.19790000
-3.06230000 2.50090000 -3.02560000
-2.98310000 2.66260000 -3.20540000
-2.99760000 2.75810000 -3.33410000
-1.90690000 1.95440000 -3.09750000
-2.02310000 2.14850000 -3.17270000
-2.04300000 2.30950000 -3.27150000
-2.33310000 2.33890000 -3.20450000
-2.24880000 2.45360000 -3.35220000
-1.70780000 2.29930000 -3.36330000
-1.99970000 2.42730000 -3.44130000
-1.93400000 1.58850000 -3.44780000
-2.09940000 1.68480000 -3.43190000
-1.96940000 1.68300000 -3.44460000
-2.20710000 1.78950000 -3.40710000
-1.88520000 1.76810000 -3.45670000
-2.12010000 2.02500000 -3.51470000
-2.42050000 1.86970000 -3.37800000
-2.53250000 2.53460000 -3.31550000
-2.74060000 2.70240000 -3.45450000
-2.63790000 2.67800000 -3.54920000
-2.89780000 2.76390000 -3.48220000
-2.86610000 2.73700000 -3.53900000
-2.26490000 2.55630000 -3.53850000
-2.32890000 2.57880000 -3.59960000
-2.48200000 2.63010000 -3.53630000
-1.93240000 2.47330000 -3.56860000
-2.15520000 2.53690000 -3.61280000
-2.22450000 2.52960000 -3.65900000
-2.30020000 2.47590000 -3.70480000
-2.39830000 2.55640000 -3.65870000
-2.26560000 2.23750000 -3.57570000
-2.69010000 2.34620000 -3.50680000
-2.33700000 2.32440000 -3.63490000
-2.50780000 2.12450000 -3.45340000
-2.30620000 2.40180000 -3.71080000
-2.17540000 2.36240000 -3.71880000
-2.46170000 2.48680000 -3.69670000
-2.70650000 2.44150000 -3.61360000
-2.47740000 2.43530000 -3.69000000
-2.42170000 2.37890000 -3.67030000
-2.46240000 2.61920000 -3.59310000
-2.57610000 2.63160000 -3.61250000
-2.76750000 2.59230000 -3.63490000
-2.55940000 2.57220000 -3.65730000
-2.61490000 2.49040000 -3.67060000
-2.87590000 2.69350000 -3.58310000
-3.03470000 1.87550000 -2.76470000
-3.03830000 2.12130000 -2.85030000
-3.05530000 1.52060000 -2.64730000
-3.50690000 1.61390000 -2.97210000
-3.43800000 1.67150000 -3.01930000
-3.38160000 1.52280000 -2.98560000
-3.54450000 1.68370000 -3.01040000
-2.99510000 1.26870000 -3.08370000
-2.98160000 1.46750000 -3.12430000
-3.13270000 1.25690000 -3.07980000
-3.06080000 1.40620000 -3.10810000
-3.15210000 1.41450000 -3.12150000
-3.19130000 1.74220000 -3.14880000
-3.11930000 1.84140000 -3.16410000
-2.74150000 1.43950000 -3.18260000
-3.12180000 1.57190000 -3.14030000
-3.29710000 1.83920000 -3.13440000
-3.27770000 1.43800000 -3.04290000
-3.31370000 1.57950000 -3.05520000
-3.23440000 1.56240000 -3.12590000
-3.32060000 1.74080000 -3.14530000
-3.35080000 1.68400000 -3.09540000
-3.48560000 1.73610000 -3.08410000
-3.36240000 2.66890000 -2.98190000
-3.68340000 1.90570000 -3.00050000
-3.59850000 2.02420000 -3.04750000
-3.47050000 1.90170000 -3.08120000
-3.65380000 1.78500000 -3.04370000
-3.50250000 1.82730000 -3.09630000
-3.35530000 1.97760000 -3.12370000
-3.33000000 2.22480000 -3.21140000
-2.91990000 1.98410000 -3.26750000
-3.43420000 1.78840000 -3.11880000
-3.40370000 2.45090000 -3.26250000
-2.60700000 1.48470000 -3.26250000
-2.56890000 1.67250000 -3.28380000
-2.56650000 1.60100000 -3.28680000
-2.52380000 1.41720000 -3.30280000
-2.49290000 1.55900000 -3.33990000
-2.23170000 1.52600000 -3.34970000
-2.37090000 1.70190000 -3.36650000
-2.35580000 1.63700000 -3.38780000
-2.25650000 1.63020000 -3.40910000
-2.10240000 1.60830000 -3.42090000
-2.34730000 1.48880000 -3.33640000
-2.35590000 1.38600000 -3.29840000
-2.46000000 1.35620000 -3.28700000
-2.43390000 1.50510000 -3.34740000
-2.64020000 1.38950000 -3.21640000
-2.57910000 1.30300000 -3.20930000
-2.88420000 2.24190000 -3.38140000
-2.99020000 2.42630000 -3.43870000
-2.77280000 2.41680000 -3.54310000
-3.04850000 2.51380000 -3.50690000
-2.90840000 2.53540000 -3.60080000
-3.13540000 2.73140000 -3.55360000
-2.95250000 2.60870000 -3.60450000
-3.30440000 2.57540000 -3.40950000
-3.37680000 2.53240000 -3.32220000
-3.36580000 2.65570000 -3.46730000
-3.21400000 2.66450000 -3.54010000
-3.43530000 2.92460000 -3.24500000
-3.67740000 3.00410000 -3.18310000
-3.91340000 3.06390000 -3.12910000
-3.92150000 3.05490000 -3.20090000
-3.73830000 3.02810000 -3.22700000
-3.73390000 2.99720000 -3.30940000
-3.93500000 3.01710000 -3.25190000
-3.83330000 2.95110000 -3.32040000
-3.50000000 2.96410000 -3.28380000
-3.56320000 2.97840000 -3.32810000
-3.44750000 2.92000000 -3.41660000
-3.17440000 2.85980000 -3.41290000
-3.23910000 2.85210000 -3.48260000
-3.32540000 2.90440000 -3.41220000
-3.20050000 2.80820000 -3.51510000
-3.60400000 2.91900000 -3.40340000
-3.68480000 2.85410000 -3.39350000
-3.33100000 2.76870000 -3.51460000
-3.43310000 2.85510000 -3.46900000
-3.50260000 2.74930000 -3.45250000
-3.81210000 2.69600000 -3.19140000
-3.79490000 2.75590000 -3.28140000
-3.91760000 2.82800000 -3.27750000
-3.97650000 2.91500000 -3.27310000
-3.11000000 2.82850000 -3.48170000
-1.73800000 1.91810000 -3.54880000
-1.24920000 2.04790000 -3.67190000
-1.59630000 2.41170000 -3.64520000
-1.74160000 2.44090000 -3.61210000
-1.70820000 2.43450000 -3.67240000
-1.41040000 2.37880000 -3.67220000
-1.50290000 2.39110000 -3.70140000
-1.65060000 2.40320000 -3.72010000
-1.69790000 2.12280000 -3.64430000
-1.69560000 2.33260000 -3.77170000
-1.76040000 2.38340000 -3.75040000
-1.50170000 2.35440000 -3.75830000
-1.83940000 2.33460000 -3.76180000
-1.68710000 2.25860000 -3.76380000
-1.33120000 2.15680000 -3.73650000
-1.37300000 2.21390000 -3.77290000
-1.28240000 2.28900000 -3.78440000
-1.47680000 2.29310000 -3.78110000
-1.65630000 2.19360000 -3.71480000
-1.82630000 1.65230000 -3.45210000
-1.85890000 2.23380000 -3.69630000
-1.94750000 2.32700000 -3.74710000
-1.95680000 2.48670000 -3.64390000
-1.81840000 2.43260000 -3.71190000
-1.97730000 2.42020000 -3.73300000
-2.00490000 2.47610000 -3.68600000
-2.08430000 2.40000000 -3.73820000
-2.05340000 2.31440000 -3.71860000
-2.15120000 2.47270000 -3.70350000
-2.19610000 2.42970000 -3.72390000
-3.53660000 1.28290000 -2.87720000
-3.34600000 1.34220000 -2.97190000
-3.36760000 1.26970000 -2.96520000
-3.37020000 1.19420000 -2.99270000
-3.66540000 1.52490000 -2.95910000
-3.74040000 1.66110000 -2.98350000
-3.65620000 1.61200000 -2.97800000
-3.47140000 1.43550000 -2.93220000
-3.59390000 1.37670000 -2.87750000
-3.55380000 1.48470000 -2.93330000
-3.64890000 1.42860000 -2.90870000
-3.71110000 1.46740000 -2.93400000
-3.75320000 1.41680000 -2.86300000
-3.79970000 1.52470000 -2.92340000
-3.25420000 1.28070000 -3.05260000
-3.18020000 1.08290000 -3.06880000
-3.21090000 1.27860000 -3.07790000
