1.96105200 -2.73966600 -0.74786400
2.83490400 8.67043300 0.47100800
-1.74209800 -12.94329600 4.11532600
-4.43510600 15.12161300 -5.91980000
-1.93617500 11.15051300 3.06298800
2.09210200 -9.56013400 2.06039400
0.30115300 6.55045300 -1.24298100
4.03891800 14.31572000 4.09997600
2.44224200 -15.75379900 -2.84201000
-3.55006400 11.77139300 0.33679200
-2.00500900 7.62534300 1.61779800
-1.22690200 -6.04148500 2.67746000
2.33808500 7.74545300 1.24047900
-3.21700700 10.49736000 -0.75756800
-1.26978000 14.03002900 -5.34503200
-2.04134800 7.10089100 1.63806200
2.82558800 -16.22460200 4.76944000
0.11225900 -14.36032100 -3.14080800
-3.03472500 9.68451700 -0.10296600
7.41993700 16.12214700 4.34967000
-1.46711400 7.07373000 2.08239700
0.19287100 -12.84598400 3.88848900
2.00650400 -0.98233800 1.12683100
8.07406600 15.96078500 -1.48510700
1.88441800 6.78612500 -0.52960200
4.21851700 -14.62366100 -1.60476700
-1.27333800 -9.34744600 2.65228300
0.24052000 2.14311200 2.57757600
-1.89089500 0.24134800 0.80792200
-4.53335200 13.21678200 0.17034900
2.82565700 -12.21399700 -0.05795300
-1.77583700 -10.08923400 2.36108400
0.11084900 12.85441600 4.17529300
-4.17226400 -15.90320600 3.00894200
-0.87504000 -1.06681400 2.65033000
-1.97779100 2.15930900 0.51861600
-1.37671600 8.71572900 2.43273900
-8.13836700 15.96614100 2.79425000
-0.32132400 7.51179500 0.56347700
-1.81818400 -4.44888300 -0.49224900
3.32570300 14.44570900 4.41082800
1.82033700 1.20592500 1.72729500
3.10775000 -15.41881600 -2.61914100
4.55150600 14.99824500 4.31109600
-0.64357100 0.98841900 2.37542700
2.13653600 2.62945600 0.49035600
5.22714600 13.80346700 0.54852300
0.46131800 11.96386700 3.89086900
3.75535200 -15.69609100 -1.62771600
2.10733400 2.49945100 0.92559800
-0.05133200 11.59140800 -3.32812500
-1.28017800 1.55987500 1.90570100
4.70506300 13.23216200 0.39019800
2.33259600 -14.45230500 -2.20639000
1.64383300 -8.54338500 -0.76043700
-0.28043400 12.18974300 -3.71850600
-7.74733700 15.64732400 1.59289600
-0.05421500 5.03714000 2.48272700
3.93634000 -15.67007100 -1.03930700
3.12012100 11.54986600 -0.96777300
-8.40725700 15.79756200 -1.12591600
-6.38797800 14.52462800 -3.22033700
-0.68274800 6.79258000 1.31237800
-0.59356500 -14.49263800 -2.96209700
-2.34209900 13.85925300 -4.75122100
1.98043800 9.20993000 2.35534700
0.33455100 14.35910000 5.66406300
-1.72781400 2.94514500 -0.41137700
2.25095600 8.76744100 1.32519500
3.69337100 -14.61371200 3.26660200
-0.12230300 -10.41909800 -1.60314900
0.97237600 -1.11450200 -1.15753200
-0.36558800 5.75383000 -1.50128200
6.10630400 14.79594400 -0.00732400
-4.20493300 -15.02339600 -0.34133900
-1.99855300 7.22014600 -0.98162800
-1.14160300 -9.07607700 -1.07403600
-1.08361100 16.27594000 8.48126200
0.64661200 -14.84087400 5.43557700
-1.94153000 -9.90090000 -0.48858600
-0.08395800 10.13732900 3.02917500
4.61131700 14.70726000 -3.73144500
-0.80359900 -15.76776100 -3.52099600
-2.79578200 15.01182600 5.67419400
-1.68096800 -8.27202100 -0.46728500
1.59496700 -8.83966000 2.54684400
4.54135100 -14.49834800 1.74359100
4.00746900 14.98721300 -6.60607900
1.74863400 15.98852500 8.39758300
3.11040500 14.32418800 -5.56939700
-1.64653700 12.74221800 4.01391600
0.53516200 -8.56194100 3.05926500
-5.03064300 14.16757200 2.05792200
4.66457700 -14.96398200 2.56213400
-4.21622500 -16.02930800 1.08996600
0.97555200 13.37445100 -4.47601300
-0.95371700 6.30858600 2.06353800
-3.70925300 12.73941000 1.73822000
-3.67410500 12.13165300 -1.88085900
1.65554800 8.61655400 -1.86254900
2.13343400 12.13757300 -2.85961900
-6.32070500 15.24888600 4.22857700
1.71017800 8.10587300 -1.69818100
2.63063400 12.16340600 -2.40496800
-2.87006200 14.77308700 6.05816700
2.17910800 8.60438500 -1.28399700
1.37992100 14.01699800 5.19262700
0.57479900 7.22526600 1.06439200
-2.19250100 9.75441000 1.69128400
3.10835300 -13.51869200 0.84704600
-5.87995100 15.34263600 -6.19696000
3.06482700 10.30268900 1.28356900
8.21920800 15.64239500 2.37182600
1.42018700 15.49354600 -8.41363500
-8.39337200 15.58647200 -1.71972700
-2.78105700 14.44447300 5.44366500
2.99439600 10.71514900 1.64154100
4.42958100 -15.76094400 -0.71527100
-8.40280900 15.27859500 -1.24755900
-1.13324000 14.56295800 -6.61364700
-1.86188100 -14.52403600 -2.53088400
-2.38384400 -13.54763000 2.56771900
4.44478600 -15.94847500 -0.86669900
-3.59177000 -13.34069800 -0.79126000
1.26563300 -15.70776700 5.11303700
-4.97082900 13.44903600 0.78112800
-1.87688000 -14.60884100 -2.71643100
-0.20608900 -9.48068800 -1.49798600
2.34460800 12.76129200 -3.21380600
1.07146500 12.35922200 -3.93029800
-4.36565000 12.77815200 0.76556400
-1.13359700 -2.41462300 3.10076900
3.94371800 12.53216600 0.60211200
3.12791800 -12.29353700 0.19155900
-4.23761700 14.95811500 -6.48449700
-6.83031500 15.56604000 5.18377700
1.07941600 -13.94538500 4.72760000
3.44082600 11.78103600 -0.35754400
0.84052100 -3.30462600 2.89691200
3.27268600 -15.98590500 4.41436800
-3.37625900 11.82095300 1.66711400
2.17338200 -13.38831100 3.88696300
3.15370200 -14.57056000 -2.26989700
-6.71896400 15.55192600 -4.71789600
2.21010600 -4.27582200 -0.05645800
2.86787000 16.18800400 7.57214400
-1.18683400 -12.77662500 3.90939300
1.64717100 -12.60731100 3.68167100
4.16318500 -14.54847300 -0.92889400
1.38559900 15.96060200 7.52545200
-3.48765100 -14.60961200 3.98764000
1.59399800 -13.05151200 3.70947300
-5.46465300 14.19622800 -1.57641600
2.19466400 -10.23345200 -0.43014500
0.99426700 8.68681300 2.53430200
-2.95340300 -15.00260900 4.10299700
-1.52563800 -13.22437700 4.33920300
-4.94841400 13.66319300 -0.32708700
1.52731700 -0.95496400 1.92199700
-1.49735100 -2.66543400 -0.89447000
1.74380700 6.07975800 1.00714100
1.26654400 10.18058800 2.82226600
1.09940000 5.88324000 -1.58154300
-0.67503200 -1.71083500 -1.38000500
1.63972900 -7.93013700 2.21456900
2.47488400 8.82656900 1.32037400
-1.59336000 -14.77153400 5.16546600
1.06473000 -0.53402700 2.29113800
2.59059100 -14.13849300 -2.05715900
-1.71667100 6.01699100 -0.66320800
-3.39005800 -16.29677600 -1.93115200
2.11441800 -7.59487200 1.39242600
2.48306700 8.09274300 0.74987800
4.18507400 15.28137200 -5.70513900
-3.03640000 -12.78274500 0.85546900
1.43200700 -14.61751900 5.41708400
2.44686100 -3.55662200 0.78356900
-2.20595000 -9.42232900 0.04412800
2.39733100 8.41394000 -0.53564500
1.19556000 -14.73086500 -3.64544700
2.51944700 -4.65449500 0.62200900
4.10629700 -13.80483600 2.70144700
-7.70410200 15.21565200 1.47473100
1.64785000 -13.52632900 -1.71835300
-2.91796200 -14.96058700 -2.64477500
8.02088900 15.97700500 -3.07257100
0.70170400 -6.98935200 2.68457000
4.39158200 -14.07909400 2.98999000
1.38279700 -13.88332000 -2.07601900
-0.20714200 9.25876600 -2.33935500
-3.19254100 -13.70519300 -0.10165400
0.54847300 -12.33923500 3.69323700
-1.60858600 8.06120300 2.15130600
-3.10181300 -13.58692200 1.33731100
3.99413700 -14.31115300 2.87060500
1.64363500 -12.10025000 3.22039800
0.89783300 -13.87422600 -2.63040200
1.63661400 6.44821200 0.69824200
1.46768400 10.38871000 -2.55157500
4.68737800 -16.10995100 1.71807900
1.15296200 -12.58756800 3.89614900
2.02423100 -14.64901700 -2.99975600
1.40981700 6.83889000 0.59326200
2.77443300 -4.97561500 1.76281700
-2.26114700 8.89851400 1.47320600
-2.37679100 8.65052000 -0.47906500
-0.24723500 8.00735500 -0.27691700
2.05294800 -14.18666100 -3.78985600
-1.01725100 0.47603600 2.18103000
-3.42025600 11.15376300 -1.18615700
1.45228200 11.71012900 3.58740200
-0.13118700 7.92097500 0.19018600
-0.95517100 -15.93769500 5.04440300
1.78203200 -14.52405500 -3.06912200
-3.17209800 11.63031000 -2.17193600
4.60329800 15.65446500 -6.42926000
2.19609600 5.80738800 0.85882600
1.50592800 -4.59355500 2.71490500
-2.18642100 -4.53085300 0.45788600
-2.19454900 8.38235500 -1.40557900
2.00128000 4.55489300 -0.33514400
4.42752100 -15.28925300 2.53375200
-2.28327500 -5.21819000 0.43920900
4.66887700 14.71995500 -4.57269300
-1.39628400 7.20468100 -1.77954100
-2.10581100 11.41844900 -2.64318800
2.20071000 5.87020100 -0.07031300
-2.67766600 -15.88859600 -2.57382200
3.43691300 13.62493900 -3.59075900
-1.08232500 -4.95385800 -1.23883100
-1.53718000 6.93811000 -1.47064200
-1.28842900 11.22353400 -2.95806900
-5.45311000 14.91445900 3.43530300
1.99829300 4.48230700 -0.15612800
3.94905100 14.61189300 -5.07263200
-0.80035200 -4.71911100 -1.44860800
1.40736000 -14.18358200 4.27368200
2.03897700 6.82690400 0.07983400
2.16565700 -7.90218800 0.29962200
-1.98343700 -8.69170600 1.73901400
-1.03712200 15.29795800 -7.62225300
1.05342700 -0.53768200 -1.19036900
-0.98804200 6.97481500 -0.50317400
2.23173100 -15.52444800 4.81051600
2.38436900 -8.97840000 1.09994500
0.14620700 15.58787500 -8.28595000
-1.76644100 -8.46855700 2.08395400
2.35552600 -3.66738500 0.42541500
-1.66980100 -12.31089800 -1.39074700
5.09812900 14.43092300 2.50610400
2.20894200 -8.91006500 0.04296900
2.06502900 8.73426100 -0.92468300
2.38739000 -2.71534000 0.44671600
2.33552200 -11.52199600 -0.55596900
-0.71658900 -12.45829800 -1.99841300
1.95595600 -9.29269200 -0.64794900
-4.42147100 14.01298500 3.32458500
-1.39419900 -10.21953400 3.34335300
4.39438600 -14.74430500 -1.40921000
2.80852500 -11.90255400 0.07132000
-2.00588400 -13.42188500 -1.37758400
-1.24290700 -13.44019700 -2.29037500
-3.29244300 -13.34344100 -1.10195900
7.40406800 15.32142600 -2.49780300
0.34034400 8.51338200 2.89282200
1.72846000 5.79952200 -1.11572300
3.37612900 11.54573100 -1.01477100
-0.81411500 -13.18560400 -2.15365600
3.00966300 -16.01788300 -2.15393100
1.58958800 8.77995300 -1.87146000
4.42785600 12.90676900 1.17657500
2.42744400 -12.61361700 -0.96664400
-4.30152700 -14.71096000 2.76834100
5.51900900 15.55676300 -6.50805700
0.88705300 8.65766100 -2.20636000
3.69250100 -15.03329100 -1.63174400
4.63074100 13.44764700 1.98303200
3.11172100 -15.87954700 -2.04602100
0.84947600 8.47568500 -2.30432100
-1.22179100 13.40879800 -4.59838900
3.77710700 -14.95760700 -1.96994000
1.31745700 8.10617100 2.45867900
2.45193500 -12.37272500 2.75470000
2.48221200 -10.78202100 1.84359700
-0.22036400 7.54551700 -2.11407500
2.55485900 9.45396400 1.00006100
-2.97559500 15.59796100 6.61962900
1.54083600 7.71115100 2.40222200
0.51096000 -10.86928700 3.36068700
-2.27622900 -11.53581600 2.10052500
0.14823200 8.05400100 -2.38079800
-2.34060000 -4.43807400 0.54901100
-0.38524200 -10.61385400 3.17730700
-2.76390600 -12.20012700 1.23919700
2.36076900 8.74375900 1.93072500
-0.05712600 8.08789100 -2.24310300
-4.73071300 13.51155100 -2.72290000
-1.19619200 -12.32009100 -1.79669200
-2.19675500 -4.81131600 0.99456800
-1.54718500 -13.26919200 3.05365000
-0.74094800 -16.21482800 -3.71655300
-3.02232700 -14.38725700 -1.86605800
-2.03443800 -4.17081800 1.36206100
-1.67512800 9.70575000 -2.25067100
-0.70140100 0.52437600 -1.25903300
4.08829100 -13.46211200 2.90881300
0.45223200 -0.96820800 2.52966300
-1.67334700 -3.83388500 2.13458300
-4.19003700 -16.18195000 2.12463400
-2.94884900 -14.06338900 -1.74267600
-0.14979700 0.96236000 -1.37304700
-1.49098800 -4.05181100 2.36059600
3.50304400 -14.13811900 3.41281100
-3.36302600 13.83203100 4.10522500
-4.12965600 -16.06422000 1.91873200
-2.01324900 -13.65791700 -1.93392900
0.52464300 4.54522700 2.38037100
-2.66956300 9.90759300 0.78283700
-1.93679600 11.63110400 3.21466100
4.26036100 -15.74313700 -0.29937700
-2.41429900 -10.81864500 0.36441000
1.94693200 2.43821700 1.34875500
1.58928700 -12.79258900 3.30044600
0.48053900 7.25223500 2.59613000
-2.97000200 -14.64066700 4.44754000
-0.10054700 7.08233600 1.40960700
0.82352100 -13.07045100 3.46321700
0.01056900 -15.08260700 5.29361000
1.78599500 -0.21586600 1.74597200
-3.15738300 14.11070300 -5.11554000
0.04469500 -8.93639600 3.10357700
-1.48352400 11.72877500 3.19854700
-1.41835700 3.54229000 1.93072500
-2.69072800 13.40602100 -4.38610800
0.65088100 16.21591200 8.52038600
-1.88052300 -16.26577800 -3.07421900
2.50912500 -16.24684500 4.42950400
4.68586300 13.55844100 -1.64007600
-2.02841000 11.84494000 2.92816200
0.37494900 -13.18769000 3.75668400
-5.80062500 14.10128800 -0.63537600
1.34273000 6.72863800 -0.56774900
-3.11116200 -12.94813200 1.72607400
-1.32140300 5.97683700 1.22613500
0.58414600 -13.46500000 3.91561900
5.74744800 15.26010100 -6.05011000
1.90932300 6.45567300 -0.12445100
-0.80786100 13.10609400 4.22082500
2.29551500 15.02122500 6.19299300
4.75381500 -14.71261200 -0.54724100
-4.17400200 -15.09360100 2.24163800
-3.25227200 12.19485500 1.88073700
3.09183500 -11.29978900 2.28491200
-2.83660700 9.96936000 0.87207000
-2.21561000 9.42514800 -1.69158900
1.51755900 -8.39558100 -0.75280800
-8.39545400 15.38748200 1.51574700
2.88830200 -10.96868300 2.45559700
0.18993300 8.76758600 -2.42254600
-2.67024000 -13.30200600 2.63208000
-2.30092900 6.95851900 0.13769500
-8.37585400 15.51364100 2.09680200
3.08441900 -12.21233900 2.64495800
4.48585900 -16.31605100 1.00442500
-2.03205800 8.36582900 1.97387700
-2.10115100 6.06786300 0.74224900
-1.97902100 12.12158200 -3.22778300
-2.79835400 13.12081900 -3.99188200
-1.30568100 -12.06072600 3.82251000
4.21376800 -16.00864800 1.24777200
1.42021200 -13.05249800 -2.39358500
-2.29049300 7.44281800 0.72814900
-1.95711300 -8.23059100 1.37612900
3.24402600 -13.78954300 3.10159300
-1.20078900 -12.46404600 3.58569300
1.98182300 -0.51486600 -0.13891600
0.03099600 15.78172300 7.36047400
1.99844900 13.69075000 -4.89483600
-0.50465500 -4.81977400 -1.43853800
-3.91432800 12.74151600 1.26593000
0.07318300 -13.94524000 -2.72412100
8.47612800 15.62182600 1.23840300
3.77668000 -14.22966800 1.79623400
-3.80929000 -15.65692100 -1.54443400
-0.21200700 13.28695700 -4.87329100
0.25123200 -13.30717100 -2.26254300
0.34845400 -15.97138600 5.55444300
-1.13043400 -0.72317500 -0.80328400
4.84927400 -14.65522000 1.81912200
3.76133700 -14.13392600 1.27294900
4.11306800 12.63284300 -0.81054700
-0.48933200 -12.52962500 -1.90283200
1.74477800 -16.31481600 5.13479600
-0.89453700 -1.12032700 -0.99810800
1.29046200 0.86698900 2.33337400
-2.10969000 15.01528900 5.91638200
2.92177200 -16.20894600 -2.71304300
-0.74878100 3.19727300 2.27099600
-0.37455200 -11.59585200 -1.79418900
-2.44025900 -14.64965100 -2.83383200
0.86246100 9.91698500 -2.42633100
0.25842700 -2.63835900 2.81579600
1.48094200 5.73350500 2.08770800
4.47753500 13.49592600 -0.75256300
-0.59860300 1.54372400 2.47137500
-3.95385600 -14.55741500 -0.95486500
0.57764400 -2.19499600 2.74639900
1.56736200 2.15490000 1.94354200
-0.36581200 -11.36317100 -1.63232400
0.94820800 -3.37548600 -1.38476600
2.31847600 13.43009900 3.98907500
2.19015900 -1.35110100 0.08520500
1.58354900 -11.75487900 -1.94769300
3.24252300 -14.87779200 4.37274200
2.05613900 7.46431000 1.77972400
0.49227500 -5.90405700 -1.50860600
-2.35986300 7.93244900 -0.56640600
-1.76748300 -11.25035500 -1.00595100
2.65364100 8.36219000 0.93505900
-0.94719200 10.38153100 2.89312700
-3.64134300 -15.42303800 3.37945600
5.42171100 14.90667700 3.84307900
-1.30654600 -11.01313400 -1.32684300
-2.35162500 7.17922200 -0.41088900
2.96073500 9.78581200 0.12078900
-2.91619700 16.11566200 7.57403600
4.23984900 -14.69692600 3.39953600
-1.43798800 -10.46720100 -1.08294700
-1.85092100 -1.10457200 1.40460200
4.53227200 13.97807300 3.25506600
3.07617200 9.90953100 0.77728300
0.81662800 -15.91515400 -3.49020400
4.46918500 -14.87981400 2.54864500
-0.36195500 -6.58683400 2.95153800
-1.47036800 -1.10463700 2.13720700
1.94048300 -15.09199500 -2.89105200
-0.79967400 -10.27808800 -1.46545400
-3.89804600 -16.30127000 -1.13229400
0.20475000 -5.76406100 3.25885000
0.10448500 -1.27328500 -1.46832300
2.39108700 -15.35291300 -2.83013900
-0.01715900 6.39181500 -0.90899700
2.58719600 -10.45163700 1.13491800
-3.83236000 -15.93566900 -1.07049600
1.70554700 -14.98962400 -3.17556800
0.10295100 -9.09803400 3.29135100
-3.76281100 -14.05905900 1.80487100
-1.74584400 0.47637200 1.19189500
1.39858200 -11.14217400 3.14810200
-3.95080900 -16.29721100 -0.36190800
-1.44530300 -7.63376700 2.11380000
-4.72665000 14.18171700 -3.28057900
1.09575800 -7.04361600 2.53903200
-1.88223400 0.47227900 0.42022700
1.92508700 -10.93541300 2.64090000
-2.17073600 -4.46724900 1.33783000
3.57096100 -14.32597700 -1.73309300
-1.95070300 13.72114600 4.80548100
-0.29209800 -6.67428200 2.71600300
2.25924700 -7.13519600 0.79364000
-3.34858900 -14.09470400 2.80050700
-0.68126600 8.22029100 2.62390100
3.11602800 -12.44080000 0.97732500
-4.96236400 15.63159200 -6.89569100
-2.16410800 9.44866200 -1.39367700
0.58453400 -7.42665500 2.75653100
1.90831000 -7.13846200 1.84167500
-2.72231000 -14.33277500 3.36709600
3.82686600 -13.76575100 2.07162500
2.23655300 12.65316800 3.77032500
1.74198500 -14.19596500 4.88671900
0.57850500 -7.14350900 2.96078500
2.12225300 -6.63157100 1.22094700
-1.99164300 -6.97138700 1.04492200
3.25413100 -13.02378500 0.26022300
4.51895900 15.00955200 4.85412600
2.03447000 -13.95226300 4.41815200
0.29178000 7.71843700 -0.73614500
3.33550600 -13.04903800 0.64575200
1.96960800 1.77805300 1.14965800
-1.69391200 -12.49646900 3.13220200
-2.38776000 15.61441000 -8.16449000
-2.06160100 -6.48461500 1.40246600
2.62707100 -2.33517800 1.67285200
-3.37342200 -13.70303000 2.03588900
-0.36569400 6.53676600 1.71557600
5.13481500 14.26365700 -2.66308600
-2.31860700 -2.57349400 -0.38238500
0.80040000 6.08736400 2.11254900
2.57994800 -2.17951600 2.07299800
0.94271900 -14.37895600 5.11837800
-3.17531500 -13.55360800 2.32257100
2.39034300 -4.82855000 0.76098600
1.43680600 5.77844200 1.60339400
-2.13199200 -1.19405700 -0.28802500
2.56241200 -13.75404400 -1.21163900
2.71246000 -2.06559800 1.89154100
2.48131900 -5.56971400 0.78381300
-1.66274200 -7.21417000 -0.14404300
-1.70000000 -13.54526100 4.31311000
-1.99268600 -2.89545800 -0.22705100
2.73475300 -3.92279800 1.98449700
4.38097000 -14.81766500 1.63867200
-2.11699700 -14.07137700 4.03103600
-1.80738600 -7.80330800 -0.35107400
1.80223500 -9.90563800 -0.75842300
1.02224000 0.44615200 2.32922400
1.36106900 -14.83610500 -3.70593300
-2.29346800 -11.77981200 -0.62219200
-0.72845700 -13.78763600 4.47457900
1.80472600 11.37162800 3.27594000
6.77909100 15.19906600 0.11975100
2.27901100 -3.37711700 -0.13891600
2.03666700 -11.80114000 2.95010400
-0.56030000 8.33500700 2.84606900
2.09834700 7.17101300 -0.94226100
0.91850500 12.36053500 4.04864500
2.10159700 -3.35229300 -0.33062700
4.06927500 13.61825600 2.61737100
-4.58131400 13.30366500 -2.35907000
1.54871400 -12.29733800 3.52816800
4.93271600 -15.41238400 2.42846700
1.64336200 -3.01835300 -0.99627700
1.90565100 7.55796100 -1.18426500
-4.19751200 -16.23532900 -0.17813100
-1.49698600 11.96888700 3.63067600
-0.99792200 -4.40696400 -1.36846900
-3.02035100 10.07832300 0.22497600
1.81168000 -4.00784500 -0.85870400
4.99018100 14.67131000 -3.15966800
2.01348300 6.95078300 -0.84234600
-1.51759800 -5.74883700 -0.95843500
8.59111800 15.73373400 0.18548600
-4.33095000 -14.52700400 0.18502800
-1.47261200 -7.96758200 -0.64605700
2.37430200 -9.44918300 1.77014200
-3.95984100 12.81187400 -1.61395300
-1.63063000 -4.55355000 -0.70416300
1.06726500 7.00149500 -1.77337600
1.30483800 5.92654400 1.86126700
-3.09767600 -16.07083900 -1.93518100
-1.97983000 12.75856000 -4.05365000
-3.05754100 11.93777500 -2.12780800
2.26465600 -1.41838800 1.00701900
2.74071100 -10.82806600 0.72204600
-1.66354900 -16.16654600 5.18179300
-1.92248500 7.17923000 1.21966600
0.17559900 6.96131100 2.59173600
2.38719900 -1.74398000 0.76129200
2.27707900 10.95233200 -2.20257600
0.53588900 7.98014800 -2.26269500
2.86965200 10.58079500 1.98291000
2.31290100 6.58000200 0.62603800
-7.93547400 15.64927700 -3.18298300
2.32270800 -2.34955200 0.96704100
2.58030300 10.73492400 -1.69384800
-1.19469500 -14.99448400 -3.39038100
2.87610200 11.64236500 2.70068400
2.33429700 5.90895100 0.36181600
-7.59603900 15.53434800 -2.51263400
-1.93305200 -14.76860800 -2.87884500
-1.58696300 -14.59214000 -3.11413600
-0.28684000 6.06678000 2.03228800
-2.23387100 15.53457600 6.72552500
1.90295000 9.01922600 1.99011200
-2.16979600 -4.01092000 0.71606400
1.45277000 -3.09432600 2.37786900
3.99091300 -14.92073400 3.44436600
-1.73695300 8.58990500 1.82897900
-6.65605900 14.72184800 0.99084500
-2.30418700 9.89906300 2.07824700
1.35702500 -4.06959200 2.50488300
7.65409900 15.45858800 -3.68353300
-1.30619500 14.64262400 -6.30841100
-6.27108400 15.36341900 3.61645500
5.13754300 14.56245400 3.48016400
1.79274700 -3.28107100 2.11511200
-1.44607600 5.06082900 1.98968500
1.57251700 12.86058000 -3.78601100
-6.73934600 15.89300500 4.66980000
5.81624600 14.42210400 1.58886700
1.82317400 0.00953700 1.88446000
-0.79034900 -6.18196600 -1.38317900
-5.45638700 16.13044700 6.40124500
-2.84705100 -13.40302700 1.41455100
0.23317100 -16.12245200 -3.82464600
-0.80082500 7.11690500 2.45092800
1.33589200 6.31546000 2.27655000
-2.40986400 12.84454300 3.34277300
2.19004600 16.34779400 8.27923600
1.74348300 3.45329300 -0.81939700
-5.26717000 13.65866100 -0.80065900
-0.64734600 7.19185600 2.60473600
-2.73727000 8.54243500 -0.38311800
-4.41044000 -15.21167000 2.06756600
-0.23719600 -14.23992500 5.02484100
2.74871800 8.11780500 0.18933100
0.22835500 11.79318200 3.62713600
0.18090200 7.15486900 2.73559600
-2.74373600 8.89153300 -0.08844000
-6.49783700 14.82074000 -0.02136200
-1.59950400 -14.13694800 4.55639600
-0.62544600 -13.64977600 -2.45144700
-3.78163400 -15.92953500 -0.69705200
2.35401200 12.13983200 3.07128900
-1.11766700 -6.64184300 2.32049600
-1.81626700 -14.68698900 -3.38870200
1.21337500 13.56375100 -5.01800500
6.57853700 14.91949500 -1.71649200
4.28373000 -16.28986400 -0.94253500
-1.62941800 -14.10518600 4.39215100
2.65135600 -6.13731400 2.20309400
-1.12613900 -1.06789400 2.26434300
1.77825000 14.14978000 -5.66040000
-2.11600600 -7.78331800 1.07189900
-1.87936400 -15.57676300 4.86593600
5.85178000 16.28636200 6.09167500
2.59634800 13.90802000 -5.14984100
2.82685500 -6.18610000 1.95837400
-1.32091400 -2.13379300 2.81951900
-2.09104200 -8.35196500 0.33599900
-1.30374800 -10.96372300 3.51019300
7.73228500 15.40611300 0.99664300
3.50283100 13.88989300 -4.18103000
-1.39609400 -5.17627700 3.22485400
-0.44770800 -7.87337700 2.86685200
-0.82877900 7.30717500 0.34558100
-1.36261700 -10.52871100 2.86334200
3.57814800 14.23700000 -4.72009300
2.11173200 8.14218900 -1.22058100
2.16079700 -16.16276600 -2.81494100
-1.06419900 7.34109500 -0.16638200
-1.07399700 -7.84668400 2.52072100
-1.40495700 -11.60097700 3.69751000
1.14662600 6.79211400 1.03765900
-0.65668600 -2.70943100 2.66766400
0.16071300 -5.22880600 3.03930700
-1.50988600 -10.92563800 3.21771200
-0.60397700 -8.55382200 2.78451500
-1.85951600 -9.00964200 1.93753100
-1.38226900 2.48668700 -0.89752200
0.96881100 -6.43847800 2.84945700
-1.12939800 -2.79775600 3.10772700
5.55427200 15.10746800 4.19574000
-2.56211800 -14.55907400 4.75747700
0.02387600 -9.06553300 -1.40387000
1.89687500 7.67929100 1.51800500
1.68532600 -0.42414900 -0.69128400
2.62104400 -14.30952800 -2.57119800
4.19680800 16.30537400 7.54992700
1.86793100 -14.05907800 -3.38678000
-2.31459300 9.12847100 -0.97119100
-7.88062300 15.95072900 3.63397200
3.25476100 -13.85998900 -1.00625600
1.92780700 -0.09578700 -0.62420700
2.07392300 13.46589700 -4.43573000
3.86769100 16.03936800 7.72894300
2.10242500 -7.77272600 1.67825300
1.75398800 0.35847900 -0.56445300
0.93659200 14.24279800 -5.57470700
2.93725200 -13.41440600 -0.85055500
3.58828400 -13.97343800 2.95282000
-2.34939000 14.04318200 4.92810100
1.60514100 -8.46124100 2.32824700
1.24335300 -3.37355200 -1.27813700
1.55593100 -5.27783000 2.57269300
-0.46601700 13.39349400 4.73022500
-1.39621500 8.49504900 -1.67913800
-5.04388800 13.76754800 0.38482700
4.59721000 14.47015400 3.32385300
3.50309800 -14.34651900 2.88665800
4.52074100 13.83267200 -1.74108900
1.43322200 -5.76294100 2.58657800
1.93412800 8.32519500 2.08935500
1.26765800 -13.20533800 -2.01733400
7.03167700 15.86868300 3.56652800
0.06739600 -3.58876800 2.94299300
0.15453100 0.94460300 2.57843000
0.18240300 14.67784100 -6.85272200
2.25114100 15.66749600 -8.00494400
4.50016400 -16.29562800 2.21267700
0.37105400 -3.22021100 2.83239700
5.95184300 15.43635600 3.81427000
-0.04400100 2.54357900 2.53460700
0.17290600 14.88383500 -7.35382100
3.83922200 12.57402000 1.40826400
4.13448000 -15.90145900 -1.61166400
-3.28989200 14.23736600 4.86926300
0.09336400 3.71443900 2.42590300
1.22308700 9.72814200 -2.37933300
3.20505100 13.64546200 -3.39984100
-4.24558400 -15.04047800 -0.77188100
-3.25924500 11.83099400 1.44842500
0.67664300 -13.73563800 -2.46182300
-4.08481600 15.66330000 7.51355000
-2.96111500 9.60263800 -0.46814000
-3.47258900 -13.00473800 -0.89508100
-1.68410300 10.12593800 -2.17797900
-3.65596000 -14.27142300 0.10522500
-2.92377300 10.35869600 -1.22137500
-1.22225900 6.05110900 1.52587900
-2.61296300 14.45222500 4.91546600
0.94240400 8.16584000 -2.05835000
2.25464100 9.73764000 -1.12878400
-1.86204100 1.08873700 0.71673600
-1.83804700 -5.04017100 2.00262500
-2.09562400 -2.94351200 0.11785900
2.34690900 -6.45882100 1.32232700
1.03694900 6.11250300 -1.36346400
2.14783100 6.64045700 1.18286100
2.31108700 14.05165100 4.56713900
-2.20055300 -3.34958600 0.73126200
-2.59432000 -11.12809000 1.24871800
1.55873700 6.42913100 -0.84228500
1.51642600 -9.42526600 2.93130500
-2.24532700 7.71064800 0.07861300
1.28423700 14.27885400 5.15838600
-2.15452300 -2.76179500 1.05011000
1.51157800 -9.12591600 2.88754300
-2.57398900 -11.38197300 0.42587300
-4.41485400 -16.21543500 1.11773700
1.85540000 -7.67871800 1.68142700
-0.19596100 14.06768800 5.06536900
-2.07519200 -2.98913200 0.99566700
1.14628800 -9.34426600 2.94213900
0.87478400 -1.01530800 -1.45410200
2.98224300 13.81651300 -4.53448500
3.31516600 -13.51411100 -0.51028400
-1.77773700 -4.08889400 2.15069600
2.53511000 -13.73779300 3.96969600
1.62305600 4.49834400 1.75738500
-0.01241800 8.95701600 2.94995100
-0.89379800 -6.49089200 2.79785200
-0.11989700 -0.62001000 2.51141400
2.32969700 -14.88625300 -3.43646200
-3.20792600 -15.58619700 -2.40176400
-2.27725200 -1.59343700 -0.38690200
-0.80752200 7.19740300 0.81665000
1.13123300 -0.84893800 2.22613500
0.20677300 13.17128000 4.60308800
-4.31296500 -14.19099000 -1.36434900
1.53253200 6.13465100 -1.38293500
-4.26375400 13.69488500 -2.85681200
0.04175900 -6.41419200 3.07550000
-0.95177700 -0.45929700 2.25378400
-1.17867400 -12.81668900 -2.02093500
0.05393900 9.33907300 -2.67114300
-2.03047100 -10.89049900 2.39541600
-1.68596700 -10.11555500 -0.89147900
0.21143500 -14.08446100 -3.00094600
-1.16797500 -0.95132100 2.03820800
-0.77861600 1.42258500 -1.17358400
0.70645900 9.36504400 -2.56427000
-1.27877700 -9.27727500 -1.27484100
-1.60397500 -10.37779100 2.54281600
-3.02599200 -13.51640300 -0.96673600
2.73923100 -14.93615000 -2.92770400
-4.37983100 -14.81547200 1.15304600
1.89206700 0.38945800 -0.32836900
-6.60824600 14.84953300 1.86114500
-2.57461100 8.71254700 0.52111800
-3.22031200 11.36224400 -1.71014400
2.49861500 7.57415800 -0.11749300
1.96077700 0.13215600 1.35009800
2.35215400 -5.33095000 1.19921900
-2.50239000 8.04737900 -0.14483600
3.23383300 -15.64449300 -2.19445800
-2.12179500 8.15941600 -1.20452900
1.23883200 0.20983100 2.44342000
1.67030900 7.06140900 2.03558300
3.68328500 -13.47423200 0.79257200
0.71877100 7.78529400 0.20910600
-0.42658700 6.92601000 -1.94720500
-0.54474200 -16.19373700 5.47934000
0.96437300 -0.02664900 2.40197800
4.12114000 -15.68645100 3.18399000
-0.19863700 -11.03565600 -1.68689000
0.87514100 7.75132000 -0.20043900
-0.18428000 6.94673900 -2.11090100
-1.19649800 -10.34374700 3.32171600
2.63387300 14.90452600 -6.04992700
-3.24124700 14.65321400 -6.13446000
4.83290100 -16.06911800 0.98239100
-1.79199800 10.47940100 2.82861300
2.77016400 11.59169000 -2.15545700
-0.74904800 8.72688300 2.52624500
0.75810200 -4.94975900 -1.40081800
-2.06782900 -13.91645400 -1.81848100
-1.26767500 -3.89303400 -1.07074000
2.67797100 11.70239300 2.31298800
3.44765500 12.90608200 -2.65606700
0.37974400 0.94313800 -1.42309600
1.99257300 1.67501100 -0.22607400
-0.19086200 -3.58762000 -1.48095700
-2.08866100 -2.53181100 1.26464800
1.88669600 9.86477700 2.33325200
2.88272900 12.22380100 -2.64221200
-0.38540200 -3.65476000 -1.55310100
0.95662100 0.68462800 -1.26397700
5.88164900 14.75451700 -2.82537800
1.87863900 12.04068000 -3.20440700
2.08084900 3.99588800 0.04229700
-2.18674900 -8.81979100 0.97949200
-0.80640900 6.14922300 1.60632300
-0.74907800 -3.81169900 -1.32849100
0.31767700 6.15895800 -1.31671100
2.65337400 -12.82744200 2.81832900
2.67964900 12.35640000 -3.02099600
-0.96490600 -16.21053300 -3.26303100
1.79633900 6.89908600 -1.39227300
2.03937300 7.19309200 1.06420900
-0.64771500 9.81671100 -2.73132300
2.67484700 -12.44052500 2.48248300
-1.12250700 -16.31060000 -3.43551600
0.20762300 5.67739100 2.08441200
4.13290800 -14.52346000 2.94131500
2.46569100 -10.15601000 0.16503900
-3.87211300 -15.53679300 3.01013200
-1.51175500 -6.53406500 2.29409800
-1.51717500 -7.81186300 -0.71423300
2.18619200 -13.20157400 3.48934900
3.97155400 -14.31307600 2.65759300
-1.84438100 9.84628300 -2.26312300
2.31148500 -7.76647200 0.91748000
5.54447600 14.12321500 -0.40033000
-3.76359000 11.83529700 0.55011000
-1.16876300 -4.70546700 2.57965100
0.40536500 -6.61424100 -1.43414300
2.20904200 -7.60528300 0.57428000
-3.96880700 12.47961400 0.27832000
6.47284700 16.28567500 5.51953100
-1.39244500 -2.83868400 3.00878900
3.54938900 -14.06519300 0.07189900
1.62883800 -9.03777500 -0.78790300
-0.33871100 -13.59849900 -2.21905500
6.51506000 15.29570000 3.73242200
-0.30555000 -13.17592100 3.28523800
1.90328600 -8.37291700 -0.35949700
-0.77005700 -0.21337100 2.32104500
-1.67820500 5.96337900 1.37915000
1.49462900 6.87135300 -1.46881100
-0.93672900 -14.35355000 -2.74438500
-0.26008400 -15.03679700 5.54644800
2.01462600 -13.61093500 -1.88223300
2.17561300 -8.38015000 0.19091800
-0.80914900 10.47032900 -2.69873000
-1.22195900 6.32210500 0.96087600
-8.61070300 15.79599000 0.26922600
-1.69589800 -0.99916800 1.24658200
-4.40205800 13.94645700 2.61645500
-3.98990600 15.30474900 6.68737800
-2.12120700 -13.20765300 -1.51666300
4.44164700 -14.98225800 1.07836900
-1.81213200 -1.08389700 0.11621100
2.32212400 -13.19238300 2.39398200
-2.32417600 14.39947500 5.55224600
-1.10982300 6.23988300 2.22888200
-2.44443500 -14.01083800 -1.98117100
5.51263000 14.36312900 2.58026100
2.81047800 -13.50071300 2.20391800
-1.66436500 14.61447100 5.77191200
-1.76103800 -0.61349100 0.14318800
-1.84059000 6.46529400 1.60968000
-1.11903000 13.25724800 -4.79016100
0.52572800 -11.61134300 3.60202000
1.52081100 6.45652800 -0.57055700
-2.14552900 6.07511100 -0.39666700
-6.00712200 14.28454600 -2.11395300
0.53149400 -9.75332800 3.26031500
1.49572800 -7.25284500 2.29763800
0.50751300 -14.84352900 -3.86761500
1.51803800 15.57913200 7.53106700
-2.24773300 7.00878900 -0.34625200
4.35744100 -15.58060800 1.01873800
1.92828800 -10.26442500 2.43417400
1.92412200 -8.04994900 1.84936500
0.95102300 11.07154800 3.24621600
1.93076700 0.89107100 -0.51141400
1.40065200 -4.02689000 2.71893300
-4.41811200 13.56724500 -2.27478000
1.58073800 15.68183900 7.00390600
-4.41350700 -15.67886000 1.17102100
1.22837100 -3.66301000 2.62451200
-2.05021900 -7.18967900 0.67150900
-2.24248600 -5.82868000 0.10907000
3.78603400 12.51702900 2.15551800
-4.23087700 -15.75568800 -0.14407300
1.43796500 -3.53984100 2.50195300
0.79649000 13.34208700 -4.76440400
-2.20740000 -6.46053000 0.55041500
2.03424800 -16.31321000 -3.25396700
3.07366200 -11.45883200 2.08593800
-1.37917400 -10.34826600 2.62921100
0.50530900 12.22715000 -3.98535200
-2.01430300 15.55844900 -8.32684300
4.20398700 13.43019100 -2.36834700
-1.03895100 -1.77287700 -1.19836400
-3.21327200 12.86442600 -3.37152100
-2.07498700 -9.47615700 1.89825400
-2.85254000 10.26319900 -0.66479500
0.36009000 -4.88906500 3.01742600
0.85141000 0.30209700 -1.36584500
-3.36036400 -14.31499500 2.44924900
-3.86703300 13.34941100 -3.34838900
-2.05002900 -9.36659900 2.10745200
0.76589200 9.13029500 2.89788800
-3.84792700 -14.31928600 2.57925400
1.57854800 0.71120800 -1.01239000
4.56785600 -14.92892100 -0.66976900
4.63184400 -14.71215400 2.51571700
3.96033900 11.86555500 1.14404300
-2.77687700 -13.74902700 3.26565600
0.81958800 10.84295700 3.39532500
-1.55985200 13.47224400 4.28649900
1.31776400 -10.95027500 -1.20404100
3.80722800 13.72393800 3.07067900
1.60624700 13.29174800 -4.62811300
-2.08809900 14.16079700 4.76782200
3.33515900 13.22851600 -2.72045900
-1.59071100 2.35366800 1.76837200
1.76800200 -9.78413800 -0.84252900
1.54045100 13.62815900 -4.90643300
0.65562500 12.76690700 4.08825700
3.83184800 11.94584700 -0.02526900
-2.62301400 -11.83535400 0.03027300
-1.89101400 -3.49327100 1.67620800
5.35485500 15.07330300 -3.73724400
1.23497000 13.90393100 4.81012000
-2.24062800 11.35131800 2.46569800
3.05059100 10.72682200 -0.81427000
4.11437200 -15.78896000 -1.51010100
2.50507400 9.36914100 2.00891100
5.97402600 14.94006300 -2.12439000
1.42185600 -14.99340100 -3.54992700
-2.33337100 8.66642000 0.78527800
1.41945600 -8.51984200 -1.51995800
2.57165500 10.50338700 2.32092300
-2.24859700 -4.76835300 0.58770800
-0.12569800 14.64616400 -6.37408400
2.34350600 -14.72968300 -3.41015600
1.41548500 -9.79932200 -1.67523200
-3.70534100 13.91925000 3.40820300
5.23548100 14.14526400 0.21356200
-2.20871600 -16.16132400 -3.18853800
1.45449800 -3.89554400 -1.78289800
0.33412700 9.73866300 -2.48931900
-1.07377300 -3.38815900 -1.14306600
-0.86892400 9.66745000 2.99115000
-7.54444500 15.44667100 -4.02264400
2.19075000 -6.27272800 -0.15252700
1.52362600 11.91890000 -3.10778800
-0.59869900 10.08216900 3.21252400
2.67701300 9.66890000 0.20709200
-1.17203400 -14.43718700 -3.05203200
3.33272200 -12.47399500 0.64968900
-2.47258200 -12.88078300 -1.03674300
1.73222400 -14.14104800 -2.17404200
-0.10719200 9.91149900 3.24585000
-1.23415500 -1.03172300 3.08514400
-3.96697000 -14.70175900 3.37179600
1.19125600 -8.83733200 -1.70513900
2.48791500 7.09416200 0.40606700
-0.67196600 -12.22613100 -1.79727200
-5.55945600 15.53433200 6.29418900
-1.03964100 -1.08075000 3.10839800
1.65089200 -0.65662800 -0.56341600
-2.51373600 -10.20623000 1.40252700
2.22902300 7.17133300 1.15930200
-2.30093200 -14.62204400 4.24557500
-5.49689900 15.30155900 5.41406300
1.88591800 -0.09077800 -0.34674100
2.57799100 -9.66178700 0.82492100
-2.41073800 -10.22496000 0.99105800
-2.49993500 -12.88919100 2.56860400
-2.58228300 -15.89518700 4.26428200
-0.17184400 -14.12004500 5.01199300
-1.21648900 -11.56596000 -1.44293200
-2.46855200 -9.44764400 1.16015600
-2.09542400 4.61399100 0.36224400
1.66541100 13.57670600 4.71502700
1.67983600 -12.41107200 -1.41012600
2.34432200 -2.12416100 2.10589600
1.73131900 -13.16024400 -2.56384300
-2.09072700 -2.30326800 0.33190900
-2.69464900 -13.66024800 -0.88522300
-4.27917300 -14.74662400 0.18148800
2.24379300 -13.84753800 -3.10992400
-0.32041000 -12.02319300 -1.78079200
0.06134000 8.33863800 2.95086700
1.40732000 9.97234300 -2.17712400
-3.76365800 -13.80646900 0.89614900
1.41064100 -12.77156400 -2.37542700
4.71589700 -15.08209200 1.51776100
3.72721100 -13.63112600 1.13101200
-7.61284600 16.03552200 4.02795400
3.26154300 -12.86354100 2.78317300
-2.21778800 -2.86967800 0.56445300
-5.21009800 14.66032400 3.73632800
4.68666800 -15.42183700 1.77044700
3.16566800 15.13430800 5.99957300
2.21079300 -15.91788500 -3.32275400
2.84990300 -11.94879700 2.47653200
2.24987400 -4.73670600 0.01019300
3.54731000 11.82904100 0.32214400
3.76251600 15.56802400 6.73089600
-1.87285400 1.63895400 0.51861600
2.49615900 -15.72106900 -3.11663800
2.78322200 -11.77677300 2.55654900
2.32935700 -5.08662800 0.28302000
-6.19545000 14.37707500 -0.01055900
-1.24037100 -8.35951800 -0.90509000
2.91877700 15.50820900 -7.96368400
2.35956200 -15.82460000 -3.05505400
0.13754300 -13.20204700 4.08029200
-0.21312300 -2.41240100 -1.44641100
-7.68116800 15.18711900 -3.65612800
-1.26406900 -7.72631400 -0.83599900
-0.78484900 -2.78078700 -1.35961900
3.15279800 -13.18657700 -0.45077500
1.03841200 -12.93351600 3.99377400
-0.82635700 -6.67392800 -1.03576700
3.38168000 12.44351200 2.74597200
0.41586900 -9.13132700 3.27276600
-2.09318000 -3.58796700 1.19525100
3.23681600 12.22149700 -1.59332300
-0.42359400 -14.09921600 -2.47763100
4.49228300 -13.74649400 3.08203100
0.02606400 -9.97237000 -1.50775100
1.95800200 2.24243900 -0.08813500
1.74020400 -13.64964700 -2.06149300
2.70885500 11.35334800 -1.58380100
-5.34264800 14.61427300 -4.43383800
-1.47713500 -12.77977400 4.11840800
0.77654800 -9.77517500 -1.35437000
2.63097000 -14.25791200 3.77838100
0.34610000 -6.86816800 2.79095500
-2.58357400 -9.24786900 -0.30615200
-2.81754800 9.31807700 -0.14782700
0.03115100 -7.98214600 -1.23022500
-1.30288900 -0.45927400 1.94671600
-2.56920100 -8.95814500 -0.44104000
2.98600400 -13.86364700 -0.76416000
-1.49130500 0.40064200 1.79809600
1.02852400 -7.69014500 -0.97900400
1.75416200 7.93801900 -1.46539300
0.75244900 4.92692600 2.28241000
-1.44053500 1.80532100 -0.73663300
0.03610600 -0.78432500 -1.29650900
-3.29015000 11.27262900 1.16278100
2.23220400 11.13716100 2.87200900
1.51813500 -7.83121200 -0.80676300
0.56963500 5.90849300 2.45153800
-2.79219200 -16.12481700 4.50488300
2.24845100 -3.04047800 0.11169400
0.24705800 7.20527600 -1.80450400
-2.65698600 11.68223600 -2.75787400
5.51816900 14.52124000 3.29187000
8.32493600 15.93270900 -2.22735600
1.02694700 3.21126600 2.23718300
2.32595400 -1.78961900 0.30725100
3.82307800 -15.39765500 -1.23068200
-2.24642500 15.57354700 7.56768800
0.05134200 -2.77780500 2.89984100
1.45732900 -9.29633300 -1.46960400
4.75260900 -15.23717100 0.37768600
-8.14513400 15.29817200 -2.55743400
-1.43731600 5.87550400 -1.37762500
-1.66088000 1.02941100 1.42700200
-0.03720800 0.63871000 2.50018300
0.86018400 7.53352400 -0.60748300
1.45756900 -4.21546900 2.57714800
-3.87632200 14.15254200 4.15252700
-1.75879900 7.03643800 -1.47509800
-5.12041100 13.76481600 -2.53723100
3.63029500 14.87933300 -5.21008300
-1.30818700 -9.32386800 3.30004900
-1.64592100 -5.31199800 -0.75836200
3.27528400 -14.27278500 -1.76629600
-1.02330000 6.01733400 -1.64373800
-2.74180100 -12.69459500 1.95724500
-0.41985700 -14.62873100 -3.38952600
-1.12343200 -11.02766800 3.32028200
-5.04036300 16.20477300 6.98223900
-1.89408100 -7.95915000 1.52914400
2.82851400 -11.64517800 1.40158100
0.50731800 13.75882000 -5.34161400
2.24626900 5.03282200 0.38287400
-4.10635600 -14.52163700 2.44262700
-1.58573000 -7.93381100 2.01922600
3.57601500 -16.28059400 -1.79013100
2.10226800 3.87667800 0.32141100
-0.31927300 -11.25846900 3.36407500
-3.26473200 14.91314700 6.28564500
-0.96535100 -9.20230100 2.88244600
-4.28351200 -14.55925800 2.85162400
3.73355100 -16.33077200 -1.82812500
2.06312900 2.80586200 0.82537800
-1.85621400 -7.43743600 1.53561400
-1.47143300 -11.13136900 3.42819200
-1.07186900 -9.06750500 3.19097900
-2.19652700 10.63246200 -2.40118400
-3.15115100 -12.95706900 0.37332200
2.03148800 3.82035100 0.92736800
-2.01893900 -6.99307600 0.40692100
1.05461300 -10.09994100 3.04586800
-2.19343500 7.62970700 -0.87304700
1.02573400 6.06401100 2.08044400
-0.74478200 -6.98233400 2.53595000
-5.10535000 13.72117600 1.42321800
-3.03308100 -12.51144400 -0.47735600
1.07984700 -10.88571500 3.16745000
-4.06735400 -14.21357300 1.18301400
4.00136200 12.11636400 0.66815200
-1.33441900 -7.16329400 2.28576700
0.59693300 1.62915400 -1.36987300
2.79679300 16.14317300 8.13183600
0.29959500 -10.30676900 3.27127100
5.11221700 13.75447100 1.13549800
-4.00347900 -14.18895000 0.23910500
1.08435600 2.46258500 -1.26293900
1.86765500 15.84931900 8.29376200
3.14713300 -16.20559300 3.76046800
4.46696100 13.00392200 0.73815900
-0.64534000 -8.36400800 -1.16217000
-0.59604700 -5.29607000 2.92080700
-3.93235000 -14.30604900 -0.22027600
-3.00490400 15.12249000 -7.81500200
2.88052400 -14.62593500 4.24697900
-0.68589000 -5.09371200 2.75396700
3.02016400 13.47235100 3.51104700
0.10805500 -8.71884300 -1.38055400
-4.22505400 15.34874000 -7.44897500
-0.34632100 -3.92482000 2.83569300
0.21458000 6.06228600 -1.59710700
-1.43556000 7.82788800 2.20507800
2.47298400 -16.16822800 4.98403900
-0.88458000 11.06874100 3.17504900
3.66398200 14.03645300 -4.04632600
2.35719300 -4.01639200 0.43072500
3.63446800 -14.74187900 -1.38876300
-1.30640000 7.93783600 -1.88934300
3.35070400 -12.19988400 2.57315100
-2.54349700 -13.72423200 -0.99798600
-3.55435400 14.51486200 -5.16998300
-2.20620700 14.09335300 -5.56494100
-0.80164100 3.44627400 -1.37664800
4.38138600 -15.44773500 -1.12338300
0.45986600 -0.57748400 2.47070300
-3.69754000 -16.18499800 -0.66333000
-0.60428000 3.43514300 -1.40313700
-2.72271600 15.08227500 -6.73669400
0.84042500 -2.99345000 2.71539300
4.57506600 -14.67155100 -0.94012500
0.65623100 14.41191100 -6.30590800
1.24941800 -5.39731000 -1.32629400
1.85281800 -5.46609500 2.17095900
-3.46396800 16.28324900 7.78405800
4.48720200 -14.58525800 -0.44909700
-1.28515800 -3.13428100 3.15130600
-0.28377000 -16.04344200 5.14849900
2.02558500 -14.39584400 -3.50329600
-3.30817800 -13.97602100 -0.06796300
-3.41058300 14.86637900 -6.61346400
4.87857100 -14.50207900 0.09231600
-4.35470200 -14.69000600 -0.84939600
2.32345200 -14.20996500 -3.24502600
-1.56340200 10.69410700 2.96118200
-2.35595700 -4.64623800 0.74023400
4.80486300 -14.61494100 0.46374500
1.26006700 8.15712700 -1.91229200
0.79406400 -13.49965300 4.34420800
-3.59033600 -14.20894600 0.86221300
-0.59283400 0.31532300 2.54736300
-0.95432700 12.77136200 -4.06286600
-3.94565400 11.93254100 -0.82843000
-1.85990700 -13.65673400 4.05172700
1.41000600 9.43579900 -2.19787600
-2.00151400 12.78317300 -3.76171900
1.70521900 -10.78429300 2.90887500
-0.19420800 -9.71071800 -1.44512900
-0.71053900 8.93612700 2.79180900
-3.25266400 -12.50868200 -0.65722700
-2.72902600 -12.22441500 1.69754000
3.84631700 -13.88743200 2.65039100
7.80278800 15.55317700 -3.74231000
-2.79116800 -11.66181200 1.16885400
1.69236900 -1.63217200 2.29235800
3.48938000 -12.68784000 2.27307100
0.43815500 8.54422000 -2.47808800
-3.95156500 -14.96246700 -0.98397800
-2.80075600 -12.12189100 0.69406100
-6.93187300 15.39627100 -3.70349100
3.21034600 -11.58470000 2.25286900
-1.29078000 -2.62756700 2.36785900
1.98167000 -9.85162000 2.28744500
-1.26149900 -11.26699300 3.58776900
-1.19349300 13.81460600 5.04168700
-0.05664100 -10.00670700 3.24050900
-0.08429500 7.20582600 -0.87127700
-4.15181500 -15.38441800 -0.50726300
0.55489300 -4.50010700 2.93109100
-1.22469100 -10.77650100 3.54119900
0.66647000 -10.51817700 -1.43457000
-0.48728800 -7.03714300 -1.14630100
-6.91514200 15.60723900 -5.00720200
-1.33617200 -9.54779400 2.93673700
1.03657300 -4.46609100 2.88159200
-2.71245300 9.49961100 -0.86438000
-1.10067300 -6.52579600 -1.11657700
0.23213200 -11.07883500 -1.66821300
0.87468500 -4.18745800 3.02307100
-5.29262900 14.27911400 -2.53595000
4.87259700 15.19885300 -6.68450900
2.11080200 -16.01292400 -3.27841200
0.09529300 -11.35215800 -1.63006600
-0.42440000 -6.58950400 -1.35137900
-3.51189200 11.97148100 -1.30511500
1.67800100 -15.79712700 -3.44873000
-0.11799600 0.00830800 -1.40185500
0.80818400 -11.48997500 -1.55621300
0.34744300 -6.65247700 -1.25305200
-4.42503200 -15.15339300 -0.35897800
-0.91621800 6.83189400 -0.81665000
0.82035800 -0.13911400 -1.26355000
1.58565900 -16.21961200 -3.52432300
1.24613600 -7.29454600 -0.86938500
0.32279200 -11.62265000 -1.77917500
-1.48780800 5.98531300 -0.32006800
7.73290300 15.78547700 3.72863800
-1.80312800 0.59889600 -0.10168500
1.06041700 7.19943200 0.32934600
-1.01815000 16.36483800 8.40820300
-0.12492400 -7.31485300 -1.21136500
-1.04649200 -1.23401600 -1.11560100
6.90013100 15.17578100 2.46283000
-2.15480300 -5.04392400 0.11944600
1.25090400 -15.45680200 5.16253700
0.25015600 -7.21655400 -1.28857400
2.50114400 -4.19009200 0.52655000
1.76823800 5.96420300 1.25579800
-2.30957600 -9.70886400 0.28714000
-2.31849100 -4.22325700 0.92340100
-2.64147400 9.37451200 0.92144800
-5.40119600 15.15072600 -6.48815900
-2.31214600 -9.56113100 -0.16809100
0.32767900 -7.33102900 -1.19500700
0.06463100 5.63807700 2.47448700
0.55486300 -5.75997900 3.00766000
-4.56580500 -15.91371500 1.70883200
-7.16035800 15.21255500 -1.25280800
0.65441200 -13.41026000 -1.89175200
-1.66951000 0.05037700 1.78778100
1.65735600 -11.36874800 -1.13430800
-3.23307700 -14.80537400 3.74090600
0.29515800 -1.11418200 2.73132300
-0.00647600 -13.24209000 -2.05534100
-7.17828000 15.20446800 -0.29950000
-0.07605900 -5.88852200 -1.49017300
0.46592700 -6.46305800 3.12548800
-0.40159400 8.09071400 2.73779300
6.18839300 16.28057900 6.00482200
-4.07368500 12.63496400 1.40081800
1.23937200 0.51970300 -1.09338400
-1.65053200 -11.28951600 -1.18182400
-2.10544300 -11.97504000 2.59649700
-1.87288000 12.37562600 3.69128400
1.53863700 -2.05110500 -0.98278800
-0.84168300 -8.95091700 2.80688500
1.92758600 0.99919100 -0.32189900
1.48309500 0.45970200 2.12170400
-1.57417800 -12.70910100 3.31045500
1.95496400 -2.29670700 -0.66461200
-2.12982200 12.34613000 3.66467300
-3.66932500 -14.37336000 2.76806600
-1.98180000 -8.02611300 0.07794200
-2.02664400 -14.11245300 -2.48202500
4.37395100 15.74865700 -7.22131300
-3.68085700 -16.27568100 -1.11990400
-2.56028600 10.92091400 2.14825400
4.16215100 -14.50527200 0.59530600
0.50165200 -12.98827100 3.36437000
1.47506000 -13.71343600 -2.36135900
0.94054400 9.82029000 -2.55523700
4.84362800 14.19403100 -2.06842000
-2.70976100 12.01904300 2.92321800
-1.90111200 3.01537300 0.91564900
-4.21454200 -13.82040000 -1.26599100
-0.87161600 7.60858900 2.24688700
-2.80104100 14.25740100 -5.14355500
-2.48204600 -12.75226600 2.61529500
-2.04023600 8.63738300 -1.76532000
-2.58463200 12.12522900 3.20922900
-0.25402100 8.49707000 2.60607900
0.85576800 8.24244700 2.67126500
-0.30240200 -5.50006700 2.99646000
3.23560700 -12.56369000 0.35025000
-0.56512100 15.57869700 -8.54016100
-2.13740100 12.06126400 3.39642300
-1.19869900 7.61953700 -1.54296900
1.27494200 7.85427900 -1.59881600
-1.12843900 2.48855600 2.20080600
1.15824500 -12.60078400 -1.77917500
-1.87115000 -9.63270900 2.20092800
0.89457200 13.20504800 4.58953900
1.71846200 7.13076800 -0.87744100
2.14944100 -0.43967800 0.32501200
2.23768600 -7.90443500 0.98889200
-3.78380400 -14.24895900 -0.78384400
1.64810400 1.41301000 1.75274700
-0.89782000 -13.15027600 3.37649500
-7.53955500 15.06941200 -3.04724100
2.28572100 -8.48125600 0.28570600
0.02050200 5.45414700 -1.78515600
-1.82206100 -12.19480100 3.20498700
3.40911100 14.67236300 -5.92816200
0.05014300 1.60641900 -1.42852800
1.91240500 1.02976200 1.43804900
2.14638700 13.76263400 -4.40808100
2.11989200 -7.78960000 -0.04595900
-1.63941800 -11.68826900 2.94512900
3.46611400 14.52648900 -5.60772700
0.38581800 2.36066400 -1.44915800
1.77140000 -11.67541900 -1.24548300
-2.67659500 -14.09521100 3.03271500
1.80916200 -7.94025600 -0.44305400
-3.12866500 -15.29070300 -2.17382800
-0.54528900 -15.15959500 5.26483200
-1.92554100 8.06414000 1.78967300
1.22979900 7.55464200 2.41168200
2.92810800 -10.33396100 2.11651600
-3.04470200 -14.88279700 -2.11895800
-1.05292000 -13.95152300 4.07562300
1.46959100 7.41169000 2.41149900
0.18557000 9.71147200 3.19165000
-0.26982300 -1.22834800 -1.39172400
1.37437100 -13.10514800 3.53613300
-1.38186800 -14.63210700 4.83090200
-3.24719600 -14.77839300 -1.87802100
4.12678900 -14.26329800 -0.58068800
4.02463500 -15.86177800 3.40759300
-3.76265000 -14.44480500 -1.01483200
-5.36036300 15.34559600 -5.71466100
2.31692900 -6.53980600 1.90130600
3.49623100 -16.36594400 3.69769300
2.36944200 -3.23431400 0.63598600
1.10840800 -0.20996100 -1.17163100
-1.15128600 -3.10715900 2.56317100
-3.83473400 -13.67371000 -1.38452100
4.51329800 12.98274200 0.94934100
0.89994600 6.40503700 2.36279300
2.86487200 -14.07655000 -1.98480200
3.30332600 -16.15275600 -1.81372100
0.58146500 -5.34891300 3.06698600
3.11804200 -14.81286600 -2.88467400
-1.39516300 -3.48352100 2.96630900
2.09443300 -12.69646500 3.23168900
2.18159900 0.25170900 0.74871800
-1.15373900 6.00551600 -1.21026600
3.46231800 -15.74387400 -1.93780500
-1.30519500 -3.57330700 3.18609600
-0.60856400 7.34235400 -0.79901100
2.59808300 -13.34935000 3.36764500
2.10548400 0.97662400 0.66589400
-1.24976800 5.97311400 -0.88922100
0.63628200 6.55338300 2.30175800
-0.59988000 11.58610500 -3.30938700
0.17313600 -11.64935700 3.47738600
1.94113900 -5.41155100 -0.70343000
-3.78269400 -14.88694000 3.44018600
2.75482900 10.88226300 2.33227500
