11.26990000 64.39310000 30.57900000
11.68330000 65.05090000 30.85780000
-12.62940000 102.82980000 -42.97600000
-12.52840000 103.03340000 -42.81340000
-12.26780000 103.29930000 -42.39720000
-12.42240000 103.49580000 -42.22130000
-88.87700000 79.12850000 6.18770000
-90.59830000 79.57160000 6.29900000
-81.66280000 77.36390000 6.32630000
-83.39250000 77.61940000 6.02730000
54.68530000 87.18210000 8.90920000
54.49360000 87.07990000 9.41410000
55.19060000 87.54900000 8.81990000
48.94070000 83.32100000 12.91580000
49.43980000 83.72470000 13.08740000
49.97420000 83.95990000 11.81260000
50.27300000 84.28280000 12.52450000
-2.27830000 53.48950000 -35.14340000
-2.07470000 54.25240000 -35.32050000
-1.29670000 54.76900000 -35.48950000
-1.53280000 52.24210000 -35.05030000
-1.90230000 52.68850000 -35.08260000
-4.72720000 100.64710000 -34.73640000
-4.79770000 100.82640000 -35.32000000
-4.76940000 101.22460000 -35.44530000
-4.76660000 101.52000000 -35.28230000
-2.71710000 -39.97090000 23.52910000
-2.53050000 -39.50990000 22.87310000
-2.97460000 -39.62480000 24.18010000
-2.87050000 -38.48610000 23.58810000
-3.27610000 -38.92880000 24.78770000
-3.38790000 -38.01470000 24.82350000
1.19580000 -71.16460000 33.68190000
1.10880000 -70.68940000 33.52390000
0.89890000 -72.34230000 34.23420000
0.99540000 -71.82140000 33.76370000
-21.02980000 63.40740000 -26.57430000
-21.72900000 64.47280000 -26.26920000
-23.15980000 66.71210000 -25.57180000
-22.98190000 67.55180000 -26.33230000
-23.37550000 68.31590000 -26.36490000
-23.66780000 68.12450000 -25.86960000
-23.44450000 69.09920000 -26.80330000
61.22260000 97.27040000 9.94930000
61.75780000 97.68690000 9.53850000
61.80320000 97.61080000 9.00200000
61.81310000 98.03690000 10.61160000
62.36180000 98.35870000 9.75480000
61.30060000 96.83670000 7.71020000
61.71680000 97.15090000 7.09660000
61.50530000 97.13960000 8.15670000
-37.09210000 78.52440000 -23.11920000
-37.24170000 79.24330000 -23.10970000
-37.75560000 78.34340000 -22.84790000
-37.68040000 79.56380000 -22.99990000
-35.18380000 77.30490000 -23.29080000
-35.60200000 77.60850000 -23.26870000
-35.99610000 77.42010000 -23.16200000
-2.41240000 -38.88600000 22.29120000
-2.23920000 -38.87290000 21.66770000
-2.55300000 -38.00860000 22.39410000
-2.80890000 -36.80390000 22.59550000
-3.10870000 -36.44350000 23.32130000
-7.80390000 39.22500000 29.01080000
-7.57780000 38.68350000 29.16470000
-7.42020000 39.30780000 29.28130000
-7.55280000 39.86570000 29.19450000
-7.26430000 39.29830000 29.39740000
-5.57760000 37.67340000 29.66400000
-5.70890000 38.26830000 29.68930000
-6.05600000 38.49780000 29.67450000
-4.96870000 37.84220000 29.71540000
-5.40740000 38.60120000 29.73170000
23.91090000 -48.34070000 -9.04520000
23.98230000 -47.39990000 -9.00040000
24.71170000 -49.05050000 -9.12020000
24.44230000 -47.24090000 -9.01570000
22.55250000 -51.63030000 -9.11060000
22.80300000 -51.04770000 -9.10420000
22.27680000 -50.98230000 -9.07560000
21.95620000 -51.40040000 -9.07320000
23.05790000 -50.17800000 -9.08790000
22.12670000 -50.57950000 -9.05680000
-27.02290000 -10.59580000 -14.04820000
-27.22680000 -10.94380000 -13.64140000
-26.90030000 -10.59360000 -14.31590000
-26.79600000 -10.27180000 -14.48590000
-35.50540000 75.24210000 -22.69050000
-36.18450000 75.59750000 -22.58160000
-36.52310000 76.30340000 -22.68060000
-36.67230000 76.71510000 -22.82110000
-36.33910000 76.91250000 -23.00120000
-37.10910000 76.97740000 -22.79810000
-36.80850000 77.32280000 -23.03780000
-23.63360000 -16.73030000 -8.55560000
-24.31490000 -16.45750000 -8.65420000
-24.84630000 -15.71950000 -8.69810000
-22.93290000 -16.87790000 -8.18920000
-23.15080000 -16.77620000 -8.36620000
-24.24130000 35.96500000 16.38960000
-24.62040000 36.26710000 15.84320000
-24.01980000 36.38290000 16.65330000
-23.86500000 36.74730000 16.88560000
-23.99040000 37.36770000 16.73540000
-23.50330000 36.56220000 17.37410000
-23.55440000 37.33360000 17.33550000
-33.07570000 77.00140000 -23.79190000
-33.52320000 77.29970000 -23.73130000
-34.28500000 77.40140000 -23.63260000
-34.80710000 77.16690000 -23.42720000
22.55590000 -45.33640000 -8.80910000
21.94040000 -45.37960000 -8.77420000
22.67290000 -44.88240000 -8.79610000
21.55690000 -44.59430000 -8.72550000
18.73540000 -43.34890000 -8.71770000
18.32500000 -42.75520000 -8.71690000
19.25910000 -43.19690000 -8.69090000
-25.07150000 104.61310000 -30.57260000
-24.77400000 104.72290000 -30.00410000
-24.54810000 104.75920000 -29.49030000
-24.58260000 104.51780000 -29.02070000
-4.36110000 -64.04850000 47.35080000
-4.38460000 -61.79860000 46.47210000
-3.76680000 -65.85320000 48.12720000
-3.38460000 -62.99740000 47.05310000
-2.69880000 -69.22760000 49.54080000
-2.90080000 -67.31170000 48.77240000
-2.21550000 -66.45090000 48.48000000
32.10440000 -32.53410000 -20.81860000
31.90150000 -31.09850000 -20.83710000
31.35610000 -28.89360000 -20.88530000
30.98000000 -30.47370000 -20.72050000
30.39480000 -30.12750000 -20.46040000
30.64570000 -31.28480000 -20.44550000
29.89910000 -30.43530000 -20.15490000
-8.77480000 62.58790000 29.58630000
-9.12400000 63.01340000 29.62070000
-9.49720000 62.21630000 29.07760000
-9.75190000 62.82960000 29.23870000
-6.17420000 62.48280000 30.52400000
-7.17860000 61.99640000 29.93870000
-14.69580000 -17.30110000 13.57620000
-15.41310000 -16.83230000 13.28960000
-15.42350000 -16.35180000 13.80900000
-12.63110000 -18.36560000 14.41000000
-13.19070000 -17.71970000 14.65920000
-13.95130000 -17.72440000 13.87390000
-13.73160000 -18.20200000 13.48710000
-4.69910000 -75.30460000 51.13980000
-4.59790000 -74.96790000 51.19400000
-4.58520000 -74.19650000 50.86040000
-4.45800000 -75.03110000 51.42560000
-4.39130000 -74.02140000 51.06140000
-4.23080000 -74.55360000 51.38430000
-4.12630000 -73.67850000 51.09830000
-8.93480000 125.25900000 -30.66890000
-8.50940000 125.07400000 -30.96090000
-8.61070000 125.36810000 -31.50950000
-8.95880000 125.57980000 -31.43430000
-8.63380000 124.83480000 -30.42210000
-8.98760000 124.91320000 -30.07500000
-7.42750000 58.22220000 28.19860000
-8.05360000 57.69640000 27.77250000
-8.07340000 56.21860000 27.43750000
-8.20580000 56.72610000 27.47090000
-8.45070000 55.90010000 27.25520000
-8.93280000 56.51510000 27.16110000
-56.64110000 93.30070000 -20.67150000
-57.12500000 93.64910000 -20.59490000
-58.43750000 94.42020000 -20.47730000
-58.93240000 94.86300000 -20.41960000
-22.01420000 38.38560000 19.10410000
-21.52850000 38.21540000 19.58090000
-20.76850000 39.12930000 20.36520000
-21.02270000 38.67830000 20.10100000
29.73210000 46.55060000 -7.52480000
29.59560000 46.53180000 -8.57810000
29.02940000 47.69370000 -10.99830000
28.74580000 47.95700000 -11.94560000
28.58400000 48.76090000 -12.45310000
-10.78310000 74.06280000 -33.39240000
-10.70380000 76.35220000 -33.21380000
-10.73280000 72.90680000 -33.79580000
-10.63940000 78.40630000 -32.98930000
-0.17550000 7.84720000 -35.39480000
-0.05780000 9.74320000 -35.51680000
-0.28260000 11.14470000 -35.63120000
-15.24030000 115.09360000 31.07720000
-15.65860000 115.44240000 31.39940000
-16.61460000 115.50090000 31.85150000
-16.11680000 115.64150000 31.70700000
-17.09230000 115.93190000 32.42410000
-16.12980000 115.91300000 31.87930000
38.15010000 -70.21020000 -10.95540000
38.08410000 -69.87040000 -10.91050000
38.16880000 -70.57330000 -10.94570000
26.18340000 63.88110000 18.01930000
26.58390000 64.83350000 18.41050000
27.16020000 65.25230000 18.04090000
25.65360000 63.09430000 18.03490000
25.71180000 62.51960000 17.48610000
-88.65980000 87.38910000 -12.35120000
-88.43320000 88.00060000 -12.70430000
-87.47500000 88.17490000 -13.11040000
-90.06700000 85.66090000 -10.63380000
-89.25780000 86.49550000 -11.57340000
-3.37020000 59.24980000 -34.90530000
-4.01630000 59.96940000 -35.09260000
-2.57400000 59.28030000 -35.05060000
-5.85280000 60.96520000 -35.09270000
-5.08350000 60.56210000 -35.13080000
-26.69960000 42.94220000 -18.19480000
-26.31140000 42.98250000 -18.82070000
-27.03290000 43.35400000 -17.60160000
-27.31630000 43.94120000 -16.95530000
-27.59050000 44.01200000 -16.42170000
-23.04450000 -39.16150000 -11.53940000
-22.77040000 -38.68520000 -11.52540000
-23.51460000 -38.40950000 -11.62220000
-23.91080000 -38.69310000 -11.66340000
-23.84750000 -37.89170000 -11.69520000
-24.92800000 -38.13870000 -11.85350000
-25.75250000 -39.73410000 -12.19750000
-25.50760000 -39.12340000 -12.08320000
-26.06390000 -38.49910000 -12.09570000
-24.00080000 -40.13950000 -11.95780000
-24.61510000 -39.08540000 -11.91050000
46.94950000 -81.00290000 -19.64160000
46.76910000 -80.61700000 -19.76240000
46.46520000 -80.45360000 -19.92250000
45.95170000 -80.20410000 -19.88760000
45.32860000 -80.16560000 -19.61430000
44.76090000 -79.74190000 -19.45400000
15.29690000 59.79460000 -32.44850000
16.34980000 60.39370000 -32.04620000
17.43480000 61.13980000 -31.61560000
40.33640000 84.58130000 -30.18000000
40.00900000 84.62480000 -30.23370000
40.12460000 84.75040000 -29.85830000
-9.94620000 115.83120000 -34.07700000
-9.84450000 115.62340000 -33.51080000
-9.65950000 115.83470000 -33.07600000
-10.24740000 116.18800000 -34.78930000
-10.53380000 116.39810000 -35.16120000
24.95260000 -61.33040000 -11.81200000
25.32410000 -61.18180000 -12.03150000
24.87560000 -60.83030000 -11.90080000
25.35880000 -60.76780000 -12.14960000
24.09350000 -61.79870000 -11.06670000
24.31680000 -61.45290000 -11.35830000
23.67170000 -61.67140000 -10.78030000
-5.23790000 36.22570000 26.85100000
-5.67880000 35.66350000 26.72320000
-3.52430000 35.34890000 27.16340000
-4.50270000 36.80100000 27.01380000
-4.22230000 37.54430000 27.08460000
-3.59680000 37.24450000 27.19070000
8.30990000 25.86640000 -32.95090000
8.01910000 27.04740000 -33.00240000
9.33550000 26.95690000 -32.66230000
8.52400000 28.16120000 -32.84660000
9.10050000 30.28960000 -32.54210000
9.36720000 31.99810000 -32.30420000
-22.29480000 -39.54320000 -11.50150000
-22.22180000 -39.08960000 -11.49270000
-21.19370000 -40.13160000 -11.47970000
-21.81490000 -38.73890000 -11.47010000
-23.97660000 -39.11880000 -11.74210000
-23.34790000 -39.57170000 -11.67520000
-15.92710000 99.23660000 -27.93770000
-16.31210000 98.86920000 -28.35890000
-16.35050000 97.94170000 -28.71010000
-16.43210000 98.26640000 -28.69250000
20.49350000 15.61650000 16.81680000
20.53900000 14.12140000 16.63730000
-6.46490000 15.78780000 45.59510000
-6.63190000 16.11010000 45.82360000
-6.57850000 16.61150000 46.39730000
-6.51330000 17.27590000 47.00710000
-6.65310000 17.74720000 47.20100000
20.98430000 76.81990000 -39.80920000
20.72520000 76.82620000 -40.17760000
21.61990000 77.00500000 -39.49110000
19.95560000 76.43000000 -40.77210000
19.94210000 76.49510000 -40.63730000
-99.69520000 79.28460000 -1.93260000
-99.73860000 79.46240000 -2.63380000
-99.82530000 79.36540000 -1.67990000
-99.74050000 79.71670000 -3.35240000
-99.56610000 79.71100000 -3.65440000
-22.64150000 -40.23070000 -11.73080000
-22.68380000 -39.79880000 -11.61260000
-18.04560000 -44.38300000 -11.38670000
-19.07340000 -43.08930000 -11.42910000
-20.74470000 -42.98230000 -11.72650000
-18.34010000 -41.83420000 -11.15390000
15.60810000 43.81460000 21.89830000
15.82670000 45.03310000 21.78340000
16.55740000 45.52300000 21.28170000
15.40690000 42.57190000 22.02020000
14.65360000 42.10350000 22.51740000
37.13560000 -46.83800000 -19.49540000
36.78260000 -46.37930000 -19.87840000
37.77350000 -47.19190000 -17.48790000
37.42330000 -47.35160000 -18.76280000
37.37800000 -47.02340000 -18.88430000
37.51660000 -46.78250000 -18.39890000
-0.52910000 -35.69880000 37.76490000
-2.07040000 -34.92580000 37.44260000
-3.26280000 -35.03050000 37.40030000
1.51070000 -39.49040000 38.99570000
2.15320000 -41.16150000 39.51580000
0.84140000 -40.88800000 39.46310000
2.10340000 -42.65770000 39.99290000
-57.90440000 94.29500000 -18.40380000
-57.28610000 94.05670000 -18.89980000
-56.17990000 93.49330000 -19.40670000
0.70890000 -78.59740000 37.30370000
0.85360000 -77.71900000 37.35140000
0.92350000 -77.13910000 37.52570000
-28.91680000 75.14170000 -26.36410000
-28.53490000 74.97390000 -26.75810000
-29.25620000 75.49680000 -25.91690000
-29.80260000 75.80940000 -25.19900000
-3.99340000 11.21930000 29.60900000
-4.24280000 11.49390000 30.25070000
-3.55530000 10.80590000 29.27700000
-2.98950000 10.62420000 29.28060000
5.94270000 -10.70150000 29.97320000
6.08650000 -8.82150000 29.61470000
5.75180000 -13.18070000 30.59840000
-61.00870000 67.44300000 0.90990000
-61.65580000 67.63350000 0.61520000
-61.66260000 67.92190000 1.64160000
-61.32300000 68.06600000 2.43680000
33.12340000 -75.73000000 -10.98400000
33.46590000 -75.53230000 -10.88660000
33.21890000 -75.27340000 -10.84500000
32.90360000 -75.35480000 -10.90550000
33.28040000 -74.97280000 -10.76430000
32.81300000 -75.93440000 -11.04100000
32.69660000 -75.59510000 -10.96850000
32.47690000 -75.46470000 -10.94150000
-41.77840000 67.95700000 12.33920000
-43.35600000 68.57560000 12.03330000
-44.78110000 68.56250000 11.34430000
-44.82320000 67.45370000 10.41460000
-45.42280000 68.17790000 10.70150000
-46.23160000 68.39530000 10.44290000
-47.62730000 74.10510000 -18.58960000
-49.27060000 75.12400000 -18.43570000
-49.29070000 77.68430000 -19.33370000
-49.48590000 76.80600000 -18.98590000
25.22440000 -60.39660000 -12.14050000
25.34470000 -60.05770000 -12.24410000
24.82800000 -60.34890000 -11.94830000
25.36660000 -59.51120000 -12.38030000
25.06040000 -59.07420000 -12.30060000
-77.33370000 78.98160000 9.43240000
-76.29490000 78.15650000 8.97890000
-76.59130000 77.12380000 7.81770000
-75.90110000 77.27440000 8.22750000
-66.58480000 69.46060000 -1.02360000
-67.15170000 69.62890000 -1.65490000
-67.54880000 69.77660000 -2.20940000
-68.70690000 70.24720000 -2.28450000
12.07790000 13.72250000 -33.79480000
12.39220000 14.12580000 -33.69220000
13.56300000 14.10200000 -33.19550000
15.24650000 13.75830000 -32.33320000
14.56150000 14.15120000 -32.69400000
-35.44970000 76.64050000 16.02050000
-36.39180000 78.44230000 16.07480000
-35.35660000 75.82070000 16.00480000
-36.11860000 80.12770000 16.96160000
-35.91250000 79.23830000 16.51840000
-36.49530000 79.30460000 16.33090000
-36.81650000 79.65290000 16.38810000
-21.45680000 104.29250000 25.64920000
-20.96140000 104.47090000 25.48030000
-20.22790000 104.46630000 25.00280000
-22.36810000 104.43160000 26.57290000
-21.17450000 104.62090000 25.83140000
-23.11930000 104.08130000 27.12400000
-22.50960000 104.09240000 26.42900000
-23.35670000 104.24400000 27.56670000
-4.41800000 21.00930000 30.49230000
-5.06100000 21.13710000 30.33550000
-6.76810000 20.58180000 29.99150000
-6.32170000 21.15270000 29.93080000
-62.47380000 67.82140000 -4.21720000
-63.24810000 68.08130000 -3.60210000
-62.70600000 67.79810000 -3.14780000
-62.12060000 67.78280000 -4.73170000
-7.44270000 -24.85800000 -15.61010000
-7.77650000 -24.78250000 -15.55750000
-7.19860000 -25.12240000 -15.08760000
-5.50080000 -25.73380000 -14.30510000
-5.50420000 -25.61640000 -14.75090000
-5.94240000 -25.70510000 -14.10640000
-6.19580000 -25.49390000 -14.73950000
-1.81550000 58.41720000 38.82650000
-1.94410000 58.54990000 38.36920000
-2.22630000 57.17240000 40.98840000
-1.69100000 57.40260000 40.78150000
-1.62970000 57.73360000 40.31050000
-21.17900000 103.60710000 25.17240000
-21.56050000 103.89920000 25.51280000
-21.87200000 104.10850000 25.84300000
-36.71280000 81.58610000 18.42090000
-36.64860000 81.29520000 17.92730000
-37.22170000 80.42830000 16.45900000
-37.68880000 81.03140000 16.50070000
-37.61540000 81.31140000 16.76940000
-31.94070000 50.75140000 0.75800000
-32.43100000 51.12820000 0.64700000
-32.98570000 51.31490000 -0.31000000
-33.47180000 51.54770000 -1.10910000
-34.08100000 52.04410000 -1.12840000
49.12690000 86.09740000 10.12430000
48.71130000 85.73470000 10.43030000
49.06480000 86.05830000 10.75320000
49.46670000 86.40970000 10.60340000
51.04170000 87.64110000 8.80560000
50.63950000 87.30350000 9.02010000
50.89100000 87.52880000 9.46580000
51.25910000 87.83740000 9.41680000
50.78920000 87.42880000 9.84100000
33.79010000 66.70020000 9.09600000
34.28190000 67.68160000 9.58480000
33.15610000 65.20430000 8.31760000
33.24530000 65.78050000 9.07420000
26.07010000 -25.87250000 -18.78310000
26.43640000 -25.64420000 -19.03580000
26.35550000 -25.23760000 -19.02640000
25.86830000 -24.60470000 -18.84530000
-37.22090000 79.97980000 16.30240000
-38.16070000 80.32250000 16.01460000
-40.65390000 82.11330000 15.84170000
-39.62330000 81.46060000 15.89400000
4.09720000 -25.01710000 -17.75680000
2.68380000 -25.05550000 -17.74190000
2.67410000 -24.93410000 -18.12820000
3.26770000 -24.89390000 -18.24060000
4.67180000 -24.62840000 -18.51910000
4.38450000 -24.58390000 -18.75030000
4.05630000 -24.77160000 -18.42850000
28.04500000 46.28690000 8.15050000
27.46580000 46.22880000 9.58140000
27.21160000 46.58950000 10.11680000
28.47000000 46.31450000 6.86680000
23.89820000 28.70430000 17.15030000
24.23790000 29.30210000 16.68120000
24.46170000 29.66160000 16.16780000
24.72330000 29.62710000 15.72590000
-29.98670000 19.61960000 -4.73430000
-30.09120000 20.01550000 -6.01500000
-30.14390000 20.70660000 -6.51930000
-44.75260000 76.65100000 -18.40140000
-46.98900000 78.33030000 -18.20630000
-47.68930000 79.26170000 -18.16880000
-48.95230000 80.19520000 -18.04300000
-12.58820000 84.40700000 28.78360000
-12.03780000 83.79850000 29.17860000
-12.56240000 85.52260000 28.91030000
-11.46910000 82.59130000 29.56300000
-11.50050000 83.42130000 29.61360000
25.05200000 61.03160000 17.26920000
25.66310000 61.81700000 17.02880000
22.71030000 58.72410000 18.66900000
23.30930000 59.54270000 18.45130000
-0.11910000 -91.40260000 46.63330000
-0.29870000 -91.23410000 46.26610000
-0.31800000 -90.81890000 45.82660000
0.02000000 -91.49260000 47.25940000
0.15680000 -91.24010000 47.58860000
-30.49380000 41.34980000 -1.96820000
-30.48390000 41.87440000 -1.37260000
-30.35080000 43.20510000 -0.12200000
-30.28410000 43.59540000 0.06070000
-12.91660000 -0.64140000 -30.53700000
-13.39570000 0.29340000 -30.39230000
-14.43550000 1.12400000 -29.86880000
-15.15180000 0.70560000 -29.35410000
-22.57280000 63.59950000 -24.83400000
-23.13510000 64.46890000 -24.51450000
-23.21470000 65.11010000 -24.72170000
-22.28260000 65.29130000 -25.96730000
-22.69560000 65.38320000 -25.51550000
-22.41320000 66.01610000 -26.12570000
-14.11760000 115.90990000 31.19280000
-13.69250000 115.94840000 31.07880000
-14.45620000 116.19790000 31.24430000
-12.52260000 115.81010000 31.16470000
-12.99960000 115.85300000 31.06470000
-3.24960000 60.88510000 33.96380000
-3.26210000 61.29000000 33.92970000
-2.86980000 61.82360000 34.21270000
-3.29870000 61.65790000 33.99780000
-26.24800000 -8.95780000 -6.64550000
-26.39890000 -8.40390000 -6.58630000
-26.43960000 -8.04090000 -6.86000000
-26.69520000 -7.24460000 -7.03700000
-26.80880000 -7.08110000 -7.42690000
-28.89960000 -28.68530000 -14.24030000
-28.81200000 -26.31530000 -13.74090000
-28.59110000 -25.31930000 -14.08720000
-28.94310000 -25.74930000 -13.14420000
-29.33020000 -29.37260000 -13.05280000
-29.09930000 -26.63390000 -12.89050000
-29.35750000 -29.03660000 -12.65850000
-29.04800000 -25.48830000 -12.60630000
8.54160000 15.14880000 28.22360000
9.07750000 15.11310000 28.03370000
8.80130000 15.52490000 28.24380000
8.33520000 15.65110000 28.43110000
8.91190000 15.82800000 28.20430000
8.88590000 16.42990000 28.21790000
-5.07760000 60.55370000 33.11530000
-4.81010000 60.80960000 33.22500000
-4.93210000 61.04470000 33.14130000
-5.52900000 59.52860000 34.16050000
-5.33060000 59.77380000 33.73690000
-25.93830000 -9.69480000 -5.67610000
-26.03510000 -9.35540000 -4.84710000
-25.95580000 -9.63090000 -6.38220000
15.16460000 -30.04630000 -11.08930000
15.83630000 -29.69440000 -11.68570000
14.62670000 -29.75940000 -10.74220000
17.36870000 -29.49470000 -12.76830000
16.64200000 -29.23640000 -12.34710000
-5.52230000 26.56060000 41.35580000
-5.49010000 27.30060000 41.53810000
-5.39170000 28.20590000 41.55540000
-9.61170000 63.34270000 32.54960000
-10.16100000 63.02750000 31.96870000
-9.86670000 63.92430000 32.98070000
-10.16570000 64.56600000 33.56070000
-0.61800000 -84.72260000 40.98700000
-0.63700000 -83.64580000 40.10800000
-0.55680000 -85.68810000 41.58880000
-0.64680000 -86.08180000 41.99380000
34.77910000 -29.68040000 -10.23900000
34.61160000 -29.08340000 -10.66640000
34.30130000 -27.49350000 -10.61000000
34.01950000 -25.72140000 -10.41710000
33.85210000 -25.05280000 -10.85290000
-6.23090000 44.85990000 32.98730000
-6.37380000 45.39220000 33.06580000
-6.03430000 44.20440000 33.08550000
-6.15730000 44.43870000 32.82370000
-10.37810000 120.45150000 31.84250000
-10.56610000 120.89130000 31.71490000
-10.99080000 120.72360000 31.55650000
-12.91200000 120.78300000 31.24100000
-13.31370000 121.02370000 31.27560000
-13.29010000 121.61550000 31.25650000
-14.21330000 104.30090000 42.09660000
-13.57650000 104.36700000 41.96780000
-11.88300000 104.24400000 41.52970000
-12.32290000 104.44750000 41.54850000
-12.78230000 104.39070000 41.75250000
-21.10250000 1.62350000 17.06750000
-20.61700000 1.00410000 17.50010000
-21.88100000 1.09620000 15.88610000
-22.86490000 -0.30450000 13.94930000
-22.58190000 0.69980000 14.72720000
-5.77810000 19.98140000 33.76860000
-5.80810000 19.98270000 33.23750000
-5.41010000 20.23660000 34.09310000
-5.05400000 20.42520000 33.46410000
-4.35540000 20.67060000 34.02330000
-4.82280000 20.53730000 34.03380000
-4.19770000 20.68000000 33.79600000
-7.99640000 -6.20080000 29.86410000
-8.23320000 -6.83730000 29.87640000
-7.93570000 -5.05600000 29.63270000
-9.02600000 -5.34870000 28.53130000
-8.86650000 -5.80890000 28.97180000
10.27380000 69.90950000 40.24170000
9.91740000 70.21730000 40.44270000
8.82510000 70.11690000 40.60090000
13.34710000 69.85000000 39.27920000
12.97260000 70.04050000 39.54390000
11.70440000 69.83120000 39.83070000
-74.18000000 96.68010000 -19.26990000
-74.76840000 96.27430000 -19.08100000
-74.87240000 96.62170000 -19.15210000
-74.55870000 97.01950000 -19.30290000
-75.39390000 95.85880000 -18.87850000
-75.26370000 96.66570000 -19.10300000
-74.96490000 97.40360000 -19.32700000
-76.82380000 95.82020000 -18.66610000
-77.44010000 95.39840000 -18.47930000
-77.90770000 95.73660000 -18.50650000
-12.05920000 118.47620000 31.29150000
-11.84030000 119.50560000 31.38550000
-12.54590000 118.02460000 31.16210000
-12.47690000 119.47820000 31.26230000
-11.86070000 120.35880000 31.35230000
-11.61220000 120.64090000 31.38410000
-12.26460000 120.64510000 31.26140000
3.31050000 44.39130000 -35.17750000
3.45110000 45.04040000 -35.16240000
3.97390000 45.38910000 -35.12080000
3.20090000 45.28750000 -35.17260000
3.94430000 46.25200000 -35.07240000
3.43620000 43.70150000 -35.18560000
3.14670000 43.07990000 -35.21880000
24.88920000 -40.95840000 -8.76540000
24.32810000 -40.59430000 -8.73250000
25.56880000 -40.02770000 -8.75780000
24.43140000 -39.92190000 -8.71320000
27.89530000 -39.63680000 -8.79570000
27.25460000 -39.48010000 -8.76820000
26.63580000 16.80880000 12.63480000
26.65440000 16.53730000 12.72900000
26.67100000 17.27010000 12.56690000
27.71360000 17.20130000 10.45630000
27.37790000 17.15100000 11.05150000
27.22480000 17.46950000 11.44060000
-10.19800000 119.92830000 31.99570000
-9.77770000 120.26130000 32.21700000
-9.38150000 120.67480000 32.49320000
-33.43650000 -93.72320000 -24.52540000
-32.94670000 -93.77180000 -24.20650000
-32.63070000 -93.90960000 -23.81920000
-32.37850000 -93.96800000 -23.28900000
-32.23950000 -93.90060000 -23.42370000
30.41090000 74.85680000 -27.89040000
29.84080000 74.97920000 -28.79130000
29.19320000 75.56740000 -30.26530000
29.14640000 76.28260000 -31.18040000
-37.96350000 68.98640000 -19.94230000
-37.10700000 68.77440000 -20.14040000
-36.36560000 68.53630000 -20.34580000
-72.91440000 80.74850000 -12.37940000
-75.15780000 81.91160000 -12.56280000
-71.65950000 80.51430000 -12.56120000
-77.93430000 83.10440000 -12.70610000
-79.81470000 83.40840000 -12.48290000
27.09470000 18.04440000 12.00570000
27.14240000 18.73340000 11.96690000
26.97840000 17.60470000 12.04440000
-10.78740000 71.31210000 32.05740000
-10.97940000 71.02300000 32.63350000
-10.40210000 70.39300000 33.84280000
-11.04410000 70.67860000 33.38490000
-9.58270000 117.26780000 33.06790000
-9.43440000 116.78880000 33.45090000
-9.37200000 115.67310000 34.63150000
-9.21440000 116.27630000 34.58350000
-9.06440000 116.61900000 35.09250000
-9.23120000 116.56400000 34.13920000
16.07030000 -32.94540000 -11.17790000
15.38190000 -32.91310000 -10.65430000
15.02030000 -33.83190000 -10.17970000
15.54080000 -37.77180000 -9.72240000
15.34640000 -36.70310000 -9.82050000
28.18930000 15.42290000 8.96300000
28.00210000 14.68740000 9.30610000
28.10120000 16.49500000 9.34510000
28.02030000 17.17600000 9.74060000
-15.71310000 116.34980000 -29.06950000
-15.72390000 116.95460000 -29.12820000
-16.01580000 117.47540000 -29.36510000
-16.33270000 115.22650000 -29.18150000
-15.99140000 115.77260000 -29.09150000
-29.08240000 10.65980000 0.81250000
-29.21130000 11.41200000 0.62200000
-28.88590000 8.04370000 -0.11810000
-28.92160000 9.16450000 0.45450000
-28.79940000 7.26930000 0.13460000
-28.74170000 8.57160000 1.36950000
-37.23090000 56.85540000 2.14980000
-38.01470000 57.40930000 2.34640000
-38.63760000 58.00570000 3.01770000
-42.46680000 60.08080000 3.04510000
-40.15660000 59.01550000 3.60720000
-52.74890000 89.48650000 -17.39380000
-53.16520000 89.73130000 -17.31660000
-52.63830000 89.71780000 -17.45190000
-54.63270000 89.46330000 -17.16690000
-53.94650000 89.73920000 -17.16110000
42.26230000 78.14160000 -0.77070000
43.03150000 78.93940000 -1.04280000
42.95980000 78.87950000 -1.45490000
42.59990000 78.51860000 -1.60520000
42.47480000 78.38760000 0.72190000
42.86240000 78.79620000 0.58840000
42.91140000 78.82270000 -0.15860000
43.25620000 79.20960000 1.03810000
43.44980000 79.37960000 0.19220000
16.97050000 38.74530000 -29.92960000
16.41220000 39.61640000 -30.22460000
18.00870000 37.54850000 -29.19070000
17.32820000 37.74120000 -29.62170000
17.39620000 38.19480000 -29.63600000
17.91830000 38.17040000 -29.32340000
-22.84890000 67.23360000 20.49570000
-22.78570000 68.18300000 21.29770000
-22.36210000 68.37490000 21.97760000
-23.71940000 65.74160000 18.62130000
-23.17090000 66.25000000 19.52460000
-28.85470000 9.87870000 1.79410000
-28.97190000 9.98330000 0.99630000
-28.42140000 8.63250000 2.92780000
-28.59080000 9.50600000 2.77410000
28.62640000 50.70610000 2.61310000
28.70100000 51.42920000 2.64830000
29.37520000 54.75580000 2.01460000
29.09460000 53.83870000 2.60350000
-20.08810000 0.29280000 17.92850000
-19.31300000 0.58630000 18.94020000
-17.72590000 1.74330000 20.99460000
-18.39370000 1.20650000 20.15170000
-17.76800000 2.62170000 21.16540000
19.87020000 -48.44660000 -11.00240000
20.28720000 -48.05630000 -11.42200000
19.65170000 -48.18490000 -10.86620000
21.05730000 -47.38270000 -12.05380000
21.43620000 -46.84540000 -12.36570000
21.23430000 -46.33480000 -12.30450000
1.99130000 14.45990000 42.25290000
1.75750000 14.55960000 42.96820000
2.17410000 14.79780000 42.39480000
2.28590000 15.27310000 42.77990000
2.20650000 15.72780000 43.69340000
-1.51720000 71.61440000 38.91880000
-1.94650000 71.99280000 39.32090000
-1.37510000 72.50810000 40.19360000
-1.88730000 72.37810000 39.90820000
13.92620000 31.17920000 25.07130000
13.91940000 31.44430000 25.14990000
14.31940000 31.56300000 25.00150000
14.58450000 30.68260000 24.71930000
14.05450000 30.83900000 24.99400000
-16.33400000 61.06390000 -31.91310000
-17.04040000 61.35430000 -31.48990000
-17.30350000 60.81250000 -31.07110000
-14.19600000 61.02690000 -33.29740000
-13.93980000 61.63020000 -33.70440000
-14.89480000 61.76160000 -33.14200000
-14.23780000 62.20280000 -33.76660000
-5.19340000 45.56290000 49.22110000
-4.72520000 45.60160000 49.51310000
-4.46560000 45.14760000 49.68930000
-3.27170000 44.60660000 50.07100000
-3.76220000 44.75940000 49.96500000
-2.95470000 44.89170000 50.14730000
64.51950000 100.43270000 7.33180000
64.44730000 100.56760000 7.72860000
63.96080000 99.51960000 6.25970000
64.16800000 99.75250000 6.46750000
63.66060000 99.31150000 6.46590000
0.50770000 53.19390000 -33.70320000
-0.12680000 53.67770000 -33.74810000
3.18340000 52.61030000 -33.50110000
2.62220000 53.20830000 -33.63080000
3.81800000 52.82040000 -33.46600000
-2.45020000 65.20930000 -40.36560000
-2.20380000 65.77040000 -40.82140000
-4.96770000 61.35850000 -37.43910000
-4.60980000 61.23620000 -37.44270000
-4.82020000 61.76430000 -37.71260000
-3.75310000 62.19320000 -38.22670000
24.54280000 -56.32700000 -12.49310000
24.28740000 -55.80670000 -12.40870000
24.40550000 -55.20480000 -12.57690000
23.72620000 -53.34720000 -12.52180000
24.17140000 -53.88010000 -12.67920000
23.67200000 -52.56280000 -12.65860000
30.81310000 58.92880000 -2.12680000
31.05860000 59.65700000 -2.15240000
31.28970000 60.19200000 -2.73780000
30.54910000 58.19010000 -1.42930000
30.48580000 57.84530000 -1.74280000
-14.45490000 59.58650000 -32.62570000
-14.63760000 60.33160000 -32.76210000
-15.26230000 60.55500000 -32.44480000
-14.41270000 58.13200000 -32.21780000
-14.17420000 58.87080000 -32.58510000
-34.75330000 73.71500000 16.06240000
-35.56400000 75.30780000 16.01080000
-36.44490000 73.31960000 15.94310000
-35.37230000 73.17180000 16.03780000
-37.54900000 74.13310000 15.89510000
30.46600000 58.65500000 1.06660000
30.64370000 59.43680000 1.34510000
31.43750000 61.55640000 1.20350000
31.62960000 61.90950000 0.66410000
31.54810000 61.57850000 0.08800000
-0.49880000 -25.39990000 6.33180000
-1.38740000 -25.21440000 6.91130000
0.19470000 -25.04570000 7.84400000
-1.43330000 -24.95220000 7.83700000
0.51800000 -25.74180000 4.69570000
0.49740000 -25.51970000 5.74180000
1.32770000 -25.36630000 6.30420000
28.45010000 69.65190000 21.36520000
29.31570000 70.87450000 21.87770000
28.28840000 68.23700000 19.76030000
27.93520000 68.65930000 20.79570000
-17.63510000 118.24670000 -33.52150000
-17.58220000 119.27810000 -33.88440000
-17.65070000 117.50430000 -32.84810000
-17.62650000 117.52470000 -32.39170000
-17.53340000 117.25700000 -32.06400000
-3.65340000 63.44900000 -38.98810000
-4.12150000 63.54320000 -39.01550000
-4.19050000 63.84900000 -39.29360000
-3.92230000 63.90910000 -39.38970000
-4.67770000 63.66550000 -39.01780000
-4.45450000 64.01630000 -39.40590000
-4.20350000 64.32980000 -39.74530000
-4.79530000 65.18030000 -39.98520000
-5.26210000 65.65700000 -40.17020000
-5.20430000 66.25330000 -40.63270000
-7.53180000 17.33370000 39.27430000
-7.51760000 18.04180000 39.72970000
-7.46580000 19.04380000 39.87210000
-7.35020000 19.57960000 39.86500000
29.33790000 -73.61590000 -11.03730000
29.34320000 -73.76600000 -11.25240000
30.32990000 -74.88290000 -12.12540000
29.92260000 -74.33130000 -11.96610000
29.60350000 -74.13730000 -11.66740000
-15.38780000 37.01330000 22.60040000
-15.51980000 38.20610000 22.53640000
-15.03220000 39.09290000 22.86470000
-14.46270000 39.41580000 23.20190000
-7.38010000 44.57520000 30.43690000
-7.33000000 45.09000000 30.47050000
-7.37390000 45.61230000 30.50340000
0.45520000 -29.00530000 13.22610000
0.31030000 -28.19530000 12.75050000
0.33140000 -27.05060000 12.24190000
0.63920000 -30.27920000 14.27940000
0.59400000 -29.44470000 13.65410000
36.54210000 75.05440000 -17.44770000
36.87810000 75.78560000 -18.23800000
37.53620000 75.99300000 -16.90020000
37.71310000 76.68350000 -18.03890000
35.00600000 72.73230000 -16.80880000
36.00990000 73.66950000 -16.00760000
36.56900000 74.57030000 -16.26290000
-25.79950000 60.04800000 -19.80080000
-26.04220000 60.81010000 -19.80210000
-25.88390000 61.55700000 -20.15270000
-26.96760000 58.29050000 -18.32130000
-26.26550000 57.72350000 -18.74390000
-25.81570000 58.17820000 -19.27320000
-26.45110000 -0.71870000 6.04970000
-26.20870000 -0.31490000 6.99180000
-25.93220000 -0.80450000 7.50050000
-26.82840000 -0.61330000 4.94600000
-32.72840000 75.82150000 20.25690000
-33.08300000 75.10500000 19.86340000
-32.84450000 76.98050000 20.53150000
-32.49740000 78.21030000 20.79590000
-32.64920000 78.56950000 20.68230000
-32.32390000 78.52340000 20.72740000
-18.23940000 97.14310000 -30.38830000
-17.88720000 97.43500000 -30.04460000
-18.54850000 96.61160000 -30.82130000
-18.31590000 96.84970000 -30.41990000
-7.52880000 19.49940000 41.27880000
-7.46360000 20.10860000 41.44840000
-7.42400000 20.53270000 41.91980000
-7.52280000 18.56830000 40.06080000
-7.55270000 18.64420000 40.58760000
-22.76230000 57.96130000 -24.86310000
-22.40690000 58.04470000 -25.34940000
-23.31380000 58.50710000 -24.46550000
-23.71070000 58.93950000 -24.32060000
-23.77810000 59.45190000 -24.56650000
30.40880000 6.22130000 -3.44280000
30.45940000 7.30640000 -4.20370000
30.57720000 8.50700000 -5.38850000
30.54800000 8.13930000 -4.59140000
12.28850000 -25.45950000 -7.39460000
11.70200000 -25.59900000 -7.48050000
11.13950000 -25.81710000 -7.82370000
10.23300000 -26.22390000 -8.64840000
10.47880000 -26.17940000 -8.65120000
10.66140000 -26.05480000 -8.32450000
10.10780000 -26.31140000 -9.53820000
10.53210000 -26.19830000 -9.20430000
14.78970000 -22.62520000 -16.46120000
15.29630000 -22.24040000 -16.81930000
16.10020000 -21.52720000 -17.51020000
16.67580000 -20.97910000 -17.86500000
58.84500000 90.38230000 -5.58670000
58.16750000 89.89770000 -5.83180000
58.47020000 90.19360000 -6.39800000
59.05070000 90.62900000 -6.35400000
58.09210000 89.95940000 -6.81560000
57.47780000 89.29360000 -4.76790000
57.78820000 89.54480000 -5.15460000
-6.91450000 -16.74950000 20.46040000
-7.21420000 -15.70850000 21.03570000
-6.77040000 -17.43210000 19.90940000
-3.92470000 66.58430000 33.71380000
-4.44440000 66.96090000 33.87660000
-4.32380000 65.84930000 33.04020000
-5.26500000 64.94090000 32.16600000
-21.52190000 57.78730000 -26.35310000
-21.77430000 57.78500000 -25.94490000
-22.18720000 58.16280000 -25.61000000
59.06200000 90.40390000 -3.87120000
59.37940000 90.62630000 -3.52020000
59.17940000 90.51360000 -4.29750000
58.14630000 89.82780000 -5.36770000
58.64590000 90.17170000 -5.06620000
-23.56150000 71.79090000 -31.18340000
-22.77890000 71.92260000 -31.91590000
-24.73660000 72.27190000 -30.18540000
-25.95750000 72.92140000 -29.13650000
10.23690000 -26.06080000 -10.32950000
10.52820000 -26.07010000 -9.86730000
8.79010000 -26.05370000 -11.24900000
8.42010000 -25.91670000 -12.20760000
9.32860000 -25.62340000 -12.49170000
9.87800000 -25.55990000 -12.13410000
9.63970000 -25.43120000 -13.05460000
-10.57500000 62.15210000 28.41560000
-11.01700000 62.19160000 28.16630000
-11.04380000 62.93040000 28.48050000
-11.77940000 63.71340000 28.02040000
-11.43070000 63.52910000 28.33590000
25.84910000 -19.77200000 -7.23100000
25.36020000 -19.28030000 -6.93050000
26.36970000 -20.24700000 -7.41520000
27.04240000 -20.06000000 -7.46330000
9.01830000 59.37840000 28.73060000
9.57670000 60.57550000 29.05650000
8.28560000 59.05120000 28.88980000
9.87900000 61.46070000 29.38140000
10.52070000 61.53140000 29.16070000
9.68420000 -26.36060000 -9.41250000
9.92720000 -26.28100000 -8.82000000
9.46510000 -26.22700000 -10.36020000
9.74520000 -26.06550000 -10.67980000
9.73280000 -25.84790000 -11.27210000
26.91810000 5.25450000 -19.90550000
26.93840000 6.41660000 -19.75940000
27.09110000 9.23450000 -19.48080000
27.20290000 10.29480000 -19.51130000
27.65120000 10.91480000 -18.74670000
20.30490000 -8.42690000 -24.72160000
20.13770000 -7.75950000 -25.21990000
19.48120000 -7.79960000 -25.77550000
18.52380000 -6.30870000 -27.17330000
18.77180000 -7.19970000 -26.61940000
11.14520000 56.98630000 26.80180000
11.04490000 58.01240000 27.26080000
11.19830000 55.95800000 26.44820000
11.84210000 55.50350000 26.02050000
17.52290000 33.26560000 -30.19230000
18.02670000 33.84930000 -29.80730000
18.02350000 34.45380000 -29.70450000
18.25290000 30.44180000 -29.53840000
18.00720000 31.10240000 -29.79510000
17.22930000 31.30920000 -30.39110000
-17.71000000 -33.66280000 -18.02540000
-16.96300000 -34.10230000 -17.31500000
-16.48540000 -34.94890000 -16.81960000
-19.64070000 -33.71530000 -19.59210000
-19.18880000 -33.60460000 -19.25170000
-81.78890000 85.52490000 11.99480000
-82.49030000 86.20660000 12.20610000
-83.82550000 86.84100000 12.18350000
-84.93660000 86.73940000 11.79510000
-62.64880000 70.78100000 4.08400000
-62.25150000 70.33250000 3.58220000
-63.29480000 70.50050000 3.12840000
-60.82870000 69.71280000 3.52550000
-61.81410000 69.66440000 2.66890000
-62.50090000 69.70570000 2.06280000
-63.88620000 70.29880000 2.11510000
-63.98190000 70.46570000 2.48320000
-42.23530000 83.22260000 15.77880000
-44.07570000 84.86730000 15.75960000
-49.26400000 88.60220000 15.79100000
-51.65490000 90.17650000 15.76660000
-54.05640000 91.51090000 15.69380000
-6.88520000 100.52530000 -26.62890000
-7.20670000 100.43990000 -26.37030000
-7.47690000 100.23920000 -26.46120000
-7.27890000 100.51460000 -26.22410000
-7.53010000 100.14630000 -27.06250000
-7.76210000 100.10440000 -27.45400000
-20.41650000 54.48880000 21.02750000
-19.79610000 55.02250000 21.75240000
-19.43530000 54.66630000 22.02330000
-20.97520000 54.26630000 20.38340000
-21.34550000 54.92320000 20.11820000
-47.76090000 85.56170000 15.75650000
-49.03590000 86.96160000 15.73110000
-48.56620000 87.51880000 15.70990000
-49.75050000 85.35990000 15.82250000
-50.69960000 87.51360000 15.76920000
-47.83760000 87.53260000 15.75990000
-46.23880000 86.56580000 15.78280000
15.47990000 29.50510000 -31.50510000
15.52410000 30.44540000 -31.43960000
16.07970000 31.13670000 -31.08220000
16.62830000 31.63170000 -30.77280000
16.71690000 32.33750000 -30.71690000
-0.29010000 23.33610000 27.22490000
-0.20180000 24.28160000 27.23780000
-1.01060000 23.26970000 27.20620000
-1.55780000 24.94240000 27.21200000
5.97880000 32.21600000 28.72820000
5.62310000 31.98070000 28.84390000
6.11770000 32.87120000 28.71570000
5.19690000 31.44410000 28.97740000
4.97200000 31.78660000 29.10150000
-78.18340000 94.77080000 15.46410000
-77.33400000 95.26320000 15.59350000
-76.49870000 95.88820000 15.67500000
-76.53770000 96.86120000 15.66010000
6.92110000 37.76430000 28.45330000
6.59700000 37.36140000 28.60550000
6.95280000 38.52680000 28.41850000
7.07280000 39.16050000 28.34040000
6.83750000 39.48110000 28.44270000
-9.82510000 99.79190000 -29.59960000
-10.04340000 99.84540000 -29.25470000
-10.53240000 99.83110000 -29.02770000
-11.16860000 99.90670000 -28.71640000
-11.56640000 99.86950000 -28.78120000
-84.45540000 99.70570000 17.48680000
-83.42450000 100.17230000 17.69690000
-82.91460000 100.26510000 17.92220000
-86.25910000 98.51510000 17.11230000
-85.63490000 99.02720000 17.17510000
3.73530000 36.38060000 29.62970000
3.36890000 36.93750000 29.69880000
4.21100000 36.90750000 29.55780000
5.06560000 36.39010000 29.26050000
4.79740000 36.62310000 29.37350000
5.37630000 37.00420000 29.14140000
5.14270000 37.73290000 29.25710000
40.55800000 -80.34450000 -17.18280000
40.56260000 -79.99950000 -17.24700000
40.99480000 -79.75020000 -17.54730000
39.82350000 -80.37820000 -16.73380000
40.10470000 -79.90230000 -16.98740000
40.38760000 -79.35030000 -17.25600000
39.47220000 -78.58270000 -16.97740000
39.20420000 -79.08350000 -16.70250000
38.81660000 -78.80510000 -16.48140000
38.84080000 -78.39120000 -16.56360000
38.97740000 -79.62850000 -16.40060000
38.51430000 -78.97090000 -16.20810000
-7.79760000 124.86230000 33.11430000
-7.84860000 125.12960000 33.40400000
-8.02240000 125.43430000 33.85380000
-7.97990000 125.49900000 34.29890000
-22.99090000 -14.68310000 -0.85380000
-22.90350000 -14.46130000 0.14590000
-22.47000000 -14.79980000 1.43480000
-22.86570000 -15.38460000 -2.49130000
-23.04910000 -14.98070000 -1.87200000
6.27520000 37.00030000 28.74660000
5.95650000 37.36000000 28.87960000
5.67140000 37.54930000 29.01190000
5.65850000 38.12420000 29.02630000
15.21860000 60.98460000 28.47160000
15.04890000 61.64530000 29.00850000
16.19850000 59.85550000 27.23560000
15.33500000 60.13510000 27.93590000
-11.58030000 -46.39920000 -10.70060000
-11.33920000 -46.05710000 -10.66570000
-11.18370000 -45.20100000 -10.48520000
-11.32050000 -46.41250000 -10.87790000
-11.09690000 -45.39320000 -10.70170000
-11.31140000 -46.17820000 -11.07940000
-11.14900000 -45.35230000 -11.00230000
39.05280000 -77.99430000 -16.71700000
39.51250000 -77.94370000 -17.01380000
38.80990000 -77.60750000 -16.56290000
39.64760000 -79.52310000 -16.81730000
39.58630000 -79.23140000 -16.88740000
39.87280000 -78.97930000 -17.09840000
-16.41910000 106.11920000 -40.67670000
-16.27550000 106.63160000 -40.14840000
-16.40950000 108.03740000 -39.16240000
-16.32400000 108.54650000 -38.89430000
6.63040000 39.89410000 28.54710000
6.82500000 40.48370000 28.45210000
7.47090000 41.00350000 28.14870000
7.02410000 40.92890000 28.36250000
40.53550000 -78.63590000 -17.41400000
40.10180000 -78.64130000 -17.23220000
39.98430000 -78.27100000 -17.22440000
41.45130000 -79.00640000 -17.90230000
41.19270000 -78.62610000 -17.78040000
41.53780000 -78.25510000 -18.04120000
-13.18780000 -50.76010000 -13.09610000
-12.70970000 -50.42500000 -12.67940000
-12.02730000 -50.57360000 -12.02390000
-11.86160000 -49.76680000 -11.91670000
-12.20370000 -50.64390000 -12.25620000
-12.03290000 -49.58450000 -12.19220000
3.24920000 -16.84490000 -28.48340000
3.67770000 -15.94360000 -29.02910000
4.32660000 -15.60010000 -29.14470000
2.76980000 -18.37170000 -27.37230000
2.59100000 -17.77740000 -27.86800000
12.30900000 -6.70680000 -30.79080000
12.90810000 -5.90010000 -30.80840000
14.42070000 -6.17250000 -29.80500000
14.00030000 -5.65550000 -30.26670000
7.68720000 42.97220000 28.27960000
7.30770000 43.19710000 28.45590000
7.56300000 43.53900000 28.34000000
7.97740000 42.78640000 28.14660000
8.70750000 42.86130000 27.83650000
-12.34640000 -50.80190000 -11.46110000
-12.71910000 -51.34860000 -11.46680000
-12.03650000 -49.88660000 -11.32790000
-11.75090000 -48.91340000 -11.37160000
-11.76250000 -48.68700000 -11.54710000
-11.79940000 -48.99350000 -11.73250000
64.78270000 101.14580000 10.55490000
64.63390000 100.94590000 10.18670000
65.06800000 101.45960000 10.49880000
65.65660000 101.94430000 10.49470000
65.82590000 102.02950000 10.74080000
65.66180000 101.82390000 11.24680000
30.37630000 8.37260000 -1.30450000
30.34870000 8.76180000 -0.43930000
29.38630000 8.36080000 3.44140000
29.63770000 8.77300000 2.79250000
29.89700000 8.59270000 1.63950000
11.51320000 -10.97150000 -29.18930000
11.27860000 -10.25140000 -29.68150000
10.71390000 -10.28770000 -29.92870000
11.85530000 -13.07940000 -27.79660000
11.85560000 -12.21010000 -28.30270000
-15.55360000 69.60740000 25.27780000
-16.12860000 69.67640000 24.96300000
-16.33150000 70.10570000 24.87970000
-15.49740000 69.08030000 25.31390000
-16.30000000 69.43870000 24.89250000
-16.29260000 70.67560000 24.97250000
-15.84390000 71.12280000 25.25280000
-57.56550000 70.80550000 7.05460000
-56.46650000 70.58760000 7.38380000
-58.74020000 71.46190000 7.12780000
-57.68680000 71.59470000 7.75730000
-61.34490000 72.69130000 7.17660000
-60.29210000 72.31550000 7.24430000
-62.31810000 73.27060000 7.37580000
24.26020000 40.93350000 16.03760000
24.52540000 41.29810000 15.87200000
24.37380000 41.44100000 16.15750000
24.49380000 39.00410000 15.41700000
24.10240000 40.00820000 16.04420000
20.82430000 -29.01560000 -14.95100000
20.47110000 -28.51300000 -14.86320000
19.91950000 -28.60920000 -14.54900000
18.10770000 -30.53160000 -13.01240000
18.16020000 -29.69390000 -13.22970000
18.93840000 -29.11910000 -13.85610000
-20.87060000 -77.75420000 -17.90270000
-21.21140000 -78.50610000 -18.15160000
-21.50950000 -78.09660000 -18.47950000
-21.44060000 -77.50910000 -18.45760000
-21.00310000 -78.84660000 -17.83250000
-20.73490000 -78.52130000 -17.57400000
-29.69250000 50.41350000 -0.54180000
-29.91510000 50.87660000 0.00510000
-29.69960000 50.27890000 -1.43290000
-29.57040000 50.03070000 -2.67260000
-9.81940000 88.42190000 -34.05950000
-9.61110000 90.84300000 -34.03780000
-10.03480000 85.26110000 -33.81850000
-10.17230000 84.26840000 -33.40810000
-30.34150000 45.87970000 -3.92120000
-30.35260000 45.73390000 -4.83440000
-29.80380000 45.42490000 -8.64560000
-30.03410000 45.55690000 -7.54350000
-27.30340000 -28.96490000 -11.05790000
-27.47430000 -27.95290000 -10.97780000
-27.32850000 -30.32180000 -11.25470000
3.31720000 -21.21940000 16.86980000
3.24690000 -21.34030000 17.25630000
3.01780000 -22.15880000 17.26440000
3.07330000 -22.37990000 17.78940000
-20.15090000 -19.42130000 -4.45510000
-20.74250000 -18.78310000 -5.01580000
-21.25230000 -18.08470000 -4.82060000
-21.55680000 -17.71190000 -5.20160000
-2.66130000 -68.82030000 37.71560000
-2.25450000 -69.24300000 36.50540000
-3.00510000 -68.28840000 38.71800000
-3.04800000 -68.82740000 39.26460000
-16.49630000 35.51730000 24.43460000
-16.63040000 35.97420000 24.37540000
-15.88600000 37.38050000 24.82180000
-15.88750000 37.76080000 24.75280000
-15.39220000 37.98180000 25.04070000
-28.77140000 51.44910000 8.39490000
-29.24270000 51.40160000 7.55650000
-29.48210000 51.18080000 6.88550000
-27.65670000 50.77160000 10.01850000
-27.69790000 51.41550000 10.25980000
-28.13790000 51.67890000 9.59380000
26.97530000 39.47710000 11.69200000
26.63500000 40.93420000 12.30580000
25.61810000 41.05170000 13.91850000
26.10100000 41.34160000 13.21920000
-10.12340000 83.90890000 31.69110000
-10.13360000 84.52910000 31.57460000
-10.18480000 84.87240000 31.95470000
-10.23010000 84.58280000 32.16890000
-10.23350000 85.34050000 32.05720000
-10.21470000 83.51450000 31.15240000
-10.19720000 84.03560000 31.21690000
-12.48570000 106.75730000 -39.05530000
-12.35590000 107.22850000 -38.73620000
-11.87200000 107.37200000 -38.43570000
-10.84210000 108.01100000 -37.25120000
-11.15160000 107.18440000 -38.02430000
-11.49190000 107.55730000 -38.07320000
-11.54260000 108.17480000 -37.75640000
-15.05580000 -23.63830000 -7.71520000
-15.59990000 -23.41540000 -7.75900000
-14.62740000 -23.62790000 -7.42470000
-14.24110000 -23.47460000 -4.16180000
-14.42200000 -23.45290000 -5.33000000
-12.91730000 22.27610000 26.84580000
-12.69930000 22.37130000 27.01900000
-12.57530000 22.80970000 26.98830000
-12.75850000 21.47640000 27.13590000
-12.46590000 21.99830000 27.26860000
-11.52480000 22.80870000 27.66140000
-11.84210000 23.08500000 27.38110000
-64.99590000 90.51000000 -18.98520000
-64.44260000 91.14150000 -19.23510000
-65.76930000 90.50080000 -18.84260000
-65.37000000 91.50140000 -19.15720000
-60.12910000 93.40740000 -20.30260000
-61.15790000 93.31100000 -20.13700000
-61.97570000 92.66110000 -19.92300000
-8.36870000 25.45560000 -33.94400000
-7.85750000 25.66940000 -34.11540000
-9.47570000 25.27580000 -33.64300000
-9.98520000 24.44050000 -33.52000000
29.22800000 -6.03610000 -5.87420000
29.07120000 -5.61060000 -5.52940000
29.09350000 -5.00480000 -5.12200000
-12.24110000 23.17180000 27.08670000
-12.26200000 23.53440000 26.97090000
-12.32340000 23.99060000 26.90000000
-11.89550000 24.40280000 27.11580000
31.92730000 -63.69150000 -15.40770000
32.13870000 -64.06820000 -15.46230000
31.80210000 -64.17320000 -15.21940000
31.55930000 -63.91880000 -15.11730000
33.85420000 -64.17180000 -16.60720000
33.56550000 -63.78520000 -16.49670000
33.39760000 -64.32460000 -16.27920000
33.15130000 -63.80310000 -16.22190000
-87.09640000 80.14290000 -9.54410000
-88.18450000 79.83740000 -8.93600000
-87.84810000 78.92120000 -7.95240000
-88.80860000 79.49260000 -8.32110000
13.10680000 17.44210000 23.16770000
13.27180000 18.61330000 23.12050000
12.21520000 18.16410000 23.77280000
12.77550000 19.49270000 23.48170000
11.28630000 20.48400000 24.35890000
10.94410000 19.34660000 24.50180000
10.38790000 19.96540000 24.76870000
10.34410000 20.93750000 24.80980000
10.74780000 18.26510000 24.55590000
10.03240000 19.57950000 24.91000000
-16.18180000 -23.09460000 -7.89290000
-16.35980000 -23.30480000 -8.19660000
-15.98660000 -23.98720000 -8.35070000
45.01270000 78.75010000 -4.93300000
45.58210000 79.31140000 -4.84210000
45.54450000 79.24490000 -4.23850000
45.21210000 78.90710000 -4.04170000
46.21390000 80.19570000 -7.02710000
46.16410000 80.08280000 -6.53410000
46.60640000 80.59350000 -7.18560000
46.92850000 80.79790000 -6.39330000
16.18250000 52.43540000 22.32330000
16.02730000 53.25520000 22.65960000
16.29150000 53.83700000 22.61440000
15.53660000 51.30830000 22.53390000
15.99670000 51.64970000 22.25980000
