-48.67095566 38.58972931 33.14124298
-52.24222946 23.95054245 -0.86818898
-3.15895700 -22.34550095 -24.15190887
-43.19545364 -17.32991600 -12.01159477
-8.01873684 -23.82427979 18.87735748
-21.78024864 16.23816681 -32.82788849
-34.71078873 21.43047523 42.26673889
28.56632805 5.26937199 30.06299210
-61.98613358 40.28378296 36.99171829
-4.92283297 43.07320023 -42.49057007
3.76834512 -49.18949127 8.61654377
9.19102192 29.51699638 -42.93871307
-21.68756676 -37.79728699 9.72441483
-65.23014069 18.58185196 17.41721344
49.28357697 31.28988838 1.53515995
19.75474930 -36.63719559 -21.24496841
-41.76584625 31.70654106 43.79397583
12.65636253 -26.78684807 -24.17896271
-67.15128326 42.04758835 8.02317905
-31.00162888 -20.51101303 9.77185631
-48.00390244 6.66780376 -3.04725790
-63.64765930 40.45367813 2.05261850
-48.17808151 -5.61260986 -13.78106213
36.45352936 36.79363632 42.46887207
-37.18534088 -3.16586781 -7.14877939
-28.52435875 -3.81410408 -19.62465286
4.09187698 -39.73789597 -22.25114250
-41.78573227 27.79885674 -25.52120399
11.10433292 -29.65201187 -22.79827499
9.95998096 -47.87509918 12.66927338
-25.07028008 -21.50911713 -13.03762531
-31.88603020 19.60925293 23.68489838
-39.53149796 14.56351280 19.02110100
3.43759704 29.14176750 35.11576462
-4.40338421 -28.76131248 17.72018433
12.31197357 -7.09478521 -29.71856499
-39.52929688 0.26313001 -16.78205681
-55.48158264 38.53978729 28.23715782
-5.46011400 -37.50447845 16.66562462
-6.60295486 -13.05930996 -25.88798523
-70.44573212 45.03459930 -2.94358206
-26.33789253 11.33650970 18.60325813
-27.20328903 -28.39246750 -1.48163199
53.54487228 24.68134499 1.65731502
-19.10551262 -15.63994694 18.29512024
-66.96886444 33.35200882 31.35469627
-12.89215183 -46.89006805 -10.81702805
-41.41753006 -13.35062790 8.46699905
-73.98511505 45.45236206 16.57552528
1.80989671 6.63186264 32.95960617
72.60968018 41.45903397 -25.40661049
23.31962967 3.96369100 -33.43550873
22.20920753 35.14459610 -49.62625122
-26.16657066 -2.67729712 19.61145782
17.48166275 -20.28941345 -21.91447449
-2.08619094 -26.91930580 -21.57964134
-21.11936188 -26.12558174 -14.64228058
78.81278992 40.21598434 -7.52307081
7.74372911 -48.71886826 -6.25702286
-19.60654640 20.62359428 39.95423889
-15.42978477 44.25431061 -45.38975906
57.17433929 33.58999252 10.52254391
-57.20632172 17.06414795 -14.39137554
-46.37331009 -7.94281387 19.23963165
-14.70728207 -26.76523590 17.76831627
39.55290222 4.52546501 -2.69366503
-66.43402100 37.22563934 24.48460770
5.86804390 -0.84112298 29.30452728
-27.17260742 -10.87887287 -7.71446037
27.09930229 -30.27803230 -10.67593956
-16.19351006 29.13435936 -38.24548721
-49.92992020 11.73989582 23.33935738
-23.73555756 33.34718704 48.74108124
60.58461761 24.87692642 -6.01548004
-24.33417702 18.87788963 25.12261963
77.38280487 38.88318634 1.27717197
-17.55994987 4.89069700 31.10016823
-43.40161133 -7.01803684 -18.15460968
-12.19939613 9.74375153 -31.92697525
31.17392349 -41.73479462 -7.74678898
-47.69898224 30.44745827 20.53842354
-6.39704800 -3.14655590 29.76329803
23.17365265 -7.78085518 -23.36187172
-40.69265366 25.88290215 -14.65043736
-50.45361328 8.57426453 -4.47992182
-40.53318405 31.23511505 27.22028160
-26.49046516 -23.84019661 -6.32453537
-21.42629051 35.37515640 -39.39825821
9.17866802 -29.94878197 15.89941311
6.18181276 37.08356857 48.66289902
18.53156281 36.04652023 45.08286667
-60.62221909 30.38255882 -0.89449298
-6.29680586 -48.33068085 -7.92501879
-26.23563766 -0.38826501 -26.00813484
-21.13262367 -18.14442062 14.98594475
-1.32286298 -26.77252197 -22.05405807
-67.98106384 26.92436600 -12.10159111
-13.07536411 -18.13945961 19.26023674
7.65861416 15.20935154 -35.94900131
-43.87098694 27.87862587 9.99822330
-50.68532181 35.27009964 9.97063446
-45.47513580 24.27004051 -25.07176781
-37.60322952 6.68443203 -18.58747673
-30.88728142 -25.04341507 7.13016891
-15.76977253 -23.82467842 15.50758934
-43.28277206 11.22558403 -19.67652130
-48.23190308 18.52905655 -17.58006287
25.08445168 20.77313614 25.54809761
-52.70738983 25.95595360 -1.44421005
5.70910597 5.56292915 31.08163834
-49.30640030 -1.03019404 -14.53648567
-25.54054832 10.96613026 18.38318253
-46.34147644 35.21627808 -30.51809502
55.91439438 27.15524673 26.75569916
25.18313026 22.28536034 27.37385750
-74.20711517 42.85925293 8.49905872
18.25964355 -26.90268898 -20.92586899
-29.24169350 -22.44231415 -16.70037842
-4.85400581 44.44635010 -43.70421982
-21.59300232 5.06009960 -9.17801189
-34.38984680 -18.12188721 -1.95272601
-13.13585567 1.56437302 1.24343836
-5.77748919 1.40490496 -30.78961372
32.97168732 34.08351135 -37.60950089
-42.09759140 8.55800056 -21.11748505
-41.27580643 -11.62135983 -2.56548905
-29.62146378 43.74359512 -38.01489639
-79.87472534 35.32851791 19.06942368
-37.02780533 4.81536198 30.97738838
-60.94869232 28.00235367 25.99353600
-55.60017014 19.75588226 -12.67702770
-52.21667862 -0.54733551 -6.90808296
-33.41678619 31.83142281 37.28073120
-27.81600952 -23.32319450 -7.85729218
-41.06653214 34.04419327 -33.40235519
-60.87397003 17.95820999 -6.73364735
-57.11260223 9.58123493 -7.90869665
-34.48393250 19.85821152 -24.26635933
-7.70095587 -10.83535576 -28.15785980
-40.76533890 35.86979675 36.91337585
-69.50514221 42.31587982 8.17491341
3.21862888 -20.23955536 18.99167442
-29.72813606 -14.01742840 1.37222135
-39.66175842 12.39076328 31.80749512
18.21046066 -16.96390152 17.07320976
-11.38616753 35.33807755 -48.25567627
20.78709984 -15.20619488 -21.70038033
-51.01681137 21.88602066 -3.02644205
30.20571327 -33.89332581 -4.84395409
-16.83030510 -38.80295563 12.93378353
-57.26041031 2.77243710 -9.65229416
-64.74314117 26.02622604 -8.34567547
-0.59646398 -33.58089066 16.24525070
-11.76656628 -7.17359495 -26.28114510
-22.70266533 -7.83226109 -21.91391373
18.16672897 -33.53727722 -20.55191994
81.21855164 38.36352921 -8.50740242
-41.35195541 -4.63998604 23.42802048
-46.89310837 -13.28322411 -11.88031864
-34.08944702 -15.57013130 9.73084164
-53.06118393 5.03073978 -5.65366316
-25.59691238 -32.58011246 12.93325138
-52.60716629 -1.51527500 -14.18632030
-71.01623535 30.04975700 30.43064308
-56.60506058 35.17136002 28.51478767
-4.77753067 2.46458650 32.41618729
-14.81255341 -13.12954903 -24.85319519
12.47101116 -10.90806675 22.67477226
-63.41665268 15.94927597 22.84977913
-69.86313629 45.56446075 4.55916405
-0.64863050 -22.36585236 -25.12587738
37.85631561 23.64346313 -40.36174011
11.96775246 37.84412003 46.83028030
18.89288712 13.86783981 34.30379105
-19.28432465 -8.13007927 -23.80200195
-51.66546631 30.54445457 -10.13393402
-10.95188427 29.66906166 -30.85307121
-37.19887161 20.64541435 36.22004700
-34.77667999 -3.69659734 26.05837250
56.61581421 38.17000580 -24.36378860
-22.92930794 -18.60363579 -15.84011841
31.39697647 34.64431763 -38.53452682
-31.05013657 -18.02473068 -13.68627071
-46.04798126 1.34987044 26.03708267
-0.16623200 -28.50286293 16.53967857
-21.08037186 24.00982857 -33.90676498
4.45224094 -47.99589920 -12.72436523
-40.64186096 -14.31917477 17.74175262
41.55309296 7.62738609 -8.14936447
-57.98901367 42.38930511 6.09061623
76.25254822 40.09379578 -20.36801910
-40.89656067 -6.48073101 1.70640600
3.73876309 35.74468613 -42.09355927
-13.89673710 31.48867416 49.46633148
-43.11930847 0.68928999 9.99364281
-1.12201798 -28.99148178 -23.65723991
-53.92201996 9.18510723 -14.39513779
-45.22404480 32.39816666 -28.26623535
5.29475403 -24.22226524 17.73864555
-42.71006775 17.27886009 9.79693985
-69.45740509 30.99021912 -17.34156990
-79.62487030 44.60150528 20.61136818
52.39617538 18.43234253 -7.43627119
-12.61999416 27.56402206 47.63575745
27.82181168 -14.16224861 5.99717188
47.21634293 27.18684387 -35.68393707
-78.84792328 35.75850296 14.64619923
-10.33399773 36.50796127 -42.76445770
-33.43790817 8.83642960 -20.22798347
-31.47255707 27.07271385 -37.38956833
-47.20021820 -14.35641289 13.55648422
-34.16879272 3.42048001 27.31886482
-30.53419685 -21.96928406 11.69347763
-48.42919159 37.12032700 34.43499374
19.69591522 -12.13695335 18.31199074
-66.24886322 43.01820374 5.45159101
2.72550511 41.33254623 -41.57401657
-8.33643818 -26.29635048 20.10169029
18.08657074 -41.58610916 12.77354240
-4.14394093 15.36364460 38.57748413
-36.41149521 -23.67959404 15.03790188
-21.95585251 10.55683994 -15.86953449
43.95951080 8.60293484 -9.27984524
29.46695137 -36.24484253 -9.02807522
-57.39659500 23.41200256 20.44458961
-50.37210846 36.70849228 3.32724595
-27.30548859 -32.61198807 10.59369564
22.85882187 30.23424530 -46.41592789
-55.53704834 17.87690544 0.81875151
36.82262039 30.06896973 -43.27275848
-42.50503540 6.29300880 3.71858191
-1.43956196 -33.12080765 16.81957054
23.53790474 4.50512886 4.47301102
12.07196331 42.83446884 -49.44223785
-2.94030905 -6.41435623 -29.07804680
-33.33141708 -14.50831890 23.23476410
-47.85038376 -4.82184410 17.52626801
-18.86048126 28.44013023 -28.07350540
-50.20283127 22.45413017 -21.21689606
-40.09112549 15.16231155 12.17118168
57.27150726 40.56209183 -37.44827271
-41.82588959 15.59544373 21.14776802
8.70329666 -20.71350288 -27.28667641
-28.00504494 -0.66674900 -1.02679729
-37.23914337 22.37721062 -1.64020300
-47.87660217 31.58366585 -28.72553825
56.53502655 21.26557922 -8.04532146
-20.32355118 -11.21656990 19.93621635
-45.15097046 -10.18262196 14.26988029
-13.08672333 -43.76508713 13.07696724
-36.91754532 43.42124939 -35.10518265
9.79679394 -16.54559326 20.56475258
-65.21402740 23.81382942 9.09195709
-43.22230530 25.95646858 19.41602898
74.35486603 35.15137863 10.19841957
-44.07419586 33.00463867 43.09592438
-13.52181435 25.24718857 -38.75075912
-29.37000656 23.58372688 -30.42358589
-75.31150818 47.35672379 -2.68391800
-40.97937012 -12.77954674 19.05082512
11.67239857 -33.73476791 -22.25823021
-41.54493713 28.84896660 -26.80369568
1.93743205 -40.72240448 -21.74830627
-0.94230300 23.06077766 43.81550217
-9.03811169 -46.79195786 13.46493530
20.59529114 -44.86972046 10.00570393
-33.54723740 16.31783676 -27.45542526
12.73809338 -30.61748505 -22.54858398
51.65940094 22.54676437 8.37208462
-23.53258324 1.05852306 -29.05096245
-8.95513821 -12.10191154 -25.61042976
-36.48687363 -11.93637276 -14.42207813
5.84259892 8.54681683 -34.93868637
-35.16537857 28.98975372 -21.50047302
-65.66925049 46.02894592 6.21848822
-29.83218575 -26.23991203 13.11725616
-18.00912476 -4.26044989 29.17001724
-21.52388382 -25.19703865 12.52723598
-10.84291553 -6.59975100 -26.63668060
-7.27785301 -49.19287491 1.23915994
51.00512314 31.88804626 -5.36226988
42.71304703 17.05850410 7.28364992
-61.56886292 42.43899918 -15.60542202
-66.96156311 41.62075806 34.89538574
10.15970707 4.93307304 29.74889565
-21.29144096 40.00401306 -36.11893463
-1.35654104 -17.33583069 22.55409622
11.16756344 -48.90573502 3.06508994
-19.55669022 -21.92865753 -16.69680023
-27.49872971 6.88720322 -26.04721069
-44.96608734 8.63408089 22.48324203
-44.79940414 19.79091454 30.40776825
33.92938232 42.41568375 -49.74710083
-66.22753906 43.67881775 -0.93273401
9.95158482 23.23977852 34.01634216
6.60814810 27.08327293 -31.91375732
-33.31996536 -5.68671417 20.80324554
39.81634521 10.31106853 1.39855504
-58.57514572 9.95915222 -11.10415745
21.56372452 -47.17415237 5.92091608
-15.53895378 23.42418861 -35.66522980
-41.36921310 -5.55643749 -17.62235832
48.24250031 10.16081238 -9.10026932
-26.20276451 -18.78346252 5.85196781
-18.37509346 24.58300591 -35.49098969
-32.23821640 12.65190601 32.21738434
-14.21594238 -21.61236382 17.01372337
-45.42822266 -5.00513935 12.30798531
19.48468208 35.49402237 45.03033447
-74.88211060 42.34354782 10.99715424
-37.57558823 9.97206879 13.51288795
-37.21582794 22.73941612 23.03089714
-2.42634010 33.97470093 -48.38668823
9.77181435 6.77434015 29.98608971
-23.26979637 41.94985199 -43.75657272
-47.51380539 12.00207901 -18.58968353
-15.24456596 19.77062416 -36.85603333
-19.28282356 29.61645889 47.30525208
-63.06005096 18.98048401 14.69935417
-45.85653305 34.25343323 29.51827431
-25.51519012 36.12262726 49.52952957
29.20755577 -37.88724136 -7.53145981
-38.18926620 42.15376282 -32.31451035
-11.23495960 -48.60698318 -1.75229251
-15.43790054 1.98137295 -29.16059303
-66.29965973 42.37930298 -2.45713091
-7.38474798 21.75549889 -36.71363831
23.46378899 -17.69355202 11.21841145
0.83690298 -26.40199089 17.13778305
20.21857452 -28.79027367 -19.86677361
-3.52952003 -2.34614778 -14.41449261
-52.80346298 25.49009705 35.02116013
-68.53121185 41.48319626 -6.71242285
-3.55811000 -25.05143738 -21.99851799
-36.98426819 -23.19029045 13.25264931
-67.75321960 40.53805923 -14.62607670
-6.39075422 43.09181595 -47.89702225
-53.09880447 38.53652954 -14.81569767
20.59959984 36.68133545 44.02865982
-13.11851215 -13.97270012 -22.31220627
-24.31009102 -29.37120819 3.47773695
29.76599503 -36.17431641 -4.41301823
-13.04965782 33.76961136 43.65345764
1.55939698 39.08053589 47.15137863
-29.44533539 -25.90816879 5.23477507
-44.06156540 33.79362106 25.93715858
12.90662003 -30.29464912 -22.30832863
-30.33385849 -18.77972412 7.99703598
-68.51923370 39.82226181 27.52339172
52.89318466 27.16688347 -26.25551796
-32.79261017 1.65060198 19.76692200
-25.02702904 16.91248703 -29.61204529
-76.19017792 42.05164719 9.61252499
-25.59335709 -19.75776100 8.76919937
-56.09865952 35.98554993 14.48767757
-37.35474777 31.70670891 -22.90111542
30.16323853 -32.63059998 -7.36640882
-18.28819275 24.60114288 33.48040390
62.74687576 26.61584663 -3.26017308
-70.76701355 46.13779449 -1.21133697
4.88354826 -17.21040916 22.84222031
16.54026794 37.40791702 -40.56253433
-23.49570847 -43.43216705 -9.76095581
-19.43450356 34.81573486 -39.60077667
-0.99384201 -16.53322792 23.50297737
13.86145592 12.07374859 -38.68059921
2.69943190 -32.25295639 -22.08606720
14.83796692 -28.70422554 -22.03767014
-69.24916840 44.33451080 10.37650967
-19.76095772 20.90409088 28.11799622
72.13351440 40.35039139 -30.87454605
-52.52457809 13.71443844 -15.79353523
19.01798820 -26.03390884 -22.10592842
-4.33155203 37.00276566 -48.80411530
-52.95601273 4.99847794 -14.85649967
-38.59970474 14.34448624 -25.70385551
-1.30907249 27.26949692 -31.09008980
36.38643265 22.14189339 34.31768036
-15.54180145 22.37919998 -34.59067154
37.68459702 19.28258133 -3.38873196
22.06453323 39.98406601 -43.44526672
-41.90422821 24.60308647 -10.25059795
-4.08007288 -17.19732285 22.35598755
-38.95384598 31.52709007 45.58528137
-1.40470803 34.78104019 -48.18329239
-74.19099426 49.40015411 7.60687780
-64.66695404 23.85491943 23.75656891
63.06076431 39.71661758 -29.22650337
26.69848442 37.16897964 44.37348175
3.54009795 42.71440887 -43.12472534
26.49428940 15.31998920 -21.14650536
-70.24391174 23.51056480 10.26067924
-9.85923862 20.13366127 -37.58887482
-7.43758583 19.85965538 28.07541466
-40.72331238 16.52797318 13.15674782
18.96856499 -25.48493195 -23.14841843
-60.70726013 34.99279404 19.34682465
-6.67190409 -49.01678467 8.14606285
-13.66076374 35.45606995 45.12060547
-43.28835297 -10.33137608 19.51026344
-24.87679291 30.95645332 36.89506531
-49.24218369 36.26348495 35.31847382
80.71971893 38.01969147 -3.82343102
-65.42318726 20.66507912 -4.67494202
-7.49244690 -30.76440811 18.56889915
-47.25487137 10.28154182 0.90924400
-24.39772797 -25.49239731 11.79176998
-32.93208694 3.75477791 23.93029594
-3.38038802 24.88105011 -30.61171532
-35.76736069 6.06475687 1.98344898
-59.24972153 37.65604401 40.34291840
-6.75027418 -24.68000603 20.25585175
-62.24596786 41.71870041 34.59933090
-74.54074860 46.11879730 1.95213401
-21.77597809 42.60377121 -44.18304062
-72.14150238 47.23301315 6.93825293
-27.33979034 -11.02024651 -5.70303965
-38.89942932 30.72630692 -33.54015350
-52.11959076 20.65729141 -18.43010330
3.11367893 12.25130367 -25.16959190
-43.03682709 12.19492435 27.77158737
-59.69504166 43.92146683 -19.91986465
-57.04941940 28.97057724 35.03440475
-57.21526718 7.81370878 -12.72235584
-26.22826385 -26.87631035 -6.60286617
-55.46164703 15.74599934 -1.56051803
-49.38419342 22.56490326 -3.43972111
5.30626822 -17.45313454 -28.51074028
-42.71597672 6.66980886 2.95979404
-50.16566467 9.25958061 -17.76550293
-72.71482086 46.84646606 -2.88892889
28.16155052 -23.62761116 0.70094001
34.03671265 31.23109627 43.22998810
-15.40591335 17.10862732 -36.34641266
-45.98843765 19.76015663 18.00360680
-59.04510498 31.67355919 39.24243546
-30.33715439 -22.39624596 15.10021496
-10.32344437 -43.20241547 13.35312271
-68.52803802 34.25907516 -19.09686661
-59.93703461 39.76327515 -14.62016582
-40.58930206 28.23731613 -26.60137558
0.30605999 -21.85698509 18.52852821
-44.00226974 27.11557007 -29.08679581
-41.51458740 -14.48865032 9.16664982
-53.63412857 19.18616486 17.80908012
3.53684092 30.70443916 -33.04389191
-30.76697540 -21.49068642 -5.94258595
76.07257843 37.21463013 -18.35384369
-5.65112591 -26.20883369 16.97834206
-48.50526428 34.20848083 27.89146614
-58.06462097 13.48254776 -7.94534063
-52.04322815 13.74984074 18.73450470
-29.71275139 25.44449234 -36.11420441
43.26252365 15.16173840 -0.87495500
-25.39200974 -32.03246689 -6.78725004
-58.26469421 39.40909576 -23.21295166
-4.22568703 -1.55424225 -8.14494705
-20.51740456 -43.54300690 -13.80871582
-47.80293274 -0.99065202 -7.34070110
-42.43589783 18.52962685 17.34410095
-41.41260910 30.16573906 -27.87269020
-22.97423744 32.23061752 40.38200378
15.13071346 5.91098118 32.76221848
-38.69896698 -13.88346958 2.57601404
49.56954575 23.39099884 0.21508101
75.38838959 39.49389648 -25.77915573
-43.90458679 2.16662049 26.52062225
-26.81781960 -17.70253563 9.46739674
-66.95821381 29.01995468 3.98834443
-66.07754517 37.91453934 17.57851028
14.49719620 -27.48946190 -23.91385269
-0.62829000 34.00721359 49.51411057
17.91305542 24.53828621 30.26088333
65.97751617 34.25624847 24.90349960
13.36046791 6.15738487 -37.16920853
43.63731766 40.53703308 -50.49488831
-41.67787552 1.26286900 -16.85581207
-39.63171768 -19.37393379 -13.77261543
-45.34096527 -11.55943871 -15.18678474
61.75355148 26.48450470 6.65134192
15.43394279 -47.58358383 10.54683208
-48.35009384 21.69770622 -16.60515976
-25.36374092 -28.26120186 -16.45312500
-62.55202484 27.18657112 25.06949043
42.81721497 20.28950500 -18.06269646
-16.55677795 20.07279968 27.40497398
-49.12878418 13.85150909 -19.75557709
-0.39213601 -32.77751541 -22.49719620
-62.55059814 42.59153366 -22.21804047
-33.71252060 -23.34125710 9.65879631
-69.48947144 45.79883957 -9.20599461
-56.02621460 8.84678459 22.88866043
-48.57651901 33.63942337 -12.40806389
14.72885704 35.26556015 43.11675644
-67.06587219 44.96766281 9.19338894
-67.84725189 41.02802277 -3.44802499
18.64090729 3.22408104 -35.08226013
-35.87260437 26.39150429 -28.60890579
28.66386032 -36.48894882 -11.72512531
-33.36513138 -8.87134457 20.31486320
62.31098175 37.25432587 -10.29754543
-28.26560593 -27.03019905 -3.48166704
-63.51436996 39.71822739 25.76327133
-43.38076401 -3.91967702 4.49271345
-50.23318863 34.03571701 5.20862389
3.24173188 21.19085884 -37.08237457
-17.72982979 -13.91749382 -23.89074516
-35.59563065 -8.84906006 24.13055611
-26.35070038 -7.76271200 0.86587781
0.55487299 -29.68591881 16.29059219
55.53160858 34.98264694 33.97191238
6.45624399 28.21809006 43.78575897
-16.72399712 -24.85579491 16.83805847
-21.48131180 36.96454620 46.26371002
-66.82575226 39.07687378 14.02312183
53.78800201 21.36565590 19.66967010
-73.72319031 37.72343063 -10.84358597
-50.69509506 -0.20122600 20.91522408
-25.72501945 -26.76066399 13.85242176
-41.21984100 -8.70983601 3.74719000
-9.95905018 13.82736206 -34.52832031
10.37554455 26.85345268 -41.95376205
-61.47715759 22.57638550 -5.16198111
34.03575516 4.22871208 21.27176666
-50.66427231 -2.03555298 -10.94486332
-18.67582512 -26.60598755 14.11050224
-60.87311554 30.67232704 3.63453293
-55.47304153 24.03556824 23.56261063
-31.63816833 13.13117218 30.95675468
46.98888016 19.90309525 13.80458069
0.64776099 -22.86576271 20.22652817
-43.12815475 33.39110565 30.68143845
47.33061981 13.76558971 -12.45128918
-47.11170578 37.64067078 -30.57361603
-2.05260539 -12.34855843 -27.48648071
-66.76126099 37.65761948 26.54500198
-38.78374481 10.37465096 0.88802898
-15.65027618 -20.04016113 -21.32962036
-34.91924667 19.29346848 15.47388363
30.06505203 21.57785797 35.66214752
22.97831726 -38.63395691 -17.70260048
21.47621346 36.78326416 -50.38980484
-21.93873215 -19.46734238 -20.22988701
-32.07025909 -15.18896294 -10.72842503
-30.26526642 -28.82637787 -14.35696125
-44.18630219 27.22619438 -4.17361593
60.39247513 27.96868896 -26.27912712
-59.11967468 29.96601295 0.96275598
-34.62162018 -17.63433075 2.19246602
46.77200699 42.00219727 -45.09061050
-23.90212631 9.43169880 15.03507042
-24.20540237 -19.43722343 -12.89441872
0.32088599 -29.51670456 -22.82833481
-72.72631836 38.66780090 9.49089241
2.93564105 -32.30637360 15.89457798
-45.26299667 -0.90993398 -4.64600182
-29.08816528 -31.15108109 10.97066402
-51.89530945 13.14108753 24.40287781
-13.65275288 -12.11295033 -23.11418724
22.95008087 33.91761398 44.43851852
-7.77188396 14.56904125 -33.66857910
32.26998138 21.22619438 -38.92575455
-33.97383499 -9.17774296 2.57161808
-42.84449005 12.35989380 28.97469330
-68.04869843 43.77156830 -5.16218376
-46.55212784 34.94066620 -14.84262562
39.70323563 9.77041340 -13.76146412
25.64767647 11.12966061 -10.07264328
-8.97101212 -12.24956512 24.47877121
64.15317535 37.52910614 -37.83967972
42.22982407 25.81637192 -10.19253063
-25.25872803 5.10452700 -9.73734188
-62.09899139 38.13724136 30.57208443
-35.26477432 -3.48265409 27.36848450
0.40907699 -13.13518906 -27.52732658
-58.87524033 27.74192810 -4.67003012
-52.77219009 13.13759995 25.16103363
-79.78844452 39.05690765 1.94862497
-78.03048706 42.76340866 5.00370502
44.91388321 31.40834427 -14.79627514
-25.09527016 -29.91236877 6.46009493
-26.34069061 -24.13659286 -4.66777420
-30.26609421 -19.23513222 17.57572365
-63.09825897 36.22652817 17.09263802
38.17663574 29.22463226 -19.26401901
-53.05784225 12.70014095 -4.19363785
-17.12914467 18.06716537 37.67272949
-52.23987579 36.58904266 3.82804108
8.46872997 6.04615927 -34.95170593
27.26270294 -37.55080795 -13.28474617
-42.61826324 -8.48838329 15.81454659
27.82633972 -10.06527710 -18.03608322
-25.53891945 -12.82389164 -16.84328270
-73.70579529 31.83494568 -3.01966310
-36.74635315 -15.30776119 -6.24707317
11.05274010 36.48068619 43.14426804
-7.39942503 -21.18977928 -22.19678307
69.89341736 31.64233971 7.16778278
-29.14366150 31.97112846 37.09066772
-37.80547714 33.77247620 45.87926102
-58.93685532 12.23867989 22.86847687
-9.46045399 19.00652885 42.19868088
-39.45296860 -15.16028786 -6.81506300
-58.35093307 38.26480865 -14.82476902
-74.58600616 38.84185791 6.28263998
-14.49766159 -26.54145432 -20.44676018
-44.37735367 -7.36906385 15.75557613
40.37233734 14.13300610 23.10563087
-49.87373734 16.61562347 -17.28437614
-28.09143639 -6.20167542 -22.17838860
-14.30169010 -33.45334244 13.96308517
25.42999649 17.47679710 22.01137352
-40.38212967 43.42975235 -34.24799728
28.84450150 8.79295826 6.35993576
-11.66946602 -17.03914261 -24.19133759
-71.97074890 28.28590965 -5.25845814
-54.34547043 22.14362335 18.30060387
6.46501589 42.86691284 -43.92087936
-16.71714592 12.45499134 33.43704605
4.96009588 -33.57605743 -23.92205048
-37.23118973 30.59864426 34.89323807
25.81972885 -45.43065643 -14.06614876
-51.10741425 15.38734531 -17.21008110
-60.37122726 39.15290070 -6.83237886
53.32422256 20.12757683 -5.66474009
31.38111115 2.41769004 23.32988358
28.23676682 -19.96005440 -12.47378254
-36.47953033 7.18053436 13.77743530
32.96415329 20.30960083 -37.28166199
-31.74074554 26.77255249 32.37754822
24.91370964 -10.55222416 13.26715660
21.85657883 18.22829056 35.78987885
23.40632820 17.10138702 -27.46615219
-44.07683945 14.98641396 5.97240019
-42.62693405 1.37392604 26.42037582
-28.41366577 -20.24267769 -14.83185768
-43.65125656 -8.86718845 8.50012112
-54.38183594 19.88052368 -12.77692127
-32.29961777 9.36180878 -22.15929604
-40.92236710 15.69732094 24.12249947
-56.59454727 20.92091179 21.61150742
-37.19447708 32.57639694 -38.36354828
14.77699947 -36.36100388 -21.73683929
34.56410217 21.11212349 19.17922783
-74.46268463 44.69233704 21.24632454
7.40406513 -23.96738243 -23.87736130
-52.36006927 0.25054601 19.27030945
56.77320480 23.72611237 23.17181206
13.54509926 35.54726410 43.14369583
-25.00296783 -16.83036613 11.57643223
-37.77771759 -12.38720226 -1.65267205
-17.53268623 -18.76554871 -22.19002342
16.45146751 -7.96493912 -27.33581543
-15.59145737 38.70205688 47.93738937
-66.44013214 40.16595078 18.37162971
32.16177750 -15.28147221 -6.10871696
12.54452515 34.47229767 46.63722229
-46.47120667 -0.88297647 -3.80465293
-50.37639999 9.23303413 24.53403473
-25.45766449 34.36656570 43.97081375
-25.89070511 -33.14888763 11.56003380
19.17479324 -45.09492874 -19.87689018
-31.55376625 4.95946074 1.26194382
-28.11744499 -26.52107239 -0.01609700
22.52909279 0.60994101 -30.75008965
-52.43751526 3.57169604 -4.93345022
44.60646820 27.50806046 15.58759117
-33.38911057 16.42853165 32.54655075
-39.51979446 10.94218636 1.15380299
-30.03038597 17.69038773 35.10665512
-79.20401764 31.08401108 20.40584755
-9.87342453 -41.38840485 13.34717846
-35.48402405 -14.09660339 -15.30029869
-39.64192200 29.40926552 31.34463310
-43.31371689 13.23013401 -20.93468475
-27.22653961 -2.03175402 -25.56682968
-58.38603210 29.21388435 31.11884499
-0.95280802 -37.93989182 14.59368992
-33.37386322 -18.01559258 11.76073074
-23.50828171 3.23042798 -26.79582024
-35.62639618 -19.03754616 11.93141747
-72.49959564 42.88410950 -4.81277418
13.56605911 19.23187256 -30.02277756
-42.49583817 -14.26896954 17.26541710
15.68476295 -40.51585388 13.98318195
-52.02848816 34.86474991 -9.40714741
22.30287361 -16.29001808 13.45899487
-35.31529236 2.20950055 27.67660904
-44.83004761 -9.34648037 19.50158882
-68.60753632 45.49350357 9.08309174
6.12848234 -34.67021179 -22.67698860
-61.63248444 24.05722046 8.50430393
40.65959930 3.70625401 -7.09911013
50.30173111 25.07839394 -20.51223755
-27.18078613 -31.21935463 -12.42325211
-62.36644363 26.76169968 -15.39703083
-22.33388138 -37.38113403 0.12271200
16.78836250 43.76760864 -48.14569855
36.22919846 5.93412399 18.54046249
-46.04140854 32.46778870 20.82128143
22.54699516 -33.57904816 9.37997532
-76.49525452 42.18127823 27.04285240
52.63497543 37.02907181 -23.39825821
-55.41288757 40.77486038 37.16100311
25.67234993 -4.60274410 22.35652733
20.18399620 -44.21935272 -20.81089592
-39.05298233 12.92726707 15.49198246
-14.34296513 -43.99285126 -16.00509644
-32.00403976 -18.56929016 -0.56644303
-72.74440765 45.03168106 -12.13564777
28.94445229 -4.39064312 12.60280895
-5.10575819 26.61916733 -41.52183914
-46.64646912 -5.83709908 -16.73860931
-63.58577728 38.79647446 -7.39363098
-22.28389168 -4.01819277 25.93018341
-54.10377502 40.06579590 32.14066315
-13.69115257 -8.87339592 24.64299774
18.23767471 42.32555771 -45.31261444
-59.66689682 27.63444519 -11.27695370
-55.08285141 27.66725731 -16.49571609
-43.78466797 29.81017303 -30.31412888
-4.98778820 -16.32816505 23.20744324
-64.24120331 29.13328552 6.15966702
-70.95270538 40.54741669 20.19312477
-36.42911530 36.20628738 -27.58035660
-63.65203476 20.57732201 11.92643547
-30.17741966 1.29786253 -22.59271240
-62.95541000 39.44301224 -7.72486496
-46.48195267 14.94672680 -20.05379868
-40.16895294 -16.59464645 16.25918579
-33.88967514 32.29370499 38.99093628
-27.94015312 -17.39712143 -2.17415595
-30.10081863 -20.69413567 -5.45512390
70.21260071 40.65864563 -20.24349022
15.47265434 32.37248611 -46.13183212
-51.13022995 13.51405239 4.86722088
8.45624638 27.66885948 37.80474854
-25.89546585 15.21864128 33.53582001
-8.99466896 -10.08066654 -28.53926468
-30.22410202 33.43967819 -40.46403122
-70.33967590 39.85045624 32.66636658
-26.38550949 -15.25132179 5.97508430
30.55912018 13.63118553 30.67462730
40.94589233 36.26079941 -37.48380280
6.89610815 21.24255562 36.02059555
8.94032764 32.49594116 -45.57545853
15.77673626 30.25929642 42.33257675
-14.50690365 21.60907364 -36.64804840
28.66895866 -43.37739563 -11.72250080
15.18842125 -14.91507912 -24.78370094
-65.33530426 26.69683838 -9.21934986
31.09169197 -0.41218776 15.59417915
26.28394318 -33.90482330 -13.39436054
-20.57278442 -5.51154423 -28.50881195
-44.90787125 18.48540115 20.43984413
-25.69191170 15.83602047 -16.28127289
-36.62963486 -16.13525963 0.05145900
-6.33728313 -30.41368675 18.55416679
-40.62288666 15.67036057 20.32999611
-41.98003387 -6.80598307 -0.97235101
-57.59214020 22.35107613 1.60970998
-62.87043381 14.97556400 22.27488899
-10.68603039 32.31774139 -47.30627441
-51.48383331 21.94242477 -18.96193314
3.91250801 -14.01706409 -27.86216354
54.88835144 32.53216553 33.95415115
-35.11193085 -0.33054399 24.73023224
-54.14353180 18.20068169 19.17327881
-28.16257668 -26.11170197 3.61890101
-16.18479347 25.33221245 -36.38484573
-45.24560165 38.45574951 42.35734940
-29.48693848 -15.29992962 11.78713131
-17.92789268 -45.88859558 -9.96569347
-65.87708282 42.02323532 17.33244324
-26.10142326 -32.81491470 7.89135933
68.46947479 30.86098099 6.18395185
-61.53527069 29.88502884 0.43271101
-0.56061202 -25.61973000 -25.02801704
-31.11004257 7.97311306 26.89743805
-39.91093063 -20.48771286 13.36533642
49.74437332 41.90828323 -43.78827667
8.46460247 -47.36211777 14.54102993
-41.06045532 -20.63872719 13.04572105
58.93193817 36.91230011 28.37583733
-12.09156704 36.93482590 -46.25230408
-80.76852417 39.41552734 23.06167221
-47.72691345 40.68796539 -23.17336273
-29.29954910 -19.86164474 17.09245872
-48.58831024 26.67596626 -23.56272507
-39.76448441 -0.81129599 -16.36143494
-34.82061768 38.54071426 -30.47360229
0.13658100 -26.71580696 -24.98129272
-42.21758652 28.79110527 41.69855118
-18.13895798 -42.20700073 13.44411945
18.79127693 -24.05911446 -20.76591873
-17.01820183 -19.77758789 -20.31081200
-74.72566986 41.02484131 28.84841919
-47.17965317 -8.60667610 17.12358475
17.87121391 23.57057381 -43.20846176
6.64329195 41.24348068 -47.68243027
16.20123863 35.80184555 45.66392899
2.36288333 21.99664116 -30.27943993
64.84477234 39.41925430 -18.50611496
0.82525098 25.75898170 -30.98091316
24.32861328 -38.90856552 5.31212378
63.94077682 33.21296310 -31.21050072
31.04518509 -17.18451118 -7.07324314
-29.88826942 26.85182571 33.27538300
-8.89194965 18.36733246 26.46855927
3.71231294 34.16595840 -41.20215607
20.38528824 9.44707489 -37.37121582
37.20648193 6.34618807 7.90425014
-20.61405563 -23.69816780 -15.36400414
-8.36025906 -37.77146149 -18.98376465
-46.03236771 0.75047201 -17.99621010
-6.57782412 -33.22068024 17.53384018
-44.67189026 43.84036636 -31.08104515
-15.00147438 -1.46627200 -29.76249886
-10.04572868 -31.72410774 18.47027969
-47.73567963 21.80925179 -16.23100471
-28.02678299 30.01925850 -39.23060226
-66.53775024 26.27838516 -16.15227890
-48.95637512 -4.41578913 17.68092537
-27.13050842 16.13175774 22.59156609
-50.25127411 34.26662445 25.80772591
41.44847488 28.61054802 23.87791634
15.29797840 5.04041004 -36.66476440
5.01016188 41.00748062 -45.81884766
28.23504066 -34.85569763 -1.64044595
18.21442413 -30.46224594 -20.86508942
-61.44958115 30.70285034 1.04011500
62.77285767 34.94132614 28.51472664
-68.43024445 37.53767776 21.34506607
-48.46207047 0.84216797 23.24960899
-50.22002411 39.08784485 -29.32416153
-1.08020902 11.49769211 -35.54936600
-28.65417480 -18.21311760 -3.98697400
-23.52581215 21.85823441 40.88939667
-11.56351566 -11.71949959 -27.07331276
30.43670464 -20.42125320 -4.83472013
-64.56615448 22.95450020 -10.05234241
-56.76092911 14.12082863 25.74853134
-5.68676090 -16.29523659 -24.15923500
31.35934639 29.40335846 43.43553162
20.96216774 18.09569550 -41.49826431
-19.48824310 -13.36992455 -24.69288063
63.65462112 27.63970757 6.03235197
68.63291168 31.43773270 18.85498238
40.98633575 16.39447975 24.36094093
-72.25228119 46.93560028 -11.05040646
2.54662299 -29.76733017 -23.96091652
-35.35935974 31.30402565 -38.50666809
21.83308792 41.32376480 -50.55454254
-15.22400093 -24.38339806 15.92930698
-63.15317154 42.76197052 1.49866605
-28.98081017 14.19902229 -26.42220688
-30.30463791 12.94991875 7.36443663
-24.48960495 -25.57787323 -15.44716072
-43.08367920 -5.61606789 23.41842270
-58.27746964 42.53198624 8.49713039
24.31020927 4.38992262 -33.80590820
-73.02005005 48.28547287 -0.88056600
-0.75897050 -28.93561554 17.60646820
19.16815567 5.11684513 33.72629166
-14.07641411 -17.93341827 18.72235680
53.75753021 40.14652634 -44.44821167
35.72536850 16.17265129 -5.99450731
-65.45058441 45.50279236 9.37669277
-26.53010559 28.56242752 36.78827667
-22.86287498 -32.60045242 13.25469685
-38.64030075 33.82059479 -32.89811707
-44.07927704 39.87169647 -28.01762962
-8.89332485 27.75591278 -30.66756439
8.06241512 -9.92389774 26.30593491
-40.73599625 -9.40376186 -17.89968300
53.77417755 26.35279274 -21.98533249
-15.60127926 35.76974869 -40.71946335
74.61543274 33.91275024 8.18847466
-33.45843887 15.54879379 31.71067619
-41.60227966 -4.91501188 2.22061896
24.10061836 -47.34822083 -5.73524904
-39.28190613 3.92198610 -19.85534477
80.17532349 37.23941040 -11.65083599
-79.58949280 31.45946312 19.26074600
-26.68928719 -23.86750984 13.16883373
3.05780602 -21.01649857 20.12345695
-9.54448032 39.68504715 -48.23391342
4.66820288 35.51726151 -36.88444138
-40.14756775 17.06524277 29.60340118
7.54189110 -23.75904083 17.65949249
21.27880096 -40.93379211 10.35005569
-30.07688332 -0.18210299 -21.41662025
-6.45586586 28.02276039 50.73331451
-47.22488785 30.60748672 -27.76585388
-14.85120964 -12.86535454 21.68477058
-41.69449234 7.25241280 29.44722557
-48.05982971 6.77466583 23.34475136
-55.95535660 19.10387802 23.48131371
-41.70235443 15.00158596 29.52377701
-16.12941742 44.78224945 -43.34712601
-21.10645676 -30.53777313 -16.79524231
8.63829803 5.64973783 -18.55632591
66.40598297 28.58943367 11.73980331
33.59347153 -10.92873669 -0.74513298
-19.61275101 27.01210976 36.22931671
-33.99998474 -16.46319199 13.18346691
4.21103573 -18.14609337 21.54042816
3.92382312 17.90538979 -28.64196968
-48.32156754 34.55747604 29.46502686
15.73107243 -32.80107498 -23.25043297
-59.23090744 38.46961594 28.13242912
-12.00309753 8.22367477 32.62310028
-68.79336548 26.96538162 -9.81891441
-61.61903763 17.68287849 -11.86048222
-60.35147858 40.16290665 15.09565544
-23.84050369 30.74457741 36.97989273
-54.60007858 42.22808456 -28.30991364
77.81642914 38.58033752 1.24880803
-28.57359505 -2.92423272 -8.00291729
-18.82504654 23.21027184 -38.31992340
18.00583458 -47.95745468 -8.65905952
-34.27927399 -27.40301132 -7.95075083
-51.09603500 34.37395096 23.47710228
23.18298531 -19.89559174 11.13027096
-25.96582031 -29.46428680 -6.76669788
-29.79438972 23.90722466 -30.47084045
39.01449203 11.80663967 24.34624290
-49.74141693 28.84740639 -20.98906708
-63.68730164 37.82883072 27.42928123
-10.73546505 -42.08573532 -17.65760040
45.47482300 24.45261955 -26.81158829
-40.28511810 12.53798962 3.80977702
-6.49331903 -14.25154114 24.57611847
-2.03090405 -3.84289503 29.26579857
-5.22019291 25.51847839 -41.72632599
-29.73505783 -29.85941696 9.15640545
22.48570442 -10.38724804 17.04468727
-42.62800217 -6.32103586 23.48772812
-76.37933350 45.12479401 -3.33288598
63.81517029 38.82640839 -36.81929016
-36.82764435 25.77280426 27.70793152
26.76746941 28.77774429 -34.10381317
-20.94988441 15.27968597 34.24855804
-36.81711578 -15.46906567 9.70285892
-20.59184837 -32.20238876 -14.72139263
-73.56353760 39.17211914 9.90896225
-36.45267487 33.64798355 36.57331085
30.61137962 -19.45141220 -4.32382298
-74.09659576 27.19136620 22.42847061
-56.55130768 37.93185425 -0.00521700
-20.64777565 -20.31482506 14.50172710
-68.63256073 44.41905212 -5.33778620
-39.73703766 -13.44747639 6.55692816
45.28237534 35.46743774 -31.12106895
-61.70040131 39.67059326 15.94466400
-74.81677246 39.39065552 28.44435120
-4.54446602 31.00549889 -45.39343643
-39.47733307 25.78240967 -31.53510094
4.99520493 -14.41464615 24.14673042
-28.34843636 27.70989990 35.22251511
-43.25448990 -7.23077393 16.06217766
-25.77462578 -15.53849220 -20.84979248
-26.25372124 -28.97428894 -16.03105736
-27.85252953 32.83934784 -40.81671143
10.39290524 10.84080887 -37.39796829
-67.88182068 28.67857933 8.61634254
27.52221298 -6.16185808 13.51965904
-54.93404388 26.72491646 -3.43632388
29.37830353 -29.45921707 -8.74957275
-39.11822510 23.27934074 13.21746540
-45.32264709 -1.08813703 19.79250526
-74.33715057 40.52739716 0.04621300
-22.31397438 4.54939651 -4.72564411
-35.59450150 22.68224144 -32.51126862
5.42744589 39.93869019 -45.38346481
1.65245295 -0.77501899 31.77645302
24.31065369 0.01817900 -28.03509903
-56.61827469 39.71178436 -9.73277855
12.41320992 -5.27991199 26.48250198
-20.63389778 27.32291985 -26.95362282
-18.68356705 -28.43126678 13.54275799
-32.80737686 -15.14837265 -11.93718719
3.22599959 -27.17258263 -23.40226936
-72.49735260 42.98928833 29.95321655
-61.89772797 27.35175323 24.77582359
-30.53929138 -21.55194664 16.45335007
1.72263598 -26.52593231 -22.95094109
-23.29921341 20.39680290 -36.52830505
-47.65447998 10.77781868 2.33308697
29.54835510 9.52962875 4.64590502
69.83868408 36.02058029 16.37318993
11.46569538 -18.61457062 -26.80398560
-58.33919525 18.44807816 14.36887646
-15.65219498 -20.59657860 18.16153908
-52.18943405 29.01485252 -19.89414787
-2.13657498 44.68457031 -44.43574142
-5.78303099 -17.72838211 -24.02780151
-62.80665588 43.34749985 11.17148018
-79.59335327 41.48302841 9.55315781
-32.78324127 31.25870514 -39.73711777
31.64946365 10.98845482 -27.90412331
-52.75268936 17.29839325 19.70256424
39.03909683 13.00025368 -16.64708710
-67.63090515 44.90196609 -15.82910442
-42.93130493 -16.10844803 -9.09513950
-39.44910812 42.80046463 -36.17164993
17.51221085 -34.46306610 -23.01412201
-30.57203102 14.30232906 -29.33831406
12.92067909 -38.45924377 -24.21182251
-78.06442261 42.24782562 9.46924782
-43.52127457 -5.04751921 22.15975189
3.92717004 2.47813511 31.79629707
-28.15129089 -26.54389381 -2.01530099
-61.68873215 30.10013390 29.21373940
69.44045258 40.90263367 -32.46076965
-77.42517090 38.03814316 6.86932802
-20.73739815 -6.77689600 24.61075401
-29.38579941 -17.94888878 16.80591774
31.66993713 28.41996193 42.73409653
-35.94358826 6.89665365 8.58020020
-36.38918686 37.35018921 46.70123672
11.52652168 22.73974037 -40.50039673
-24.21872902 -5.30232477 14.53402138
-19.94567299 -46.53010941 2.16687012
-21.62689972 -7.72015190 -26.77929306
-11.30537128 -27.90780067 16.09976959
18.61257935 -24.52126503 15.90490246
-35.31687927 20.04517555 36.63373947
-76.40914154 27.17808151 16.45886421
36.50017548 32.08167648 33.17586899
-21.88447952 -24.67002869 16.12725830
-59.09057999 34.48978424 18.89088821
-61.33933640 16.60260773 17.35351372
28.52764893 3.57371092 -25.52596474
-51.29155731 15.52155781 19.59367752
-3.41716504 18.22320557 -36.18783951
19.41761398 -34.68754578 -21.62195206
-28.06769753 11.53205681 15.36129189
67.12645721 36.11044693 18.12812805
43.41085052 10.03535271 -7.54255056
-55.06138992 37.66816330 -8.78619289
-59.35309982 30.88981628 38.37839508
-13.99235630 15.34853172 -35.60784912
-28.72369194 4.11282444 -24.49717140
-23.93435860 29.64429092 39.07568359
-25.43583679 4.60532093 -8.32079983
-50.98574066 34.51885605 -24.56653976
71.61662292 32.03350449 14.72392941
17.24762535 -43.92148209 -22.39316940
-33.01285553 7.37171412 -18.03209686
-36.00167084 42.84598923 -34.15465546
-54.61487579 26.04514694 5.27327394
-69.65818024 27.08113289 -1.46712506
-27.41387367 -29.22662163 -6.56241322
46.89458466 11.89098454 -11.65810490
-21.30438805 3.21815705 -27.77842331
4.52335882 -18.37838554 -27.28408623
-25.75070953 -17.97313118 14.29434967
58.50040054 26.78423119 -21.15486526
-27.08306885 23.06259537 -21.74735641
77.69489288 34.24271011 -12.08825779
-45.78246689 33.38061905 -27.12292480
-49.43740463 34.39709854 32.71400833
-3.60254192 -35.81862640 -21.10125923
-47.04417038 34.49428177 26.76624107
-43.43141937 -1.20463800 9.28674603
-50.72735214 41.73432159 -21.22945023
55.53829956 33.00390244 16.88842010
-28.01170158 -22.12487411 -15.21050930
0.72371203 -46.59964752 -18.18645287
7.96306705 27.98956680 -40.58206177
-44.51505280 4.96126890 25.07929230
-45.83532333 -4.42023897 -5.32947111
25.69330406 31.90737915 37.43733597
-18.26846313 -19.36703873 -18.10895538
-49.13944244 1.57640302 -14.72974205
32.16793060 7.46489286 -24.11594009
-73.32735443 45.69045258 1.46071303
-47.45552826 15.93108654 -19.67718887
11.60723782 18.10714912 -39.65653610
33.86933899 -0.59169543 7.45536089
22.51501846 -26.17989349 11.91288567
-45.21450424 25.78553009 -22.54497147
-23.95335579 -36.77782059 -6.57941771
41.11629486 23.66063881 -8.46297646
6.11437702 20.89975548 -30.19908524
-56.85642624 44.62553406 -25.85903168
46.40959549 11.45342636 -5.70141220
-60.52349091 20.08048058 12.41546631
-34.96799850 30.99596405 46.74616623
26.46201324 7.71831131 9.17191505
-13.60042000 -48.21598816 5.85090494
-35.16075516 -1.39883697 24.84875870
-58.16697311 41.23602295 37.06789780
39.28917313 9.43607998 3.54964304
-18.50663757 -9.40118122 -26.84903145
-36.06978607 29.53256607 45.93513489
-42.53901672 -8.82244015 8.13346004
14.35809517 -37.64206696 14.62355137
18.10950279 16.70176697 -28.42850113
-54.71337509 37.01122665 -28.20716858
63.08790970 36.50460815 26.91494179
-30.94695663 13.88187313 9.83112621
-72.43006897 44.80210876 4.46389818
-16.60112953 21.40270615 41.31381226
-52.18826675 34.40484238 10.49162865
-48.97371674 9.76776886 -18.74699020
-60.80068970 35.81852341 26.22644424
21.31550789 -19.51487160 -19.67148972
-52.44115448 38.26324463 29.35799980
0.26475799 31.57572937 38.34391403
-41.75122833 -19.07719421 14.78005219
39.63743973 23.33292007 1.77550101
-57.58386993 4.81833887 -11.98319244
-1.05211496 -14.52152538 23.83825684
-38.75873184 -13.75587177 -7.08060980
-41.55607605 26.36665154 25.35788155
6.22084618 -25.81151009 -23.58366013
14.26171398 15.62367821 24.85507393
-35.58166885 27.63382149 -37.10003281
-1.80913496 42.06010437 -48.01721191
61.23249054 35.65111160 -37.63716888
-54.15708542 0.08937700 -9.75686359
-9.69596481 -30.68009186 15.96448898
-9.86518955 -27.29107285 19.01534653
-30.91559601 -22.79302788 7.95376587
-72.06632233 41.71536636 -5.52027082
-34.86463165 13.99105453 -21.52550507
-10.83680534 36.00989151 -41.25738907
-17.88646698 21.74731827 -34.63168716
-78.48516846 30.75415611 21.31943703
27.54934883 -7.72408390 11.48744488
-68.52159882 45.72441864 4.08560085
-71.51058197 42.24443817 19.81997108
-71.86467743 46.42436218 -4.71335983
-69.55275726 42.85799408 16.55045891
59.53715134 37.70474243 -15.49963474
-45.49315262 -17.22579575 16.16716766
72.56968689 39.03577042 0.59400201
-25.41693115 -21.36287308 8.36310768
-32.41451645 -10.85712719 19.66280937
-22.98529053 -23.85344696 13.57497311
-11.11199665 -20.52189636 -22.99046326
9.86129570 -46.06030273 -20.15368652
28.58991623 -28.38716888 -8.14286327
-64.73128510 44.95932770 0.01370400
5.84369183 38.42430878 -45.01893234
-24.22897720 8.67256069 30.53133965
58.73922348 38.65060806 -42.31437302
-34.87079239 12.64700890 33.65251923
-63.61937714 39.28535461 1.46634305
-23.39829254 17.58208466 36.08015823
-59.74745941 42.32914734 9.59556198
-62.87023163 36.49576187 36.85894394
-69.00941467 29.37721825 9.08498573
-72.76872253 42.36570358 0.61186302
-55.35504150 20.59240723 -1.54555094
37.30021667 22.13951492 -28.66995621
-66.36282349 39.25707626 35.51989365
-35.14507294 5.33320999 5.07637501
20.86513138 -2.96021390 27.55516434
-27.77813148 10.04341412 11.52879238
3.53224897 -15.81410408 22.87527275
-79.28289032 37.88557053 7.74064112
-75.56035614 47.63302231 8.66679955
-45.93889618 18.59405899 -20.34050941
-30.04732513 31.58927917 37.10938263
5.80345535 -24.90894508 -23.57603264
-10.54225254 -19.58407974 19.28986931
-31.53616714 19.61777878 -27.57714844
1.18231201 -8.50433254 -29.46203613
29.14114952 34.54212952 -38.57164001
-67.92440796 41.84846497 -8.93282032
45.47562408 35.68569946 39.64374542
-36.33140945 13.31670475 -22.75184250
-34.07038879 22.22852516 -29.62932587
-27.75278091 20.30470657 -31.10993004
7.18085098 -21.07555008 -26.72279739
-54.68136978 38.09914017 -1.94684100
-71.63068390 28.50258827 26.00253296
-34.07641220 -16.52918816 7.01653290
-45.37395477 -11.73915863 17.89121628
-0.24421100 4.54392576 16.87516975
-35.37099075 -21.94344902 12.20834351
2.16335654 21.40299606 29.17031670
39.42337036 1.78209698 -4.31983423
-41.48702240 15.59788227 -23.66927910
-44.91868210 -3.63472795 22.23132706
0.33623299 31.10198021 -45.42241287
-48.91520691 20.70513916 -15.48329735
-45.61247635 33.04524994 32.08886337
34.37351227 13.83936501 2.88002300
34.45819092 15.66701126 11.34239292
-29.14884377 19.47467995 -16.83610916
27.38906860 2.01112294 27.65911674
-43.21902466 -14.42914772 15.75706387
-33.64154816 23.17637444 -28.71887398
-43.77105713 7.17387199 -0.52501202
-3.95680904 35.01782608 -48.74837112
-74.51827240 38.46990585 -7.89891291
-48.45198822 33.09537888 -24.77775764
-10.91399097 -35.69919586 16.31123161
-24.80062294 -11.37995815 -20.29014206
42.75188065 35.36164474 -46.21244431
51.36069870 32.58012009 36.44704437
-65.79882050 40.95127106 15.27795410
-49.85768890 31.81429863 -0.60818499
37.64964676 -0.79288799 -1.47031605
5.20150805 26.02717209 -37.17076874
12.29889774 28.66344643 37.23120117
-55.79008102 39.20700455 30.44248390
-46.58324432 -16.01013947 15.93827343
-54.27582169 17.32801056 -0.88936901
-68.95527649 24.79544830 -7.00523901
-62.76668549 40.79439545 14.25936890
-75.75033569 33.66845322 12.70722580
12.77792645 -25.92098045 -24.56868362
33.47964478 16.50637245 -11.15922642
-8.90247059 34.67325974 -43.47416687
-43.51382065 28.92167473 3.46449494
-36.15976715 18.36680412 -25.67927361
-50.17607880 34.06165695 28.37298203
-70.86579132 28.73877907 -10.16361523
-50.86624908 38.48290253 41.92681503
28.33052254 8.57873821 -32.44495010
-60.92163849 39.23080063 33.21820831
12.83073997 -27.89098549 -22.49904251
-18.69927216 -14.81825924 -19.63351440
5.64708805 -48.06917191 -11.10291862
-62.20321655 33.20045853 34.79034805
11.78032207 -33.14809036 -23.92991257
-67.40536499 25.82290268 -1.21468306
-72.63937378 42.35901642 -0.07327600
-36.57739639 -16.89429092 4.54307699
9.77557468 -15.65670013 -29.06940079
40.88479614 31.56020737 -21.39637947
-72.52448273 41.37994766 -1.51458204
62.05908203 25.65089417 21.11654663
51.84946823 21.31637573 -15.36230469
-27.51949692 -12.14700413 -2.87254715
30.04387283 16.07022476 -14.62231064
17.02174377 -45.12412643 -20.74926949
59.58863449 30.69565010 -29.65504837
-19.64646149 31.18524361 -38.18252182
-71.79901886 45.52848434 2.95211411
-63.27900314 24.47988129 8.80682182
-22.60273361 -34.37943649 5.45022106
11.42265606 -44.55358124 -22.76525116
-70.73052979 39.21275711 20.09569550
-32.05239487 28.99685287 46.24420547
24.48513031 11.12329578 -38.11032867
-55.89899445 33.25444794 24.60501671
-39.36298370 -18.18492508 -6.04446220
-62.33540344 30.80128860 4.97973204
-26.64653969 24.50840187 -32.74183655
-56.77487183 9.37335300 -12.74637699
-67.36692810 21.93302917 -8.10158539
-6.41955519 -18.10496330 20.09119987
-12.49716187 22.89710999 -28.14078903
-48.81369400 -5.81119299 -6.00495100
-48.97108841 5.82799292 -5.80738592
-15.06653309 -30.35177040 14.36905956
21.16813469 -43.50911713 -20.75205231
-72.37097168 42.68681335 4.57252598
-63.66158295 44.45646286 8.67525196
-23.69911194 -40.32500458 -8.25953293
-42.97855759 -10.94248581 -3.76344299
29.53841591 22.89111710 -23.78383255
-71.00535583 43.39686966 27.34423065
-46.33848190 31.25471115 19.89938927
-7.65188217 -21.13663483 19.06185913
-33.12022400 37.19309235 43.60881805
-58.72464752 41.40209579 34.59786987
77.42868805 34.58943176 3.01390004
-47.11795044 -5.50423193 16.24006653
-49.79417038 7.57387590 -17.69168854
-54.92715454 14.64293575 -13.93989182
48.51186371 30.05233765 -6.66953802
-7.77322817 15.45484161 37.77265549
-64.43759155 21.85105133 -10.69835377
56.59392548 20.90005875 -11.44917870
1.78616178 9.59970760 33.24129868
-36.32883453 7.80493402 13.21448803
6.90348005 -49.38362503 1.99291599
-78.20339203 39.77423096 0.10979900
38.57990265 27.66774750 25.06712341
-65.81631470 23.26936531 -2.50146389
-50.48796463 22.09208870 -17.89908600
-31.31604767 7.08368969 30.32655334
-26.37987328 30.13435745 38.79877090
-53.86222458 3.79507804 22.20555115
27.65563583 42.89876938 -49.33182144
-8.95702267 -16.53413010 20.83267403
-37.63065720 -9.87962055 24.04576492
-7.56404877 -33.72200775 -19.14415550
-33.64528275 -19.73701668 -5.39916515
