-3.85760000 15.18450000 42.93820000
0.27190000 2.91810000 45.55660000
-0.54420000 3.71570000 45.16660000
-4.33580000 3.58280000 45.21460000
-3.97890000 4.58300000 45.02960000
-5.27430000 3.18220000 45.41470000
-1.62050000 10.96340000 45.56720000
4.61000000 10.61880000 42.36160000
13.69920000 11.71450000 40.77530000
10.61610000 17.72500000 42.25520000
-0.44630000 13.29740000 42.81810000
2.12190000 19.30610000 43.45340000
4.67760000 15.66740000 45.67120000
7.72570000 21.64240000 43.24220000
-0.26010000 19.61450000 46.36590000
6.01290000 20.30710000 46.21200000
12.67490000 -1.22220000 52.88050000
12.85850000 -1.74470000 53.53930000
12.73300000 -1.65920000 54.35000000
12.34880000 -0.90610000 53.21330000
10.48530000 0.03610000 53.48700000
7.28570000 0.49910000 54.40400000
4.17850000 2.01740000 51.22580000
23.65880000 18.53890000 37.47590000
20.39610000 15.91300000 38.82420000
23.66720000 16.54460000 40.56320000
16.04610000 20.60120000 41.10000000
20.88550000 18.27940000 42.14220000
17.83480000 18.81610000 43.39240000
23.95330000 24.23570000 38.07790000
19.71550000 22.96200000 39.97180000
27.89980000 22.39160000 39.25260000
23.76010000 22.42410000 41.56070000
32.57230000 26.22490000 37.18230000
25.24850000 27.29560000 38.04770000
26.79800000 26.05620000 40.93990000
21.68010000 27.67480000 40.07110000
19.36780000 23.93400000 43.86120000
24.34570000 28.49800000 43.18950000
18.66740000 26.98930000 45.03530000
14.46990000 18.85710000 44.46150000
10.30260000 16.94730000 45.11890000
11.70480000 21.41530000 45.57810000
12.81520000 27.01650000 43.20150000
9.39330000 25.34590000 46.83620000
3.77110000 24.01690000 47.05300000
3.18550000 24.98550000 44.16840000
17.05970000 27.44950000 41.98020000
14.01550000 25.79190000 46.03920000
12.05840000 29.56010000 47.83150000
20.09390000 31.00530000 41.89370000
17.50850000 31.69410000 43.14000000
13.25370000 31.70210000 44.42400000
15.38760000 30.85750000 47.52780000
20.78180000 31.83760000 46.25300000
9.48430000 28.46700000 44.22120000
7.41770000 28.40240000 48.08410000
3.87810000 29.42540000 45.17760000
8.50440000 32.47590000 45.65740000
-0.11470000 25.54560000 47.46650000
7.79460000 33.38730000 49.98280000
1.22140000 30.29710000 49.16830000
47.96320000 22.39430000 14.74950000
49.22220000 23.48050000 11.66700000
50.21060000 26.26280000 11.00600000
49.36360000 28.23760000 15.63220000
46.98880000 24.29260000 18.09350000
45.93140000 25.07850000 20.66950000
44.95980000 28.72950000 24.79900000
43.97490000 24.94650000 24.02630000
51.91510000 33.38200000 14.48330000
52.73070000 32.81910000 10.56480000
47.19970000 29.33570000 21.34200000
50.48390000 33.90190000 18.84900000
48.57120000 32.52310000 21.45170000
50.41900000 36.58760000 22.74320000
42.27970000 25.71270000 26.99380000
46.08050000 33.21480000 26.50800000
48.69360000 37.30310000 26.68080000
43.19460000 33.08540000 30.50110000
54.50750000 37.17290000 12.72300000
56.52380000 40.08820000 11.68860000
52.28740000 40.18420000 9.35940000
50.02110000 38.46840000 13.66920000
51.22840000 41.03060000 15.92000000
52.48590000 37.29900000 18.91640000
55.45310000 39.94120000 15.38990000
53.68950000 39.36910000 19.37090000
54.08030000 40.13550000 19.35380000
53.30370000 40.58540000 21.03260000
52.29760000 39.93900000 23.08670000
49.35940000 40.27780000 19.15780000
48.59630000 41.63700000 23.95850000
51.64940000 42.08680000 18.35170000
57.05530000 41.04600000 8.92590000
55.68970000 42.80200000 10.26310000
55.77610000 41.72630000 12.30440000
56.08050000 42.47190000 10.37250000
55.58640000 40.82910000 14.88050000
55.02740000 42.44930000 14.33490000
54.27490000 41.70670000 17.20210000
53.87040000 42.29240000 17.86420000
52.70910000 42.62400000 18.66910000
53.68800000 42.65850000 17.50130000
52.72430000 41.57030000 20.92640000
51.71280000 40.98760000 23.80350000
51.67120000 42.27900000 22.88480000
52.68840000 42.28910000 20.74960000
52.12900000 42.61970000 21.19540000
51.14860000 42.60680000 22.76950000
45.62900000 36.73210000 30.64060000
50.16830000 39.42450000 26.50290000
50.87390000 40.51530000 25.66190000
49.87000000 40.04220000 27.34610000
50.28380000 41.82130000 25.51320000
49.03770000 41.10360000 28.00840000
47.09030000 39.18620000 31.14880000
49.51260000 42.26700000 26.81520000
48.00210000 42.39460000 28.86250000
47.80820000 41.54170000 29.32110000
49.35080000 42.53050000 26.45590000
49.26730000 42.48010000 25.64230000
44.39630000 39.44900000 34.80930000
45.39830000 40.26960000 33.92970000
47.01670000 40.09720000 31.51450000
46.79950000 41.26190000 30.75760000
45.97910000 41.04360000 32.29520000
46.97660000 41.99720000 30.26260000
50.74200000 42.43830000 24.80240000
44.50320000 21.29890000 11.29760000
45.49360000 27.24950000 11.73070000
43.41290000 25.51850000 16.21630000
40.64900000 26.15170000 22.05070000
44.48410000 30.15620000 17.27150000
47.99840000 32.83210000 10.16590000
46.55150000 31.58140000 13.27850000
42.54210000 30.67450000 21.51710000
48.36240000 35.52920000 13.41700000
46.19310000 34.93400000 18.35550000
37.60040000 24.20790000 25.92640000
39.74180000 25.83720000 30.27010000
35.40890000 25.29880000 29.03710000
38.12310000 27.14320000 26.38910000
40.64750000 31.55000000 25.26840000
41.57960000 30.00420000 30.34900000
35.84240000 29.46950000 30.05410000
37.00150000 26.81210000 33.59570000
32.30690000 28.00760000 32.86510000
39.20620000 31.76670000 34.10300000
35.61940000 30.09220000 36.50010000
33.47820000 32.43310000 33.92510000
28.56670000 29.08970000 36.39440000
38.30980000 32.27280000 28.76470000
40.50860000 35.46220000 28.50100000
43.36330000 35.66720000 24.62910000
36.04510000 33.00890000 31.80890000
37.76330000 36.68160000 32.62950000
41.83430000 36.95400000 35.33900000
42.43700000 38.83860000 29.29080000
36.76150000 35.30410000 38.77550000
34.79420000 37.22900000 35.97940000
49.99740000 36.61310000 9.47430000
47.65030000 38.36680000 19.81870000
44.90640000 37.84040000 24.34230000
47.03860000 40.62160000 24.52590000
44.65290000 40.95710000 28.95040000
45.49770000 42.13800000 30.25180000
46.95280000 42.35290000 29.34090000
41.46400000 40.76960000 32.70380000
42.28090000 40.77080000 37.21030000
43.15620000 40.06760000 36.52530000
38.09860000 40.63210000 35.97920000
40.33630000 41.92310000 35.73560000
45.85880000 41.50340000 31.78490000
45.56830000 42.19390000 32.08140000
42.90440000 42.33170000 33.81450000
44.52880000 42.54870000 33.08910000
45.87990000 42.27870000 30.83600000
44.86130000 41.07190000 34.05950000
44.42080000 42.16660000 33.89850000
43.50160000 41.84730000 34.93230000
43.51030000 42.53330000 33.95380000
41.44200000 41.84970000 37.15700000
42.84330000 42.24520000 35.65890000
43.19870000 42.53400000 35.04550000
42.21580000 42.55420000 35.47410000
33.17730000 32.70940000 39.96850000
30.29840000 28.62380000 39.85320000
26.14900000 31.60740000 39.03060000
26.74240000 32.15490000 43.63370000
23.17070000 32.01950000 40.87630000
30.68500000 32.97390000 36.49750000
28.84510000 34.62600000 43.92390000
28.49940000 35.39000000 39.50660000
25.06070000 35.93510000 41.94540000
22.58570000 35.57620000 47.50030000
26.86620000 37.06770000 46.61290000
39.33670000 38.17240000 38.92340000
34.81170000 39.27240000 43.48320000
39.22720000 39.79250000 40.25600000
32.30480000 36.96670000 43.39630000
32.70870000 38.78920000 38.93210000
27.79640000 39.81530000 43.13790000
30.80840000 39.93920000 41.29030000
33.67280000 41.17770000 40.46640000
26.13260000 39.77060000 48.80950000
20.09530000 38.88670000 50.73170000
29.97130000 39.70330000 46.80460000
32.12900000 40.27130000 45.73830000
35.66740000 40.09960000 43.32480000
33.54140000 40.81280000 44.71780000
23.31730000 40.03790000 45.51860000
24.35780000 41.58520000 46.56860000
29.37200000 41.40950000 43.80340000
30.46430000 42.42350000 45.02040000
31.49230000 42.02490000 43.45700000
29.05360000 40.91250000 47.40380000
30.36850000 41.82890000 45.93920000
26.36240000 40.55700000 48.94310000
24.34730000 41.17890000 49.78470000
24.06400000 42.26090000 49.07840000
27.21150000 42.33050000 46.48470000
29.28850000 42.46660000 46.17870000
28.37050000 42.14090000 46.83240000
27.09030000 42.37040000 47.14500000
25.74060000 42.24330000 48.10190000
24.39900000 42.50480000 48.24480000
17.27200000 34.23520000 44.39490000
15.22480000 33.85330000 48.91960000
13.64840000 34.43960000 45.64530000
15.45840000 35.01620000 45.58560000
21.18370000 37.27550000 44.62300000
16.15840000 36.39920000 45.97400000
14.32940000 38.36000000 47.55760000
11.79880000 36.14290000 46.85120000
17.84810000 40.59580000 48.09580000
19.53780000 41.79660000 48.63890000
21.09150000 42.58620000 49.44090000
22.64950000 40.38190000 50.61740000
17.28020000 35.98250000 49.58460000
12.16170000 35.61620000 50.57600000
12.44120000 38.49480000 52.58570000
15.10000000 39.84150000 52.92850000
2.88590000 33.08680000 46.55030000
5.08420000 37.43550000 48.51440000
8.37510000 36.40610000 51.57320000
3.07700000 34.99750000 51.11230000
5.92800000 37.51410000 52.64190000
6.21530000 40.25370000 50.21280000
11.30510000 40.97290000 50.03660000
8.30890000 39.87510000 54.07890000
13.96810000 40.73920000 53.50020000
9.00520000 40.90890000 54.38820000
6.10840000 40.76950000 54.64260000
3.15150000 40.46390000 54.64700000
9.04220000 41.65150000 54.15610000
4.57030000 42.33880000 54.11630000
3.54310000 41.25170000 54.79510000
6.39220000 42.95460000 53.42250000
18.62550000 40.07430000 52.03140000
20.22600000 40.89070000 51.66240000
15.64210000 42.24790000 50.28380000
17.06790000 41.49450000 52.56480000
19.90130000 41.53540000 51.59440000
16.29850000 42.70420000 51.87590000
19.04660000 42.49410000 51.14870000
14.38280000 41.33870000 53.34020000
14.15450000 42.57730000 52.51790000
15.52750000 42.93190000 51.35710000
17.85090000 42.88930000 50.72590000
21.69340000 42.24970000 50.22050000
22.14870000 42.60210000 49.63050000
19.63560000 42.77910000 50.59420000
17.74220000 42.96740000 51.22790000
10.93220000 42.80250000 51.84280000
11.33220000 42.90390000 52.82290000
11.73260000 43.03750000 52.15930000
14.12300000 43.01570000 52.05680000
8.71720000 43.07990000 52.90420000
6.30110000 42.62040000 52.15840000
6.17590000 43.06830000 52.89260000
39.09200000 41.56400000 39.74250000
37.26290000 42.34830000 39.67920000
40.42310000 42.44530000 36.89810000
35.77810000 41.76520000 39.71150000
39.73910000 41.92760000 38.76060000
40.19690000 42.33910000 38.30840000
39.70320000 42.51050000 38.02690000
38.75870000 42.50440000 39.09530000
38.53520000 40.53470000 41.00290000
36.18030000 41.11760000 42.54840000
38.24750000 42.50100000 40.01600000
37.03580000 42.01850000 41.13060000
37.22860000 42.44540000 40.87750000
35.12150000 41.81060000 42.70930000
35.89790000 42.42960000 41.86300000
36.07240000 42.44290000 41.24040000
35.04350000 42.24720000 42.69200000
41.75930000 42.52830000 36.34060000
40.98190000 42.47950000 37.35660000
34.77660000 42.40210000 42.06200000
33.18590000 41.69840000 44.14870000
34.02190000 42.34010000 43.11140000
33.23240000 42.35190000 43.24250000
32.53220000 42.29430000 44.28440000
31.97610000 42.40560000 44.02300000
31.57380000 42.01340000 45.05000000
31.82440000 42.47890000 44.82660000
30.51920000 42.46020000 45.58420000
-11.52130000 -36.49590000 -36.95760000
-9.93780000 -32.55410000 -42.06630000
-6.55600000 -37.27800000 -36.92210000
0.12860000 -37.68960000 -36.99850000
-3.01060000 -40.22200000 -33.75080000
-4.63980000 -41.65940000 -32.10500000
-6.19200000 -42.46510000 -24.02710000
-6.52500000 -42.51330000 -30.33490000
-8.96520000 -41.88030000 -30.96120000
-9.81180000 -40.08650000 -32.87650000
-11.76390000 -42.24770000 -29.31160000
-15.50190000 -38.59640000 -32.71820000
-15.59670000 -32.41660000 -40.71540000
-19.92220000 -35.28580000 -34.75660000
-16.35880000 -35.37860000 -36.73340000
-20.63040000 -30.79700000 -40.38900000
-25.38560000 -30.41930000 -37.59770000
-26.89990000 -25.98470000 -41.64930000
-22.47450000 -35.15310000 -33.08790000
-26.37640000 -32.48970000 -33.79590000
-30.48460000 -29.47780000 -34.44060000
-32.83980000 -24.16870000 -38.61540000
-13.30330000 -42.48200000 -27.10660000
-11.58870000 -42.54200000 -25.75930000
-15.39830000 -41.58030000 -28.88130000
-16.52520000 -41.96100000 -27.48560000
-19.85730000 -42.10940000 -24.24110000
-11.43870000 -42.37930000 -17.05110000
-19.93990000 -42.30000000 -21.97380000
-15.13390000 -42.48330000 -18.41700000
-5.75870000 -42.33210000 -20.41270000
-11.54100000 -42.43710000 -12.10740000
-20.64150000 -42.19150000 -14.56570000
-3.10890000 -42.21540000 -20.08890000
-3.77250000 -37.82680000 -25.15810000
-2.37330000 -35.95080000 -28.87500000
-5.83490000 -34.97530000 -30.16930000
-6.41550000 -36.95130000 -26.87050000
-6.83130000 -38.02530000 -23.86620000
-9.47410000 -37.41160000 -25.09750000
-10.45370000 -38.05330000 -22.35360000
-13.30310000 -37.29490000 -23.40580000
-15.33490000 -35.58190000 -25.88950000
-17.12150000 -36.57960000 -22.56650000
-11.08510000 -36.24850000 -26.93670000
-9.52430000 -34.64350000 -29.92460000
-12.95840000 -34.49600000 -28.91870000
-10.41430000 -38.49380000 -16.79390000
-16.67560000 -37.81090000 -18.27250000
-14.85690000 -38.09930000 -14.65320000
-17.72770000 -37.34880000 -19.65630000
-20.47060000 -37.73370000 -13.32150000
-19.03290000 -39.75130000 -29.28910000
-21.24600000 -41.42930000 -24.98550000
-23.28500000 -41.68470000 -22.14540000
-24.20810000 -38.19740000 -27.11750000
-24.86990000 -41.86640000 -18.16140000
-25.94960000 -41.97280000 -12.32640000
-25.28380000 -41.04420000 -20.83940000
-30.49970000 -35.59200000 -23.70470000
-28.39690000 -39.97920000 -16.68630000
-27.60540000 -41.49920000 -13.13220000
-34.21460000 -33.95970000 -19.78290000
-29.37740000 -33.88190000 -28.57640000
-14.42690000 -31.62590000 -31.70130000
-16.59540000 -33.56370000 -28.28280000
-17.68420000 -30.83590000 -31.25430000
-20.10160000 -32.09510000 -27.84720000
-21.29890000 -29.56840000 -31.03790000
-20.01540000 -35.48290000 -22.44470000
-20.08300000 -33.78360000 -25.43230000
-25.05280000 -30.38300000 -26.55590000
-25.58500000 -28.83080000 -29.07190000
-29.56190000 -27.99540000 -26.31450000
-29.39550000 -25.28730000 -31.03870000
-20.77510000 -36.57490000 -19.07330000
-23.30290000 -34.85290000 -20.28780000
-24.90570000 -32.05030000 -23.47180000
-21.26570000 -37.33910000 -15.37790000
-23.34270000 -36.26940000 -16.45260000
-25.59680000 -34.51120000 -17.79460000
-27.33410000 -31.39700000 -21.95870000
-28.44630000 -31.93640000 -18.92090000
-31.22070000 -29.20360000 -21.39590000
-34.34310000 -26.24800000 -22.57090000
-13.81790000 -42.36060000 -8.39220000
-14.93520000 -42.15890000 -10.38170000
-9.49210000 -42.61780000 -6.44310000
-11.44760000 -42.48640000 -4.03720000
-15.88960000 -41.98430000 -7.60900000
-20.97340000 -42.00470000 -7.64920000
-16.64330000 -42.18690000 -4.39210000
-20.04230000 -42.32380000 1.14750000
-14.09480000 -42.46120000 -0.60130000
-12.91550000 -42.52870000 4.72300000
-8.30340000 -38.96980000 -7.92350000
-12.58700000 -38.44100000 -9.14940000
-19.06490000 -37.96050000 -8.89130000
-18.17470000 -38.04240000 -3.86520000
-10.09220000 -39.00670000 -0.99180000
-12.09710000 -38.89170000 -3.92240000
-18.37780000 -37.76990000 2.22900000
-13.93720000 -38.44590000 1.29690000
-29.62810000 -41.07230000 -6.95250000
-32.16250000 -37.83130000 -12.65960000
-28.28510000 -41.81990000 -6.06120000
-26.41410000 -42.18130000 -1.14020000
-24.44260000 -36.97270000 -10.73920000
-25.10440000 -36.20160000 -13.34160000
-23.20950000 -37.57190000 -7.47200000
-27.05880000 -34.80690000 -14.08390000
-28.65100000 -34.25620000 -11.19010000
-27.16980000 -36.00630000 -6.66540000
-36.46380000 -33.36390000 -14.82570000
-32.87170000 -38.47650000 -5.61870000
-28.82050000 -41.77380000 -2.44440000
-29.70250000 -41.24090000 -1.28290000
-34.33310000 -37.15810000 -1.72070000
-29.02100000 -41.47420000 1.45610000
-25.34540000 -37.18440000 -3.54580000
-30.89280000 -32.74410000 -8.61890000
-29.77860000 -34.26190000 -4.93310000
-24.39150000 -37.43880000 0.15040000
-26.58250000 -36.60310000 -1.40920000
-21.46250000 -37.70980000 -0.89150000
-29.21950000 -34.82350000 -1.37420000
-34.70290000 -36.08150000 -9.58680000
-35.33220000 -36.34440000 -5.43910000
-36.06430000 -35.77230000 -3.69280000
-31.80730000 -32.35560000 -3.50190000
-37.91380000 -33.47570000 -6.86790000
-39.46860000 -32.68680000 -3.73980000
-29.41760000 -32.33090000 -15.58780000
-33.09620000 -29.42350000 -16.67490000
-31.34890000 -31.32880000 -13.54380000
-33.11110000 -30.93870000 -8.13370000
-34.99170000 -29.41060000 -10.19500000
-35.80990000 -29.42260000 -5.17960000
-32.97320000 -31.34750000 -0.45830000
-34.96710000 -28.71310000 -30.51540000
-36.71080000 -26.31830000 -31.76330000
-38.29950000 -23.04200000 -33.91080000
-42.27430000 -23.18860000 -27.88350000
-38.81990000 -27.35760000 -27.21050000
-40.26060000 -27.59790000 -23.61410000
-40.98430000 -27.97060000 -19.99840000
-38.35820000 -22.22760000 -24.79970000
-39.31510000 -23.17440000 -20.74420000
-42.36880000 -25.29540000 -24.46990000
-44.62350000 -21.25710000 -26.85960000
-46.77220000 -20.72350000 -22.90010000
-38.96770000 -31.14570000 -13.33960000
-39.13700000 -30.43050000 -16.88230000
-38.67720000 -31.97820000 -11.57910000
-43.84310000 -27.99930000 -8.59600000
-40.95770000 -29.68400000 -13.33040000
-41.54930000 -30.49230000 -4.87710000
-42.62580000 -27.35410000 -17.41410000
-38.05450000 -26.75720000 -10.84060000
-37.29350000 -26.03810000 -16.52780000
-41.32940000 -22.59450000 -17.14950000
-45.65290000 -24.18930000 -18.48300000
-44.40700000 -19.98020000 -14.33170000
-42.31240000 -22.83320000 -12.85660000
-48.34240000 -20.80810000 -18.07310000
-45.93790000 -25.44630000 -11.67100000
-48.44990000 -22.22730000 -12.97290000
-41.18100000 -24.77230000 -6.95000000
-40.67970000 -25.29800000 -2.69080000
-44.78480000 -27.59090000 -4.79390000
-43.97750000 -21.85610000 -9.74000000
-44.72190000 -21.40330000 -6.37310000
-46.24650000 -18.51470000 -10.00090000
-49.12890000 -22.36350000 -7.81090000
-51.38940000 -18.80050000 -9.31540000
-51.09330000 -17.90260000 -14.74060000
4.96590000 -26.16020000 -49.23990000
2.04540000 -32.17800000 -43.32410000
1.14050000 -28.25470000 -47.64640000
-2.65660000 -28.56830000 -47.24330000
0.71360000 -24.42870000 -51.36960000
-4.27950000 -24.36740000 -51.11880000
-9.69190000 -27.59880000 -47.19100000
-1.81140000 -21.92480000 -53.43520000
3.47990000 -22.39210000 -52.94160000
-11.71000000 -23.49570000 -50.63940000
-8.29460000 -20.77160000 -53.65060000
-4.06690000 -19.67030000 -54.78360000
-10.26250000 -19.46630000 -54.06170000
-15.77370000 -20.16250000 -52.67520000
-17.92990000 -23.44780000 -48.98090000
-19.83780000 -19.89390000 -51.55870000
-17.21260000 -18.92760000 -52.96990000
-9.14370000 -17.86220000 -54.89950000
-12.24620000 -16.84290000 -54.61650000
-15.83260000 -16.99700000 -53.76570000
-20.68670000 -18.58240000 -51.69920000
-20.28930000 -16.80960000 -52.39850000
-17.53350000 -13.27460000 -53.48820000
-1.39350000 -32.53600000 -43.15060000
-5.30800000 -33.57450000 -41.74410000
-5.50140000 -32.92750000 -32.59800000
1.06250000 -31.05760000 -34.55810000
-2.60470000 -29.87100000 -36.25860000
-11.06310000 -31.38020000 -33.31900000
-13.61720000 -29.01870000 -36.01540000
-6.90470000 -30.79630000 -34.83200000
-8.53010000 -28.52320000 -37.87290000
-5.75930000 -23.36070000 -44.62660000
-10.75230000 -25.45510000 -41.29800000
2.83130000 -27.84770000 -38.84670000
5.17840000 -25.30910000 -41.73580000
-1.33870000 -25.23520000 -42.45470000
5.83630000 -22.18700000 -45.60010000
0.34790000 -22.02780000 -46.36010000
-2.84030000 -27.72480000 -39.50540000
-3.61070000 -20.88210000 -47.36280000
1.56070000 -20.56790000 -47.54040000
-15.28670000 -27.99600000 -45.56690000
-18.37440000 -29.15310000 -43.26510000
-24.23970000 -24.84070000 -44.67940000
-20.47040000 -25.46070000 -46.08160000
-17.74020000 -28.76330000 -34.63150000
-17.97360000 -26.00930000 -38.15460000
-14.94890000 -25.21660000 -40.39420000
-24.16040000 -25.29810000 -35.35730000
-21.45740000 -25.56020000 -36.67070000
-20.92890000 -22.86240000 -40.78240000
-26.09840000 -21.48910000 -39.30830000
-20.39250000 -21.53630000 -42.57620000
-11.79300000 -22.89010000 -44.24480000
-15.44450000 -21.99820000 -44.13350000
-11.85770000 -20.54790000 -46.45830000
-16.60140000 -20.61330000 -44.90580000
-7.85680000 -21.30450000 -46.63120000
-8.12550000 -19.56700000 -47.75640000
-11.05520000 -17.79900000 -48.20840000
-24.31110000 -20.33410000 -49.03580000
-22.12800000 -19.94170000 -42.98740000
-17.11590000 -18.02370000 -46.29590000
-23.68230000 -18.00070000 -43.47710000
-14.77280000 -16.18930000 -47.86090000
-23.37900000 -16.61700000 -44.32480000
-17.68920000 -15.33890000 -47.09460000
-22.63890000 -14.88650000 -45.14170000
11.22740000 -17.14220000 -53.58030000
11.41430000 -18.75780000 -53.28490000
6.72840000 -17.80800000 -54.58220000
8.12850000 -19.29290000 -53.92700000
2.92460000 -18.32590000 -54.99080000
4.44400000 -16.29880000 -55.06270000
6.98210000 -8.88890000 -54.38430000
10.14150000 -21.65230000 -52.20360000
5.16810000 -20.74540000 -53.73970000
7.95320000 -21.12710000 -46.23890000
6.14920000 -19.50540000 -47.70220000
8.81420000 -18.56580000 -47.67070000
9.31320000 -16.99770000 -48.02870000
2.89420000 -18.42140000 -48.70540000
6.15590000 -17.14700000 -48.71780000
6.53830000 -15.06280000 -48.84270000
-0.09370000 -19.68190000 -54.73640000
-3.62860000 -17.65460000 -55.42420000
-1.66950000 -16.39930000 -55.52020000
-2.65990000 -18.69760000 -48.73910000
-1.31220000 -17.30910000 -49.35690000
-0.41010000 -7.52830000 -55.33870000
3.21450000 -9.86000000 -55.01690000
1.21910000 -16.53550000 -49.46770000
2.36250000 -14.85880000 -49.51710000
-2.86870000 -15.36800000 -49.74390000
1.22930000 -9.08210000 -49.55960000
-4.27460000 -9.40260000 -49.71660000
10.28350000 -9.90230000 -53.58820000
8.96290000 -10.39780000 -48.20170000
11.02690000 -4.83080000 -47.35420000
4.29050000 -6.15860000 -49.06180000
-6.00800000 -11.31550000 -55.40810000
-8.62270000 -15.82730000 -55.23730000
-5.89230000 -17.11680000 -49.23090000
-8.92910000 -16.04240000 -49.16470000
-7.25750000 -13.98100000 -49.56240000
-3.29820000 -7.19360000 -55.41820000
-8.47480000 -9.18490000 -55.19010000
-12.52360000 -11.76190000 -54.67890000
-16.60660000 -8.03910000 -53.65610000
-12.78690000 -7.11440000 -54.42550000
1.29560000 3.87630000 -55.07110000
-2.64940000 -4.44020000 -49.61910000
0.68660000 -0.77960000 -49.34490000
-11.53100000 2.81720000 -54.68980000
-14.63100000 5.81850000 -54.07470000
-7.61220000 4.32470000 -55.17180000
-11.83230000 -14.81350000 -48.81700000
-9.13420000 -8.37870000 -49.28660000
-16.13920000 -12.46670000 -47.79570000
-13.33220000 -7.88990000 -48.48790000
-20.89640000 -12.14170000 -46.08280000
-18.39430000 -7.37360000 -47.02970000
-5.10280000 0.67310000 -49.47680000
-10.38090000 -2.49230000 -48.87690000
-18.07480000 -2.18160000 -46.90710000
-13.05570000 1.30740000 -48.35430000
-21.62160000 -15.17270000 -52.06830000
-28.56460000 -19.54840000 -47.15790000
-33.12800000 -19.93120000 -43.24660000
-32.11190000 -18.41670000 -45.18940000
-29.06370000 -22.26860000 -35.91510000
-25.48770000 -20.18190000 -40.94650000
-29.34900000 -19.10710000 -39.10740000
-30.63040000 -20.15880000 -37.06200000
-32.76260000 -18.59200000 -36.68010000
-35.93430000 -18.78090000 -41.66770000
-34.62210000 -17.20630000 -43.71900000
-39.50990000 -18.55250000 -38.05860000
-37.58740000 -16.27860000 -41.22220000
-26.11770000 -17.99690000 -49.31410000
-30.15710000 -16.77490000 -47.23410000
-25.75860000 -16.33020000 -49.99720000
-25.40360000 -13.90040000 -50.38840000
-22.68890000 -11.89660000 -51.64160000
-29.55260000 -13.52190000 -47.91400000
-25.05980000 -7.82710000 -50.42330000
-33.32940000 -14.81200000 -45.12360000
-28.01740000 -17.71650000 -41.07970000
-26.05440000 -15.62650000 -43.19320000
-31.03360000 -16.35840000 -39.57060000
-33.16810000 -17.16120000 -37.33970000
-29.75630000 -15.21160000 -40.86450000
-26.92160000 -13.16670000 -42.96230000
-30.95610000 -12.31180000 -40.17440000
-26.28560000 -7.57090000 -43.32100000
-33.46320000 -15.01900000 -37.83150000
-40.03320000 -14.91850000 -38.92310000
-37.59050000 -11.74090000 -41.55190000
-32.96020000 -7.74690000 -45.42060000
-30.68450000 -6.92700000 -40.20190000
-20.85700000 -6.85970000 -52.19850000
-18.34740000 5.80750000 -53.03160000
-23.12070000 -8.08450000 -45.10100000
-27.55680000 -9.30630000 -49.16760000
-28.85470000 -5.90520000 -48.15160000
-25.70920000 9.36860000 -50.01680000
-29.22330000 1.53240000 -48.01410000
-22.76260000 -1.40360000 -44.97340000
-26.76300000 -1.90370000 -42.81160000
-36.84720000 -6.85240000 -42.21340000
-32.19390000 3.48410000 -46.12000000
-29.16350000 2.46010000 -41.20320000
-36.13360000 3.57600000 -42.97160000
-22.26040000 5.47760000 -51.60210000
-15.31220000 9.33880000 -48.14630000
-19.31990000 4.34170000 -46.55110000
-25.15160000 6.20170000 -43.89060000
-35.73150000 -22.22550000 -28.82800000
-33.33790000 -21.15320000 -33.40510000
-35.74230000 -18.59050000 -33.45700000
-42.65150000 -18.55120000 -34.07050000
-35.73540000 -16.75620000 -34.89790000
-41.49100000 -17.08180000 -36.71640000
-38.18490000 -19.98160000 -28.50840000
-37.70740000 -17.53090000 -31.91100000
-37.96640000 -15.19890000 -32.83550000
-40.14320000 -15.91060000 -29.58820000
-41.07840000 -21.17130000 -21.56780000
-40.73660000 -19.33620000 -25.17190000
-40.26550000 -17.61470000 -28.09570000
-42.25050000 -16.91010000 -25.18910000
-41.21610000 -14.74030000 -28.29220000
-43.80490000 -13.98740000 -23.63950000
-42.25600000 -11.10210000 -26.85610000
-35.79410000 -13.94470000 -35.59990000
-33.78050000 -9.55720000 -37.69940000
-39.33300000 -9.84130000 -31.32510000
-36.01720000 -8.05780000 -35.40140000
-37.99600000 -3.08300000 -32.83270000
-43.39620000 -16.38940000 -34.50070000
-42.89430000 -13.76890000 -35.64060000
-45.06760000 -17.91780000 -31.06510000
-45.06870000 -14.42630000 -32.35310000
-47.35030000 -17.78770000 -26.90650000
-46.44730000 -16.81240000 -29.41320000
-48.68150000 -16.55270000 -24.84040000
-47.29880000 -13.59780000 -28.59240000
-46.02380000 -9.51290000 -31.08990000
-48.93790000 -12.83210000 -25.22800000
-41.56480000 -10.69440000 -37.40650000
-44.25400000 -7.74280000 -33.77370000
-39.88340000 -6.83890000 -39.22020000
-42.19810000 -6.13990000 -36.39520000
-47.96150000 -9.01740000 -27.51650000
-49.18550000 -3.38330000 -24.77060000
-47.31770000 -5.10730000 -28.52050000
-45.45620000 5.21530000 -32.11920000
-43.79450000 -18.35970000 -19.83840000
-43.85730000 -16.92720000 -21.75490000
-46.13020000 -16.13020000 -15.99830000
-45.91720000 -17.60960000 -14.42020000
-45.31470000 -14.64940000 -19.60490000
-47.14820000 -16.63640000 -9.89200000
-47.49260000 -14.57200000 -10.79140000
-47.39880000 -16.76500000 -6.73830000
-49.35890000 -17.98980000 -21.50310000
-50.58230000 -16.79140000 -18.94160000
-50.26850000 -13.78590000 -21.45960000
-51.52090000 -15.09190000 -16.05700000
-44.93320000 -5.89060000 -21.19550000
-46.17220000 -9.99830000 -17.56770000
-46.46070000 -14.15070000 -16.40640000
-50.46140000 -5.66430000 -21.35560000
-51.39920000 -5.27620000 -17.98180000
-51.77550000 -12.32140000 -16.13450000
-52.09410000 -16.84790000 -10.59110000
-52.51640000 -13.81860000 -10.44720000
-46.96040000 -6.96970000 -14.16240000
-52.43410000 -8.32100000 -12.89890000
-47.88860000 -7.74750000 -6.75000000
-47.55740000 -10.81440000 -10.86880000
-52.68830000 -3.24620000 -10.05940000
-42.84810000 -4.65270000 -25.73070000
-43.99580000 -1.65490000 -23.09930000
-46.21430000 -2.59460000 -16.85920000
-47.51320000 -1.93280000 -9.40760000
-52.10630000 -2.02240000 -14.46600000
-32.85260000 -2.43820000 -38.23470000
-34.75180000 0.68470000 -36.57310000
-32.86320000 7.69490000 -38.50820000
-36.13030000 5.22800000 -35.21650000
-40.44560000 1.37750000 -38.64200000
-43.59660000 1.57510000 -34.81600000
-40.67090000 -1.06460000 -29.18860000
-47.37880000 1.17440000 -28.71740000
-37.76860000 6.86190000 -33.42820000
-41.20750000 4.74540000 -28.53440000
-41.87660000 10.55780000 -37.09200000
-39.15260000 11.68780000 -40.10750000
-39.84460000 10.29800000 -31.05050000
-42.58730000 16.17110000 -27.84840000
-46.79550000 11.41000000 -29.75580000
-44.22320000 13.60670000 -33.80990000
-45.33300000 1.43900000 -19.77820000
-44.61530000 9.00930000 -22.30190000
-43.10690000 6.00130000 -25.37010000
-49.26910000 8.53510000 -24.74890000
-51.17110000 7.71070000 -19.02340000
-47.08790000 -0.62250000 -12.14290000
-46.39490000 4.21310000 -16.42700000
-47.16730000 7.21340000 -13.49710000
-52.00180000 10.59260000 -14.90800000
-52.66720000 6.99290000 -11.04060000
-48.12990000 16.00140000 -26.54700000
-49.87370000 13.42940000 -22.51760000
-46.37220000 11.14260000 -17.70300000
-51.38580000 15.52880000 -16.62300000
-45.59900000 15.56180000 -21.13150000
-48.17620000 17.30950000 -11.85170000
-47.83070000 10.71700000 -9.96040000
7.21990000 -0.25580000 -48.30870000
10.21010000 3.22710000 -53.34330000
6.12870000 6.29870000 -54.29940000
15.22660000 4.52350000 -51.61130000
19.36140000 12.28100000 -49.94480000
14.12940000 11.35290000 -52.09330000
10.53970000 14.86310000 -53.31210000
-4.59920000 6.48200000 -55.27880000
-1.38890000 11.94780000 -55.26040000
2.42460000 14.57630000 -54.98900000
-7.95240000 15.41460000 -55.12730000
-4.59220000 15.17310000 -55.26970000
11.06170000 2.30680000 -47.20350000
3.45200000 7.82750000 -49.15020000
14.44070000 8.83980000 -46.10170000
6.95110000 8.74250000 -48.50500000
10.46750000 8.14260000 -47.47290000
-0.37930000 7.07320000 -49.54610000
-8.15000000 3.70130000 -49.25900000
-8.55750000 12.68550000 -49.64080000
-11.62970000 10.40190000 -49.05440000
-2.32060000 12.56810000 -49.93250000
2.96010000 17.41660000 -49.83010000
-4.02050000 15.64030000 -50.15950000
22.10850000 20.13050000 -48.95090000
17.57320000 19.63360000 -51.04820000
17.39180000 24.42100000 -51.76530000
13.25970000 19.26740000 -52.64460000
8.52650000 21.04290000 -54.15690000
11.90830000 23.96550000 -53.65240000
5.81310000 17.00460000 -54.53470000
-0.25870000 19.99800000 -55.43640000
-3.40890000 20.53110000 -55.56720000
4.76720000 23.02060000 -55.15680000
7.78980000 25.76630000 -54.97040000
2.81320000 28.26490000 -56.25090000
-0.21330000 25.74700000 -55.99410000
-8.87580000 22.70210000 -55.41090000
-4.55150000 25.95720000 -56.13970000
16.46900000 17.94040000 -45.89410000
8.40600000 16.88470000 -48.69910000
17.64990000 23.74340000 -45.92390000
12.83980000 22.11550000 -47.73310000
8.81620000 23.60880000 -49.16700000
15.75290000 27.25260000 -47.42580000
-7.01110000 22.56490000 -50.54840000
-0.10810000 22.80470000 -50.64610000
-2.87110000 23.33680000 -50.79130000
4.31720000 22.95510000 -50.00540000
11.90720000 27.79760000 -49.00440000
4.35480000 26.58450000 -50.59120000
-3.08630000 27.56510000 -51.46020000
2.68600000 29.73490000 -51.59830000
-11.02060000 16.44650000 -54.73190000
-28.29310000 10.80910000 -48.64660000
-22.87470000 14.58050000 -45.73580000
-19.39710000 13.91410000 -47.08600000
-30.00160000 10.29800000 -40.89900000
-25.76740000 15.50840000 -44.24780000
-29.82060000 16.66830000 -41.77250000
-15.10810000 15.56810000 -53.94930000
-18.06360000 18.73640000 -53.18200000
-13.67250000 20.69950000 -49.38170000
-16.87030000 19.33190000 -48.46350000
-23.63610000 19.53060000 -51.07700000
-22.18410000 22.72520000 -46.83040000
-26.48000000 23.00240000 -44.59420000
-31.39400000 9.41420000 -46.83090000
-34.68350000 9.45890000 -44.35140000
-32.49910000 12.92400000 -45.81250000
-36.27790000 18.45000000 -42.71200000
-29.04010000 20.31390000 -48.15990000
-33.11330000 20.10200000 -45.33210000
-32.77430000 26.48570000 -46.21510000
-36.36860000 25.28150000 -42.98140000
-6.25880000 29.31580000 -56.67430000
-7.70440000 33.17980000 -57.54930000
-11.56130000 31.92550000 -56.71260000
-14.37770000 22.52200000 -54.49890000
-12.44020000 26.68870000 -55.44090000
-11.60210000 23.70980000 -50.09330000
-18.45510000 24.67600000 -48.62200000
-15.74440000 27.27890000 -49.77960000
-19.48860000 24.76080000 -53.31320000
-24.91220000 25.32850000 -50.93430000
-15.79730000 27.36820000 -54.93900000
-21.07090000 30.06480000 -53.77860000
-24.58220000 29.64370000 -52.03090000
-22.99250000 27.70310000 -47.30370000
-19.51860000 28.73530000 -49.14840000
-11.77970000 29.70480000 -51.29130000
-4.78910000 32.50910000 -52.76540000
-8.15850000 30.15560000 -51.86570000
-10.50910000 33.94160000 -52.83400000
-15.28020000 33.15660000 -51.66690000
-18.49980000 32.76840000 -55.41410000
-17.55480000 30.59870000 -50.18770000
-15.53050000 32.61230000 -56.10250000
-19.51570000 33.05040000 -50.45330000
-19.64310000 36.33910000 -51.70990000
-24.44680000 30.62930000 -47.50920000
-22.99070000 35.01560000 -49.84670000
-29.45650000 26.23750000 -48.50750000
-30.03470000 31.76720000 -49.43730000
-28.38910000 28.63610000 -44.57890000
-26.59150000 33.08640000 -47.35510000
-30.20110000 34.00710000 -45.39650000
-33.79650000 32.98530000 -47.11720000
-24.89450000 34.78480000 -53.35480000
-22.83420000 37.20980000 -55.07980000
-28.23850000 37.15340000 -52.43930000
-27.20620000 36.09120000 -48.23190000
-24.56510000 39.49860000 -51.62440000
-28.53940000 39.67730000 -49.76840000
-31.73400000 38.10130000 -46.61120000
-33.31040000 37.65240000 -49.32620000
-31.31560000 41.06950000 -52.64630000
-37.26200000 39.50840000 -47.40980000
-33.41970000 15.10660000 -38.72700000
-36.78270000 14.71640000 -35.31630000
-35.96620000 20.88520000 -37.04130000
-39.57980000 17.78720000 -39.45590000
-41.60250000 18.73640000 -37.12810000
-38.82810000 15.94810000 -33.30040000
-40.49310000 18.57290000 -31.47970000
-44.18500000 19.26420000 -33.53800000
-46.56560000 20.20570000 -29.61350000
-31.38760000 23.64580000 -41.40890000
-33.97650000 26.47610000 -39.82390000
-40.04310000 24.80470000 -39.33260000
-37.90650000 24.11810000 -35.59710000
-41.18400000 30.30720000 -39.30080000
-38.96210000 29.25890000 -41.51540000
-42.70990000 25.42250000 -36.15730000
-41.43630000 21.88350000 -30.54740000
-43.38460000 23.59470000 -27.68070000
-41.73730000 26.64940000 -31.29850000
-45.33820000 25.99450000 -32.33390000
-39.17990000 27.93050000 -35.11140000
-39.55290000 31.18880000 -35.83030000
-44.51530000 29.33110000 -34.55470000
-43.96870000 15.84670000 -25.10450000
-49.96730000 20.84570000 -21.82630000
-45.11000000 22.10070000 -23.79710000
-48.50360000 21.33640000 -25.52570000
-46.89990000 19.09680000 -18.35440000
-50.90440000 19.63600000 -18.41960000
-47.91610000 19.18730000 -14.59910000
-51.70140000 22.70720000 -15.18000000
-48.14130000 24.00740000 -15.32100000
-48.35820000 25.13080000 -26.38360000
-45.67540000 27.88510000 -24.58450000
-43.03080000 29.20030000 -30.12490000
-46.96870000 25.33260000 -20.13450000
-48.95890000 29.81420000 -16.87380000
-49.69370000 29.75210000 -13.54720000
-47.78930000 29.98110000 -20.58520000
-32.50630000 31.03220000 -42.38060000
-36.59390000 29.72000000 -43.81790000
-36.35820000 28.70980000 -38.24320000
-37.29720000 34.29240000 -44.70300000
-36.70460000 31.87610000 -39.09030000
-34.08970000 33.89290000 -42.25740000
-37.42090000 35.14840000 -40.10120000
-41.17820000 33.88250000 -40.64090000
-39.33460000 36.12440000 -43.55130000
-40.84820000 32.68580000 -34.93340000
-44.41700000 31.97670000 -29.12420000
-43.09200000 36.02320000 -34.13600000
-40.24650000 36.82820000 -38.30780000
-36.78880000 37.94310000 -42.40350000
-36.35670000 40.20960000 -44.37520000
-39.39930000 38.87330000 -40.70180000
-32.66910000 41.77810000 -48.61820000
-35.89240000 42.59780000 -47.04740000
-38.97130000 41.81330000 -43.59080000
23.80730000 24.98020000 -48.73800000
20.87580000 28.36560000 -51.18900000
16.47980000 28.64910000 -53.12370000
11.46750000 28.31980000 -54.64140000
13.19820000 32.63270000 -55.50180000
19.64870000 32.15390000 -52.94750000
23.51460000 31.82210000 -50.97230000
27.47540000 36.56480000 -50.97140000
23.36960000 35.05880000 -52.52550000
19.89220000 35.77040000 -54.44490000
15.19470000 35.06210000 -55.77870000
20.24490000 40.94010000 -57.10370000
15.49010000 37.49580000 -56.79160000
16.39580000 39.64310000 -57.80180000
27.80670000 39.70940000 -52.56800000
22.81950000 39.24100000 -54.94900000
6.18190000 30.13000000 -56.32260000
9.57910000 32.83480000 -56.51500000
2.70330000 33.66800000 -57.76220000
-2.11260000 32.38690000 -57.60190000
5.40550000 37.22020000 -58.84040000
9.15100000 37.86300000 -58.64870000
12.16990000 40.63550000 -59.52200000
14.58790000 36.47270000 -51.49240000
16.73410000 40.07390000 -52.76650000
11.81790000 38.26620000 -53.42500000
6.95080000 41.74430000 -56.70970000
8.26380000 39.08350000 -54.78680000
10.70800000 43.12970000 -57.24200000
13.02380000 41.60430000 -55.14790000
2.63970000 40.35310000 -60.85300000
3.01660000 36.99750000 -54.47800000
6.79900000 34.07590000 -52.48450000
1.80540000 39.49890000 -56.00120000
-0.52200000 37.16180000 -59.33770000
9.54100000 42.40620000 -60.90090000
7.19460000 41.50990000 -60.94650000
6.85020000 43.05100000 -61.40990000
4.50450000 42.54290000 -61.71380000
1.16000000 42.62850000 -61.95630000
3.31660000 43.21920000 -61.83030000
5.90030000 43.60680000 -61.19420000
0.21150000 43.60750000 -61.79260000
-0.92680000 43.96350000 -61.34070000
5.29690000 44.04130000 -60.18330000
4.84480000 43.30880000 -58.50670000
-0.15460000 41.98600000 -57.73400000
-1.25960000 43.78200000 -59.57230000
1.19430000 44.05230000 -60.23210000
9.46410000 43.91040000 -58.53580000
23.24910000 26.62210000 -43.43410000
20.05330000 27.30600000 -45.40970000
20.46310000 30.98910000 -46.20240000
16.18910000 30.27340000 -48.04470000
13.61320000 31.92440000 -49.67500000
19.27520000 33.28510000 -47.85100000
23.83240000 34.91890000 -46.22710000
24.94020000 30.92580000 -43.45230000
27.14450000 34.47380000 -43.74250000
25.29480000 39.89450000 -48.35280000
19.52380000 36.06430000 -49.09250000
21.08720000 40.42870000 -51.17590000
9.51380000 30.11910000 -50.33510000
6.83620000 30.54450000 -51.01430000
10.00300000 33.24740000 -51.31970000
2.89990000 32.92510000 -52.58740000
-0.96870000 31.90970000 -52.61210000
-1.71050000 35.39830000 -53.97420000
28.06660000 41.44820000 -52.95210000
25.43050000 39.77200000 -53.69130000
26.16940000 41.77080000 -53.60950000
31.75880000 41.43590000 -51.17420000
30.09790000 41.87120000 -52.34260000
31.67460000 42.16440000 -51.44620000
31.36580000 42.71540000 -51.42870000
31.79330000 43.31310000 -50.30450000
29.12470000 42.54220000 -52.61200000
27.03300000 42.61200000 -53.08810000
28.42850000 43.31290000 -52.22340000
26.85290000 43.66000000 -52.40530000
29.68220000 43.76650000 -50.50710000
27.77750000 43.53740000 -50.70490000
24.21530000 43.40690000 -52.43860000
29.47920000 42.87130000 -48.50120000
23.73700000 40.98210000 -55.09130000
23.11080000 41.94570000 -56.12930000
21.74400000 42.34810000 -57.05360000
19.31650000 42.34910000 -58.09470000
19.01260000 43.09150000 -57.97110000
24.95640000 41.97670000 -54.39320000
25.52790000 41.79320000 -49.63590000
20.93920000 42.40360000 -52.81300000
20.22080000 43.38750000 -54.32120000
16.18120000 43.24670000 -55.77910000
23.25540000 42.70480000 -55.99460000
22.35530000 43.00970000 -56.42880000
23.98770000 43.44890000 -54.62900000
20.91780000 43.36810000 -56.77460000
20.71960000 43.80460000 -55.92040000
25.46910000 43.08810000 -53.80650000
22.54270000 43.74450000 -54.12850000
25.56800000 43.66270000 -52.69120000
15.98610000 43.95420000 -57.32140000
16.38840000 41.99220000 -58.99710000
16.27790000 43.06670000 -59.00600000
13.80950000 42.56880000 -59.88780000
15.39230000 43.68860000 -58.61980000
11.08990000 43.11850000 -60.51680000
7.90560000 43.84230000 -60.42260000
-6.62660000 36.93500000 -58.95740000
-6.82740000 38.94080000 -59.93850000
-12.83310000 36.58070000 -57.89680000
-13.97730000 39.86660000 -59.28580000
-4.65840000 41.74780000 -61.55370000
-6.54180000 43.20090000 -61.96990000
-4.62900000 42.64180000 -61.96230000
-4.64750000 41.12640000 -57.15830000
-4.99030000 37.20630000 -54.89700000
-4.87960000 42.85660000 -58.46450000
-1.55050000 43.09260000 -62.06350000
-4.51320000 43.56840000 -61.94220000
-5.27330000 44.13850000 -60.36250000
-6.16660000 44.11100000 -61.15130000
-8.12400000 43.76310000 -59.38250000
-10.41130000 42.66330000 -61.35130000
-9.82480000 43.59240000 -61.51880000
-7.39290000 43.83610000 -61.62380000
-10.81790000 44.16690000 -60.69410000
-10.27480000 42.57010000 -57.74250000
-12.47490000 44.04290000 -59.16100000
-14.25080000 43.50540000 -58.06070000
-12.87260000 44.27080000 -59.74540000
-16.22840000 42.61390000 -60.11320000
-14.02220000 43.44750000 -60.81040000
-13.73570000 44.05920000 -60.51650000
-17.27660000 43.81610000 -59.94580000
-11.54740000 36.86930000 -54.06860000
-8.14860000 39.96720000 -56.26980000
-18.28700000 37.49300000 -56.88920000
-15.63830000 36.91300000 -53.24760000
-19.35800000 40.52430000 -54.25780000
-14.14160000 41.16430000 -56.09660000
-17.68320000 44.33140000 -58.47720000
-19.82580000 42.44270000 -55.44820000
-19.76980000 39.84190000 -57.58560000
-25.00180000 41.10150000 -56.19650000
-26.08800000 42.25300000 -52.81990000
-21.83480000 42.81720000 -58.43490000
-19.61880000 43.17730000 -59.33790000
-18.97730000 44.08540000 -59.30260000
-20.37270000 44.08480000 -57.05040000
-22.89490000 43.42680000 -55.35470000
-26.42870000 43.09580000 -56.58580000
-23.77280000 43.82950000 -57.82760000
-20.87120000 43.68610000 -58.94640000
-19.78880000 44.37500000 -58.51870000
-22.16650000 44.25090000 -58.06780000
-23.95440000 44.41670000 -56.92770000
-29.19410000 43.67950000 -52.72490000
-26.74370000 44.44200000 -55.31010000
-32.03050000 42.82000000 -53.25900000
-25.87870000 44.07900000 -56.80540000
-28.90650000 43.88360000 -55.34390000
-28.28200000 44.26470000 -54.02400000
-30.86090000 43.46510000 -54.25470000
-26.87820000 44.39080000 -55.88580000
-29.42920000 44.34950000 -54.62150000
-31.01330000 42.92510000 -50.84510000
-32.63000000 43.88760000 -52.98810000
-33.69330000 44.29190000 -50.87300000
-31.37080000 44.23140000 -52.44280000
-33.41330000 44.40450000 -51.68300000
-31.35650000 44.30830000 -53.24600000
-33.44100000 44.23980000 -52.13820000
-37.09600000 43.89570000 -47.54840000
-29.83990000 44.43720000 -53.75670000
-16.53260000 44.31540000 -59.51410000
-46.01310000 30.69410000 -32.87930000
-50.69360000 26.65330000 -20.45010000
-49.07630000 29.80810000 -26.41530000
-47.65150000 29.80780000 -29.57280000
-50.42670000 29.57870000 -22.79200000
-48.64410000 35.14190000 -30.49480000
-51.04050000 34.44370000 -24.77880000
-51.84300000 27.81270000 -16.69960000
-52.14460000 32.60420000 -20.05540000
-52.73470000 31.47250000 -16.39760000
-50.18690000 33.81580000 -16.60110000
-43.34710000 39.31380000 -41.17770000
-43.76130000 33.24640000 -37.18960000
-45.70080000 37.01600000 -36.51660000
-39.85840000 39.57510000 -45.09960000
-37.41810000 42.87990000 -49.40210000
-40.81560000 42.97060000 -46.57960000
-38.82360000 43.73470000 -48.44410000
-40.61400000 43.92500000 -46.91880000
-44.08360000 43.02590000 -43.17740000
-42.19060000 43.54400000 -45.48860000
-42.12710000 44.14830000 -45.19990000
-42.90570000 42.02010000 -39.70500000
-41.69580000 43.32560000 -42.75860000
-39.61970000 44.15080000 -45.78100000
-41.88160000 44.35510000 -44.56330000
-43.53020000 44.16440000 -42.22170000
-44.03640000 43.88620000 -43.46050000
-43.90300000 44.29370000 -43.01320000
-45.84240000 43.65190000 -41.32960000
-45.40980000 44.18020000 -41.53010000
-45.08860000 44.28860000 -40.78930000
-43.79560000 40.12810000 -36.81980000
-48.21440000 39.89820000 -34.89090000
-46.71080000 38.70840000 -31.00030000
-47.09930000 42.20560000 -34.45520000
-46.27500000 44.07630000 -38.69970000
-47.31020000 43.23440000 -39.24010000
-46.03250000 44.35510000 -40.08390000
-47.53120000 43.80910000 -36.54350000
-49.42470000 43.57970000 -36.20680000
-49.55350000 43.06390000 -35.64170000
-50.28490000 43.92020000 -34.64150000
-47.10260000 43.74680000 -39.73380000
-46.68660000 44.18090000 -39.94150000
-48.48490000 43.92380000 -37.53410000
-47.10200000 44.29770000 -38.39030000
-47.69170000 44.13810000 -38.50360000
-48.87290000 44.21920000 -36.42670000
-47.97850000 44.25500000 -37.31600000
-48.87160000 44.11770000 -35.17660000
-50.31850000 44.22140000 -33.88650000
-50.61790000 44.12770000 -32.23820000
-46.00510000 34.32540000 -27.77760000
-50.62440000 37.61130000 -28.29920000
-48.12350000 35.65500000 -24.69720000
-50.13220000 39.77380000 -25.42090000
-50.00800000 36.60120000 -21.10890000
-51.25840000 41.04530000 -30.62960000
-53.79800000 41.94760000 -26.07200000
-53.77380000 39.58080000 -22.86300000
-48.64370000 33.30980000 -20.96920000
-53.75220000 37.60940000 -20.15580000
-51.91230000 38.17840000 -17.68060000
-54.56200000 37.51880000 -16.59360000
-55.94120000 41.86460000 -19.21400000
-52.08800000 42.72930000 -26.20620000
-53.77790000 42.50430000 -21.27500000
-54.98130000 41.95740000 -15.34350000
-49.65970000 41.84050000 -29.89980000
-51.52730000 43.74410000 -32.49230000
-51.69600000 43.91320000 -29.52010000
-52.49240000 43.28750000 -30.47910000
-52.11390000 44.13560000 -30.63520000
-53.58890000 43.44800000 -28.15020000
-52.87750000 43.89340000 -29.56450000
-52.55540000 44.12010000 -28.44710000
-53.54360000 44.12280000 -26.81700000
-54.35120000 43.91050000 -25.86150000
-55.42160000 43.34670000 -23.17870000
-53.97230000 43.82140000 -23.72700000
-55.10140000 43.98330000 -21.29800000
-55.61850000 43.97350000 -21.26770000
-55.78190000 43.58070000 -17.13670000
-56.33660000 43.72870000 -19.43240000
-56.76370000 43.25810000 -18.12530000
-35.92440000 43.57150000 -50.78470000
-36.66930000 44.13170000 -49.98920000
-39.51880000 44.35090000 -47.31670000
-36.43770000 44.41680000 -49.35750000
-35.23080000 44.26290000 -50.93300000
-38.59390000 44.35310000 -47.21740000
-20.57770000 -42.76690000 11.66700000
-26.20020000 -42.26850000 6.00210000
-24.29390000 -42.42030000 10.29780000
-27.58720000 -41.76630000 5.24350000
-17.95960000 -37.40840000 5.98750000
-20.83990000 -37.41950000 4.43060000
-22.19370000 -37.45530000 6.15590000
-22.72200000 -37.25920000 7.40770000
-18.16440000 -37.31000000 9.04380000
-24.95900000 -37.04740000 3.29580000
-23.08220000 -36.52690000 10.22270000
-20.20880000 -42.73100000 14.68680000
-18.13890000 -42.47670000 17.79890000
-24.44800000 -39.12200000 17.23030000
-21.76660000 -42.25800000 14.87710000
-21.77280000 -39.08790000 19.94520000
-18.91790000 -37.29180000 12.11070000
-19.16410000 -36.50280000 15.01220000
-15.57920000 -36.91840000 16.26350000
-24.45450000 -41.97960000 11.62350000
-29.53040000 -38.80350000 9.81810000
-25.87810000 -40.59390000 12.24590000
-28.09310000 -37.08950000 16.56730000
-29.48600000 -37.51920000 13.37310000
-20.80250000 -35.71920000 15.77470000
-24.46170000 -35.38390000 12.13600000
-22.89260000 -34.48300000 16.23730000
-25.42180000 -33.53790000 14.71420000
-18.81160000 -35.40520000 18.12790000
-33.83070000 -37.27170000 1.81780000
-30.52840000 -39.47890000 4.93140000
-27.24440000 -36.00150000 1.86490000
-28.83450000 -34.53120000 4.02870000
-26.20180000 -35.83730000 7.13820000
-34.17520000 -29.96230000 3.60910000
-30.41860000 -31.67370000 9.06220000
-34.57290000 -36.08650000 5.04910000
-39.93650000 -31.27620000 3.89340000
-41.77600000 -30.29880000 -1.48350000
-36.63310000 -33.77900000 6.30000000
-32.56100000 -36.56490000 8.72630000
-33.19810000 -35.18280000 11.45360000
-27.83580000 -34.15500000 8.97080000
-26.95580000 -33.50720000 12.39190000
-31.01440000 -35.03750000 16.39680000
-34.36170000 -33.67040000 11.95100000
-40.15960000 -30.19120000 7.59930000
-38.27760000 -29.94130000 12.84000000
-36.24150000 -28.94670000 -0.92090000
-39.53910000 -25.91750000 1.10000000
-28.18560000 -31.64810000 13.78350000
-31.63720000 -29.98800000 11.70870000
-29.95440000 -29.82520000 15.23410000
-34.33210000 -28.57350000 8.86170000
-37.49090000 -26.24390000 7.76820000
-33.96320000 -27.44100000 13.63720000
-15.18120000 -39.40120000 23.82750000
-17.48170000 -39.78630000 22.02080000
-22.36580000 -34.23190000 26.20320000
-15.81310000 -35.39910000 28.50530000
-27.02410000 -33.88090000 23.07510000
-29.26920000 -29.39040000 27.48860000
-16.82430000 -35.15500000 19.69680000
-20.95850000 -34.42520000 18.22030000
-18.37160000 -33.35310000 21.35170000
-19.22460000 -31.07670000 23.74180000
-24.16390000 -31.27910000 19.87510000
-25.37500000 -31.90560000 17.46090000
-22.48570000 -30.75720000 22.08160000
-26.83560000 -28.28630000 22.05180000
-20.55100000 -27.46860000 35.77190000
-14.96950000 -28.16400000 29.72490000
-20.17090000 -27.88560000 27.53420000
