4.00994778 3.42425799 -3.77320623
-4.30525732 2.70556045 8.30687904
-7.97039652 0.08015580 6.57146120
-9.98616695 1.41687834 5.06623316
3.87610984 1.48404264 4.14977455
-5.18177843 -3.00560522 -5.33861923
-6.85064554 -2.07822156 -6.02928495
2.59469604 -2.27133322 4.15270615
-4.78183889 -3.21544743 4.67143631
1.59034801 -3.30262709 -2.45811820
-11.08594513 -0.56222278 -1.51106405
0.75999361 1.87748194 7.24978018
-11.18271255 0.53091449 -2.44381690
4.28389835 3.73244548 2.02788758
-11.19113827 3.76600313 2.65217710
1.94109273 2.70093536 -6.40596533
-8.59624767 1.34364724 -6.45461035
-8.92100334 1.65466654 6.22688866
-7.69873762 2.16549730 7.17513561
3.71778631 -1.01886034 3.19495106
-6.45270348 -3.09401560 4.07559252
-8.08244419 -2.31822062 4.71004725
4.66122723 2.00103760 2.50180340
3.39795113 3.59635711 -3.84500933
-11.27882099 2.49112892 -2.99224520
-5.18110418 1.57639205 8.07836342
-8.58388329 2.35637379 -6.63824224
-11.23944855 0.91496217 2.33134270
-6.23904228 2.05666566 7.81204081
-9.35678673 1.77973294 -5.88200521
-8.17295647 -0.27335581 6.35743809
-11.35571861 0.73820490 -1.97021973
-4.16826773 2.03244758 8.24670315
-8.06911373 -3.14993620 1.54813528
-10.35876942 2.38217282 4.72193480
3.95932961 3.70164561 2.87582469
1.10299504 1.75736642 7.02223396
-11.81689358 3.19738793 -0.62537009
-11.39051819 -0.05718570 0.08393820
-7.09199381 -1.28987908 6.54790783
-6.57993221 -0.37837589 7.17836332
-1.53280556 -1.60825443 7.19606304
-3.89677286 0.55939198 -8.06417942
-10.11102486 2.22925615 -5.10554457
2.88784671 2.32937765 5.64680529
-1.10813069 -3.30570340 4.41274500
4.06515408 0.13083270 3.18458796
-10.17702007 -1.58519435 2.75788641
-10.79415417 0.64173961 3.45583415
3.89457273 2.65039587 -4.15213251
-6.53100586 -0.71461111 7.06964588
-3.02130651 3.62050867 -7.79927349
4.69357872 0.45380881 -0.92802000
-0.36780900 -0.38219610 7.36821556
-8.52856731 -2.84993577 2.48180103
-8.33242416 0.95932770 6.55742598
4.80827570 0.95041078 1.74122214
-8.58666039 -2.96809077 -1.44428766
-2.04905081 -3.24784231 -4.95150280
-10.48852634 1.57214224 4.39925861
-6.43013954 2.88177800 -7.82900810
-11.19590950 3.16934180 -3.24177051
-7.11641693 -3.12625408 3.32508516
1.13896084 -2.98654222 -4.29807758
-8.99090958 -2.77071881 1.84349823
3.48760867 -0.73750079 3.89002347
-5.86527014 -1.24974895 7.10504627
3.71380925 -1.82233262 2.41311550
-1.89871502 -3.08125639 -5.43226004
4.58321714 -0.24831210 -1.19253027
-6.75669336 -1.37272775 6.67435694
-10.35902691 2.76302910 -4.79245567
0.13482900 3.30526805 -7.56744337
-11.59812832 2.41580725 1.76106691
-0.40924799 -3.22952437 -4.40447092
5.03007030 2.59559250 -0.66748768
-2.95513535 0.71390611 8.14786339
-9.69676876 1.02537155 -5.39517689
-11.39814281 1.36959147 2.13730955
-3.33850884 0.24105990 -7.97981596
-9.47935486 2.69730186 5.88114309
-5.93893194 1.47124767 -7.86056614
2.92085123 0.72718197 -5.22378683
-10.47871971 -1.24074841 2.53813100
5.01350260 1.94627070 0.89139628
-8.23530102 3.11838150 -6.93047476
-10.56501389 2.24671984 4.34839058
-8.74745274 -2.93080711 1.24078345
3.56406546 2.03981352 -4.56547451
4.31799936 2.05929089 3.40360713
-0.59123039 -2.37062502 -6.24554873
2.82692885 1.46880543 -5.49873590
0.61962241 -3.02506518 -4.51437759
5.00365305 1.55680025 -0.21799560
4.48376083 -0.23576400 -1.68153238
-2.65499520 2.72136569 -8.29931355
3.45774150 -0.04538580 4.32667112
-6.03957081 3.02530885 7.97021961
-10.57534409 0.70378381 3.95067239
-6.75904131 0.58219379 -7.35855532
3.17156553 0.21526200 4.85627842
2.16014695 2.45225334 -6.19550323
-1.27647305 0.15889680 7.77768612
-4.90366030 -0.03604920 -7.78553915
4.48825216 2.09328365 2.98998570
-11.83276558 3.16515279 -0.38744700
-4.74156713 3.36303949 -8.25462437
3.92751050 -1.62674308 2.09469080
-0.43327561 -2.92421222 5.34966993
-0.52170032 -2.15786886 6.54334307
0.39474809 -3.35101771 3.29272866
-5.87811279 1.63464868 7.92379570
3.71197391 2.36156058 -4.43654108
-8.69074631 -2.84062028 -2.38213134
3.45308089 -2.17687440 2.64227128
5.06649876 2.24895430 0.26758501
3.26291180 -0.25319579 -4.50580454
-11.67570305 1.75247335 0.97477889
3.38296986 -2.89874697 -0.34522289
3.94951868 0.15975510 -3.47819757
-7.45060778 0.12529349 -6.90817642
-10.45302200 0.78352290 4.20223236
1.78180981 -1.34226477 5.74291992
-2.79535031 -3.22689891 4.95061398
-6.14143515 3.23583841 -7.94291258
-11.43673992 0.44384459 1.07045460
-10.23519897 -0.14719591 -4.16801167
-11.58664703 1.40662861 -1.36297774
-9.55362225 0.87262440 5.48881102
3.28322816 0.59581292 -4.75742626
4.45993185 2.22978139 -2.98005843
4.95140886 1.52284503 1.19772363
-6.91281843 2.29412580 -7.61104631
0.04427940 0.07344180 -7.27500439
-10.69493866 -1.12709069 2.01857209
-10.33573818 0.83321309 4.40644455
1.44828176 -3.36793280 1.45926332
-11.49108505 3.38963103 -2.39684391
-0.26098049 2.80333591 -7.75705767
-11.73725510 2.14088106 -0.86351132
0.05094120 -3.03650331 4.84751368
-3.05055022 -3.17082620 -5.24966002
3.42011213 0.45510480 4.58076096
-1.98629165 1.96718454 8.18759537
-8.33145428 -3.11267042 0.50263172
-11.05704021 2.26613307 -3.50915575
-3.56793070 -1.88659465 -7.09482527
1.21161425 -3.34408975 2.37028360
-8.29996395 2.81291223 -6.86587000
-3.19782567 -1.49763095 7.40078115
-7.64446211 -0.55270559 6.59982443
-2.35436559 -3.01259542 -5.66304827
4.33389139 -0.30959669 -2.15085506
-8.32766342 0.36233911 6.37906504
-1.37473381 3.13680863 -8.12236309
-0.57732391 0.97279561 7.75152111
4.25821114 3.72010374 1.20297420
-1.32359970 -3.21962261 -4.88196087
4.60443640 -0.68156427 -0.74379212
-11.27674389 0.97334492 -2.44021010
-8.17279148 2.53842759 6.90933037
0.11329980 1.36878574 -7.44506359
-1.21908867 -2.33396769 -6.47125340
-10.94878483 1.35286295 3.39492178
-7.00089741 0.05642190 7.14136791
-11.32933044 -0.22405890 0.58257151
-10.04854679 -0.73553938 -3.98891616
-4.61900377 -3.20506120 -4.98951101
-10.77234173 3.75864959 -3.40507627
-8.47315025 2.58044410 6.68627691
2.46035171 1.83640444 6.05762386
-11.79616356 2.58842611 -0.62657851
-9.39861870 -1.16677856 4.64946890
3.90002799 1.69855285 -4.02584600
-0.83235812 3.57237148 -7.40686846
-5.11098337 0.96186239 7.99385881
-1.91605055 -3.15362120 5.09465742
-7.53010273 3.07175136 -7.34750843
-11.52806377 1.80108392 -1.92374015
4.51202631 3.52809310 2.86662531
-11.39568424 2.74683619 2.69411135
-9.45485115 -1.96131384 -3.61800599
-6.75509977 1.14900839 -7.50266504
4.54098368 0.27333900 -1.53651869
-1.01953471 2.75850654 -8.00395775
-9.25759983 1.44474602 5.87414265
3.73566175 -2.13537669 1.96002543
-4.60633373 1.41627359 -8.12277508
2.39524031 -3.20208836 -1.89266706
-9.42427635 2.59745550 -5.93061352
-8.98998165 -0.33141300 5.66783810
-9.21919441 -2.60439086 2.15273333
-3.17373395 1.13894045 8.21418667
-2.20389462 0.68691808 8.09234524
3.49263549 2.63184500 -4.73129511
3.60975480 -2.64885449 0.78462750
-7.59317207 -2.80293632 4.12007570
2.40598464 1.35297930 -5.91281509
-3.41079235 1.29864895 -8.22267818
2.83447194 0.18119910 -5.22960520
-8.25440788 -2.98104501 2.17223978
-6.42965269 -1.14930987 6.94782591
0.50040209 1.91912246 7.37831926
-11.02031803 3.75063086 3.01812148
-7.52349806 -0.75917763 -6.51922417
-10.51863003 -0.52996713 3.28195930
-9.23104954 3.05568337 -6.13312292
1.42914987 -1.25073302 6.03324413
-10.84749317 -1.17108691 1.32306063
-5.29116535 -0.51613349 -7.48956299
-7.47013712 0.18368641 6.93173409
3.97060204 -0.79555321 2.71198297
4.05922604 1.16129637 3.68548799
4.03665733 -0.30139890 2.93425012
-7.31323862 -0.25271431 6.85838079
-5.92304802 2.10970950 -7.95237732
3.44188285 -1.11425400 3.69074321
-8.72620678 0.66600239 6.15173197
-1.94064605 0.85585350 8.07383347
-8.91604424 0.40452600 5.96788549
2.75185704 3.18871927 5.70292425
1.50295889 2.05957627 6.78982782
-11.42356205 1.14294004 1.81639767
-6.41005754 3.04996181 7.84376287
-10.07357407 1.06546652 -4.94319677
-0.62109393 -0.49155721 7.42753506
2.06075883 0.21212220 6.11263657
0.88702142 -3.35850382 2.68803811
-11.51445770 2.71709991 -2.34333348
-4.03807020 2.58363724 8.33449841
1.07920110 2.12663198 -7.01275778
-10.13229084 -2.20533752 0.71623409
-4.44294214 3.31314540 8.27452660
-2.99424219 -3.02180719 -5.61577702
-11.57186508 1.27019608 1.20778561
-4.36014700 -2.95472240 -5.65035725
-11.64495945 2.10390663 -1.47902763
-11.72872925 1.89229977 0.20821260
-1.61496544 2.66515207 -8.14245510
-0.69736773 2.48645592 -7.89139462
-10.75474930 -1.49501610 -0.71205783
-4.04580355 1.48146665 8.21420479
-0.84810388 -3.13213682 4.89076996
-10.05928135 0.21540150 4.61377478
-7.24354601 -3.05234647 -3.64757180
-5.85927916 0.07053120 -7.57967949
-9.89969540 1.44921780 -5.22543478
4.28641081 2.52035880 3.57439661
-8.54337215 2.05872035 6.60363197
3.74183464 -1.29319680 -3.00210738
-8.79950428 -2.55793190 3.19913602
-5.65029287 -0.58257842 7.45902443
-4.63691473 0.07183620 7.89193773
-6.91042423 3.30515814 -7.65593100
-11.62492275 3.05776834 1.79929948
-11.04613972 2.74292755 -3.60729051
-10.56780148 1.32744265 -4.22954178
-0.11374080 2.80290508 7.67310143
0.65289837 1.44470465 7.24445629
1.82992113 -3.30041432 -1.98525417
3.64840150 -0.11121360 -3.95199180
2.56771207 0.33861390 5.65026045
-9.22569275 0.08402850 5.59190798
-4.43154049 -0.16559550 -7.83566046
-3.86181569 -1.08577621 7.57292747
-8.21345425 0.25170630 -6.46104527
-2.86754227 0.41523361 -8.02724266
-2.56515551 -1.49501312 -7.33237267
1.77921605 -0.97620541 -5.83321619
-6.75418043 -3.16990924 3.56805873
-7.86240053 -2.92055392 3.27254677
-11.22870255 1.89390814 2.80800319
-5.35537195 -0.11597550 -7.64968300
-8.72921371 -2.95910645 0.69477361
2.63225770 1.62685585 -5.72600794
-4.31251049 -1.02540147 7.54950762
4.72572279 1.20012665 -1.73985994
-1.54570234 1.41042626 -8.02119827
-11.25497723 0.12606390 -1.77259469
-10.82215595 2.46317101 -4.03876066
2.92102742 -0.70230752 4.78334188
-3.37450671 0.79502702 -8.11992741
3.22171497 1.56093395 5.17152071
-10.18974686 -2.16427660 -0.16964790
-7.63616276 -3.06046796 2.88324690
-11.46063137 0.98600161 -1.64765787
-0.71175897 0.45795509 7.66132498
-6.81724072 1.84524691 -7.58961821
-0.27258629 0.22060861 -7.47295809
3.74254894 -0.71497142 -3.43809485
-5.93355560 -2.71776009 -5.60699415
-7.75867128 0.28124791 -6.77244425
-1.58557475 -3.00809216 5.44914389
-2.07064414 3.02088881 -8.25972843
3.91231298 0.61611629 -3.75743794
3.58274150 2.88573575 4.80073881
1.27707601 2.23111916 6.94936705
0.86632258 -3.29785585 -3.17020679
-1.62329578 -0.39683399 -7.70087957
-8.21134377 1.37188315 -6.78511238
1.95475316 -1.69540524 5.38389254
-0.35556629 -0.22478250 -7.38580561
4.74205399 0.24372180 1.17610383
0.67329329 -0.07304970 6.99877548
3.66434002 2.01262474 4.64076710
-9.22128677 -1.96888113 4.01625872
0.98506498 0.93353039 -6.90287066
-10.13513470 1.73703718 -4.99253130
-6.44531107 -1.13051343 -6.88361216
3.86534762 -1.25842738 2.58297181
3.45661759 1.86576784 -4.69251394
2.28234267 2.38249373 6.21527386
-3.68769002 0.14805719 -7.96088552
-5.05445576 2.63689089 8.19896126
4.49442816 0.97734749 -2.36154366
0.67109221 -3.22864556 3.77945065
3.83815050 2.67670655 4.39664841
-10.82497406 1.05525362 -3.75626659
-10.28613853 0.13533179 4.20785570
-5.71013260 0.81930453 7.83211565
0.49046311 2.28377080 -7.38326454
-7.91884899 -1.31694424 6.02007103
1.33505309 -3.21002245 3.39133358
-0.39718351 0.20348640 7.53928041
-2.87846017 2.29214501 -8.31662178
-9.31485939 -2.53109050 -2.48060179
-7.64451599 -0.11284890 6.71809340
-5.30278587 -1.09537685 -7.27075911
-5.00807810 1.99270380 8.11980534
-9.44161415 -0.72555900 -4.96855402
-6.45565414 -2.69740796 5.30393600
-0.83215922 -3.21851611 -4.66993761
3.91218233 0.68867248 3.80946898
3.07627463 1.44500005 5.34670877
-0.15798180 1.37548351 7.64436817
-0.04750230 -3.28226852 3.96479058
-10.69745541 2.93697786 -4.28350353
2.94095755 -0.25778130 -4.95936680
-5.01756096 1.22377646 -8.00718403
-4.15580416 -2.67575455 -6.20063019
4.36999416 0.63469827 -2.40908241
-6.04006672 -3.05830717 4.55965900
1.32927692 -2.94975781 4.41736364
5.02973557 1.84738922 0.47688091
-1.62015748 -3.26138759 4.68614864
-9.18476295 -0.23648520 -5.48674345
-1.48960173 -0.49080989 7.63618755
4.33905172 3.70269036 -0.78142262
-5.18258715 2.53198266 -8.15540981
-10.66381264 -0.76859939 2.67588282
-3.80268693 -1.45282614 7.39486790
3.98771858 1.11001825 -3.73866391
0.52941418 1.42786765 -7.25342464
-1.47123778 0.29382840 -7.86052132
4.52682590 3.75446749 0.75022680
-7.99635649 2.22271776 -7.02057886
-8.19653320 -0.64518481 6.20365286
0.04165380 0.60549361 -7.37588596
-9.72069645 1.29779696 5.35746431
-11.72835064 3.27061009 1.34175777
3.67493510 1.81077147 -4.37041426
2.55896211 2.17990398 5.98108816
-8.01572895 -1.79887533 5.53427267
-0.00023670 -3.15148640 -4.49208117
-9.50471878 2.91893101 -5.85587406
-0.83769751 0.16014600 7.64781952
4.18697500 -0.95413709 -2.11642289
2.44028831 -3.06077433 2.70202684
-4.67825365 1.22571695 8.11556339
-2.27581024 -4.58493137 -3.97223592
-2.37789607 -4.56788588 -4.29132366
-2.82415557 -4.55292320 -4.24738884
-2.37165451 -4.52957916 -4.67271471
-2.44994020 -4.38770723 -4.73098660
-2.70296621 -4.51179552 -4.74363661
-2.65431809 -4.55885172 -4.62457180
-2.87707639 -4.53808975 -4.44208574
-3.17580581 -4.52343321 -4.42061234
-3.07896304 -4.52555370 -4.69519949
-2.93350387 -4.41936255 -4.79459476
-3.25035071 -4.46592045 -4.78047037
-3.26293159 -4.32279348 -4.81395292
-3.72794271 -4.05152988 -4.77253294
-3.63352418 -4.44505787 -4.76099157
-3.94240499 -4.20728731 -4.80206871
-3.99413180 -4.42290354 -4.74424791
-3.79743052 -4.33787203 -4.80264711
-4.06204605 -4.10559654 -4.77036524
-4.27515554 -4.30416918 -4.75965738
-4.59157038 -4.34399271 -4.70248985
-2.14275479 -4.52900839 -3.75068069
-2.52142024 -4.58367109 -4.08107948
-2.60130000 -4.54964542 -3.88456750
-2.79206371 -4.57316113 -3.96753049
-3.14900184 -4.51273775 -3.93019080
-2.95457888 -4.57768965 -4.08245611
-3.41682029 -4.47178650 -3.94669318
-3.41900301 -4.55830526 -4.08218813
-3.52852249 -4.52747440 -4.29844856
-3.84198236 -4.19769287 -3.87324142
-3.93120790 -4.54548120 -4.08320570
-4.10421848 -4.41179657 -3.85762119
-4.00815773 -4.53669548 -3.96293569
-3.99355340 -4.51177454 -4.28534603
-4.26649237 -4.49635935 -4.59319067
-4.21106148 -4.48575687 -3.86431313
-4.36278486 -4.18462515 -3.76287723
-4.42149687 -4.52774811 -3.84600091
-4.50168324 -4.54385614 -3.91306829
-4.73033762 -4.51644182 -3.73664093
-4.78066111 -4.50196362 -4.37537479
-4.80766010 -4.11768866 -3.60171843
-4.94041443 -4.45660067 -3.62218022
-4.57701635 -4.49531889 -4.22306347
-4.55957413 -4.45723629 -4.65020800
-4.55209494 -4.01052189 -4.66265059
-5.09265995 -3.96335363 -3.38143969
-5.08465290 -4.49614668 -3.86629391
-5.03049660 -4.52329063 -3.71734405
-4.58713293 -4.17055273 -4.69658232
-4.90258646 -4.41811419 -4.60097361
-5.19048309 -4.48561001 -3.97739959
-4.92166758 -4.30980301 -4.63077259
-4.84960890 -3.92043686 -4.55483294
-5.44037628 -4.50180626 -3.50940871
-5.04570580 -4.48879766 -4.38803720
-5.13290167 -4.05643606 -4.52698851
-5.02809095 -3.75716591 -4.39842081
-5.44574594 -3.95560718 -4.37207842
-5.16718721 -4.33630514 -4.54312372
-5.35193348 -4.42246723 -4.42802525
-5.36777353 -3.74043012 -4.27568769
-5.53322744 -4.47757149 -4.24800253
-5.41982508 -4.25197792 -4.44567299
-5.69267321 -3.75887799 -4.15358543
-5.57361984 -4.49301291 -4.01722765
-5.79036379 -3.90288305 -4.18822336
-5.67166901 -4.13021374 -4.31657505
-5.97971869 -4.42031622 -4.06851959
-6.01828337 -4.48388147 -3.83277893
-5.77904797 -4.37959242 -4.23751545
-6.19288397 -4.45815134 -3.86050344
-6.02377987 -4.28834915 -4.11241817
-6.28685188 -4.14262104 -3.94650483
-5.77642965 -3.60605621 -4.06042671
-6.08119726 -3.69346619 -3.92150331
-6.34091663 -4.39068794 -3.87158465
-6.02220392 -4.02795172 -4.10262203
-6.09652042 -3.45510602 -3.87109470
-6.35936594 -3.88803029 -3.84052944
-6.50799847 -4.27504492 -3.78898549
-6.35924625 -3.62080884 -3.69574165
-5.18681383 -4.48723364 -3.52372074
-5.20345736 -4.10987043 -3.39443970
-5.48857880 -4.11564112 -3.22216892
-5.68256330 -4.32148552 -3.11925101
-5.82360935 -4.11254740 -2.96046638
-5.59342051 -3.95563865 -3.06535029
-5.87579536 -4.48521948 -3.11666465
-5.90152073 -3.89611864 -2.73039174
-5.91012955 -4.47807407 -3.29366612
-5.85110807 -4.42344618 -3.02294850
-5.75350285 -4.49243116 -3.27950001
-5.55382586 -3.86397839 -2.95131969
-6.24026537 -4.33910084 -2.58824849
-6.06304455 -4.03751040 -2.70120215
-6.24135113 -3.93334436 -2.41253424
-6.23055601 -4.44807196 -2.68450189
-6.23336363 -4.48067379 -2.87346220
-6.06752634 -4.46455193 -3.46770716
-6.36904240 -4.11346197 -2.38955998
-5.80859232 -4.46942425 -3.52466869
-6.46159458 -4.47879982 -2.50075030
-6.42869043 -4.45340204 -2.87949538
-6.76488876 -4.43805218 -2.70772862
-6.78002357 -4.45807695 -3.01440859
-6.65906286 -4.45869303 -3.37705541
-6.65573835 -4.37999153 -3.60388398
-6.69205618 -3.67609692 -3.42171693
-6.40326357 -3.42460990 -3.63948178
-7.06474924 -4.45607233 -2.86829042
-6.75157166 -4.05955839 -3.58532572
-6.62919044 -3.49223256 -3.42301250
-7.23281765 -4.44873095 -2.69323087
-6.89531565 -4.39983273 -3.34036207
-6.96509647 -4.25618124 -3.37385917
-7.06110811 -4.41248083 -3.12106919
-6.83713913 -3.82092428 -3.41093826
-7.02333736 -3.70084262 -3.09549475
-7.15508890 -4.34175968 -3.14465499
-7.05951834 -3.97245717 -3.27467799
-6.98883772 -3.55210853 -3.04566789
-7.14745522 -3.81267571 -3.08004117
-6.97575474 -3.34271097 -3.08156848
-7.32110643 -4.09837246 -2.96634245
-7.33518076 -4.40586042 -2.83852625
-7.24847174 -3.92028570 -3.03031015
-7.30996847 -3.51774907 -2.62486887
-7.25642395 -3.66285229 -2.77908397
-7.27661657 -4.25901031 -3.01813436
-7.23367405 -3.39295030 -2.73028111
-7.40502167 -3.81443501 -2.75252271
-5.18903017 -3.76260686 -1.99110270
-5.44237614 -3.74664450 -1.48544586
-6.14238262 -3.77743983 -1.68381119
-6.00334883 -3.82502723 -2.39490581
-6.41209269 -3.83671522 -1.91148210
-6.55187464 -3.92360640 -1.94747674
-6.80958939 -4.40690565 -1.78210711
-6.56488895 -4.09197092 -2.09210420
-6.74858379 -3.87277031 -1.42407537
-6.66806936 -4.48217535 -2.32757616
-6.68025732 -4.47225952 -2.09529471
-6.73086977 -4.00067759 -1.73509085
-6.79073000 -4.18720722 -1.73309278
-6.83220911 -4.46374273 -1.82400274
-6.90145969 -3.99262524 -1.33126116
-6.81743145 -4.44109821 -2.39045286
-7.07325697 -4.47089529 -1.43734050
-6.91569948 -4.48272562 -1.82177639
-6.99895811 -4.45015621 -1.97121596
-7.21108007 -4.43765450 -1.60523856
-7.26442575 -4.42413378 -1.95220768
-7.25902843 -4.43277359 -2.31084490
-7.52636480 -4.42237663 -1.65016472
-7.44630194 -4.44647026 -2.54552960
-7.62779045 -4.44564104 -1.89881074
-7.60240412 -4.42761850 -2.38602114
-7.51450396 -4.32654762 -2.67321110
-7.49445772 -3.69640803 -2.45309067
-7.50474644 -3.56312943 -2.33695745
-7.76527548 -4.41033363 -2.07208419
-7.51094532 -4.00978613 -2.69272232
-7.74306822 -4.31099272 -2.26196909
-7.70544291 -3.64858913 -2.00845146
-7.68028116 -3.54461861 -1.97854614
-7.95834637 -4.33893204 -1.74223650
-7.66053534 -3.81097150 -2.33285022
-7.75431871 -3.76671124 -2.08648610
-7.54322386 -3.35577083 -2.24028039
-7.88064098 -4.24098778 -1.98998165
-7.79957533 -4.10724735 -2.17372251
-7.76116562 -3.42615628 -1.74105060
-7.85936022 -3.63052297 -1.60501683
-7.90303755 -3.76139164 -1.72769427
-7.73220444 -3.29177690 -1.84569991
-8.02403164 -3.87746930 -1.52094364
-8.02399063 -3.74291945 -1.29360330
-5.96671200 -3.75491810 -0.53509110
-6.53648996 -3.76274037 -0.54694653
-6.79240608 -3.80085230 -0.72739917
-6.63475370 -3.80737686 -1.28195584
-7.05314541 -3.88224220 -0.38730419
-7.20699453 -4.36564302 -0.41033101
-7.22583675 -4.31455660 -0.02155890
-6.94698524 -3.87364769 -0.84844470
-7.17716932 -4.43350601 -0.75966060
-7.16407299 -4.06259584 -0.29231969
-7.30769110 -4.46787786 -0.43509030
-7.11946249 -4.33705425 -0.87353730
-7.07360172 -4.04049206 -0.84738481
-6.99635696 -4.16177607 -1.22710502
-7.01904202 -4.39101458 -1.26629853
-7.17082453 -4.47948837 -1.02503824
-7.29395151 -4.47340393 -0.95154327
-7.44869900 -4.46695662 -0.25843740
-7.55058336 -4.42646360 -0.48022020
-7.40822506 -4.43025398 -1.17523324
-7.57416010 -4.41011381 -0.83405763
-7.76002550 -4.40806103 -0.49271101
-7.56581020 -4.41191292 -1.27642441
-8.04374027 -4.42294598 -0.30173430
-7.89301777 -4.42214203 -0.75397652
-7.88265705 -4.43110228 -1.22297525
-8.04536533 -4.41011381 -0.63622350
-7.86528921 -4.42820597 -1.67626858
-8.17159176 -4.30882597 -0.83276039
-8.05766487 -4.38543367 -1.18790364
-8.03293419 -3.46771550 -0.64088911
-8.16996098 -3.78490353 -0.44120491
-8.17687225 -4.20359755 -0.97051531
-8.22856140 -3.93445325 -0.36282900
-8.06544590 -3.63963461 -0.65283632
-8.00437832 -3.60643291 -0.98371351
-8.20169640 -3.81718445 -0.04689630
-8.09121323 -4.29553413 -1.33242595
-7.94210482 -3.44434142 -1.10958385
-7.89714336 -3.54117870 -1.34858966
-8.00986004 -3.32578444 -0.82843739
-8.20291996 -4.01433802 -0.76884091
-8.10877895 -3.73976278 -0.83259630
-8.03570843 -4.13775826 -1.59737849
-8.15609837 -3.85352254 -0.91151220
-7.90559149 -3.26686406 -1.35256410
-6.58378124 -3.76089931 0.46326479
-6.95187902 -3.87477231 0.96261871
-6.85815859 -3.80180287 0.63023639
-7.07002163 -4.12091970 1.07842708
-7.15511274 -4.38433599 0.93587279
-6.81932783 -3.78706121 -0.06469260
-7.02646637 -4.30599546 1.31581080
-7.05695152 -3.97032070 0.89490181
-7.31470299 -4.45329952 0.89984548
-7.24906969 -4.44957352 0.69239038
-7.05598021 -3.87622499 0.25118670
-6.95593977 -3.81738424 -0.00837690
-7.21871662 -4.34390497 0.41214180
-7.28161001 -4.42626333 0.12102810
-7.15126753 -4.04931211 0.48438451
-7.36216927 -4.46248198 0.48145020
-7.34138727 -4.45861673 0.23962259
-7.19884205 -4.12786007 0.18927120
-7.41664648 -4.46052217 0.08835330
-7.49224854 -4.41796398 0.62104559
-7.63176155 -4.40582180 0.00736410
-7.83762503 -4.36400843 0.76383179
-7.87872314 -4.37515163 0.35529211
-8.01731300 -4.31052971 1.08124948
-8.06305122 -4.38095188 -0.02263950
-8.04584789 -4.27163029 0.73764902
-8.12089157 -4.22790194 0.38112959
-8.04675770 -3.59912872 0.83028752
-8.16283035 -4.06522751 0.67209989
-8.05942154 -3.30111003 0.61351353
-8.06622887 -3.58484340 0.56343508
-8.07821941 -4.36879396 0.19801380
-8.12189484 -3.78182244 0.80379927
-8.19251251 -3.96118593 0.49522620
-8.18861294 -4.23790121 0.13992420
-8.16603184 -3.77762103 0.37405711
-8.07471752 -3.44906855 0.14323860
-8.16627979 -4.36023664 -0.43496040
-8.12415504 -3.66856289 0.08795010
-8.22770214 -3.94809294 0.12948599
-8.09256840 -3.61066151 -0.18569881
-8.06315041 -3.52832222 -0.35026321
-8.06822968 -3.33515859 -0.40256670
-8.09615517 -3.26681066 -0.09112320
-8.22815228 -4.15549088 -0.15904830
-6.09915781 -4.34817219 2.84345269
-5.94574976 -3.90258026 2.76345205
-5.99681664 -4.07752371 2.86104250
-6.34253073 -4.43659687 2.66145778
-6.51341152 -4.44910479 2.61036730
-6.10054874 -3.78884935 1.89268887
-6.24552584 -3.85638452 2.30152798
-6.07914639 -3.81008029 2.25167704
-6.32947063 -4.25936890 2.55582571
-6.53560734 -4.43816376 2.39873052
-6.22976780 -4.02351618 2.57659435
-6.73307705 -4.45678902 2.24998760
-6.53898621 -4.32167101 2.29295707
-6.38986397 -3.80588889 1.80514324
-6.44374657 -3.94163680 2.22201538
-6.82582235 -4.40864801 2.46864772
-6.60599661 -4.10171413 2.12043381
-6.55393744 -3.78318024 1.16598868
-6.52678299 -3.86102581 1.91661274
-6.81448936 -4.35864592 1.85387254
-6.88351870 -4.44400930 1.85853601
-6.68411589 -3.82468581 1.42069948
-7.08942270 -4.40989017 1.95920968
-6.83051491 -4.15117359 1.73313928
-6.86728334 -3.98997450 1.52079570
-7.25467539 -4.38754511 1.88598216
-6.77744818 -3.87540388 1.47137642
-7.00764799 -4.45266008 1.67416048
-7.43700361 -4.40510178 2.19723964
-7.04502630 -4.43169594 1.44971883
-7.19389677 -4.44948959 1.20475197
-7.40585136 -4.38489723 1.87054014
-7.60961199 -4.39883041 2.08799696
-7.48668718 -4.32016706 2.55708456
-7.28670979 -3.68292570 2.74724770
-7.37438059 -4.40782738 1.26028502
-7.61348772 -4.23681164 2.41455173
-7.56803751 -4.38263750 1.30539775
-7.62328386 -3.74733806 2.27826309
-7.65380907 -3.99653792 2.36100411
-7.79953766 -4.32312441 1.96498346
-7.60308886 -4.38978672 0.75307590
-7.72425556 -4.23705721 2.21192098
-7.75254679 -4.39217806 1.44904470
-7.62472057 -3.47085810 2.10736179
-7.79554701 -4.37992668 1.71835375
-7.79595709 -4.21928835 2.07369113
-7.80222893 -3.93512249 2.06374764
-7.80597353 -3.80184245 1.97273195
-7.77823067 -3.58386660 1.81718946
-7.91923904 -4.10393572 1.76937091
-7.93524551 -4.34392357 1.44138324
-7.88194513 -3.66361976 1.60254180
-7.91980028 -4.36297131 1.08818758
-8.00123310 -4.21476316 1.45129085
-7.96012783 -3.88164401 1.61507463
-8.09150314 -4.19896555 1.04771245
-8.05379295 -4.03208017 1.33287597
-7.91092920 -3.43845439 1.38143945
-8.03753090 -3.80203795 1.27184343
-7.97789097 -3.58944178 1.19036305
-8.01331520 -3.39108372 0.88159889
-8.11724186 -3.93763494 1.03441465
-3.15794539 -4.50887012 4.14688540
-3.36485291 -4.48490620 4.60840464
-3.54398751 -4.48594666 4.24368906
-3.30039859 -4.48978853 4.03616905
-3.56279182 -4.49342918 4.06944418
-3.99439120 -4.46644163 4.57355785
-3.78928804 -4.45813942 4.73991680
-3.41200376 -4.41119385 3.99456215
-3.70154428 -4.46830225 4.43317461
-3.90000701 -4.47432709 4.26482534
-3.89785504 -4.49946785 4.09183645
-4.30463982 -4.45335865 4.68516874
-3.85191298 -4.40737009 3.97830200
-4.10484076 -4.44962549 3.96970248
-4.26593876 -4.48840761 4.00914717
-4.18629599 -4.26549101 3.89266419
-4.53871012 -4.44094181 3.85380387
-4.39135218 -4.44990587 4.33804703
-4.64802313 -4.45405340 4.55886412
-4.63386202 -4.33039808 3.76745224
-4.40847015 -4.46161509 4.15979767
-4.98673439 -4.43543243 4.16253757
-5.03279066 -4.43858862 4.00708818
-4.69237089 -4.11127901 3.71394920
-4.92056561 -4.46695042 3.76694584
-4.97920370 -4.37611723 3.63561058
-5.23229265 -4.38478565 4.42666006
-5.32152224 -4.30085182 4.43510866
-5.10729218 -4.05559731 3.50375462
-5.36428308 -4.11272764 4.44308233
-5.17166424 -4.44230413 4.32830334
-5.56181669 -4.40168238 4.28365040
-5.23781681 -4.43738031 3.54084349
-5.57660246 -4.01062727 4.33815432
-5.43599844 -4.42983198 3.88220549
-5.41515493 -4.39633179 3.42426991
-5.64846659 -4.44667196 3.47921729
-5.67282248 -4.25935602 4.29468775
-5.80127382 -4.42662716 4.01732540
-5.30969143 -3.89991689 3.26930737
-5.86672497 -4.39071798 4.12285948
-5.45474911 -4.16882324 3.33171701
-5.76203346 -4.36013222 3.14369917
-5.89297342 -3.93437362 4.14770651
-5.96825886 -4.46195412 3.17421937
-5.85629654 -4.13638067 4.20566177
-5.56771898 -3.96323729 3.16110730
-5.87846804 -4.44128275 3.10881162
-6.11132479 -4.28616810 4.02709436
-6.05449390 -4.43137312 3.28696585
-6.15344334 -4.39288473 3.87082481
-6.32516432 -4.40713549 3.25342178
-6.13556433 -4.44557095 2.91419101
-6.34434557 -4.41722918 3.57316899
-6.27439165 -4.02902508 3.92551923
-6.45006704 -4.33969641 3.74147749
-6.55356979 -4.22427654 3.70513916
-6.36675119 -4.42484379 2.92759013
-6.61461973 -4.40573120 3.48991108
-6.37891388 -3.80063152 3.75396991
-6.67671680 -3.83340049 3.52529693
-6.57447338 -4.00814390 3.68202782
-6.69840908 -4.39171457 2.89863396
-6.69442463 -4.41669655 3.23270607
-7.06288099 -4.39668655 3.04737282
-6.80439949 -4.30649424 3.42772055
-6.77241230 -3.97707152 3.49078107
-7.03391886 -4.05177689 3.22674370
-6.97048998 -3.60804844 3.07066751
-7.05586052 -4.30271482 3.17114592
-7.09413290 -4.39856100 2.62106109
-7.03066540 -3.82878470 3.16587996
-7.34501314 -4.40117931 2.62446260
-7.20344925 -3.58037210 2.78632021
-7.39263725 -4.05277920 2.79598880
-7.32188749 -4.31697130 2.83250189
-7.36095762 -3.86504340 2.77916431
-4.21993732 -4.33799887 4.77994585
-4.69924545 -4.36630583 4.65618086
-5.03045559 -4.40302992 4.49942017
-5.02624607 -4.15291262 4.57616472
-0.18403110 -4.12431765 -3.59577203
-0.45518431 -4.59960938 -3.72360086
-0.35453820 -4.33204222 -3.76645207
-0.45369300 -4.50877857 -3.81725311
-0.46735051 -4.09194851 -3.81728148
-0.63635671 -4.60692263 -3.87153220
-0.65353650 -4.25405121 -3.98422170
-0.87622499 -4.55152607 -4.07938576
-0.76831800 -3.82528377 -3.91058183
-0.47869259 -3.73769879 -3.65691113
-0.84120059 -4.05817461 -4.06743574
-1.33717680 -4.60032797 -3.99728990
-1.11133802 -3.80999851 -4.10402441
-0.99074489 -4.41869259 -4.18014193
-1.19201195 -4.17163992 -4.28707457
-1.29226351 -4.57107067 -4.24247122
-1.25112152 -3.98464942 -4.27250099
-0.85690081 -3.62669253 -3.93363571
-1.37106836 -4.50377083 -4.35345316
-1.26017725 -3.60318875 -4.15910578
-1.28818917 -3.86131668 -4.21421671
-1.82476175 -4.56593418 -4.46285248
-1.62321210 -4.03488350 -4.44981194
-1.58451486 -4.42410612 -4.46491861
-1.56622505 -3.62438226 -4.28744125
-1.61063552 -3.80527472 -4.33024693
-2.05271935 -3.85423231 -4.50025082
-2.01426601 -4.46455050 -4.60886431
-1.82405365 -4.25240707 -4.56218719
-2.04160357 -4.07956171 -4.60870504
-2.34785557 -3.97575998 -4.64161158
-2.00660849 -3.58778763 -4.43447018
-2.19927454 -3.68242407 -4.48677969
-2.52605247 -3.79793406 -4.59126616
-2.82852578 -4.23184395 -4.78438425
-2.82988071 -3.58660579 -4.59951687
-2.97250819 -3.76966691 -4.64247942
-3.27765560 -4.00410223 -4.76635695
-3.18105412 -3.63457084 -4.62446499
-3.38786316 -3.79913855 -4.67169285
-3.39554310 -3.50856328 -4.63678265
-3.68655109 -3.64948916 -4.61378765
-3.82433343 -3.81102180 -4.64774036
-4.23800898 -3.72298956 -4.57124901
0.65447432 -4.58586168 -2.45726728
0.84306449 -4.11077547 -2.20143294
0.94207442 -4.34374666 -2.11392665
0.57566702 -4.62027264 -2.24499178
0.84393418 -4.49639654 -2.27161741
0.70457190 -4.37101364 -2.53449678
0.49984020 -4.62185621 -2.47222376
0.38988599 -4.62944365 -2.75016499
0.35085121 -4.30593443 -3.02630520
0.09300600 -4.60431194 -2.59165359
0.67688072 -4.23723745 -2.55680633
0.44439629 -4.47423077 -2.90909457
0.51281518 -4.56066561 -2.75095391
0.28484070 -4.63442421 -2.70585656
0.23624820 -4.60282993 -3.06180906
0.43300650 -4.09039450 -2.85020471
-0.27321631 -4.61923647 -2.46349001
0.17336430 -4.46229792 -3.22465777
-0.47071919 -4.60891390 -3.21555090
-0.02976180 -4.37212372 -3.47378516
-0.03386580 -4.63863611 -3.14497471
0.14106449 -3.91050100 -3.10240340
0.06506730 -4.09675455 -3.32985473
-0.31956360 -4.63142157 -3.48724580
-0.55320871 -4.22180367 -2.52881789
-0.07211430 -4.58094740 -3.40812325
-0.49281931 -4.59608841 -2.60690880
-0.55903620 -4.03462696 -2.43684268
-0.50293469 -4.61329222 -2.75014496
-0.59136212 -4.48328781 -2.63281083
-0.24022169 -3.90079284 -3.50846481
-0.68172961 -4.62469482 -3.72931743
-0.43389660 -4.61120892 -2.90720439
-0.78870147 -4.49198389 -2.85472798
-0.74221587 -3.94804740 -2.53238869
-0.90760559 -4.60710096 -3.12202764
-0.76614571 -4.04785252 -2.68949914
-0.87633783 -4.59930611 -3.58435750
-1.06241405 -4.59802485 -3.50127244
-1.09962630 -3.93967056 -2.86177444
-1.16977584 -4.54402876 -3.19775343
-1.14540207 -4.60907555 -3.29313540
-1.27814043 -4.12022924 -3.17494416
-1.03382158 -4.13092470 -2.97947407
-1.40486372 -4.60833311 -3.55631948
-1.29625714 -4.33050680 -3.23856449
-1.46976995 -4.59098721 -3.47235799
-1.43491471 -4.01811552 -3.21658039
-1.62582564 -4.50775385 -3.50113678
-1.70943213 -4.59211397 -3.95709491
-1.63497543 -3.91563773 -3.18241072
-1.30315411 -3.87777710 -2.82740951
-1.65649676 -4.17234182 -3.43885350
-1.90882015 -3.86775231 -3.14325094
-1.89714932 -4.59720945 -3.77975631
-1.84688425 -4.01229572 -3.44260263
-2.16483092 -4.19971848 -3.66540003
-2.51652002 -3.84477806 -3.27218199
-2.23485398 -3.94237113 -3.51837611
-2.59544039 -3.87494659 -3.48284793
-2.62491417 -4.00721455 -3.71203017
-2.72384906 -4.46276140 -3.86212111
-2.81412578 -4.18866825 -3.82889915
-3.33463383 -3.84366560 -3.51169014
-3.04896426 -4.00990248 -3.79338217
-3.34524655 -4.23003435 -3.89619851
-3.05226350 -3.89542198 -3.64829874
-3.40418649 -3.95299649 -3.77426004
-3.62301421 -3.89505911 -3.69716859
-4.00192690 -3.87203574 -3.61663580
-4.24449158 -4.00441837 -3.72317290
-3.65555239 -4.00664997 -3.80691385
-4.38801289 -3.89961028 -3.57984638
-4.79357529 -3.91546655 -3.47108531
-4.26384735 -3.59367275 -4.55335093
-4.26477957 -3.83647203 -4.60991144
-3.96868229 -3.49685526 -4.59722662
-4.57605553 -3.73521590 -4.52088404
-4.62083149 -3.52143168 -4.48656321
-4.76162767 -3.73334765 -4.47168064
-5.06596231 -3.52712393 -4.35830736
-5.31243801 -3.55678797 -4.25679970
-5.57383680 -3.54808569 -4.15354061
-5.73311472 -3.39049864 -4.09410286
1.22538424 -4.62542439 -0.57871771
1.36248839 -4.13990784 -0.77934003
1.32864749 -4.34913874 -1.01589119
1.41386402 -4.34787941 -0.51518822
1.23965132 -4.52079248 -1.24357712
1.26968193 -4.60764837 -0.80921698
1.11401975 -4.61818838 -1.32825303
1.08608818 -4.64219856 -1.09745789
1.08799648 -4.55953264 -1.65988231
1.24543142 -4.16229296 -1.26785493
0.93512040 -4.60481834 -1.94713354
0.87034500 -4.62602806 -1.38174808
0.61094582 -4.59768581 -1.28729665
1.13764262 -4.21174479 -1.62991858
1.14919710 -4.41437054 -1.60236275
0.60295230 -4.61348200 -1.65436232
0.82876861 -4.64610004 -1.71756661
0.76967698 -4.65794086 -1.96550465
0.41056380 -4.62523460 -1.12422538
0.32351610 -4.61211061 -1.08481228
0.33273661 -4.58042955 -0.91765231
0.37418729 -4.61498022 -1.89395463
0.20625781 -4.61106730 -1.54961336
0.21725520 -4.51673174 -1.19573760
0.18525450 -4.62051630 -1.81934607
0.10099050 -4.54026318 -1.57632446
0.10164090 -4.41422272 -1.47195005
0.02204190 -4.14994431 -1.55671954
0.07835130 -4.60107231 -2.32106018
-0.11486460 -3.98783731 -1.65208375
-0.16553910 -4.42094517 -2.00193572
-0.32313871 -3.86125493 -1.34688604
-0.22762740 -4.59680414 -2.26681209
-0.05624310 -4.59137392 -1.99682128
-0.22291949 -4.22133636 -2.05621910
-0.27445441 -4.08501434 -2.07515883
-0.24799500 -3.90193582 -1.62789452
-0.38041800 -4.52958918 -2.38520288
-0.55584812 -3.88130951 -1.98979020
-0.93754679 -3.85725498 -2.20320058
-0.45819631 -3.94255781 -2.14349318
-0.83445871 -3.89711881 -2.46544743
-1.47053885 -3.81888628 -2.04669428
-1.75176990 -3.81305242 -1.68534124
-3.00635910 -3.79483151 -1.72712493
-2.89470100 -3.80640745 -2.69944429
-3.15390229 -3.79762530 -2.08063865
-3.66910601 -3.78479648 -2.22373867
-3.90195537 -3.78201771 -1.96187067
-4.39170551 -3.77088714 -1.99172223
-4.38202667 -3.77988267 -2.45486760
-4.69085598 -3.79879522 -3.03449750
-4.51893663 -3.84544444 -3.39604807
-5.06145763 -3.84956527 -3.21785140
-4.94973135 -3.82079673 -3.14557481
-5.37113285 -3.81238270 -2.88708305
-6.69687557 -3.31347847 -3.40611100
1.36601937 -4.56296349 0.70565611
1.41022229 -4.43202496 0.79182333
1.41921782 -4.54286528 0.30815700
1.29062581 -4.61747789 0.18172650
1.43286145 -4.23670435 0.41362080
1.38917732 -4.57066202 -0.11245170
1.43225706 -4.47131872 -0.22221270
1.09503305 -4.60683346 0.30845910
1.45253015 -4.41645098 0.14805570
1.30452359 -4.61554527 -0.29957670
1.37448871 -4.52381134 -0.58328760
1.02886713 -4.59732008 -0.16746689
1.11447453 -4.62434721 -0.59748358
0.85280132 -4.58106470 -0.03291930
0.85806119 -4.59497976 -0.73273772
0.59083802 -4.61411190 -0.34409881
0.57233733 -4.62001276 -0.01272840
0.63954061 -4.59606791 -0.82388163
0.45305309 -4.59615707 0.29028419
0.44979689 -4.53991699 0.04755090
0.47627279 -4.57338762 -0.22630380
0.40321019 -4.38288403 0.30242431
0.36464071 -4.12054443 0.19213919
0.40683240 -4.46535254 -0.27981871
0.47012699 -4.62757492 -0.71545082
0.43086389 -4.58791065 -0.54640770
0.35093969 -4.20360851 -0.41308019
0.33000991 -4.50602102 -0.77263558
0.30509341 -4.04646683 -0.41594550
0.24182791 -4.25947523 -0.99851882
0.23608769 -4.09398222 -0.87869638
0.14591490 -3.99542999 -1.00070095
-0.33824641 -3.83362556 0.37614989
-0.83980262 -3.81825829 -0.41976091
-1.55284858 -3.80657291 -0.45137909
-1.56841326 -3.81318903 -0.99428642
-2.21551871 -3.81034422 -1.06553674
-2.04001570 -3.81248379 -0.87344581
-2.33303332 -3.79900622 -0.50373000
-2.25019526 -3.80123949 -0.72715861
-2.17138529 -3.79563594 -1.29999065
-2.99599957 -3.78883958 -1.20602036
-2.99691868 -3.78207040 -1.39039409
-3.33848119 -3.80354691 -0.98473382
-3.23410463 -3.80108857 -0.68021041
-3.72870922 -3.80952930 -0.53757000
-3.42224574 -3.78361320 -1.65590549
-3.58563781 -3.77011895 -1.29047942
-3.93298316 -3.79748392 -0.94461513
-4.17768574 -3.79612684 -0.41570580
-4.28244019 -3.77987933 -1.23950255
-4.41675949 -3.77966428 -0.92157900
-4.67878437 -3.77442622 -1.20735717
-4.72512674 -3.76291299 -0.92616123
-4.36199379 -3.75277972 -1.58544242
-4.93444490 -3.74252486 -1.71025109
-5.18423700 -3.76580691 -1.03946793
1.34395862 -4.52703142 0.97836870
1.31886744 -4.46121264 1.21005154
1.32849061 -4.32125902 1.21390772
1.22219849 -4.40406418 1.56822538
1.16120040 -4.55535173 1.55219579
1.23569405 -4.60660601 0.84473938
1.13183880 -4.25394678 1.78005087
1.03251994 -4.58379412 1.54631162
1.08663654 -4.60201883 1.10241568
0.81800097 -4.57228899 1.11530375
0.91729081 -4.57493734 0.58337998
0.72748202 -4.58880615 0.36537060
0.55960649 -4.62892723 0.79754311
0.38427839 -4.60966015 1.42280519
0.55726141 -4.63907623 0.40671870
0.43275031 -4.63175678 0.92417097
0.41824111 -4.53142595 0.59051907
0.25133339 -4.57671690 1.47389913
0.39167970 -4.58928204 0.85428298
0.33154050 -4.52197504 0.99946111
0.20340361 -4.42137432 1.43138158
0.20211449 -4.12408638 1.27683568
0.31093201 -4.17722654 0.84689218
0.38055480 -4.25227213 0.48284370
-0.03143070 -3.93872738 1.60838544
-0.52818000 -3.81239796 1.17773700
-1.45199037 -3.80428505 -0.03143580
-1.84191394 -3.80308652 0.95175928
-2.21392751 -3.81046081 0.50433838
-1.82524204 -3.81557965 0.17958631
-2.40818763 -3.80239630 0.69794190
-2.88672113 -3.82088780 0.31951201
-2.82296801 -3.80881238 0.08354310
-2.75589037 -3.81181979 0.53287798
-3.35220933 -3.81280160 0.87796980
-3.15368676 -3.81903625 -0.26407561
-3.24019194 -3.82052517 0.47224891
-3.35793209 -3.81149220 -0.02718870
-3.61071658 -3.82111001 0.24040470
-3.86760330 -3.78829646 0.56845528
-4.03086710 -3.80824018 -0.05191020
-4.49888420 -3.79177594 -0.23911440
-4.61776066 -3.76412225 0.04458000
-4.91958570 -3.76285505 -0.01463310
-5.23802423 -3.76570010 0.12977280
-5.04060507 -3.76203918 -0.21431340
-5.59019661 -3.75656629 0.28523940
-5.67543697 -3.75871944 -0.18224069
0.90110493 -4.40919018 2.37634373
0.95495880 -4.28070498 2.24140644
0.85280609 -4.50629759 2.42159152
0.79547882 -4.24490929 2.56642103
0.76012170 -4.55814838 2.48903608
0.65766752 -4.41108751 2.80735850
0.80379421 -4.56653214 2.34185791
0.88957918 -4.57761574 2.01383615
0.47853929 -4.45509291 3.06141281
0.45725521 -4.23895073 3.07471538
0.55665451 -4.53064919 2.87569714
0.50556928 -4.57751656 2.77565289
0.34301129 -4.13147783 3.18876052
0.59472841 -4.57361317 2.38745308
0.43784130 -4.54761314 2.30209541
0.48279870 -4.56567526 1.76144075
0.14588010 -4.54500532 2.55777907
-0.07409850 -4.55341864 2.66146350
0.17616330 -4.60166740 1.94155025
0.11207070 -4.48832655 1.72429895
-0.05983050 -4.59100485 2.40483880
0.02494980 -4.55512905 1.96994519
-0.03313890 -4.59277344 2.14831471
-0.34675500 -4.57695913 2.70026541
-0.10287660 -4.47645950 2.10435367
-0.24948481 -4.52003527 2.37355447
0.02542140 -4.21663570 1.79548323
0.03070950 -4.03579473 1.66450799
-0.48183510 -4.54381752 2.69100952
-0.51931441 -4.42934895 2.66250753
-0.19571730 -4.06625605 2.10449576
-0.34936231 -4.22048712 2.40877438
-0.26310930 -3.96368670 2.09384131
-0.85963202 -4.47265053 3.01554275
-0.28751189 -3.89774632 1.94117343
-0.95584708 -4.24816418 3.06057310
-0.71513402 -4.12463140 2.79295492
-0.51596463 -4.00504875 2.50464988
-0.62912762 -3.90360141 2.47187591
-0.71430480 -3.86297846 2.40387082
-0.74975520 -3.83895850 2.21808958
-1.11815286 -3.84094691 2.71279669
-1.30787790 -3.81916738 1.85088933
-1.02341998 -3.82041621 2.06355834
-1.58595991 -3.80708766 1.39813232
-2.64218163 -3.81263995 1.75110209
-3.46693468 -3.81250978 1.82078636
-3.95904756 -3.80404592 0.92889088
-4.36067677 -3.79595137 1.12824094
-5.45226812 -3.75400448 0.60424650
0.26511541 -4.41033602 3.34199905
0.26730749 -4.54287052 3.24168158
-0.02863410 -4.14021349 3.61489940
0.12529740 -4.55826283 2.99961567
0.17784090 -4.56904793 3.18067765
0.00530760 -4.36049557 3.61701775
-0.03599040 -4.51365185 3.61776805
-0.24282750 -4.36732578 3.84091234
-0.01439280 -4.56423283 3.44994473
-0.35696071 -4.47052431 3.92128134
-0.60087872 -4.56614685 3.88198614
-0.58383840 -4.53308105 3.52160883
-0.25715521 -4.56711102 3.55420113
-0.48538500 -4.04536963 3.95957088
-0.43090859 -4.54300642 3.89072180
-0.73487610 -4.42415047 4.19378710
-0.34068811 -4.54623413 3.00168562
-0.79169220 -4.27548313 4.21825171
-0.60323852 -4.57989502 3.03757811
-1.10466027 -4.54674530 4.26865244
-0.84670591 -3.80578923 4.06015539
-0.42879120 -4.52835369 3.25422502
-0.67164749 -4.57514286 2.95408010
-0.91173869 -4.56236744 4.10384607
-0.88238698 -4.57635450 3.22702909
-1.23506224 -3.73309326 4.24141121
-1.08461404 -4.56847906 3.39839363
-0.92510939 -4.55636024 3.94358015
-1.05482125 -4.52611732 3.79206872
-1.02263463 -4.54059505 3.19864368
-0.82583219 -3.95801830 2.78413391
-0.91519350 -4.53095722 3.49774861
-1.48812330 -4.19627953 3.43578744
-1.38247347 -4.55955505 3.60700655
-1.27395451 -4.41548204 3.32857990
-1.11446524 -3.90519333 2.95610571
-1.12302089 -4.02644682 3.10434413
-1.38942146 -3.85040832 3.01966381
-1.70419979 -4.52954531 3.91187096
-1.45469105 -4.55687284 3.53769231
-1.54363799 -4.49397802 3.51683688
-1.84786046 -4.54490662 3.71613312
-1.51396978 -3.90289974 3.24919701
-1.87464416 -4.43118525 3.66018987
-1.52847564 -3.81863141 2.83288264
-1.99896085 -3.83186650 3.26260495
-1.77219331 -3.86438942 3.31576467
-1.71673167 -4.01253891 3.47652960
-2.12503076 -3.89736056 3.53717875
-2.18940592 -4.49001312 3.79912472
-1.92611575 -3.80918479 2.64463496
-2.47593880 -3.84478855 3.50027490
-2.37323141 -3.99166584 3.71985865
-2.74082637 -3.89540482 3.70709276
-2.75670934 -3.80760503 3.16548920
-3.04128098 -3.82883811 3.49826002
-3.77981520 -3.82434297 3.48959064
-4.14016914 -3.80328846 2.03700876
-4.52844810 -3.78450775 2.55353260
-4.00856495 -3.79993105 3.21093011
-4.68815470 -3.78952599 3.00161529
-5.14851522 -3.78064370 2.74598646
-5.59781122 -3.83785558 2.94490743
-5.75399780 -3.80946231 2.55434632
-5.44992495 -3.79510355 2.83866000
-7.48840237 -3.33350039 2.37396955
-7.70324421 -3.30287814 1.99690056
-0.78901827 -4.50310373 4.19077301
-0.87042391 -3.97627974 4.18515921
-1.17629731 -4.40056610 4.43455791
-1.36797988 -3.82598639 4.34627628
-1.14458823 -4.02922726 4.36706352
-1.35427594 -4.48906088 4.47002125
-1.46490991 -4.16866970 4.54430103
-1.57949436 -3.94911933 4.51659679
-1.58288491 -4.39445210 4.60323668
-1.43163896 -4.52758074 3.99247289
-1.53679025 -4.54856443 4.29843903
-1.62558389 -4.50981283 4.51018000
-1.74779820 -3.77956390 4.47104406
-1.96195316 -4.44711637 4.70051479
-2.03510094 -4.52709675 4.49402571
-2.07628131 -3.90791130 4.64891148
-2.04847980 -4.51909781 4.13913679
-2.14396739 -4.03905344 4.72800875
-2.20770669 -4.36781597 4.79355383
-2.26660109 -3.76441002 4.60299635
-2.01043248 -4.54980183 3.83520055
-2.20708013 -4.51575279 4.67875910
-2.07098889 -3.63272500 4.52518988
-2.53530002 -4.46975279 4.80933380
-2.65559435 -4.52027988 4.62611198
-2.43146300 -4.25971746 4.83854485
-2.54916215 -4.51571894 4.74546194
-2.66019416 -3.58215928 4.63449287
-2.47767758 -3.89881039 4.74129677
-2.43159819 -4.50251102 4.30256510
-2.32765293 -4.54280090 3.98282647
-2.63213825 -4.50201511 4.44927597
-2.74417329 -4.10261345 4.85343170
-2.63476562 -4.52269697 4.15327072
-2.86979079 -4.32316303 4.87409496
-2.30036020 -4.19132948 3.78292179
-2.79994678 -3.77153969 4.69952297
-2.52885938 -4.39866829 3.87693954
-2.66529512 -4.16832685 3.86945271
-2.48657179 -3.47551918 4.61691427
-2.75467825 -3.95625925 4.80611658
-2.71048236 -4.52626514 4.02804852
-2.97238827 -4.50308084 4.72632408
-2.53102469 -4.50862074 3.92076731
-3.15150714 -4.47842121 4.78211260
-3.01850581 -4.49019527 4.32951593
-2.98376727 -3.41585875 4.69039297
-3.21404815 -3.99056959 4.85298967
-2.94261861 -4.44548178 3.97350311
-3.32170343 -4.42536545 4.84443378
-3.26857448 -3.80173302 4.74755716
-3.09947944 -3.63371181 4.68669319
-3.07348418 -4.19565105 3.93730402
-3.03735518 -3.97450280 3.84727716
-3.31656909 -4.29784775 4.88150740
-3.70677876 -3.91994572 4.81441832
-3.73666477 -4.07952881 4.85429525
-3.67872453 -4.30068111 4.87008142
-3.42877054 -3.71675062 4.70247746
-3.89576411 -4.40429354 4.81814146
-3.65807319 -3.78315568 4.72781467
-3.41041708 -3.59866691 4.68059397
-3.37659669 -4.04175043 3.90534568
-4.07068729 -3.79598999 4.69138193
-3.44801545 -3.92737317 3.81861424
-3.94666767 -3.68288398 4.65518141
-3.60229683 -4.19746447 3.95762587
-3.32757068 -3.86368561 3.70124650
-3.88395000 -4.03528976 3.88344598
-3.85597825 -3.54973173 4.64957047
-3.93725395 -3.91758037 3.77873182
-4.38576174 -3.47813249 4.54819441
-4.41242456 -3.70031738 4.57382059
-4.35078764 -3.59578300 4.55753422
-4.32482195 -4.02316523 3.79914904
-4.58858824 -3.80657291 4.59409666
-4.12146759 -3.85072970 3.59402132
-4.94169950 -3.74658990 4.43644285
-4.54653740 -3.93024969 3.66524649
-4.80255318 -3.57791972 4.42784166
-4.54327250 -3.83050466 3.42306805
-4.86596060 -3.39042401 4.41739655
-4.89988327 -3.87963653 3.46048760
-5.27088737 -3.74852061 4.30911875
-5.28320742 -3.40703058 4.23565531
-5.57190037 -3.31582069 4.12831974
-5.14065266 -3.82181168 3.17277575
-5.55628347 -3.45794725 4.09306479
-5.34310865 -3.58017182 4.19941235
-5.59461498 -3.72468066 4.13560009
-5.57885456 -3.82604861 4.24524164
-5.86127329 -3.67364812 3.95900679
-6.00171757 -3.82146788 4.01482582
-5.93089104 -3.56801248 3.88779831
-6.06447268 -3.41044116 3.80805635
-6.16482496 -3.32349849 3.76998425
-6.17107439 -3.66887665 3.78267217
-6.30934477 -3.53850055 3.65118480
-6.57918835 -3.41445804 3.42061901
-6.62970972 -3.63829350 3.42955041
-6.88544321 -3.50286508 3.12201738
-6.89404488 -3.32009006 3.14392686
-7.15145063 -3.33843565 2.83535075
-7.32010412 -3.49049640 2.60574937
-4.30161858 -3.97947168 4.75219488
-4.26133537 -4.10624743 4.77753592
-4.16540575 -3.89217019 4.74022150
-4.65539932 -4.06182861 4.67679644
-4.95205402 -3.91013575 4.55513954
-5.32262707 -3.89174557 4.41972256
-0.55295730 -3.57577133 -3.72135758
-0.92973959 -3.51057601 -4.00048161
0.84465450 -3.75741935 -1.96840322
0.66936541 -3.53832388 -2.38862014
0.49147770 -3.65079021 -2.56100440
0.45060450 -3.75237679 -2.61200404
0.26082721 -3.47520185 -3.00306773
0.45347041 -3.87468839 -2.65418768
0.08364270 -3.58593678 -3.11087871
-0.16031671 -3.42475009 -3.50052452
0.15230550 -3.70871949 -3.00145912
-0.14515890 -3.67722893 -3.34771347
-0.43154940 -3.46867824 -3.67002773
1.22420609 -3.83094859 -0.85893333
1.12432051 -3.66712499 -1.24162531
1.16228545 -3.46693921 -1.49164796
1.11864269 -3.94091105 -1.39923656
1.15601397 -3.55877972 -1.21026635
1.06811345 -3.77347469 -1.43033159
0.97592461 -3.52637529 -1.82577455
0.92501098 -3.63458180 -1.82633793
1.36703551 -4.15692806 0.88951111
1.33249712 -3.89691663 0.41658059
1.27689123 -3.82686520 0.72461969
1.42555380 -4.18334150 -0.14706060
1.38197994 -4.01481247 0.07186860
1.35133255 -3.50172949 0.24353731
1.27108586 -3.64743972 0.66747117
1.30491602 -3.68072724 0.20413589
1.29431486 -3.84267569 -0.40992120
1.29226172 -3.52270842 -0.50393343
1.30163968 -3.77221417 -0.08793480
1.31396163 -3.45294237 -0.87503523
1.25636613 -3.64449334 -0.57131040
0.25463429 -3.93986368 0.15315270
0.22301790 -3.95614791 -0.47864759
0.06374610 -3.86495161 0.24533340
0.12989190 -3.88677716 -0.28009620
-0.11535180 -3.84575033 -0.32317379
0.03194490 -3.92298961 -1.05418265
-0.05040720 -3.87744594 -0.88661969
-0.76404750 -3.80818629 -0.08849160
1.29221010 -4.13027573 1.21619165
1.07199240 -4.44551897 1.95977342
1.19557202 -4.14976835 1.55326319
1.06914115 -3.94994307 1.64493001
1.20308816 -3.84152937 1.15018165
1.02436435 -3.77872252 1.62162995
1.25763786 -3.48751879 0.96276933
1.16711283 -3.60489178 1.20384359
0.81169170 -3.68183970 2.10210085
0.98738909 -3.59803915 1.73721123
0.27558690 -4.00120068 0.68845111
0.12536220 -3.89460897 0.72040617
0.12632340 -3.96206880 1.22596109
-0.15978061 -3.84710217 1.06019366
-0.68377322 -3.81299019 0.77226841
0.90172619 -4.10456467 2.26145792
0.59019363 -4.11154604 2.83913159
0.69349712 -3.96313524 2.51098084
0.85285378 -3.87234473 2.08105683
0.48134309 -3.94564629 2.82476377
0.63385379 -3.75395513 2.45572162
0.24011309 -4.02329302 3.25061703
0.75653160 -3.56381273 2.24677014
