-6.92310000 -6.79490000 -2.10140000
-6.87090000 -7.31150000 -2.17670000
-6.76540000 -6.89670000 -2.30970000
-6.79960000 -6.18340000 -2.15150000
-6.96220000 -6.58400000 -2.02970000
-6.73030000 -6.60780000 -2.34230000
-14.64420000 0.26370100 -5.05230000
-14.78020000 0.32300100 -5.01350000
-14.67350000 0.35210100 -5.19070000
-14.83220000 0.35390100 -5.06020000
-15.05220000 0.36950100 -5.12230000
-14.79400000 0.36370100 -5.25330000
-21.76960000 4.36280000 0.21080100
-21.80080000 4.12870000 0.05300100
-21.81480000 4.38090000 -0.02329900
-21.68030000 4.67500000 0.51470100
-21.70330000 4.73520000 0.34310100
14.70300000 11.25130000 -5.35570000
14.66060000 11.20640000 -5.37430000
14.13970000 11.23630000 -5.32660000
-13.10900000 11.30010000 -9.70230000
-13.39700000 11.44890000 -10.27020000
-13.02380000 11.46800000 -10.27160000
-15.67130000 8.24220000 7.74180000
-15.51710000 8.08650000 7.61150000
-15.65250000 8.08360000 7.41780000
-15.14410000 8.24530000 8.06530000
-15.30040000 8.12010000 7.79390000
-15.38670000 8.20050000 7.94660000
-10.93670000 3.33550000 -7.51270000
-10.93050000 2.98200000 -7.51370000
-11.15050000 3.14010000 -7.67960000
-10.98180000 4.03580000 -7.55850000
-16.83970000 11.36840000 8.20190000
-16.53150000 11.24750000 7.94820000
-16.76360000 11.27890000 7.87530000
-20.02260000 3.53710000 3.63180000
-19.94950000 3.47490000 3.76180000
-19.97880000 4.01430000 3.63750000
-20.04990000 3.17270000 3.61380000
-12.43630000 11.51220000 -10.25390000
-12.35560000 11.49540000 -10.66040000
-12.46560000 11.56650000 -10.67160000
-12.26590000 11.58070000 -10.60430000
-19.64950000 -8.05060000 -7.76320000
-19.55870000 -7.72510000 -7.85590000
-10.09120000 1.00790000 1.64380000
-10.12520000 0.99070000 1.40200000
-10.41230000 0.98430000 1.68000000
-11.11070000 1.00670000 2.78810000
-11.30650000 1.01730000 2.97730000
-20.14400000 2.91560000 3.50720000
-20.11850000 3.13970000 3.54240000
-20.31330000 3.01640000 3.35610000
-20.72670000 2.70180000 2.87400000
-20.65750000 2.46940000 2.95530000
-20.59510000 2.80100000 3.03390000
-10.46100000 0.82260100 -6.51120000
-10.63420000 0.72060100 -6.53980000
-10.27220000 0.72680100 -6.11270000
-9.81930000 0.77320100 -5.56980000
-10.08150000 0.66620100 -5.75270000
-6.70310000 11.55970000 -6.36830000
-6.32520000 11.49060000 -5.80120000
-6.41900000 11.41970000 -5.98220000
-6.50210000 11.48780000 -6.13120000
-8.14580000 -2.29950000 -3.07290000
-8.25650000 -2.34350000 -3.11260000
-7.80390000 -1.43670000 -3.25800000
-7.47450000 -1.40120000 -3.09270000
-7.64430000 -1.56680000 -3.09300000
-19.76070000 -10.83540000 -7.53380000
-20.13230000 -10.91030000 -7.31510000
-19.87870000 -11.13900000 -7.66180000
-19.21240000 -9.73490000 -7.22180000
-19.35490000 -10.08800000 -7.32410000
-19.06870000 -9.88790000 -7.40470000
-19.91800000 5.39240000 3.67130000
-20.42660000 5.04590000 3.19050000
-20.19190000 4.59600000 3.41610000
-9.96690000 1.02140000 1.50590000
-9.84920000 1.04850000 1.55350000
-9.44280000 1.00500000 0.10900000
-9.56020000 1.00610000 0.43680000
-9.31650000 1.04260000 0.30550000
-18.81610000 -9.97910000 -7.65240000
-19.02660000 -10.19260000 -7.63510000
-18.84540000 -10.34340000 -7.84330000
-17.84590000 -9.74080000 -8.23890000
-17.85700000 -9.88600000 -8.32370000
-17.88500000 -9.66840000 -8.30040000
-20.48280000 -0.02249900 -7.66020000
-20.41460000 -0.19889900 -8.01790000
-20.36830000 -0.24529900 -7.42570000
-20.48320000 0.20570100 -6.77680000
-20.52220000 0.17110100 -7.10470000
8.13390000 10.75740000 -3.51640000
8.40020000 10.77450000 -3.43020000
8.10740000 10.75730000 -3.39760000
-18.69890000 -11.95920000 9.60460000
-18.90520000 -11.85450000 10.10110000
-18.87050000 -11.92990000 10.00060000
-18.77630000 -11.88880000 10.01770000
-7.11500000 9.94740000 -3.31340000
-7.17480000 9.79180000 -3.43640000
-7.13570000 9.94950000 -3.53130000
-7.24370000 9.75090000 -3.65610000
-7.34330000 9.62020000 -3.81770000
-7.23370000 9.91600000 -3.79520000
-16.24420000 -4.48480000 5.31430000
-16.20260000 -4.35630000 5.25210000
-16.10230000 -3.73570000 5.08730000
-14.16970000 1.39960000 -8.62990000
-14.35830000 1.23030000 -8.57810000
-13.46980000 1.55460000 -8.54770000
-13.68030000 1.32960000 -8.50800000
-13.79880000 10.25990000 6.42490000
-13.86770000 9.91080000 6.53210000
-13.88170000 10.04160000 6.69780000
-5.21940000 -12.41550000 -2.18360000
-4.99260000 -12.43790000 -2.32640000
-4.94150000 -12.45120000 -2.16530000
-5.31870000 -12.29540000 -1.81880000
-5.17330000 -12.31850000 -1.69820000
-16.60600000 0.31359900 3.37060000
-16.73980000 0.31959900 3.31670000
-16.70820000 0.31719900 3.77660000
-16.82640000 0.36759900 3.64170000
-16.59330000 0.36359900 3.58130000
-18.27520000 10.73430000 7.41720000
-18.58250000 10.83760000 7.51230000
-18.46300000 10.77480000 7.41120000
-18.71700000 10.62210000 6.81160000
-18.94880000 10.63610000 6.71720000
-20.03210000 1.82000000 3.71420000
-19.84500000 2.26930000 3.94530000
-16.92300000 -1.36360000 -7.07270000
-16.91660000 -1.42700000 -7.12540000
-16.95100000 -1.55460000 -7.03710000
-7.55610000 10.11750000 -0.97899800
-7.52660000 10.26990000 -1.44240000
-7.53630000 10.03790000 -1.46310000
-7.63040000 9.89640000 -0.69619800
-7.57240000 9.85730000 -1.27240000
-4.93160000 -12.38380000 -1.85580000
-5.07660000 -12.36810000 -1.90730000
-4.95710000 -12.44380000 -1.97760000
-4.31920000 -12.46470000 -2.25250000
-20.88640000 4.60960000 2.13180000
-20.91700000 4.15820000 2.07140000
-20.98390000 4.36030000 1.98630000
-20.67880000 4.33180000 2.41220000
-14.58650000 0.40959900 4.45590000
-14.81140000 0.41279900 4.54820000
-14.64480000 0.36709900 4.15470000
-15.15020000 0.37189900 4.16770000
-14.90850000 0.38299900 4.21340000
-22.26970000 6.35910000 -1.98670000
-22.22670000 6.49310000 -2.36910000
-22.17770000 6.55930000 -2.71650000
-21.97600000 7.80060000 0.28150100
-22.02020000 7.09670000 0.29350100
-21.93250000 6.70590000 0.63990100
-22.03630000 6.24640000 0.37150100
-21.85750000 6.16230000 0.92580100
-6.81900000 10.34060000 -1.31860000
-6.75840000 10.45220000 -1.48120000
-6.81010000 10.50540000 -1.30160000
-6.75680000 10.47930000 -1.62280000
-6.80470000 10.42190000 -1.69240000
-6.73360000 10.60790000 -1.77420000
-7.50060000 -9.94000000 -3.96610000
-7.22220000 -10.17390000 -4.03070000
-7.35290000 -10.24440000 -4.07480000
-7.64510000 -9.71570000 -3.84440000
-7.73250000 -9.42690000 -3.78620000
-21.11020000 10.49700000 4.56580000
-20.71480000 10.49990000 4.75800000
-20.71720000 10.54110000 5.00210000
-20.95210000 10.57900000 4.90490000
-8.31650000 6.07620000 -4.48090000
-15.09510000 8.80780000 -8.53520000
-15.23020000 8.83320000 -8.57380000
-15.35020000 8.67960000 -8.48520000
-15.37400000 8.96050000 -8.66950000
-15.56840000 9.05120000 -8.69790000
-15.64150000 8.95480000 -8.63440000
-6.57300000 2.73680000 -2.18760000
-6.59530000 2.58540000 -2.01490000
-6.48310000 2.64100000 -2.24290000
-6.67040000 2.50160000 -1.85890000
29.37260000 10.38080000 -2.58270000
29.16550000 10.41980000 -2.55880000
28.91100000 10.45570000 -2.60770000
28.58620000 10.45230000 -2.67130000
-7.41370000 -10.23510000 -4.02900000
-7.14120000 -10.95490000 -4.29120000
-7.08520000 -10.93740000 -4.39700000
-7.04870000 -11.11580000 -4.42160000
-17.95780000 -1.97830000 6.41750000
-17.90060000 -2.26770000 6.31740000
-18.20820000 -1.94790000 5.90590000
-18.14610000 -2.27180000 5.76440000
-18.08480000 -2.02850000 6.12790000
-8.25620000 6.05530000 -4.13190000
-20.04440000 0.97850000 1.40540000
-20.16630000 1.06180000 1.68130000
-20.48790000 1.11350000 1.66110000
-6.93770000 -10.80530000 -2.34900000
-7.02890000 -10.72660000 -2.54080000
-6.98220000 -10.77960000 -2.58570000
-7.38450000 -10.11150000 -2.90990000
-7.37560000 -10.12290000 -2.73500000
-7.41820000 -10.01860000 -2.75970000
0.84280000 10.09800000 -4.63420000
0.88660000 10.30490000 -4.64680000
-7.49990000 11.02320000 1.01280000
-6.61690000 11.30810000 1.32510000
-17.45180000 4.72190000 5.24840000
-16.47930000 4.00190000 5.50610000
-16.83340000 4.32480000 5.43120000
-6.10020000 -0.01950000 -1.97550000
-5.75120000 0.38200000 -2.36070000
-5.83460000 0.34360000 -2.20330000
-2.12910000 9.26540000 -2.51320000
-2.36090000 9.24170000 -2.29070000
-2.34610000 9.23910000 -2.51430000
-2.36320000 9.25440000 -3.14610000
-7.33030000 -10.27150000 -2.88590000
-7.26490000 -10.20950000 -2.47980000
-7.32150000 -10.20070000 -2.73620000
-7.29260000 -10.51140000 -3.74990000
-7.32120000 -10.44470000 -3.59250000
-7.39560000 -10.28520000 -3.62020000
-8.20910000 6.25260000 -2.35140000
-8.21770000 6.33960000 -2.16750000
-8.22420000 6.34770000 -2.34550000
-8.24610000 5.92780000 -2.63360000
-8.24420000 5.79110000 -2.59680000
-8.23240000 6.06880000 -2.45210000
-16.51700000 10.13750000 8.57440000
-16.48730000 10.05470000 8.67450000
-16.48570000 10.33280000 8.82080000
-16.67290000 10.47470000 8.20310000
-21.63360000 4.27660000 -3.91930000
-21.61700000 3.99130000 -3.96990000
-21.53950000 4.25580000 -4.17320000
-21.59110000 3.81550000 -4.01270000
-21.45570000 3.72350000 -4.28160000
-21.53090000 4.01380000 -4.20550000
-7.92730000 8.08270000 -1.93790000
-20.08650000 11.39270000 -8.55610000
-19.57830000 11.35990000 -8.66230000
-19.78040000 11.39190000 -8.73580000
-19.85930000 11.31990000 -8.34740000
-19.69990000 11.25280000 -8.16600000
-8.25900000 5.47540000 -2.78940000
-8.29090000 5.59510000 -2.88490000
-8.30910000 5.26940000 -3.06150000
-8.21240000 5.75850000 -2.47600000
-16.33180000 9.78410000 9.04830000
-16.38780000 9.96200000 8.95230000
-16.42880000 9.84200000 8.79110000
-9.46800000 -0.03889900 -3.05930000
-9.46190000 0.01930000 -2.82050000
-9.49370000 0.11130000 -2.76050000
-9.33790000 -0.58280000 -2.25180000
-9.39440000 -0.46390000 -2.50150000
-9.37580000 -0.53530000 -2.48590000
-18.02410000 -3.27350000 5.82680000
-18.08110000 -3.43150000 5.70870000
-18.16770000 -3.55550000 5.40540000
-18.16450000 -3.31730000 5.22030000
-7.92870000 8.26050000 -2.10390000
-7.88460000 8.36040000 -1.99460000
-7.93300000 8.17450000 -1.95430000
-7.74600000 8.53400000 -1.95290000
-16.35450000 10.36750000 9.29710000
-16.40450000 10.15760000 8.99410000
-16.37490000 10.12480000 9.14980000
-16.35830000 9.95100000 9.14330000
2.69060000 10.80980000 -1.48080000
2.88770000 10.83780000 -1.34900000
2.80250000 10.84780000 -1.70960000
4.01440000 11.01940000 -1.57150000
4.33270000 11.05890000 -1.50490000
4.10170000 11.02080000 -1.84250000
-19.81810000 0.40360000 -1.98950000
-19.68360000 0.37600000 -2.05570000
-19.75210000 0.37620000 -1.82930000
-20.11580000 0.37830000 -2.80340000
-19.99640000 0.38090000 -2.76970000
-20.11210000 0.38500000 -2.64350000
-14.31390000 9.13260000 10.42540000
-14.25130000 9.09160000 10.15820000
-14.11800000 8.84670000 9.15230000
-14.13830000 8.69890000 8.84070000
-13.97540000 8.96970000 8.82230000
-7.07540000 9.37340000 -2.45500000
-7.05180000 9.50840000 -2.26170000
-7.19510000 9.21010000 -2.55510000
-7.27410000 9.21390000 -2.78200000
-7.16380000 9.35500000 -2.61280000
-18.20000000 -4.83450000 6.99690000
-17.78280000 -5.05300000 6.82970000
-17.81750000 -4.93090000 6.84960000
-18.12990000 -5.07240000 6.91320000
-17.90260000 -5.17320000 6.84490000
-18.16500000 -4.95530000 6.97160000
-22.22250000 6.68960000 -0.64619900
-22.17150000 7.36620000 -0.49719900
-22.21820000 7.22850000 -0.88459900
-22.16910000 8.14780000 -1.09270000
-22.18770000 7.57240000 -0.80029900
-17.83800000 -11.00200000 8.58510000
-17.50810000 -11.04230000 8.29260000
-17.63840000 -10.90340000 8.31770000
-17.76450000 -10.39770000 8.03940000
-17.43150000 -10.40380000 7.74650000
-17.58160000 -10.03810000 7.65900000
-8.64930000 6.19320000 0.92550100
-8.52760000 6.17510000 0.60510100
-8.55080000 5.69620000 0.72360100
-8.72990000 5.88530000 1.13010000
-8.87580000 5.95180000 1.40660000
-8.81480000 6.12720000 1.27900000
-20.07420000 8.83390000 4.34650000
-19.83570000 8.80750000 4.53370000
-19.32270000 8.90260000 5.03090000
-19.59340000 8.91940000 4.86790000
-23.64760000 11.56740000 -5.66130000
-24.24380000 11.58830000 -4.50410000
-11.58950000 0.30570100 -3.21330000
-11.25350000 0.32240100 -3.11850000
-11.39580000 0.32690000 -2.96060000
-11.59360000 0.26210100 -3.52320000
-11.52050000 0.30910100 -3.35850000
-11.69520000 0.29290100 -3.36150000
-12.24920000 3.55930000 4.54520000
-12.40190000 3.24790000 4.55590000
-12.51430000 3.18260000 4.55490000
-12.55240000 3.30250000 4.61470000
-17.27420000 2.61030000 -8.10220000
-16.99670000 2.66170000 -8.18580000
-17.47140000 2.56650000 -8.03340000
-17.09740000 11.39030000 8.15090000
-17.05860000 11.38850000 8.21510000
-11.96980000 0.31480100 -3.51010000
-11.79840000 0.31470100 -3.49090000
-11.78120000 0.32230100 -3.38610000
-12.11060000 0.24830100 -3.91910000
-12.48290000 0.23560100 -3.86060000
-12.30750000 0.25470100 -3.98710000
-20.41630000 -11.50260000 10.74860000
-20.57340000 -11.28110000 10.63510000
-20.58360000 -11.54240000 10.85620000
-20.86670000 -11.55830000 10.94970000
-18.90000000 11.35230000 -10.24010000
-18.54330000 11.39240000 -10.41370000
-17.98990000 11.37690000 -10.58880000
-23.13630000 9.64380000 -0.58799800
-23.17180000 9.89420000 -0.36919800
-23.19490000 9.83970000 -0.64169800
-23.12280000 9.52760000 -1.46490000
-23.21750000 9.79620000 -1.36830000
-23.13490000 9.56500000 -1.71300000
-12.45270000 8.51950000 -8.18630000
-12.91050000 8.53260000 -8.37460000
-13.56260000 1.01360000 4.07630000
-13.22830000 0.98459900 3.80110000
-13.75430000 0.98599900 4.01920000
-12.60820000 1.03280000 3.87590000
-12.26000000 1.06640000 3.83660000
-12.33080000 1.03700000 3.70390000
-11.04580000 10.86390000 -8.04590000
-10.95500000 10.93640000 -8.02450000
-10.78670000 10.49920000 -7.88020000
-10.76810000 10.80010000 -7.86570000
-7.98920000 3.73110000 -0.55199900
-7.93290000 3.59650000 -0.89599900
-16.85900000 11.10460000 8.27430000
-16.82060000 11.00500000 8.25100000
-16.71030000 11.05720000 8.37980000
-16.76410000 11.13680000 8.34910000
-16.77690000 11.31510000 8.33910000
-16.84640000 11.18920000 8.29750000
-14.66940000 0.28040000 1.03230000
-14.62490000 0.27390000 0.80660000
-14.46190000 0.26430000 0.93300000
-14.07430000 0.27070000 1.98800000
-15.32410000 5.44470000 5.30060000
-15.60800000 5.40150000 5.27270000
-15.43910000 5.59870000 5.30150000
-15.88670000 5.03080000 5.18690000
-15.80090000 5.41950000 5.22290000
-15.73970000 5.17800000 5.22890000
-18.00450000 0.29760100 -4.51920000
-17.99310000 0.31800100 -4.76980000
-17.92740000 0.26140100 -4.72380000
-17.72380000 0.26420100 -4.80170000
-17.83260000 0.30430100 -4.93940000
-17.62180000 0.32510100 -5.00350000
17.53440000 11.00220000 -1.84050000
17.13210000 11.13690000 -1.83230000
17.13370000 10.94250000 -1.83360000
15.79630000 10.87540000 -2.29160000
15.81450000 10.90520000 -2.16070000
15.62650000 10.89290000 -2.21020000
-23.50620000 10.67710000 -1.06640000
-23.76460000 10.75030000 -1.16500000
-23.58910000 10.70870000 -1.23250000
-23.37890000 10.63870000 -1.69530000
-23.31110000 10.56580000 -1.02750000
-23.37900000 10.63430000 -1.24980000
-14.64120000 0.27890000 0.61510000
-14.67260000 0.26580000 0.44100000
-14.57820000 0.27220000 0.41080000
-14.27730000 0.26890000 0.81290000
-14.55550000 0.26710000 0.67010000
-14.39140000 0.28170000 0.58610000
-10.35680000 0.32300000 -0.58230000
-10.20230000 0.32710000 -0.54130000
-10.17710000 0.33400000 -0.37180000
-10.19780000 0.33760000 0.11950000
-10.12990000 0.31600000 0.21370000
-17.60060000 -7.05870000 -7.12560000
-17.77220000 -6.75700000 -6.88430000
-17.92800000 -7.07670000 -6.86730000
-17.87630000 -7.41810000 -7.02790000
-18.04190000 -7.25150000 -6.84940000
-11.20320000 7.19660000 -7.61910000
-11.38310000 6.77020000 -7.77880000
-11.95180000 5.60470000 -8.13250000
-11.73300000 5.81300000 -8.01630000
15.19640000 11.10400000 -1.74990000
15.56970000 11.24950000 -1.75580000
15.00870000 11.26770000 -1.74140000
14.68170000 11.33960000 -1.75610000
-15.53580000 0.23670000 0.14390000
-15.49110000 0.24900000 -0.03570000
-15.36520000 0.24380000 0.08360000
-15.61120000 0.24490000 0.59460000
-15.73360000 0.23170000 0.52430000
-15.52890000 0.24260000 0.48520000
-7.34670000 9.85520000 1.06670000
-7.30600000 9.63930000 0.64780200
-7.64690000 9.47510000 1.48810000
12.88990000 10.76440000 -4.28840000
13.16580000 10.81850000 -5.09920000
13.08260000 10.76990000 -5.06630000
13.07720000 10.85870000 -5.18030000
-12.51040000 9.45500000 -8.52820000
-12.69840000 9.41500000 -8.55270000
-12.55270000 9.32920000 -8.47050000
-13.01230000 8.89940000 -8.36810000
13.46870000 11.43010000 -1.73480000
13.40860000 11.48400000 -1.79050000
13.32030000 11.38990000 -1.69170000
13.52620000 11.26080000 -1.70480000
13.73230000 11.36220000 -1.67360000
13.41900000 11.34370000 -1.68360000
-18.78300000 -0.46120100 6.40710000
-19.47110000 -6.02860000 -5.90140000
-19.39180000 -5.95640000 -5.81420000
-19.48790000 -5.91270000 -6.09310000
-19.51670000 -5.99180000 -6.12060000
-19.54440000 -5.90740000 -6.24600000
-19.54210000 -6.06650000 -6.39940000
-15.27920000 7.32550000 6.94560000
-15.62590000 6.96490000 5.85130000
-15.35990000 6.96870000 6.04980000
-15.47070000 7.05000000 6.18420000
-10.47220000 11.26810000 -9.73080000
-10.75620000 11.32570000 -9.94890000
8.02400000 10.70460000 -4.73210000
7.97040000 10.71460000 -4.48140000
7.88840000 10.72550000 -4.74650000
8.05020000 10.91960000 -4.89090000
8.03800000 10.77040000 -4.86080000
7.69100000 10.80480000 -4.84350000
-4.67940000 -12.26370000 -1.74850000
-4.66230000 -12.33930000 -1.79480000
-4.43980000 -12.33580000 -1.92910000
-4.59920000 -12.23680000 -1.80340000
-4.33420000 -12.23530000 -1.96570000
-19.25570000 -4.46690000 -8.14580000
-19.11240000 -4.58070000 -8.13630000
-19.33940000 -4.52610000 -8.16540000
-19.53150000 -4.52150000 -8.15520000
-19.52150000 -4.73460000 -8.06420000
-20.82860000 11.07890000 6.53930000
-21.00590000 10.96760000 6.31210000
-21.29310000 11.00690000 6.07580000
-21.32130000 11.14480000 6.14750000
-7.86700000 8.51600000 -2.77200000
-7.98850000 8.44980000 -2.88760000
-7.74330000 8.62620000 -2.89020000
-8.14190000 8.38790000 -3.41700000
-8.07920000 8.31250000 -3.08810000
-8.15310000 8.14580000 -3.26650000
10.99150000 10.77520000 -4.64780000
10.74800000 10.77820000 -4.52880000
10.63450000 10.77950000 -4.66240000
8.38950000 10.72120000 -4.60330000
8.43220000 10.74540000 -4.43650000
8.19970000 10.73160000 -4.37030000
-11.01950000 5.00500000 -7.18070000
-11.37380000 5.62010000 -7.42420000
-11.66750000 5.39960000 -7.59540000
-11.35040000 5.40320000 -7.41420000
-8.70490000 -2.94950000 -3.12430000
-18.51470000 -5.56580000 7.14730000
-18.48200000 -5.58920000 7.17290000
-18.32850000 -5.47410000 7.11090000
-8.02290000 8.08190000 -2.44540000
-7.98560000 8.14100000 -2.37000000
-8.04020000 8.42150000 -3.06230000
-8.04480000 8.25490000 -2.69240000
-8.05580000 8.20110000 -2.82150000
-18.03430000 -11.79680000 8.60260000
-17.95630000 -11.66000000 8.43500000
-17.85860000 -11.71530000 8.56230000
-17.52920000 -11.07020000 8.10780000
-17.47780000 -10.87080000 7.97220000
-9.35360000 6.62300000 -5.65310000
-9.58010000 6.78990000 -6.02230000
-9.25330000 6.85460000 -5.46380000
-9.20380000 6.44350000 -5.45180000
-9.15420000 6.61390000 -5.42130000
-8.49060000 1.32940000 -1.90560000
-8.68790000 1.32990000 -3.06540000
-8.87890000 1.15760000 -3.10510000
-8.73850000 1.23840000 -2.95150000
-15.08940000 0.30079900 3.61160000
-15.17840000 0.33919900 3.41320000
-15.02420000 0.31309900 3.44660000
-14.94820000 0.30369900 3.52160000
-14.81200000 0.33189900 3.75750000
-16.43410000 8.79560000 5.45130000
-16.36780000 8.39380000 5.58660000
-16.42200000 8.20170000 5.19690000
-16.28470000 7.89790000 5.68140000
-20.61120000 10.78230000 -7.75570000
-19.47870000 10.90720000 -8.82130000
-19.38850000 10.82670000 -8.61490000
-19.70830000 10.83450000 -8.47410000
-17.52480000 -9.24570000 6.61320000
-17.90440000 -9.29860000 6.42690000
-17.55600000 -9.13000000 6.49880000
-17.44360000 -8.98280000 6.47400000
-17.66010000 -8.90880000 6.31810000
-17.44950000 -8.89450000 6.43970000
-8.42620000 1.51560000 -2.22740000
-8.48150000 1.50260000 -2.50690000
-8.54760000 1.33550000 -2.42390000
-8.46860000 1.39830000 -2.05100000
-8.56220000 1.28390000 -2.26580000
-10.06050000 0.35570100 -3.83640000
-10.13760000 0.35260100 -3.99630000
-9.99990000 0.34580100 -3.94640000
-9.76150000 0.24560100 -3.93500000
-9.71780000 0.18800100 -3.99330000
-18.03760000 -3.37600000 4.04820000
-17.60270000 -3.35880000 4.18310000
-17.96110000 -3.53430000 4.10480000
-17.83230000 -3.25610000 4.07600000
-18.67540000 -9.45370000 6.14220000
-18.73160000 -9.16260000 5.90820000
-18.42880000 -9.16070000 6.04530000
-17.70910000 -9.04700000 6.35790000
-18.62480000 -7.83190000 7.24780000
-18.62290000 -7.94330000 7.32860000
-18.55660000 -7.64830000 7.20660000
-12.73850000 6.74580000 4.84670000
-12.35450000 6.35860000 4.73250000
-12.10740000 6.54790000 4.60880000
-12.00180000 6.26710000 4.56200000
-21.80440000 8.57300000 -2.23930000
-21.82440000 8.58080000 -1.78500000
-18.36500000 0.38980100 -5.39120000
-18.20820000 0.39300100 -5.37130000
26.99380000 10.99030000 -2.57160000
27.42740000 10.99800000 -2.96500000
27.35160000 11.00920000 -3.05620000
27.23550000 10.97480000 -2.87380000
-20.18790000 9.76880000 4.92660000
-20.22210000 10.00000000 4.94860000
-20.46170000 10.04270000 4.77020000
-20.62160000 9.75790000 4.53740000
-20.71180000 9.59510000 4.41190000
-20.45840000 9.83320000 4.71880000
27.58710000 10.50240000 -6.31830000
27.66660000 10.69200000 -6.33940000
28.44180000 10.43450000 -6.31980000
28.15400000 10.39990000 -6.32310000
28.06920000 10.54330000 -6.34480000
-23.75190000 11.56790000 -5.66680000
-23.58690000 11.55310000 -6.02580000
-23.24490000 11.56150000 -6.44070000
-23.34580000 11.55160000 -6.41310000
27.17390000 10.99560000 -2.57750000
26.92940000 11.01080000 -2.43780000
27.39570000 10.99940000 -2.51020000
28.23320000 10.77340000 -2.41490000
-21.76220000 0.86880100 -3.19160000
-21.76440000 0.94350100 -3.37800000
-21.53710000 0.76220100 -3.55580000
-21.63000000 0.79040100 -3.35320000
-21.66460000 0.90520100 -3.59800000
-8.42180000 5.69310000 -4.17820000
-8.46760000 5.83920000 -4.32010000
-8.32510000 5.98360000 -4.08880000
-8.33800000 5.83380000 -3.99520000
-7.20350000 -5.67400000 -3.12390000
-6.99640000 -5.83920000 -3.04150000
-7.31830000 -5.99020000 -3.19640000
-8.63980000 1.46180000 0.14350000
-8.62550000 1.39740000 -0.00710000
-8.65650000 1.61680000 0.42090000
-8.65110000 6.02500000 0.93190100
-8.60500000 5.66430000 0.87360100
-8.86280000 4.73670000 1.42610000
-8.69990000 4.93980000 1.11220000
-8.63290000 4.52540000 0.91130100
-7.80370000 3.05320000 -1.21820000
-7.85440000 3.19190000 -1.32190000
-7.77470000 2.49110000 -0.91460000
-21.50420000 11.50400000 -8.65590000
-21.76810000 11.53390000 -8.33080000
-21.50920000 11.53170000 -8.58100000
-21.40300000 11.54750000 -8.55600000
-21.60210000 11.53660000 -8.36820000
-16.35120000 11.50940000 -10.94890000
-16.80230000 11.47060000 -10.89200000
-16.56720000 11.59910000 -10.87650000
-16.33790000 11.57070000 -10.94770000
-11.13870000 1.67560000 -6.94080000
-11.34010000 1.60300000 -7.06860000
-11.25400000 1.48980000 -6.97370000
-11.35400000 1.50280000 -7.02940000
-11.35960000 1.30940000 -6.96770000
-19.11830000 3.95580000 4.40460000
-19.79750000 4.69970000 3.88970000
-19.63020000 4.42720000 4.04390000
-19.55210000 4.75580000 4.11210000
-7.44280000 10.89810000 -1.44840000
-7.36390000 10.94230000 -1.44200000
-7.39050000 10.92970000 -1.93590000
-7.49170000 10.73650000 -1.26420000
-7.48620000 10.62130000 -1.49460000
-7.50060000 10.52150000 -1.21750000
-18.39960000 -10.86640000 -8.51580000
-18.55360000 -11.07620000 -8.55910000
-18.32130000 -11.10990000 -8.73670000
-18.89920000 -11.36870000 -8.54160000
-18.60750000 -11.40230000 -8.78430000
-18.50470000 -11.22300000 -8.68090000
-16.62590000 8.74480000 6.78970000
-16.64600000 8.97400000 6.95140000
-16.67660000 8.86280000 6.67650000
-16.83560000 8.89210000 6.19560000
-11.07920000 1.77620000 -6.95450000
-12.01410000 1.34030000 -7.39890000
-12.13260000 1.43930000 -7.49740000
-19.60500000 4.00400000 -6.82920000
-19.85460000 4.16430000 -6.62240000
-19.77730000 3.44460000 -6.65850000
-19.70010000 3.32150000 -6.65020000
-19.58990000 3.39830000 -6.75240000
-18.67040000 4.83480000 4.71930000
-18.84260000 4.75690000 4.59740000
-19.06760000 4.85310000 4.49310000
-19.16800000 4.59520000 4.39550000
-16.08760000 8.49390000 -8.28530000
-16.10500000 8.62080000 -8.31860000
-16.50790000 8.36060000 -8.17700000
-16.51350000 7.98100000 -8.16940000
-19.14380000 9.74200000 5.61440000
-19.20070000 9.43050000 5.50070000
-19.05490000 9.35330000 5.56610000
-16.85720000 0.86300000 0.76340000
-16.69300000 0.86970000 1.12330000
-16.62020000 0.86930000 0.93240000
-15.53710000 0.88400000 1.32390000
-15.92210000 0.89120000 1.66020000
-15.48930000 0.87800000 1.56410000
-21.98960000 5.42760000 -2.15620000
-21.99610000 4.86770000 -2.15300000
-22.01350000 5.13640000 -1.87690000
-8.37860000 2.59540000 -3.99840000
-8.39400000 2.93050000 -4.01530000
-7.37630000 -4.34760000 -2.84700000
-13.60840000 3.44510000 5.02960000
-13.96640000 3.50710000 5.10780000
-13.90230000 3.66290000 5.11590000
-14.50640000 3.52240000 5.15570000
-9.67540000 1.50680000 -5.41990000
-9.90610000 1.39670000 -5.63650000
-9.44800000 1.61040000 -5.14790000
-12.18870000 10.59180000 6.85480000
-12.20790000 10.68230000 7.18130000
-12.52760000 10.61780000 7.04170000
-12.39100000 10.55610000 6.86110000
-17.30100000 -0.26059900 -6.57970000
-16.98180000 -0.05349900 -6.80310000
-17.15260000 -0.27889900 -6.70550000
-16.85260000 -0.15099900 -6.96500000
-14.23150000 3.04440000 5.10610000
-14.47310000 3.03710000 5.13210000
-14.38350000 3.22410000 5.12080000
-14.32250000 3.35820000 5.03830000
-14.24580000 3.20860000 5.09360000
-9.39720000 -1.10610000 -3.88350000
-9.38460000 -0.88729900 -3.97380000
-9.28790000 -1.21960000 -3.83940000
-9.31240000 -2.03960000 -3.48500000
-9.26240000 -1.93790000 -3.56400000
-11.49100000 8.91010000 5.35040000
-11.67890000 9.04800000 5.58220000
-11.68160000 8.76260000 5.28000000
-9.29640000 1.69850000 -4.97880000
-9.42790000 1.50760000 -5.09110000
-9.18610000 1.51250000 -4.67920000
7.65220000 10.91640000 -1.37000000
7.97840000 10.96360000 -1.39120000
8.13990000 11.19730000 -1.40460000
7.62500000 11.01010000 -1.35970000
-14.10040000 3.56630000 5.07680000
-13.97520000 3.64280000 5.11550000
-14.46590000 3.43730000 5.12980000
-14.27400000 3.68770000 5.14110000
-14.28650000 3.44180000 5.03160000
-23.07040000 9.74330000 0.01390200
-23.12120000 10.03200000 0.03220200
-23.08240000 10.15230000 0.26310200
-17.91630000 -3.75050000 6.44790000
-17.99820000 -4.11380000 6.63300000
-14.14660000 4.01470000 5.17030000
-14.16390000 3.71560000 5.12530000
-14.15890000 3.63210000 5.08150000
-12.01350000 0.24810100 -4.28260000
-12.04160000 0.24570100 -4.00250000
-11.49260000 0.25080100 -3.76850000
-11.30070000 0.32090100 -3.66530000
-17.02300000 1.73780000 6.86160000
-16.74850000 1.68350000 6.67630000
-16.42270000 2.20680000 6.11560000
7.19240000 10.80990000 -1.39840000
7.15750000 10.89780000 -1.32360000
7.10360000 10.80890000 -1.35580000
7.61970000 10.83960000 -1.63890000
7.28840000 10.77990000 -1.61560000
-21.83240000 5.34010000 -4.02500000
-21.69230000 5.71680000 -4.35680000
-21.75780000 4.50750000 -4.20890000
-21.78020000 6.50760000 -4.09540000
-6.84490000 2.85670000 -1.99790000
27.29280000 10.94000000 -4.38210000
27.14850000 10.96390000 -4.37950000
27.14410000 10.96010000 -4.26070000
27.98840000 10.93260000 -4.15850000
27.98560000 10.92350000 -3.93700000
28.14160000 10.94570000 -4.10190000
-8.40360000 11.58340000 -8.55330000
-8.83790000 11.61290000 -8.89940000
-8.17940000 11.60600000 -8.28560000
-7.64650000 11.55350000 -7.75800000
-7.15700000 11.51820000 -7.13750000
-7.62640000 11.50930000 -7.74630000
-15.48440000 2.13700000 5.69850000
-16.14420000 2.09130000 5.95930000
-16.04660000 1.78650000 6.02790000
-20.23440000 -0.36659900 -6.66080000
-19.92970000 -0.91599900 -6.49980000
-20.33490000 -0.20969900 -6.93690000
26.63240000 10.93540000 -5.84240000
26.22370000 10.96360000 -5.79600000
25.75980000 10.95040000 -5.23790000
25.81760000 10.95410000 -5.38650000
25.55150000 10.97400000 -5.42500000
-21.91610000 3.07880000 -0.78719900
-21.89660000 3.64950000 -0.40029900
-21.92180000 3.57720000 -0.51579900
-21.96950000 3.94110000 -0.73989900
-11.40800000 2.58200000 4.05300000
-11.61130000 2.82290000 4.14410000
-11.46070000 2.79520000 4.04330000
-11.64320000 2.97860000 4.12210000
-11.53650000 2.89750000 4.08580000
-18.92800000 -2.01920000 -5.34850000
-18.72050000 -1.93550000 -5.46440000
-18.83370000 -1.83980000 -5.40240000
-19.02170000 -2.44050000 -5.37670000
-10.63160000 0.46360100 -5.90850000
-10.83130000 0.37820100 -5.95220000
-10.80700000 0.46510100 -6.15100000
-11.49000000 0.36910100 -6.02070000
-11.40280000 0.38890100 -6.20960000
-11.31730000 0.39980100 -6.09270000
-8.16910000 1.16080000 0.10240000
-8.11650000 1.99490000 0.01310000
18.90910000 11.28220000 -4.08770000
18.57480000 11.24540000 -4.30040000
-16.44790000 6.65410000 5.15180000
-16.46910000 6.97230000 5.15080000
-16.63810000 7.74520000 5.07960000
-16.71730000 8.01350000 5.04450000
-17.38010000 -2.70130000 -6.62360000
-17.22320000 -2.57500000 -6.76040000
-17.38930000 -2.54840000 -6.58720000
-17.19980000 -2.85040000 -6.94680000
-17.33870000 -2.51930000 -7.07210000
-17.17410000 -2.48350000 -6.97390000
-10.38190000 6.02260000 -7.02000000
-10.56130000 6.15900000 -7.18640000
-10.63560000 6.33440000 -7.25310000
-17.72040000 10.88600000 7.96100000
-17.88530000 10.91750000 7.93700000
-17.44420000 10.89300000 8.05310000
-12.14800000 1.81350000 -8.16610000
-12.23760000 1.51670000 -8.15470000
-12.65060000 1.65180000 -8.33180000
21.94250000 11.10860000 -4.68540000
20.07790000 11.18180000 -4.43630000
19.97680000 11.18110000 -4.62640000
19.69440000 11.22810000 -4.32410000
-17.33920000 -2.74860000 -6.68670000
-17.19810000 -2.74990000 -6.79140000
-17.27010000 -2.95940000 -6.63310000
-17.23360000 -2.85560000 -6.72920000
-11.19930000 9.45100000 4.55650000
-11.09810000 9.31810000 4.39140000
-11.30330000 9.25450000 4.47990000
-12.03920000 9.31030000 4.93760000
-11.84830000 9.29520000 4.81760000
-9.47430000 1.53450000 2.82390000
-9.58840000 1.75150000 3.02760000
-9.55610000 2.50570000 3.03230000
-9.71230000 3.01900000 3.21410000
-9.67130000 2.60290000 3.17130000
-13.71230000 4.41990000 -8.32910000
-14.25080000 3.21650000 -8.42110000
-14.12030000 3.10540000 -8.40590000
-13.87950000 3.20990000 -8.34960000
-17.47440000 -3.40510000 -6.48250000
-17.34380000 -3.29790000 -6.52000000
-17.49460000 -3.23730000 -6.47360000
-17.29830000 -3.51150000 -6.66420000
-17.23760000 -3.39830000 -6.79150000
-17.22500000 -3.27460000 -6.76610000
-6.95650000 9.80980000 -2.07910000
-7.02390000 9.53980000 -2.09960000
-7.01050000 9.56340000 -1.99930000
-7.55140000 -5.89970000 -3.28620000
-7.23100000 -5.33980000 -2.93350000
-7.11440000 -5.50590000 -3.04090000
18.76710000 10.58310000 -5.56440000
18.36510000 10.59980000 -5.34170000
18.33360000 10.62120000 -5.50880000
16.14520000 10.66460000 -5.30580000
16.14520000 10.65720000 -5.12620000
15.91940000 10.65980000 -5.22120000
-17.75080000 0.31780000 -2.26550000
-17.85950000 0.30570000 -2.51750000
-17.69360000 0.29380000 -2.39100000
-18.42730000 0.31430000 -1.72240000
-18.23620000 0.33060000 -1.72990000
-18.40000000 0.32950000 -1.58510000
-17.51630000 -3.69790000 -6.53080000
-17.32770000 -3.44410000 -6.57500000
-17.48500000 -3.51400000 -6.49620000
-17.38810000 -3.61740000 -6.61610000
-20.00850000 6.48650000 -6.41920000
-19.55920000 6.89700000 -6.79960000
16.86730000 10.74360000 -5.48010000
16.33150000 10.84260000 -5.46240000
16.94660000 10.87720000 -5.50700000
16.71570000 11.05250000 -5.47710000
-20.69620000 10.79700000 6.16490000
-20.75470000 10.72030000 5.93740000
-20.54420000 10.67400000 5.88200000
-20.91030000 10.87580000 6.24280000
-5.55550000 -9.38580000 -2.92820000
-5.52370000 -9.46160000 -2.98330000
-5.70900000 -9.21020000 -2.93220000
-5.94640000 -9.15410000 -3.05090000
-8.45460000 11.33780000 5.65940000
-8.71640000 11.40000000 5.82600000
-3.37780000 8.83020000 -4.59370000
-3.19400000 9.13580000 -4.57870000
-7.55230000 7.46440000 -2.21300000
-7.92060000 7.73100000 -2.34140000
-9.24510000 9.06060000 3.78910000
-9.15630000 9.24410000 3.86230000
-9.01030000 8.92690000 3.30900000
-20.36310000 10.69800000 6.16740000
-20.49990000 10.77870000 6.27670000
-20.54000000 10.76240000 6.14640000
-19.73260000 10.67050000 6.41000000
-19.15570000 10.66690000 6.67110000
-19.28320000 10.71190000 6.83640000
-6.23130000 -8.20920000 -2.78070000
-6.24390000 -8.31320000 -2.82800000
-21.84490000 3.69270000 -3.11070000
-21.79490000 3.39220000 -3.28790000
-21.76210000 3.70740000 -3.45150000
-21.89710000 3.79530000 -2.82270000
-10.87660000 2.67520000 3.68110000
-10.99910000 2.61000000 3.72990000
-10.77580000 2.53210000 3.61460000
-10.86370000 2.48790000 3.68340000
-7.80480000 -8.91870000 -2.31320000
-7.78450000 -8.80460000 -2.23940000
-7.88520000 -8.79080000 -2.35290000
-7.99130000 -8.68590000 -2.86920000
-7.92380000 -8.89630000 -2.80640000
-7.98120000 -8.68020000 -2.66920000
-13.13170000 10.34210000 -8.88020000
-13.15180000 10.63480000 -8.88410000
-13.33650000 10.28000000 -8.93280000
-12.64170000 9.77380000 -8.67080000
-12.78100000 9.89540000 -8.73910000
-13.70770000 5.76010000 -8.70040000
-13.68010000 4.45190000 -8.71780000
-13.77010000 4.84380000 -8.72800000
-8.00550000 7.88610000 -2.61700000
-7.99180000 7.88330000 -2.44350000
-7.97730000 7.82870000 -2.39490000
-8.02810000 7.92220000 -2.63620000
-6.77720000 2.99630000 -2.43250000
-6.86670000 3.02420000 -2.22250000
-6.90850000 3.05830000 -2.39390000
-12.57360000 0.24240000 -0.42890000
-12.29900000 0.24900000 -0.40340000
-12.35280000 0.24190000 -0.26270000
-12.98320000 0.24060000 0.36220000
-13.11660000 0.23240000 0.13270000
-12.92850000 0.24130000 0.06190000
-14.28510000 9.82390000 10.13630000
-14.34110000 9.66770000 10.06910000
-14.25440000 10.15520000 10.51260000
-14.23310000 10.29260000 10.71400000
-14.18730000 10.56190000 10.66790000
-21.54180000 2.59170000 1.57230000
-21.61360000 2.78570000 1.44510000
-21.27270000 4.68470000 2.06830000
-21.25540000 5.03760000 2.08980000
-21.45580000 4.56040000 1.75420000
-19.99600000 9.58800000 3.93530000
-20.30930000 9.63610000 3.66400000
-20.73020000 9.72940000 3.26660000
-20.45720000 9.60880000 3.48170000
-15.52940000 0.82660100 -5.37630000
-15.34930000 0.83440100 -5.22860000
-15.36260000 0.81980100 -5.43490000
-13.79620000 0.83110100 -4.74390000
-13.59400000 0.86310100 -4.66570000
-13.77740000 0.84310100 -4.89050000
-14.11950000 11.00520000 10.63310000
-14.07080000 11.16160000 10.29840000
-14.16910000 10.77240000 10.61160000
-14.19580000 10.62350000 10.49760000
-11.55860000 0.23480000 0.40690000
-11.73210000 0.22950000 0.37790000
-12.75740000 0.27330000 0.47960000
-12.88270000 0.24410000 0.20930000
-12.62070000 0.24580000 0.13590000
-8.14980000 8.00230000 -3.22650000
-8.10850000 8.06850000 -2.95770000
-8.03370000 7.88110000 -2.72840000
-14.87360000 3.32790000 5.18780000
-15.36580000 2.18430000 5.13000000
-15.07050000 2.44940000 5.14330000
-8.82740000 -2.98620000 -0.91270000
-8.75300000 -3.25810000 -0.95540100
-8.39360000 -2.45310000 -1.03160000
-8.64730000 -2.69720000 -0.93550000
-11.48140000 0.25940000 0.46550000
-11.67200000 0.27730000 0.65070000
-11.84260000 0.24020000 0.53880000
-12.34020000 0.26370000 0.69000000
-12.32930000 0.25930000 0.47080000
-12.09310000 0.21930000 0.64860000
-17.88710000 -8.12390000 5.76270000
-17.74820000 -8.31060000 5.95400000
-12.01260000 0.25700100 -3.72820000
-11.84610000 0.32080100 -3.61700000
-11.72540000 0.30810100 -3.55940000
-17.85590000 1.14730000 4.11800000
-17.81070000 1.04770000 3.82800000
-17.96740000 1.05150000 3.83510000
-17.99940000 0.98659900 3.45890000
-18.02480000 0.99409900 3.19610000
-18.12120000 1.00730000 3.23450000
-12.29000000 0.26870000 1.25110000
-12.32240000 0.26600000 1.03090000
-12.17420000 0.27300000 1.08140000
-12.08080000 0.27610000 0.77400000
-11.89010000 0.27380000 0.82770000
-20.20580000 0.99920000 -1.07770000
-20.26000000 1.01440000 -0.74480000
-20.10090000 0.99240000 -0.70840000
-20.82710000 1.01100000 -0.65330000
-20.52060000 1.01690000 -0.64010000
-20.49780000 1.01810000 -0.83440000
-14.80800000 8.84620000 10.72220000
-14.92720000 8.85760000 10.72850000
-9.24410000 0.38250000 0.59240000
-9.51650000 0.37890000 0.80780000
-11.87480000 0.25020100 -3.84990000
-11.62910000 0.24760100 -3.94660000
-11.65620000 0.24040100 -3.72590000
-11.90300000 0.26140100 -3.75180000
-11.66030000 0.24810100 -3.61210000
8.56310000 10.73980000 -4.51360000
8.51350000 10.76710000 -4.84780000
8.32690000 10.77090000 -4.85610000
-12.15610000 0.26260000 1.32980000
-11.98870000 0.24080000 1.41810000
-11.91230000 0.28270000 1.54810000
-11.96190000 0.29580000 1.65440000
-16.12790000 7.82360000 6.06480000
-16.03140000 7.79500000 6.21120000
-16.10730000 8.09340000 6.53200000
-14.56390000 8.93460000 10.36210000
-14.25910000 9.01000000 9.96660000
-14.39390000 9.04730000 10.38390000
-14.42670000 8.93410000 10.12820000
25.83440000 10.57510000 -3.71830000
25.62370000 10.63250000 -3.54490000
25.53240000 10.54200000 -3.80160000
25.63190000 10.52640000 -3.94130000
25.40200000 10.56050000 -3.78400000
25.45910000 10.52290000 -4.03870000
-7.81310000 3.54820000 -2.63570000
-7.66170000 3.45160000 -2.67030000
-7.36760000 3.27620000 -2.64280000
-18.45600000 1.76700000 -7.54550000
-18.52040000 1.60300000 -7.46040000
-18.21970000 1.65840000 -7.63830000
-18.09130000 1.53710000 -7.65080000
-18.32610000 1.54810000 -7.54720000
-18.11210000 1.38970000 -7.59310000
-18.18020000 -3.92010000 5.91610000
-18.02150000 -3.61630000 6.09630000
-18.09960000 -3.59450000 5.78500000
-18.27950000 -4.32790000 6.35020000
-7.93790000 4.14000000 -2.21740000
-7.90990000 4.39270000 -1.97580000
-7.90100000 4.12850000 -1.98990000
-7.88510000 3.98680000 -1.67070000
-7.88970000 4.08860000 -1.86780000
-6.76000000 6.23880000 -2.57920000
-6.90760000 6.23890000 -2.29810000
-7.10560000 6.21140000 -2.59700000
-6.58170000 6.26840000 -2.58500000
-6.62510000 6.24790000 -2.36080000
-20.38430000 2.84820000 -6.04300000
-20.65910000 2.78770000 -5.69560000
-21.00720000 2.72540000 -5.17120000
-20.78610000 2.55160000 -5.49630000
-18.01910000 -3.75760000 6.31380000
-17.91650000 -3.56910000 6.30070000
-7.87600000 3.63660000 -1.39470000
-7.89150000 3.91680000 -1.42360000
-7.89180000 3.54570000 -1.24540000
-7.87920000 3.44110000 -1.33470000
25.71340000 10.59490000 -2.94290000
25.92090000 10.60870000 -3.43450000
25.74870000 10.64040000 -3.53160000
25.88170000 10.59510000 -3.61190000
-7.16570000 6.22010000 -2.26840000
-7.96830000 6.02330000 -2.58290000
-7.88960000 6.14100000 -2.64780000
-7.89020000 6.11220000 -2.40400000
-8.05350000 10.51890000 -4.59060000
-8.18720000 10.28100000 -4.85750000
-8.14520000 10.22400000 -4.77180000
-8.42210000 10.00810000 -5.29030000
-8.51680000 9.76860000 -5.36750000
-8.24980000 9.97310000 -4.94170000
-21.11610000 10.98380000 3.30480000
-22.20010000 11.07000000 1.75910000
-5.66200000 1.11470000 -2.42630000
-5.65380000 0.86970000 -2.47860000
22.29310000 10.53460000 -4.81820000
22.38430000 10.50670000 -4.92690000
22.48310000 10.53480000 -4.68400000
22.14140000 10.50310000 -5.17390000
21.90610000 10.51850000 -5.03580000
21.87620000 10.51750000 -5.25540000
-9.35450000 0.91900100 -5.17430000
-9.33830000 0.80280100 -4.92270000
-6.48600000 -11.78460000 -4.73750000
-6.64690000 -11.69700000 -4.72730000
-6.42120000 -11.66740000 -4.76110000
-6.62550000 -11.78670000 -4.43490000
-6.74320000 -11.72390000 -4.43160000
-6.50730000 -11.81380000 -4.70290000
-6.70160000 10.78560000 -3.19870000
-6.68700000 10.76070000 -2.92390000
-6.81720000 10.75760000 -3.19290000
-6.22040000 10.91520000 -3.23040000
-18.48040000 -5.28460000 -7.82200000
-19.03300000 -5.08330000 -7.96990000
-18.49210000 -5.20270000 -7.82320000
-18.00100000 -5.43340000 -7.61460000
-18.03900000 -5.52400000 -7.63210000
-18.28240000 -5.38050000 -7.75150000
-13.71820000 10.96750000 7.00030000
-13.67740000 10.67890000 6.27430000
-13.67650000 10.55260000 6.08930000
-13.73610000 10.46040000 6.28560000
10.01850000 11.07730000 -4.98710000
9.87160000 10.94480000 -4.99990000
9.76050000 11.13700000 -4.96590000
10.38250000 10.90660000 -5.01380000
10.07540000 10.82700000 -4.99200000
21.02110000 10.57270000 -4.61320000
20.76220000 10.61150000 -4.49970000
20.83610000 10.57710000 -4.70340000
21.37000000 10.53600000 -5.34050000
21.23260000 10.53630000 -5.22570000
21.11820000 10.50720000 -5.37090000
-18.38540000 2.55970000 6.60400000
-18.37380000 2.68820000 6.32100000
-18.52050000 2.46250000 6.28880000
-18.11120000 3.05170000 6.23640000
-18.19050000 2.96140000 6.24100000
-18.10610000 2.95050000 6.39770000
-18.26140000 -1.43700000 6.39570000
-20.05800000 0.37980100 -4.99050000
-19.99430000 0.39820100 -4.88390000
-20.11560000 0.39570100 -4.93320000
-20.46270000 0.58570100 -5.24640000
-20.45270000 0.58510100 -5.39710000
-20.36310000 0.56140100 -5.34110000
-21.70600000 1.71710000 -4.16330000
-21.59340000 1.40220000 -4.36240000
-21.73380000 1.47220000 -4.02090000
-21.50210000 1.67520000 -4.63030000
-21.52570000 1.47220000 -4.53680000
-22.53570000 9.27020000 1.18900000
-22.61630000 9.28920000 0.93960100
-22.73620000 9.32960000 0.65150200
-15.54080000 9.07060000 10.84990000
-15.46120000 9.10600000 10.63580000
17.58220000 10.88590000 -2.88540000
17.61390000 10.91390000 -2.77920000
17.47060000 10.89150000 -2.83030000
17.68680000 10.91860000 -2.88050000
17.77280000 10.86810000 -2.99560000
17.88550000 10.86020000 -2.86850000
-18.67800000 -0.93040100 6.14590000
26.61400000 10.51120000 -2.65050000
27.27800000 10.46760000 -2.56770000
27.04030000 10.48030000 -2.48620000
28.34540000 10.44730000 -2.59900000
28.32690000 10.42620000 -2.41590000
28.11530000 10.44170000 -2.43150000
-18.81210000 1.00250000 2.11650000
-19.02700000 1.00250000 2.16430000
-18.77240000 0.99500000 2.44480000
-18.42930000 0.94960000 1.46610000
-20.54430000 1.05540000 -4.80160000
-20.39090000 1.04090000 -4.93520000
-20.39360000 1.05180000 -5.06980000
-20.33770000 0.99790100 -4.68380000
-20.09330000 0.96040100 -4.39590000
-20.07130000 0.95870100 -4.55070000
-14.71720000 9.05960000 -8.71890000
-14.57890000 9.01810000 -8.69800000
-14.70880000 9.22510000 -8.79090000
-14.86550000 9.26930000 -8.82300000
-12.61470000 0.42950100 -7.02450000
-13.06950000 0.42890100 -7.06980000
-12.71810000 0.44500100 -7.09430000
-13.57070000 0.41200100 -7.23060000
-13.61940000 0.40790100 -7.02500000
-17.66620000 3.53450000 5.40470000
-17.61180000 3.47770000 5.57510000
-17.49270000 3.50760000 5.50880000
-17.69980000 3.61090000 5.22710000
-18.32430000 9.15340000 -7.97220000
-18.63890000 8.93970000 -7.64850000
-18.53660000 1.00370000 3.32080000
-18.49170000 1.07720000 3.51390000
-18.31400000 1.05350000 3.58870000
-18.11550000 0.99350000 3.03200000
-12.10610000 0.58670100 -7.37850000
-12.33840000 0.53770100 -7.33480000
-12.47350000 0.53510100 -7.40720000
-12.90420000 0.43780100 -7.17680000
-19.54830000 0.36490000 0.94570000
-19.59870000 0.39210000 0.87790000
-19.47630000 0.35600000 0.83700000
-19.24230000 0.35390000 1.17090000
-19.46910000 0.33030000 1.16320000
-19.39850000 0.33450000 0.94530000
-17.57340000 3.60560000 5.29000000
-13.52770000 3.16260000 4.98030000
-13.40190000 3.09550000 4.95420000
-13.54930000 3.01910000 4.93200000
-13.82210000 2.90550000 4.98310000
-13.61950000 3.07710000 4.96550000
-15.83260000 -2.16350000 5.27040000
-15.59960000 -1.91390000 5.11620000
-15.74070000 -1.90210000 5.30000000
-15.85390000 -1.75380000 5.47120000
-19.79310000 0.37890000 -0.27380000
-19.82060000 0.37910000 -0.45560000
-19.73420000 0.39260000 -0.45970000
-19.54150000 0.37300000 0.21660000
-19.71660000 0.39770000 0.13660000
-12.17250000 0.42770100 -6.90800000
-12.13790000 0.44660100 -6.76000000
-12.31480000 0.45250100 -6.74770000
-12.86000000 0.40160100 -6.90640000
-12.74780000 0.38860100 -6.64600000
-12.90400000 0.39760100 -6.70510000
-16.67430000 -6.27990000 6.01860000
-16.42830000 -6.34140000 5.79730000
-16.78420000 -6.14820000 6.10030000
-16.40390000 -6.68170000 5.89010000
-16.59710000 -6.78010000 5.78550000
-16.45830000 -6.58900000 5.80030000
-8.33020000 8.48360000 -2.64980000
-8.38390000 8.32390000 -2.94410000
-20.73580000 -11.46010000 -10.53420000
-19.88310000 -11.65820000 -10.32000000
-21.13220000 1.57860000 -5.43090000
-21.18580000 1.21800000 -5.11640000
-21.20470000 1.45420000 -5.27600000
-13.19240000 0.37700100 -6.01250000
-13.15780000 0.40870100 -6.19440000
-13.11300000 0.39280100 -6.14010000
-13.31560000 0.38080100 -6.52360000
-13.50450000 0.38770100 -6.27380000
-18.78710000 0.32900000 -0.37780000
-18.83070000 0.36020000 -0.22010000
-18.89390000 0.36150000 -0.46100000
-18.40080000 0.31230000 -0.03360000
-18.64320000 0.30990000 -0.09940000
-18.52250000 0.28790000 -0.18170000
-5.06090000 -12.36430000 -2.49670000
-5.18050000 -12.42450000 -2.28620000
-5.19810000 -12.28690000 -2.89340000
-8.85280000 2.52350000 -4.32330000
-9.03750000 2.49420000 -4.68810000
-9.54870000 2.32880000 -5.47610000
-9.32160000 2.45270000 -5.17170000
-20.50530000 -11.69560000 -10.61090000
-20.48710000 -11.95130000 -10.73540000
-20.77030000 -11.75210000 -10.72780000
-21.11370000 -12.00300000 -10.91570000
-12.64270000 0.36500100 -6.55580000
-12.54210000 0.41580100 -6.82800000
-12.49850000 0.41280100 -6.60800000
-13.00590000 0.42930100 -6.25670000
-12.91000000 0.39360100 -6.45530000
-12.84540000 0.39580100 -6.27630000
17.00390000 11.42200000 -2.57070000
17.31150000 11.39650000 -2.82470000
16.67660000 11.41540000 -2.64410000
16.97380000 11.40760000 -2.96620000
-8.98880000 2.93780000 -4.66930000
-8.88660000 2.97350000 -4.46810000
-8.91510000 3.18430000 -4.55530000
-8.69670000 3.50300000 -4.08590000
-20.22420000 10.76670000 -7.93940000
-5.11050000 -12.43970000 -2.06690000
-5.00700000 -12.44590000 -2.04580000
-5.26910000 -12.30380000 -2.37010000
-3.96860000 8.62400000 -4.61840000
-4.24100000 8.99000000 -4.58990000
-3.72710000 9.00280000 -4.60500000
-4.60170000 8.23780000 -4.48010000
-4.52410000 8.46360000 -4.54090000
-4.54580000 8.30090000 -4.56220000
17.37800000 10.90410000 -1.98400000
17.57080000 10.91610000 -1.89250000
17.13540000 10.88440000 -1.87620000
17.60510000 10.90610000 -2.02520000
-16.40860000 1.78550000 -8.67580000
-16.39320000 2.34180000 -8.69890000
-16.85140000 1.97280000 -8.59560000
-17.16150000 2.23080000 -8.51910000
-16.70800000 2.31420000 -8.64270000
-20.05150000 0.52720000 2.65930000
-20.09260000 0.58800000 2.83340000
-20.19080000 0.55890000 2.56110000
-19.93530000 0.50420000 2.82190000
-19.80540000 0.50750000 2.95860000
-19.92320000 0.57599900 3.04970000
-3.98150000 -12.37440000 -4.22250000
-3.79530000 -12.41000000 -4.10000000
-3.94440000 -12.44670000 -3.92320000
-3.93190000 -12.43170000 -3.57930000
-3.77480000 -12.42210000 -3.67690000
-3.80100000 -12.44270000 -3.36580000
-16.41290000 10.80780000 6.85240000
-16.32450000 10.75160000 7.11180000
-16.24330000 10.63460000 7.75890000
-16.25030000 10.73030000 7.77120000
-16.23950000 10.74010000 7.96290000
15.62850000 10.91080000 -1.82550000
15.56520000 10.92230000 -1.88230000
15.99560000 10.91430000 -1.93250000
16.85060000 11.07140000 -1.81560000
-16.28120000 10.43460000 7.60980000
-16.24400000 10.58670000 7.92240000
-16.16060000 9.75190000 8.19780000
-16.19730000 10.05060000 8.13940000
-16.18330000 10.11580000 8.25540000
-4.27350000 -12.47120000 -3.12870000
-4.17680000 -12.41980000 -3.33580000
-4.12250000 -12.49180000 -3.15200000
-4.66900000 -12.44040000 -3.68820000
-4.41680000 -12.41170000 -3.78600000
-4.46880000 -12.39970000 -3.58140000
-4.53400000 8.50870000 -4.43320000
-4.60630000 8.33030000 -4.31870000
-4.58370000 8.49170000 -4.27870000
-4.60740000 8.32920000 -4.12170000
-4.56590000 8.43900000 -4.06970000
-16.22010000 1.26180000 -8.55930000
-15.91850000 1.23520000 -8.58520000
-15.71430000 1.08360000 -8.53020000
-15.98660000 0.91520100 -8.41190000
-17.41230000 0.97379900 3.11440000
-17.56320000 0.96260000 2.86520000
-17.65960000 0.99100000 3.05870000
-18.75510000 0.99440000 2.06930000
-18.53520000 0.95970000 1.71940000
14.98390000 10.95790000 -1.80040000
14.79170000 10.92720000 -1.79900000
15.44590000 10.93880000 -1.80830000
-4.49420000 -12.47310000 -3.29710000
-4.61620000 -12.42260000 -3.56710000
-4.44650000 -12.43520000 -3.39670000
