4.43487000 -1.57168000 5.92958000
4.76656000 -1.57093000 5.83712000
5.09183000 -1.57216000 5.71980000
5.41020000 -1.57526000 5.58362000
5.45525000 -1.49168000 5.68541000
4.72583000 -1.60335000 5.70540000
5.04158000 -1.60356000 5.58996000
5.35020000 -1.60248000 5.45463000
5.64893000 -1.59992000 5.30334000
5.71760000 -1.57468000 5.42873000
4.98755000 -1.62322000 5.45217000
5.28554000 -1.62314000 5.31887000
5.57627000 -1.61826000 5.17260000
5.86287000 -1.62048000 5.01746000
5.94134000 -1.59263000 5.13992000
5.21687000 -1.64946000 5.17508000
5.49889000 -1.64314000 5.03413000
5.77745000 -1.64279000 4.88393000
6.05082000 -1.63411000 4.72079000
6.14376000 -1.60644000 4.84878000
5.41580000 -1.67390000 4.87797000
5.68512000 -1.67315000 4.73275000
5.94911000 -1.66972000 4.57449000
6.20563000 -1.66451000 4.40098000
6.31671000 -1.63124000 4.54193000
5.59188000 -1.70220000 4.57017000
5.84552000 -1.70020000 4.41708000
6.09246000 -1.70051000 4.25012000
6.32978000 -1.69159000 4.06708000
6.45301000 -1.65901000 4.20969000
5.74448000 -1.73302000 4.25474000
5.98019000 -1.72911000 4.09352000
6.20728000 -1.72908000 3.91998000
6.42188000 -1.71698000 3.73075000
6.55701000 -1.68193000 3.86754000
5.86876000 -1.76509000 3.93585000
6.08328000 -1.75748000 3.76895000
6.28539000 -1.75204000 3.58996000
6.47254000 -1.75154000 3.39674000
6.62190000 -1.71284000 3.52536000
5.95640000 -1.79145000 3.61813000
6.14527000 -1.78850000 3.44823000
6.31874000 -1.78383000 3.26531000
6.47540000 -1.78091000 3.06846000
6.63866000 -1.74115000 3.18749000
6.00180000 -1.82628000 3.30640000
6.16462000 -1.82192000 3.13291000
6.31404000 -1.81817000 2.94597000
6.45503000 -1.81740000 2.74938000
6.62168000 -1.77736000 2.86112000
6.01436000 -1.85241000 2.99892000
6.15902000 -1.84735000 2.82291000
6.29397000 -1.84091000 2.63677000
6.42155000 -1.83709000 2.44392000
6.58778000 -1.81007000 2.54611000
6.01657000 -1.86936000 2.70478000
6.14840000 -1.86419000 2.53056000
6.27139000 -1.86086000 2.34709000
6.38361000 -1.85603000 2.15743000
6.54122000 -1.83158000 2.24563000
6.01774000 -1.87914000 2.43194000
6.13677000 -1.87429000 2.25715000
6.24204000 -1.87521000 2.07479000
6.33454000 -1.86906000 1.88825000
6.48585000 -1.85218000 1.96380000
6.01243000 -1.88370000 2.17272000
6.11096000 -1.87883000 1.99709000
6.19571000 -1.87919000 1.81639000
6.27500000 -1.87523000 1.63410000
6.41941000 -1.86691000 1.69944000
5.99054000 -1.87883000 1.92615000
6.06954000 -1.87420000 1.74984000
6.14595000 -1.88260000 1.57215000
6.21634000 -1.87914000 1.39077000
6.35213000 -1.87349000 1.44794000
5.94857000 -1.89633000 1.68564000
6.02756000 -1.91540000 1.51335000
6.10427000 -1.94347000 1.34257000
6.16305000 -1.95792000 1.16490000
6.28339000 -1.88924000 1.20654000
5.94623000 -2.01974000 1.47469000
6.00244000 -2.02442000 1.30075000
6.04756000 -2.02807000 1.12613000
6.08167000 -2.03660000 0.95110100
6.20778000 -1.97650000 0.98478800
5.87672000 -2.04726000 1.25121000
5.91714000 -2.04839000 1.08344000
5.94606000 -2.05114000 0.91506200
5.96618000 -2.05311000 0.74644400
6.10543000 -2.04119000 0.77519100
5.78639000 -2.03035000 1.04171000
5.81584000 -2.01558000 0.88181400
5.83053000 -2.01890000 0.71927400
5.84934000 -2.00019000 0.55819300
5.98044000 -2.05568000 0.57711500
5.69311000 -1.95593000 0.85372900
5.71024000 -1.94771000 0.69890500
5.72242000 -1.93642000 0.54392700
5.72902000 -1.93442000 0.38745300
5.85699000 -1.99714000 0.39492300
5.56727000 -1.95204000 0.67736100
5.57833000 -1.94525000 0.53024300
5.58405000 -1.94579000 0.38118900
5.58388000 -1.94583000 0.23182000
5.72904000 -1.95312000 0.23098800
5.42875000 -1.94833000 0.51802600
5.43371000 -1.94844000 0.37672600
5.43159000 -1.94678000 0.23527900
5.42264000 -1.95328000 0.09382910
5.57764000 -1.95185000 0.08201670
5.27348000 -1.95098000 0.37399600
5.27084000 -1.95846000 0.24157300
5.26108000 -1.96057000 0.10834100
5.24466000 -1.96410000 -0.02468630
5.40716000 -1.95967000 -0.04755810
5.10361000 -1.95475000 0.25073200
5.09382000 -1.95428000 0.12578800
5.07753000 -1.96216000 0.00121135
5.05611000 -1.96519000 -0.12188100
5.22223000 -1.96301000 -0.15604900
4.92543000 -1.95732000 0.14741800
4.91012000 -1.96005000 0.03011500
4.88934000 -1.95850000 -0.08638680
4.86191000 -1.96134000 -0.20062000
5.02732000 -1.96317000 -0.24333600
4.74692000 -1.94318000 0.06089580
4.72720000 -1.94230000 -0.04972190
4.70057000 -1.94894000 -0.15869600
4.66777000 -1.95789000 -0.26521800
4.82807000 -1.96697000 -0.31361100
4.57135000 -1.93599000 -0.01211090
4.54627000 -1.93901000 -0.11629200
4.51416000 -1.95209000 -0.21746900
4.47516000 -1.95574000 -0.31626800
4.62818000 -1.95607000 -0.36917700
4.40065000 -1.93088000 -0.07589710
4.37033000 -1.93927000 -0.17389100
4.33291000 -1.94494000 -0.26942700
4.28861000 -1.94749000 -0.36204100
4.42942000 -1.95996000 -0.41194400
4.23576000 -1.92956000 -0.13451300
4.19970000 -1.93595000 -0.22797200
4.15687000 -1.94401000 -0.31789000
4.10610000 -1.95016000 -0.40386200
4.23674000 -1.95601000 -0.45041100
4.07582000 -1.93667000 -0.19010000
4.03455000 -1.93646000 -0.27950100
3.98490000 -1.94613000 -0.36427200
3.92925000 -1.95492000 -0.44560100
4.04833000 -1.95588000 -0.48546800
3.92038000 -1.93075000 -0.24534100
3.87253000 -1.93665000 -0.33067700
3.81976000 -1.94025000 -0.41410500
3.76226000 -1.94386000 -0.49554400
3.86952000 -1.95819000 -0.52547800
3.76671000 -1.93187000 -0.30068600
3.71553000 -1.92959000 -0.38563200
3.66042000 -1.93644000 -0.46954100
3.60219000 -1.93751000 -0.55414600
3.70205000 -1.94830000 -0.57701400
3.61745000 -1.92974000 -0.36037000
3.56311000 -1.93443000 -0.44582700
3.50635000 -1.93502000 -0.53305300
3.44572000 -1.93905000 -0.62237300
3.54014000 -1.94178000 -0.63909800
3.47116000 -1.93055000 -0.42422200
3.41480000 -1.93066000 -0.51345800
3.35440000 -1.93384000 -0.60704600
3.29027000 -1.94554000 -0.70529700
3.38145000 -1.94695000 -0.71590700
3.32601000 -1.92780000 -0.49498400
3.26591000 -1.92933000 -0.59152400
3.20113000 -1.94765000 -0.69315600
3.13198000 -1.95537000 -0.80613100
3.22230000 -1.95228000 -0.81362700
3.18048000 -1.93041000 -0.57318100
3.11451000 -1.94092000 -0.67922000
3.04316000 -1.95650000 -0.79474500
2.95663000 -1.94699000 -0.77876100
2.87722000 -1.95043000 -0.90926300
2.96680000 -1.95792000 -0.92449400
3.05820000 -1.95816000 -0.93329900
3.02988000 -1.93807000 -0.66118500
2.94629000 -1.93178000 -0.64175300
2.87058000 -1.94262000 -0.76009000
3.09680000 -1.92540000 -0.55417500
3.01444000 -1.92110000 -0.53363900
2.93432000 -1.92333000 -0.50997900
2.86460000 -1.93927000 -0.61811100
3.15707000 -1.92064000 -0.45488000
3.07558000 -1.92271000 -0.43270000
2.99682000 -1.91599000 -0.40880700
3.13154000 -1.91651000 -0.33757100
3.05327000 -1.91178000 -0.31286800
2.97680000 -1.91403000 -0.28641100
2.92098000 -1.91514000 -0.38170200
2.85714000 -1.91988000 -0.48315800
2.78203000 -1.91853000 -0.45336800
2.70823000 -1.93140000 -0.56030800
2.78525000 -1.93989000 -0.59061800
2.84707000 -1.91350000 -0.35264900
2.77704000 -1.91403000 -0.32023800
2.71038000 -1.91894000 -0.42008100
2.90309000 -1.91332000 -0.25818800
2.83372000 -1.91290000 -0.22692500
2.95388000 -1.91387000 -0.16700600
2.88358000 -1.91256000 -0.13738900
2.81489000 -1.91046000 -0.10669300
2.76602000 -1.91397000 -0.19388200
2.70931000 -1.91605000 -0.28525600
2.64592000 -1.91320000 -0.24626400
2.57810000 -1.92135000 -0.34097000
2.64292000 -1.92248000 -0.38202400
2.70205000 -1.91031000 -0.15789300
2.74935000 -1.91586000 -0.07372590
2.68761000 -1.91230000 -0.03796000
2.64248000 -1.91347000 -0.11870100
2.58647000 -1.91863000 -0.20477300
2.51809000 -1.92496000 -0.29672500
2.58724000 -1.91396000 -0.07687050
2.53244000 -1.91232000 -0.16012500
2.46428000 -1.91600000 -0.24912400
2.41481000 -1.91016000 -0.19845000
2.33017000 -1.91676000 -0.29025400
2.38028000 -1.91634000 -0.34513600
2.43552000 -1.92701000 -0.39589800
2.48242000 -1.91129000 -0.11286000
2.53444000 -1.91407000 -0.03393860
2.48305000 -1.91435000 0.00982814
2.43535000 -1.90944000 -0.06420780
2.36949000 -1.91200000 -0.14578100
2.32927000 -1.91764000 -0.09191490
2.24358000 -1.91966000 -0.17610900
2.28430000 -1.91700000 -0.23410900
2.39112000 -1.91799000 -0.01532690
2.43303000 -1.91386000 0.05365990
2.38426000 -1.91876000 0.09692960
2.35205000 -1.92112000 0.03446230
2.29729000 -1.91500000 -0.03596300
2.26659000 -1.91858000 0.01782050
2.18744000 -1.92132000 -0.05450530
2.21264000 -1.92076000 -0.11560100
2.30933000 -1.92368000 0.08072150
2.32885000 -1.91838000 0.13585600
2.25486000 -1.92422000 0.16437600
2.24674000 -1.92525000 0.11391200
2.15106000 -1.92847000 0.17665500
2.14922000 -1.92721000 0.12455400
2.00855000 -1.93861000 0.16899700
2.01212000 -1.93508000 0.10948800
1.84597000 -1.94066000 0.15147000
1.85227000 -1.93611000 0.08073920
1.86329000 -1.93244000 0.00938705
1.68181000 -1.93760000 0.04679860
1.69580000 -1.94586000 -0.03558980
1.71611000 -1.94987000 -0.11778800
1.87935000 -1.93055000 -0.06247940
1.74127000 -1.94861000 -0.20058300
1.90081000 -1.93038000 -0.13538300
1.77185000 -1.94388000 -0.28332800
1.92718000 -1.92969000 -0.21001100
2.07003000 -1.92635000 -0.13255400
1.95922000 -1.92783000 -0.28336500
2.09824000 -1.91985000 -0.20027700
1.99989000 -1.93086000 -0.35465400
2.13298000 -1.91534000 -0.26536000
2.04664000 -1.93523000 -0.42478600
2.17533000 -1.92232000 -0.32848200
2.09947000 -1.93400000 -0.49203200
2.22425000 -1.92346000 -0.38886200
2.15754000 -1.93668000 -0.55488700
2.27757000 -1.92498000 -0.44718000
2.22103000 -1.93777000 -0.61463000
2.33611000 -1.93205000 -0.50184200
2.29024000 -1.93691000 -0.67055800
2.40140000 -1.93366000 -0.55271200
2.49750000 -1.92072000 -0.44308500
2.47139000 -1.92712000 -0.59892900
2.56417000 -1.92267000 -0.48621000
2.54571000 -1.93340000 -0.64031000
2.63408000 -1.92292000 -0.52602800
2.62297000 -1.93073000 -0.67776200
2.44477000 -1.93904000 -0.76465900
2.52646000 -1.94324000 -0.80456000
2.61131000 -1.94186000 -0.83912900
2.70331000 -1.93034000 -0.71001300
2.69836000 -1.94175000 -0.86819100
2.78585000 -1.93981000 -0.73739600
2.78722000 -1.94729000 -0.89126200
2.60288000 -1.95849000 -1.01029000
2.69682000 -1.96048000 -1.03573000
2.79165000 -1.95779000 -1.05524000
2.60281000 -1.96401000 -1.19396000
2.70311000 -1.96877000 -1.21582000
2.80267000 -1.97478000 -1.23099000
2.88573000 -1.96359000 -1.06998000
2.90324000 -1.97634000 -1.23899000
2.98098000 -1.96404000 -1.07754000
3.00348000 -1.97302000 -1.23922000
3.07643000 -1.96818000 -1.07761000
3.15042000 -1.96376000 -0.93606800
3.17145000 -1.96793000 -1.07165000
3.24311000 -1.96755000 -0.93468100
3.31375000 -1.95390000 -0.81838200
3.33644000 -1.96283000 -0.93110800
3.40674000 -1.95435000 -0.82238600
3.47471000 -1.95396000 -0.72649800
3.50160000 -1.96036000 -0.82744700
3.57123000 -1.95468000 -0.73998400
3.63860000 -1.94475000 -0.65840000
3.67216000 -1.96235000 -0.75741500
3.74206000 -1.95494000 -0.68195600
3.80790000 -1.95755000 -0.60485500
3.85361000 -1.96093000 -0.71372300
3.92285000 -1.95448000 -0.64126400
3.98683000 -1.96062000 -0.56413500
4.04829000 -1.96216000 -0.68791800
4.11484000 -1.95742000 -0.61246900
4.17782000 -1.96116000 -0.53329500
4.25372000 -1.97100000 -0.67070500
4.31828000 -1.96865000 -0.59013700
4.37753000 -1.96137000 -0.50438500
4.46875000 -1.97992000 -0.65674000
4.52770000 -1.97042000 -0.56520700
4.58082000 -1.96407000 -0.46867300
4.68488000 -1.97346000 -0.63349900
4.73872000 -1.97340000 -0.53005200
4.78696000 -1.96629000 -0.42390500
4.90010000 -1.97704000 -0.59496600
4.94895000 -1.97093000 -0.48105200
4.99144000 -1.96929000 -0.36323200
5.11290000 -1.97970000 -0.53852800
5.15637000 -1.97097000 -0.41366300
5.19305000 -1.96993000 -0.28591300
5.32065000 -1.96542000 -0.46380500
5.35706000 -1.96488000 -0.32701800
5.38569000 -1.96525000 -0.18823500
5.51859000 -1.95167000 -0.36628800
5.54538000 -1.95515000 -0.21766000
5.56458000 -1.95236000 -0.06806940
5.70227000 -1.94746000 -0.24561300
5.71781000 -1.95249000 -0.08640890
5.72589000 -1.95568000 0.07253480
5.85779000 -1.99884000 -0.10153700
5.86678000 -1.99223000 0.06558760
5.86416000 -1.99246000 0.23188000
5.99479000 -2.05610000 0.06152570
5.99490000 -2.05645000 0.23464200
5.98964000 -2.05518000 0.40640000
6.13886000 -2.05839000 0.23874300
6.13297000 -2.05087000 0.41927500
6.12283000 -2.04912000 0.59837400
6.26717000 -1.99883000 0.43017100
6.25488000 -1.99230000 0.61676100
6.23660000 -1.98515000 0.80182300
6.39534000 -1.92287000 0.63551700
6.37008000 -1.90783000 0.82766600
6.33719000 -1.90639000 1.01929000
6.52794000 -1.86899000 0.85933000
6.48503000 -1.86584000 1.05910000
6.42523000 -1.86927000 1.25624000
6.64827000 -1.85592000 1.10092000
6.58105000 -1.85982000 1.30631000
6.50221000 -1.86330000 1.50591000
6.74841000 -1.84253000 1.35548000
6.66613000 -1.84531000 1.56439000
6.57902000 -1.85069000 1.76679000
6.84320000 -1.81727000 1.62246000
6.75259000 -1.82363000 1.83546000
6.65149000 -1.82664000 2.04316000
6.93511000 -1.79410000 1.90458000
6.82920000 -1.79824000 2.12409000
6.71312000 -1.80372000 2.33755000
7.01191000 -1.76130000 2.20140000
6.89123000 -1.76559000 2.42701000
6.76075000 -1.77316000 2.64722000
7.07231000 -1.72595000 2.51130000
6.93641000 -1.73013000 2.74286000
6.79243000 -1.73943000 2.96856000
7.11424000 -1.69167000 2.83365000
6.96353000 -1.69944000 3.07077000
6.80116000 -1.70573000 3.30257000
7.13260000 -1.65675000 3.16965000
6.96004000 -1.66629000 3.41366000
6.76880000 -1.67563000 3.64983000
7.11594000 -1.62771000 3.52173000
6.91338000 -1.63731000 3.76842000
6.69016000 -1.64723000 3.99938000
7.04586000 -1.59351000 3.88123000
6.81539000 -1.60871000 4.12249000
6.57150000 -1.62586000 4.34231000
6.92661000 -1.57333000 4.23135000
6.67901000 -1.59476000 4.45935000
6.41717000 -1.60166000 4.66439000
6.77658000 -1.55809000 4.56503000
6.50856000 -1.57474000 4.77495000
6.22869000 -1.58353000 4.96519000
6.59135000 -1.53851000 4.87827000
6.30718000 -1.55346000 5.07531000
6.01486000 -1.56149000 5.25650000
6.36978000 -1.47838000 5.16668000
6.07416000 -1.48768000 5.35489000
5.76962000 -1.49163000 5.52823000
6.10473000 -1.36265000 5.40956000
5.79883000 -1.36419000 5.58846000
5.47881000 -1.35924000 5.74185000
5.82441000 -1.22754000 5.64548000
5.50036000 -1.21896000 5.79554000
5.17241000 -1.21575000 5.93102000
5.51618000 -1.07597000 5.83779000
5.18615000 -1.07653000 5.97301000
4.84650000 -1.08400000 6.08884000
5.19451000 -0.94336000 6.00715000
4.85448000 -0.95418300 6.12723000
4.50776000 -0.96273400 6.22605000
4.85499000 -0.83055200 6.14148000
4.51086000 -0.84132100 6.24074000
4.15918000 -0.84066900 6.30333000
4.51781000 -0.73130200 6.26926000
4.16764000 -0.73379800 6.33455000
3.81323000 -0.72563100 6.37019000
4.18296000 -0.67510500 6.41932000
3.82408000 -0.65927700 6.44814000
3.46454000 -0.64399300 6.44211000
3.83444000 -0.64909600 6.55152000
3.46804000 -0.63770700 6.53807000
3.10575000 -0.62024200 6.50093000
3.47170000 -0.62370900 6.63196000
3.10324000 -0.61037600 6.59406000
2.73940000 -0.59206200 6.54398000
3.09996000 -0.60023000 6.69009000
2.72962000 -0.57897100 6.64461000
2.36459000 -0.56201400 6.57365000
2.71985000 -0.57861200 6.74234000
2.34878000 -0.55777800 6.67062000
1.98391000 -0.54313900 6.57582000
2.33414000 -0.55315100 6.76276000
1.96365000 -0.53356800 6.66761000
1.59801000 -0.52300200 6.56072000
1.94384000 -0.53882100 6.75307000
1.57423000 -0.52449200 6.64297000
1.21083000 -0.51732700 6.51729000
1.55130000 -0.52304900 6.72148000
1.18390000 -0.51915600 6.59428000
0.82363200 -0.51489400 6.44996000
1.15782000 -0.51766700 6.66865000
0.79343700 -0.51696700 6.52319000
0.43438900 -0.51643000 6.36366000
0.76501300 -0.51319900 6.59275000
0.40068300 -0.51810300 6.43444000
0.05001580 -0.49071500 6.24645000
0.38422000 -0.45791000 6.47361000
0.02767730 -0.44503600 6.29264000
-0.31402400 -0.41484500 6.08899000
0.02563250 -0.37569700 6.30473000
-0.31408800 -0.34719600 6.09959000
-0.31402400 -0.41484500 6.08899000
-0.31408800 -0.34719600 6.09959000
-0.64573600 -0.29855200 5.88668000
-0.64462800 -0.36714700 5.87391000
-0.28927000 -0.29052200 6.06712000
-0.61453100 -0.24171400 5.85035000
-0.92518300 -0.20434600 5.61294000
-0.57008300 -0.24077800 5.78394000
-0.87892300 -0.20162800 5.55083000
-1.17863000 -0.17459000 5.30102000
-0.83019800 -0.21124700 5.48459000
-1.12891000 -0.18231900 5.24056000
-1.42095000 -0.16584000 4.98445000
-1.07681000 -0.19896500 5.17732000
-1.36673000 -0.17797400 4.92588000
-1.64741000 -0.16093400 4.66229000
-1.30779000 -0.19826600 4.86230000
-1.58408000 -0.17956600 4.60112000
-1.84237000 -0.18223200 4.32061000
-1.51248000 -0.20658500 4.53249000
-1.76507000 -0.19577300 4.25456000
-2.00155000 -0.20229600 3.96365000
-1.67860000 -0.21254900 4.18095000
-1.91489000 -0.22710800 3.89766000
-2.13786000 -0.22157700 3.60327000
-1.82279000 -0.25713400 3.82838000
-2.04391000 -0.25254500 3.54077000
-2.25242000 -0.24882700 3.24344000
-1.94658000 -0.28878000 3.47797000
-2.15096000 -0.29257600 3.18635000
-2.32894000 -0.29146900 2.87853000
-2.04790000 -0.33866500 3.12899000
-2.22420000 -0.33739800 2.82816000
-2.37965000 -0.33600300 2.51622000
-2.17916000 -0.45512100 2.81098000
-2.34037000 -0.45134500 2.50358000
-2.46666000 -0.44233100 2.17918000
-2.31507000 -0.57680600 2.49941000
-2.44060000 -0.56598200 2.17511000
-2.55925000 -0.55871000 1.84755000
-2.42048000 -0.70171400 2.17515000
-2.53483000 -0.68975800 1.84477000
-2.62972000 -0.67657800 1.50774000
-2.51402000 -0.82924200 1.84062000
-2.60431000 -0.80964300 1.50237000
-2.67260000 -0.80200700 1.15975000
-2.57721000 -0.94933700 1.49433000
-2.65666000 -0.94260000 1.15667000
-2.70149000 -0.94382100 0.81279700
-2.63461000 -1.07135000 1.15280000
-2.68820000 -1.07053000 0.81056000
-2.69328000 -1.06634000 0.46392100
-2.66743000 -1.18393000 0.80702600
-2.69226000 -1.18240000 0.45910200
-2.67591000 -1.17392000 0.11182900
-2.63641000 -1.27897000 0.45295200
-2.63811000 -1.28061000 0.10644100
-2.59914000 -1.25528000 -0.23163200
-2.52715000 -1.30971000 0.10769900
-2.49955000 -1.29641000 -0.22454800
-2.45760000 -1.29671000 -0.55262600
-2.39065000 -1.33401000 -0.21601100
-2.34636000 -1.32377000 -0.53830300
-2.29567000 -1.32245000 -0.85775600
-2.22489000 -1.36051000 -0.52325900
-2.17800000 -1.35324000 -0.83847300
-2.12537000 -1.36087000 -1.15136000
-2.04598000 -1.39972000 -0.81684500
-1.99490000 -1.40675000 -1.12214000
-1.92401000 -1.39955000 -1.42018000
-1.83873000 -1.43814000 -1.08951000
-1.76929000 -1.43623000 -1.37863000
-1.67723000 -1.42475000 -1.65630000
-1.59265000 -1.47835000 -1.33347000
-1.50544000 -1.47564000 -1.60054000
-1.40250000 -1.46517000 -1.85585000
-1.31994000 -1.50973000 -1.54267000
-1.22612000 -1.50707000 -1.78515000
-1.12572000 -1.52204000 -2.01878000
-1.04820000 -1.56279000 -1.71751000
-0.95704400 -1.56906000 -1.93723000
-0.85404100 -1.55776000 -2.14852000
-0.78912200 -1.60508000 -1.86197000
-0.70918000 -1.61309000 -2.06107000
-0.60810200 -1.59637000 -2.24976000
-0.57696000 -1.63668000 -1.98519000
-0.49363600 -1.63839000 -2.15775000
-0.38509200 -1.64517000 -2.31479000
-0.40741800 -1.66432000 -2.08526000
-0.30593300 -1.67015000 -2.22071000
-0.18791300 -1.67168000 -2.34563000
-0.25042300 -1.68850000 -2.14394000
-0.13787800 -1.68962000 -2.24040000
-0.20872400 -1.70733000 -2.08165000
-0.10935200 -1.71184000 -2.15793000
-0.34485700 -1.68839000 -2.02888000
-0.29050600 -1.70571000 -1.98060000
-0.29050600 -1.70571000 -1.98060000
-0.34634900 -1.69426000 -1.86085000
-0.27845100 -1.69228000 -1.83124000
-0.40947300 -1.68557000 -1.89209000
-0.34634900 -1.69426000 -1.86085000
-0.44101200 -1.68327000 -1.74285000
-0.37559000 -1.69465000 -1.73151000
-0.48030000 -1.66242000 -1.93094000
-0.52520500 -1.67241000 -1.76455000
-0.64169900 -1.64521000 -1.80259000
-0.69357000 -1.63999000 -1.61169000
-0.86613300 -1.60638000 -1.65680000
-0.93963900 -1.59151000 -1.43884000
-1.01819000 -1.59112000 -1.20662000
-1.13202000 -1.55341000 -1.48792000
-1.21129000 -1.54945000 -1.24483000
-1.27913000 -1.54267000 -0.98910300
-1.08716000 -1.58511000 -0.96198200
-1.40390000 -1.51779000 -1.28791000
-1.47305000 -1.51313000 -1.02032000
-1.52655000 -1.51432000 -0.74418400
-1.33461000 -1.55377000 -0.72419000
-1.66192000 -1.47505000 -1.05483000
-1.71203000 -1.46588000 -0.76764800
-1.75223000 -1.47767000 -0.47609000
-1.56494000 -1.51538000 -0.46251200
-1.88938000 -1.43688000 -0.79272400
-1.92771000 -1.43740000 -0.49121300
-1.96038000 -1.43722000 -0.18741600
-1.78208000 -1.48036000 -0.18153500
-2.08498000 -1.39432000 -0.50689400
-2.11879000 -1.38819000 -0.19560500
-2.14095000 -1.38811000 0.11577400
-1.97646000 -1.42105000 0.11574200
-2.26609000 -1.37271000 -0.20603300
-2.28744000 -1.36192000 0.11335500
-2.29179000 -1.36265000 0.43222600
-2.14384000 -1.39497000 0.42553300
-2.41303000 -1.33183000 0.11018600
-2.41674000 -1.33038000 0.43838900
-2.39611000 -1.34385000 0.76839200
-2.26830000 -1.36644000 0.75086200
-2.53002000 -1.31251000 0.44517400
-2.50663000 -1.31657000 0.78377900
-2.44969000 -1.31397000 1.11677000
-2.33918000 -1.34159000 1.09383000
-2.61883000 -1.28957000 0.79967900
-2.55059000 -1.27576000 1.13734000
-2.47116000 -1.28428000 1.46698000
-2.36805000 -1.31471000 1.44006000
-2.61057000 -1.18549000 1.14901000
-2.52120000 -1.18945000 1.47968000
-2.41627000 -1.19587000 1.80184000
-2.36942000 -1.28571000 1.78674000
-2.56250000 -1.08080000 1.49000000
-2.45625000 -1.09237000 1.81567000
-2.34242000 -1.10221000 2.13448000
-2.31324000 -1.20613000 2.12086000
-2.48597000 -0.96711400 1.82809000
-2.34960000 -0.97621400 2.14369000
-2.25007000 -0.99289900 2.47136000
-2.23260000 -1.11402000 2.45501000
-2.37260000 -0.83760900 2.15936000
-2.26344000 -0.85534300 2.48711000
-2.11677000 -0.86679000 2.79530000
-2.09929000 -0.99968600 2.77846000
-2.28628000 -0.71227000 2.49559000
-2.13610000 -0.72455100 2.80501000
-1.96779000 -0.73898800 3.10115000
-1.94812000 -0.87726600 3.08886000
-2.14652000 -0.58359800 2.80193000
-1.97762000 -0.59496500 3.10102000
-1.80630000 -0.60384000 3.39976000
-1.78409000 -0.74488900 3.38953000
-2.00808000 -0.46150900 3.11175000
-1.82582000 -0.46927300 3.40684000
-1.62610000 -0.47818200 3.69006000
-1.60058000 -0.60800200 3.67730000
-1.85623000 -0.34724000 3.42170000
-1.65141000 -0.35777500 3.70415000
-1.42885000 -0.36037100 3.97239000
-1.40348000 -0.48126000 3.95593000
-1.72983000 -0.28972800 3.75974000
-1.49925000 -0.28144100 4.02985000
-1.25957000 -0.28958000 4.29124000
-1.18623000 -0.35751600 4.22150000
-1.58936000 -0.24697800 4.10546000
-1.34419000 -0.25167100 4.37167000
-1.08265000 -0.26817000 4.62029000
-1.00127000 -0.29323000 4.53240000
-1.42939000 -0.21959200 4.45318000
-1.16328000 -0.23963700 4.70780000
-0.88026600 -0.25250400 4.94270000
-0.80620700 -0.27415900 4.85234000
-1.23929000 -0.21531600 4.78947000
-0.95150600 -0.23000800 5.02820000
-0.65768200 -0.25382600 5.25614000
-0.59055600 -0.27225000 5.16792000
-1.01759000 -0.21272800 5.10673000
-0.72053500 -0.23529900 5.33877000
-0.41559600 -0.26854100 5.55820000
-0.35450500 -0.27839400 5.47191000
-0.77782600 -0.22250100 5.41458000
-0.47205300 -0.25884000 5.63906000
-0.15607000 -0.29121200 5.85099000
-0.10236500 -0.29795200 5.76624000
-0.52349800 -0.25024000 5.71427000
-0.20495700 -0.28838000 5.92938000
0.12769100 -0.29978700 6.12962000
0.17297700 -0.29932900 6.04754000
-0.24872700 -0.28865500 6.00034000
0.08652710 -0.31519800 6.20283000
0.43423300 -0.30649800 6.38518000
0.47252600 -0.30154300 6.30833000
0.04638580 -0.31154600 6.27462000
0.39956500 -0.32655900 6.45354000
0.76236300 -0.32912200 6.61195000
0.79309900 -0.32368200 6.54164000
0.02563250 -0.37569700 6.30473000
0.38074800 -0.38803600 6.48676000
0.74438200 -0.38848200 6.65050000
1.11621000 -0.38786000 6.79497000
1.13129000 -0.32405100 6.75810000
0.74438200 -0.38848200 6.65050000
0.38074800 -0.38803600 6.48676000
0.74730200 -0.46051900 6.63886000
1.11766000 -0.46051900 6.78564000
1.11621000 -0.38786000 6.79497000
1.49412000 -0.47078500 6.91811000
1.49266000 -0.39823800 6.93032000
1.13238000 -0.51532100 6.74069000
1.50784000 -0.51782200 6.86802000
1.88953000 -0.53406400 6.97903000
1.87764000 -0.49258400 7.03308000
1.52904000 -0.52202600 6.79681000
1.90673000 -0.53635400 6.90874000
2.29353000 -0.55488700 6.99523000
2.28103000 -0.55165400 7.06455000
1.92519000 -0.53597900 6.83260000
2.30674000 -0.55315000 6.92268000
2.69470000 -0.57493400 6.99241000
2.68728000 -0.57210800 7.06237000
2.32016000 -0.55018800 6.84628000
2.70252000 -0.57429900 6.91646000
3.08979000 -0.59170300 6.96034000
3.08657000 -0.59100100 7.03797000
2.71094000 -0.57534600 6.83299000
3.09301000 -0.59417700 6.87565000
3.47648000 -0.61404700 6.90522000
3.47691000 -0.61854800 6.98650000
3.09620000 -0.59646800 6.78529000
3.47569000 -0.61376600 6.81808000
3.85802000 -0.63520700 6.83646000
3.86306000 -0.63571000 6.91694000
3.47418000 -0.61865700 6.72625000
3.85171000 -0.63552700 6.74867000
4.23061000 -0.65387400 6.73087000
4.24259000 -0.65316100 6.81936000
3.84393000 -0.63996700 6.65341000
4.21645000 -0.66435800 6.63180000
4.58864000 -0.66241400 6.57306000
4.60907000 -0.65589100 6.67138000
4.20030000 -0.66668500 6.52526000
4.56472000 -0.67005800 6.46709000
4.92413000 -0.66344200 6.38020000
4.95451000 -0.65729400 6.48396000
4.53939000 -0.67686200 6.35967000
4.89194000 -0.66969100 6.27308000
5.24361000 -0.66701300 6.16719000
5.27989000 -0.65304000 6.27341000
4.86396000 -0.72043500 6.17815000
5.20806000 -0.70394200 6.06433000
5.54825000 -0.68409600 5.93017000
5.59283000 -0.66102800 6.04375000
5.19905000 -0.81935400 6.03064000
5.53250000 -0.80533400 5.88634000
5.86197000 -0.80404600 5.73759000
5.88367000 -0.68492100 5.78784000
5.52731000 -0.93722700 5.86855000
5.85446000 -0.93965000 5.71734000
6.16388000 -0.94039400 5.53404000
6.17088000 -0.80390900 5.55578000
5.83625000 -1.07972000 5.67709000
6.14838000 -1.08111000 5.49712000
6.45492000 -1.07762000 5.30387000
6.46626000 -0.93775800 5.33816000
6.12632000 -1.22331000 5.45186000
6.43022000 -1.21874000 5.26115000
6.72384000 -1.19596000 5.05408000
6.74934000 -1.05432000 5.09246000
6.40117000 -1.35355000 5.21577000
6.69228000 -1.33495000 5.01234000
6.97079000 -1.30114000 4.79152000
7.00992000 -1.15824000 4.83651000
6.65756000 -1.46180000 4.96426000
6.94070000 -1.44080000 4.75167000
7.20094000 -1.40176000 4.50941000
7.24102000 -1.26226000 4.55608000
6.86574000 -1.51832000 4.66442000
7.12995000 -1.50091000 4.43296000
7.37702000 -1.47242000 4.18258000
7.45216000 -1.37164000 4.25681000
7.03033000 -1.53766000 4.33332000
7.27442000 -1.52301000 4.08715000
7.50241000 -1.50136000 3.82794000
7.61137000 -1.45261000 3.92100000
7.16372000 -1.55947000 3.98620000
7.38472000 -1.54044000 3.72910000
7.58753000 -1.52633000 3.46404000
7.71007000 -1.48082000 3.55697000
7.25855000 -1.58204000 3.62772000
7.45057000 -1.56759000 3.36727000
7.62157000 -1.55439000 3.09931000
7.76722000 -1.51697000 3.18897000
7.29741000 -1.61344000 3.26795000
7.46240000 -1.60575000 3.00963000
7.60928000 -1.59337000 2.74442000
7.77570000 -1.54927000 2.82445000
7.29079000 -1.65054000 2.92152000
7.43476000 -1.64346000 2.66730000
7.56572000 -1.63572000 2.40646000
7.74404000 -1.58809000 2.47422000
7.25446000 -1.68559000 2.59052000
7.38201000 -1.67884000 2.34088000
7.49717000 -1.67179000 2.08477000
7.68437000 -1.62775000 2.14037000
7.19615000 -1.71817000 2.27332000
7.30857000 -1.71328000 2.02860000
7.40823000 -1.70565000 1.77870000
7.59946000 -1.66108000 1.82392000
7.12081000 -1.75479000 1.96909000
7.21794000 -1.74879000 1.73099000
7.30357000 -1.74203000 1.48804000
7.49544000 -1.69903000 1.52444000
7.02920000 -1.78715000 1.67882000
7.11354000 -1.78024000 1.44776000
7.18626000 -1.77513000 1.21053000
7.37605000 -1.73641000 1.23974000
6.92714000 -1.81426000 1.40296000
7.00048000 -1.81075000 1.17713000
7.05665000 -1.80758000 0.94600800
7.24240000 -1.77280000 0.96845000
6.82095000 -1.84206000 1.14057000
6.87495000 -1.83786000 0.92088000
6.90951000 -1.84003000 0.69838300
7.09268000 -1.80975000 0.71253700
6.69788000 -1.85707000 0.89162400
6.72969000 -1.85880000 0.67972900
6.74719000 -1.86148000 0.46609800
6.92796000 -1.84055000 0.47448000
6.55568000 -1.87355000 0.65762200
6.57080000 -1.87875000 0.45439500
6.57710000 -1.89300000 0.25138700
6.75132000 -1.86336000 0.25208400
6.40863000 -1.92947000 0.44184100
6.41334000 -1.93573000 0.24754300
6.40944000 -1.94505000 0.05185810
6.57019000 -1.89886000 0.04611090
6.27234000 -2.00266000 0.24297000
6.26859000 -2.00689000 0.05499820
6.26185000 -2.02495000 -0.13336300
6.39359000 -1.94847000 -0.14504400
6.13588000 -2.05853000 0.05782620
6.12612000 -2.06304000 -0.12311800
6.10771000 -2.06532000 -0.30493500
6.24244000 -2.03613000 -0.32273800
5.98543000 -2.06280000 -0.11221100
5.97216000 -2.05909000 -0.28672500
5.94553000 -2.06739000 -0.46059400
6.07898000 -2.06802000 -0.48712600
5.84445000 -1.99367000 -0.26925100
5.81741000 -2.00504000 -0.43456600
5.78545000 -2.00213000 -0.60023400
5.90749000 -2.06821000 -0.63259300
5.67787000 -1.94859000 -0.40446000
5.64267000 -1.95326000 -0.56054800
5.59446000 -1.96202000 -0.71320800
5.73861000 -1.99838000 -0.76260400
5.48271000 -1.95241000 -0.51304000
5.43679000 -1.95978000 -0.65642400
5.37939000 -1.96626000 -0.79526900
5.53411000 -1.95926000 -0.86181600
5.27595000 -1.97201000 -0.59744800
5.22218000 -1.97945000 -0.72769500
5.16020000 -1.98449000 -0.85535700
5.31228000 -1.97162000 -0.93022700
5.06191000 -1.98172000 -0.66059300
5.00430000 -1.98838000 -0.78002500
4.94067000 -1.99190000 -0.89581900
5.09257000 -1.99287000 -0.97944000
4.84486000 -1.98355000 -0.70568200
4.78384000 -1.98731000 -0.81271400
4.71754000 -1.98922000 -0.91536300
4.87209000 -1.99179000 -1.00742000
4.62527000 -1.98247000 -0.73206300
4.55936000 -1.98660000 -0.82441000
4.48817000 -1.98515000 -0.91057100
4.64576000 -1.99366000 -1.01178000
4.40288000 -1.97906000 -0.74153400
4.33265000 -1.98665000 -0.82098000
4.25765000 -1.98394000 -0.89434500
4.41251000 -1.98384000 -0.99003000
4.18546000 -1.96805000 -0.74750700
4.11121000 -1.97046000 -0.81681700
4.03195000 -1.96936000 -0.87876300
4.17735000 -1.98343000 -0.95835900
3.97608000 -1.96808000 -0.75712800
3.89932000 -1.96263000 -0.82175600
3.81946000 -1.97367000 -0.88331700
3.94869000 -1.96743000 -0.93459800
3.78036000 -1.96768000 -0.78297100
3.70476000 -1.96485000 -0.85318200
3.62744000 -1.96746000 -0.92930400
3.73735000 -1.96252000 -0.94632200
3.60007000 -1.96335000 -0.83649900
3.52667000 -1.96686000 -0.92497400
3.45386000 -1.96135000 -1.03271000
3.55074000 -1.95862000 -1.02128000
3.43051000 -1.96399000 -0.92698800
3.35973000 -1.96378000 -1.04730000
3.26594000 -1.96633000 -1.06101000
3.19939000 -1.96951000 -1.21720000
3.29394000 -1.97535000 -1.19589000
3.38705000 -1.97677000 -1.17018000
3.23856000 -1.98486000 -1.37538000
3.33338000 -1.98140000 -1.34529000
3.42571000 -1.97541000 -1.30900000
3.48033000 -1.97448000 -1.14276000
3.51757000 -1.97712000 -1.26970000
3.57706000 -1.97160000 -1.12018000
3.65443000 -1.96015000 -1.02021000
3.68361000 -1.98594000 -1.11494000
3.77072000 -1.97371000 -1.04026000
3.86187000 -1.95996000 -0.98713600
3.90634000 -1.99373000 -1.10288000
4.00182000 -1.98775000 -1.06059000
4.09188000 -1.98630000 -1.01368000
4.15408000 -1.98806000 -1.17566000
4.24578000 -1.98564000 -1.12396000
4.33209000 -1.98832000 -1.06091000
4.40103000 -1.99361000 -1.25684000
4.48842000 -1.99219000 -1.18311000
4.56939000 -1.99451000 -1.10112000
4.63589000 -2.00508000 -1.31048000
4.72021000 -1.99725000 -1.21659000
4.79876000 -1.99734000 -1.11498000
4.85649000 -1.98795000 -1.32551000
4.94069000 -1.99092000 -1.21480000
5.01927000 -1.99107000 -1.09919000
5.07412000 -1.98055000 -1.30921000
5.16000000 -1.98334000 -1.18786000
5.23919000 -1.97985000 -1.06148000
5.29356000 -1.97370000 -1.27265000
5.38096000 -1.97385000 -1.14089000
5.46092000 -1.97215000 -1.00329000
5.51034000 -1.99802000 -1.21370000
5.59736000 -1.99973000 -1.07001000
5.67420000 -2.00132000 -0.91940600
5.70769000 -2.06438000 -1.12362000
5.78654000 -2.07292000 -0.96557400
5.85414000 -2.07396000 -0.80092600
5.90650000 -2.07315000 -1.01578000
5.97899000 -2.07386000 -0.84435200
6.03655000 -2.07326000 -0.66777400
6.09744000 -2.05046000 -0.88610400
6.16314000 -2.05465000 -0.70186900
6.20821000 -2.04159000 -0.51253200
6.27557000 -1.97420000 -0.73288300
6.32944000 -1.96503000 -0.53849100
6.36756000 -1.95369000 -0.34228500
6.47863000 -1.92383000 -0.57014000
6.52224000 -1.91241000 -0.36556600
6.55277000 -1.90837000 -0.15986600
6.68571000 -1.87803000 -0.39242800
6.72011000 -1.87231000 -0.17766800
6.74208000 -1.86784000 0.03737640
6.89497000 -1.84582000 -0.19929100
6.92056000 -1.84646000 0.02500640
6.93148000 -1.84076000 0.24950700
7.10177000 -1.81819000 0.00782561
7.11610000 -1.82338000 0.24265300
7.11166000 -1.81286000 0.47789800
7.29854000 -1.77744000 0.23097700
7.29679000 -1.77611000 0.47715300
7.27841000 -1.77335000 0.72336600
7.48397000 -1.73519000 0.47229800
7.46650000 -1.73214000 0.73008700
7.43138000 -1.73285000 0.98664600
7.65728000 -1.68930000 0.73163300
7.62277000 -1.68898000 0.99966800
7.56858000 -1.69522000 1.26502000
7.81563000 -1.64332000 1.00955000
7.76112000 -1.64730000 1.28726000
7.68884000 -1.65531000 1.55893000
7.95471000 -1.60139000 1.30952000
7.88156000 -1.60560000 1.59340000
7.79121000 -1.61890000 1.86982000
8.07228000 -1.55571000 1.63001000
7.97762000 -1.56609000 1.91788000
7.86552000 -1.57465000 2.19831000
8.15382000 -1.51429000 1.96881000
8.03676000 -1.52336000 2.25852000
7.91167000 -1.53540000 2.54360000
8.18767000 -1.47773000 2.31798000
8.06118000 -1.48596000 2.61254000
7.92366000 -1.50338000 2.90413000
8.19731000 -1.44376000 2.68112000
8.05503000 -1.45337000 2.98101000
7.89447000 -1.46729000 3.27369000
8.17933000 -1.40722000 3.05543000
8.01312000 -1.42008000 3.35503000
7.82428000 -1.43544000 3.64505000
8.10591000 -1.33290000 3.42219000
7.91341000 -1.34465000 3.71731000
7.69033000 -1.35267000 3.99251000
7.94074000 -1.20362000 3.74583000
7.72368000 -1.21031000 4.02725000
7.49558000 -1.23070000 4.30276000
7.75329000 -1.06513000 4.05566000
7.52708000 -1.07902000 4.33549000
7.27496000 -1.11183000 4.59305000
7.54581000 -0.94400000 4.36239000
7.29927000 -0.97562000 4.62625000
7.03478000 -1.01711000 4.87002000
7.30546000 -0.85400000 4.64980000
7.04261000 -0.88778800 4.89846000
6.76165000 -0.91856600 5.12855000
7.04164000 -0.76958400 4.91978000
6.75908000 -0.79114200 5.14933000
6.48093000 -0.81111100 5.37840000
6.77607000 -0.67971300 5.19098000
6.49770000 -0.69417600 5.41914000
6.20060000 -0.69425400 5.61692000
6.55220000 -0.63415500 5.50867000
6.25170000 -0.63481100 5.71557000
5.93259000 -0.64404700 5.89701000
6.30906000 -0.61544300 5.82466000
5.98075000 -0.63423900 6.00648000
5.63318000 -0.64201100 6.15053000
6.02522000 -0.62630200 6.10317000
5.67216000 -0.63850000 6.24917000
5.31522000 -0.65248100 6.37494000
5.70964000 -0.63630200 6.33576000
5.34691000 -0.64720000 6.46542000
4.98066000 -0.65125800 6.57952000
5.37577000 -0.64370600 6.54687000
5.00332000 -0.65064500 6.66462000
4.62613000 -0.65611300 6.75825000
5.02416000 -0.64587700 6.74079000
4.64147000 -0.65354500 6.83552000
4.25284000 -0.65068200 6.89801000
4.65568000 -0.64973600 6.90803000
4.26197000 -0.65040700 6.97069000
3.86730000 -0.63531900 6.99213000
4.27059000 -0.65260200 7.03834000
3.87119000 -0.63673100 7.06356000
3.47739000 -0.61665200 7.06235000
3.87532000 -0.62954100 7.13392000
3.47802000 -0.60632700 7.13530000
3.08356000 -0.58612500 7.11022000
3.47832000 -0.59403600 7.20360000
3.08061000 -0.57858700 7.17825000
2.67992000 -0.56548900 7.12922000
2.67992000 -0.56548900 7.12922000
3.08061000 -0.57858700 7.17825000
3.08034000 -0.53634300 7.22298000
2.67552000 -0.52708000 7.18124000
2.67552000 -0.52708000 7.18124000
2.27306000 -0.50921300 7.11762000
2.67832000 -0.46179800 7.18252000
2.27393000 -0.44111400 7.12793000
1.87757000 -0.42129300 7.04299000
1.87757000 -0.42129300 7.04299000
2.27393000 -0.44111400 7.12793000
2.27939000 -0.36898500 7.11611000
1.88547000 -0.35006100 7.02260000
1.50477000 -0.33015800 6.89838000
1.49266000 -0.39823800 6.93032000
1.90472000 -0.33382900 6.94949000
1.52858000 -0.32303300 6.82311000
1.15900000 -0.31811100 6.68432000
1.55115000 -0.33084000 6.74887000
1.18589000 -0.32195600 6.61149000
0.82514700 -0.32618600 6.46779000
1.21313000 -0.32878500 6.53782000
0.85837700 -0.33280800 6.39088000
0.51226300 -0.30681200 6.22657000
0.89265200 -0.34033200 6.30980000
0.55402700 -0.31522600 6.14003000
0.22176800 -0.30094000 5.95960000
0.59616200 -0.33611400 6.05045000
0.27407300 -0.30361300 5.86709000
-0.04366400 -0.30171300 5.67591000
0.32765000 -0.31100000 5.77196000
0.01691820 -0.29676600 5.58179000
-0.29185300 -0.29487800 5.38164000
0.07159110 -0.32671400 5.48964000
-0.23088500 -0.31255200 5.28958000
-0.52381200 -0.29356100 5.07710000
-0.17159600 -0.32667700 5.19944000
-0.45944900 -0.31771100 4.98895000
-0.73491100 -0.30471000 4.76521000
-0.40078600 -0.36203200 4.91041000
-0.67225900 -0.36146400 4.69012000
-0.93364000 -0.36029900 4.45984000
-0.65364400 -0.47254500 4.66924000
-0.91213500 -0.47740600 4.43836000
-1.15996000 -0.47869500 4.20031000
-0.89609100 -0.60236400 4.42378000
-1.14247000 -0.61094900 4.18909000
-1.37731000 -0.61164700 3.94078000
-1.13517000 -0.75371200 4.18751000
-1.36916000 -0.75416600 3.94063000
-1.57855000 -0.74661800 3.66704000
-1.35167000 -0.88945700 3.92405000
-1.56854000 -0.88399200 3.65857000
-1.77436000 -0.88284000 3.38247000
-1.55773000 -1.00938000 3.64535000
-1.75561000 -1.00727000 3.36632000
-1.93448000 -1.00437000 3.07637000
-1.74226000 -1.12046000 3.35548000
-1.91910000 -1.11999000 3.06436000
-2.08574000 -1.11938000 2.76486000
-1.90672000 -1.22710000 3.05555000
-2.07137000 -1.22861000 2.75365000
-2.21323000 -1.22338000 2.44199000
-2.00492000 -1.29786000 2.71922000
-2.14227000 -1.29256000 2.41196000
-2.25868000 -1.28642000 2.10036000
-2.04978000 -1.31768000 2.37420000
-2.16600000 -1.31557000 2.06715000
-2.27303000 -1.31785000 1.75639000
-2.06806000 -1.35537000 2.03160000
-2.16770000 -1.35180000 1.72334000
-2.25948000 -1.34453000 1.41111000
-2.04547000 -1.38029000 1.68526000
-2.13381000 -1.37360000 1.37750000
-2.21250000 -1.37417000 1.06716000
-1.99004000 -1.40564000 1.34005000
-2.06375000 -1.39878000 1.03713000
-2.11893000 -1.40110000 0.73242900
-1.89449000 -1.43171000 1.00569000
-1.94659000 -1.43659000 0.71255500
-1.97460000 -1.43089000 0.41624200
-1.75692000 -1.46982000 0.68926800
-1.78685000 -1.46514000 0.40306400
-1.79553000 -1.47024000 0.11234400
-1.58869000 -1.49929000 0.38515100
-1.60025000 -1.50938000 0.10467700
-1.59022000 -1.51272000 -0.17867400
-1.40202000 -1.54887000 0.09424140
-1.39607000 -1.55492000 -0.17865000
-1.37222000 -1.55087000 -0.45236200
-1.19947000 -1.58772000 -0.18250800
-1.17856000 -1.58691000 -0.44608000
-1.14068000 -1.58420000 -0.70728600
-0.98459700 -1.61438000 -0.44185700
-0.94997200 -1.62236000 -0.69220900
-0.89499400 -1.61745000 -0.93649300
-0.76020600 -1.63952000 -0.67747900
-0.71075300 -1.65343000 -0.91207700
-0.57647500 -1.67323000 -0.66438700
-0.53510300 -1.67847000 -0.88747700
-0.39228000 -1.68181000 -0.65515000
-0.36330100 -1.69308000 -0.86655700
-0.32531700 -1.70218000 -1.05551000
-0.18886000 -1.69969000 -0.85544100
-0.16683100 -1.69612000 -1.03032000
-0.14566900 -1.69010000 -1.15255000
-0.28131300 -1.70339000 -1.19647000
-0.12649300 -1.69543000 -1.23742000
-0.24137900 -1.70235000 -1.28639000
-0.10511700 -1.69291000 -1.30891000
-0.20318100 -1.70157000 -1.35389000
-0.28225800 -1.68598000 -1.41487000
-0.28225800 -1.68598000 -1.41487000
-0.20318100 -1.70157000 -1.35389000
-0.16833900 -1.68211000 -1.41533000
-0.24129600 -1.67422000 -1.46708000
-0.29682400 -1.66780000 -1.53212000
-0.33822100 -1.69594000 -1.49718000
-0.33822100 -1.69594000 -1.49718000
-0.32130400 -1.67331000 -1.62037000
-0.37469200 -1.68985000 -1.60585000
-0.37469200 -1.68985000 -1.60585000
-0.30920300 -1.68551000 -1.72497000
-0.37559000 -1.69465000 -1.73151000
-0.30648300 -1.61333000 -1.63202000
-0.29548000 -1.61482000 -1.72728000
-0.31682900 -1.53206000 -1.63723000
-0.26701200 -1.61875000 -1.56025000
-0.28849900 -1.53740000 -1.55146000
-0.29321800 -1.42929000 -1.55527000
-0.21320800 -1.54053000 -1.50540000
-0.22089300 -1.42795000 -1.50473000
-0.24223400 -1.29451000 -1.49843000
-0.14885900 -1.42437000 -1.45640000
-0.16922000 -1.28743000 -1.45092000
-0.20359400 -1.13765000 -1.44269000
-0.09357220 -1.27866000 -1.40736000
-0.13264400 -1.12607000 -1.39264000
-0.17020600 -0.96518300 -1.40732000
-0.04671310 -1.10706000 -1.36278000
-0.09716060 -0.94983400 -1.35645000
-0.14921900 -0.79485300 -1.37949000
-0.00953167 -0.92133600 -1.45224000
-0.06112540 -0.78401900 -1.37955000
0.02830830 -0.92539400 -1.50414000
-0.01699900 -0.79344700 -1.45254000
0.08400140 -0.92931200 -1.58152000
0.04366180 -0.78881600 -1.55214000
0.14303700 -0.92295100 -1.67001000
0.11577500 -0.79815300 -1.67423000
0.11577500 -0.79815300 -1.67423000
0.14303700 -0.92295100 -1.67001000
0.21312300 -0.92365000 -1.77034000
0.19481800 -0.79889500 -1.80202000
0.11508300 -0.66862600 -1.66744000
0.27165000 -0.92033600 -1.85630000
0.25735500 -0.79055700 -1.90063000
0.32505000 -0.92797900 -1.96015000
0.29024000 -0.77914300 -2.01076000
0.23824300 -0.94352700 -2.01691000
0.20001000 -0.78502000 -2.05020000
0.15644800 -0.61221100 -2.06811000
0.11652700 -0.78871500 -2.08297000
0.08152050 -0.61271900 -2.10460000
0.05895680 -0.43062300 -2.11881000
0.12346900 -0.42950400 -2.08024000
0.04854540 -0.25280200 -2.12203000
0.11853500 -0.25124800 -2.08332000
0.20607300 -0.25004100 -2.11004000
0.04136130 -0.07595940 -2.12487000
0.12379400 -0.07467050 -2.08216000
0.20681100 -0.07709410 -2.14229000
0.11968500 0.10461000 -2.09584000
0.20109000 0.09701130 -2.16726000
0.20681100 -0.07709410 -2.14229000
0.20109000 0.09701130 -2.16726000
0.27730500 0.08893990 -2.25539000
0.28258600 -0.08188640 -2.22494000
0.37347300 0.08169390 -2.36445000
0.37905700 -0.08657050 -2.34107000
0.49251000 0.07168110 -2.51801000
0.50999900 -0.09151850 -2.49601000
0.52094900 -0.24043100 -2.47561000
0.54522200 -0.37145600 -2.43664000
0.67866500 -0.09340960 -2.67021000
0.69387100 -0.24160200 -2.65205000
0.72298100 -0.37113900 -2.61666000
0.79062900 -0.47451800 -2.53900000
0.60252300 -0.46288900 -2.36113000
0.89975600 -0.24070200 -2.82762000
0.93017400 -0.36927300 -2.79184000
1.00506000 -0.47592000 -2.69571000
1.00506000 -0.47592000 -2.69571000
0.79062900 -0.47451800 -2.53900000
1.15775000 -0.36792700 -2.95821000
1.23499000 -0.46492000 -2.84966000
1.23499000 -0.46492000 -2.84966000
1.40500000 -0.36681500 -3.10905000
1.48227000 -0.46707500 -2.98076000
1.48227000 -0.46707500 -2.98076000
1.66974000 -0.35940100 -3.23652000
1.73297000 -0.46897900 -3.10712000
1.73297000 -0.46897900 -3.10712000
1.94577000 -0.34916700 -3.34294000
2.00446000 -0.45865600 -3.20810000
2.00446000 -0.45865600 -3.20810000
2.23052000 -0.33894200 -3.43247000
2.27713000 -0.43184600 -3.29212000
2.27713000 -0.43184600 -3.29212000
2.52186000 -0.32199200 -3.49578000
2.55429000 -0.40817300 -3.36283000
2.55429000 -0.40817300 -3.36283000
2.81725000 -0.31804600 -3.54139000
2.83892000 -0.38967700 -3.41564000
2.83892000 -0.38967700 -3.41564000
3.11740000 -0.31158100 -3.55259000
3.12994000 -0.38113800 -3.44163000
3.12994000 -0.38113800 -3.44163000
3.41925000 -0.30973700 -3.54536000
3.42462000 -0.37805700 -3.44158000
3.42462000 -0.37805700 -3.44158000
3.72042000 -0.30819500 -3.51888000
3.71813000 -0.36952700 -3.41805000
3.71813000 -0.36952700 -3.41805000
4.01704000 -0.29917100 -3.46556000
4.00743000 -0.35537400 -3.37047000
4.00743000 -0.35537400 -3.37047000
4.30857000 -0.29317600 -3.39561000
4.29266000 -0.33971100 -3.30485000
4.29266000 -0.33971100 -3.30485000
4.59301000 -0.28367500 -3.30155000
4.57045000 -0.33023400 -3.21837000
4.57045000 -0.33023400 -3.21837000
4.87066000 -0.27634000 -3.18888000
4.84378000 -0.32921400 -3.11270000
4.84378000 -0.32921400 -3.11270000
5.13283000 -0.26576200 -3.04453000
5.10579000 -0.32770600 -2.98259000
5.10579000 -0.32770600 -2.98259000
5.06512000 -0.35294000 -2.89512000
5.35620000 -0.32258300 -2.83255000
5.31223000 -0.35218000 -2.75776000
5.59594000 -0.32304300 -2.66941000
5.54531000 -0.35597600 -2.59831000
5.81197000 -0.32590900 -2.47389000
5.75888000 -0.36542800 -2.41161000
6.01820000 -0.35219800 -2.23079000
5.95503000 -0.38870000 -2.17827000
5.87477000 -0.40963300 -2.12514000
6.04636000 -0.42151700 -1.88409000
5.96387000 -0.42632700 -1.83410000
6.18729000 -0.42771700 -1.62827000
6.11036000 -0.43174000 -1.60384000
6.30425000 -0.43596100 -1.36868000
6.23327000 -0.43859000 -1.35874000
6.41572000 -0.44209600 -1.10566000
6.37030000 -0.43329100 -1.37249000
6.48901000 -0.44129300 -1.10617000
6.57288000 -0.43507400 -0.86467300
6.56696000 -0.44592700 -1.09718000
6.65515000 -0.41888700 -0.85873200
6.72115000 -0.39160000 -0.63526900
6.63563000 -0.42169100 -0.63567300
6.75644000 -0.37462900 -0.40962200
6.66094000 -0.40760900 -0.40878700
6.77387000 -0.36423600 -0.16707000
6.67117000 -0.39789600 -0.17068100
6.77903000 -0.35715800 0.08848780
6.66869000 -0.39172700 0.07911700
6.76048000 -0.35797600 0.35104000
6.64756000 -0.38981000 0.33618000
6.72751000 -0.36335500 0.61929900
6.60859000 -0.39354700 0.59626200
6.67400000 -0.37389800 0.88980600
6.83542000 -0.34310900 0.64109100
6.78536000 -0.35398500 0.92052200
6.92514000 -0.31601600 0.66047200
6.87405000 -0.32120100 0.94701400
6.87405000 -0.32120100 0.94701400
6.92514000 -0.31601600 0.66047200
6.95057000 -0.21895200 0.67204300
6.90384000 -0.22503100 0.96240900
6.82089000 -0.23583400 1.24947000
6.79281000 -0.32963300 1.23177000
6.91232000 -0.11890500 0.97295000
6.83398000 -0.13021100 1.26220000
6.73312000 -0.14560400 1.54613000
6.84665000 -0.02088860 1.27494000
6.74521000 -0.03180130 1.56009000
6.62874000 -0.03827130 1.84066000
6.75899000 0.09216220 1.57575000
6.63974000 0.09072210 1.85686000
6.49900000 0.08803240 2.12904000
6.65263000 0.24659100 1.87565000
6.50667000 0.24337700 2.14608000
6.67132000 0.42925200 1.89860000
6.52340000 0.42309200 2.16996000
6.68729000 0.62100700 1.91969000
6.53794000 0.61164700 2.19214000
6.70404000 0.80750200 1.93929000
6.55426000 0.79547400 2.21379000
6.72232000 0.98049200 1.95727000
6.56787000 0.96764100 2.23152000
6.73536000 1.14019000 1.97002000
6.58217000 1.12745000 2.24736000
6.74700000 1.28119000 1.97979000
6.59569000 1.26946000 2.26042000
6.75720000 1.39330000 1.98671000
6.60927000 1.38288000 2.27131000
6.76403000 1.48173000 1.99107000
6.61545000 1.47597000 2.27701000
6.77319000 1.56125000 1.99664000
6.62558000 1.55839000 2.28483000
6.78046000 1.63457000 2.00138000
6.63991000 1.63194000 2.29501000
6.46410000 1.63263000 2.56762000
6.64949000 1.70184000 2.30243000
6.47370000 1.70621000 2.57608000
6.28105000 1.70878000 2.83716000
6.48492000 1.77505000 2.58541000
6.28988000 1.78046000 2.84603000
6.08918000 1.78307000 3.10287000
6.29029000 1.84710000 2.84796000
6.09150000 1.85662000 3.10714000
5.84824000 1.84982000 3.32308000
6.05200000 1.89821000 3.07211000
5.81872000 1.89164000 3.29291000
5.56770000 1.89175000 3.50316000
5.77754000 1.89677000 3.24978000
5.52825000 1.89224000 3.45348000
5.26513000 1.89071000 3.64206000
5.49027000 1.88464000 3.40610000
5.23052000 1.88052000 3.58937000
4.96167000 1.84799000 3.75855000
4.98797000 1.85607000 3.80844000
4.66566000 1.85861000 3.88459000
4.68888000 1.86438000 3.94418000
4.35915000 1.86579000 3.97841000
4.37669000 1.86992000 4.04016000
4.04774000 1.85213000 4.05236000
4.05809000 1.85467000 4.10971000
3.73602000 1.85359000 4.09987000
3.74139000 1.85702000 4.15688000
3.43134000 1.85649000 4.11717000
3.43340000 1.86262000 4.17747000
3.13259000 1.83311000 4.12053000
3.13069000 1.84089000 4.17809000
3.13069000 1.84089000 4.17809000
3.13259000 1.83311000 4.12053000
2.83751000 1.83470000 4.10144000
2.83218000 1.84544000 4.16458000
2.54833000 1.83721000 4.06347000
2.53873000 1.84856000 4.12969000
2.26422000 1.83475000 4.00427000
2.24987000 1.84602000 4.07139000
1.98842000 1.83233000 3.91454000
1.97312000 1.82989000 3.97280000
1.71942000 1.82834000 3.79960000
1.70187000 1.82397000 3.85058000
1.45778000 1.84228000 3.66967000
1.43090000 1.84244000 3.73110000
1.41561000 1.79117000 3.77259000
1.17706000 1.82259000 3.57881000
1.15791000 1.78127000 3.62104000
1.16492000 1.71466000 3.62323000
0.91230400 1.77303000 3.44578000
0.91691000 1.71003000 3.45060000
0.66661700 1.77140000 3.26632000
0.67110200 1.70786000 3.27014000
0.67936000 1.64549000 3.26974000
0.43855800 1.69909000 3.06976000
0.44652500 1.63663000 3.06914000
