0.86963900 -3.01266000 3.18634000
0.90464600 -2.80976000 3.25671000
-3.13602000 1.28503000 4.99497000
-3.24485000 1.30533000 4.98758000
-3.22211000 1.17730000 4.96036000
-3.18204000 1.53354000 5.28776000
-3.19959000 1.52176000 5.20062000
-3.16420000 1.44310000 5.11167000
0.71143900 -1.42761000 3.73148000
0.61398600 -1.70686000 3.64583000
0.76226700 -1.87521000 3.53288000
0.72340000 -2.77044000 3.34972000
0.77912400 -2.37962000 3.37316000
0.59754300 -2.71195000 3.37577000
-2.91092000 1.45824000 5.57420000
-2.96806000 1.51700000 5.59984000
-2.96841000 1.45272000 5.51048000
-2.66453000 1.68411000 5.96199000
-2.58835000 1.75906000 6.00362000
-2.66771000 1.81512000 6.04152000
0.95961800 -1.54586000 3.48360000
0.90497000 -2.91541000 3.16666000
0.95113100 -2.73228000 3.11227000
0.93415000 -2.66788000 3.24621000
-2.71280000 -4.69666000 1.94987000
-2.72262000 -4.85842000 2.09852000
-2.67508000 -4.68615000 2.06009000
-2.40874000 -4.92326000 2.25060000
-2.45912000 -4.78321000 2.19368000
-2.53314000 -4.93406000 2.21021000
-2.93236000 -4.92801000 -1.84004000
-2.89885000 -4.90907000 -1.94905000
-2.93510000 -4.95534000 -1.96650000
-2.61955000 -4.73556000 -2.51571000
-2.72314000 -4.73026000 -2.44183000
-2.76563000 -4.68175000 -2.39354000
3.68565000 1.63688000 -3.54554000
3.72907000 1.58095000 -3.39433000
3.68575000 1.59706000 -3.42131000
4.19637000 1.80206000 -2.88958000
5.30576000 4.26354000 -3.65100000
5.22571000 4.21740000 -3.78794000
5.17384000 4.08920000 -3.64723000
5.18617000 3.47302000 -2.13507000
5.09133000 3.35512000 -2.17698000
5.14334000 3.34237000 -1.99841000
2.49850000 -2.01872000 -1.55948000
2.56157000 -1.94557000 -1.46198000
2.49937000 -2.04081000 -1.49453000
2.34414000 -2.33510000 -1.75117000
2.32948000 -2.23247000 -1.86479000
2.39406000 -2.21340000 -1.70983000
5.70563000 3.35589000 2.48813000
5.75074000 3.41449000 2.42332000
5.80802000 3.52411000 2.50291000
6.04125000 3.99019000 2.56459000
6.04471000 3.99321000 2.42396000
6.14174000 4.22761000 2.53678000
3.59237000 3.26679000 -5.93380000
3.38640000 3.20725000 -6.12189000
3.47344000 3.36607000 -6.21599000
2.62751000 2.89879000 -6.48803000
2.42860000 2.74895000 -6.47094000
2.71910000 3.05069000 -6.61246000
4.05262000 1.69206000 -2.67815000
3.95262000 1.59839000 -2.64570000
4.01070000 1.59188000 -2.75772000
3.67464000 1.26013000 -2.46156000
6.00746000 4.60272000 -1.61299000
6.03512000 4.71606000 -1.69855000
5.92648000 4.68516000 -1.89444000
5.82293000 5.03873000 -3.32037000
5.87382000 5.08452000 -3.23022000
5.84669000 5.05364000 -3.52942000
-1.82090000 0.98036200 -6.42763000
-1.91483000 1.00801000 -6.33916000
-1.97892000 1.17376000 -6.42911000
-2.36879000 1.73108000 -6.56157000
-2.51146000 1.88354000 -6.53865000
-0.87275400 3.36799000 8.19249000
-0.98456400 3.30889000 8.04573000
-0.95670500 2.30604000 7.34801000
-0.97897000 2.15438000 7.19143000
-1.06177000 2.27076000 7.21243000
1.11779000 -4.61450000 -1.50977000
0.98636700 -4.59929000 -1.74107000
1.07639000 -4.65140000 -1.56627000
1.16202000 -4.20274000 -0.98203300
1.14919000 -4.16382000 -0.78502200
-2.10591000 -4.28505000 0.43557700
-2.14815000 -4.26878000 0.15517800
-2.12430000 -4.22579000 0.20647600
-1.97644000 -4.23673000 0.68895400
-2.07423000 -4.32818000 0.59817600
-2.02525000 -4.25013000 0.60943300
-2.15977000 -0.87213400 -3.53334000
-2.12399000 -1.20473000 -3.39012000
-2.21603000 -1.09627000 -3.35207000
-2.35743000 -1.54254000 -3.09234000
-2.35315000 -1.70859000 -3.07522000
-2.41551000 -1.66094000 -3.04259000
-4.55772000 2.83251000 4.83008000
-4.55301000 2.89981000 4.83605000
-4.55707000 2.82415000 4.74153000
-4.50281000 2.63324000 4.72025000
-4.46319000 2.47570000 4.49921000
-4.44866000 2.55034000 4.60958000
0.76601700 -5.15479000 -2.10338000
0.72314100 -5.13655000 -2.10279000
0.66831700 -5.15165000 -2.20865000
1.19592000 -5.15483000 -2.49902000
1.03967000 -5.15544000 -2.56194000
1.11220000 -5.15549000 -2.60669000
-4.35671000 0.85331600 -0.55933900
-4.35545000 0.85552700 -0.37302200
-4.66322000 1.26065000 -0.40571100
-3.56353000 -0.18965100 -0.81402700
-3.53164000 -0.25676400 -0.65384700
-3.57125000 -0.18842100 -0.63907000
6.15614000 5.07885000 -1.96515000
6.26857000 5.08868000 -1.76211000
6.27938000 5.11994000 -1.81643000
6.60945000 5.14018000 -1.16587000
6.52792000 5.11375000 -1.29875000
6.63287000 5.11756000 -1.03675000
-1.54509000 -4.27569000 -1.93380000
-1.57133000 -4.33516000 -1.96797000
-1.50750000 -4.31305000 -2.00387000
-1.75963000 -4.76974000 -1.91858000
-1.69419000 -4.84127000 -2.00723000
-1.69223000 -4.72761000 -1.99100000
3.97588000 4.93328000 6.85905000
3.85899000 4.91829000 6.97017000
3.90255000 4.97919000 6.99053000
3.84088000 4.82935000 6.89893000
3.70015000 4.69350000 6.88879000
3.80006000 4.91202000 7.01984000
3.18856000 4.87347000 -7.03846000
3.37448000 4.83711000 -6.80140000
3.31307000 4.92835000 -6.98891000
3.90255000 5.01953000 -6.15190000
3.80239000 5.02119000 -6.41204000
3.72217000 4.88271000 -6.32986000
-0.96166200 1.20326000 6.95368000
-0.79010200 1.21560000 6.99530000
-0.86224900 1.28460000 7.02087000
-1.66662000 1.87396000 6.90555000
-1.68052000 1.82438000 6.83102000
4.81916000 3.32423000 3.34250000
4.99133000 3.46955000 3.25134000
4.78120000 3.16631000 3.14801000
4.91897000 3.00666000 2.32606000
4.78354000 2.86327000 2.42225000
4.84700000 3.04186000 2.71737000
0.17902600 3.73274000 -8.52809000
0.07677030 3.70083000 -8.56637000
0.14490800 3.59924000 -8.47677000
0.57670600 2.88221000 -7.73807000
0.48388300 2.75998000 -7.73428000
0.61645900 2.74722000 -7.59746000
-1.86762000 -3.40472000 1.00395000
-1.82697000 -3.48246000 0.90070500
-1.92410000 -3.45989000 0.77584400
-1.63969000 -3.67976000 -0.01300950
-1.55428000 -3.67842000 0.18892500
-1.53212000 -3.69360000 -0.00777210
0.30364300 -2.33490000 3.64544000
0.23911900 -2.25357000 3.71691000
0.18025000 -2.35628000 3.65517000
-0.23586800 -2.35243000 3.66628000
-0.15094600 -2.48431000 3.61141000
-0.10589400 -2.34373000 3.66997000
2.79578000 -0.66420100 0.95720500
2.41976000 -1.57314000 1.32616000
2.43571000 -1.64729000 1.19199000
2.46440000 -1.36351000 1.37690000
-0.45105200 -4.87498000 -2.52041000
-0.51378700 -4.93241000 -2.53213000
-0.58603600 -5.12590000 -2.66496000
-0.58950300 -5.15278000 -2.68525000
1.41359000 1.60128000 -6.18967000
1.55064000 1.99095000 -6.52777000
1.61951000 1.88466000 -6.29010000
1.90285000 2.70176000 -6.92078000
1.95164000 2.89877000 -7.07578000
2.08125000 2.76368000 -6.81642000
4.39036000 2.25151000 -3.62544000
4.37943000 2.24975000 -3.41599000
4.36255000 2.07675000 -3.33794000
4.31127000 2.09633000 -3.64728000
4.21918000 2.01088000 -3.64480000
4.23221000 2.07378000 -3.75460000
-4.28370000 2.09887000 3.75805000
-4.34717000 2.20679000 3.77590000
-4.28953000 2.09565000 3.66774000
-4.51961000 2.55294000 4.57364000
-2.19446000 0.69130700 5.15328000
-2.25839000 0.73905400 5.16120000
-2.27913000 0.67202300 5.11963000
-1.90297000 0.35559700 4.76554000
-1.78255000 0.45115500 4.74799000
-1.83733000 0.45036100 4.83986000
0.08976610 0.53800500 -6.59505000
0.04133470 0.59891500 -6.65539000
0.17761800 0.76471000 -6.73960000
0.99646900 1.54090000 -6.79076000
0.86038600 1.26729000 -6.65109000
0.85749900 1.35688000 -6.76824000
-4.09140000 2.41854000 -4.85731000
-3.97366000 2.20965000 -4.72138000
-4.04635000 2.28435000 -4.73764000
-3.83882000 1.98991000 -4.81459000
-3.84031000 1.95767000 -4.70804000
-3.82478000 2.08517000 -4.86468000
-3.99006000 0.36850700 2.90293000
-3.91263000 0.31925500 2.94136000
-3.93850000 0.34380400 3.01739000
-4.45483000 0.99132800 1.84017000
-4.38785000 0.86664300 1.86859000
-4.47661000 0.94523000 1.97872000
-3.83345000 4.88310000 7.45389000
-3.98491000 4.87093000 7.40692000
-3.69920000 4.88277000 7.63032000
-3.60001000 4.87963000 7.73209000
-3.32009000 4.88254000 7.84798000
-3.50943000 4.88537000 7.69867000
-4.35171000 2.73251000 -4.91197000
-4.52370000 2.97919000 -5.03074000
-4.05337000 2.43557000 -4.92690000
-3.90054000 2.37846000 -5.09862000
-3.92204000 2.20901000 -4.79434000
6.55930000 4.99715000 -0.91544300
6.71208000 5.11800000 -0.79567400
6.51937000 5.02397000 -1.09500000
6.80270000 5.11090000 -0.12799300
6.71964000 5.02817000 -0.33666500
6.68781000 4.98324000 -0.23079800
6.04544000 4.56236000 4.15916000
6.03618000 4.66638000 4.28474000
5.87177000 4.27414000 4.16168000
5.93609000 5.09345000 4.54756000
5.76434000 5.10108000 4.71506000
5.87107000 5.06182000 4.66477000
-4.27408000 1.00129000 -2.66793000
-4.23651000 0.91528800 -2.58807000
-4.31418000 1.00524000 -2.54631000
-4.05847000 1.25780000 -3.57224000
-4.13881000 1.40497000 -3.51216000
-4.11433000 1.39934000 -3.57957000
3.03588000 3.43457000 -5.82901000
3.05371000 3.34771000 -5.70384000
3.22570000 3.49331000 -5.61980000
2.24783000 1.75588000 -4.69463000
2.40934000 1.91016000 -4.67273000
2.38327000 2.06597000 -4.92204000
4.55452000 2.41759000 -3.03873000
4.71125000 2.61482000 -3.16986000
4.75180000 2.48748000 -2.73319000
4.43869000 2.13318000 -2.58415000
4.06411000 2.01835000 3.76660000
4.01382000 2.03100000 3.72977000
4.15881000 2.11035000 3.62723000
4.54621000 2.59725000 4.23669000
4.45789000 2.61255000 4.38441000
-0.82607900 3.91621000 9.19243000
-0.57356400 4.09485000 9.42934000
-0.66466100 4.18234000 9.42115000
-1.27480000 3.34943000 8.51595000
-1.17261000 3.53610000 8.73278000
4.77710000 2.68523000 3.47865000
4.60810000 2.48904000 3.68197000
4.57423000 2.47799000 3.58507000
4.62090000 2.56216000 3.57741000
2.09446000 -0.79470100 -2.76622000
2.22471000 -0.61363500 -2.69617000
2.24411000 -0.71909900 -2.56011000
2.80852000 -0.52208000 -1.04916000
-0.74236500 3.47873000 -9.14037000
-0.75844300 3.49476000 -9.21526000
-0.52420200 3.49167000 -9.10742000
-0.61564300 3.17867000 -8.85595000
-0.44673200 3.13948000 -8.84306000
-0.39432200 2.93743000 -8.76015000
-5.02192000 4.85197000 -6.45962000
-4.92233000 4.84242000 -6.63578000
-4.97185000 4.73394000 -6.44211000
-5.24253000 4.89295000 -5.87139000
-5.21065000 4.95400000 -5.84909000
-5.19340000 4.91866000 -5.97111000
1.80581000 -2.80815000 0.42518200
1.81808000 -2.84226000 0.30956200
1.73715000 -2.93421000 0.47123300
1.20439000 -2.97996000 1.68577000
1.37110000 -3.00278000 1.38407000
1.26378000 -3.08543000 1.44493000
-0.26148900 -0.67110900 -4.68648000
-0.20195100 -0.63091500 -4.68873000
-0.05779890 -0.89457200 -4.59389000
-0.03063190 -0.73055100 -4.58162000
0.04260040 -0.81774500 -4.48811000
0.01677340 -0.85733500 -4.56090000
5.72401000 3.19092000 1.76181000
5.62831000 3.05612000 1.76681000
5.85664000 3.20221000 1.22448000
6.03439000 3.27611000 0.60248200
6.10637000 3.32549000 0.36029000
6.13239000 3.40052000 0.62433600
0.48560100 -0.96647900 3.20333000
0.61237400 -1.05091000 3.10939000
0.48271300 -1.10358000 3.13775000
0.23436900 -1.11100000 3.21560000
0.06589680 -0.95809300 3.32681000
0.20942800 -0.93368800 3.30973000
0.64544000 3.60054000 9.40647000
0.58090000 3.59267000 9.34424000
0.67991000 3.57252000 9.28122000
0.53735300 2.82665000 8.83443000
0.56601300 2.98369000 8.88632000
0.44629400 2.88668000 8.87706000
2.12264000 -4.33232000 0.99005200
2.17116000 -4.16751000 1.05489000
2.09231000 -4.24563000 1.20297000
1.95771000 -4.03479000 1.77084000
1.85779000 -4.19026000 1.84370000
1.89158000 -4.24064000 1.74569000
-0.50807000 -3.43998000 1.96619000
-0.50362900 -3.50516000 1.85893000
-0.71671300 -3.49470000 1.82628000
-1.18472000 -3.61338000 1.22847000
-0.80351000 -3.62255000 1.40753000
-1.28176000 -3.63033000 1.04214000
1.84234000 -4.34983000 2.12802000
1.73240000 -4.33588000 2.12734000
1.72332000 -4.38622000 2.21433000
1.87988000 -4.33088000 1.79378000
1.85347000 -4.30822000 1.90615000
1.89696000 -4.34048000 1.94969000
-1.71740000 2.34346000 6.24285000
-1.65425000 2.38913000 6.35371000
-1.61744000 2.31015000 6.29494000
-1.55656000 3.74100000 7.49258000
-1.46034000 4.04914000 7.75579000
-1.41270000 3.90673000 7.73064000
-1.04064000 -1.93181000 2.63430000
-0.32944300 -2.10149000 2.73960000
-0.10824600 -2.05920000 2.74273000
-0.24209700 -2.27518000 2.69106000
-3.98531000 0.61416800 -2.55827000
-3.89961000 0.55151600 -2.55849000
-3.97879000 0.61196700 -2.43786000
-3.88506000 0.52203500 -1.95827000
-3.86588000 0.45026100 -1.83738000
-4.13641000 0.79631900 -1.83473000
-4.90450000 2.84328000 3.92036000
-5.09054000 2.97742000 3.83357000
-5.14867000 2.95900000 3.66212000
-5.36930000 3.54034000 4.31141000
-5.18321000 3.43656000 4.45851000
-5.27042000 3.55573000 4.48422000
-1.74747000 -4.77395000 -3.40916000
-1.79948000 -4.79130000 -3.30971000
-1.47618000 -4.74346000 -3.48856000
-1.52346000 -4.61209000 -3.48936000
3.31608000 1.02469000 3.11400000
3.38271000 1.02684000 3.16054000
3.32408000 1.09543000 3.19496000
3.34429000 1.18584000 3.61793000
3.26798000 1.16942000 3.78178000
3.25809000 1.18854000 3.61164000
-4.67461000 1.62169000 -2.28611000
-4.59457000 1.52175000 -2.29190000
-4.62520000 1.54394000 -2.18811000
-4.33042000 1.59320000 -3.23843000
-4.37520000 1.55890000 -3.18247000
-4.46917000 1.68196000 -3.04910000
-1.97130000 0.35708400 3.53111000
-1.88941000 0.23155100 3.49410000
-2.58602000 1.26703000 4.00624000
-2.72826000 1.50308000 4.16208000
-2.66998000 1.51569000 4.28266000
2.03077000 3.66925000 -6.95716000
1.86210000 3.63394000 -7.01387000
1.99772000 4.16034000 -7.34408000
2.03028000 4.52543000 -7.56527000
1.76517000 4.19968000 -7.46302000
-3.07506000 -4.11701000 -0.29493500
-3.06346000 -4.34251000 -0.32418100
-3.06433000 -4.12230000 -0.03200260
-3.03006000 -3.54670000 -0.60325600
-3.03327000 -3.68663000 -0.65189500
-3.05090000 -3.67180000 -0.52549000
-1.98577000 1.13071000 4.42288000
-2.04956000 1.35072000 4.63949000
-1.91000000 1.28692000 4.66588000
-2.41419000 1.16609000 4.08952000
-2.51090000 1.24020000 4.07641000
-2.55685000 1.42075000 4.29030000
3.69309000 4.70770000 -7.22077000
3.51106000 4.44328000 -7.20908000
3.54172000 4.71828000 -7.37079000
3.76390000 5.02473000 -7.25227000
3.79439000 4.97855000 -7.25078000
3.65400000 4.98891000 -7.38787000
3.51472000 0.65254900 1.42932000
3.41553000 0.46175600 1.16722000
3.59932000 0.71655700 1.27227000
3.65019000 0.69044300 0.30661000
3.55921000 0.58170000 0.22527100
3.66423000 0.72449200 0.00147478
-2.67825000 3.63890000 -7.95888000
-2.48936000 2.83027000 -7.57581000
-2.57501000 2.75691000 -7.39022000
2.66318000 1.00259000 -4.10872000
2.53021000 0.98602000 -4.10916000
2.59848000 1.07806000 -4.11609000
2.37525000 0.79068300 -4.22389000
2.35408000 0.79707100 -4.31029000
-3.22521000 -5.02162000 0.67991600
-3.17251000 -5.03056000 0.68491300
-3.14840000 -5.03869000 0.79863100
-3.21102000 -4.83632000 0.94046800
-3.16945000 -4.91396000 0.99473100
-3.10566000 -4.77142000 1.01288000
1.98055000 3.46678000 8.17243000
2.23177000 3.57336000 7.91492000
2.21692000 3.88485000 8.19288000
1.49539000 3.25465000 8.51501000
1.42369000 3.05511000 8.42497000
-2.75063000 -0.41407300 3.26731000
-2.69726000 -0.35962400 3.37528000
-2.76907000 -0.35726800 3.29155000
-2.53024000 -0.93526000 2.77406000
-2.54332000 -0.85263500 2.84480000
-2.62031000 -0.83752100 2.77760000
3.87963000 2.15362000 4.57640000
3.80672000 2.09938000 4.51717000
3.93449000 2.10583000 4.48851000
4.00990000 2.08360000 4.33438000
4.07701000 2.10928000 4.23749000
4.18148000 2.18429000 4.24512000
-3.82614000 3.77950000 5.42606000
-5.30196000 4.84521000 4.84650000
-5.16598000 4.85974000 4.99196000
-5.15597000 4.78947000 4.91320000
-0.08768800 4.36850000 -9.65586000
-0.19673100 4.36597000 -9.69876000
-0.07724700 4.59132000 -9.76020000
-0.12376400 4.88902000 -9.71872000
-0.22268200 4.88066000 -9.71459000
-0.26487400 4.90607000 -9.60055000
1.36167000 1.86665000 7.32060000
1.22024000 1.89254000 7.40921000
1.22139000 1.75988000 7.33682000
1.23006000 2.11676000 7.65920000
1.24449000 2.15617000 7.75380000
1.12296000 2.03857000 7.75026000
-3.37190000 4.50585000 7.12549000
-3.56330000 4.72191000 7.20666000
-3.38614000 4.65986000 7.28215000
-4.18441000 4.72804000 5.96397000
-4.21008000 4.80795000 6.15818000
-4.07669000 4.60292000 6.12137000
-4.30198000 4.13754000 -5.76585000
-4.44608000 4.18415000 -5.46058000
-4.34449000 4.06843000 -5.54781000
-5.45366000 5.02165000 -4.69404000
-5.53538000 5.01420000 -4.59049000
-5.43700000 5.00574000 -4.65070000
-0.74898600 -1.75855000 3.70602000
-0.80561000 -1.83920000 3.61702000
-0.76748300 -1.88132000 3.66370000
-0.40763000 -1.93645000 3.73283000
-0.53201500 -1.77541000 3.78395000
-0.55952500 -1.97360000 3.70333000
-5.00041000 2.45563000 2.83914000
-5.19188000 2.66556000 2.85917000
-5.12379000 2.50425000 2.63409000
-5.35390000 3.19358000 3.72485000
-5.21632000 3.11656000 3.86408000
2.34964000 0.40436500 2.44842000
2.26868000 0.41438200 2.64184000
2.50158000 0.62982000 2.51083000
3.41496000 1.86588000 3.08022000
3.26126000 1.69946000 3.01244000
3.43300000 2.02606000 3.29661000
3.59361000 5.04307000 -7.39355000
3.46161000 5.02533000 -7.51862000
3.45961000 5.07215000 -7.46957000
2.66366000 5.09815000 -7.66522000
2.77736000 5.11613000 -7.71219000
2.58893000 5.11263000 -7.76944000
-4.79818000 4.95080000 -6.05667000
-4.89522000 4.97800000 -5.86474000
-4.74669000 4.91145000 -6.08643000
-4.68647000 4.66381000 -5.71177000
-4.84544000 4.82269000 -5.59143000
-4.74559000 4.65291000 -5.51406000
-2.49042000 -0.84477200 2.98872000
-2.46440000 -0.93472400 3.02345000
-2.47877000 -0.87374600 3.06312000
-2.36963000 -0.78562800 3.39854000
-2.33001000 -0.74777700 3.48637000
-2.39093000 -0.70829100 3.41352000
2.98622000 2.08631000 4.51854000
3.01311000 2.20030000 4.68115000
3.17172000 2.24854000 4.47187000
3.86592000 3.75335000 5.63482000
3.85857000 3.60720000 5.46548000
3.76271000 3.62238000 5.65387000
3.97389000 4.24192000 -5.23959000
3.87830000 4.32007000 -5.39757000
3.88038000 4.23230000 -5.32022000
2.87468000 1.92222000 -3.83932000
2.90128000 1.77714000 -3.62801000
-5.20854000 2.80535000 3.22576000
-5.26436000 2.94261000 3.36324000
-5.27807000 2.92209000 3.27616000
-5.19969000 2.79816000 3.33357000
-5.14458000 2.66856000 3.19198000
-5.15364000 2.63483000 3.23155000
-3.86488000 3.78959000 -6.06069000
-3.94700000 3.86248000 -6.03274000
-3.89210000 3.66729000 -5.86601000
-3.28018000 3.30121000 -6.23417000
-3.10995000 3.12665000 -6.22734000
-3.07119000 3.23111000 -6.36205000
-4.10518000 1.13732000 -3.23049000
-4.02849000 0.97607800 -3.19113000
-4.20796000 1.16360000 -3.08964000
-3.74547000 0.77786600 -3.14795000
-3.80628000 0.72587900 -3.13290000
-3.82791000 0.83561100 -3.23777000
2.65137000 -2.14493000 -0.31580400
2.65276000 -2.03554000 -0.26050600
2.64033000 -2.11933000 -0.24805100
2.68894000 -1.73811000 -1.07649000
2.72280000 -1.69899000 -0.93872500
2.68481000 -1.83467000 -1.01321000
-6.20316000 5.00638000 -3.41829000
-6.21800000 5.04438000 -3.51267000
-6.32138000 5.04008000 -3.12052000
-6.20529000 4.84149000 -2.08268000
-6.23556000 4.89664000 -2.02791000
-6.22188000 4.87325000 -1.83463000
-2.57877000 -0.99068200 1.12784000
-2.49613000 -1.01626000 1.34027000
-2.44639000 -1.40184000 1.11618000
-2.89893000 -0.26693200 0.96377100
-2.93259000 -0.09993390 1.12710000
-0.70762800 -0.03447180 4.45888000
-0.67860500 -0.15424900 4.36104000
-0.52952100 -0.06808590 4.45871000
-0.92445100 0.08023960 4.49507000
-0.81828300 -0.07689880 4.39268000
-0.40351300 -4.49635000 -3.45859000
-0.35699100 -4.45284000 -3.53443000
-0.93782700 -4.13208000 -3.50924000
-0.95593800 -4.16408000 -3.45545000
-0.95487400 -4.08612000 -3.48851000
1.25679000 0.45149000 5.01397000
1.09893000 0.35112600 4.94898000
1.29581000 0.44050900 4.92899000
1.73820000 1.06820000 5.83560000
1.68161000 1.03891000 5.95595000
1.65743000 0.94596500 5.77009000
-0.47969300 -2.59759000 -3.10012000
-0.68228200 -2.64383000 -3.03481000
-0.60488600 -2.81709000 -2.97024000
-1.41721000 -3.14169000 -2.38467000
-1.18306000 -3.18731000 -2.49314000
-1.32693000 -3.04436000 -2.50766000
0.89106600 3.74988000 8.55831000
0.97506100 3.94003000 8.66094000
1.04859000 3.83859000 8.51239000
1.29435000 4.52716000 8.94727000
1.50371000 4.74771000 8.99723000
1.38076000 4.54360000 8.88641000
2.56456000 4.67941000 7.52217000
2.43722000 4.68889000 7.69483000
1.25930000 4.10066000 8.57020000
1.12376000 4.28335000 8.84952000
1.36267000 4.34796000 8.70939000
-0.82264800 0.23377900 -5.65324000
-0.63645300 0.22046500 -5.66696000
-0.68379100 0.23771300 -5.57967000
-0.77431000 0.19723200 -5.74500000
-0.69390100 0.16018200 -5.81941000
-4.83441000 2.39130000 3.59055000
-4.69795000 2.37732000 3.53621000
-4.70829000 2.37743000 3.74723000
-5.11640000 2.71214000 3.50703000
-5.04870000 2.67720000 3.51076000
-5.06515000 2.81130000 3.56402000
-0.89701000 -4.16631000 1.95707000
-0.71479700 -4.15867000 2.02296000
-0.92484100 -4.21627000 1.97630000
-0.82973900 -4.12988000 1.96496000
-0.71479700 -4.15867000 2.02296000
-0.89701000 -4.16631000 1.95707000
-4.35872000 2.08762000 3.93572000
-4.44540000 2.21512000 3.98937000
-4.38089000 2.20598000 3.91951000
-4.75755000 2.39896000 3.79333000
-2.19182000 -0.09220170 -3.27726000
-2.35322000 -0.08760240 -3.09232000
-2.31397000 -0.17253200 -3.07002000
-2.40050000 0.92638700 -4.30036000
-2.24070000 1.02301000 -4.57027000
-2.47506000 1.12168000 -4.49183000
0.71600800 -0.27153100 5.27918000
0.78971000 -0.12829600 5.23505000
0.75764400 -0.28071900 5.33410000
0.42817900 -0.59814500 5.44229000
0.44086500 -0.61839600 5.50560000
0.28087600 -0.67303600 5.50917000
2.24666000 -4.01321000 0.92435200
2.28236000 -4.07182000 0.70805800
2.32690000 -3.85248000 0.67276700
2.37460000 -4.02568000 -0.36909000
2.34932000 -4.11587000 -0.45814800
2.36803000 -3.99074000 -0.54674000
-3.71039000 4.19231000 -7.39742000
-3.46261000 4.16960000 -7.51980000
-3.50835000 3.89982000 -7.32638000
-4.06456000 4.40271000 -7.31356000
-3.95926000 4.21996000 -7.26625000
-4.02393000 4.17045000 -7.18899000
-2.97010000 0.73903300 -3.31585000
-3.08053000 0.93310400 -3.45089000
-3.17613000 0.93647400 -3.29093000
-2.49814000 0.43734400 -3.51670000
-2.70461000 0.58271400 -3.46496000
-2.58684000 0.37549300 -3.31167000
-2.70972000 -1.38986000 -0.51879800
-2.70079000 -1.47118000 -0.30664200
-2.67265000 -1.63701000 -0.43052100
-2.97357000 -0.50708800 -0.42337600
-2.98364000 -0.46278200 -0.58101500
-3.08222000 -0.23350900 -0.67235000
-3.47012000 1.29598000 -4.53612000
-3.52809000 1.49618000 -4.64249000
-3.41298000 1.40965000 -4.56890000
-2.96272000 0.75670700 -4.18844000
-2.89957000 0.38917200 -3.82865000
-3.07043000 0.76238900 -4.05637000
-0.47833100 -0.09185870 5.28661000
-0.48306100 -0.20329200 5.32736000
-0.54833400 -0.15620900 5.37976000
-0.36469400 0.13670800 5.02173000
-0.55627300 0.21975500 5.11264000
-0.50799100 0.21580300 5.03306000
0.72447400 -2.91231000 -3.31227000
0.61786500 -2.90895000 -3.37150000
0.68478400 -2.33544000 -3.48848000
1.01513000 -3.95477000 -2.91436000
1.15107000 -3.95697000 -2.81241000
1.22971000 -4.16207000 -2.74412000
-3.47110000 0.99530600 -3.90649000
-3.64773000 0.99231800 -3.86681000
-3.49527000 0.99152200 -4.01212000
-3.43211000 1.20459000 -4.47264000
-3.40905000 1.33310000 -4.52812000
-3.36142000 1.24910000 -4.45353000
-0.80040500 -3.96141000 -3.58266000
-0.57600700 -3.97101000 -3.57538000
-0.67814100 -4.06700000 -3.57563000
-0.80526000 -2.57976000 -3.88905000
-0.74481500 -2.25243000 -4.01592000
-0.67964900 -2.49824000 -3.88695000
-0.03659960 0.26207700 4.58074000
0.08861810 0.21312900 4.46013000
-0.09854130 0.24828500 4.54134000
0.16837700 -0.16411500 3.84955000
0.31982500 -0.29734400 3.68515000
0.04396700 -0.29396200 3.75658000
-1.40356000 -3.42607000 -3.28470000
-1.41056000 -3.21527000 -3.33527000
-1.37948000 -3.30943000 -3.36590000
-1.89218000 -3.22818000 -3.25977000
-1.78150000 -3.27833000 -3.29350000
-1.78441000 -3.40878000 -3.28269000
-1.57371000 -3.78505000 -3.21336000
-1.44061000 -3.74958000 -3.20413000
-1.49829000 -3.83157000 -3.14966000
-1.60737000 -3.33300000 -3.31041000
-1.61029000 -3.19573000 -3.31969000
-1.53306000 -3.25769000 -3.30591000
2.76794000 4.10810000 6.96364000
2.67775000 4.23165000 7.09686000
2.83997000 4.31699000 7.04493000
2.78300000 2.96425000 6.05001000
2.62077000 2.90718000 6.14231000
2.64569000 3.06220000 6.27075000
-0.61414800 -2.57012000 2.56369000
-0.57975800 -2.63679000 2.54413000
-0.73913900 -2.57630000 2.52986000
-0.80860100 -2.43557000 2.55930000
-0.65158200 -2.48811000 2.58744000
0.47650800 -1.69357000 3.75596000
0.51510200 -1.78219000 3.72457000
0.52017800 -1.66926000 3.70549000
0.55604200 -2.10370000 3.61773000
0.52777600 -2.34881000 3.57863000
0.53459100 -2.42711000 3.49014000
0.18056100 3.02538000 8.33494000
0.32818600 3.17782000 8.39396000
0.65227900 3.87302000 8.81500000
0.57220500 4.05512000 9.00407000
0.68925200 4.17005000 9.03938000
-4.01171000 0.72092300 -2.26344000
-4.13533000 0.84743700 -2.18226000
-4.08639000 0.74126600 -2.28188000
-4.42323000 1.20288000 -2.32967000
-4.36612000 1.15209000 -2.22100000
-4.42934000 1.27535000 -2.30798000
1.51707000 -3.12279000 -1.19488000
1.43727000 -3.27538000 -1.10729000
1.57970000 -3.08982000 -1.04444000
1.18231000 -3.55004000 -0.79294900
1.12638000 -3.57561000 -0.47730900
1.32234000 -3.46855000 -0.53002800
5.43788000 3.80610000 2.33838000
5.39329000 3.65818000 2.05973000
5.34632000 3.64105000 2.33105000
5.40269000 3.76720000 2.42984000
5.34958000 3.69183000 2.49152000
5.35447000 3.76868000 2.75981000
-0.33704100 -2.66097000 2.56461000
-0.16908200 -2.57474000 2.58612000
-0.09428630 -2.66155000 2.55063000
0.11379600 -3.25835000 2.13773000
0.22999700 -3.36762000 1.97006000
0.05807410 -3.36998000 2.02016000
1.67438000 -1.56724000 2.73218000
1.76244000 -1.68027000 2.59295000
1.79665000 -1.37736000 2.65220000
1.62074000 -3.07616000 2.50534000
1.64652000 -3.56290000 2.41146000
5.28131000 3.61886000 4.31481000
5.24836000 3.73841000 4.49147000
5.06550000 3.55351000 4.55184000
4.60865000 3.66933000 5.43284000
4.42455000 3.72764000 5.89150000
4.50036000 3.55769000 5.50879000
-2.56957000 -3.26168000 -2.17564000
-2.68676000 -3.34497000 -1.92458000
-2.69926000 -3.11850000 -1.91442000
-2.26405000 -3.55251000 -2.64309000
-2.39527000 -3.60612000 -2.43880000
-2.31393000 -3.53227000 -2.55388000
0.25915000 -5.16456000 -3.46056000
0.21942100 -5.16787000 -3.42441000
0.13808800 -5.16158000 -3.45085000
0.04054340 -5.15336000 -3.46123000
-0.01706620 -5.10406000 -3.55258000
-1.06986000 -4.57051000 -3.39489000
-1.20309000 -4.46918000 -3.39208000
-1.02760000 -4.44840000 -3.35901000
-1.07045000 -3.40156000 -3.48501000
-1.15180000 -3.37967000 -3.48325000
-1.08304000 -3.24830000 -3.51675000
-5.98919000 3.77941000 0.76639400
-6.00715000 3.86985000 0.90939600
-5.87981000 3.61449000 0.78342200
-5.58357000 3.47252000 1.53424000
-5.62570000 3.39407000 1.19829000
-5.66069000 3.53698000 1.42179000
-2.50087000 -0.64209200 -3.29647000
-2.58105000 -0.69866100 -3.13347000
-2.58853000 -0.51513500 -3.27857000
-3.07693000 0.41063400 -3.60244000
-3.13598000 0.67622000 -3.86078000
-2.95454000 0.35475400 -3.71179000
-0.16826200 0.06294500 -5.18205000
-0.22532000 -0.03095750 -5.06300000
-0.29626200 0.09007360 -5.21917000
-0.25601200 0.26070700 -5.60129000
-0.34565200 0.23894100 -5.53662000
-0.43501000 0.23861000 -5.61552000
-3.01411000 1.15592000 -4.76623000
-3.05559000 1.19301000 -4.74129000
-3.07005000 1.14949000 -4.80666000
-3.17665000 1.24328000 -4.51756000
-3.20579000 1.17535000 -4.40978000
-3.35869000 1.47470000 -4.63496000
-0.47575900 -0.83429000 3.37792000
-0.57762100 -0.64233200 3.47934000
-0.48945000 -0.56990100 3.56067000
-0.48420800 -0.47296900 3.63709000
-0.59401400 -0.27392000 3.77740000
-0.43478600 -0.32522200 3.76301000
-2.20370000 -3.35860000 -0.87290000
-2.17809000 -3.40916000 -0.66222800
-2.05340000 -3.26295000 -1.54831000
-2.05828000 -3.10171000 -1.68277000
-2.15285000 -3.16424000 -1.43482000
-1.44414000 3.69012000 -8.51223000
-1.51727000 3.60560000 -8.39473000
-1.46058000 3.47693000 -8.32186000
-2.23710000 4.41334000 -8.27175000
-2.08546000 4.23934000 -8.30889000
-2.11161000 4.51708000 -8.54633000
-3.24329000 -4.46315000 -0.62243700
-3.31649000 -4.61774000 -0.62430900
-3.24697000 -4.59043000 -0.49229400
-3.11786000 -4.49851000 0.18598000
-3.08609000 -4.45059000 -0.07986040
-3.13349000 -4.53079000 -0.10126600
-4.79270000 2.85882000 4.27386000
-4.75677000 2.67669000 4.12917000
-4.81390000 2.83496000 4.36698000
-4.93300000 2.56036000 3.66433000
-5.01874000 2.63129000 3.51782000
-5.05205000 2.57099000 3.49313000
-1.34898000 1.59524000 -7.54688000
-1.18003000 2.16387000 -7.99653000
-1.15430000 1.97069000 -7.92684000
-1.33175000 2.06001000 -7.91456000
-4.27228000 1.42895000 3.02762000
-4.26238000 1.49092000 3.06938000
-4.24074000 1.48447000 2.94011000
-4.11914000 0.83370500 3.50142000
-4.07408000 0.86716500 3.63753000
5.89848000 5.09527000 -4.40262000
5.77508000 5.09475000 -4.45849000
5.90146000 5.09790000 -4.17179000
5.28711000 5.10089000 -5.29784000
0.58793400 -1.99192000 -3.64510000
0.49866000 -2.04717000 -3.67292000
0.56014000 -1.86954000 -3.70978000
0.11924300 -0.82590300 -4.40131000
0.35425300 -1.06909000 -4.17607000
0.25117600 -1.02957000 -4.25605000
-3.38357000 -2.31073000 -0.84265900
-3.31367000 -2.13292000 -0.83697400
-3.33601000 -2.19604000 -0.91197500
-3.25247000 -1.78763000 -0.57554600
-3.35697000 -1.70120000 -0.59334700
-3.32453000 -1.77553000 -0.64221800
4.67697000 5.04211000 -5.37290000
4.80287000 5.05704000 -5.31412000
5.02531000 5.04287000 -5.13118000
4.93764000 5.08723000 -5.26278000
-3.25928000 -2.10745000 -1.66196000
-3.07377000 -1.92830000 -2.10476000
-3.16282000 -1.98872000 -1.97006000
-3.13815000 -1.92989000 -1.96169000
-6.45105000 4.36171000 -3.33660000
-6.32167000 4.15806000 -3.40508000
-6.37610000 4.19027000 -3.26605000
-5.56297000 3.37854000 -3.90537000
-5.49925000 3.25164000 -3.81298000
-5.63986000 3.34719000 -3.69994000
4.83610000 5.09667000 6.16797000
4.72730000 5.07856000 6.46060000
4.83535000 5.06319000 6.26224000
5.60700000 5.08493000 4.88193000
5.55266000 5.00284000 4.99914000
5.75937000 5.03178000 4.79684000
-2.66071000 -2.49806000 -2.85281000
-2.60883000 -2.34817000 -2.93446000
-2.61852000 -2.56335000 -2.88983000
-2.59421000 -3.13837000 -2.27112000
-2.64695000 -3.07396000 -2.33686000
-2.62531000 -3.18196000 -2.34440000
-0.59846200 -2.00746000 -3.29945000
-0.51743200 -2.11985000 -3.27271000
-0.50630400 -1.96912000 -3.33217000
-0.31030500 -2.27032000 -3.23872000
-0.30309600 -2.35448000 -3.20527000
-0.09381880 -2.34740000 -3.19919000
0.93235900 4.08119000 9.65996000
1.01933000 4.25323000 9.71283000
0.87534400 4.28916000 9.78005000
1.30456000 4.73845000 9.76181000
1.14916000 4.68386000 9.85984000
1.23520000 4.66514000 9.82444000
-0.74557200 -0.45115400 -3.92494000
-0.87484200 -0.27417000 -4.00591000
-1.01904000 -0.33678200 -3.90844000
-0.72322700 -0.50731900 -3.89703000
-0.78801000 -0.54171200 -3.85471000
-0.58170100 -0.61807400 -3.86428000
2.90358000 0.42146200 0.56772100
2.94910000 0.47140700 0.54460900
2.85430000 0.33286400 0.41343200
2.47016000 -0.29101600 0.72976000
2.55346000 -0.07329680 0.87706500
2.53028000 -0.16604200 0.70321500
-0.76425800 2.78975000 7.90346000
-0.80058000 2.58567000 7.73742000
-0.91946200 2.80866000 7.79130000
-0.25397100 3.59821000 8.65387000
-0.11029300 3.57295000 8.67824000
-0.23534300 3.36632000 8.53319000
-3.09597000 0.63103200 4.66201000
-3.05417000 0.53778500 4.69184000
-2.98780000 0.59897800 4.76282000
-2.68655000 0.45752000 4.84740000
-2.50548000 0.47911300 4.93148000
-2.62368000 0.57826400 4.97122000
-1.86519000 -4.74454000 2.55616000
-1.96653000 -4.72465000 2.46055000
-2.01983000 -4.84906000 2.46561000
-1.71324000 -5.01224000 2.54977000
-1.55347000 -5.00727000 2.48331000
-1.86625000 -3.39634000 -3.24710000
-1.93976000 -3.45220000 -3.15682000
-2.02535000 -3.25306000 -3.16037000
-2.06200000 -3.38564000 -2.89633000
-2.11062000 -3.38100000 -2.82575000
-2.10555000 -3.29590000 -2.87349000
1.09151000 -4.19407000 1.15310000
1.14489000 -4.20341000 1.00720000
1.13922000 -4.24131000 1.09772000
1.07685000 -4.17429000 1.14487000
1.14489000 -4.20341000 1.00720000
1.09151000 -4.19407000 1.15310000
-4.94997000 3.05157000 4.27038000
-4.84375000 2.93701000 4.23767000
-4.85922000 2.98648000 4.35211000
-5.07017000 3.21399000 4.50245000
-5.04680000 3.10325000 4.60458000
-5.02478000 3.23232000 4.58607000
-0.54716500 1.00411000 -7.22800000
-0.47154200 1.24503000 -7.36358000
-0.29400300 1.06961000 -7.28145000
-0.50288100 0.75619600 -6.98298000
-0.33157200 0.79840000 -7.00621000
-2.95833000 -3.65905000 0.48670200
-2.96730000 -3.22137000 0.32574200
-2.98996000 -3.66682000 0.28721900
-3.17274000 -3.32012000 0.05745700
-3.20265000 -3.44097000 -0.00861717
-3.15972000 -3.44433000 0.04781240
-0.02871140 -4.22515000 -2.14889000
-0.22029700 -4.22160000 -2.17572000
-0.08289560 -4.25829000 -2.19097000
-0.80976400 -4.26422000 -2.25530000
-0.60733300 -4.26387000 -2.26743000
-0.69220000 -4.20986000 -2.20432000
-2.37249000 0.93373400 -5.13680000
-2.58643000 1.11861000 -5.12603000
-2.59593000 1.23904000 -5.30367000
-2.67036000 1.00638000 -4.85353000
-2.78429000 1.00030000 -4.70010000
-2.70156000 1.05753000 -4.88580000
-2.97807000 -3.73065000 -1.51819000
-2.88553000 -3.46654000 -1.56073000
-2.88960000 -3.74411000 -1.53117000
-3.05011000 -3.88641000 -1.45425000
-3.08507000 -3.74660000 -1.44751000
-3.03184000 -3.77831000 -1.48643000
1.00403000 -4.56581000 1.52211000
1.02263000 -4.64719000 1.42724000
0.96286700 -4.63604000 1.53115000
0.90203200 -4.25224000 1.68223000
0.83079900 -4.22558000 1.75099000
-2.94526000 -3.97725000 -1.48383000
-2.99528000 -3.85049000 -1.49403000
-2.91139000 -3.90350000 -1.50615000
-3.07595000 -4.28782000 -1.16294000
-3.13882000 -4.14164000 -1.15153000
-3.10042000 -4.20146000 -1.19848000
3.91695000 3.05770000 -5.28790000
4.18278000 3.90390000 -5.77785000
4.01604000 3.76936000 -5.88528000
4.11865000 3.92865000 -5.87125000
0.45934300 -4.33627000 3.26237000
0.44458600 -4.38371000 3.17889000
0.48064700 -4.29915000 3.21169000
0.50913100 -3.17455000 3.37516000
0.55312400 -3.34182000 3.30605000
0.53198400 -3.17442000 3.33321000
2.40587000 -1.24928000 -2.21004000
2.41734000 -1.44468000 -2.18517000
2.35382000 -1.42269000 -2.28966000
2.20608000 -0.95103900 -2.43440000
2.05873000 -1.12160000 -2.58383000
2.11697000 -0.94039800 -2.60594000
1.53560000 -2.82441000 -2.65894000
1.45761000 -3.16669000 -2.67762000
1.43066000 -2.75731000 -2.78840000
1.65936000 -2.39255000 -2.61701000
1.79118000 -2.09067000 -2.53212000
1.75501000 -2.31187000 -2.51064000
2.54686000 4.86090000 7.72675000
2.68809000 4.90077000 7.59807000
2.67068000 4.85055000 7.56125000
3.19083000 4.92116000 7.32946000
3.41846000 4.90957000 7.23823000
2.26187000 -1.14932000 -2.38214000
2.17004000 -1.13132000 -2.45133000
2.24145000 -1.03170000 -2.35817000
1.88997000 -2.03049000 -2.45203000
1.99148000 -1.96385000 -2.44975000
1.98045000 -2.02996000 -2.42358000
-0.98873000 0.58398900 -5.12279000
-1.12616000 0.68712800 -5.23788000
-1.22004000 0.61951000 -4.98461000
-1.34481000 -0.13654600 -3.90010000
-1.19756000 -0.12182500 -3.98171000
-1.38187000 0.05855200 -4.01147000
3.55392000 0.58525800 0.86041300
3.72966000 0.80250900 0.82413600
3.68738000 0.78179700 1.05123000
4.57567000 1.76284000 1.02061000
4.94277000 2.14951000 1.00748000
4.52112000 1.74939000 1.33599000
4.49418000 4.34792000 4.97866000
4.41804000 4.32470000 5.14366000
4.44882000 4.45887000 5.25986000
5.17030000 5.06839000 4.77803000
5.02801000 5.10044000 4.99979000
5.23475000 5.08973000 4.75494000
7.12975000 4.96155000 0.26579700
6.98105000 4.67995000 0.21732000
7.12626000 4.90255000 0.07443720
7.17512000 5.05472000 0.10693200
7.20143000 5.06207000 -0.26589400
7.18638000 5.09041000 -0.18117100
-5.83991000 4.90190000 4.21159000
-5.78699000 4.83574000 4.16987000
-5.88258000 4.86441000 4.02425000
-6.02427000 4.93197000 4.06509000
-6.13651000 4.93047000 3.95649000
-5.93804000 4.93656000 4.32799000
0.60976100 -4.36055000 -2.02040000
0.57053100 -4.45182000 -2.06781000
0.65364100 -4.44129000 -2.00921000
0.53661600 -4.39827000 -2.06765000
4.04040000 3.89172000 6.66256000
4.22117000 3.97739000 6.50968000
4.23270000 4.18792000 6.69025000
3.11784000 2.98885000 6.67594000
3.25939000 3.23080000 6.79852000
2.81896000 2.91578000 6.83616000
4.55494000 5.00706000 5.85034000
4.66044000 5.04487000 5.61706000
4.64148000 4.95596000 5.48903000
4.42864000 4.98574000 6.13798000
4.35384000 4.99610000 6.32659000
4.51218000 5.02347000 6.00575000
-3.77363000 4.44598000 6.54920000
-3.80684000 4.41691000 6.44875000
-3.95266000 4.59241000 6.47957000
-3.67837000 3.87133000 5.96102000
-3.61227000 3.93365000 6.14822000
-3.57194000 3.67902000 5.92242000
3.91049000 1.21242000 -1.55577000
4.13788000 1.52501000 -1.72913000
4.25667000 1.58898000 -1.49479000
3.51250000 0.54163500 -0.01082810
3.56928000 0.63992900 -0.36433900
-1.05671000 -0.83174400 -4.31893000
-1.01204000 -0.74349500 -4.38030000
-0.96263300 -0.83404200 -4.42074000
-1.19341000 -1.25906000 -3.99764000
-0.38246600 3.53370000 -9.14420000
-0.47621900 3.54395000 -9.24146000
-0.30360400 3.60097000 -9.25700000
-0.16032000 4.05881000 -9.52883000
-0.30617000 3.96375000 -9.53634000
5.74705000 3.79845000 0.96916100
5.77642000 3.77027000 0.81500000
5.66922000 3.65847000 0.97012100
5.71405000 4.02166000 1.33202000
5.75592000 4.21133000 1.40225000
5.79718000 4.10575000 1.20924000
-1.19912000 4.54086000 -9.87518000
-1.24163000 4.16206000 -9.66656000
-1.31350000 4.53633000 -9.84776000
-2.05002000 4.89935000 -9.46189000
-1.85360000 4.89676000 -9.63789000
-1.91604000 4.86449000 -9.62675000
-0.58249700 -0.34292200 5.58509000
-0.43580700 -0.47873800 5.49078000
-0.48883100 -0.45369300 5.58694000
-0.57540300 -0.28429700 5.48276000
-0.45160000 -0.43563700 5.44989000
-0.62688600 -0.27037000 5.55606000
3.11531000 1.33619000 -3.88597000
3.02583000 1.26847000 -3.81912000
3.03418000 1.22012000 -3.88268000
-3.61889000 1.30056000 -4.44166000
-3.65101000 1.25681000 -4.33259000
-3.68388000 1.38513000 -4.43473000
-3.81030000 1.78208000 -4.71909000
-3.81842000 1.86829000 -4.80545000
-2.52681000 -2.43502000 1.78303000
-2.63909000 -2.71079000 1.51240000
-2.52505000 -2.74540000 1.74309000
-2.88995000 -1.96071000 0.91510600
0.52648800 1.83075000 7.97069000
0.42577100 1.95067000 8.14606000
0.63702100 1.94510000 8.08223000
0.54310300 2.08932000 8.18790000
2.72100000 0.84217300 -3.89709000
2.67790000 0.83449600 -3.79882000
2.53238000 0.69519300 -3.79598000
2.15699000 0.46687500 -4.20770000
2.14073000 0.46528900 -4.12868000
2.01312000 0.45114500 -4.24103000
-2.08388000 -2.50539000 -3.43852000
-2.17292000 -2.63758000 -3.36098000
-2.20007000 -2.54528000 -3.37731000
-1.85352000 -2.21279000 -3.57301000
-1.97780000 -2.28572000 -3.50667000
-1.86316000 -2.12931000 -3.55297000
-6.10485000 3.10956000 0.83899200
-6.18082000 3.23501000 0.97125800
-6.34274000 3.37762000 0.71217500
-7.01043000 4.44137000 0.40824400
-6.93458000 4.31129000 0.56315400
-5.80344000 4.72368000 4.83951000
-5.91956000 4.76515000 4.70144000
-5.91006000 4.70701000 4.69110000
-5.56422000 4.24881000 4.75842000
-5.44752000 4.24483000 4.88809000
-5.56047000 4.51710000 4.97938000
-1.81652000 -3.13227000 -3.31136000
-1.74366000 -3.05025000 -3.37645000
-1.75259000 -3.13003000 -3.32685000
-1.39713000 -3.12579000 -3.40842000
-1.36443000 -3.22389000 -3.46319000
-6.64194000 3.73106000 0.39482000
-6.66902000 3.75252000 0.18202500
-6.57786000 3.61552000 0.21185000
-6.33519000 3.43566000 -0.92474700
-6.55162000 3.66058000 -0.54327900
-6.35653000 3.52065000 -1.06342000
4.12908000 3.81385000 6.47516000
3.95796000 3.67441000 6.55307000
4.30794000 3.49457000 5.80472000
4.47745000 3.42922000 5.37993000
-3.58438000 -0.09776270 1.74117000
-3.59012000 -0.12529900 1.83731000
-3.63477000 -0.05310520 1.78125000
-3.58341000 -0.10080700 2.67484000
-3.59256000 -0.11550000 2.51710000
-3.55070000 -0.14942200 2.61309000
0.43266000 4.22195000 9.80743000
0.33084600 4.00788000 9.70672000
0.48593100 3.95943000 9.68892000
0.34593400 3.80840000 9.60197000
0.16219200 3.92879000 9.64111000
0.17772000 3.81809000 9.57230000
6.46940000 5.05592000 2.90491000
6.46241000 5.06173000 2.70903000
6.44567000 5.09596000 2.70793000
6.46241000 5.06173000 2.70903000
6.45655000 5.06789000 2.38497000
6.44567000 5.09596000 2.70793000
-2.39566000 -0.24865000 -3.74866000
-2.31154000 -0.27200600 -3.81528000
-1.62130000 0.58057500 4.79254000
-1.73455000 0.60810200 4.91206000
-1.66675000 0.50887300 4.73348000
-1.03381000 0.39211300 4.79418000
-0.92824700 0.26753600 4.68470000
-0.64403700 0.15933500 4.68097000
-2.01369000 -3.16870000 1.11400000
-1.96207000 -3.27691000 1.06438000
-1.87840000 -3.19778000 1.30299000
-1.79451000 -3.09408000 1.51110000
-1.74726000 -3.15576000 1.51602000
-0.33490000 -2.33973000 3.64749000
-0.29796100 -2.46908000 3.61605000
-0.28421800 -2.31620000 3.67258000
0.30476800 -1.73919000 3.81103000
0.40583000 -1.84298000 3.76545000
0.40934400 -1.74401000 3.78524000
3.92688000 1.26263000 2.77731000
3.84448000 1.18034000 2.74347000
3.89170000 1.20225000 2.65926000
3.32929000 0.76869100 2.81146000
3.24016000 0.76361000 2.71664000
3.36345000 0.75302900 2.72592000
-6.89214000 4.95126000 -1.10800000
-6.82599000 5.02650000 -1.11041000
-6.75220000 4.98872000 -1.33634000
-6.68533000 5.05753000 -2.29625000
-6.72815000 5.01946000 -2.32014000
-6.72727000 5.00111000 -2.22151000
0.56469600 2.80752000 8.04470000
0.77073300 2.82200000 7.93347000
0.67131100 2.66249000 7.87614000
1.18292000 2.39712000 7.26261000
1.21675000 2.18160000 7.02170000
1.10958000 2.16114000 7.10349000
1.94983000 0.55767700 -4.54519000
2.02858000 0.53198500 -4.46850000
1.97043000 0.47540300 -4.41805000
1.54687000 0.40425300 -4.67337000
1.71860000 0.46631500 -4.64555000
1.52489000 0.33502100 -4.65678000
2.34396000 -5.09549000 -1.39443000
2.32640000 -5.09845000 -1.43828000
2.35397000 -5.09039000 -1.44092000
2.37637000 -5.09266000 -1.27728000
-7.19846000 4.98012000 0.43526200
-7.18492000 5.02660000 0.32928000
-7.19830000 4.98381000 0.12798300
-6.80831000 5.04309000 1.34335000
-6.88248000 5.03163000 1.29973000
-6.75533000 5.02142000 1.53570000
2.03122000 2.48051000 6.33029000
1.96798000 2.52306000 6.48270000
2.08230000 2.64664000 6.44190000
2.51527000 2.96746000 6.29823000
2.53832000 0.65693100 -4.03742000
2.44690000 0.59640500 -3.99329000
2.39577000 0.56598900 -4.03549000
2.47031000 0.89896500 -4.12832000
2.49396000 0.76714000 -4.12802000
2.41306000 0.73422800 -4.18092000
2.39442000 -4.58985000 -1.46795000
2.33337000 -4.62549000 -1.53967000
2.31008000 -4.48454000 -1.50944000
2.46856000 -4.67411000 -1.39196000
2.44999000 -4.86660000 -1.41503000
2.39295000 -4.65686000 -1.48319000
3.34727000 3.76865000 7.15892000
3.06484000 3.83089000 7.35594000
3.01513000 3.62650000 7.25414000
2.31734000 3.33467000 7.60960000
2.15395000 2.90512000 7.42972000
-3.30137000 0.60640700 -3.50259000
-3.45378000 0.76150100 -3.44577000
-3.36442000 0.83431700 -3.70360000
-3.55144000 1.00148000 -3.73265000
0.31045900 -3.33955000 3.44658000
0.37828700 -3.51812000 3.40537000
0.39198500 -3.36186000 3.41519000
0.17598700 -3.64105000 3.41100000
0.24927100 -3.45988000 3.43320000
0.08380600 -3.48326000 3.42135000
-2.17324000 -5.07830000 -0.69996200
-2.15981000 -5.10969000 -0.79521800
-2.14075000 -5.07693000 -0.74456100
-2.08763000 -5.06517000 0.24916600
-2.09274000 -5.09548000 0.34985800
-2.14219000 -5.08607000 0.26657900
1.99714000 -4.61772000 -1.94245000
1.82493000 -4.57116000 -2.25802000
1.91448000 -4.58360000 -2.08223000
1.39804000 -4.55150000 -2.74097000
1.55395000 -4.53382000 -2.67915000
3.28282000 1.40292000 4.29925000
3.36619000 1.36546000 4.09367000
3.32564000 1.46978000 4.29836000
3.49639000 1.27658000 3.75966000
3.38525000 1.21337000 3.82574000
3.51686000 1.23702000 3.53984000
0.20722600 -3.24242000 3.49209000
0.11707500 -3.16940000 3.55055000
0.08559110 -3.26403000 3.51464000
-0.22447000 -3.19104000 3.46068000
-0.16482300 -3.22542000 3.45331000
-0.13969000 -3.18734000 3.48949000
-3.18607000 -4.70086000 0.91590000
-3.06425000 -4.57260000 0.95260600
-3.13746000 -4.54688000 0.88249800
-3.17332000 -4.59281000 0.26037400
-3.15198000 -4.56754000 -0.02964080
-0.13053600 1.21472000 -7.36621000
-0.35362100 1.29417000 -7.40087000
-0.11449700 1.29768000 -7.41017000
-0.24585300 1.49147000 -7.64190000
-1.21046000 -4.96380000 1.84113000
-1.34321000 -5.02409000 1.73152000
-1.30152000 -4.97562000 1.76667000
-1.16285000 -4.83802000 1.87944000
-0.98974300 -4.84282000 1.99285000
-1.09598000 -4.92753000 1.92272000
0.69500300 -0.53675300 4.09627000
0.69856900 -0.49787000 4.10848000
0.64276000 -0.39893000 4.20229000
1.01105000 -0.45385600 3.97247000
1.10585000 -0.30399000 4.04733000
0.92108300 -0.45459100 4.01829000
-0.09246530 2.15475000 7.64723000
-0.22971300 2.02415000 7.46735000
-0.23446100 2.25657000 7.73730000
0.03501140 1.95874000 7.42846000
0.13581500 1.84885000 7.30217000
-0.06778580 1.80659000 7.26116000
-2.80235000 -3.97441000 1.14399000
-3.08579000 -4.39050000 0.79161700
-3.00475000 -4.39245000 0.85319800
-2.99636000 -4.35866000 0.76777500
-3.15299000 1.88839000 -5.81668000
-3.29058000 1.98373000 -5.73747000
-3.17129000 2.03841000 -5.92106000
-2.68272000 1.71213000 -6.13631000
-2.74125000 1.71505000 -6.11738000
-2.78221000 1.82160000 -6.16478000
0.65478000 -0.48940000 4.14459000
0.64276000 -0.39893000 4.20229000
0.59691100 -0.46649700 4.19795000
-3.18236000 -0.43916100 1.19061000
-3.25046000 -0.37609100 1.04667000
0.95874500 0.88048100 -5.76673000
0.80431300 0.84072100 -5.89448000
1.07220000 1.02850000 -5.84320000
0.88808600 1.13481000 -6.34840000
0.73298000 0.93714500 -6.28276000
0.60696900 0.82349000 -6.37618000
-2.96412000 1.11082000 3.05988000
-2.95854000 1.21047000 3.18714000
-2.67914000 0.75266200 3.06818000
-2.67657000 1.28889000 3.86144000
-2.67393000 1.21357000 3.69388000
-2.81741000 1.51470000 3.95061000
1.07350000 4.61539000 9.21107000
1.22760000 4.62755000 9.10351000
1.13335000 4.49788000 9.04906000
0.90725400 4.80693000 9.70225000
1.07744000 4.81313000 9.59954000
1.00799000 4.80839000 9.54088000
0.32784600 -4.24299000 2.11332000
0.32179000 -4.17951000 2.06394000
0.10828700 -4.18985000 2.12707000
-0.09270270 -4.20509000 2.15323000
-4.16219000 1.17368000 3.61000000
-4.16206000 1.26512000 3.72652000
-4.20748000 1.31897000 3.60236000
-4.18340000 1.01520000 3.49961000
-4.13480000 1.06452000 3.60534000
-4.18665000 1.13342000 3.51306000
-1.58865000 0.07136150 -4.63329000
-1.56384000 0.45673000 -5.16532000
-1.85792000 0.64784400 -5.22843000
-1.65082000 0.54402200 -5.25489000
-1.47321000 1.09689000 4.77686000
-1.60225000 1.20109000 4.79365000
-1.49963000 1.23326000 4.94597000
-1.74315000 1.76787000 5.46273000
-1.65043000 1.92647000 5.77553000
-1.64655000 1.70879000 5.47948000
-3.91057000 0.83490200 3.88467000
-3.78004000 0.74347500 4.00890000
-3.86838000 0.91266100 3.97009000
-3.76337000 1.53076000 4.40278000
-3.83725000 1.70612000 4.35701000
-3.81965000 1.60459000 4.28202000
2.38440000 -3.36258000 -0.63442100
2.37645000 -3.28577000 -0.71354900
2.43389000 -3.27473000 -0.64348900
2.49896000 -3.14066000 -0.38242800
2.43406000 -3.14778000 -0.33321300
2.41745000 -3.29489000 -0.41875700
2.19971000 -2.50023000 -1.97160000
2.19631000 -2.47018000 -2.07441000
2.25120000 -2.40442000 -1.89429000
1.87048000 -3.41103000 -2.16610000
1.78762000 -3.26022000 -2.29334000
1.87041000 -3.32257000 -2.20473000
-2.46806000 -4.47807000 -2.55073000
-2.48127000 -4.35759000 -2.46628000
-2.39154000 -4.39200000 -2.53182000
-2.26548000 -4.47074000 -2.67052000
-2.27631000 -4.41901000 -2.61609000
-2.15672000 -4.46699000 -2.74677000
-1.07230000 2.44402000 7.95593000
-0.95363900 2.35232000 7.95699000
-0.87205800 2.43204000 8.10168000
-0.78836100 1.75696000 7.48824000
-0.93087800 1.80134000 7.45265000
-0.66883800 1.58390000 7.42240000
-5.30773000 5.01997000 -5.42983000
-5.22418000 5.01195000 -5.61654000
-5.24681000 4.99060000 -5.66338000
-4.36947000 4.93126000 -7.28782000
-4.32084000 4.88965000 -7.36816000
-4.55534000 4.92916000 -7.15086000
-1.55333000 -3.65077000 -1.43273000
-1.77170000 -3.61050000 -1.28947000
-1.51618000 -3.69246000 -1.30410000
-0.65692500 -3.72392000 -0.94714700
-0.75497300 -3.71917000 -1.05041000
-0.75624800 -3.71247000 -0.82602300
0.23218900 -2.93143000 3.53725000
0.11465100 -2.79086000 3.55642000
0.10405100 -2.86977000 3.58368000
-0.14949700 -2.92775000 3.57106000
-0.17253100 -2.80656000 3.54650000
-0.23051300 -3.05262000 3.52519000
-5.01262000 2.12681000 1.87231000
-5.34363000 2.52955000 2.00672000
-5.52931000 2.57226000 1.40771000
-5.73695000 2.81522000 1.42894000
-5.83942000 2.99692000 1.60957000
