-1.95277000 -3.04627000 -5.31142000
0.73007900 -1.97971000 6.11432000
0.55388300 -2.07104000 6.09636000
0.57082200 -1.95297000 6.14015000
0.45512500 -2.13554000 6.07778000
2.21786000 -5.39865000 3.64393000
2.15787000 -5.53227000 3.70667000
-5.72634000 1.06996000 -3.51629000
-5.75988000 1.02895000 -3.42689000
-5.66613000 0.91599500 -3.56719000
-5.68616000 1.04540000 -3.59438000
3.03307000 -4.52333000 -2.72534000
3.19265000 -4.46483000 -2.76227000
-6.17543000 1.00781000 2.99462000
2.15574000 -5.31332000 -0.40535400
2.24533000 -5.28504000 -0.70588900
0.23666300 -5.14453000 -0.77041900
0.16971600 -5.14064000 -0.75732900
0.24398300 -5.14356000 -0.58836400
0.24307700 -5.13019000 -0.92085400
0.16600100 -5.12921000 -0.87515100
3.03962000 1.50316000 6.33622000
3.23915000 1.19734000 6.22898000
0.48128800 1.89965000 7.33399000
-0.73378200 0.45240600 6.88136000
-0.87110900 0.54697200 6.87307000
6.83363000 0.82224000 -0.36117100
-4.41766000 -0.98949100 4.64461000
-4.51036000 -1.03957000 4.53947000
-4.50056000 -0.60863700 4.67636000
5.07129000 -3.80076000 -1.67446000
-5.97080000 -2.16495000 1.86436000
-5.99154000 -2.22484000 1.69747000
-5.94246000 -2.22792000 1.87922000
-5.94723000 -2.29890000 1.76145000
2.57260000 -4.53938000 3.03040000
2.60962000 -4.58508000 2.85696000
0.74794000 -3.43514000 5.58126000
0.64607000 -3.50475000 5.54191000
0.93542200 -3.43822000 5.56315000
-4.75260000 -2.40060000 3.94469000
-5.04631000 -2.24785000 3.71546000
1.97976000 -5.22880000 -1.93175000
1.99222000 -5.23917000 -1.82445000
1.87164000 -5.25392000 -1.84506000
-1.09639000 -2.34436000 6.16327000
-0.99497200 -2.24428000 6.20406000
-5.12710000 -2.94141000 -2.29008000
-2.29520000 1.60526000 -6.46076000
-2.39133000 1.59999000 -6.43127000
-2.38824000 1.73913000 -6.43978000
-2.30824000 1.46135000 -6.47477000
-2.39476000 1.52714000 -6.43032000
-2.30141000 1.53184000 -6.46703000
-4.92866000 -0.68845400 4.53888000
-5.03109000 -0.71179200 4.39843000
-5.11564000 0.50280900 -4.24260000
-5.11652000 0.57509000 -4.24822000
5.05505000 -0.20031300 4.08231000
5.04051000 -0.34592900 4.05877000
2.36573000 -6.77053000 -4.46430000
2.22164000 -6.76778000 -4.55087000
-6.41789000 1.77024000 -1.42426000
-6.45225000 1.90103000 -1.33481000
-1.94395000 -2.02428000 6.08102000
-2.03328000 -2.12598000 6.00135000
-1.91643000 -2.11852000 6.03871000
-7.21890000 3.52833000 -1.47172000
-7.25186000 3.53011000 -1.33635000
-3.07377000 -1.86092000 -5.26559000
-2.12385000 0.47282700 -6.41336000
-6.53312000 -4.94178000 -0.21165100
-6.57027000 -4.87372000 -0.18073300
-4.78936000 -1.04443000 -3.96060000
-4.91449000 -1.10537000 -3.76545000
-5.06791000 -1.29126000 -3.49673000
-5.12525000 -1.16890000 -3.45506000
-3.09281000 2.89636000 -5.98126000
-4.21128000 -5.68315000 2.23003000
-4.17833000 -5.82747000 2.31054000
4.52703000 -3.67921000 3.03795000
-5.78707000 3.33839000 4.92554000
-5.83868000 3.27470000 4.85380000
-1.16250000 -6.77823000 4.78889000
6.11125000 -0.42526000 -2.00773000
6.14965000 -0.23750700 -1.99573000
6.09065000 -0.52938700 -2.00478000
8.05769000 -2.28075000 0.09990710
8.14181000 -2.14267000 0.15291100
8.14657000 -2.15304000 0.10425000
-1.95495000 -4.97598000 -0.98055000
3.00081000 -3.53295000 -4.82419000
3.03978000 -3.44171000 -4.87281000
2.96915000 -3.42769000 -4.93749000
6.80797000 2.23262000 1.49332000
6.82206000 2.31292000 1.46650000
6.77687000 2.30271000 1.68340000
6.76824000 2.23626000 1.69838000
7.28936000 3.49357000 -1.47627000
7.16483000 3.53117000 -1.80076000
4.05484000 -1.16720000 5.24471000
3.87705000 -1.24183000 5.32950000
3.86863000 -1.31176000 5.30436000
4.14505000 -1.29831000 5.10617000
4.13475000 -1.16574000 5.17980000
4.12594000 -1.32424000 -4.97650000
4.32598000 -1.48938000 -4.75394000
4.22373000 -1.29426000 -4.90063000
-1.94795000 -4.67032000 -2.84265000
-2.07930000 -4.58913000 -3.03042000
-1.74058000 -4.70063000 -2.87549000
-1.81154000 -4.63791000 -3.06024000
0.03957310 0.77791500 7.42309000
4.85558000 -6.88025000 0.86055300
-4.23973000 -4.88141000 -0.47218100
-4.26937000 -4.93417000 -0.47573700
7.12258000 2.17411000 -0.14902500
7.21487000 2.15855000 -0.14733700
7.29389000 2.13854000 -0.04568090
7.30303000 2.14696000 -0.14593500
4.78989000 0.77848200 -4.77154000
4.82401000 0.70101500 -4.70324000
4.62029000 0.57030900 -4.87799000
-4.08454000 -2.08019000 4.81624000
-3.82470000 -2.14931000 5.00134000
8.88656000 -0.11012300 1.12540000
8.87885000 -0.01742180 1.15022000
-6.61720000 -0.35492300 0.44112900
4.74736000 -6.13443000 0.45645400
4.72643000 -6.15047000 0.57978600
4.56760000 2.52320000 5.51466000
4.59476000 2.59329000 5.53671000
4.43400000 2.59264000 5.66748000
-4.98461000 -6.88309000 0.44284700
2.47663000 -5.30335000 3.85963000
2.61519000 -5.26924000 3.75820000
4.40197000 -2.97990000 -3.96362000
4.24252000 -3.10388000 -4.05688000
3.83405000 -4.93044000 -1.05326000
3.80753000 -4.92128000 -0.91623000
3.72317000 -4.93506000 -1.38666000
-5.11649000 2.36567000 -4.21093000
-5.19933000 2.07363000 -4.03666000
-5.01013000 1.99997000 -4.26281000
-0.69709100 -5.41129000 -0.27080300
-0.47952500 -5.41599000 -0.39834700
7.00722000 3.02990000 -1.72105000
4.25055000 -4.24385000 1.55428000
2.40300000 -4.13810000 -4.36551000
-2.36528000 -5.81386000 4.09740000
-2.36159000 -5.88168000 4.10959000
1.94685000 -2.39241000 5.93928000
1.84204000 -2.37807000 5.94695000
1.83472000 -2.44427000 5.91795000
2.03994000 -2.46769000 5.88935000
2.02630000 -2.52352000 5.84103000
-4.17800000 -0.57022700 5.26615000
2.41488000 -0.63610700 6.02031000
2.37277000 -0.78747600 6.00268000
-2.68387000 -4.72300000 -1.73798000
-2.54603000 -4.73483000 -1.86173000
-2.43418000 -4.77615000 -1.80101000
-5.35141000 -1.74618000 -3.34098000
-5.24857000 -1.75671000 -3.47364000
1.49813000 -5.38714000 0.22439200
1.44640000 -5.39087000 0.05285410
1.47578000 -5.38690000 -0.22409500
-8.72299000 0.16490200 -0.55127900
-8.81128000 0.08370720 -0.54571300
-8.78604000 0.19528900 -0.58460600
0.09102530 -2.06066000 6.11942000
-0.16662000 -2.16139000 6.07334000
-0.06354310 -1.98741000 6.14571000
0.19918700 -2.20352000 6.05883000
0.01397610 -2.12881000 6.09054000
-4.49597000 0.08103320 -4.88320000
-3.30925000 0.55548000 6.05157000
-3.31719000 0.62630300 6.06779000
-3.39693000 0.62808500 6.00381000
-0.96401700 -4.99583000 -1.85763000
-0.95233400 -5.01828000 -1.68598000
-0.76818200 -5.05953000 -1.37910000
-0.85878200 -5.02006000 -1.71595000
-2.47523000 3.25249000 -6.83798000
-9.00313000 -1.36710000 -0.34509200
-8.93825000 -1.50778000 -0.37040400
-8.93685000 -1.33858000 -0.38754900
4.07538000 -5.19363000 1.33263000
4.04244000 -5.28018000 1.48925000
4.09427000 -5.25733000 1.33546000
1.14589000 -5.13651000 2.57959000
0.33285300 -6.59364000 4.46550000
0.57762200 -6.65863000 4.44837000
0.39430900 -6.17186000 4.39161000
0.36364400 -6.41075000 4.43326000
2.22318000 -4.90151000 -3.21084000
8.55606000 0.33134300 -0.24547700
5.48599000 3.11903000 5.37972000
5.19679000 3.11636000 5.66971000
-9.64389000 0.84622600 0.07242940
-9.63393000 0.83779800 0.22578300
-9.64837000 0.84541500 0.14955500
6.37705000 0.73829000 2.65456000
-0.60615100 2.61201000 7.11782000
-0.18762100 2.50318000 7.10237000
-0.59738800 2.54159000 7.09028000
3.43149000 -2.00354000 -5.36072000
3.44062000 -1.85581000 -5.38688000
-6.25741000 -1.67081000 1.25423000
-6.24314000 -1.80622000 1.14497000
-2.96350000 -4.25738000 -3.19734000
-3.10383000 -4.23866000 -3.07739000
-2.83428000 -4.41264000 -2.89452000
-3.21894000 -4.19798000 -3.05308000
-8.93025000 0.55272500 -0.60429300
-8.89748000 0.61593100 -0.61556100
-8.86096000 0.51042600 -0.62242100
-8.88896000 0.44786900 -0.61619900
-8.54429000 -0.00437540 0.45766000
-8.63464000 0.02795670 0.55452800
-4.01721000 1.53954000 -5.18239000
-3.86470000 1.60453000 -5.30311000
-0.50294500 -1.02539000 6.65912000
-0.49829900 -1.13016000 6.63372000
-6.80786000 0.91080900 -0.17603500
-6.81328000 0.93592900 -0.30469000
-3.44391000 -6.37396000 -3.43227000
-3.46658000 -6.45329000 -3.45508000
7.19726000 3.09578000 -1.52246000
5.54841000 -1.15917000 3.58096000
-1.73966000 -2.54662000 5.87890000
-1.93248000 -2.68648000 5.73852000
0.38039000 -1.86116000 6.38857000
6.03027000 -3.19285000 0.89333800
6.15273000 -3.28053000 0.90532500
-4.03921000 2.36365000 5.74380000
-3.53700000 2.28253000 6.06621000
-3.73206000 2.28991000 5.94627000
-0.45725400 -2.77100000 -5.83691000
-0.16927900 -2.63972000 -5.91396000
-6.06981000 -0.22340700 2.87769000
-0.23118800 2.25798000 -7.33410000
-0.11766200 2.28626000 -7.27779000
-0.14921800 2.23326000 -7.35898000
-0.03539830 2.25555000 -7.27980000
6.07629000 -1.45624000 1.26259000
-6.39205000 -4.80054000 -0.21751300
-6.33169000 -4.80338000 -0.22423300
5.91721000 -0.19577500 -2.62848000
-3.79085000 -0.92628600 5.18807000
-3.71004000 -0.81105700 5.27592000
3.83311000 -6.24252000 -2.26875000
3.77436000 -6.22623000 -2.36518000
-0.59177000 -2.42013000 5.93773000
-0.56480200 -2.31227000 5.98506000
-0.68542300 -2.50237000 5.88922000
-4.97277000 -1.43469000 3.86778000
-4.78926000 -1.73118000 3.96160000
-4.88880000 -1.52439000 3.93667000
2.81322000 1.45089000 6.18244000
2.74245000 1.23097000 6.17985000
2.63840000 1.52755000 6.27364000
2.86477000 1.12798000 6.10647000
-6.61833000 2.89514000 1.56536000
-6.66950000 2.97301000 1.34763000
-2.94792000 0.90602800 -6.09913000
-0.60419500 -4.42682000 4.47285000
-0.17181700 -1.25860000 6.72043000
-0.28659300 -1.08949000 6.74443000
-8.32559000 1.44441000 0.80796800
4.31059000 1.63743000 -5.30583000
4.42618000 1.63168000 -5.18785000
4.43780000 1.70209000 -5.19423000
-2.44957000 -5.97949000 -3.80176000
-2.53503000 -5.87844000 -3.71942000
-2.61926000 -5.66646000 -3.61572000
7.99726000 1.21420000 -0.47220600
1.73928000 -0.66479300 -6.44477000
1.53628000 -0.77280900 -6.49369000
1.54888000 -0.56852600 -6.52493000
1.19210000 -6.90035000 -4.83852000
0.82734600 -6.89719000 -4.92215000
0.86691100 -6.90488000 -4.95227000
-5.41652000 1.92753000 4.03919000
-5.45488000 1.58435000 3.93048000
-5.52194000 1.89212000 3.87920000
-5.43372000 2.29363000 4.06957000
-5.53022000 2.15653000 3.90424000
0.03569190 0.03314270 -6.85654000
0.03619640 0.13605400 -6.85442000
-0.07295340 0.03606000 -6.82880000
6.64651000 0.92037100 -0.00321738
6.63941000 0.88487800 -0.10257500
0.01958990 -3.76778000 -5.55027000
0.10991500 -3.74890000 -5.59445000
-0.06724230 -3.76089000 -5.54182000
6.38703000 -4.79463000 0.59384700
6.33120000 -4.79058000 0.60386300
6.33520000 -4.90427000 0.60835900
6.38703000 -4.79463000 0.59384700
-3.80525000 3.54753000 -6.34113000
-3.82188000 3.48684000 -6.33790000
3.66662000 3.27664000 5.96985000
3.75948000 3.19415000 5.89503000
6.83413000 2.55383000 -0.64270800
2.12562000 -2.53438000 5.82153000
2.01355000 -2.58260000 5.79793000
1.03059000 -4.07627000 4.62445000
3.52890000 -5.32004000 -2.46100000
3.67266000 -5.34816000 -2.24911000
-2.84249000 -1.56531000 -5.79491000
-2.76951000 -1.56604000 -5.86368000
-2.71603000 -1.71530000 -5.93092000
-0.78472100 -3.48749000 5.57772000
-0.68840400 -3.48935000 5.59112000
-3.16519000 -5.36429000 -3.49542000
-3.22517000 -5.38665000 -3.42748000
-3.24398000 -5.47846000 -3.43542000
-3.26129000 -5.60844000 -3.44493000
0.96131200 -5.47887000 4.51141000
0.86203000 -5.48276000 4.52962000
-8.98323000 -0.62289900 0.64461700
-9.03167000 -0.74177400 0.64050300
-8.96603000 -0.80749100 0.64415600
1.23476000 -5.11236000 -0.74506800
-3.81169000 -5.89781000 -2.89558000
-3.87998000 -5.98119000 -2.81824000
-3.75216000 -5.87674000 -2.97010000
5.94067000 -4.18437000 0.58010200
-6.15069000 3.33571000 -2.80243000
5.83673000 -2.34501000 -0.91521600
5.79967000 -2.38423000 -1.06775000
5.72882000 -2.77667000 1.92871000
-0.05403310 -3.51950000 -5.82550000
0.03849310 -3.48506000 -5.90828000
0.12851700 -3.55539000 -5.87407000
0.03411600 -3.54794000 -5.86463000
2.13246000 -2.89174000 5.31538000
2.15052000 -2.74555000 5.39268000
4.33999000 -1.55713000 4.43569000
-2.86464000 -4.81391000 0.89511000
-2.79799000 -4.84228000 0.76105700
-3.09684000 -4.73450000 1.08399000
-4.44281000 -1.12012000 4.87451000
5.03213000 -2.51356000 3.58760000
4.99481000 -2.64726000 3.53120000
-5.64936000 0.62865300 -3.51773000
-5.02580000 1.94147000 -4.48046000
4.00544000 0.60547700 5.30551000
-5.94940000 3.62038000 -4.22715000
-4.08869000 -5.11325000 1.54702000
-4.09240000 -5.05061000 1.48376000
-6.42202000 -0.78699000 1.62412000
-6.40296000 -0.83998600 1.69741000
5.30900000 -3.52047000 -0.18757300
-3.00195000 -3.30589000 4.85188000
-3.20443000 -3.25079000 4.78256000
-2.79883000 -4.81432000 2.60956000
-2.19976000 -4.81659000 3.11012000
-3.00341000 -4.81067000 2.43648000
6.76654000 -5.04948000 0.09609010
0.18295200 -5.13229000 2.72991000
0.05399770 -5.15425000 2.62531000
4.50755000 -3.12884000 3.23517000
-4.98029000 -6.56528000 0.09275860
-4.95875000 -6.53343000 -0.04004070
-5.01175000 -6.66219000 -0.01364610
2.31918000 -1.65250000 -5.80664000
2.17463000 -1.74626000 -5.84215000
-0.32845100 -4.88052000 4.61108000
-5.89800000 -2.15385000 1.06191000
-2.23613000 -2.60723000 5.41236000
4.67571000 -3.55912000 -2.55973000
4.71660000 -3.47460000 -2.60991000
4.72124000 -3.57768000 -2.43588000
-6.51058000 -0.08281510 1.60609000
-8.52095000 -1.22124000 0.38709300
-8.49244000 -1.23494000 0.33881300
-8.55375000 -1.23008000 0.42949100
-0.66301300 -4.53686000 -3.82798000
-0.63246900 -4.39676000 -4.16302000
-0.68887300 -4.48541000 -3.93989000
6.33082000 0.59024300 -1.90231000
6.33496000 0.35792200 -1.74694000
6.27754000 0.04246150 -1.74888000
6.24008000 -0.20152800 -1.74886000
-6.98192000 -4.32042000 0.33982300
-6.73790000 -2.89376000 0.27419100
-6.63796000 -2.90024000 0.26670100
-4.44334000 -6.06644000 -1.80792000
-2.73983000 -2.80057000 -5.35904000
-2.91828000 -2.73956000 -5.27378000
4.03206000 -2.95599000 -4.43880000
4.11388000 -2.84263000 -4.39316000
0.26568300 -1.59683000 -6.29431000
0.08575820 -1.49133000 -6.32592000
0.12675600 -1.26046000 -6.37974000
0.58002600 -4.64480000 4.44658000
0.74699700 -4.57057000 4.42033000
3.59205000 -5.54961000 2.90470000
-4.63463000 -4.50437000 -0.08691770
-4.65402000 -4.57851000 -0.05895770
-4.65950000 -4.58727000 0.04099930
4.93290000 -0.06304320 -4.47714000
4.95292000 0.05988350 -4.49601000
4.87111000 0.07357810 -4.59102000
4.85058000 0.14302300 -4.63143000
4.82435000 -3.52987000 -2.29646000
-2.30922000 -0.61325600 -6.22065000
-2.06889000 -0.75068700 -6.29037000
-2.23700000 -0.44730100 -6.27485000
7.02855000 -2.99521000 0.00059147
7.07886000 -2.97188000 0.05664480
7.15902000 -2.95243000 0.01338430
7.02855000 -2.99521000 0.00059147
-6.48524000 1.28372000 2.34943000
-6.49034000 1.35698000 2.36031000
-6.53993000 1.35495000 2.28020000
-8.76121000 0.31619000 -0.60194700
-8.68891000 0.28799100 -0.57961300
1.77644000 -5.35327000 -0.56700300
1.77132000 -5.36194000 -0.18459200
-6.89569000 -3.00397000 -0.47511200
-5.47106000 1.21452000 -3.93901000
-5.63751000 1.20642000 -3.70100000
-5.48268000 1.35276000 -3.92712000
-7.07130000 -3.24771000 -0.52921300
-7.32899000 -3.14675000 -0.50290000
-8.46317000 1.67868000 -0.52378000
-8.48580000 1.74496000 -0.47159600
7.84330000 0.52112200 0.58441000
-7.14088000 3.10842000 0.78957200
-7.07734000 3.04756000 0.78497400
0.81648500 -2.77683000 -5.78464000
1.03268000 -2.96604000 -5.64235000
0.96257400 -2.82513000 -5.73563000
0.51231600 -5.04478000 -1.71268000
0.46566800 -5.05256000 -1.63786000
8.08630000 -2.40724000 0.82624000
-0.10779400 -4.20949000 -4.95990000
0.01632700 -4.16865000 -5.02285000
0.00906543 -4.11322000 -5.09498000
-0.07080270 -4.15966000 -5.03168000
-4.39647000 0.42801600 5.23859000
-4.55583000 0.43214800 5.08493000
-4.68230000 0.50629300 4.97586000
-6.63479000 1.35795000 1.83564000
-6.61663000 1.20617000 1.80853000
-6.59054000 1.20755000 1.89346000
-4.02590000 -3.67800000 3.60082000
-4.16270000 -3.58797000 3.56943000
-5.56321000 -1.06712000 3.53829000
-5.61601000 -1.19750000 3.37807000
-6.11270000 -2.03692000 1.28950000
-5.99270000 -2.80382000 0.48667500
-5.98212000 -2.79806000 0.36514300
-5.98212000 -2.79806000 0.36514300
-6.74025000 -2.94692000 -0.02307710
-6.66997000 -2.94903000 0.03162410
3.70795000 -6.91031000 -3.29515000
-8.28652000 0.87790900 0.84893300
-8.24792000 0.81008500 0.79398000
5.85663000 -0.08176170 -3.15723000
5.91172000 -0.08946000 -3.03334000
6.01785000 -0.11012300 -2.77142000
-3.78204000 -6.06587000 2.93730000
-3.90672000 -6.07414000 2.78735000
-3.98457000 -6.08589000 2.68978000
-4.58932000 -4.13834000 1.64938000
-3.18389000 -1.79901000 -5.54839000
-3.23408000 -1.58411000 -5.53739000
-3.18396000 -1.71952000 -5.56517000
2.71414000 -2.06788000 -5.47907000
-2.51236000 -4.49197000 3.03646000
-2.67828000 -4.47901000 2.92906000
-2.36955000 -4.64974000 2.61445000
-4.53597000 2.71922000 5.16707000
-4.53338000 2.60269000 5.15329000
-8.52005000 -0.90505500 -0.24902600
-8.49376000 -0.98924800 -0.19538800
-8.50716000 -0.99978200 -0.24645400
-8.53590000 -0.97109700 -0.29424600
-3.61236000 0.62792300 -5.63229000
-3.62543000 0.69866500 -5.64273000
-3.78929000 0.61917200 -5.50273000
6.34121000 -1.51345000 1.40504000
6.34335000 -1.56490000 1.30814000
6.37771000 -1.43541000 1.33340000
0.53797400 3.24196000 -7.22159000
0.83470200 3.19164000 -7.14573000
0.52589000 3.19480000 -7.16958000
0.84280000 3.13678000 -7.09904000
-3.71509000 -3.41926000 4.23704000
-8.60950000 -2.32985000 -0.36558400
-8.60985000 -2.23448000 -0.38926700
-6.86992000 2.62101000 0.22916700
-6.85558000 2.63162000 0.00041194
4.63517000 -6.35864000 -0.97101200
4.63004000 -6.29479000 -0.96508400
4.56194000 -6.28182000 -1.23520000
2.31666000 -0.30751900 6.37693000
2.34505000 -0.16530700 6.41442000
-0.89994700 -0.14626400 -6.68920000
-0.70482200 -0.15550200 -6.71624000
1.45748000 -0.96874700 6.47836000
1.44733000 -1.10869000 6.43517000
7.61655000 1.98628000 0.69652100
-2.28042000 -6.28612000 3.86879000
-2.24380000 -6.52962000 3.92671000
-2.40080000 -6.51933000 3.83579000
-2.21444000 -6.34730000 3.91542000
5.67431000 -3.33839000 -0.76649700
5.19557000 0.91283500 -4.32715000
5.29594000 0.98309000 -4.21813000
-5.12153000 -3.28734000 -1.74343000
-2.79923000 3.02560000 -6.42709000
-2.66921000 2.96434000 -6.45120000
-2.84614000 2.96224000 -6.36793000
-2.89510000 3.08346000 -6.42281000
-0.31591100 2.95567000 -6.78259000
-0.72714800 3.37064000 -6.74519000
6.17666000 3.46804000 -4.13319000
5.74349000 -2.76184000 0.33225500
5.78328000 -2.63608000 0.53764900
0.58383700 1.32894000 7.15122000
0.61589400 1.49303000 7.20463000
0.47386500 1.45851000 7.27548000
-8.77240000 -1.35633000 -0.43535900
-8.74796000 -1.59400000 -0.43674100
-4.34733000 -4.99616000 -0.05114480
-4.31592000 -4.93717000 -0.13411800
-1.86777000 -2.98654000 -5.67581000
-1.74264000 -3.06012000 -5.68822000
4.59976000 -6.00996000 -1.07016000
4.63240000 -6.08435000 -0.94612500
-3.63886000 2.17200000 5.79444000
4.72598000 -3.30735000 -3.25332000
4.78593000 -3.18702000 -3.27634000
4.85499000 -3.16474000 -3.19136000
6.23997000 -0.01742180 -2.34545000
6.19125000 -0.14731700 -2.38095000
-4.09101000 -4.39846000 -2.12448000
-4.03706000 -4.39781000 -2.22713000
-4.03313000 -4.47528000 -2.21453000
1.01555000 -2.56809000 6.05892000
1.01005000 -2.69637000 6.00379000
0.80261800 -2.71403000 6.02211000
0.90442600 -2.76281000 5.98711000
2.21641000 -4.73361000 3.94959000
2.45162000 -4.55882000 3.80636000
2.29092000 -4.63629000 3.90000000
2.37844000 -4.70347000 3.85218000
5.64831000 -0.81916000 -3.34387000
5.61634000 -0.91648000 -3.37271000
5.53095000 -0.71511400 -3.57103000
5.61041000 -0.71300700 -3.44601000
-6.67545000 3.66511000 -2.85175000
-1.93576000 -0.83544800 -6.32354000
-5.97280000 0.35022400 -2.32047000
-5.92680000 -0.02730780 -2.29421000
-5.92291000 0.48968100 -2.47147000
5.97538000 -5.20692000 -0.00434476
5.83052000 -5.13715000 -0.02388850
5.73094000 -5.09850000 -0.02311710
5.79387000 -5.06317000 -0.02651740
-6.37374000 2.37151000 -2.23120000
-6.35877000 2.17808000 -2.31474000
-6.34776000 2.07096000 -2.34709000
0.14600300 -5.30116000 4.28492000
-6.35479000 0.49503000 2.40665000
-6.40595000 0.55726300 2.33574000
-6.40903000 0.48222700 2.27825000
-6.31790000 0.49227500 2.49092000
-6.28952000 0.41877800 2.56732000
-6.26101000 0.43085200 2.65540000
4.58298000 0.75854800 -4.82551000
6.63130000 0.36059600 1.67705000
6.58363000 0.37153600 1.81361000
6.60974000 0.11409400 1.73972000
6.82950000 -3.41359000 -0.27406400
6.53261000 -3.51018000 -0.32260600
6.39419000 -3.49349000 -0.35963200
-2.09733000 -6.86048000 4.18667000
-2.11347000 -6.88908000 4.22511000
-2.39519000 -6.87766000 4.06717000
-2.32746000 0.91696700 6.52207000
-2.50923000 0.84436200 6.44631000
-2.49751000 0.77264800 6.45022000
-8.41200000 -1.64796000 -0.35509700
-8.42721000 -1.72470000 -0.37784300
7.25355000 1.60210000 -0.57066400
5.74072000 -0.19439700 2.99374000
-3.68823000 -2.10167000 4.83093000
-3.81166000 -1.97193000 4.79419000
-3.53272000 -2.27224000 4.86052000
2.14783000 -4.55194000 -4.16207000
2.14425000 -4.71611000 -4.17782000
2.05470000 -4.81724000 -4.24169000
1.68863000 -1.99649000 -6.18062000
1.86761000 -1.99057000 -6.13923000
2.04460000 -2.17532000 -6.03579000
1.96643000 -1.99179000 -6.11999000
-1.25414000 -1.21817000 6.25562000
-1.46170000 -1.03341000 6.25935000
0.15130900 -4.15212000 4.78317000
-0.01410300 -4.17975000 4.74056000
-1.76107000 -1.08365000 6.36776000
-1.96834000 -1.14702000 6.29894000
6.54965000 -4.61174000 0.14080200
0.30487500 -4.83020000 3.95272000
0.78283600 -4.86189000 3.93157000
-5.62493000 0.26489600 -2.99995000
-5.55696000 0.45135300 -3.19517000
-5.61940000 0.34495700 -3.03075000
5.80641000 -3.30233000 0.98697000
3.77446000 3.31845000 6.68443000
-3.38329000 1.26095000 5.84516000
-3.55681000 1.31695000 5.74524000
-3.30419000 1.65761000 5.94666000
-6.19910000 -5.39306000 -0.02921560
-6.41532000 -5.36324000 0.05832060
-6.40155000 -5.35918000 -0.00961124
-6.27872000 -5.38179000 -0.02087930
1.31411000 0.81948500 6.62157000
1.32549000 1.02920000 6.63407000
1.17373000 0.77896900 6.64520000
5.45047000 -3.58303000 1.15232000
5.45383000 -3.55215000 1.26867000
5.42145000 -3.62249000 1.16597000
5.38116000 -3.68756000 1.05403000
-6.57737000 2.47539000 2.15148000
-6.57588000 2.40222000 2.12599000
-6.54107000 2.39679000 2.24206000
-6.65421000 2.49792000 1.84536000
-0.44680300 0.78342500 -6.94472000
-0.55387500 0.87239900 -6.93177000
-0.54351800 0.79955100 -6.90106000
-6.06204000 -2.26932000 -1.06274000
-6.05843000 -2.31778000 -0.94954400
-6.08130000 -2.13570000 -1.07466000
-6.06385000 -2.21463000 -1.15189000
-6.08400000 -2.19421000 -0.99764800
0.41739400 -4.85500000 -3.90184000
0.41371800 -4.88506000 -3.80264000
0.52579900 -4.89300000 -3.77410000
0.76995300 -4.91286000 -3.68318000
2.84881000 -1.76635000 -5.93789000
-2.36072000 2.21811000 -6.48201000
-3.29137000 0.21579100 5.76350000
-3.22263000 0.33790700 5.82099000
-6.38150000 2.48673000 -1.89629000
-6.44415000 2.71330000 -1.86678000
2.10611000 -6.67799000 3.95094000
1.94439000 -6.41909000 3.96956000
-3.55329000 0.41821100 5.85868000
-3.72717000 0.41740000 5.76547000
-6.46608000 0.48028200 1.07123000
-6.41708000 -0.00964260 1.03190000
3.80151000 -2.10920000 -4.75833000
3.65477000 -2.20920000 -4.83168000
5.55344000 -1.65453000 2.66139000
5.52998000 -1.79496000 2.62129000
-6.25387000 -1.50154000 1.61801000
-6.28542000 -1.33266000 1.66207000
-6.28813000 -1.37715000 1.49401000
3.82131000 -2.16609000 4.60212000
3.75462000 -2.50359000 4.48940000
4.55314000 -4.75679000 0.71521100
4.58695000 -4.93401000 0.71767500
-6.68692000 3.84468000 -1.69589000
-6.56351000 3.53554000 3.63618000
-5.08794000 2.21746000 4.50553000
-5.86191000 -1.57512000 2.62818000
-5.78833000 -1.63678000 2.77661000
-5.95817000 -1.45373000 2.52820000
-3.23723000 0.69931300 6.12967000
-2.65650000 2.89149000 6.79985000
-3.20885000 2.88971000 6.53618000
2.42469000 -1.23421000 -5.88450000
2.51160000 -1.10877000 -5.87648000
8.63796000 -1.39004000 -0.01135040
-4.14106000 0.50037800 5.48257000
-4.21648000 0.42201900 5.41547000
-4.22418000 0.50596900 5.42903000
-2.48095000 -1.63678000 6.08907000
-2.57456000 -1.55956000 6.05815000
-2.19183000 -4.52220000 -3.16387000
-0.81633900 -6.45904000 -4.92428000
-0.69670000 -6.54283000 -4.98096000
-6.74298000 2.33318000 1.33507000
-6.74463000 2.12962000 1.39590000
-6.70533000 2.32297000 1.52483000
-2.92694000 -4.83822000 2.99237000
-0.59190300 3.58943000 7.43782000
2.05578000 -5.00604000 4.06237000
1.94765000 -5.07670000 4.10553000
-0.29810500 -6.29884000 -4.93118000
-0.57119500 -6.30232000 -4.91035000
6.53745000 -0.21068500 -1.20595000
6.51088000 -0.35022300 -1.29948000
6.50325000 -0.20793000 -1.35929000
6.58422000 -0.07414470 -1.13484000
5.22453000 3.40257000 -4.47505000
5.30326000 3.48093000 -4.40202000
5.19385000 3.48717000 -4.53417000
-8.67996000 -0.61479500 0.47551800
-8.68394000 -0.71438500 0.48107500
-5.92877000 -2.68559000 -0.65871000
-5.96902000 -2.57417000 -0.69808900
7.68199000 -2.68445000 0.26191000
4.99613000 -3.27810000 2.91390000
4.94185000 -3.28296000 2.99433000
4.96245000 -3.35962000 2.86847000
3.99953000 -5.81467000 1.79571000
3.95933000 -5.60212000 1.81721000
3.92364000 -5.46396000 1.84242000
4.52115000 1.92599000 5.39736000
4.35600000 1.84034000 5.52621000
1.61978000 -6.68577000 4.50503000
1.50069000 -6.58116000 4.50514000
-6.29503000 -3.95156000 -0.28499900
3.39798000 -2.66622000 4.68383000
-0.35902100 -5.13075000 -0.19485200
-0.46234800 -5.13010000 -0.32706400
-0.42128700 -5.13302000 -0.39937400
-3.71881000 -5.53219000 -2.93295000
-3.69407000 -5.43017000 -2.93627000
3.15261000 -6.34689000 -3.64670000
3.13763000 -6.44786000 -3.70722000
6.69384000 1.46005000 1.91311000
6.66736000 1.44157000 2.02687000
5.77372000 0.05056470 -3.03801000
8.11699000 1.75193000 0.88203500
8.19469000 1.72243000 0.83416200
2.76156000 1.06720000 -6.10667000
2.77608000 1.25739000 -6.10665000
3.00912000 1.30908000 -5.99644000
-3.04803000 -1.11736000 5.85739000
-2.94031000 -1.11631000 5.92058000
-2.93465000 -1.18997000 5.91029000
3.35531000 -4.64083000 -1.78915000
3.36528000 -4.66571000 -1.60337000
6.96352000 1.76789000 1.27590000
6.89801000 1.86068000 1.27873000
6.91041000 1.96569000 1.23241000
-7.96579000 -3.21100000 0.49348900
3.53233000 3.45354000 -6.59937000
3.73456000 3.45394000 -6.48360000
3.73947000 3.39049000 -6.47956000
3.53233000 3.45354000 -6.59937000
-2.66644000 -4.88417000 0.07685330
-2.76944000 -4.85710000 -0.07731810
2.90890000 -5.02638000 1.72780000
2.84287000 -5.01172000 1.91214000
6.38003000 -0.74217900 -1.52331000
6.35918000 -0.82945100 -1.57986000
6.44192000 -0.79420200 -1.28126000
6.40064000 -0.89808600 -1.33259000
6.63063000 -5.45424000 0.44137800
5.53164000 3.52833000 5.02454000
5.59638000 3.48182000 5.03919000
2.84003000 -1.53273000 -5.92631000
2.91154000 -1.44903000 -5.85001000
2.99614000 -1.52034000 -5.79967000
2.91936000 -1.52682000 -5.86494000
-5.81198000 -5.26737000 -0.08184170
-4.55765000 -4.48849000 -0.69143000
-4.57892000 -4.49181000 -0.54581400
6.37037000 3.56844000 -2.78364000
6.30724000 3.62014000 -2.99727000
6.52749000 3.50443000 -2.31729000
6.35983000 3.51917000 -2.75356000
-6.43115000 0.55774900 -1.69023000
-6.38000000 0.56836400 -1.90014000
-6.40947000 0.43944100 -1.77333000
6.61835000 -3.05623000 -0.08966230
6.65242000 -3.04140000 -0.03846880
6.75365000 -3.05534000 -0.07567210
-5.47216000 3.10064000 5.15361000
-5.37434000 3.09983000 5.26094000
-2.47745000 -3.94694000 -4.56090000
-2.35131000 -4.02854000 -4.51435000
-5.68054000 -2.44192000 1.54676000
4.10626000 -4.39076000 -1.46730000
-5.93014000 -1.08373000 2.79891000
-3.07122000 -5.05871000 0.53000200
1.76615000 -3.36221000 5.34973000
1.84567000 -3.42598000 5.29000000
1.94123000 -3.42193000 5.27427000
-7.29589000 2.24104000 0.74086600
8.52581000 -3.03800000 0.62300400
8.54411000 -3.04537000 0.56639500
8.48829000 -3.11166000 0.50231400
6.81702000 2.95381000 -1.08464000
6.85328000 2.98047000 -0.86442900
6.86666000 3.20509000 -0.83468500
-3.80038000 2.77464000 6.09016000
-3.61608000 2.70957000 6.16284000
-3.62841000 2.77375000 6.19863000
2.36751000 -5.22021000 1.10038000
2.50067000 -5.20879000 0.95419900
-4.66797000 -4.85297000 0.64795200
-4.68427000 -4.83385000 0.54459200
2.03728000 -5.07322000 2.43623000
1.85754000 -5.03724000 2.75055000
4.94366000 -0.92490800 4.48378000
4.86371000 -1.04476000 4.52534000
-5.84713000 -3.19010000 0.76590300
-5.85926000 -3.26368000 0.74851800
3.81005000 -6.93795000 2.73250000
3.91881000 -6.93633000 2.56727000
4.24867000 -6.92368000 1.98616000
-4.59708000 -4.50234000 0.73404500
4.48699000 -6.07900000 -1.47658000
4.46674000 -5.93371000 -1.48813000
-0.88075000 -5.55269000 4.58575000
-0.01183160 -5.13245000 0.36283600
-8.75894000 -2.00572000 0.57718300
-8.85958000 -1.90929000 0.55092700
-8.74763000 -2.14324000 0.55668400
-2.76491000 -3.81494000 -4.16556000
-2.74913000 -3.72905000 -4.28726000
-7.52285000 -2.81905000 -0.44761300
-7.40530000 -2.80373000 -0.40650600
-6.00563000 -1.67519000 -1.96304000
-5.89668000 -1.81570000 -2.14820000
-5.94050000 -1.62398000 -2.13313000
3.41451000 -4.71360000 -1.02827000
3.48361000 -4.68297000 -1.13825000
3.52860000 -4.68240000 -0.96342900
-5.62464000 -2.71946000 -1.05850000
-5.54093000 -2.82561000 -1.17754000
-5.45826000 -2.92010000 -1.31850000
-1.86528000 -1.63800000 5.95130000
-2.15951000 -1.62138000 5.84617000
3.83424000 -5.90534000 -2.77086000
3.82526000 -5.77099000 -2.74137000
3.93475000 -5.64288000 -2.56001000
3.86976000 -5.63996000 -2.66182000
3.75955000 -1.96075000 5.16112000
3.60977000 -2.06439000 5.21731000
-7.80969000 0.69615300 0.26002700
-7.71668000 0.72970100 0.16380500
-7.68723000 0.75619800 0.26650200
-1.11587000 -5.79125000 -4.75831000
-1.28508000 -5.79717000 -4.71138000
0.71814100 -4.20212000 -4.58353000
0.68069600 -4.12441000 -4.69846000
-1.54946000 1.96294000 -6.73865000
-1.72260000 2.23732000 -6.70934000
-1.42367000 1.78613000 -6.76499000
-4.01241000 -2.68535000 -4.14586000
7.70405000 -2.94789000 0.88663200
4.82503000 0.64323900 4.96480000
5.63319000 -4.95491000 0.41296600
5.63145000 -4.98619000 0.47720200
5.64685000 -4.86091000 0.44993400
5.66023000 -4.87931000 0.50724100
6.12539000 -2.28318000 1.05327000
6.05462000 -2.47920000 0.94132400
-2.72637000 -0.19642300 5.98887000
6.81741000 1.97080000 1.43223000
-5.57586000 2.79198000 -3.72422000
-9.22932000 0.46148200 -0.52489300
-9.20530000 0.54178600 -0.52296300
-6.56030000 0.49891900 1.81718000
-6.59307000 0.51277600 1.58289000
-6.61839000 0.49373300 1.43370000
-6.63903000 0.56090900 1.37804000
-6.68976000 0.50467200 1.14281000
5.90502000 -2.65212000 1.49901000
5.95360000 -2.58041000 1.43576000
5.93411000 -2.57911000 1.51317000
5.99654000 -2.34655000 1.45552000
5.95886000 -2.50432000 1.52598000
2.12281000 -1.76757000 5.81788000
-3.02266000 -4.03989000 -4.01975000
-3.36599000 -3.90343000 -3.94580000
-3.18582000 -3.95805000 -4.00157000
-3.26667000 -4.01679000 -3.81784000
0.83450600 -5.24882000 -4.77837000
0.70367600 -5.34881000 -4.81160000
0.99086600 -5.28950000 -4.75581000
0.87858400 -5.17127000 -4.75574000
4.40440000 -2.13902000 4.54348000
-5.60631000 -3.43822000 -0.85131700
-5.64524000 -3.43806000 -0.81266800
-5.58281000 -3.38198000 -0.96006100
-5.56873000 -3.43919000 -0.89373400
-0.88512100 -5.25157000 1.90817000
-1.28048000 -5.24169000 1.82849000
-1.20124000 -5.26438000 1.70194000
-1.03483000 -5.20279000 2.16647000
-0.94333900 -5.22888000 2.03680000
4.52201000 -5.44759000 -1.09452000
4.42233000 -5.41810000 -1.42321000
4.41226000 -5.26316000 -1.38962000
5.10285000 -3.93754000 1.15764000
4.94805000 -4.02927000 1.23022000
5.08457000 -3.90837000 1.36098000
-3.68455000 -3.96242000 -3.04932000
-3.50446000 -3.96153000 -3.26334000
-3.59647000 -4.00829000 -3.06146000
-6.43878000 1.03989000 1.47851000
-6.49571000 1.39603000 1.33455000
0.51164000 -4.17829000 -4.95407000
0.48096300 -4.07368000 -5.09215000
0.44628100 -4.28485000 -4.81973000
7.62992000 -2.71646000 0.68840600
3.64656000 -4.90702000 0.99326300
3.70406000 -4.91018000 0.74406300
-0.82463300 2.12638000 -6.68104000
-0.67133900 2.20636000 -6.70811000
-2.30454000 -3.27000000 -4.98616000
-2.49123000 -3.12260000 -5.00014000
3.55056000 -2.44816000 5.05455000
3.43661000 -2.42928000 5.14909000
3.43213000 -2.52271000 5.09513000
0.08167820 3.56050000 -7.50405000
5.58007000 -3.83018000 0.77668400
1.06551000 1.65801000 -6.99027000
1.17521000 1.59821000 -6.88163000
1.45978000 -5.28066000 -4.22961000
-0.15348500 -2.35976000 6.38438000
-6.17054000 -1.96099000 -0.67967300
-6.12810000 -2.12881000 -0.62904100
0.15126900 -3.01207000 -6.16516000
-3.93254000 -5.52028000 -1.99833000
-3.85025000 -5.52230000 -2.15138000
-3.51457000 -2.38471000 -4.74598000
-5.85306000 1.52107000 3.74127000
-5.85264000 1.67916000 3.75693000
2.58244000 -5.22945000 0.39320100
2.42008000 -5.26413000 0.33227900
-2.92710000 -4.31378000 -3.65867000
-2.91404000 -4.38314000 -3.62342000
-0.96968900 3.77248000 -7.29158000
-1.07761000 3.71122000 -7.32632000
2.54800000 3.12876000 7.29769000
4.62347000 -0.28150800 -4.78848000
-5.54257000 -1.62268000 -3.06535000
-5.48215000 -1.54910000 -3.21094000
-5.54869000 -1.54902000 -3.07770000
-5.55357000 -1.47374000 -3.07719000
-3.34478000 0.99791900 -5.85515000
-3.48805000 1.06258000 -5.76431000
-3.33493000 3.51010000 -5.88380000
4.07675000 -5.73874000 -1.56821000
4.18096000 -6.06603000 -1.39495000
4.13487000 -5.75106000 -1.40986000
4.17874000 -5.73858000 -1.26823000
6.47619000 -0.00251169 -0.70206200
6.39723000 -0.09480810 -1.16058000
1.50836000 -5.58567000 4.36131000
1.81325000 -5.58073000 4.21706000
6.24035000 -0.88301400 -1.97074000
6.30794000 -0.77370100 -1.84989000
6.35742000 -0.52298500 -1.82085000
6.32012000 -0.69388400 -1.85885000
1.74318000 -5.33893000 -0.94852700
1.85507000 -5.29606000 -1.36668000
1.82569000 -5.32953000 -0.93699600
0.64946100 -2.75212000 -6.15506000
0.45115100 -2.74409000 -6.19273000
0.54471500 -2.81151000 -6.13580000
-6.87410000 -3.36408000 0.64573600
-7.16965000 -3.29690000 0.63639000
0.79933100 -6.77321000 -4.75136000
0.82895500 -6.73334000 -4.71976000
1.03018000 -6.73609000 -4.67373000
1.12414000 -6.63059000 4.64360000
1.05634000 -6.79889000 4.72939000
1.23578000 -6.77710000 4.67359000
-4.84645000 -3.91510000 0.04104000
-4.73351000 -4.00505000 0.08160530
6.43997000 0.31432700 -1.83810000
6.46232000 0.23750800 -1.76350000
6.38366000 0.25006700 -2.02193000
6.48843000 0.30670900 -1.67363000
-4.61940000 -4.06768000 -0.50137500
1.43172000 -1.41937000 6.18007000
1.41001000 -1.11371000 6.26974000
3.03107000 -4.08697000 -4.00896000
2.98752000 -4.02547000 -4.13413000
3.12086000 -4.05982000 -3.98603000
-6.55682000 2.80690000 -1.54245000
-6.51779000 2.80860000 -1.68835000
-1.51754000 1.04030000 6.56972000
-1.30830000 1.16088000 6.62985000
-1.15422000 1.15739000 6.66345000
0.41962900 -6.94710000 4.84651000
3.11060000 0.85586900 5.93907000
2.90416000 0.60158800 6.01401000
3.00134000 0.48619700 5.94644000
-3.52797000 -3.56163000 -3.84474000
-1.28674000 2.58154000 6.80989000
-1.05377000 2.57611000 6.85151000
-5.97940000 -0.00170142 3.19663000
-2.60165000 -0.20096100 -6.13822000
-2.51213000 -0.18507900 -6.18517000
-3.49152000 -4.62989000 0.77953100
-3.58288000 -4.60436000 0.65124200
-4.49885000 3.05437000 -5.01826000
-4.67421000 3.12349000 -4.85947000
-4.66063000 2.99019000 -4.86093000
-4.50886000 3.19358000 -5.01694000
-0.70062200 -4.07968000 -5.07001000
-0.54537600 -4.14442000 -4.99357000
-0.69372000 -4.17060000 -4.93118000
2.56831000 -4.92760000 2.61820000
3.30396000 0.66406400 6.09130000
-2.43806000 -4.70736000 2.34991000
-2.36170000 -4.79892000 2.04169000
1.11492000 2.20385000 6.79903000
0.77828800 -5.70989000 4.25661000
0.68825600 -5.55034000 4.24996000
0.58976000 -5.46039000 4.25263000
0.46480800 -5.39589000 4.26164000
-1.79282000 -6.87288000 4.62011000
-0.88120400 3.15210000 7.62776000
-5.84949000 3.73448000 4.19131000
-5.88986000 3.71908000 4.00300000
-5.57856000 3.69785000 4.44816000
3.06603000 0.85343800 -5.93371000
0.80908700 -0.79185200 6.45116000
0.66955200 -0.81948400 6.45715000
0.80382000 -0.93730600 6.41833000
-9.43698000 0.08994670 -0.14387700
-9.41353000 -0.00364615 -0.11732000
1.78451000 -4.42010000 -3.87631000
1.64134000 -4.46021000 -3.85454000
4.94853000 -3.01337000 -3.16361000
5.11782000 -2.96556000 -2.97893000
5.02663000 -2.94384000 -3.11305000
1.45144000 -1.72057000 6.08119000
2.03045000 -5.17005000 -3.88376000
0.31732300 -5.15336000 -2.88821000
0.26407300 -5.20838000 -2.66207000
0.17517500 -5.16697000 -2.83244000
-0.16206300 -5.06431000 -3.20386000
5.95278000 1.92267000 3.75300000
5.90823000 1.82243000 3.82805000
5.94421000 1.78134000 3.73864000
5.86533000 1.61466000 3.84793000
-2.84381000 -4.95070000 -3.15479000
-3.03435000 -5.00337000 -3.00382000
-4.21074000 -6.47890000 -1.85200000
5.36210000 -2.76824000 2.79271000
5.42043000 -2.70115000 2.70138000
5.46987000 -2.63802000 2.68274000
-5.81673000 -0.36950900 2.88116000
-7.01574000 2.20855000 0.79345100
-2.74627000 -2.65958000 -5.14756000
-2.79853000 -2.77132000 -5.05864000
-3.32681000 -5.93200000 -2.98867000
-3.42192000 -6.09683000 -2.92259000
-3.43381000 -5.91296000 -2.85801000
7.72304000 -2.64758000 0.07537420
5.58804000 -3.78877000 -0.39233300
5.62489000 -3.75473000 -0.41839600
5.66138000 -3.71738000 -0.43758000
-2.10198000 -4.95086000 1.27001000
-2.19888000 -4.92282000 1.45918000
3.81625000 -4.44141000 2.58652000
3.89860000 -4.52908000 2.43704000
3.98552000 -4.53630000 2.29459000
3.97863000 -4.45332000 2.33533000
-1.20865000 3.58943000 -6.72228000
-1.03379000 3.59008000 -6.76022000
-0.84441100 3.64826000 -6.82853000
-1.03773000 3.64737000 -6.79147000
0.87988300 2.54265000 -6.93920000
0.97519500 2.48560000 -6.99020000
3.80935000 -4.91310000 -0.12040600
-1.37047000 -2.10045000 5.93349000
-1.48539000 -1.98012000 5.95147000
-1.39968000 -1.73491000 6.06265000
-2.46490000 -2.09162000 -6.02058000
-2.55474000 -2.09073000 -5.97355000
-2.55790000 -2.01845000 -5.99529000
3.60699000 -4.59942000 1.32633000
3.87740000 -4.48622000 1.32739000
3.72917000 -4.54092000 1.38606000
-2.98212000 3.44357000 7.00898000
3.93099000 -1.79001000 4.68969000
3.83645000 -1.92315000 4.70398000
3.83273000 -1.76830000 4.78016000
-3.19795000 -3.55758000 4.50444000
-3.15258000 -3.49818000 4.60372000
-3.06737000 -3.61471000 4.51602000
-2.90832000 -3.58684000 4.63375000
9.40524000 0.64712800 0.09615770
9.28599000 0.67265300 0.04446050
-4.27180000 -3.27632000 -3.34969000
-4.43232000 -3.32364000 -3.06853000
-0.36045600 3.00672000 7.53622000
-0.20455300 3.03776000 7.60692000
-4.50158000 -6.26270000 1.83958000
-4.38459000 -6.19479000 2.05205000
-4.49652000 -6.15890000 1.80017000
2.59672000 -2.71735000 -5.54068000
-2.44490000 0.53692400 -6.27632000
-2.65722000 0.49632600 -6.18073000
-2.80581000 0.58408500 -6.11818000
2.82581000 1.04565000 6.41102000
4.62323000 -5.77197000 0.91266900
4.59388000 -5.90202000 1.00551000
4.64502000 -5.77667000 0.81765500
4.66488000 -5.78801000 0.72242200
-4.69160000 -3.22697000 2.84356000
-4.77192000 -3.21352000 2.72290000
9.22666000 -0.04367640 -0.11716900
9.16563000 0.00324146 -0.17491900
1.14556000 -5.30270000 1.52083000
1.14769000 -5.32126000 1.35648000
-2.28804000 -4.83117000 4.00776000
-2.32725000 -6.92069000 4.23602000
-2.45636000 -6.91023000 4.12307000
-2.44542000 -6.89711000 4.08505000
-2.77310000 -6.89022000 3.89129000
-2.67574000 -6.87239000 3.90237000
1.07874000 -3.66268000 5.33701000
0.89401700 -3.70166000 5.31134000
1.00703000 -3.56374000 5.42844000
0.90196100 -3.64048000 5.37141000
5.63960000 0.86154100 -3.76837000
5.61301000 0.58748800 -3.72749000
5.55149000 -3.55013000 -0.73909600
5.51360000 -3.59081000 -0.72189900
5.94018000 -2.81078000 1.11765000
5.02868000 -1.19645000 4.27423000
4.61750000 -1.27019000 4.69727000
4.78284000 -1.32310000 4.51305000
4.73581000 -1.25277000 4.57878000
6.31451000 0.96696500 2.93433000
6.28604000 1.04046000 3.01650000
6.33190000 1.04435000 2.92472000
4.24881000 -5.14639000 0.55384400
-0.69495500 1.39174000 -6.92834000
-0.78106300 1.40851000 -6.88696000
-4.41562000 -6.28523000 -1.10099000
-4.44528000 -6.39989000 -1.10924000
-4.48965000 -6.43481000 -0.97744700
-6.86020000 3.76754000 -2.05490000
-6.96811000 3.77791000 -1.68340000
-7.01329000 3.68019000 -1.90898000
-6.31646000 -1.74229000 0.28897900
-5.21173000 -3.52225000 -0.58447300
-5.24769000 -3.44560000 -0.75221800
3.09687000 -1.33769000 -5.51731000
3.10978000 -1.17603000 -5.55357000
8.95895000 -0.69477500 -0.06164460
8.94121000 -0.83933700 -0.04847090
-3.90537000 -3.73772000 -3.19143000
-2.96417000 -3.48214000 4.39602000
-2.82097000 -3.50272000 4.47113000
1.33666000 -5.38025000 0.59786200
-4.59695000 -5.43779000 -1.12875000
-4.55498000 -5.56306000 -1.32733000
-4.57840000 -5.69831000 -1.29755000
-4.60456000 -5.87925000 -1.32565000
-4.55809000 -6.82782000 -1.44919000
-4.51827000 -6.79346000 -1.47152000
-4.43077000 -6.78795000 -1.70426000
-4.67852000 -0.91980300 -4.49057000
3.15721000 -5.65730000 -3.06174000
3.25885000 -5.66208000 -2.94368000
-0.94502000 -4.79641000 3.87012000
-0.68635400 -4.80225000 3.86548000
5.87631000 2.04235000 -3.54942000
5.92882000 2.17792000 -3.43161000
-6.06649000 3.64891000 -2.98153000
6.50499000 -0.07219990 -0.20336400
6.47427000 -0.25736000 -0.06419000
6.50025000 -0.11271600 -0.05733810
-2.36465000 -2.49176000 5.72455000
-2.52940000 -2.55278000 5.61881000
-2.43956000 -2.55221000 5.65366000
0.67149700 -4.96917000 1.99762000
1.24506000 -4.93846000 2.07132000
-3.86522000 2.54411000 5.69133000
-3.76997000 2.66671000 5.77352000
-3.77096000 2.80228000 5.78225000
4.65971000 -5.33252000 0.41331600
-1.44190000 -5.36631000 -0.01307800
-1.58961000 -5.34727000 -0.15244500
-1.57391000 -5.35278000 0.03683050
4.34667000 -6.22299000 -0.86843700
4.29534000 -6.04278000 -0.97705300
4.30967000 -6.21846000 -1.02811000
-5.44900000 3.55256000 4.36015000
-5.48419000 3.60742000 4.38521000
-5.36626000 3.60142000 4.53334000
-5.36924000 3.65182000 4.60913000
6.42034000 -1.25115000 -0.50591400
6.44125000 -1.13292000 -0.52734300
7.71972000 -2.67676000 0.02890430
7.69823000 -2.73129000 -0.01453830
7.61617000 -2.78647000 -0.02508250
7.69716000 -2.77999000 -0.04975370
-2.73103000 -3.32615000 4.96962000
-2.66289000 -3.26408000 5.03625000
3.14806000 0.20695800 6.10783000
3.02908000 0.35905700 6.17264000
-5.78250000 -2.84231000 1.48569000
-1.12247000 -3.49697000 -5.24314000
-1.10549000 -3.64923000 -5.10782000
-1.00343000 -3.60215000 -5.18140000
5.24459000 -3.54219000 1.92357000
5.21238000 -3.53157000 2.05540000
-5.92485000 0.31732500 -2.98470000
-5.98467000 0.43190500 -2.87046000
5.61925000 1.75517000 -3.94011000
5.71826000 1.73418000 -3.76911000
4.53214000 -6.89970000 -1.92655000
-6.37884000 3.34560000 4.08965000
-6.49320000 3.34844000 3.90563000
-6.10006000 3.34050000 4.53197000
-2.93836000 -5.91312000 -3.81458000
-3.03042000 -5.78963000 -3.70933000
-2.96326000 -5.76970000 -3.76238000
6.76597000 0.28701900 0.45634200
6.79248000 0.51909600 0.43459300
6.76597000 0.28701900 0.45634200
-3.86903000 -5.06115000 2.64003000
-3.77853000 -5.20660000 2.80850000
-3.87522000 -5.13245000 2.66020000
-0.51829900 -5.41429000 -0.04822830
5.35259000 0.56390800 -4.04839000
5.23042000 0.56731100 -4.18513000
-1.40859000 0.47477100 -6.42924000
-1.57761000 0.53708600 -6.38603000
-1.44678000 0.34244500 -6.40711000
-1.61531000 0.41821100 -6.36396000
-1.79629000 0.24261300 -6.28081000
0.28916500 -5.86718000 -4.95330000
-3.00912000 2.75309000 6.22870000
-3.12748000 2.75990000 6.16860000
-3.65804000 -0.72807900 5.58601000
-3.67660000 -0.88350000 5.54484000
-3.56764000 -0.98349500 5.58553000
-3.55435000 -1.11533000 5.55301000
-7.19107000 -3.84930000 0.33677200
-3.80030000 -3.82661000 3.23825000
-3.68880000 -3.82856000 3.37111000
-5.19069000 -2.83234000 2.37256000
-5.11877000 -3.01507000 2.27653000
0.98389900 1.14143000 -6.65278000
1.07484000 1.05302000 -6.63840000
-4.09457000 3.59867000 5.77336000
-3.90196000 3.58919000 5.90758000
-4.14800000 2.98954000 -5.30439000
-3.98062000 2.99797000 -5.43148000
-3.92911000 3.11960000 -5.47908000
6.32296000 -1.32383000 -1.41134000
-9.24095000 0.29325800 -0.50456500
-9.24040000 0.37769400 -0.51735800
-9.32033000 0.41415900 -0.44133900
-4.46533000 -0.21173800 5.08956000
-4.31162000 -0.21724900 5.20689000
-2.29849000 2.38642000 -6.27603000
0.65708400 -0.00648228 6.84688000
0.66713300 0.07066100 6.86063000
-2.10589000 -0.43863000 6.42618000
-2.19430000 -0.57355000 6.36219000
-2.09418000 -0.59567200 6.39232000
-2.22666000 -0.43417300 6.38466000
1.11663000 0.72751300 -6.60449000
1.13844000 0.57225400 -6.58268000
1.35510000 0.41432100 -6.51577000
-1.30937000 -4.80217000 3.81933000
-5.28715000 3.19934000 4.40809000
0.93150200 -1.05399000 6.58483000
1.04087000 -0.91186200 6.59545000
0.93574800 -0.86299900 6.61657000
-2.78714000 -6.32129000 3.54260000
1.15269000 1.63743000 6.94940000
1.25801000 1.80833000 6.94369000
1.39121000 1.79658000 6.91343000
-4.27602000 -4.19466000 2.18239000
-0.90332200 -4.78839000 2.94669000
-1.34849000 -4.78734000 2.81372000
-1.14872000 -4.78037000 2.91410000
-1.15881000 -4.81019000 2.76796000
-1.52755000 -5.35448000 0.40017900
2.73789000 0.51002100 6.36318000
2.59540000 0.51026400 6.42242000
2.41188000 0.50929100 6.50898000
0.63941900 -4.93392000 -2.52283000
-5.28744000 -3.00056000 2.61119000
-5.34719000 -3.06369000 2.37100000
3.56478000 -2.79336000 4.85716000
3.82950000 -2.71776000 4.71140000
3.94826000 -2.64361000 4.66231000
-4.14391000 -1.72146000 4.92100000
-4.09450000 -1.61020000 5.01254000
-5.73791000 -4.04605000 -0.18989500
-5.75114000 -4.12773000 -0.16199500
-5.77289000 -4.03754000 -0.22968500
-8.52305000 0.74461100 -0.76211700
-8.64969000 0.72540600 -0.73442400
-8.61723000 0.92409800 -0.80926000
-4.50123000 1.45049000 -5.04193000
-4.46631000 1.30844000 -5.04916000
-4.39121000 1.23867000 -5.12110000
-4.50081000 1.20010000 -5.01216000
4.39629000 -2.91848000 -3.65491000
-3.54142000 -5.30651000 -2.55679000
-4.52500000 -3.68375000 2.98009000
-4.65124000 -3.59461000 2.91513000
-4.56096000 -3.63327000 3.01971000
-4.48779000 -3.63610000 3.13295000
3.15835000 -6.95602000 3.46627000
3.11257000 -6.93730000 3.45437000
3.15835000 -6.95602000 3.46627000
3.49005000 -6.95448000 3.14528000
-6.90076000 2.45173000 0.14312900
-6.93659000 2.39971000 0.14020000
-6.97255000 2.34841000 0.32178000
2.88485000 2.64815000 -6.18505000
3.11263000 2.70941000 -6.08076000
3.00039000 -4.97266000 2.85900000
4.46147000 -2.10094000 -4.11069000
-1.01238000 1.76028000 -6.85597000
-1.11959000 1.84496000 -6.83824000
1.90189000 -5.33957000 0.49321100
-7.53016000 1.59262000 0.95571200
-6.39374000 -4.42893000 -0.23685800
-6.31808000 -4.51709000 -0.23485400
-6.20340000 1.51280000 2.40539000
6.47399000 1.14119000 1.57436000
6.43655000 0.96753200 1.61768000
-1.67897000 -1.74682000 -6.23501000
-1.77543000 -1.64164000 -6.23260000
-2.10246000 -5.10288000 -2.05139000
-2.03698000 -5.13359000 -1.92792000
-2.14996000 -5.12784000 -1.81438000
-1.00191000 -0.92458400 -6.55879000
1.91808000 -3.10347000 5.26742000
0.00982884 1.79796000 -7.50602000
-6.16646000 -1.76295000 -1.31651000
-5.39998000 1.50591000 -4.06678000
-5.49118000 1.50243000 -3.95226000
5.76064000 -5.17119000 -0.02936910
8.47164000 -1.47147000 0.68625000
8.45991000 -1.45608000 0.57897200
8.45652000 -1.54797000 0.73938800
0.26876100 -3.55799000 5.58064000
5.62269000 0.02730830 3.92690000
5.68706000 0.02949620 3.82885000
8.79627000 -2.68235000 0.46128000
8.67037000 -2.87666000 0.51331600
6.81373000 2.32896000 0.47527200
5.72501000 -4.25511000 0.02672580
-8.44971000 -0.07949280 0.17762000
4.54113000 1.84342000 -5.13603000
4.65279000 1.84504000 -5.00852000
4.55764000 1.77227000 -5.11333000
4.55273000 1.70266000 -5.08721000
-6.38819000 -0.89808600 -1.07892000
-6.42072000 -0.77475400 -0.94149800
-5.03704000 -2.41275000 3.14679000
-4.36843000 -4.39400000 1.67994000
-4.32121000 -4.46871000 1.77141000
-4.32672000 -4.39311000 1.79054000
-4.34948000 -4.32480000 1.81702000
0.20631400 -0.01677350 -6.61816000
-0.32099200 -5.06552000 2.99260000
-8.27125000 -2.69677000 -0.40474500
-8.15666000 -2.80041000 -0.40896200
-8.17468000 -2.85560000 -0.38339300
-8.32751000 -2.63219000 -0.40212000
-6.45135000 0.82961400 2.28404000
-6.48445000 0.91939800 2.20823000
-6.84864000 2.34444000 0.74093700
2.11706000 -5.08205000 3.60688000
4.93892000 3.30038000 4.94338000
4.89548000 3.37032000 5.00589000
4.80904000 3.30257000 5.07207000
-2.08870000 -0.18556500 6.25702000
-1.95797000 -0.26975800 6.28814000
-2.14100000 -2.41259000 -5.93670000
-2.23544000 -2.41964000 -5.91502000
