18.90550000 -44.34750000 -0.00590000
19.37440000 -44.22340000 0.81430000
19.45050000 -44.20060000 1.84940000
15.27980000 -41.84140000 3.43780000
5.06800000 -43.02360000 3.43470000
-26.90350000 -41.16870000 0.62560000
-26.96910000 -40.88000000 0.77850000
-26.96060000 -40.90020000 0.36880000
-24.22040000 -42.77560000 3.32240000
-24.76660000 -42.62470000 3.31000000
-24.72420000 -43.06220000 3.32790000
-20.42310000 15.96480000 -2.07070000
-20.74480000 15.29420000 -2.44180000
-20.75050000 17.26750000 -2.43290000
-21.85320000 42.98460000 -2.40650000
-21.61100000 42.96940000 -2.28790000
-21.47710000 42.77800000 -2.47890000
25.22860000 44.45380000 -1.46010000
25.36850000 43.83020000 -1.54900000
25.07560000 44.06850000 -1.56310000
23.81230000 45.03070000 0.78810000
24.11850000 45.05080000 0.56700000
23.80960000 45.01210000 0.07280000
-22.72510000 43.28150000 0.76840000
-22.99950000 43.28790000 0.85790000
-22.84160000 43.24070000 1.26720000
-21.90760000 -8.01470000 1.98120000
-21.83880000 -6.36540000 1.61600000
-21.92230000 -6.46970000 1.95780000
24.47660000 40.63380000 -3.06330000
24.76960000 40.60460000 -3.02540000
24.75170000 40.39000000 -3.21590000
26.78950000 11.01670000 -1.55940000
26.81410000 13.64760000 -1.55850000
26.85980000 14.71610000 -1.26800000
22.95860000 -40.27560000 2.97830000
23.22060000 -39.79640000 3.16100000
23.03610000 -38.50830000 3.14060000
22.35070000 -43.28330000 1.30710000
22.33650000 -43.01080000 1.54400000
22.22140000 -43.09940000 1.18780000
-16.68840000 -42.62300000 -0.27880000
-15.96540000 -42.55040000 -0.52240000
-15.25620000 -42.73400000 -0.29210000
-21.32760000 -41.95360000 -0.81840000
-21.16000000 -41.98600000 -0.46050000
-21.41900000 -41.96870000 -0.53450000
25.35620000 42.63650000 3.42160000
24.25380000 43.29650000 3.41520000
24.14070000 42.19920000 3.42260000
22.61100000 42.88990000 1.79740000
22.52360000 42.96140000 1.21930000
22.57940000 42.57730000 1.52390000
20.56060000 41.46070000 1.63810000
20.36650000 41.66140000 1.83540000
20.47730000 41.42970000 2.10080000
22.58880000 43.27450000 -0.46670000
22.66040000 42.62060000 -0.74090000
22.55860000 42.38380000 -0.55910000
-23.10360000 -41.45790000 -2.89960000
-23.65910000 -41.39570000 -2.93070000
-23.64290000 -41.23220000 -3.13290000
-22.12470000 10.03320000 -3.33730000
-22.40310000 14.14440000 -3.39760000
-22.12930000 14.11890000 -3.34520000
-26.38620000 -32.71290000 2.80890000
-26.36740000 -30.88170000 2.80650000
-26.52460000 -30.82480000 2.58810000
-26.74780000 -41.38880000 1.13890000
-26.89880000 -41.15600000 1.31940000
-26.90310000 -41.16390000 0.89960000
26.64050000 41.94140000 -0.50990000
26.75870000 42.40550000 -0.17820000
26.72150000 41.89620000 -0.26290000
26.50550000 40.40770000 -1.90540000
26.50070000 40.24620000 -2.10430000
26.30150000 40.34280000 -2.29340000
-20.18840000 -18.16400000 2.04060000
-20.30310000 -19.61860000 1.32670000
-20.18850000 -19.72700000 2.11150000
-15.56360000 44.13000000 1.62570000
-18.23440000 43.84300000 0.37560000
-18.75780000 43.80070000 1.95000000
-26.86500000 -41.89190000 1.38230000
-26.72200000 -41.64620000 1.38280000
-26.74480000 -41.64710000 1.11650000
-24.29940000 -44.85490000 2.43580000
-24.16350000 -44.89110000 2.08940000
-23.75040000 -44.85610000 2.34200000
23.20670000 40.24670000 -3.36760000
23.61810000 39.93980000 -3.41740000
22.99420000 39.98880000 -3.39560000
21.70690000 41.06470000 -2.56570000
21.34620000 40.90690000 -2.71130000
21.16100000 41.10240000 -2.33180000
-24.94170000 -42.19720000 -1.45030000
-25.10850000 -41.91690000 -1.40760000
-24.86490000 -41.95780000 -1.44750000
-26.90140000 -43.64850000 0.85770000
-26.91710000 -43.67160000 1.25430000
-26.94120000 -43.16670000 1.24540000
20.49500000 -43.65950000 1.39670000
20.65050000 -43.41310000 1.32190000
20.57190000 -43.39360000 1.96700000
22.10310000 -43.16530000 0.83760000
22.20790000 -43.38030000 0.80830000
22.27810000 -43.33450000 1.06150000
-19.98170000 43.59890000 -0.40680000
-20.49100000 43.47790000 -0.86570000
-21.00320000 43.44400000 -0.89140000
-21.57560000 6.96140000 0.58950000
-21.39620000 6.85910000 0.41060000
-21.39300000 7.52510000 0.40290000
26.40340000 44.58820000 0.15880000
26.48830000 44.57570000 0.79820000
26.67080000 44.37150000 0.58790000
26.38500000 44.15140000 -0.74980000
26.30560000 43.88360000 -1.04500000
26.25920000 44.14960000 -1.00320000
21.94190000 41.33360000 -1.34820000
21.47830000 41.41000000 -1.05280000
21.91850000 41.43080000 -0.55080000
21.88050000 41.39820000 -0.95340000
21.67920000 41.43850000 -0.78250000
-22.64740000 -43.50830000 -0.22030000
-22.82610000 -43.48050000 -0.47210000
-22.82610000 -42.92770000 -0.53610000
-24.47730000 -43.92210000 -1.22780000
-24.40110000 -43.35890000 -1.33380000
-24.15300000 -43.38760000 -1.28570000
26.87420000 41.69070000 1.80150000
25.03170000 41.81840000 3.42030000
-23.94680000 43.20860000 -1.84230000
-23.31630000 15.95460000 -3.44130000
-24.42940000 19.49780000 -3.44250000
-23.86980000 22.16960000 -3.44310000
20.33590000 6.39700000 2.98510000
20.35890000 11.66630000 2.94930000
20.14980000 10.54710000 3.15640000
18.29120000 41.90970000 1.26440000
17.15270000 41.94680000 2.21310000
18.49350000 41.89500000 2.13220000
-23.00350000 -42.94460000 -0.74250000
-22.13330000 -41.93390000 -1.30820000
-22.65210000 -41.97570000 -1.32590000
-22.48680000 -41.92950000 -1.56670000
-24.04150000 24.34630000 3.39830000
-23.83200000 20.35690000 3.41280000
-23.77650000 24.20280000 3.38320000
-26.06720000 -13.58780000 2.91130000
-26.09750000 -11.91230000 2.95450000
-26.25230000 -13.51620000 2.71940000
24.55560000 -43.41480000 0.68100000
24.20160000 -43.49910000 1.12940000
24.17580000 -43.50730000 -0.18580000
26.20350000 -9.76270000 -2.52530000
26.02980000 -10.90900000 -2.72300000
26.04710000 -9.63480000 -2.73060000
21.78510000 -7.20080000 0.41870000
21.54480000 -5.99110000 0.32460000
21.52640000 -7.31610000 0.31330000
21.32670000 41.46330000 -0.29980000
21.48190000 41.27690000 0.02000000
21.78910000 41.28140000 0.12960000
-9.49020000 -41.65150000 -1.11390000
-4.31860000 -42.88050000 -1.05070000
-7.54070000 -42.42520000 -1.06530000
-20.50950000 -40.36110000 -1.66250000
-20.52940000 -40.79370000 -1.59470000
-20.79530000 -40.84980000 -2.11780000
-24.50250000 35.33950000 3.41840000
-24.44010000 39.51940000 3.42470000
-24.77000000 35.69320000 3.40720000
-26.05590000 42.81880000 -0.42020000
-26.08890000 42.78770000 0.18350000
-25.85120000 42.89770000 -0.03000000
-25.98950000 -44.63680000 -0.14030000
-25.53450000 -44.66590000 -0.38960000
-25.74010000 -44.72560000 0.14310000
-26.11480000 -44.71550000 1.45440000
-26.11230000 -44.71640000 1.02930000
-25.81700000 -44.80410000 1.19150000
25.58830000 40.27860000 -2.95630000
25.59620000 40.48150000 -2.76560000
25.83620000 40.23450000 -2.80790000
24.89450000 -15.37410000 -3.34230000
24.87550000 -12.62020000 -3.33630000
25.13740000 -13.56810000 -3.26880000
21.63490000 -43.49130000 -0.08710000
21.72430000 -43.28180000 0.14580000
21.49630000 -43.32330000 0.00450000
22.07620000 -9.22080000 0.86920000
21.97960000 -7.10520000 0.61700000
21.94040000 -9.36220000 0.61960000
-25.10690000 42.76360000 -2.82000000
-24.77320000 42.68130000 -3.07340000
-25.26060000 42.53850000 -2.95500000
-25.83880000 9.95670000 -3.03060000
-25.84530000 7.91210000 -3.04770000
-26.02560000 9.97670000 -2.88160000
-22.41790000 -43.52540000 2.58390000
-22.53290000 -42.99090000 2.81850000
-22.58180000 -43.49420000 2.82590000
-24.49570000 -42.16390000 3.27510000
-24.27720000 -42.46450000 3.30500000
-23.98010000 -42.17170000 3.26890000
6.65240000 43.19850000 -0.55300000
6.52090000 43.27600000 -0.27410000
7.93810000 42.96750000 -0.52080000
-16.97370000 43.98090000 2.41960000
-13.16680000 44.36590000 2.20930000
26.30490000 41.46990000 -1.04130000
26.16160000 41.17990000 -1.01150000
25.96840000 41.19650000 -1.14660000
25.92400000 43.33030000 -1.44420000
25.94590000 42.88760000 -1.48490000
25.68510000 42.89790000 -1.59400000
-23.45590000 -44.58540000 3.06430000
-23.72590000 -44.31220000 3.19280000
-23.92470000 -44.60620000 3.10020000
-23.06210000 -43.43140000 3.16680000
-23.00910000 -42.84550000 3.15410000
-23.32020000 -43.10440000 3.25440000
21.31030000 -43.68900000 -0.32560000
21.57310000 -43.60020000 -0.23490000
21.39030000 -43.54080000 -0.16360000
20.84980000 -43.84690000 -0.83320000
20.13510000 -44.01100000 -0.33990000
-23.72230000 42.80870000 2.96850000
-23.97630000 42.80780000 2.99680000
-23.93220000 42.59770000 3.13590000
-25.33290000 42.63300000 2.81620000
-25.43060000 42.43090000 2.96370000
-25.19830000 42.47720000 3.03220000
26.80020000 40.65120000 1.34950000
26.89600000 40.41270000 1.58720000
26.93820000 40.41520000 1.31460000
26.92330000 40.04160000 -0.51940000
26.96100000 39.85950000 -0.24250000
26.93000000 39.51080000 -0.73220000
-26.35640000 -41.41220000 -1.24570000
-26.27350000 -41.24040000 -1.72210000
-26.05280000 -41.34090000 -1.78440000
-24.81420000 -41.77630000 -1.59730000
-25.05050000 -41.65560000 -1.77620000
-24.63820000 -41.71420000 -1.82470000
-0.03530000 42.92880000 3.42310000
-7.33620000 44.62390000 2.19730000
-6.33710000 44.61130000 2.53070000
-6.64850000 44.61440000 1.19450000
22.51740000 41.77660000 -0.44390000
22.45810000 41.58480000 -0.73430000
22.32640000 41.51400000 -0.55830000
22.53050000 41.44120000 1.41140000
22.63100000 41.74990000 1.16080000
22.43570000 41.49030000 1.09160000
-21.31400000 43.27130000 -0.27570000
-21.63820000 43.36250000 -0.52950000
-21.55890000 43.26180000 -0.23760000
-22.22330000 43.16370000 0.71700000
-22.46340000 43.24760000 0.71840000
-22.33330000 43.12260000 1.10450000
23.88060000 -25.13260000 -3.44000000
24.99280000 -41.44110000 -2.82970000
25.22180000 -40.28640000 -2.65470000
25.20450000 -41.42840000 -2.64080000
-26.63550000 -41.38350000 -0.46920000
-26.80580000 -41.15120000 -0.44310000
-26.76610000 -41.10630000 -0.78360000
-26.72580000 -43.67030000 -0.23340000
-26.74140000 -43.02920000 -0.25860000
-26.62350000 -43.05320000 -0.51580000
17.31500000 41.79180000 3.02280000
17.73380000 41.61740000 3.22090000
18.56700000 41.76530000 3.00740000
12.47860000 41.75900000 3.35450000
12.28370000 42.02570000 3.24000000
11.30580000 42.15330000 3.23670000
-22.50180000 -41.76720000 2.46080000
-22.27070000 -42.06980000 2.26300000
-22.41000000 -41.79920000 2.21020000
-22.30810000 -41.83710000 1.66370000
-22.18000000 -42.12260000 1.66430000
-22.18180000 -42.13020000 1.35340000
25.52950000 44.93860000 0.09110000
25.74240000 44.84320000 -0.13570000
25.60070000 44.83460000 -0.44830000
26.26830000 44.73040000 1.14880000
26.16080000 44.74040000 0.26030000
25.91430000 44.85510000 0.64540000
23.06930000 -42.61730000 2.80870000
22.87490000 -42.56760000 2.68590000
22.85350000 -42.80840000 2.58890000
24.62570000 -43.05990000 2.65030000
24.82220000 -42.89140000 2.74560000
24.62690000 -42.84660000 2.89220000
-26.58680000 42.31580000 -0.41780000
-26.68210000 42.12300000 -1.16500000
-26.68470000 42.05120000 0.19610000
-26.48240000 42.07630000 -1.95790000
-26.44610000 42.33130000 -1.71700000
-26.37260000 42.30390000 -1.96930000
-26.95110000 -42.76130000 1.26340000
-26.94220000 -43.20540000 1.65610000
-26.95260000 -42.75190000 1.64800000
-26.28540000 -42.14040000 3.02430000
-26.58520000 -42.44080000 2.88990000
-26.33090000 -42.44610000 3.03880000
23.52710000 44.97650000 0.24590000
23.17470000 43.81550000 -1.25070000
23.13330000 43.22360000 -1.28420000
22.96380000 43.32130000 -1.10230000
1.62870000 -44.92400000 0.21720000
4.70700000 -45.00810000 0.21410000
2.91090000 -44.97630000 1.19890000
12.14570000 -44.58730000 3.29360000
12.20850000 -44.81480000 3.11570000
12.85800000 -44.55840000 3.29260000
-13.81830000 43.19820000 -1.17260000
-15.76790000 42.59840000 -1.19890000
-15.22260000 42.98930000 -1.17520000
-20.20980000 42.45080000 -1.56150000
-20.39490000 42.42020000 -1.79680000
-20.46170000 42.66630000 -1.77270000
23.89580000 -43.55950000 0.26400000
23.86340000 -43.56420000 1.23130000
23.84680000 -43.27670000 2.59310000
23.98240000 -43.28760000 2.54170000
24.11550000 -43.13800000 2.72550000
26.27780000 42.49970000 3.30880000
26.00050000 42.95020000 3.38690000
26.00480000 42.46680000 3.37830000
26.92740000 43.51920000 2.29330000
26.89090000 43.83330000 2.05640000
26.87550000 43.83490000 2.30290000
16.27360000 -44.83320000 2.33170000
16.28880000 -44.83520000 0.48390000
17.43540000 -44.62830000 2.32530000
3.69490000 -44.99900000 2.14130000
5.58710000 -45.03030000 0.85530000
6.07600000 -45.03330000 2.16370000
-21.85610000 -10.70920000 1.72030000
-21.76750000 -11.57660000 1.15820000
-21.75890000 -10.15140000 1.18180000
-22.13380000 -41.36720000 2.07450000
-22.36890000 -41.54930000 2.24900000
-22.31890000 -41.56130000 1.98090000
-25.66210000 42.17990000 3.01490000
-25.67530000 41.94880000 3.10720000
-25.43520000 41.97670000 3.19900000
-26.71340000 9.91220000 1.24380000
-26.71860000 8.40890000 0.92640000
-26.69330000 1.72240000 1.15240000
-26.41540000 -43.93150000 2.94780000
-26.62990000 -43.56010000 2.82860000
-26.62970000 -43.91890000 2.77930000
-25.84100000 -44.73390000 2.21930000
-25.30040000 -44.80040000 2.27020000
-24.92630000 -44.80290000 2.56870000
13.99190000 -44.97850000 0.06100000
15.58120000 -44.89910000 0.07860000
15.60480000 -44.91710000 1.89980000
13.78860000 -44.73900000 -0.83780000
14.98370000 -44.70230000 -0.82130000
14.38990000 -44.87170000 -0.58010000
-18.53830000 -0.04820000 3.41900000
-18.93150000 17.96540000 3.41510000
-20.16510000 43.17430000 1.42980000
-20.11390000 43.15450000 1.89100000
-19.94630000 43.39080000 1.82470000
24.24360000 41.31290000 3.28420000
24.80270000 41.54190000 3.39880000
23.86660000 41.59290000 3.38970000
23.31800000 42.78450000 3.28230000
23.10040000 42.83660000 3.12540000
23.06660000 42.25890000 3.15870000
26.61740000 40.61810000 -1.27350000
26.39820000 40.71950000 -1.46670000
26.24670000 40.80350000 -1.25020000
24.14550000 41.05160000 -2.09100000
24.67330000 40.94640000 -2.30330000
23.87200000 40.95370000 -2.62570000
-21.86930000 42.55050000 0.98020000
-21.93360000 42.52540000 1.24760000
-21.90000000 42.25490000 1.28550000
-22.92100000 -4.73560000 3.15000000
-23.15400000 -6.12400000 3.26470000
-22.90460000 -8.30520000 3.19300000
-8.97000000 44.60240000 0.91950000
-8.20340000 44.62300000 2.23150000
-7.54510000 44.61830000 0.81390000
-14.89720000 43.31570000 -1.14810000
-14.89740000 43.61300000 -1.10500000
-13.72270000 43.42400000 -1.15760000
-5.55520000 -44.05050000 0.52140000
-4.35370000 -44.24350000 1.87630000
-8.11330000 -43.42700000 -0.62170000
-7.30090000 -43.36160000 -0.82610000
-6.93090000 -43.62190000 -0.63780000
-26.43970000 -25.92910000 -2.46240000
-26.28100000 -24.27780000 -2.67810000
-26.29300000 -25.87810000 -2.66950000
-26.21950000 -40.78470000 -2.35830000
-26.14300000 -40.68710000 -2.52460000
-25.98950000 -40.78820000 -2.56110000
22.69680000 4.90860000 2.84400000
22.72160000 6.48380000 2.83120000
22.57010000 6.30590000 2.59450000
24.24800000 6.15650000 3.42380000
23.94450000 5.30090000 3.41230000
24.19670000 2.67040000 3.41930000
26.13870000 -13.50210000 -2.51610000
26.11300000 -15.73170000 -2.54360000
25.98600000 -13.45710000 -2.71700000
26.13040000 -37.53110000 0.10950000
26.17050000 -34.53500000 -1.05930000
26.40410000 -21.07220000 -0.93890000
24.28420000 41.69550000 -1.67670000
23.90190000 41.44850000 -1.49180000
23.82210000 41.68500000 -1.59280000
25.57400000 41.76350000 -1.60430000
25.61850000 42.03890000 -1.62570000
25.86500000 42.04320000 -1.53000000
24.72200000 -43.33770000 -1.37140000
25.16810000 -43.18200000 -1.03710000
24.86390000 -43.31500000 -1.00960000
25.88280000 -42.50090000 -0.14700000
25.88730000 -42.47730000 0.27950000
25.74660000 -42.71750000 0.28860000
-22.40530000 41.88920000 2.58610000
-22.24190000 41.90420000 2.36250000
-22.28250000 42.16510000 2.32920000
-23.36870000 42.36610000 3.11450000
-23.67230000 42.59980000 3.09670000
-23.62800000 42.36260000 3.18200000
24.93240000 40.52180000 3.26430000
23.93830000 40.80260000 3.14330000
23.98260000 40.55440000 3.26610000
23.17150000 11.73400000 3.18610000
22.95040000 13.52360000 3.05730000
22.92930000 11.69320000 3.03940000
-26.73190000 10.42730000 -0.95630000
-26.22880000 17.22330000 -2.68540000
-26.28100000 20.28320000 -2.71580000
-26.12040000 20.35080000 -2.89890000
17.92070000 41.83350000 -0.55270000
18.69590000 41.71210000 -0.81260000
17.78400000 41.74230000 -0.77770000
10.73010000 42.30040000 -0.95220000
10.74230000 42.08050000 -1.11790000
10.09770000 42.16210000 -1.12290000
22.33830000 -43.11340000 -3.23390000
22.63690000 -42.89910000 -3.34980000
22.65670000 -43.13670000 -3.22290000
24.52190000 -42.81440000 -2.86160000
24.71520000 -42.79600000 -2.71660000
24.64190000 -43.02330000 -2.55320000
-19.56030000 -21.47690000 3.29110000
-19.78090000 -19.62410000 3.13820000
-19.79360000 -20.93080000 3.13380000
-7.20840000 -43.25640000 3.31850000
-6.87200000 -43.03350000 3.39410000
-8.97650000 -42.75580000 3.39940000
-23.41660000 -8.17790000 3.36320000
-23.15870000 -8.30430000 3.29660000
-23.41910000 -6.19570000 3.34150000
-24.15050000 -41.16700000 3.29190000
-24.73130000 -41.15390000 3.28720000
-24.45390000 -41.36280000 3.10640000
25.65000000 6.69150000 3.28930000
25.60020000 3.95120000 3.28010000
25.90490000 6.52310000 3.19560000
26.86670000 39.90180000 2.08060000
26.88290000 39.50650000 2.05620000
26.91500000 39.85560000 1.79120000
17.53020000 41.60480000 -0.96090000
18.30020000 41.39770000 -1.10520000
17.21670000 41.42040000 -1.09700000
20.09010000 40.79900000 -2.05530000
19.87210000 40.56940000 -1.99990000
19.87740000 40.82630000 -1.86280000
-20.68610000 16.34810000 0.44030000
-20.55990000 15.89810000 0.65620000
-20.54410000 17.65000000 0.64700000
-20.03330000 43.42630000 0.94970000
-19.97960000 43.41030000 1.43010000
-25.99460000 -43.11800000 -1.15250000
-25.81790000 -43.74800000 -1.16690000
-26.07490000 -43.70600000 -1.07060000
-25.31990000 -44.09850000 -1.17280000
-25.07930000 -44.37780000 -1.07630000
-25.57110000 -44.30170000 -1.04330000
-26.58870000 42.26120000 0.47100000
-26.45600000 42.47470000 0.39340000
-26.49860000 41.17810000 2.47610000
-26.56450000 41.43710000 2.21890000
-26.60490000 41.18650000 2.22010000
20.02450000 -8.81010000 3.26860000
19.77920000 -7.11970000 3.36100000
19.76120000 -9.43830000 3.36990000
20.43870000 -43.64280000 1.91530000
22.92370000 42.46180000 2.94290000
22.93840000 42.83310000 2.91390000
22.77920000 44.69810000 1.10850000
23.00710000 44.82840000 1.08200000
22.77970000 44.69400000 0.84990000
25.80250000 -42.34230000 1.47010000
25.63750000 -42.58360000 1.63470000
25.69200000 -42.62520000 1.22310000
26.77770000 10.22190000 1.80680000
26.68290000 5.40500000 2.10850000
26.72380000 4.79800000 1.81590000
-21.06820000 43.40720000 -0.45620000
-21.35310000 43.38480000 -0.52090000
-20.47860000 43.14270000 0.28660000
-20.38410000 43.37320000 0.16440000
-20.58440000 43.32400000 -0.02850000
-26.07370000 -41.63240000 2.79960000
-26.40870000 -41.87340000 2.78650000
-26.19620000 -41.86790000 2.93880000
-24.75530000 -41.62490000 3.04680000
-25.22370000 -41.61940000 3.00860000
-24.93650000 -41.86680000 3.19020000
-22.73440000 -41.31520000 -3.06000000
-22.36590000 -41.11190000 -3.15680000
-22.43640000 -41.33300000 -2.99260000
-22.18740000 -41.78610000 -2.09050000
-21.81580000 -41.67430000 -2.24570000
24.94390000 44.71830000 3.15100000
24.85790000 44.81280000 2.89380000
24.48570000 44.71020000 3.15830000
23.50960000 44.86330000 2.48210000
23.45310000 44.89730000 2.26090000
23.20230000 44.77720000 2.29630000
3.20990000 -44.80420000 3.06470000
2.97220000 -44.92720000 2.80430000
3.79310000 -44.94410000 2.80700000
-5.34820000 -43.77070000 3.19320000
-5.29890000 -43.53400000 3.33730000
-6.54030000 -43.35850000 3.33040000
-14.59580000 44.06430000 3.01770000
-13.83780000 44.12540000 3.01940000
-13.83340000 44.25000000 2.74920000
-8.03850000 44.42450000 3.07710000
-9.26810000 44.55160000 2.81370000
-9.29030000 44.41290000 3.06740000
-26.58900000 -41.15610000 2.72660000
-26.73000000 -41.14840000 2.48910000
-26.59600000 -41.35930000 2.39480000
-25.22450000 -41.15280000 3.25600000
-25.57130000 -41.35040000 3.00850000
-24.85330000 -41.35630000 3.08150000
23.69180000 -40.28390000 3.29890000
23.60910000 -41.09800000 3.24280000
23.90190000 -40.89430000 3.31590000
24.78120000 -42.65110000 2.98410000
25.14470000 -42.48430000 2.91070000
24.91540000 -42.42890000 3.06040000
22.51650000 43.08450000 -0.22060000
22.60640000 42.28110000 1.55490000
22.50200000 42.70410000 0.89320000
22.51620000 42.42360000 0.73210000
-16.47700000 -42.31390000 3.28760000
-17.79270000 -42.40750000 3.08330000
-16.50460000 -42.50730000 3.11570000
-14.08360000 -42.92310000 1.52110000
19.72870000 -42.67730000 -2.08810000
19.69540000 -42.33960000 -2.12180000
20.03520000 -42.37000000 -2.47250000
-1.43100000 -37.92010000 -1.20300000
15.28480000 -40.44850000 -1.19820000
26.20200000 44.46310000 3.14390000
26.41530000 44.15240000 3.12640000
26.42370000 44.45130000 3.02670000
25.19310000 44.80950000 2.85100000
25.18810000 44.87570000 2.59940000
22.09940000 33.59990000 1.39940000
22.18960000 34.56840000 1.68150000
22.13340000 34.65130000 1.42140000
21.84110000 38.15510000 0.61220000
21.65410000 38.61550000 0.48080000
21.65200000 38.15610000 0.49790000
-0.61290000 44.27850000 0.64920000
0.72820000 44.16480000 1.57620000
1.23180000 44.09900000 0.52190000
5.89170000 43.43180000 0.31460000
-26.66320000 -32.91680000 2.35060000
-26.64430000 -30.63910000 2.34480000
-26.74790000 -32.74450000 2.08770000
-26.83690000 -27.36130000 0.33590000
25.66810000 38.33240000 -3.12880000
25.95290000 38.98790000 -2.96700000
25.87590000 36.99880000 -3.04280000
26.75980000 13.25080000 -1.82090000
-21.26820000 -41.90460000 0.02920000
-21.49410000 -41.91210000 0.02580000
-21.47230000 -41.95610000 -0.24660000
-20.52030000 -17.34680000 0.54830000
-20.52090000 -17.88210000 0.53220000
-20.40020000 -17.78510000 0.77310000
23.55500000 21.95450000 3.29670000
23.26090000 23.40590000 3.19160000
23.30310000 21.47800000 3.19230000
22.24100000 35.84750000 1.89140000
22.12370000 35.81140000 1.42530000
1.92550000 44.03730000 2.23110000
2.28390000 43.98700000 0.58190000
-3.19510000 44.05620000 3.26740000
-3.12010000 44.27380000 3.07900000
-4.20930000 44.11420000 3.27290000
-25.19110000 42.35450000 -3.09560000
-22.84350000 42.75730000 -3.10150000
-23.16770000 42.80020000 -3.14310000
-23.22040000 43.00820000 -2.96230000
-19.80150000 -42.31480000 2.11880000
-20.06620000 -42.19540000 1.94930000
-19.82290000 -42.32760000 1.68110000
-19.97110000 -42.11070000 2.66590000
-19.73710000 -42.22640000 2.79920000
-19.88180000 -42.06940000 2.87360000
-23.50840000 -44.74170000 -0.25130000
-23.27630000 -44.67660000 -0.26650000
-23.16790000 -44.72990000 -0.02580000
-23.96070000 -43.95890000 -1.12740000
-23.88620000 -43.19400000 -1.25950000
-23.67730000 -43.57450000 -1.11770000
25.15940000 41.26420000 3.28460000
26.27350000 42.04780000 3.28410000
26.52630000 42.31260000 3.15730000
-24.47970000 -41.87760000 3.20480000
-23.59720000 -41.38590000 3.02870000
-23.85370000 -41.18320000 3.27740000
-23.87650000 -41.37390000 3.07960000
-26.11360000 36.53160000 -2.95720000
-26.12000000 34.15570000 -3.02950000
-26.30800000 34.14030000 -2.85170000
-24.95120000 39.54750000 -3.37070000
-25.06170000 41.01000000 -3.33380000
-24.77230000 40.99560000 -3.38960000
21.49750000 27.70210000 0.35550000
21.74010000 27.29280000 0.40100000
21.72820000 28.68840000 0.42960000
22.22580000 30.50070000 1.41650000
22.14500000 31.86110000 1.37130000
22.14360000 30.54900000 1.08050000
4.51590000 43.59450000 -0.31260000
4.33870000 43.55340000 -0.58520000
3.49850000 43.65450000 -0.58350000
-5.13010000 44.19140000 -0.89980000
-5.06960000 43.94650000 -1.06630000
-6.42510000 43.95370000 -1.04860000
-20.74150000 -42.02300000 -0.05460000
-21.04770000 -41.91090000 0.06520000
-20.98410000 -41.98570000 -0.14370000
-19.82710000 -42.33910000 1.35280000
-19.54890000 -42.38940000 0.81040000
-19.55710000 -42.38480000 1.68140000
17.43530000 -44.53080000 2.91090000
17.55950000 -44.35320000 3.14220000
16.75010000 -44.47780000 3.14010000
20.22150000 -43.33060000 2.93160000
20.22470000 -43.09480000 2.99350000
19.99780000 -43.09700000 3.17930000
-25.18680000 43.01790000 1.77750000
-25.19200000 42.98320000 2.07780000
-24.96360000 43.03810000 2.12120000
-24.00880000 43.20030000 1.46820000
24.81650000 40.76990000 3.13840000
26.48630000 39.42930000 3.10530000
26.62970000 39.67020000 2.87520000
26.43550000 39.73730000 3.09380000
-24.95740000 -44.61540000 3.09790000
-24.93740000 -44.32500000 3.19890000
-25.25380000 -44.30900000 3.17400000
-25.27280000 -44.58440000 3.05120000
-25.25290000 -44.69840000 2.80340000
17.64370000 40.93590000 -1.24400000
17.94430000 41.17940000 -1.19070000
18.32420000 40.91230000 -1.23330000
15.93550000 31.68780000 -1.20530000
17.70600000 30.14110000 -1.21530000
16.78520000 5.44690000 -1.21160000
19.32820000 -43.72540000 3.22840000
19.00250000 -43.54040000 3.35180000
19.07130000 -43.79510000 3.24990000
14.57890000 -43.87670000 3.41740000
-26.78440000 -21.68130000 1.29550000
-26.70720000 1.35400000 0.30780000
23.30120000 44.89520000 -0.15530000
23.44740000 44.85940000 -0.74150000
23.17220000 44.76870000 -0.59630000
24.18800000 43.38730000 -1.64890000
24.43350000 43.39020000 -1.67910000
24.45730000 42.58160000 -1.74310000
-24.69020000 -40.60330000 -3.20400000
-25.11240000 -40.52290000 -3.10870000
-24.77300000 -40.36040000 -3.24920000
-24.47690000 -32.07970000 -3.43820000
-24.29410000 -21.08630000 -3.44080000
-23.73820000 -18.38660000 -3.44480000
-23.29020000 -41.90370000 3.13650000
-23.32400000 -41.66520000 2.96380000
-23.87780000 -41.63820000 3.04720000
-22.53920000 -41.99910000 2.76420000
-22.38220000 -42.03260000 2.52910000
20.02820000 41.35840000 3.08360000
20.10590000 41.58590000 2.80800000
19.96120000 41.57570000 2.98620000
20.19460000 41.82060000 1.58660000
20.05390000 41.77640000 2.27100000
20.25750000 41.62510000 2.37250000
17.29650000 -44.45220000 -0.76540000
16.28610000 -44.74150000 -0.53040000
15.93600000 -44.64050000 -0.80050000
16.58960000 -43.48620000 -1.14960000
18.05350000 -43.25030000 -1.16100000
17.29180000 -43.66430000 -1.13000000
-24.70930000 39.29370000 3.42170000
-25.02260000 38.09560000 3.39970000
-26.35960000 28.30830000 2.40300000
-26.22950000 26.91000000 2.60190000
-26.22230000 28.55290000 2.63240000
23.10990000 40.57630000 3.12990000
23.14410000 40.82800000 3.02300000
22.91190000 40.84320000 2.88780000
23.09880000 41.34920000 3.07550000
23.33130000 41.34100000 3.21380000
23.29710000 41.61790000 3.29000000
-22.31020000 -41.05580000 2.64560000
-22.50230000 -41.03320000 2.86550000
-22.54330000 -41.28520000 2.80200000
-22.98960000 -40.99110000 3.18520000
-23.28350000 -41.21990000 3.18140000
-23.01460000 -41.23940000 3.09810000
-26.68840000 34.42640000 1.76410000
-26.68560000 33.24130000 1.74760000
-26.61590000 33.23390000 2.01170000
-26.76720000 29.56700000 0.75000000
-26.79950000 38.39500000 1.04500000
-26.81090000 38.81490000 0.14050000
-22.51520000 -27.79220000 -3.39260000
-22.43800000 -24.51170000 -3.39550000
-22.22670000 -27.49130000 -3.34070000
-24.11830000 -32.38430000 -3.44470000
-22.79720000 -19.17210000 -3.43450000
-23.23900000 -30.76550000 -3.43600000
20.23470000 40.51930000 -2.35900000
20.17630000 40.25260000 -2.41700000
20.82160000 24.44400000 -3.01360000
21.08590000 24.45540000 -3.12660000
20.83960000 21.21680000 -2.97650000
-19.82490000 43.07410000 2.95030000
-19.62720000 43.07230000 3.16710000
-19.59890000 43.29960000 3.03970000
-14.60750000 43.86330000 3.22470000
-13.94380000 43.91300000 3.22480000
26.89920000 16.75290000 -0.43370000
26.80020000 7.37730000 -0.95920000
26.86760000 14.13500000 -0.99780000
26.95210000 37.64560000 -0.87360000
26.91300000 37.17660000 -1.33610000
26.91460000 38.60800000 -1.26430000
-22.35680000 -42.62840000 2.56650000
-22.37390000 -43.03940000 2.57570000
-22.13930000 -42.41870000 1.67890000
-22.17340000 -42.39860000 1.98560000
-25.48890000 15.46920000 3.20430000
-25.48490000 17.47930000 3.24990000
-25.73710000 15.84110000 3.09490000
-26.57170000 22.36480000 2.14250000
-26.48550000 22.34370000 2.39030000
-26.43470000 23.83670000 2.34980000
22.11160000 -42.85200000 -3.35520000
20.21320000 -43.40120000 -2.18330000
20.33670000 -43.14640000 -2.52580000
20.43820000 -43.36300000 -2.39220000
19.54330000 41.88120000 0.60360000
19.46240000 41.88570000 1.18190000
19.78320000 41.89540000 1.06250000
21.33020000 41.37480000 -1.36090000
-25.76230000 42.93760000 -0.92340000
-26.29290000 42.53730000 -1.72780000
-26.03220000 42.67630000 -2.00120000
-26.22330000 42.50620000 -1.98380000
-25.61330000 5.43830000 3.26340000
-25.32740000 4.20490000 3.33330000
-25.35200000 6.75310000 3.34470000
-25.54510000 11.53240000 3.21700000
-25.77550000 12.06150000 3.09680000
-25.82740000 10.15020000 3.12740000
27.00200000 30.98850000 0.82470000
27.00150000 37.92200000 1.03940000
26.98510000 34.14280000 1.73780000
27.00620000 30.98850000 -0.26990000
-19.27170000 -41.30070000 -0.92100000
-19.10800000 -40.12400000 -1.09010000
-18.46300000 -40.67170000 -1.02060000
-13.66670000 -42.53640000 -0.73430000
-11.97390000 -42.69570000 -0.75170000
-13.13620000 -42.77800000 -0.55370000
19.47770000 -40.10600000 -2.10810000
19.86090000 -39.22950000 -2.49920000
20.02550000 -41.45480000 -2.54250000
21.62520000 22.82170000 -3.27540000
21.88440000 22.03960000 -3.32790000
21.61930000 21.07860000 -3.25930000
-4.04720000 43.92980000 -1.08380000
-3.53720000 44.14060000 -0.90450000
-3.32960000 43.89810000 -1.07660000
-12.16300000 41.97300000 -1.21180000
-7.39590000 42.66640000 -1.20960000
-21.43390000 41.98460000 0.21480000
-21.22590000 42.53290000 0.07390000
-21.42150000 42.55170000 0.16340000
-21.83290000 41.50330000 1.12960000
-21.78710000 41.92690000 0.81290000
-21.84240000 41.99500000 1.04980000
20.55750000 41.18830000 2.10710000
20.64200000 41.20370000 1.70290000
21.44210000 38.20230000 0.46940000
25.40470000 -41.59950000 2.95170000
25.59280000 -39.91210000 2.92410000
25.27220000 -40.82310000 3.10440000
25.84550000 -40.67400000 2.45010000
25.94390000 -40.70030000 2.16640000
25.89160000 -39.98700000 2.45100000
26.79290000 40.67480000 0.52300000
26.81200000 40.66230000 0.81240000
26.98190000 40.43790000 0.76060000
26.85450000 41.76520000 0.50400000
26.91240000 42.33650000 0.60240000
26.87570000 41.73090000 0.76350000
20.98380000 35.72860000 0.74380000
20.85130000 35.78460000 0.95060000
20.84450000 35.07720000 0.94030000
21.25950000 -7.04400000 0.32670000
6.56830000 43.15380000 3.07370000
7.09200000 42.84530000 3.24960000
7.23830000 43.02110000 3.05850000
1.62090000 43.87010000 3.08500000
2.89480000 43.51050000 3.28120000
2.80720000 43.73800000 3.09180000
18.06480000 -34.21610000 -1.23240000
17.60540000 -33.67240000 -1.21930000
18.21150000 -31.56880000 -1.24110000
19.10710000 -37.70480000 -1.77370000
18.98750000 -35.72480000 -1.64840000
19.74930000 -36.23030000 -2.47740000
-21.70530000 -41.43290000 0.84390000
-22.23390000 -41.57960000 1.42810000
-21.94500000 -41.41700000 1.27480000
-22.05830000 -41.39410000 1.80890000
24.08130000 -43.10740000 -2.90650000
24.28080000 -43.24780000 -2.57360000
24.06650000 -43.27880000 -2.67370000
22.78250000 -43.62450000 -0.96870000
23.33540000 -43.54990000 -1.87590000
23.54430000 -43.57890000 -1.11510000
20.65900000 41.69420000 0.60340000
20.90870000 41.43670000 0.48670000
20.72100000 41.65240000 0.36470000
20.49820000 41.68920000 -0.38840000
20.15780000 41.80850000 -0.13210000
20.45500000 41.78380000 0.19980000
26.28770000 40.46950000 3.03750000
26.17630000 40.69960000 2.93290000
25.97670000 40.71410000 3.04230000
26.22460000 41.20940000 3.09140000
26.01470000 41.48490000 3.29860000
25.99260000 41.22440000 3.19000000
-26.71940000 -41.89500000 -0.30550000
-26.58580000 -41.65670000 -0.24290000
-26.50800000 -41.63830000 -0.50440000
-26.87560000 -41.89450000 1.11310000
-22.22010000 -43.28370000 0.83720000
-22.28340000 -43.24040000 0.54190000
-22.28370000 -42.44430000 0.41030000
-22.87280000 -44.85890000 1.00300000
-22.54250000 -44.76250000 1.26440000
-22.85730000 -44.85570000 1.47700000
19.97420000 -24.85810000 -2.46970000
19.48330000 -23.61060000 -1.98190000
19.99690000 -23.05700000 -2.45420000
21.00380000 -21.23010000 -3.09100000
20.62590000 -25.34670000 -2.96450000
20.75300000 -21.33240000 -2.96760000
22.61320000 43.91410000 -0.16280000
22.79850000 44.35490000 -0.40790000
22.66390000 43.89960000 -0.41300000
22.88830000 44.37070000 -0.65550000
21.12120000 -43.68900000 -0.23020000
21.19950000 -43.53180000 -0.08770000
21.03660000 -43.53080000 0.03180000
21.22170000 -25.51990000 0.40730000
21.23120000 -24.93730000 0.40980000
21.00610000 -24.92710000 0.53690000
26.77390000 43.82970000 2.78730000
26.89340000 43.51640000 2.54680000
26.84040000 43.83230000 2.54560000
26.71870000 42.29210000 2.94730000
26.85190000 42.57910000 2.73090000
26.72600000 42.59040000 2.97880000
-25.96790000 -32.60170000 3.14340000
-25.77330000 -35.01040000 3.26930000
-25.71650000 -32.33220000 3.25240000
-25.88960000 -41.15710000 3.14350000
-26.14510000 -41.15690000 3.04900000
-26.07650000 -41.35530000 2.86040000
21.19130000 -36.31700000 -3.33260000
21.13850000 -37.80720000 -3.30600000
20.86650000 -37.45440000 -3.21940000
22.33800000 -31.09810000 -3.43440000
22.57350000 -23.71280000 -3.43630000
-22.91360000 -44.60350000 -0.03500000
-22.62200000 -44.72550000 0.70470000
-22.57050000 -44.74990000 0.98400000
2.52320000 -44.73630000 -0.62870000
3.97460000 -44.91410000 -0.38100000
2.08150000 -44.85370000 -0.36620000
-6.81590000 -43.76660000 -0.38830000
-6.30810000 -43.71750000 -0.63720000
-5.24250000 -44.02030000 -0.39880000
-19.02010000 -20.11710000 3.40840000
-19.22810000 -15.07910000 3.37880000
-19.28690000 -19.90560000 3.38110000
-12.00580000 -42.39260000 3.38960000
-12.83930000 -42.58760000 3.31050000
-11.98310000 -42.65630000 3.30000000
26.90090000 43.73700000 1.37000000
26.93240000 43.50530000 1.97520000
26.94960000 43.18570000 1.33020000
26.59740000 43.05700000 -0.60690000
26.74700000 43.44070000 -0.05880000
26.77090000 43.02270000 -0.12470000
-24.95070000 -41.12740000 -2.79090000
-25.48810000 -40.98430000 -2.67650000
-25.44790000 -40.83140000 -2.82350000
-25.31220000 -41.61660000 -1.72800000
-25.57420000 -41.56880000 -1.67090000
-25.55110000 -41.48130000 -1.89650000
22.93600000 42.48820000 -1.14460000
22.78900000 42.58460000 -0.95030000
-26.63910000 25.74650000 -1.97490000
-26.70940000 26.99990000 -1.70290000
-26.68010000 28.43660000 -1.95460000
-26.55810000 41.82950000 -1.94970000
-26.40050000 42.05010000 -2.19250000
-26.47130000 41.81080000 -2.18330000
20.80560000 -18.99830000 -3.00740000
21.02720000 -16.98540000 -3.16050000
21.05330000 -18.91090000 -3.12600000
19.64510000 -15.72850000 -2.18630000
19.70630000 -17.63510000 -2.14600000
19.29580000 -16.07550000 -1.77270000
19.24980000 -0.64420000 3.41450000
18.98870000 3.11540000 3.42460000
18.14290000 1.38500000 3.43580000
16.14900000 41.65570000 3.22030000
17.15080000 41.40070000 3.34390000
17.17510000 41.62560000 3.21720000
23.58890000 -43.03100000 2.83630000
23.47190000 -42.76870000 2.94380000
23.39590000 -42.96320000 2.83270000
23.90970000 -42.19720000 3.21020000
24.15690000 -42.25400000 3.22220000
24.23260000 -42.01850000 3.26880000
23.85730000 44.74470000 -1.29940000
24.09420000 44.65460000 -1.44860000
23.75760000 44.58870000 -1.42190000
24.85330000 45.01990000 -0.19860000
25.02100000 44.96730000 -0.54800000
24.79210000 45.00020000 -0.47820000
26.92370000 40.52800000 -0.07910000
26.95920000 40.48930000 0.19970000
26.46580000 40.76910000 -1.07540000
-26.27230000 -41.62770000 2.67720000
-26.38440000 -41.15940000 2.91330000
-26.46270000 -41.35630000 2.58870000
-26.28250000 -41.35380000 2.74110000
21.04470000 4.65190000 -3.11590000
21.30460000 4.63520000 -3.21480000
21.24340000 2.55720000 -3.23880000
19.89100000 3.88930000 -2.30450000
19.35400000 4.13410000 -1.70110000
19.93310000 6.59610000 -2.29030000
11.74830000 -44.96270000 2.85520000
11.09730000 -44.82980000 3.09840000
11.03660000 -44.97720000 2.84530000
12.53410000 -45.03370000 2.26920000
13.48950000 -45.00710000 0.96000000
13.61280000 -44.99970000 2.29870000
21.22780000 37.93790000 0.53080000
21.24620000 38.49760000 0.51730000
21.05940000 38.34070000 0.65130000
21.25490000 41.31730000 0.05030000
24.68300000 29.83060000 3.42860000
25.14830000 29.84780000 3.42390000
24.57260000 35.38510000 3.42550000
26.53190000 31.04270000 3.02710000
26.30330000 31.41580000 3.20420000
26.29840000 30.22730000 3.16720000
7.83710000 42.71600000 -0.99760000
8.94260000 42.54590000 -0.97890000
8.73120000 42.34300000 -1.13150000
-3.38420000 43.61950000 -1.17130000
23.90740000 -43.47910000 2.05310000
23.91730000 -43.40820000 2.30620000
23.76830000 -43.40680000 2.36720000
22.57520000 -43.63170000 0.68450000
22.84550000 -43.64960000 0.86560000
22.62970000 -43.60530000 0.94630000
-20.65000000 -42.05750000 -0.28140000
-20.38300000 -42.11390000 -0.17840000
-20.90660000 -42.01570000 -0.37620000
-20.82060000 -42.00780000 -0.61140000
-20.56240000 -42.04870000 -0.51080000
-25.60310000 4.05940000 3.24980000
-26.07150000 2.86120000 2.97600000
-25.84880000 2.96970000 3.13320000
-26.07660000 3.84710000 2.97820000
20.87910000 40.62820000 1.00730000
20.98510000 39.91260000 0.83510000
20.96020000 40.92950000 0.79010000
21.24080000 39.79250000 0.49480000
21.20960000 40.28240000 0.47540000
21.09660000 39.89860000 0.64480000
26.84540000 41.39650000 2.00660000
26.70150000 41.13900000 1.95670000
26.73270000 41.13160000 1.70230000
26.15610000 40.97250000 2.94360000
22.98130000 41.09040000 2.81700000
22.05920000 40.75630000 1.05560000
22.13430000 40.75350000 1.39250000
22.17390000 41.01760000 1.40950000
13.16670000 40.70250000 -1.22370000
12.34050000 39.15150000 -1.22110000
8.07210000 41.38240000 -1.23660000
17.89820000 38.83360000 -1.30400000
16.45430000 39.96830000 -1.27330000
17.44700000 39.79380000 -1.31590000
23.27940000 -43.15650000 -3.15210000
23.54660000 -42.91740000 -3.25160000
23.56950000 -43.14630000 -3.08370000
23.76270000 -38.84420000 -3.39700000
23.98100000 -40.92720000 -3.33380000
23.69110000 -41.97210000 -3.39670000
21.50550000 26.83770000 0.35290000
21.27250000 27.02410000 0.41390000
21.29340000 26.09240000 0.41670000
21.51560000 26.24990000 0.35340000
-23.45450000 -41.89300000 -1.76680000
-22.92180000 -41.89310000 -1.83200000
-23.06530000 -41.94080000 -1.60510000
-23.63960000 -43.16310000 -1.18110000
26.47870000 28.69400000 2.93130000
26.52610000 30.26580000 2.99740000
26.26710000 29.03230000 3.12050000
26.83230000 25.60810000 2.11210000
26.75670000 27.31680000 2.41300000
26.73940000 25.75040000 2.38420000
-18.99050000 43.50180000 -0.82160000
-18.56130000 43.56640000 -0.78670000
-18.71680000 43.34160000 -0.97850000
-21.76470000 43.11250000 -2.06200000
23.16550000 41.09260000 2.98050000
22.94630000 41.35560000 2.85540000
22.69610000 41.66770000 1.75360000
22.67600000 41.70900000 1.45710000
22.31830000 40.33040000 -3.29990000
22.08270000 40.61210000 -3.14170000
22.53690000 40.56480000 -3.19820000
21.18200000 40.41370000 -3.02500000
21.13330000 40.13320000 -3.07560000
20.87160000 40.15290000 -2.95000000
-9.03930000 44.18150000 -0.89720000
-8.91080000 44.36700000 -0.66300000
-7.14650000 44.20130000 -0.89550000
-16.49570000 43.66120000 -0.96290000
-16.59430000 43.82320000 -0.73810000
-15.54590000 43.97160000 -0.76170000
21.69410000 -42.39080000 0.38150000
21.51980000 -42.39310000 0.30620000
21.50770000 -42.67050000 0.24570000
21.33360000 -42.40180000 0.30420000
21.15330000 -42.70370000 0.31000000
21.32260000 -42.68080000 0.24280000
26.00480000 22.63030000 3.19480000
26.27500000 20.91320000 3.09990000
26.24770000 22.67560000 3.05210000
26.52280000 8.56500000 2.62490000
26.60620000 5.34980000 2.37860000
26.63910000 8.89090000 2.36420000
-22.34530000 -31.61760000 -3.33160000
-22.07670000 -31.09130000 -3.24030000
-22.10200000 -33.24480000 -3.29000000
-20.50270000 -36.83630000 -1.89880000
-20.81600000 -36.58730000 -2.33470000
-20.80070000 -35.74550000 -2.30430000
-25.65900000 -44.46600000 -0.87060000
-25.41270000 -44.62630000 -0.63780000
-25.68110000 -44.57480000 -0.63220000
-26.62220000 -43.65930000 -0.48330000
-21.06310000 43.27820000 -0.25090000
-21.43540000 42.83000000 0.10070000
-21.24220000 42.82060000 0.01590000
-21.27090000 43.07360000 -0.09380000
22.60500000 40.79590000 -3.02370000
22.97420000 40.94510000 -2.85020000
23.04160000 40.75950000 -3.08270000
24.65360000 40.77590000 -2.82200000
23.88140000 40.69010000 -3.11030000
23.91590000 40.84730000 -2.88520000
20.56900000 -43.51500000 -2.20640000
20.34200000 -43.56340000 -2.01240000
15.99800000 -44.41140000 -0.98250000
17.18590000 -43.97160000 -1.07870000
17.17960000 -44.25010000 -0.96380000
-22.60510000 -44.39140000 2.59680000
-22.52740000 -44.10430000 2.59010000
-22.68670000 -44.06790000 2.82270000
-23.69780000 -44.74460000 2.85360000
24.66340000 -42.36910000 3.15300000
24.49550000 -42.07340000 3.25110000
24.40920000 -42.31240000 3.20490000
25.36820000 6.07590000 3.35360000
25.01920000 2.07150000 3.38250000
25.30180000 2.57570000 3.34100000
-20.73000000 -41.96370000 -0.83170000
-20.47770000 -41.99870000 -0.72310000
-19.98370000 -40.85940000 -1.06220000
-20.20730000 -40.84280000 -1.17850000
-19.92930000 -39.89700000 -1.21640000
-21.03460000 42.81580000 -0.00530000
-20.82900000 43.07850000 -0.03930000
-21.04810000 43.07060000 -0.10020000
-20.87620000 17.46930000 0.28420000
-20.67880000 17.29890000 0.43060000
-20.67010000 18.72400000 0.43140000
21.13310000 -43.81140000 -0.71970000
21.42530000 -43.75960000 -0.60980000
21.22300000 -43.77610000 -0.51140000
22.43140000 -43.50490000 1.01590000
26.07240000 40.39700000 -2.47460000
25.54030000 40.78410000 -2.30590000
25.72050000 40.84130000 -1.93370000
25.99250000 40.72330000 -2.06170000
22.15970000 40.19810000 1.39220000
21.54860000 40.32550000 0.33880000
21.74730000 40.22220000 0.44310000
21.69950000 40.61580000 0.37220000
26.57190000 40.89040000 1.89960000
26.76230000 40.65060000 1.61430000
26.61990000 40.88570000 1.64440000
26.50110000 40.68240000 2.60020000
26.46590000 40.45370000 2.84100000
26.61860000 40.44520000 2.62610000
19.32960000 -11.85360000 -1.84040000
19.35640000 -8.23910000 -1.86580000
19.70930000 -11.09310000 -2.28880000
18.33690000 19.95030000 -1.23740000
18.60920000 22.26760000 -1.28190000
18.61330000 20.57210000 -1.28660000
-24.74300000 27.64020000 -3.42810000
-24.77750000 30.41110000 -3.42740000
-24.38460000 30.82380000 -3.43900000
-26.06180000 17.24150000 -2.86640000
-25.87050000 17.24490000 -3.02310000
-21.54810000 43.31230000 -1.36480000
-21.82950000 43.33750000 -1.19250000
-20.78070000 43.22970000 -1.47630000
-20.91320000 43.03420000 -1.80660000
-21.05380000 43.18090000 -1.64410000
22.42040000 -38.39320000 2.27760000
22.50820000 -38.22350000 2.55400000
22.43830000 -37.50790000 2.32640000
22.35900000 -37.89190000 1.97050000
22.33140000 -35.85430000 1.84690000
22.22300000 -37.48470000 1.23680000
26.69420000 42.00420000 2.90560000
26.77210000 41.78880000 2.62510000
26.83220000 42.28330000 2.69150000
26.49500000 40.92130000 2.38400000
26.63250000 41.16320000 2.46320000
26.54260000 41.18520000 2.70210000
24.48550000 -40.70430000 3.34360000
24.82750000 -40.07160000 3.30980000
24.61940000 -39.21650000 3.37010000
25.49540000 -38.32290000 3.12290000
20.53920000 -36.56160000 2.15690000
20.66300000 -36.46870000 1.16660000
20.65770000 -34.77920000 1.36120000
21.13820000 -42.99900000 0.23300000
21.30530000 -42.98310000 0.15810000
-26.83080000 -43.86890000 2.37860000
-26.92030000 -42.85010000 2.16410000
-26.88550000 -43.64390000 2.14500000
-26.66160000 -44.51210000 1.39470000
-26.81270000 -44.30370000 1.11250000
-26.63700000 -44.51150000 1.12720000
26.65360000 40.10730000 -1.93970000
26.16430000 38.93270000 -2.81970000
26.39120000 39.19900000 -2.61230000
26.32430000 38.21760000 -2.69000000
11.44680000 42.40460000 -0.45930000
10.38570000 42.49590000 -0.73150000
9.17000000 42.68160000 -0.75380000
16.90750000 41.87960000 -0.54860000
16.69810000 41.79100000 -0.77820000
16.14280000 41.89910000 -0.54060000
24.90380000 -33.81020000 3.33350000
24.96410000 -32.25080000 3.29930000
24.65500000 -33.28910000 3.36430000
25.27000000 -30.79100000 3.17870000
25.20210000 -33.27040000 3.23940000
25.50060000 -31.13740000 3.05700000
20.79570000 -43.37400000 0.69420000
20.77090000 -43.59020000 0.38890000
20.87040000 -43.34130000 0.47540000
20.81980000 -42.53580000 0.84790000
20.91410000 -42.77690000 0.59980000
20.90720000 -42.49880000 0.64950000
-20.39630000 -41.90260000 -0.90210000
-20.32270000 -41.75230000 -1.03210000
-20.08360000 -41.77000000 -0.93000000
-21.38130000 -41.67660000 -1.91440000
-21.21050000 -41.51890000 -2.13180000
-21.02880000 -41.52730000 -1.89370000
-25.50990000 -35.12550000 3.34470000
-25.45220000 -32.27020000 3.32960000
-25.25050000 -35.22900000 3.38890000
-24.96960000 -37.48970000 3.41680000
-24.89250000 -31.67460000 3.40880000
-23.83660000 42.81280000 -3.17890000
-23.55750000 43.02200000 -2.99010000
-23.50280000 42.82240000 -3.17570000
-24.19290000 43.15210000 -2.46180000
-24.70350000 43.10520000 -2.08240000
-23.89150000 43.21020000 -2.16530000
26.13750000 -36.80200000 1.01560000
26.26460000 -28.71440000 1.21950000
26.41830000 -20.43570000 0.09250000
20.82530000 -40.41910000 0.74120000
20.80590000 -38.68180000 0.65890000
20.71480000 -38.79500000 0.91480000
20.95710000 -38.61370000 0.44680000
21.17430000 -39.51600000 0.36970000
21.17460000 -38.63490000 0.31350000
-7.42880000 44.48240000 -0.38220000
-7.29800000 44.54420000 -0.09330000
-6.39860000 44.47770000 -0.37700000
-4.02260000 44.53110000 2.24670000
-3.50020000 44.49320000 0.65600000
-5.12450000 44.57070000 0.56220000
-22.46840000 43.05910000 1.57530000
-22.58330000 43.19720000 1.18940000
-22.70300000 43.14940000 1.63660000
-22.67480000 42.38380000 2.71640000
-22.62680000 42.13640000 2.75810000
-22.44140000 42.14890000 2.55520000
-25.90160000 -38.65020000 -2.98610000
-25.72280000 -39.46530000 -3.05550000
-25.96400000 -39.90290000 -2.90270000
-26.59650000 -38.79060000 -2.32710000
-26.44020000 -38.12890000 -2.55570000
-26.43300000 -39.78500000 -2.49230000
-22.38660000 -42.43920000 0.11720000
-22.03310000 -41.97990000 -0.65930000
-21.73040000 -41.95900000 -0.26080000
-22.00100000 -41.97370000 -0.23440000
-21.60750000 15.51740000 -3.14150000
-21.63330000 17.94550000 -3.14680000
-21.38020000 17.90310000 -2.99870000
-21.12250000 42.55160000 -2.43550000
-20.89650000 42.57180000 -2.22760000
-20.79930000 42.32510000 -2.27860000
25.72350000 44.90770000 1.53220000
26.00430000 44.83240000 1.47020000
25.96020000 44.72910000 2.70160000
25.71240000 44.81360000 2.50120000
25.71050000 44.76840000 2.75710000
25.45120000 -33.25150000 3.12290000
25.69180000 -32.62610000 2.92830000
26.07490000 -33.69600000 2.25260000
26.13250000 -29.84590000 2.11010000
26.02920000 -30.93780000 2.40280000
-23.61250000 43.16250000 2.28670000
-23.81110000 43.08430000 2.54790000
-23.38210000 43.09270000 2.52270000
-24.90980000 43.08200000 1.46060000
-21.16440000 14.10190000 0.24480000
-20.92200000 13.33060000 0.29140000
-20.90090000 14.68140000 0.28620000
-21.72600000 -41.92290000 0.05440000
-21.48370000 -41.80760000 0.26640000
-21.68600000 -41.83070000 0.34240000
-26.65130000 -40.11280000 -2.10420000
-26.70850000 -40.39260000 -1.88920000
-26.75410000 -40.15610000 -1.88390000
-26.91260000 -40.88180000 -0.41440000
-22.81220000 41.94290000 -3.35850000
-22.50690000 42.17690000 -3.26780000
-22.48840000 41.90610000 -3.31210000
-21.20530000 41.21100000 -2.84550000
-21.51070000 41.57530000 -3.00950000
-21.22460000 41.56920000 -2.83340000
22.61560000 44.11980000 1.15180000
23.04060000 44.31830000 2.80890000
23.12780000 44.57460000 2.76880000
23.05880000 44.58900000 2.55480000
-22.99760000 -42.52480000 3.14500000
-23.27950000 -42.19580000 3.20970000
-23.28650000 -42.49870000 3.23180000
-23.06400000 -41.68610000 2.90930000
-23.00840000 -41.92750000 3.07450000
-22.74700000 -41.96280000 2.95820000
22.58280000 41.86230000 -0.64190000
22.88890000 41.72810000 -1.17540000
22.63660000 41.46500000 -1.12060000
22.72630000 41.71810000 -1.04650000
26.22270000 44.44960000 -0.97510000
26.15390000 44.62120000 -0.61720000
26.33690000 44.43690000 -0.71730000
25.89540000 44.72930000 -0.47770000
24.80080000 -39.67920000 -2.99810000
