-6.84689000 0.67490600 -0.18061900
-6.87009000 0.68460100 -0.17869200
-6.91635000 0.73110900 -0.19793800
-6.91516000 0.70181200 -0.17277600
-6.93699000 0.70961800 -0.16884700
-6.85504000 0.62789000 -0.13605600
-6.84689000 0.67490600 -0.18061900
-6.85691000 0.66222000 -0.16669600
-6.65498000 0.54197700 -0.15814000
-6.85504000 0.62789000 -0.13605600
-6.62810000 0.47453700 -0.12359600
-6.78089000 0.77889500 -0.24945800
-6.62447000 0.66567200 -0.20237200
-6.57736000 0.47515300 -0.15304800
-6.28831000 0.75406300 -0.18957100
-6.67000000 0.92809500 -0.33687800
-6.66986000 0.81727100 -0.26347300
-6.11692000 1.13484000 -0.36335200
-6.11052000 0.88912800 -0.30084600
-6.10986000 1.16628000 -0.37494000
-6.11920000 1.16117000 -0.56875300
-6.14699000 1.24000000 -0.57103500
-6.12838000 1.33480000 -0.57575600
-6.12123000 1.35717000 -0.52467200
-6.16328000 1.25993000 -0.75309100
-6.19419000 1.21675000 -0.77190800
-6.17674000 1.25250000 -0.76980300
-6.19099000 1.24485000 -0.78685200
-6.17674000 1.25250000 -0.76980300
-6.19099000 1.24485000 -0.78685200
-6.19405000 1.27508000 -0.79526300
-6.16532000 1.34649000 -0.78325500
-6.18700000 1.38316000 -0.83908800
-6.14288000 1.48545000 -0.76844200
-6.18700000 1.38316000 -0.83908800
-6.19405000 1.27508000 -0.79526300
-6.20646000 1.32525000 -0.84170000
-6.19099000 1.24485000 -0.78685200
-6.87279000 2.14333000 -0.96180500
-6.97632000 2.14994000 -0.91593300
-6.84998000 2.16985000 -0.93833500
-7.04907000 2.10184000 -0.90386400
-7.11034000 2.09147000 -0.88365100
-6.97632000 2.14994000 -0.91593300
-7.05778000 2.18219000 -0.84543700
-7.11821000 2.13426000 -0.84969500
-7.14106000 2.18499000 -0.77336800
-7.06773000 2.20946000 -0.80048600
-7.04308000 2.20757000 -0.82098000
-7.05144000 2.21737000 -0.79870800
-7.14106000 2.18499000 -0.77336800
-7.06773000 2.20946000 -0.80048600
-7.22994000 2.09111000 -0.82956400
-7.20680000 2.13459000 -0.78493600
-7.19082000 2.16597000 -0.76634200
-7.21661000 2.15051000 -0.76330800
-7.19082000 2.16597000 -0.76634200
-7.21661000 2.15051000 -0.76330800
-7.20795000 2.17992000 -0.74363800
-7.20717000 2.20213000 -0.71111400
-7.20717000 2.20213000 -0.71111400
-7.20795000 2.17992000 -0.74363800
-7.25387000 2.14975000 -0.73814900
-7.21661000 2.15051000 -0.76330800
-7.24179000 2.25707000 -0.49589900
-7.30315000 2.15214000 -0.50849800
-7.28259000 2.19671000 -0.42919500
-7.29387000 2.21897000 -0.31178500
-7.29925000 2.06278000 -0.29783700
-7.28944000 2.08257000 -0.45384000
-7.28730000 1.93516000 -0.64505400
-7.32083000 2.01170000 -0.13708100
-7.33836000 1.96951000 -0.12905400
-7.38627000 2.01861000 -0.06441550
-7.36002000 2.03302000 -0.08152470
-7.31770000 1.96115000 -0.16657900
-7.28911000 1.86033000 -0.19469800
-7.30067000 1.87767000 -0.17446300
-7.33836000 1.96951000 -0.12905400
-7.34796000 1.93410000 -0.13374300
-7.31371000 1.89431000 -0.15351100
-7.33715000 1.90922000 -0.14017900
-7.35936000 1.92494000 -0.12573400
-7.33836000 1.96951000 -0.12905400
-7.34796000 1.93410000 -0.13374300
-7.41728000 1.95474000 -0.08642130
-7.33715000 1.90922000 -0.14017900
-7.31371000 1.89431000 -0.15351100
-7.41571000 1.82404000 -0.06999730
-7.30067000 1.87767000 -0.17446300
-7.28911000 1.86033000 -0.19469800
-7.29535000 1.85086000 -0.17965200
-7.30601000 1.83867000 -0.16613900
-7.32452000 1.81730000 -0.14514800
-7.37566000 1.78479000 -0.08817580
-7.32452000 1.81730000 -0.14514800
-7.30601000 1.83867000 -0.16613900
-7.34671000 1.74247000 -0.11654200
-7.29535000 1.85086000 -0.17965200
-7.23010000 1.78981000 -0.22688300
-7.27680000 1.76505000 -0.18201300
-7.24839000 1.76386000 -0.20202200
-7.25689000 1.75077000 -0.18896900
-7.27680000 1.76505000 -0.18201300
-7.25689000 1.75077000 -0.18896900
-7.29082000 1.69662000 -0.13831100
-7.34671000 1.74247000 -0.11654200
-7.29082000 1.69662000 -0.13831100
-7.31934000 1.61088000 -0.03354400
-7.34671000 1.74247000 -0.11654200
-7.23590000 1.73803000 -0.19431100
-7.13364000 1.69852000 -0.20204000
-7.24983000 1.63981000 -0.11277900
-7.06187000 1.61534000 -0.15300400
-7.15390000 1.57459000 -0.08622860
-7.12064000 1.44258000 0.03900810
-7.25379000 1.40558000 0.13199400
-7.28529000 1.45596000 0.08106950
-7.29213000 1.44592000 0.09400320
-7.24857000 1.55241000 -0.02665330
-7.07585000 1.48703000 -0.03820530
-7.31515000 1.46536000 0.08162070
-7.34221000 1.47983000 0.08650900
-7.31934000 1.61088000 -0.03354400
-7.35932000 1.57569000 0.04297350
-7.35085000 1.61297000 -0.00133420
-7.35932000 1.57569000 0.04297350
-7.38239000 1.52860000 0.10753000
-7.42565000 1.59979000 0.12692900
-7.38958000 1.66047000 0.01519610
-7.47464000 1.69715000 0.12307600
-7.49586000 1.73697000 0.11711100
-7.49933000 1.78097000 0.05343390
-7.46399000 1.74001000 0.06109560
-7.47856000 1.76300000 0.05061960
-7.47374000 1.77185000 0.03497850
-7.45739000 1.80783000 -0.02677280
-7.41405000 1.74336000 -0.02427550
-7.45739000 1.80783000 -0.02677280
-7.47374000 1.77185000 0.03497850
-7.52882000 1.92021000 -0.05267970
-7.47856000 1.76300000 0.05061960
-7.49933000 1.78097000 0.05343390
-7.54901000 1.79939000 0.08150240
-7.54108000 1.81686000 0.05776010
-7.51464000 1.84992000 0.01028510
-7.56426000 1.83234000 0.05660370
-7.72240000 1.93071000 0.07035090
-7.44326000 1.83057000 -0.05203660
-7.43634000 1.84140000 -0.06381200
-7.44326000 1.83057000 -0.05203660
-7.43634000 1.84140000 -0.06381200
-7.41571000 1.82404000 -0.06999730
-7.37566000 1.78479000 -0.08817580
-7.52089000 2.01357000 -0.04144110
-7.84633000 2.26905000 -0.03895710
-7.71587000 2.18525000 -0.01242690
-7.64817000 2.12141000 -0.02515160
-7.72630000 2.27182000 0.03884900
-7.68500000 2.22205000 0.05640190
-7.73775000 2.26215000 0.01773240
-7.71950000 2.27700000 0.05924500
-7.70776000 2.25889000 0.05788080
-7.68500000 2.22205000 0.05640190
-7.70776000 2.25889000 0.05788080
-7.71551000 2.27989000 0.07447120
-7.71950000 2.27700000 0.05924500
-7.63050000 2.17696000 0.08288770
-7.70797000 2.28430000 0.12414600
-7.70204000 2.28668000 0.18745000
-7.78955000 2.32003000 0.28365800
-7.67187000 2.22230000 0.43389900
-7.74391000 2.26387000 0.25706100
-7.73737000 2.26867000 0.48119000
-7.79033000 2.31669000 0.53624300
-7.76862000 2.27030000 0.67883000
-7.73737000 2.26867000 0.48119000
-7.76862000 2.27030000 0.67883000
-7.77664000 2.26720000 0.71445400
-7.78498000 2.26041000 0.73362200
-7.86905000 2.35619000 0.73843400
-7.81590000 2.27021000 0.74467900
-7.79808000 2.25151000 0.74664800
-7.77664000 2.26720000 0.71445400
-7.78498000 2.26041000 0.73362200
-7.79808000 2.25151000 0.74664800
-7.78856000 2.23588000 0.74926700
-7.76861000 2.20192000 0.75474100
-7.73045000 2.17825000 0.75802800
-7.63643000 2.17367000 0.73037900
-7.70252000 2.21805000 0.72302100
-7.73045000 2.17825000 0.75802800
-7.76861000 2.20192000 0.75474100
-7.62933000 2.01461000 0.79458600
-7.70252000 2.21805000 0.72302100
-7.63643000 2.17367000 0.73037900
-7.67980000 2.20914000 0.70850200
-7.69710000 2.22179000 0.70257200
-8.80518000 2.17830000 0.40734800
-8.79635000 2.20649000 0.41995500
-8.80191000 2.18946000 0.41884100
-8.77856000 2.24123000 0.42269000
-8.81749000 1.66735000 0.10549500
-8.83956000 1.65143000 -0.00214720
-8.83156000 1.87825000 -0.03033340
-8.84716000 1.64713000 -0.03313390
-8.84840000 1.64585000 -0.04967870
-8.85063000 1.67328000 -0.04878880
-8.84412000 1.64903000 -0.01741900
-8.80474000 1.54667000 0.02835800
-8.81059000 1.54186000 0.01624630
-8.84412000 1.64903000 -0.01741900
-8.81513000 1.53867000 0.00619903
-8.82525000 1.56808000 -0.00446854
-8.81852000 1.53702000 -0.00131678
-8.82525000 1.56808000 -0.00446854
-8.84412000 1.64903000 -0.01741900
-8.84716000 1.64713000 -0.03313390
-8.84840000 1.64585000 -0.04967870
-8.79321000 1.55708000 0.06653390
-8.79806000 1.55254000 0.04724990
-8.80146000 1.54951000 0.03680690
-8.75862000 1.50838000 0.03688910
-8.76740000 1.52907000 0.12938900
-8.73722000 1.49586000 0.05528570
-8.71828000 1.49064000 0.13180500
-8.71353000 1.48556000 0.06216020
-8.71217000 1.48389000 0.04987140
-8.79321000 1.55708000 0.06653390
-8.75862000 1.50838000 0.03688910
-8.78774000 1.52084000 0.02555930
-8.79806000 1.55254000 0.04724990
-8.73722000 1.49586000 0.05528570
-8.71217000 1.48389000 0.04987140
-8.70968000 1.46959000 0.00015852
-8.80146000 1.54951000 0.03680690
-8.80474000 1.54667000 0.02835800
-8.71353000 1.48556000 0.06216020
-8.71828000 1.49064000 0.13180500
-8.65158000 1.47692000 0.06542060
-8.60845000 1.46256000 0.01875560
-8.60497000 1.44037000 -0.03009750
-8.60472000 1.42399000 -0.04716340
-8.67836000 1.45397000 -0.01264960
-8.57629000 1.45687000 0.00814808
-8.52795000 1.46491000 -0.01956320
-8.49958000 1.46549000 -0.03337470
-8.48042000 1.43511000 -0.05747250
-8.44610000 1.44821000 -0.03941280
-8.38855000 1.43207000 -0.04157020
-8.56479000 1.20246000 -0.05346150
-8.30840000 1.33504000 -0.03973230
-8.41368000 1.23122000 -0.03696540
-8.40237000 1.20214000 -0.02576940
-8.92440000 0.92685400 -0.03493290
-8.97106000 0.75536000 -0.02873380
-8.95705000 1.05221000 -0.03515260
-8.97429000 0.90191400 0.00435085
-8.96987000 0.95681300 -0.01186490
-8.96529000 0.61890500 -0.03729140
-8.97910000 0.75353800 -0.01096900
-8.98358000 0.74888600 0.02214030
-8.99013000 0.74625900 0.03508180
-8.99013000 0.74625900 0.03508180
-9.04326000 0.77640500 0.14052400
-8.97429000 0.90191400 0.00435085
-8.97910000 0.75353800 -0.01096900
-8.97106000 0.75536000 -0.02873380
-8.97433000 0.72365700 -0.01805610
-8.98358000 0.74888600 0.02214030
-8.98913000 0.65967800 -0.01344220
-8.98979000 0.58558800 0.00898571
-9.08223000 0.59323300 0.20058500
-9.26188000 0.04562750 0.57980800
-9.38937000 0.10696100 0.55396800
-8.98984000 0.97798300 0.03978990
-8.97973000 1.08418000 0.02695950
-8.97973000 1.08418000 0.02695950
-8.97363000 0.98300300 -0.00339013
-8.97973000 1.08418000 0.02695950
-8.97363000 0.98300300 -0.00339013
-8.96539000 0.98437800 -0.01748990
-8.96987000 0.95681300 -0.01186490
-8.94933000 1.18317000 -0.00953452
-8.72899000 1.26366000 -0.05632020
-8.89516000 1.33987000 -0.05012720
-8.93893000 1.29207000 -0.03705610
-8.95278000 1.49094000 -0.01483650
-8.97433000 0.72365700 -0.01805610
-8.98913000 0.65967800 -0.01344220
-8.40237000 1.20214000 -0.02576940
-8.29490000 1.27832000 -0.00304067
-8.35918000 1.20314000 0.01089390
-8.31304000 1.25205000 0.00833602
-8.33812000 1.21501000 0.02541100
-8.35063000 1.19755000 0.03446330
-8.41272000 1.14329000 -0.00205173
-8.35918000 1.20314000 0.01089390
-8.33582000 1.17594000 0.10455100
-8.31304000 1.25205000 0.00833602
-8.29490000 1.27832000 -0.00304067
-8.33812000 1.21501000 0.02541100
-8.28283000 1.25340000 0.07621370
-8.30707000 1.20342000 0.13404900
-8.40594000 1.05676000 0.07719600
-8.32730000 0.92658500 0.40924400
-8.33692000 0.94300600 0.13863000
-8.31260000 0.91238700 0.04693220
-8.35484000 0.93465800 0.04326170
-8.38248000 0.96189400 0.03652650
-8.38099000 0.96483000 0.05030920
-8.37874000 0.96697600 0.07197330
-8.26633000 0.87330900 -0.00434484
-8.32434000 0.88863100 -0.00144828
-8.31642000 0.90519600 0.02738880
-8.26633000 0.87330900 -0.00434484
-8.21928000 0.82117200 -0.03673720
-8.32434000 0.88863100 -0.00144828
-8.23489000 0.90547600 0.12472400
-8.21780000 0.90057500 0.38648600
-8.08644000 0.89372700 0.17403400
-8.09910000 0.91130000 0.59060200
-8.32730000 0.92658500 0.40924400
-8.37753000 0.95671100 0.41865500
-8.39932000 1.00074000 0.23703700
-8.36918000 0.95717400 0.54137000
-8.29558000 0.91720000 0.52855500
-8.31129000 0.92141100 0.54461700
-8.29089000 0.91671900 0.54702100
-8.29558000 0.91720000 0.52855500
-8.29089000 0.91671900 0.54702100
-8.31129000 0.92141100 0.54461700
-8.32730000 0.92658500 0.40924400
-8.36918000 0.95717400 0.54137000
-8.36613000 0.95434100 0.55820800
-8.35889000 0.95056700 0.58852000
-8.36613000 0.95434100 0.55820800
-8.35889000 0.95056700 0.58852000
-8.29707000 1.13437000 0.53806300
-8.29012000 1.18337000 0.62191300
-8.33195000 1.06563000 0.63431700
-8.31953000 1.13572000 0.65246400
-8.32545000 1.10282000 0.64406500
-8.31610000 1.19972000 0.66167200
-8.31953000 1.13572000 0.65246400
-8.31610000 1.19972000 0.66167200
-8.36651000 1.18229000 0.67901600
-8.32545000 1.10282000 0.64406500
-8.31187000 1.31575000 0.69177400
-8.30918000 1.23942000 0.67095300
-8.42877000 1.07745000 0.66607000
-8.38005000 1.04481000 0.66666600
-8.33195000 1.06563000 0.63431700
-8.34406000 1.04397000 0.64724300
-8.33650000 1.04361000 0.62801100
-8.54661000 1.19630000 0.68772900
-8.58632000 1.06110000 0.68269600
-8.56058000 0.82036400 0.68988600
-8.79843000 -0.79673400 0.74291300
-8.79929000 -0.73516100 0.75091700
-8.80756000 -0.76651500 0.76864400
-8.81078000 -0.79822400 0.76477700
-8.75282000 -0.79177200 0.68206100
-8.79929000 -0.73516100 0.75091700
-8.75486000 -0.86019200 0.67940100
-8.75486000 -0.86019200 0.67940100
-8.72462000 -1.03328000 0.66140800
-8.72572000 -0.78695000 0.65203100
-8.60894000 -0.89153100 0.65338400
-8.80756000 -0.76651500 0.76864400
-8.79929000 -0.73516100 0.75091700
-8.86625000 -0.81152400 0.84773900
-9.78881000 -0.83524100 0.81099900
-9.85402000 -0.71171700 0.79759400
-9.84688000 -0.80928900 0.79802300
-9.85402000 -0.71171700 0.79759400
-9.90855000 -0.62348900 0.77124300
-9.88135000 -0.78817000 0.78686300
-9.91968000 -0.80773400 0.74250900
-9.90957000 -0.83854900 0.76771100
-9.90269000 -0.78230800 0.77949900
-9.84688000 -0.80928900 0.79802300
-9.85597000 -0.90961100 0.79358100
-9.76636000 0.97457700 -0.05560270
-9.79122000 0.77810500 -0.01910990
-9.76700000 1.00662000 -0.05527730
-9.76636000 0.97457700 -0.05560270
-9.76700000 1.00662000 -0.05527730
-9.76231000 1.00673000 -0.06647500
-9.78590000 0.53707500 -0.06499850
-9.73861000 1.00676000 -0.10497000
-9.72996000 0.74719500 -0.10575300
-9.75644000 0.74585400 -0.09260710
-9.73861000 1.00676000 -0.10497000
-9.78590000 0.53707500 -0.06499850
-9.76231000 1.00673000 -0.06647500
-9.74149000 1.35624000 -0.08305640
-9.70032000 1.13299000 -0.11474400
-9.69460000 0.95630000 -0.07052920
-9.71126000 0.74687200 -0.09998360
-9.55840000 2.55771000 0.53564000
-9.50149000 2.49757000 0.53268800
-9.55599000 2.38448000 0.52371900
-8.97731000 4.21446000 -0.01270310
-8.93299000 4.18421000 -0.08233770
-8.94496000 4.32144000 -0.04810550
-8.86908000 4.42041000 -0.07515030
-8.89624000 4.38826000 -0.09229670
-8.88541000 4.39022000 -0.10977800
-8.90555000 4.29357000 -0.12256500
-8.86908000 4.42041000 -0.07515030
-8.87536000 4.40765000 -0.09853420
-8.89624000 4.38826000 -0.09229670
-8.88541000 4.39022000 -0.10977800
-8.87493000 4.47682000 0.01789400
-8.97780000 4.40827000 0.06327040
-8.98436000 4.47066000 0.12404100
-8.97780000 4.40827000 0.06327040
-8.99590000 4.35785000 0.05480350
-9.06286000 4.40942000 0.14164000
-9.06213000 4.49531000 0.23410000
-9.03324000 4.43770000 0.13081500
-9.13501000 4.34244000 0.29630600
-9.14209000 4.38491000 0.29968800
-9.08480000 4.35862000 0.19765300
-9.23629000 4.03459000 0.40416300
-9.15887000 3.88003000 0.37961800
-9.25308000 3.85372000 0.41222200
-9.66949000 2.30146000 0.08599020
-9.66910000 2.04866000 0.03548950
-9.68416000 2.17272000 -0.06434520
-9.74252000 1.98925000 -0.08860570
-9.74670000 1.90401000 -0.08717550
-9.77369000 2.18626000 -0.04954420
-9.76385000 1.97236000 -0.05120500
-9.76863000 2.01727000 -0.03602570
-9.76809000 1.97399000 -0.03267580
-9.76385000 1.97236000 -0.05120500
-9.74542000 1.72370000 -0.07958460
-9.76809000 1.97399000 -0.03267580
-9.80123000 2.03021000 0.07632660
-8.80025000 -0.57829800 0.73277600
-8.74249000 -0.65951500 0.67941100
-8.75163000 -0.31465700 0.66336500
-8.82559000 -0.46902100 0.76431200
-8.80935000 -0.31994100 0.74265200
-8.76896000 -0.29255600 0.68440400
-8.86019000 -0.21001000 0.82114400
-8.88321000 -0.07713900 0.87570700
-8.87701000 -0.46449400 0.85552500
-8.88321000 -0.07713900 0.87570700
-8.90754000 -0.26700900 0.90131400
-8.87701000 -0.46449400 0.85552500
-9.77369000 2.18626000 -0.04954420
-9.76863000 2.01727000 -0.03602570
-9.13725000 4.46641000 0.30119100
-9.19039000 4.38153000 0.34770900
-9.11172000 4.45251000 0.25692300
-9.13725000 4.46641000 0.30119100
-9.12935000 4.48633000 0.29969900
-9.10855000 4.48881000 0.28127600
-9.11172000 4.45251000 0.25692300
-9.09237000 4.46537000 0.23493200
-9.11172000 4.45251000 0.25692300
-9.06213000 4.49531000 0.23410000
-9.05105000 4.54822000 0.29182200
-9.04809000 4.51738000 0.25142000
-9.04011000 4.53171000 0.26678600
-9.02908000 4.52657000 0.25094400
-9.06213000 4.49531000 0.23410000
-9.04809000 4.51738000 0.25142000
-9.02908000 4.52657000 0.25094400
-8.95619000 4.57032000 0.27219600
-9.05105000 4.54822000 0.29182200
-9.04011000 4.53171000 0.26678600
-8.99089000 4.60607000 0.31582200
-8.94357000 4.63372000 0.33494100
-8.86956000 4.63808000 0.36223700
-8.94357000 4.63372000 0.33494100
-8.89171000 4.71230000 0.38541800
-8.81680000 4.64689000 0.38562700
-9.05582000 4.71806000 0.35974100
-8.78948000 4.67551000 0.40609700
-8.76789000 4.76552000 0.42331200
-7.04463000 5.23690000 -0.12735600
-7.10507000 5.30415000 -0.14928300
-7.07518000 5.29210000 -0.15748500
-6.83723000 5.25833000 -0.20588600
-7.02428000 5.27797000 -0.16750000
-6.98026000 5.26430000 -0.17632600
-6.99604000 5.23595000 -0.11240900
-6.73869000 5.33135000 -0.07823480
-6.71978000 5.32145000 -0.20896100
-6.55845000 5.35833000 -0.23667900
-6.61983000 5.37044000 -0.09395990
-6.72253000 5.33870000 -0.25773600
-6.80974000 5.29296000 -0.22975100
-6.72488000 5.35552000 -0.26606000
-6.80974000 5.29296000 -0.22975100
-6.72253000 5.33870000 -0.25773600
-6.72488000 5.35552000 -0.26606000
-6.69069000 5.35559000 -0.27290800
-6.65631000 5.35651000 -0.27724400
-6.65631000 5.35651000 -0.27724400
-6.69069000 5.35559000 -0.27290800
-6.79136000 5.36898000 -0.24924100
-6.64955000 5.39273000 -0.29793700
-6.59818000 5.44190000 -0.25426800
-6.56610000 5.44149000 -0.24349000
-6.49780000 5.40642000 -0.26641500
-6.44794000 5.44791000 -0.21783700
-6.60022000 5.45448000 -0.22119300
-6.49362000 5.47156000 -0.16942700
-6.56610000 5.44149000 -0.24349000
-6.59818000 5.44190000 -0.25426800
-6.59942000 5.44962000 -0.23696000
-6.60076000 5.45706000 -0.20631900
-6.60116000 5.45791000 -0.19216600
-6.32189000 5.47589000 -0.15633300
-6.41792000 5.46594000 -0.14128500
-6.30528000 5.48560000 -0.09037290
-6.23233000 5.44068000 -0.16103800
-5.17451000 5.56296000 0.20523900
-5.31381000 5.58154000 0.38880400
-4.97663000 5.57491000 0.39426500
-4.98523000 5.57471000 0.57975400
-4.75606000 5.55799000 0.62841000
-4.68941000 5.58107000 0.49120300
-5.80799000 4.55640000 0.80562000
-5.63441000 4.47274000 0.76224600
-6.09797000 4.48378000 0.78218300
-6.13513000 4.44267000 0.73075900
-5.84087000 4.46147000 0.74078300
-5.87444000 4.45185000 0.72093400
-5.84309000 4.45340000 0.71842800
-5.84087000 4.46147000 0.74078300
-5.84309000 4.45340000 0.71842800
-5.87444000 4.45185000 0.72093400
-5.81722000 4.37485000 0.50025900
-6.55037000 4.50437000 0.77756000
-6.72479000 4.46237000 0.74235100
-8.10793000 4.39186000 0.81446100
-8.37621000 4.39949000 0.81399200
-8.18034000 4.35260000 0.75146300
-8.03368000 4.35144000 0.81033300
-8.12397000 4.33303000 0.76109200
-8.13096000 4.28185000 0.70784100
-8.19557000 4.29813000 0.68347800
-8.13739000 4.27817000 0.67698600
-8.12397000 4.33303000 0.76109200
-8.12204000 4.29079000 0.73393800
-8.11166000 4.30408000 0.75510700
-8.10028000 4.32180000 0.76969800
-8.21554000 4.22518000 0.50233100
-8.14343000 4.27664000 0.64472600
-8.17529000 4.12832000 0.50422900
-8.25133000 4.11567000 0.33555600
-8.30324000 4.13665000 0.24263600
-8.30230000 4.11604000 0.19112000
-8.33828000 4.15804000 0.19354400
-8.37875000 4.20241000 0.31174100
-8.35195000 4.17031000 0.19437300
-8.30324000 4.13665000 0.24263600
-8.34049000 4.16312000 0.06759670
-8.33828000 4.15804000 0.19354400
-8.35195000 4.17031000 0.19437300
-8.35136000 4.16855000 0.17318600
-8.35136000 4.16855000 0.17318600
-8.41149000 4.20724000 0.19325400
-8.69227000 4.17295000 -0.01441920
-8.68512000 4.18348000 0.20233100
-8.70358000 4.15557000 -0.00054040
-8.70413000 4.15349000 -0.01583080
-8.63447000 4.20556000 -0.01350530
-8.67218000 4.18907000 -0.01351550
-8.69816000 4.19481000 -0.07161910
-8.69227000 4.17295000 -0.01441920
-8.70635000 4.16137000 -0.06676380
-8.63447000 4.20556000 -0.01350530
-8.65034000 4.22477000 -0.06399400
-8.71309000 4.13940000 -0.11783700
-8.72131000 4.04659000 -0.15751700
-8.71608000 4.11400000 -0.12368300
-8.70221000 4.05550000 0.11981100
-8.68105000 3.99434000 0.15427600
-8.60114000 3.82263000 -0.04427640
-8.59848000 3.94699000 0.48125800
-8.51516000 3.82782000 0.40298200
-8.50270000 3.83758000 0.50361900
-8.57909000 3.91227000 0.57921000
-8.50303000 3.83568000 0.56574300
-8.50270000 3.83758000 0.50361900
-8.50303000 3.83568000 0.56574300
-8.50659000 3.83144000 0.58777100
-8.51585000 3.82056000 0.62323000
-8.60476000 3.89644000 0.64216100
-8.54043000 3.82879000 0.64166200
-8.52221000 3.81294000 0.64147000
-8.50659000 3.83144000 0.58777100
-8.51585000 3.82056000 0.62323000
-8.52221000 3.81294000 0.64147000
-8.50381000 3.79736000 0.64107100
-8.46892000 3.76332000 0.63776100
-8.52221000 3.81294000 0.64147000
-8.54043000 3.82879000 0.64166200
-8.53879000 3.77448000 0.70715600
-8.60476000 3.89644000 0.64216100
-8.50381000 3.79736000 0.64107100
-8.53992000 3.72149000 0.73746600
-8.44092000 3.65905000 0.71738700
-8.44971000 3.74778000 0.63772600
-8.46892000 3.76332000 0.63776100
-8.38608000 3.70555000 0.64467900
-8.33435000 3.63605000 0.69614600
-8.41348000 3.72250000 0.64064900
-8.47504000 3.56737000 0.76471800
-8.12384000 2.97714000 0.75390500
-8.22818000 2.92466000 0.79076000
-8.18971000 2.85779000 0.78155900
-8.08278000 2.95739000 0.70798100
-8.07730000 2.79270000 0.74125000
-8.08419000 2.93391000 0.70907500
-8.04452000 2.68097000 0.72521800
-8.07730000 2.79270000 0.74125000
-8.04107000 2.61350000 0.76095200
-7.99212000 2.56950000 0.74291600
-7.89130000 2.42936000 0.43958900
-7.91756000 2.46857000 0.54216000
-7.97471000 2.57553000 0.40822700
-7.88348000 2.41892000 0.28551700
-7.79715000 2.32877000 0.42646700
-7.78955000 2.32003000 0.28365800
-7.86081000 2.40935000 0.22207800
-7.76608000 2.32461000 0.22453200
-7.76396000 2.34685000 0.19578200
-7.75476000 2.35187000 0.14727300
-7.77608000 2.36181000 0.06835140
-7.86444000 2.41302000 0.13059900
-7.76608000 2.32461000 0.22453200
-7.70204000 2.28668000 0.18745000
-7.70797000 2.28430000 0.12414600
-7.71551000 2.27989000 0.07447120
-7.71950000 2.27700000 0.05924500
-7.72630000 2.27182000 0.03884900
-7.84628000 2.39543000 0.09355520
-7.85430000 2.38927000 0.07473000
-7.88667000 2.39152000 0.05839480
-7.86243000 2.38275000 0.06027420
-7.86908000 2.37732000 0.05087060
-7.90267000 2.40780000 0.06387570
-7.92971000 2.44582000 0.06971140
-7.77608000 2.36181000 0.06835140
-7.78199000 2.36078000 0.03117950
-7.84628000 2.39543000 0.09355520
-7.85430000 2.38927000 0.07473000
-7.85086000 2.36439000 0.04208600
-7.86243000 2.38275000 0.06027420
-7.86908000 2.37732000 0.05087060
-7.79634000 2.33025000 0.01120860
-7.87042000 2.33024000 -0.00749359
-7.85086000 2.36439000 0.04208600
-7.90267000 2.40780000 0.06387570
-7.86908000 2.37732000 0.05087060
-7.72630000 2.27182000 0.03884900
-7.73775000 2.26215000 0.01773240
-7.75666000 2.27512000 0.00406263
-7.74622000 2.25464000 0.00659652
-7.75666000 2.27512000 0.00406263
-7.74622000 2.25464000 0.00659652
-7.94748000 2.43428000 0.02822830
-7.88667000 2.39152000 0.05839480
-7.96161000 2.09796000 0.04890410
-8.02959000 2.27082000 0.05859410
-7.92207000 2.32385000 -0.01531620
-7.52369000 1.64887000 0.21592400
-7.64821000 1.75422000 0.22712300
-7.53157000 1.72106000 0.16060200
-7.39953000 1.41576000 0.22489600
-7.40920000 1.51530000 0.16252500
-7.40332000 1.48545000 0.16174500
-7.44034000 1.50993000 0.25804100
-7.50812000 1.59250000 0.26613800
-7.46025000 1.57688000 0.20287900
-7.34221000 1.47983000 0.08650900
-7.38313000 1.35849000 0.24444100
-7.31164000 1.42181000 0.13587900
-7.28304000 1.41179000 0.13517800
-7.25379000 1.40558000 0.13199400
-7.22205000 1.35990000 0.17472300
-7.19815000 1.38676000 0.13593100
-7.19097000 1.35569000 0.16909900
-7.02300000 1.36774000 0.09717770
-7.14687000 1.32722000 0.18796600
-7.19097000 1.35569000 0.16909900
-7.22205000 1.35990000 0.17472300
-7.20292000 1.34287000 0.18763000
-7.23081000 1.35043000 0.18678700
-7.28304000 1.41179000 0.13517800
-7.31164000 1.42181000 0.13587900
-7.30536000 1.42898000 0.12139100
-7.31515000 1.46536000 0.08162070
-7.30536000 1.42898000 0.12139100
-7.25379000 1.40558000 0.13199400
-7.40920000 1.51530000 0.16252500
-7.38239000 1.52860000 0.10753000
-7.29213000 1.44592000 0.09400320
-7.28529000 1.45596000 0.08106950
-7.46025000 1.57688000 0.20287900
-7.48859000 1.60041000 0.22072200
-7.48370000 1.60425000 0.20698300
-7.48038000 1.60856000 0.19953300
-7.47027000 1.61537000 0.18248700
-7.40920000 1.51530000 0.16252500
-7.48370000 1.60425000 0.20698300
-7.48038000 1.60856000 0.19953300
-7.49638000 1.67710000 0.17228200
-7.47027000 1.61537000 0.18248700
-7.47531000 1.64772000 0.16722200
-7.42565000 1.59979000 0.12692900
-7.59142000 1.80355000 0.11146700
-7.54901000 1.79939000 0.08150240
-7.50584000 1.71627000 0.15013900
-7.50288000 1.72679000 0.13636200
-7.51976000 1.75267000 0.11691600
-7.49586000 1.73697000 0.11711100
-7.50288000 1.72679000 0.13636200
-7.47531000 1.64772000 0.16722200
-7.54901000 1.79939000 0.08150240
-7.57106000 1.82379000 0.06931390
-7.57106000 1.82379000 0.06931390
-7.56426000 1.83234000 0.05660370
-7.54108000 1.81686000 0.05776010
-7.54901000 1.79939000 0.08150240
-7.51976000 1.75267000 0.11691600
-7.96883000 2.41302000 -0.02131830
-8.05858000 2.59193000 0.01351130
-7.94748000 2.43428000 0.02822830
-7.98697000 2.48962000 0.04068400
-7.90267000 2.40780000 0.06387570
-8.01578000 2.63273000 0.14041500
-7.91509000 2.50795000 0.15731400
-8.04011000 2.95885000 0.64765700
-8.08419000 2.93391000 0.70907500
-7.96567000 2.93874000 0.52787600
-8.02131000 3.01208000 0.64655200
-8.04011000 2.95885000 0.64765700
-8.02131000 3.01208000 0.64655200
-8.07157000 3.03467000 0.71064700
-8.05907000 2.95870000 0.67317900
-8.07215000 2.95855000 0.69210000
-8.05907000 2.95870000 0.67317900
-8.07215000 2.95855000 0.69210000
-8.08278000 2.95739000 0.70798100
-8.04541000 2.84316000 0.61099700
-8.00885000 3.08744000 0.69387800
-7.93496000 3.13522000 0.68759100
-7.95952000 3.18126000 0.77730700
-8.06476000 3.15334000 0.74122800
-7.94443000 3.22596000 0.81405900
-8.12613000 3.26865000 0.77503000
-8.23954000 3.58415000 0.77042100
-8.22665000 3.66100000 0.80380600
-8.26188000 3.70408000 0.71521500
-8.28711000 3.54157000 0.74501700
-8.21448000 3.45469000 0.78277400
-8.22665000 3.66100000 0.80380600
-8.20857000 3.76622000 0.83507600
-8.26188000 3.70408000 0.71521500
-8.26146000 3.72851000 0.70985700
-8.25871000 3.67121000 0.72864500
-8.26813000 3.69070000 0.70629900
-8.27277000 3.67277000 0.70520800
-8.20603000 3.82875000 0.83232500
-8.16334000 4.01404000 0.79401600
-8.17600000 4.00868000 0.76045100
-8.28259000 3.81782000 0.58765700
-8.22476000 3.94563000 0.41614700
-8.20286000 3.95473000 0.71836800
-8.16326000 4.02755000 0.75884300
-8.11679000 4.08494000 0.74458900
-8.11001000 4.06355000 0.83518400
-8.16326000 4.02755000 0.75884300
-8.17600000 4.00868000 0.76045100
-8.16334000 4.01404000 0.79401600
-8.14618000 4.01664000 0.82716400
-8.08191000 3.99992000 0.85859200
-8.14841000 3.90957000 0.85369400
-7.95461000 3.94056000 0.87366000
-7.79629000 3.58262000 0.77710200
-7.76013000 3.61059000 0.79189900
-7.85676000 3.57887000 0.82898900
-7.84821000 3.52566000 0.79361800
-7.81702000 3.57229000 0.79152600
-7.84821000 3.52566000 0.79361800
-7.83642000 3.51805000 0.76815800
-7.79629000 3.58262000 0.77710200
-7.81702000 3.57229000 0.79152600
-7.83642000 3.51805000 0.76815800
-7.93779000 3.43918000 0.85585100
-7.82092000 2.98616000 0.38799900
-7.82336000 3.18368000 0.31508400
-7.85765000 3.12542000 0.42621400
-7.89836000 2.97703000 0.48771200
-7.88788000 3.07381000 0.48844200
-7.94934000 3.02971000 0.57276700
-7.94496000 3.18296000 0.75845900
-7.92859000 3.18686000 0.73216100
-7.94500000 3.19794000 0.79068500
-7.95952000 3.18126000 0.77730700
-7.91110000 3.19138000 0.70279400
-7.92859000 3.18686000 0.73216100
-7.94496000 3.18296000 0.75845900
-7.89508000 3.39342000 0.79658300
-7.76467000 3.54511000 0.58762600
-7.69440000 3.55376000 0.52035400
-7.72103000 3.61936000 0.78931900
-7.76013000 3.61059000 0.79189900
-7.68715000 4.07115000 0.86346300
-7.94405000 4.13114000 0.85754800
-7.84935000 3.96619000 0.86844200
-7.84566000 4.18807000 0.84300300
-7.54214000 4.14017000 0.85937800
-7.70987000 4.26161000 0.82706400
-8.05823000 2.64667000 0.08137390
-7.76608000 2.32461000 0.22453200
-7.85703000 2.38307000 0.69115000
-7.94666000 2.53562000 0.67588200
-7.92020000 2.47141000 0.73524100
-7.86905000 2.35619000 0.73843400
-7.96168000 2.47246000 0.76195800
-7.89246000 2.28828000 0.76658700
-7.78856000 2.23588000 0.74926700
-7.79808000 2.25151000 0.74664800
-7.81590000 2.27021000 0.74467900
-8.26613000 2.67839000 0.80162500
-8.49280000 2.69344000 0.78765000
-8.41616000 2.45345000 0.80025200
-8.81363000 2.35172000 0.77841900
-8.70593000 2.28976000 0.72476700
-8.67311000 2.28791000 0.72803900
-8.79721000 2.46975000 0.73626200
-8.83871000 2.35783000 0.80984100
-8.85112000 2.37151000 0.83024300
-8.85931000 2.46882000 0.83995700
-8.85520000 2.24194000 0.84881800
-8.83871000 2.35783000 0.80984100
-8.89616000 2.27454000 0.88231700
-8.85520000 2.24194000 0.84881800
-8.81103000 2.24372000 0.77282900
-8.83871000 2.35783000 0.80984100
-8.79451000 2.23370000 0.74085400
-8.81363000 2.35172000 0.77841900
-8.80136000 2.31606000 0.76776900
-8.79564000 2.34243000 0.76807300
-8.81452000 2.15290000 0.72042300
-8.79451000 2.23370000 0.74085400
-8.78979000 2.21842000 0.69552400
-8.78978000 2.22276000 0.71608100
-8.72996000 1.47252000 0.25470500
-8.75021000 1.50505000 0.23780800
-8.32676000 1.35013000 0.58020300
-8.30178000 1.37611000 0.25047100
-8.36533000 1.07947000 0.23273000
-8.36925000 1.40734000 0.45110400
-8.36670000 1.38187000 0.58027200
-8.38701000 1.39586000 0.58043500
-8.36925000 1.40734000 0.45110400
-8.44969000 1.43425000 0.42595500
-8.53985000 1.42723000 0.63249200
-8.60532000 1.39784000 0.62553100
-8.49448000 1.39533000 0.67609700
-8.53487000 1.36118000 0.67693600
-8.51330000 1.26730000 0.69039500
-8.49448000 1.39533000 0.67609700
-8.38277000 1.34422000 0.70631200
-8.43371000 1.38821000 0.69166100
-8.39048000 1.26373000 0.69829200
-8.72027000 1.42791000 0.55059100
-8.72996000 1.47252000 0.25470500
-8.73055000 1.43500000 0.49919600
-8.71531000 1.42132000 0.58034200
-8.69910000 1.41414000 0.58662900
-8.53090000 1.44350000 0.58509800
-8.55313000 1.44100000 0.38779100
-8.73055000 1.43500000 0.49919600
-8.72027000 1.42791000 0.55059100
-8.87275000 1.34154000 0.87105900
-8.85928000 1.59983000 0.86052100
-8.90576000 1.45875000 0.90685900
-8.90882000 1.72498000 0.90397300
-8.96144000 1.56125000 0.92828700
-8.91308000 1.34197000 0.90441700
-8.89065000 1.34156000 0.89055600
-8.85379000 1.37275000 0.82614700
-8.85808000 1.34170000 0.84914700
-8.84811000 1.34199000 0.82445500
-8.85928000 1.59983000 0.86052100
-8.85379000 1.37275000 0.82614700
-8.84811000 1.34199000 0.82445500
-8.84667000 1.45387000 0.79258300
-8.85808000 1.34170000 0.84914700
-8.87275000 1.34154000 0.87105900
-8.89065000 1.34156000 0.89055600
-8.91308000 1.34197000 0.90441700
-8.91110000 1.31122000 0.90104300
-8.89925000 1.14654000 0.89249300
-8.85588000 1.09141000 0.82145200
-8.80224000 1.13097000 0.71499300
-8.79563000 1.18584000 0.72293300
-8.80224000 1.13097000 0.71499300
-8.78027000 1.14563000 0.66283800
-8.79563000 1.18584000 0.72293300
-8.78035000 1.21185000 0.67319300
-8.78467000 1.21528000 0.70364800
-8.79795000 1.21684000 0.72298900
-8.79524000 0.87873900 0.71865900
-8.72664000 0.97255700 0.66020800
-8.75029000 0.80249300 0.66710000
-9.70864000 0.34044400 0.88076600
-9.64038000 0.64198300 0.90244700
-9.76191000 0.71860300 0.84780100
-9.68185000 2.55043000 -0.10430700
-9.68112000 2.89254000 -0.12132700
-9.66804000 2.73085000 -0.07736950
-9.66171000 3.10344000 -0.09372040
-9.65264000 3.06024000 0.07230900
-9.66765000 2.84554000 0.00628609
-8.73147000 5.28556000 0.31105600
-8.93546000 5.29019000 0.30052500
-8.81083000 5.32197000 0.21964000
-7.26955000 5.34998000 -0.19890200
-7.16788000 5.34111000 -0.17566800
-7.49772000 5.38123000 -0.17634100
-7.42576000 5.39069000 -0.20694700
-7.43246000 5.44315000 -0.21689900
-7.37662000 5.41490000 -0.25336000
-7.13124000 5.42176000 -0.19837100
-7.19189000 5.42843000 -0.19752800
-7.10120000 5.42497000 -0.18618500
-7.10149000 5.41418000 -0.18986200
-7.10136000 5.44743000 -0.16186900
-7.00846000 5.42019000 -0.14792800
-7.10120000 5.42497000 -0.18618500
-7.19189000 5.42843000 -0.19752800
-6.91542000 5.35518000 -0.20118800
-7.06982000 5.35253000 -0.17786400
-6.83080000 5.47500000 -0.14825900
-6.74453000 5.44915000 -0.19746500
-6.94863000 5.44283000 -0.15386100
-5.49889000 5.58127000 0.52863700
-5.59396000 5.55995000 0.61692400
-5.41707000 5.56442000 0.62429000
-5.56250000 5.55936000 0.61690400
-5.41707000 5.56442000 0.62429000
-5.56250000 5.55936000 0.61690400
-5.59368000 5.54494000 0.63961100
-5.59396000 5.55995000 0.61692400
-5.48225000 5.53983000 0.67409000
-5.59218000 5.50266000 0.67323700
-5.58710000 5.47241000 0.68648500
-5.35756000 5.43738000 0.68637700
-5.44160000 5.35241000 0.70480100
-5.05151000 5.17486000 0.71989500
-5.16665000 5.18661000 0.71995500
-5.17502000 5.03955000 0.73881200
-5.08682000 5.54931000 0.63249200
-5.93140000 5.53925000 0.08251540
-5.90652000 5.50216000 -0.13126100
-6.18995000 5.52325000 0.00593963
-6.53877000 5.48542000 -0.07573090
-6.60602000 5.49594000 -0.11225200
-6.61965000 5.52762000 0.08135950
-6.74453000 5.44915000 -0.19746500
-6.63324000 5.46001000 -0.19791900
-6.67493000 5.43890000 -0.25739500
-6.60116000 5.45791000 -0.19216600
-6.60076000 5.45706000 -0.20631900
-6.60022000 5.45448000 -0.22119300
-6.59942000 5.44962000 -0.23696000
-6.85306000 5.41003000 -0.20216000
-6.96931000 5.29195000 -0.18662800
-7.13124000 5.42176000 -0.19837100
-7.10149000 5.41418000 -0.18986200
-7.10385000 5.32759000 -0.16368600
-7.07518000 5.29210000 -0.15748500
-6.97950000 5.32058000 -0.19124200
-6.96931000 5.29195000 -0.18662800
-6.98026000 5.26430000 -0.17632600
-7.02428000 5.27797000 -0.16750000
-7.10453000 5.31319000 -0.15545100
-7.10507000 5.30415000 -0.14928300
-7.10385000 5.32759000 -0.16368600
-7.10453000 5.31319000 -0.15545100
-7.19934000 5.31733000 -0.12177400
-7.10359000 5.33879000 -0.17032100
-7.19953000 5.35917000 -0.23407700
-7.16788000 5.34111000 -0.17566800
-7.31265000 5.34577000 -0.11833200
-7.49772000 5.38123000 -0.17634100
-7.53593000 5.37158000 -0.14324200
-7.54949000 5.37324000 0.00769895
-7.82267000 5.35107000 -0.03361970
-8.54214000 5.16421000 0.38234600
-8.66740000 5.08940000 0.39334700
-8.69584000 5.17501000 0.37657600
-8.70386000 5.00170000 0.40332400
-8.66042000 4.93728000 0.41163800
-8.81927000 4.92989000 0.40201000
-6.13513000 4.44267000 0.73075900
-6.03141000 4.39039000 0.56255500
-6.60913000 4.73079000 0.78972500
-6.63589000 4.81716000 0.78756500
-6.71555000 4.81069000 0.77919700
-8.51424000 4.24431000 0.40159100
-8.31202000 4.19868000 0.36435600
-8.48526000 4.29384000 0.48546800
-8.49464000 4.21894000 0.20290300
-8.62329000 4.25184000 0.45062700
-8.63888000 4.21077000 0.15473900
-8.68619000 4.01065000 0.64762700
-8.67952000 3.98793000 0.65985100
-8.69744000 3.96998000 0.69572500
-8.63875000 3.84022000 0.73843100
-8.67952000 3.98793000 0.65985100
-8.68619000 4.01065000 0.64762700
-8.72284000 4.05009000 0.68001400
-8.71676000 4.01417000 0.69289200
-8.74122000 4.02957000 0.70957200
-8.74573000 3.99331000 0.71953600
-8.73198000 3.92005000 0.72325500
-8.72284000 4.05009000 0.68001400
-8.78164000 4.13478000 0.72156900
-8.74122000 4.02957000 0.70957200
-8.78029000 4.09348000 0.72511600
-8.77808000 4.05332000 0.73021500
-8.71676000 4.01417000 0.69289200
-8.75612000 4.01370000 0.72291300
-8.74573000 3.99331000 0.71953600
-8.72643000 4.09158000 0.62218100
-8.78029000 4.09348000 0.72511600
-8.78164000 4.13478000 0.72156900
-8.77808000 4.05332000 0.73021500
-8.75612000 4.01370000 0.72291300
-8.87633000 1.97536000 0.86441100
-8.83019000 1.99665000 0.76623300
-8.83868000 2.15021000 0.80920200
-8.84641000 1.68311000 0.83724800
-8.80380000 1.67609000 0.65875700
-8.95970000 1.24935000 0.91220500
-8.91110000 1.31122000 0.90104300
-9.80042000 2.68476000 0.02201720
-9.76525000 2.92022000 -0.04989480
-9.75601000 2.67099000 -0.08498440
-9.74226000 2.89868000 -0.09259870
-9.72765000 2.81701000 -0.11522200
-9.71986000 3.20406000 -0.12430700
-9.73331000 3.08258000 -0.09714050
-9.73799000 3.17517000 -0.11050000
-9.73954000 3.20623000 -0.11475600
-9.53962000 4.51819000 0.25365000
-9.60064000 4.36252000 0.19062000
-9.60923000 4.52324000 0.19763600
-9.60088000 4.54153000 0.21086900
-9.59134000 4.54754000 0.21820500
-9.60207000 4.60242000 0.20880300
-9.59134000 4.54754000 0.21820500
-9.60088000 4.54153000 0.21086900
-9.60151000 4.55341000 0.21069400
-9.60207000 4.60242000 0.20880300
-9.45267000 4.57774000 0.30493600
-9.51304000 4.65959000 0.27390000
-9.41093000 4.65517000 0.31902700
-9.59758000 4.75960000 0.22538300
-9.52501000 4.78754000 0.27554600
-9.43583000 4.73970000 0.31251000
-9.56637000 4.88053000 0.25721400
-9.43846000 4.89333000 0.32251300
-9.48654000 5.01453000 0.32506600
-9.51764000 5.06938000 0.31771700
-9.48601000 5.07283000 0.33743700
-9.18620000 5.16272000 0.37719100
-7.81034000 5.36058000 -0.13562400
-8.11629000 5.34674000 -0.17232400
-8.03651000 5.36302000 -0.21580400
-7.64827000 5.42291000 -0.22592200
-7.48789000 5.44557000 -0.18751700
-7.51182000 5.40781000 -0.19829000
-6.76390000 5.51781000 0.02231870
-6.84873000 5.51131000 0.11099900
-6.73280000 5.55244000 0.25318900
-6.06147000 5.57889000 0.58075500
-6.02811000 5.55067000 0.61616300
-5.84747000 5.55732000 0.61802100
-5.59368000 5.54494000 0.63961100
-5.84747000 5.55732000 0.61802100
-6.02811000 5.55067000 0.61616300
-5.84743000 5.53405000 0.64568500
-6.02196000 5.48212000 0.66092500
-5.88598000 5.44915000 0.70188300
-5.84709000 5.49652000 0.66798400
-5.84743000 5.53405000 0.64568500
-5.81447000 5.48108000 0.68941200
-5.84709000 5.49652000 0.66798400
-5.84686000 5.47698000 0.68446000
-5.69860000 5.47795000 0.68451500
-5.62313000 5.47823000 0.68427800
-5.59218000 5.50266000 0.67323700
-5.58710000 5.47241000 0.68648500
-5.59200000 5.52583000 0.65898000
-5.69860000 5.47795000 0.68451500
-5.81447000 5.48108000 0.68941200
-5.76111000 5.41327000 0.71712000
-5.62313000 5.47823000 0.68427800
-5.95123000 5.28241000 0.74122000
-5.83168000 5.25879000 0.74232300
-7.81307000 5.14133000 0.77697400
-7.89540000 5.25885000 0.74967700
-8.09722000 5.23215000 0.76360500
-8.06335000 5.11410000 0.77212100
-7.89889000 5.02287000 0.77780700
-9.87986000 1.59179000 0.81457200
-9.72761000 1.73653000 0.83945200
-9.85361000 1.90768000 0.80607600
-9.76488000 3.20683000 -0.08305280
-9.79512000 3.16503000 -0.00366393
-9.75991000 3.22116000 -0.09406920
-9.76424000 3.41092000 -0.09062140
-9.76424000 3.41092000 -0.09062140
-9.75991000 3.22116000 -0.09406920
-9.74809000 3.20624000 -0.10868100
-9.74809000 3.20624000 -0.10868100
-9.73954000 3.20623000 -0.11475600
-9.73799000 3.17517000 -0.11050000
-9.75991000 3.22116000 -0.09406920
-9.73331000 3.08258000 -0.09714050
-9.74636000 3.58228000 -0.12178600
-9.72490000 3.35367000 -0.12278900
-9.69947000 3.46917000 -0.14806300
-9.73013000 3.69939000 -0.15210100
-9.59758000 4.75960000 0.22538300
-9.63419000 4.86472000 0.20894500
-9.60207000 4.60242000 0.20880300
-9.60151000 4.55341000 0.21069400
-9.74520000 4.30127000 -0.12635900
-9.79487000 4.52463000 -0.14082600
-9.75106000 4.42040000 -0.07034370
-9.72835000 4.21312000 -0.13987400
-9.71926000 4.04235000 -0.15063300
-9.76957000 4.29759000 -0.17081500
-9.79487000 4.52463000 -0.14082600
-9.69629000 4.26589000 0.01851240
-9.70255000 4.07523000 -0.06931870
-9.79219000 3.60088000 -0.05610950
-9.77079000 3.77770000 -0.12483900
-9.76883000 3.58173000 -0.09205410
-9.79392000 2.30864000 0.79596900
-9.82431000 2.47984000 0.78631900
-9.84679000 2.48052000 0.77762700
-9.89071000 2.48473000 0.76034500
-9.91051000 2.48237000 0.73900900
-9.90641000 2.36425000 0.75030400
-9.84679000 2.48052000 0.77762700
-9.82431000 2.47984000 0.78631900
-9.82648000 2.51102000 0.78720600
-9.89071000 2.48473000 0.76034500
-9.91051000 2.48237000 0.73900900
-9.89397000 2.79057000 0.75030700
-9.91504000 2.48804000 0.67384000
-9.90641000 2.36425000 0.75030400
-9.81215000 3.94927000 -0.09814210
-9.86267000 4.25780000 -0.08588390
-9.84308000 4.25140000 -0.12787000
-9.82721000 4.37502000 -0.17338100
-9.84308000 4.25140000 -0.12787000
-9.87344000 4.49544000 -0.15943700
-9.86684000 4.50998000 -0.16853900
-9.80016000 4.41842000 -0.16864400
-9.84695000 4.73710000 -0.19096700
-9.81441000 4.67034000 -0.16318200
-9.68195000 5.11054000 -0.16871500
-9.64662000 5.14975000 -0.13772400
-9.70577000 5.08209000 -0.16259600
-9.66144000 5.13364000 -0.17275900
-9.64761000 5.15117000 -0.17368000
-9.64651000 5.14986000 -0.16445300
-9.75389000 5.02179000 -0.18220000
-9.72668000 5.07075000 -0.19541900
-9.70836000 5.08590000 -0.19326400
-9.71268000 5.08950000 -0.20239900
-9.70577000 5.08209000 -0.16259600
-9.75389000 5.02179000 -0.18220000
-9.70836000 5.08590000 -0.19326400
-9.68195000 5.11054000 -0.16871500
-9.66144000 5.13364000 -0.17275900
-9.64761000 5.15117000 -0.17368000
-9.71268000 5.08950000 -0.20239900
-9.59810000 5.23217000 -0.19564300
-9.58022000 5.22430000 -0.18727200
-9.73283000 5.15015000 -0.23782500
-9.59706000 5.32792000 -0.23064600
-9.58022000 5.22430000 -0.18727200
-9.39313000 5.30898000 -0.21436700
-9.67154000 5.25399000 -0.21939500
-9.50702000 5.37211000 -0.24268100
-9.42767000 5.40497000 -0.23247700
-9.58638000 5.42598000 -0.24152900
-9.44345000 5.42208000 -0.20571600
-9.41478000 5.41963000 -0.19215100
-9.35398000 5.41062000 -0.16769900
-9.32333000 5.40521000 -0.18870700
-9.13326000 5.44939000 -0.07273770
-9.20751000 5.40077000 -0.17232400
-9.23634000 5.39963000 -0.17576600
-9.32863000 5.41336000 -0.16224100
-9.26501000 5.40130000 -0.18296900
-9.35398000 5.41062000 -0.16769900
-9.32333000 5.40521000 -0.18870700
-9.29327000 5.40452000 -0.19334300
-9.32152000 5.40178000 -0.19829900
-9.35398000 5.41062000 -0.16769900
-9.40533000 5.43176000 -0.12403000
-9.41478000 5.41963000 -0.19215100
-9.44345000 5.42208000 -0.20571600
-9.44631000 5.42201000 -0.19257800
-9.44890000 5.42346000 -0.18199400
-9.45120000 5.42701000 -0.17370100
-9.45359000 5.42887000 -0.16429000
-8.47211000 5.56322000 0.51521300
-7.94246000 5.56406000 0.65397600
-7.89443000 5.56352000 0.36084100
-7.64225000 5.56412000 0.52391900
-7.75324000 5.52504000 0.69166800
-7.39219000 5.54761000 0.66976400
-7.84921000 5.54935000 0.67899300
-7.62206000 5.55661000 0.63491300
-9.67790000 2.51958000 0.86333600
-9.82648000 2.51102000 0.78720600
-9.76110000 2.38814000 0.81977600
-9.78751000 2.54970000 0.80439300
-9.74475000 2.73170000 0.83962100
-9.83688000 2.73547000 0.78789100
-9.89071000 2.48473000 0.76034500
-9.83866000 3.94740000 0.01774440
-9.88328000 4.26527000 0.08029790
-9.88639000 4.52370000 -0.14915900
-9.90822000 4.60746000 -0.11485100
-9.88576000 4.66122000 -0.17554700
-9.92144000 4.83707000 -0.16405100
-9.87373000 4.53760000 -0.16836900
-9.87344000 4.49544000 -0.15943700
-9.86684000 4.50998000 -0.16853900
-9.88875000 4.48038000 -0.12450200
-9.88639000 4.52370000 -0.14915900
-9.88576000 4.66122000 -0.17554700
-9.87373000 4.53760000 -0.16836900
-9.80644000 4.88969000 -0.19663700
-9.80235000 4.91554000 -0.19973000
-9.79679000 4.91368000 -0.19106600
-9.81400000 4.82163000 -0.18162700
-9.81400000 4.82163000 -0.18162700
-9.80644000 4.88969000 -0.19663700
-9.80100000 5.00360000 -0.22302800
-9.80235000 4.91554000 -0.19973000
-9.79679000 4.91368000 -0.19106600
-9.89745000 4.82858000 -0.19971600
-9.86015000 5.12449000 -0.22744800
-9.91365000 4.89866000 -0.17781100
-9.89255000 5.13733000 -0.20250200
-9.87583000 5.20780000 -0.21551700
-9.82465000 5.33991000 -0.21572000
-9.77716000 5.38382000 -0.21859900
-9.62319000 5.39005000 -0.25173200
-9.78781000 5.27343000 -0.22821200
-9.87515000 5.28313000 -0.20663500
-9.89255000 5.13733000 -0.20250200
-9.90055000 5.22924000 -0.18718700
-9.67950000 5.42937000 -0.20060100
-9.61858000 5.44474000 -0.18520400
-9.58594000 5.44848000 -0.17540400
-9.58365000 5.44604000 -0.18591200
-9.57920000 5.44101000 -0.20512000
-9.86473000 5.38150000 -0.19679900
-9.84534000 5.41570000 -0.20629800
-9.67950000 5.42937000 -0.20060100
-9.67153000 5.45882000 -0.11097700
-9.61858000 5.44474000 -0.18520400
-9.72143000 5.42457000 -0.16760300
-9.73114000 5.44112000 -0.14022300
-9.73472000 5.44744000 -0.13181700
-8.57289000 5.54735000 0.68048900
-8.35348000 5.55205000 0.63290900
-8.36852000 5.51392000 0.69902000
-8.58320000 5.49738000 0.71327600
-8.37306000 5.45526000 0.72273500
-8.36904000 5.53035000 0.68014700
-8.36772000 5.54400000 0.66224900
-8.36904000 5.53035000 0.68014700
-8.36852000 5.51392000 0.69902000
-8.33511000 5.53804000 0.66184200
-8.36772000 5.54400000 0.66224900
-8.37306000 5.45526000 0.72273500
-8.58320000 5.49738000 0.71327600
-8.52968000 5.32679000 0.75662500
-9.77676000 3.94815000 0.74236500
-9.84658000 3.83427000 0.71756900
-9.65726000 3.97230000 0.75966600
-9.93009000 4.87285000 -0.14179000
-9.91365000 4.89866000 -0.17781100
-9.90598000 4.83093000 -0.19305500
-9.91365000 4.89866000 -0.17781100
-9.90598000 4.83093000 -0.19305500
-9.89745000 4.82858000 -0.19971600
-9.89625000 4.80160000 -0.19152300
-9.92075000 5.15391000 -0.15039000
-9.90055000 5.22924000 -0.18718700
-9.89255000 5.13733000 -0.20250200
-9.92220000 5.34437000 -0.04990630
-9.92743000 5.02781000 0.05253020
-9.91132000 5.37532000 -0.12715400
-9.88529000 5.30630000 -0.20358800
-9.87515000 5.28313000 -0.20663500
-9.88416000 5.40100000 -0.16854200
-9.77249000 5.44678000 -0.14691300
-9.73472000 5.44744000 -0.13181700
-9.73114000 5.44112000 -0.14022300
-9.72143000 5.42457000 -0.16760300
-9.85723000 5.43152000 -0.17012000
-9.89878000 5.41879000 -0.11596600
-9.85723000 5.43152000 -0.17012000
-9.79161000 5.49293000 -0.04025940
-9.77249000 5.44678000 -0.14691300
-9.89878000 5.41879000 -0.11596600
-9.89882000 5.42144000 -0.08591090
-9.88194000 5.46409000 0.00032845
-9.57801000 5.48487000 -0.05470380
-9.52588000 5.52675000 0.10011600
-9.37882000 5.49709000 -0.00378342
-8.89985000 5.49784000 0.70589100
-9.09963000 5.47555000 0.69638200
-8.98277000 5.39762000 0.70660300
-9.11569000 5.38271000 0.70879500
-9.24343000 5.44836000 0.70424400
-9.89582000 4.20376000 0.29647400
-9.91139000 4.39725000 0.33175400
-9.91237000 4.50142000 0.16704300
-9.90175000 5.42698000 -0.05255240
-9.89882000 5.42144000 -0.08591090
-9.90635000 5.43677000 -0.00189922
-9.91848000 5.29906000 0.08162730
-9.86205000 5.46808000 0.11907200
-9.76273000 5.49935000 0.01573650
-9.16507000 5.52303000 0.66787300
-9.27685000 5.49230000 0.69180500
-9.16701000 5.49307000 0.68867000
-9.20176000 5.47975000 0.69896600
-9.16833000 5.47418000 0.69836600
-9.16507000 5.52303000 0.66787300
-9.16241000 5.54232000 0.64448400
-9.16701000 5.49307000 0.68867000
-8.95586000 5.53241000 0.67971500
-9.42880000 5.54658000 0.64184200
-9.38017000 5.43770000 0.68907800
-9.53501000 5.52114000 0.63763800
-9.47175000 5.37809000 0.69055200
-9.66234000 5.53873000 0.53382200
-9.53501000 5.52114000 0.63763800
-9.64957000 5.50145000 0.61322500
-9.64906000 5.46109000 0.63142000
-9.66983000 5.43901000 0.63346000
-9.64513000 5.43400000 0.64003300
-9.64957000 5.50145000 0.61322500
-9.64906000 5.46109000 0.63142000
-9.64513000 5.43400000 0.64003300
-9.59704000 5.37405000 0.67259900
-9.85975000 5.51241000 0.47928600
-9.86552000 5.47092000 0.48557300
-9.84588000 5.45367000 0.53972800
-9.86552000 5.47092000 0.48557300
-9.89394000 5.02096000 0.48215400
-9.86740000 5.12574000 0.59975900
-9.85703000 5.13258000 0.65736000
-9.81649000 5.13317000 0.67569000
-9.87788000 4.90400000 0.63666900
-9.89900000 5.15465000 0.38923400
-9.66983000 5.43901000 0.63346000
-9.89269000 3.45219000 0.58901200
-9.89129000 3.60605000 0.67328400
-9.89803000 3.72202000 0.51342500
-8.17064000 5.54150000 0.68119700
-8.33511000 5.53804000 0.66184200
-9.51310000 5.45469000 -0.13969800
-9.48271000 5.43781000 -0.18121500
-9.52067000 5.44017000 -0.19800900
-9.57571000 5.43606000 -0.21885300
-9.57920000 5.44101000 -0.20512000
