30.38855400 10.18739100 -2.65631100
27.34163700 9.00373600 0.69223000
28.42360700 9.86674700 0.85586500
29.44435100 10.83782400 1.03378300
30.12341500 12.11059000 1.18118300
30.47107100 11.92636300 -0.66064500
28.21835700 10.00885200 2.79586800
29.23249600 10.96524200 2.92489600
30.01310500 12.14595600 3.04684400
30.69154400 13.42878900 3.17428600
30.75233100 13.44225900 1.35336300
29.21654900 10.91957700 4.81591800
30.03772700 12.07265700 4.89807100
30.78562400 13.31078100 4.97921800
31.51228100 14.60022500 5.05941800
31.44676000 14.71145400 3.30569500
30.24460800 11.84990100 6.72311400
31.04291500 13.07354900 6.75314300
31.73760400 14.39558200 6.78607200
32.31118000 15.81837300 6.83017000
32.06313700 16.01524900 5.15325900
31.55402000 12.69519200 8.44018600
32.22762300 14.07172600 8.43789700
32.79394500 15.53470400 8.43862900
33.20822900 17.09439700 8.47125200
32.74993100 17.33996800 6.89160200
33.02360200 13.59703600 9.94714400
33.61888100 15.11296700 9.88708500
34.07093000 16.71751600 9.86047400
34.41794600 18.39323600 9.85342400
33.60601000 18.71023800 8.48156700
34.64440200 14.60533700 11.19229100
35.11221300 16.27746800 11.11813400
35.47095900 18.01315100 11.05777000
35.71115900 19.82228700 11.04501300
34.68058000 20.14008100 9.86810300
36.30381000 15.78806500 12.23049900
36.63510900 17.60791200 12.16024800
36.84727500 19.49302500 12.12161300
36.97663100 21.44118300 12.10992400
35.85779600 21.70301600 11.06750500
37.88462800 17.19422000 13.16738900
38.06699000 19.16399200 13.10324100
38.16077000 21.18524000 13.07226600
38.18697400 23.24660300 13.07913200
37.00831600 23.44473100 12.15579200
39.38915300 18.85227000 13.93045000
39.46344800 20.93980200 13.86392200
39.47120700 23.05909500 13.82998700
39.40780300 25.21533000 13.86322000
38.13076000 25.35275800 13.14816300
40.90296900 20.69924000 14.36581400
40.87529000 22.88168100 14.31387300
40.78527800 25.09106300 14.33429000
40.63293800 27.34321400 14.39151000
39.27096600 27.42753000 13.94928000
42.33694500 22.71679900 14.58346600
42.21288300 24.97484800 14.58004800
42.04355200 27.25586100 14.61633300
41.86348000 29.52469400 14.70547500
40.44614400 29.62283100 14.51123000
43.65603300 24.89209200 14.55419900
43.47374000 27.17714100 14.57904100
43.29839700 29.41160400 14.62121600
43.15704300 31.61263800 14.74026500
41.69857800 31.79758300 14.82885700
44.87172300 27.09429000 14.20663500
44.68806100 29.28033300 14.19671600
44.55712100 31.41188200 14.29312100
44.46610300 33.54967500 14.47628800
43.04661600 33.81855800 14.89239500
45.97522400 29.17080500 13.47961400
45.86061500 31.25200100 13.58560200
45.79023000 33.30568700 13.81448400
45.73927700 35.36827900 14.00772100
44.41715200 35.71182300 14.66180400
47.01944000 31.14386200 12.64166300
46.94225300 33.12847900 12.83679200
46.85614000 35.10250900 13.06411700
46.84430300 37.06177500 13.24957300
45.74552200 37.44842500 14.13198900
47.87891000 33.03760500 11.64740000
47.74060800 34.95845800 11.87051400
47.66573300 36.78987900 12.06628400
47.81284300 38.50661500 12.25067100
47.05566400 38.93709600 13.38900800
48.37585100 34.87574000 10.48260500
48.21658700 36.61763000 10.66723600
48.20849200 38.24327900 10.84033200
48.63853100 39.71945200 11.04110700
48.29977400 40.09758000 12.43338000
48.47332000 36.52983100 9.11224400
48.38034100 38.10760500 9.25967400
48.69850500 39.56581100 9.45217900
49.37979500 40.85685000 9.62435900
49.36402500 41.04344900 11.17788700
48.51202400 38.09549000 7.59561200
48.77510500 39.56459000 7.73507700
49.34074800 40.87372600 7.92660500
50.25000800 41.95545200 8.05072000
50.35372500 41.92692600 9.69110100
48.80928800 39.65921000 6.03085300
49.28547300 41.04376200 6.15545700
50.05426800 42.22557800 6.31268300
51.07624800 43.20983100 6.41723600
51.35041800 42.87518300 8.08520500
49.27918600 41.13960300 4.40426600
50.03007900 42.34150700 4.48544300
50.99504500 43.36068000 4.61261000
52.07771300 44.31031800 4.70431500
52.25477600 44.06710100 6.45721400
50.00698100 42.38927500 2.70333900
51.05350500 43.34139300 2.77218600
52.16740000 44.19402300 2.86084000
53.34701500 44.99200400 2.90042100
53.34931900 45.04037500 4.72979700
50.78938700 43.57217400 1.00735500
51.90588400 44.45379600 1.05526700
53.04546000 45.34582500 1.12518300
54.21087600 46.26630400 1.22076400
54.50662600 45.87103300 2.93765300
51.35434300 44.99021900 -0.58938600
52.50760300 45.95424700 -0.49554400
53.79786700 46.84832800 -0.36563100
55.31388100 47.55468800 -0.22995000
55.53145600 47.07640100 1.30996700
51.64299000 46.85533100 -1.86032100
53.08932900 47.77643600 -1.66912800
54.84564200 48.47168700 -1.45599400
56.84982700 48.89482900 -1.20230100
57.06004000 47.98489400 -0.07565300
52.21993300 48.91153000 -2.68646200
54.19096000 49.64534800 -2.41043100
56.57139200 50.00022100 -2.06723000
59.06474300 50.07819400 -1.54458600
59.05076200 49.03567500 -0.73614500
53.55714400 50.93232000 -3.09939600
56.20903000 51.30280300 -2.59524500
58.93095400 51.31073000 -1.95101900
55.76936300 52.68669100 -2.62490800
58.70498700 52.63011200 -1.97305300
55.41964000 54.15186300 -2.19207800
58.45626400 53.92338600 -1.57778900
55.23312000 55.49112700 -1.36721800
58.27389100 55.15051300 -0.85147100
60.87019300 54.82498200 -0.21106000
58.20545200 56.26995100 0.27249100
60.69152100 55.87072800 0.79757700
58.25387600 57.16680900 1.77172900
60.60972200 56.69232200 2.15173300
58.40199700 57.69789900 3.56170700
60.58343100 57.20326200 3.74133300
58.56059600 57.69388600 5.46569800
60.62817000 57.25902600 5.44683800
58.78457300 57.39912400 7.27832000
60.81617000 56.93902600 7.04995700
59.07919700 56.78086900 8.87689200
61.07516500 56.39833800 8.50967400
61.27756900 55.44223000 9.67797900
61.41424900 54.21189100 10.51153600
61.55032700 52.87643400 11.06979400
63.45333100 52.71106000 10.41900600
63.56348400 51.44625100 10.66629000
65.32702600 51.36715700 9.97183200
65.36738600 50.19953200 10.00070200
67.00640900 50.21633900 9.30029300
56.83890200 57.94934100 7.60858200
56.54277400 58.19093300 5.58258100
54.62953600 58.91358200 5.75058000
56.23748800 58.24392700 3.48260500
54.00528000 58.94082600 3.45425400
55.82170500 57.73326100 1.51361100
55.42662400 56.77034800 -0.14386000
51.59871300 55.56533800 -1.94296300
52.01165800 54.08387800 -2.76095600
48.77187000 53.58773000 -3.19140600
52.72818400 52.47129800 -3.18808000
49.86326200 51.94527400 -3.59048500
47.32356600 51.18328100 -3.86471600
46.09906400 52.80756400 -3.50497400
45.78972200 49.91584000 -4.10638400
43.94540400 51.75265500 -3.70455900
42.31012700 53.55541200 -3.05065900
42.89607200 49.91251400 -4.00262500
41.20095400 51.35205800 -3.53268400
39.73086900 52.58585400 -2.97824100
41.19749500 54.82154800 -2.55252100
40.45952600 48.97602100 -3.88058500
38.86011500 49.84458200 -3.45886200
37.36198400 50.38372000 -2.91357400
38.40981300 47.27948000 -3.67697100
36.83441900 47.78933000 -3.15899700
35.31042500 48.06270600 -2.43927000
35.86540200 50.65826400 -2.28451500
33.85306500 48.23232300 -1.57598900
34.45310200 50.86072500 -1.42419400
35.48735800 53.19811200 -1.37841800
36.72979400 54.93840800 -1.26043700
33.34858700 51.13305700 -0.19308500
34.35438500 53.40444200 -0.10534700
35.77474600 55.11352500 -0.46789600
36.86911800 56.33164200 -1.22592200
37.58071500 56.12914300 -1.86212200
33.58435800 53.88600200 1.16543600
35.06332000 55.60537000 0.51074200
36.32180000 56.73431400 -0.48678600
37.04325900 57.40868400 -1.79400600
37.48029300 56.94545700 -2.31262200
37.59577200 57.72811100 -3.06131000
38.00582500 57.19735000 -3.34085100
38.90117600 57.09261300 -3.22540300
38.23972700 56.73303200 -2.58938600
39.81933600 57.44503000 -2.85260000
39.22430400 56.96793400 -2.38818400
41.19169600 57.85063200 -2.45871000
40.65716900 57.45941200 -1.87078900
43.07359700 58.06292000 -2.36914100
41.83346900 58.04332000 -3.15414400
43.48068600 57.96693400 -3.29446400
44.97505600 57.53068500 -3.83883700
46.04766800 56.99794000 -4.48004200
43.89706400 57.80291000 -4.23883100
45.09749600 57.37034600 -4.84564200
46.02098800 56.99088300 -5.49591100
45.67161600 57.20912900 -6.37234500
46.45022600 57.43781300 -6.91592400
46.95023000 57.23803700 -5.93789700
47.10568200 57.24492600 -5.06121800
47.18015700 58.14408100 -5.19787600
47.24243200 58.33474000 -4.49035600
47.25397900 57.45774100 -4.17660500
47.32414600 58.48315400 -3.68911700
47.45870600 57.55319200 -3.30459600
47.57235700 58.55237600 -2.59954800
46.83123800 59.21493500 -3.64373800
46.99557100 59.22813400 -2.53897100
47.56901200 59.17221100 -0.89147900
46.32093800 59.76792100 -2.43670700
46.69604100 59.72508200 -0.93893400
45.26911200 60.40942400 -2.31210300
45.58929100 60.37554900 -0.68908700
43.93774400 60.88790900 -2.19354200
44.17263800 60.98571000 -0.48101800
42.47839700 60.96707200 -2.09631300
42.65510600 61.17215700 -0.36077900
41.19092900 60.69404600 -2.10855100
40.20351000 60.29748500 -2.35205100
39.66233400 60.28868900 -4.19256600
39.32133900 59.90000200 -2.79257200
39.04055000 59.94027700 -4.63876300
38.67521700 59.56128700 -3.21069300
38.70518900 59.48049900 -5.01269500
38.22983900 59.12728100 -3.59912100
38.59026000 58.87075000 -5.32528700
38.01094800 58.60424800 -3.98791500
37.53514100 58.36466200 -2.57620200
38.16067500 57.92357600 -4.30612200
39.01961900 58.29459400 -5.24316400
39.63021500 58.07087700 -4.81567400
38.87063200 57.54456300 -4.17523200
40.37347000 58.02413200 -4.37707500
39.61063000 57.61776000 -3.78479000
41.30266200 58.06436900 -4.05307000
40.52365900 57.84069100 -3.39682000
42.52235800 58.04756200 -3.96814000
39.92065400 58.55552700 -6.15124500
39.51494200 59.14444700 -6.49694800
40.76284800 59.20594000 -7.57211300
40.99298900 58.59500900 -7.04403700
42.42257300 58.42587300 -7.29229700
42.49785600 58.87458000 -7.93960600
44.05208600 58.52727500 -7.81585700
43.81731000 58.07260900 -7.32717900
40.81649000 59.89978000 -7.70639000
42.68704200 59.55141400 -7.86419700
44.27161000 59.19649500 -7.68512000
45.40298100 58.07189900 -7.57189900
42.80942500 60.09211700 -7.41604600
44.38713100 59.68183900 -7.14907800
42.95370500 60.41299400 -6.71823100
44.46190600 59.99174500 -6.46807900
43.12889100 60.63296500 -5.86746200
44.56595200 60.20060700 -5.67416400
45.78631200 59.65527300 -5.49316400
46.69051400 59.04130600 -5.32601900
44.76884800 60.34365800 -4.67883300
45.92297000 59.75711800 -4.59686300
46.74929000 59.13958700 -4.55810500
46.12553000 59.79302200 -3.60516400
45.05078100 60.40660900 -3.55447400
43.38614300 60.78479000 -4.81442300
43.72275500 60.95497100 -3.56634500
41.37635400 60.65699000 -6.55206300
41.08557500 60.42263000 -7.26394700
39.71519500 60.29060400 -6.09100300
40.25660300 60.63118700 -5.46435500
39.51276400 59.80916600 -6.38003500
44.89809400 57.60456800 -7.00061000
32.49057800 51.49812300 1.25830100
32.69677000 48.43246500 -0.34075900
31.80792000 48.62846400 1.10681200
31.12050600 48.83789800 2.67059300
31.68862900 45.58319100 0.97735600
30.93146500 45.69454200 2.51010100
31.98377000 42.78882600 0.96646100
32.66786200 45.47934700 -0.42675800
32.96677400 42.74926000 -0.47256500
33.21154800 40.18396000 -0.56262200
34.03942900 42.65444200 -1.79287700
34.29053500 40.05493200 -1.83148200
34.67300400 37.55968500 -1.72457900
35.63568500 39.90955400 -2.73123200
35.96693800 37.39734600 -2.60159300
36.29787100 35.00573700 -2.51254300
37.36663100 37.22165700 -3.25204500
37.67816900 34.85385900 -3.17370600
37.98608400 32.62689200 -3.14410400
39.13591000 34.67077600 -3.63824500
39.44528200 32.47908800 -3.61425800
39.70586400 30.37749300 -3.68573000
40.96238700 32.30024700 -3.87789900
41.21164700 30.20999000 -3.95999100
41.38800400 28.13248300 -4.10430900
42.73361200 30.01746900 -4.00784300
42.89923100 27.93419500 -4.12048300
43.05694200 25.83232300 -4.31021100
44.39765500 27.72463400 -3.84011800
44.54742400 25.61474000 -3.97714200
44.74972900 23.46601700 -4.27682500
45.96458100 25.40450900 -3.37228400
46.14855200 23.23976700 -3.60073900
46.36133200 20.99737000 -3.89657600
47.39735000 23.04309700 -2.65246600
47.61891600 20.77668200 -2.93750000
47.87213900 18.39357600 -3.28469800
48.74496800 20.59788700 -1.86746200
49.05028500 18.18475500 -2.20599400
49.39740400 15.67664500 -2.53222700
50.01359200 18.00099000 -0.91922000
50.30929900 15.45094900 -1.12793000
50.58641100 12.77348500 -1.40609700
50.81932800 15.30027600 0.46536300
51.11225100 12.60257900 0.28176900
51.14893000 9.77797900 0.08529700
51.44858600 12.47870100 2.00503500
51.54614300 9.59446900 1.85955800
51.47549100 6.62829400 1.70376600
51.72574200 9.41928300 3.65612800
51.60746800 6.38924200 3.56649800
51.20612300 3.26679400 3.47631800
51.56395000 6.17589400 5.42248500
51.09653500 3.03159500 5.39624000
51.40962200 6.01870900 7.27734400
50.87466800 2.90159000 7.31475800
50.88338500 5.97307400 9.07339500
50.27306400 2.93218400 9.16903700
50.16481800 6.04844100 10.81063800
49.47464400 3.10402900 10.93933100
48.47869100 0.26371800 11.12027000
48.42173000 3.45622400 12.55069000
47.37819700 0.83334500 12.80648800
46.10832200 -1.51988800 13.13348400
46.06054700 1.73632800 14.17666600
44.85262700 -0.51744300 14.67843600
43.42713500 -2.51700800 15.30340600
43.41685100 0.66203300 15.76528900
41.90503700 -1.33644300 16.32711800
40.27172900 -3.28046200 16.99734500
41.82116300 -4.40101200 15.88125600
40.30569100 -0.20756500 16.95355200
38.64452700 -2.10897600 17.63732900
38.59322400 0.88956600 17.15444900
36.96553000 -0.94083800 17.68490600
36.85532400 1.93459100 16.79357900
35.30679300 0.22168700 17.30850200
33.60543800 -1.44637700 17.84429900
33.73620600 1.45077300 16.67379800
32.09702300 -0.03571100 17.11749300
32.29993400 2.73176800 15.77661100
30.72750100 1.43037800 16.15066500
29.02618600 0.28037500 16.47485400
29.52665700 2.85565400 14.91284200
27.89970600 1.89026500 15.19186400
26.17978700 1.08712600 15.39230300
26.95501700 3.33306300 13.64090000
25.31040600 2.68977200 13.84036300
23.60053100 2.21167000 13.97723400
24.57089200 4.17920500 12.19363400
22.95136100 3.78584900 12.29892000
21.28968000 3.50647500 12.34173600
21.84820900 1.86667400 14.02584800
19.58546400 3.36497300 12.34487900
20.05347100 1.67421200 14.01266500
17.84812200 3.34200900 12.31655900
18.22444900 1.64845800 13.97482300
16.08208800 3.46530700 12.30789200
16.37157400 1.79673800 13.95965600
14.29303000 3.68833700 12.30288700
14.50531800 2.06580000 13.95303300
12.47908400 3.99955600 12.30889900
12.62531300 2.41644300 13.94732700
10.64806000 4.42131600 12.36135900
10.75135000 2.89393400 14.00579800
10.80614500 1.25347100 15.51278700
8.86362500 3.47790000 14.10263100
8.85300100 1.90818200 15.59405500
8.75749200 0.28220200 16.93603500
6.88216800 2.63469500 15.69012500
6.73038900 1.06263500 17.00280800
6.48003800 -0.63198500 18.05813600
4.68858000 1.89633900 17.08840900
4.40669600 0.21610300 18.10708600
4.06797000 -1.54411300 18.91052200
6.15648300 -2.41819200 18.84948700
3.67489200 -3.35882000 19.45803800
5.77481500 -4.25158100 19.36770600
3.24223300 -5.20396600 19.64804100
5.35307700 -6.10240900 19.61764500
2.78934100 -7.00574900 19.50085400
4.93506600 -7.94319500 19.48559600
2.39392100 -8.76075600 19.02435300
4.51160400 -9.66578700 18.93109100
2.06152000 -10.40642400 18.14007600
4.11330400 -11.27190600 18.06616200
1.74713900 -11.94184700 17.05618300
3.73181200 -12.78494800 17.00158700
5.74594900 -13.55583600 16.89913900
3.37101700 -14.15718000 15.73794600
5.31610500 -14.92297900 15.64215100
7.27489100 -15.56686900 15.45446800
4.93103800 -16.07428400 14.17681900
6.82171200 -16.74044400 14.02383400
8.67205000 -17.41676700 13.87652600
6.36185100 -17.86011500 12.57418800
8.17019700 -18.50083500 12.43994100
5.90523500 -18.89520600 11.07843000
7.69721600 -19.48864700 10.96481300
5.57468800 -19.56487300 9.36270100
7.35234500 -20.16271600 9.28555300
5.35490000 -20.04578800 7.53134200
7.11177800 -20.64225400 7.47793600
5.19775000 -20.40726900 5.60076900
6.90447600 -21.02831300 5.57461500
8.67940900 -21.55585500 5.54858400
6.97883200 -20.72857300 3.57559200
8.70621100 -21.31316800 3.59948700
10.48436700 -21.90210700 3.70022600
8.75670200 -21.12487000 1.58731100
10.50296400 -21.71247900 1.69543500
12.32921600 -22.02448700 1.81671100
10.47539500 -21.83930000 -0.35217300
12.31430400 -22.14262400 -0.24600200
14.12948200 -22.43361700 -0.23574800
12.45280800 -21.78780400 -2.17300400
14.26388200 -22.13901500 -2.23342900
16.02975500 -22.18485300 -2.37835700
14.49988200 -21.65552500 -3.98147600
16.21738400 -21.71452300 -4.12762500
12.76965300 -21.28274200 -3.95373500
10.65791700 -21.44490100 -2.33862300
11.05073200 -20.81228300 -4.19992100
11.60388200 -20.13841200 -5.96600300
9.37680400 -20.19238900 -4.41980000
9.92160000 -19.47352400 -6.24691800
10.62744100 -18.65031600 -7.85549900
12.27418500 -19.41707200 -7.43234300
11.44088400 -18.06347700 -9.41046100
12.81044800 -19.22253800 -8.92102100
11.79685200 -17.61777500 -11.06372100
13.12017100 -18.85642200 -10.71560700
14.26246300 -19.94923800 -10.22668500
15.24440000 -20.91252500 -9.76370200
13.83512500 -17.72256100 -12.22348000
15.01327500 -18.95475000 -11.92913800
15.97315200 -20.09114100 -11.50762900
16.77753800 -21.15712000 -11.18450900
16.13992700 -21.71781500 -9.72995000
16.23531000 -17.61440100 -13.13772600
17.29131300 -18.89656100 -12.85836800
18.10754800 -20.19325600 -12.55111700
18.78987500 -21.45494100 -12.20938100
17.58342400 -22.14692300 -11.08743300
20.48392100 -20.58515900 -13.17340100
20.87785000 -22.14338700 -12.84204100
19.33594500 -22.78757900 -11.99527000
22.86981000 -21.37000300 -13.41204800
22.95394700 -23.16626500 -13.15976000
21.11091600 -23.76457400 -12.62789900
25.04589500 -20.57228700 -13.44894400
24.99785000 -22.58278100 -13.28170800
24.85825000 -24.56745500 -13.31213400
22.91133100 -25.00482000 -13.08947800
22.80671100 -26.85778000 -13.07995600
21.22952300 -25.44082800 -12.48562600
24.66268200 -26.53770600 -13.42233300
24.40460600 -28.51647200 -13.54257200
26.00103200 -30.37208600 -13.76504500
19.76118900 -24.20469900 -11.85101300
18.36677200 -23.19233300 -11.02441400
16.95441400 -22.53662900 -9.97451800
14.92721200 -16.34014500 -13.37274200
12.38215300 -16.43099000 -12.41067500
13.30725900 -15.06792300 -13.48800700
14.44925300 -13.59231000 -14.44995100
11.36753100 -13.87849100 -13.46539300
12.26722700 -12.43410100 -14.43173200
13.22780600 -10.79617300 -14.98309300
10.01882200 -11.37977600 -14.25808700
10.78652200 -9.76693700 -14.89639300
11.47974800 -8.01843800 -15.16980000
14.06931700 -9.05774900 -15.32440200
12.02917500 -6.19033600 -15.24258400
14.71455800 -7.22610900 -15.41186500
12.45317500 -4.34775000 -14.90106200
15.14215100 -5.32958600 -15.10726900
12.74828000 -2.55086500 -14.20828200
15.35261900 -3.40017700 -14.37991300
12.86415900 -0.87666500 -13.04745500
15.33038300 -1.55369800 -13.23635900
17.91303600 -2.17251600 -13.32983400
15.17009400 0.11883000 -11.76376300
17.56102800 -0.33832700 -11.90948500
20.09365500 -0.62826300 -11.96545400
17.18695400 1.28171500 -10.22827100
19.43420000 0.98279000 -10.26882900
21.69346200 0.84607100 -10.25408900
18.85211900 2.41446700 -8.34549000
20.87414600 2.33371500 -8.30139200
22.81315800 2.46974400 -8.18466200
20.18100700 3.58337200 -6.22219800
21.97348600 3.75227900 -6.12292500
23.68335300 4.09231000 -5.96978800
21.29826400 4.94687100 -4.07580600
22.93630600 5.24075900 -3.93789700
24.50059700 5.68173000 -3.75515700
22.34940000 6.21997600 -1.90191700
23.85193800 6.65954000 -1.77938800
25.23516100 7.31959700 -1.69317600
23.37157800 7.41706300 0.23739600
24.75584400 7.93358000 0.33801300
26.09927600 8.40567600 0.50793500
24.52738400 8.08907900 2.42800900
25.85008400 8.59951600 2.53836100
27.11755000 9.16539600 2.67050200
25.80921000 8.50695200 4.57516500
27.02444800 9.19973200 4.65460200
28.19151300 9.96531100 4.73428300
27.19639400 8.91015400 6.59933500
28.33054900 9.75158900 6.64108300
29.34898900 10.73525400 6.68780500
28.75549100 9.22027800 8.48172000
29.81949200 10.25123400 8.46554600
30.74416200 11.42079700 8.45608500
30.52682900 9.55453700 10.08053600
31.51876600 10.78900300 10.02124000
32.34890000 12.14210300 9.97378500
32.44220400 10.02158500 11.44033800
33.31713900 11.46956800 11.36245700
34.03281400 13.00759300 11.29443400
34.39368400 10.72441700 12.63366700
35.15947000 12.35794600 12.52401700
35.81091300 14.03661500 12.36044300
36.41090400 11.64774100 13.58636500
37.06129800 13.44624900 13.42977900
37.56405600 15.28785100 13.26635700
38.40806600 12.83312800 14.36093100
38.90971800 14.78568100 14.18743900
39.22546800 16.79199800 14.04867600
40.39830000 14.27314900 14.83233600
40.70719900 16.38443600 14.64700300
40.85476300 18.53863000 14.47103900
42.28261600 15.98032200 14.96023600
42.39284100 18.23357200 14.76730300
42.40928300 20.47066300 14.63412500
43.96904000 17.95550000 14.78167700
43.94042200 20.28485300 14.64001500
43.82730100 22.59248500 14.59127800
45.44131500 20.14545200 14.32611100
45.28796400 22.51818700 14.26861600
45.05961600 24.84001700 14.18637100
46.61747400 22.48621600 13.58322100
46.35733400 24.81413100 13.49081400
46.14839900 27.02745600 13.46719400
47.50167800 24.80404100 12.53109700
47.28950500 26.99384900 12.49496500
47.13677600 29.10222100 12.54583700
48.28667400 27.00033400 11.36676000
48.13603200 29.08513800 11.40658600
48.00524900 31.08611900 11.49557500
48.85186000 29.07873000 10.06338500
48.68359400 31.07137100 10.13473500
48.55622900 33.01140600 10.28768900
48.90651300 31.07256500 8.62652600
48.83457600 33.01625100 8.78494300
48.70477700 34.84277300 8.96002200
48.94520600 33.03921500 7.23999000
48.75485200 34.83770800 7.37793000
48.60519400 36.51416800 7.49484300
48.69878400 34.87879200 5.78466800
48.60073100 36.55844100 5.86761500
48.62223100 38.14717900 5.94189500
48.54799700 36.65045900 4.23919700
48.60366100 38.23336800 4.28939800
48.86871700 39.72811900 4.34201000
48.45609700 38.35709400 2.63165300
48.73957400 39.82753800 2.64749100
49.23840700 41.19002500 2.66543600
48.48010300 40.00122100 0.97540300
49.01515200 41.35577400 0.96630900
49.79076000 42.55713700 0.98501600
48.73973800 41.57733900 -0.66439800
49.39875000 42.86006200 -0.62786900
50.30277600 43.97928600 -0.62228400
48.52468500 43.48832700 -1.94723500
49.37625100 44.72057300 -1.94247400
50.40907700 45.84686300 -1.91888400
48.06341600 45.72856100 -2.94784500
49.13902300 46.90864600 -3.02731300
50.47200000 47.99441500 -2.94409200
47.58348500 48.24285900 -3.92544600
49.03760900 49.38028700 -3.75824000
51.13412500 50.29325900 -3.53466800
46.51211200 46.90982800 -3.88903800
44.71857500 48.35811600 -4.23318500
45.71883400 45.41813700 -3.79766800
43.96357700 46.58510600 -4.24942000
42.17467100 47.86766100 -4.20129400
43.57696900 44.64536300 -4.26919600
41.83757000 45.61885100 -4.27487200
40.04094700 46.56697800 -4.01940900
41.62189100 43.35839800 -4.38519300
39.89281500 44.08737200 -4.13351400
38.26498400 44.69203900 -3.83111600
39.94079600 41.58914900 -4.18414300
38.36983100 42.04973600 -3.82547000
36.84389500 42.38633700 -3.36413600
36.71390500 45.13933600 -3.29415900
35.38876700 42.55982200 -2.71453900
35.21953600 45.35182200 -2.61096200
33.82566800 45.41693100 -1.67337000
37.08030300 39.72973600 -3.34933500
38.55350500 39.46817000 -3.85430900
38.82305100 37.00057200 -3.72793600
40.09356700 39.12780000 -4.13003500
40.33812000 36.73529800 -3.98901400
40.65068400 34.46503400 -3.90075700
41.88306800 36.44870000 -4.07684300
42.18331500 34.24936700 -3.97421300
42.49214200 32.11337300 -4.01953100
43.70101500 34.02452900 -3.77298000
44.00209000 31.92826300 -3.76956200
44.21806700 29.82302300 -3.75131200
45.40604400 31.73631100 -3.20419300
45.60346600 29.64259900 -3.19686900
45.78369900 27.52095200 -3.22259500
46.84631000 29.50591100 -2.36602800
47.00740800 27.36924600 -2.34643600
47.19658700 25.21784400 -2.43432600
48.07765600 27.28737400 -1.31933600
48.29340700 25.09508700 -1.39553800
48.52489100 22.88690000 -1.59887700
49.22531500 25.00884400 -0.25198400
49.50993000 22.74747700 -0.43710300
49.70580700 20.42052700 -0.66507000
50.03316900 22.58832700 0.94931000
50.24142500 20.23877500 0.77371200
50.47888600 17.82971800 0.62127700
50.29491800 20.09103200 2.35998500
50.65885500 17.71117600 2.26553300
51.11817600 15.19797300 2.14831500
50.72544100 17.60663000 3.96618700
51.23956300 15.07833700 3.86642500
51.57862500 12.33209800 3.74874900
51.33524300 14.94758400 5.58297700
51.54333100 12.15778900 5.49737500
51.67571300 9.24505000 5.45944200
51.44073500 11.99985700 7.26013200
51.54850800 9.09842900 7.26495400
51.13568100 11.89122600 9.01287800
51.12071200 9.00901200 9.02105700
50.50755300 11.87320100 10.67230200
50.47908800 8.98452600 10.72650100
49.61017600 11.96045500 12.16198700
49.48467300 9.14763100 12.23700000
49.11243800 6.30481500 12.33328200
48.16835000 9.45038400 13.44342000
47.78620900 6.75495000 13.59411600
47.12273800 4.16413700 13.86770600
46.21542000 7.39578800 14.56024200
45.55098700 5.02582400 14.82965100
44.60072700 2.77068100 15.23846400
43.81605500 5.86906200 15.51553300
42.90313700 3.77437000 15.88397200
41.75529900 1.75346200 16.40976000
41.08682300 4.67686300 16.16503900
39.96250900 2.73729100 16.57894900
39.29839300 5.54183800 15.96398900
38.18983100 3.68242800 16.30966200
37.60071600 6.42890700 15.56710800
36.52264400 4.65355100 15.77151500
35.22597900 3.01206400 16.18997200
34.98502300 5.68071600 15.04229700
33.72594500 4.15051800 15.38284300
33.64308200 6.69178200 14.00705000
32.40724200 5.28127900 14.29623400
31.03313600 3.99486700 14.60699500
31.27529900 6.36970700 12.99661300
29.96070300 5.17531000 13.19610600
28.52623700 4.13131500 13.38595600
28.97883600 6.40651900 11.80612200
27.60588500 5.48097400 11.93454000
26.12377000 4.75175300 12.08108500
26.86239400 6.68022000 10.33401500
25.44041600 6.07276300 10.43496700
23.96158400 5.56190700 10.49160800
24.96871400 7.02107000 8.55239900
23.53265800 6.58110200 8.58786000
22.04760600 6.22379100 8.59692400
22.42436800 5.19053100 10.53686500
20.50677900 5.98475100 8.59008800
20.84000800 4.91909600 10.53732300
18.91667200 5.87972500 8.57562300
19.20642100 4.80113800 10.53802500
17.28204700 5.87050400 8.55252100
17.53489700 4.78175200 10.51461800
15.60397700 5.93401100 8.52999900
15.83020000 4.88035000 10.50045800
13.88903000 6.10966300 8.54159500
14.09534800 5.09261100 10.51239000
12.14539700 6.46483800 8.62472500
12.32604200 5.39499900 10.54614300
10.36586000 6.87846900 8.72540300
10.52256400 5.80219100 10.61593600
8.51467500 7.29866200 8.80001800
8.69675400 6.29978400 10.72103900
8.80233400 4.94439500 12.46237200
6.83577700 6.85479200 10.85916100
6.92515600 5.54420300 12.59066800
6.94741400 4.13696100 14.21743800
5.01162000 6.23191300 12.74270600
4.99443100 4.87452100 14.35379000
4.88826400 3.44528400 15.82272300
3.01290100 5.73154300 14.54940800
2.83668500 4.30215600 15.94668600
2.60983700 2.78936200 17.19751000
0.73273800 5.24545500 16.12338300
0.45655800 3.70138400 17.28573600
0.15197400 2.07321700 18.28372200
2.30725900 1.12396600 18.18121300
-0.18791600 0.36582900 19.08532700
1.97070300 -0.60024800 19.01239000
-0.59690900 -1.41070700 19.60571300
1.55329900 -2.39737300 19.54116800
-1.03086900 -3.26869600 19.72985800
1.10478200 -4.21226500 19.69644200
-1.40118400 -5.15093000 19.55960100
0.67582300 -6.04755400 19.57339500
-1.69487800 -7.01765100 19.09149200
0.33089400 -7.85908500 19.05554200
-1.93548200 -8.74833100 18.21426400
0.06429700 -9.51151800 18.10693400
-2.16139200 -10.39420100 17.18423500
-0.20858000 -11.11728300 17.08398400
-2.37522900 -11.92779200 16.00039700
-0.46395500 -12.59120600 15.87503100
1.45022200 -13.33930000 15.79357900
-0.69892500 -13.88682700 14.46749900
1.16430300 -14.58176400 14.37051400
3.02781300 -15.36883200 14.31198100
0.84206000 -15.77639100 12.89993300
2.65186700 -16.53799800 12.85858200
4.51471300 -17.21539300 12.72427400
2.29117600 -17.56341200 11.28945900
4.09237300 -18.28531300 11.22253400
2.01975300 -18.28360600 9.50372300
3.78398100 -18.94227000 9.44677700
1.88889300 -18.75552400 7.58618200
3.61213300 -19.40588400 7.57742300
1.84811800 -19.14503900 5.60708600
3.51021200 -19.78167700 5.62408400
2.00688200 -18.98533100 3.54766800
3.63264500 -19.60081100 3.56817600
5.30754900 -20.12180100 3.58032200
3.80210900 -19.29599000 1.48886100
5.44300800 -19.84893400 1.49743700
7.07708000 -20.48248700 1.52615400
5.48193400 -19.90808900 -0.63861100
7.11125200 -20.52287300 -0.58035300
8.76142100 -21.18996200 -0.47650100
7.29671900 -20.29051200 -2.65686000
8.96079300 -20.87213500 -2.50878900
7.71406900 -19.61150400 -4.60214200
5.63695100 -19.72011900 -2.73828100
6.05807900 -19.01536200 -4.67684900
6.57954800 -18.25847800 -6.55130000
8.25260200 -18.88587200 -6.48535200
7.22898900 -17.42566700 -8.27731300
8.99881700 -18.00750000 -8.18252600
7.76867700 -16.57728800 -9.78045700
9.75189200 -17.19057300 -9.69918800
8.12555300 -15.60341500 -11.19589200
10.10990100 -16.43295700 -11.17837500
8.58394200 -14.27778600 -12.36526500
10.59029000 -15.25108400 -12.45019500
9.25169800 -12.86808600 -13.37915000
6.53471800 -13.47516300 -12.30386400
7.13607800 -11.97612800 -13.25991800
7.78272200 -10.46983300 -14.15264900
5.05841800 -11.13355400 -13.16995200
5.60410700 -9.61200700 -14.08090200
6.21220000 -7.98158800 -14.69354200
8.45524600 -8.84275100 -14.75528000
6.75585600 -6.23003600 -14.94665500
9.06464800 -7.09710700 -15.03405800
7.18946100 -4.42405500 -14.84103400
9.55407300 -5.28445100 -15.00268600
7.55147900 -2.63770900 -14.43005400
9.92923700 -3.46697600 -14.63305700
7.88699300 -0.92129700 -13.70217900
10.25684000 -1.74413500 -13.92459100
8.24432000 0.58513100 -12.54538000
10.49799700 -0.17030000 -12.79339600
8.46533600 1.96191400 -11.08404500
10.62624000 1.24123400 -11.29385400
12.85601000 0.61759200 -11.52133200
10.67223000 2.59184800 -9.63479600
12.79734400 2.05142200 -9.85290500
14.97279700 1.63796000 -10.08142100
12.69180700 3.36194000 -8.04208400
14.74240100 2.93810500 -8.19387800
16.79767200 2.63133400 -8.30084200
14.47874800 4.08829700 -6.19094800
16.40486900 3.76240700 -6.23565700
18.31361800 3.56249800 -6.23211700
16.03900100 4.92201400 -4.19509900
17.84172400 4.76652000 -4.18884300
19.60061600 4.77670100 -4.15362500
17.45188500 5.79972600 -2.11474600
19.13717700 5.81225400 -2.08108500
20.77095400 5.95147100 -2.01123000
18.81072600 6.55574600 0.03582800
20.39539000 6.69993400 0.08172600
21.92140000 6.97676300 0.15600600
20.20678300 6.97073200 2.23294100
21.70242500 7.26437600 2.28390500
23.13100400 7.68598000 2.34713700
21.67807800 7.14526600 4.42569000
23.10274900 7.56881100 4.47317500
24.50078400 7.95604100 4.51577800
23.21150600 7.32155800 6.58184800
24.62464300 7.69687500 6.57601900
25.95886600 8.21967900 6.57907100
26.35732800 7.54030800 8.48806800
27.64377000 8.25369500 8.45141600
28.18478200 7.48103900 10.25204500
29.39694200 8.46307200 10.17553700
30.25696600 7.47026300 11.65472400
31.40911100 8.68178400 11.52944900
32.46013600 7.69774800 12.81799300
33.50108300 9.15853300 12.70428500
34.68671400 8.25510600 13.86392200
35.60077700 9.91681900 13.74441500
36.04323600 7.34564000 14.86441000
36.95444500 9.09754000 14.70312500
37.74739800 10.92901000 14.52816800
38.50197600 8.28813700 15.39721700
39.26319900 10.21745900 15.20468100
39.90446500 12.21491400 15.02166700
40.93764500 9.50258100 15.54467800
41.54163700 11.58626400 15.34100300
42.00364700 13.75071100 15.14703400
43.25343300 10.97205500 15.32159400
43.66521500 13.25202400 15.13253800
43.90493000 15.59980600 14.97647100
45.33629600 12.80371300 14.86135900
45.50490600 15.28360900 14.67392000
45.52035500 17.74050700 14.45889300
47.04696300 15.05477700 14.09304800
46.98812500 17.59522400 13.83837900
46.86133200 20.07039500 13.71414200
48.30220400 17.48805000 12.93917800
48.12296300 20.04638500 12.80429100
47.83659000 22.49580200 12.69110100
49.17424000 20.03427300 11.67642200
48.84569200 22.52887900 11.54397600
48.51948500 24.81870500 11.40933200
49.63726800 22.53163000 10.23318500
49.32599600 24.83148800 10.10495000
49.04532200 27.00248100 10.05426000
49.67293900 24.78438400 8.61587500
49.34838100 26.97160900 8.55697600
49.05535100 29.05549800 8.55136100
49.43084700 26.94800800 7.02468900
49.16602300 29.06910900 7.02981600
49.05530900 31.10813700 7.10864300
49.24871400 29.12145800 5.51629600
49.06774900 31.17151500 5.58273300
48.91294900 33.09610000 5.68356300
49.11152600 31.26400200 4.06723000
48.88333100 33.19277200 4.12936400
48.67808900 34.98185700 4.18756100
48.89520300 33.31439200 2.59371900
48.64038500 35.11354100 2.59982300
48.44719300 36.78389000 2.61404400
48.45867900 35.24935900 1.06640600
48.20192300 36.93830900 1.03875700
48.21051400 38.52383400 1.00515700
47.90211500 37.09520700 -0.46188400
47.87507600 38.71643100 -0.52563500
48.17589600 40.21596500 -0.60803200
47.14471100 39.00515700 -1.84878500
47.46622800 40.60424000 -1.98629800
47.95010800 42.09685500 -2.04187000
46.27128600 41.20181300 -2.96197500
46.68111800 42.85150100 -2.99331700
47.25813300 44.36707300 -2.95736700
45.20354500 43.72946900 -3.78457600
44.87353900 41.88430800 -3.70755000
43.28533200 42.63180500 -4.30361900
44.70122500 39.92327900 -3.60501100
43.19300100 40.49402600 -4.19656400
41.56594800 41.06314800 -4.37136800
43.23350900 38.31824500 -4.05761700
41.65809600 38.73045300 -4.22201500
43.41906700 36.15671500 -3.85672000
44.70079400 37.91763300 -3.48678600
44.83944300 35.86462400 -3.28631600
45.13445700 33.80643500 -3.23724400
46.09352100 35.61551700 -2.49264500
46.36382300 33.62722000 -2.40524300
46.64124700 31.57881400 -2.38607800
47.49532300 33.51663200 -1.48233000
47.71109800 31.51025600 -1.38885500
47.94487400 29.42473800 -1.36718800
48.55132700 31.49279200 -0.22232100
48.76785700 29.38050300 -0.17257700
49.00187300 27.22952500 -0.19412200
49.28498500 29.35887000 1.13540600
49.54856500 27.16222600 1.11666900
49.79672200 24.90969300 1.06500200
49.60277900 27.07652900 2.53982500
49.83090200 24.77841000 2.50424200
50.12452300 22.44497100 2.44958500
49.82446300 24.70394300 4.00061000
50.07920800 22.35866400 4.01757800
50.31196200 19.99513800 4.01339700
50.06931300 22.34089500 5.61221300
50.34032800 19.95690700 5.67666600
50.77807600 17.51717200 5.66302500
50.48069000 19.97444300 7.31372100
50.90375100 17.46325500 7.33902000
51.27829400 14.78684400 7.28344700
50.79676800 17.36806300 8.97287000
51.05675900 14.63323400 8.97915600
50.34066000 17.34587700 10.49639900
50.51310300 14.62608900 10.60620100
49.46009100 17.40830000 11.83389300
49.58934000 14.72258600 11.99914600
48.43722500 14.87832800 13.18945300
48.38195000 12.17587100 13.36212200
46.93141600 12.45339000 14.25466900
46.64572900 9.87054600 14.38583400
44.97895800 10.39480400 15.01193200
44.49535800 8.07716900 15.24295000
42.70515800 8.78002700 15.54901100
41.99517800 6.68720400 15.81799300
40.20312900 7.49104100 15.76171900
49.98545800 20.02982900 10.37664800
50.45425800 20.02285200 8.90719600
50.03676600 22.48666600 8.75271600
50.05788400 22.37816800 7.19326800
49.70653500 24.71831700 7.07385300
49.76398800 24.68672800 5.53643800
49.45173300 26.95128100 5.50122100
49.54663100 26.99882700 3.99966400
49.30398200 29.19379600 4.01925700
49.38768000 29.28890000 2.55636600
49.23823900 31.38014400 2.57339500
49.05296300 31.45871500 1.11798100
48.72297700 33.41903700 1.11721800
48.35327900 33.46329500 -0.29650900
48.05396700 35.33535000 -0.35717800
47.23903300 35.43964400 -1.56381200
47.08707800 37.27504000 -1.70883200
45.95632900 37.56670400 -2.65942400
46.00869800 39.44140600 -2.81897000
21.77039700 6.93742600 6.55401600
20.18024100 6.85887300 4.38317900
20.26795200 6.67698100 6.52664200
18.61533700 6.74001900 4.35321000
18.70990000 6.53650900 6.49713100
16.99777200 6.81477200 4.34405500
17.09385300 6.62504800 6.49438500
15.32984200 6.91676100 4.34280400
15.42654400 6.72453100 6.48898300
13.59803000 6.95681200 4.35992400
13.71097600 6.84305400 6.50042700
11.82566100 7.10118300 4.40536500
11.94989000 7.02501500 6.54782100
10.02311300 7.43033000 4.47903400
10.14653000 7.30337700 6.62066700
8.19572100 7.86678900 4.56698600
8.30864300 7.70627000 6.70385700
6.33852800 8.41174900 4.66366600
6.43216700 8.18451500 6.79809600
6.63179800 7.75532300 8.90216100
4.52087800 8.71483800 6.91143800
4.72110700 8.28295300 9.01568600
4.92364100 7.46414800 10.99264500
2.78349700 8.91622700 9.19796800
3.01466000 8.24420000 11.20327800
3.07663000 7.03084400 12.94580100
1.22617000 9.36926500 11.59466600
1.09323500 7.93529700 13.21463000
0.95225900 6.65925400 14.75967400
-1.06900000 8.82647500 13.39733900
-1.23053700 7.59871100 14.93377700
-1.46888000 6.17444800 16.26705900
-3.43550900 8.64345000 15.25546300
-3.75051100 7.05489900 16.40182500
-4.02491000 5.54274600 17.60681200
-1.74205400 4.65917400 17.46334800
-4.33136400 3.88896800 18.57043500
-2.05963900 3.01504300 18.42492700
-4.65782500 2.12666500 19.27948000
-2.39999800 1.29217300 19.19592300
-4.98878100 0.26967000 19.68692000
-2.77390300 -0.52218200 19.66055300
-5.29204900 -1.65197200 19.86178600
-3.14785400 -2.41582900 19.79284700
-5.54592100 -3.61592500 19.73657200
-3.46550400 -4.34609800 19.63342300
-5.74437700 -5.55168300 19.25708000
-3.71746800 -6.24795700 19.14273100
-5.90123700 -7.38862800 18.44967700
-3.91929200 -8.04297300 18.32992600
-6.03033100 -9.09170700 17.39047200
-4.10522500 -9.73807700 17.31933600
-6.13207600 -10.64693100 16.13391100
-4.26775400 -11.28438400 16.10080000
-6.20203000 -12.04771400 14.70242300
-4.38993800 -12.63118200 14.65939300
-2.55542800 -13.25495500 14.58093300
-4.49787100 -13.86046300 13.10168500
-2.71719000 -14.41531800 13.00952100
-0.92691000 -15.02468100 12.91583300
-2.85834100 -15.38661700 11.28405800
-1.16383400 -16.05954000 11.26590000
0.53273400 -16.81189300 11.28997800
-1.32973900 -16.83886500 9.42919900
0.33002100 -17.54334300 9.46820100
-1.40721900 -17.40347700 7.46929900
0.21573600 -18.09474900 7.53366100
-1.43886900 -17.88897300 5.47451800
0.19558300 -18.52131700 5.53198200
-1.27495200 -17.79220200 3.45037800
0.37819300 -18.36444300 3.49865700
-1.08263800 -17.42588000 1.45724500
0.57447800 -18.00907300 1.46929900
2.17114600 -18.70845200 1.48159800
0.60214600 -17.99003200 -0.59924300
2.18241500 -18.75638200 -0.62069700
3.82550800 -19.37344700 -0.63577300
2.32928800 -18.47811900 -2.68585200
3.97374700 -19.12833000 -2.72384600
2.70861100 -17.70023500 -4.57403600
4.39098400 -18.36727000 -4.64132700
3.08818400 -16.93357500 -6.39840700
4.85324500 -17.59091400 -6.48242200
3.46131100 -16.10296600 -8.09631300
5.34674500 -16.77929700 -8.18945300
3.80844100 -15.13766500 -9.61950700
5.77077500 -15.87081500 -9.69873000
4.12329500 -14.05065000 -11.05273400
6.10533500 -14.84506400 -11.12527500
4.53955500 -12.65798600 -12.21511800
2.19258900 -13.22265100 -10.94345100
2.57162100 -11.81436000 -12.09790000
3.02297200 -10.27816600 -13.04730200
0.59214800 -11.03870600 -12.06030300
0.97463200 -9.50477200 -13.04498300
1.38092400 -7.94700400 -13.93997200
3.48494000 -8.75688600 -13.99380500
1.82984500 -6.30441700 -14.55218500
4.01636100 -7.13072400 -14.65017700
2.28513300 -4.58165700 -14.82434100
4.50758700 -5.39609300 -14.86416600
2.70648600 -2.79261000 -14.66143800
4.90563600 -3.58791900 -14.77209500
3.09351300 -1.03365100 -14.05761700
5.27271700 -1.81883000 -14.24694800
3.51644900 0.66519400 -13.24307300
5.66464600 -0.11370500 -13.46304300
3.94812800 2.27822500 -12.24932900
6.07403600 1.42735300 -12.36413600
4.27869800 3.65225000 -10.87341300
6.35116600 2.77627400 -10.94152800
4.52941900 4.94144600 -9.34127800
6.55237600 4.08082000 -9.39080800
8.60653300 3.31984900 -9.51196300
6.64505400 5.24566100 -7.65930200
8.64962000 4.52701000 -7.75659200
10.66838100 3.90524100 -7.89450100
8.62562600 5.64618500 -5.90734900
10.58174100 5.03432300 -5.99954200
12.53209700 4.50009000 -6.09381100
10.45158400 6.08376900 -4.04254200
12.33597600 5.58182700 -4.10638400
14.20307500 5.20429400 -4.16711400
12.14485200 6.50850100 -2.05847200
13.95209500 6.16596000 -2.10223400
15.71896000 5.89796300 -2.11129800
13.75189200 6.83076700 0.03369100
15.48608000 6.66351100 0.00457800
17.17347000 6.55929800 0.00579800
15.35536200 6.99148800 2.17919900
17.02359800 6.91362600 2.17810100
18.64030100 6.90339100 2.19610600
13.63394500 7.14165700 2.20675700
11.97897000 7.10272800 0.08108500
11.86998400 7.33479900 2.25820900
10.16962400 7.45954700 0.15399200
10.07360100 7.66446900 2.33236700
8.32575600 7.89108500 0.24499500
8.23495500 8.04099800 2.41589400
6.46431000 8.45244000 0.33972200
6.36914400 8.54588100 2.51055900
4.58595700 9.13007200 0.43569900
4.47701600 9.17401300 2.62274200
4.43788500 9.01409700 4.78164700
2.56128300 9.87555100 2.75994900
2.50823600 9.68327500 4.94628900
2.58062000 9.33476800 7.08590700
0.53130700 10.31026300 5.14410400
0.61775200 10.07577300 7.33746300
0.84567600 9.72521400 9.45095800
-1.38495600 10.80010000 7.57116700
-1.21926100 10.48445300 9.75216700
-0.96088400 9.88561100 11.73196400
-3.30879600 11.25848600 9.87341300
-3.26157000 10.79722000 11.92773400
-3.34616100 9.78554300 13.62112400
-5.55212800 11.60233900 11.92068500
-5.71196400 10.60557400 13.70065300
-5.90621600 9.24300200 15.14379900
-8.12229900 11.24439400 13.65435800
-8.33116500 10.00042900 15.21545400
-8.57533300 8.55784400 16.55725100
-6.14572900 7.80610800 16.45669600
-8.83322500 7.01658100 17.75729400
-6.39867800 6.31167000 17.69058200
-9.09590500 5.33935400 18.73718300
-6.67944000 4.65854800 18.66976900
-9.34413100 3.52430200 19.42465200
-6.96982200 2.87105000 19.35949700
-9.55104400 1.60994500 19.81591800
-7.24543400 0.98063300 19.72247300
-9.70386100 -0.36859100 19.95129400
-7.47722600 -0.96815700 19.87063600
-9.80232200 -2.38313700 19.84085100
-7.65788300 -2.95755000 19.79159500
-9.85044500 -4.38339000 19.41354400
-7.78831500 -4.92554700 19.35015900
-9.86227400 -6.29253800 18.60495000
-7.87925700 -6.79146000 18.53115800
-9.85355000 -8.05666200 17.50241100
-7.94533500 -8.52254100 17.44784500
-9.82873200 -9.67915200 16.21057100
-7.98692700 -10.10789700 16.17034900
-9.77267100 -11.10954500 14.72103900
-7.98812500 -11.50651400 14.69625900
-9.69449600 -12.38236000 13.10879500
-7.98287600 -12.81561100 13.14175400
-6.25258600 -13.32019800 13.14538600
-7.93564600 -13.83679200 11.38723800
-6.25299800 -14.29477200 11.37622100
-4.55986800 -14.81819100 11.33883700
-6.23233000 -15.02989600 9.47433500
-4.58654000 -15.53977900 9.43835400
-2.95737500 -16.15582700 9.41751100
-4.61412400 -16.15185900 7.47961400
-3.00408900 -16.73551200 7.44512900
-4.67577000 -16.72254000 5.50372300
-3.04838600 -17.24020400 5.45324700
-4.55669400 -16.64014800 3.46798700
-2.90462500 -17.14910500 3.44635000
-4.35470200 -16.22519100 1.49523900
-2.72071800 -16.79836300 1.47039800
-4.34818300 -16.22635700 -0.53018200
-2.68436800 -16.73528500 -0.55426000
-1.03130000 -17.33202400 -0.57830800
-2.60524400 -16.47668600 -2.55853300
-0.95147300 -17.11085700 -2.60043300
0.69810500 -17.77088500 -2.64102200
-0.70962500 -16.42841700 -4.48373400
1.00170100 -17.05990600 -4.52786300
-0.45823300 -15.61636900 -6.26684600
1.31101200 -16.27780200 -6.32833900
-0.23644600 -14.73950900 -7.96112100
1.60791400 -15.40159400 -8.00848400
-0.00627100 -13.70038000 -9.51425200
1.88931700 -14.40857700 -9.55917400
0.26098600 -12.46524000 -10.89495800
-1.87525200 -13.01552800 -9.47280900
-1.65482300 -11.74303100 -10.85421800
-1.37000700 -10.27353300 -12.00125100
-3.53018200 -11.00856400 -10.75085400
-3.31316000 -9.53646900 -11.93142700
-3.07615700 -7.96990600 -12.94616700
-1.06656600 -8.74582500 -13.03317300
-2.80913200 -6.32552000 -13.77127100
-0.71980300 -7.12583000 -13.83145100
-2.49065000 -4.64032600 -14.42587300
-0.33779900 -5.48372800 -14.46844500
-2.06959200 -2.90988200 -14.71890300
0.10541900 -3.76243200 -14.73461900
-1.59853400 -1.15803700 -14.47296100
0.54507400 -2.00521100 -14.50561500
-1.13010000 0.58450100 -13.87942500
0.97083700 -0.24012200 -13.94873000
-0.67493400 2.29911600 -13.06420900
1.40861100 1.46400600 -13.11984300
-0.23488600 3.93135600 -12.04077100
1.84389100 3.08148400 -12.10617100
0.17828000 5.45881100 -10.82910200
2.23615300 4.57138300 -10.86004600
0.52453200 6.83692400 -9.39157100
2.53179200 5.87928600 -9.35440100
0.72589100 7.92881200 -7.65789800
2.70589100 6.99851400 -7.63427700
4.66568000 6.07820700 -7.62115500
2.77217100 7.94457800 -5.74319500
4.70087100 7.06893000 -5.74740600
6.66741900 6.33663700 -5.82406600
4.71268100 8.02020100 -3.80758700
6.62983300 7.28713800 -3.87228400
8.54380000 6.63784200 -3.95474200
6.55674000 8.02182200 -1.80883800
8.43794300 7.42555800 -1.90063500
10.30145600 6.91464400 -1.98483300
4.66658800 8.71788600 -1.72729500
2.81105800 8.84977900 -3.76895100
2.78266900 9.52224900 -1.66897600
2.67398100 9.82884400 0.54019200
0.84747700 10.25214200 -1.59460400
0.74446100 10.54279500 0.64559900
0.58849700 10.47692700 2.90545700
-1.20328500 11.22768200 0.72729500
-1.37827700 11.11057900 3.02310200
-1.44060100 10.98325500 5.31601000
-3.32917000 11.84359200 3.06887800
-3.42608300 11.66995400 5.36996500
-3.41625600 11.49813700 7.65835600
-5.49770700 12.23620000 5.35961900
-5.49686400 12.23057700 7.64782700
-5.51202800 12.01026000 9.84948700
-7.63876000 12.96371700 7.59222400
-7.75796100 12.70903600 9.77984600
-7.94133800 12.17073600 11.82757600
-10.03511000 13.42544700 9.72433500
-10.29898100 12.80236600 11.75772100
-10.55494700 11.90384900 13.63876300
-12.67738300 13.46092400 11.70883200
-13.01099400 12.51056100 13.58456400
-13.28756000 11.37642900 15.29422000
-10.78717800 10.72710600 15.28253200
-13.56461300 9.88245200 16.65115400
-11.05470300 9.23825600 16.59866300
-13.82801100 8.20644200 17.75045800
-11.31663500 7.63416900 17.75082400
-14.05352800 6.42545900 18.67041000
-11.56080600 5.92859500 18.73403900
-14.22091700 4.52968800 19.36038200
-11.76983600 4.07895100 19.42697100
-14.29718000 2.55930500 19.87829600
-11.90820300 2.14032900 19.88061500
-14.28412600 0.51825900 20.14691200
-11.97567700 0.13192700 20.04666100
-14.18415800 -1.56625600 20.04226700
-11.97872200 -1.91437100 19.93588300
-14.02054600 -3.63927500 19.57934600
-11.92836800 -3.94611500 19.47866800
-13.82656900 -5.61035700 18.71627800
-11.84405500 -5.89299000 18.65603600
-13.64650700 -7.47202300 17.60955800
-11.75564600 -7.70687500 17.55670200
-13.47002400 -9.16362000 16.27108800
-11.65908800 -9.36737600 16.25000000
-13.27689400 -10.65369400 14.73608400
-11.53603400 -10.81588400 14.73049900
-13.07534000 -11.96782300 13.07904100
-11.39480600 -12.09248500 13.08499100
-12.88625300 -13.11332500 11.32849100
-11.25172400 -13.19586200 11.33660900
-9.59757200 -13.44174200 11.35946700
-11.13203400 -14.05463500 9.47940100
-9.50448600 -14.24927200 9.48715200
-7.86819100 -14.57907300 9.48614500
-9.44063900 -14.85356800 7.55026200
-7.84153400 -15.21998700 7.54943800
-6.22522400 -15.62333300 7.51675400
-7.83112000 -15.68240500 5.57321200
-6.24723400 -16.13595600 5.54336500
-7.71347400 -15.54651500 3.56253100
-6.11527300 -15.99037400 3.52896100
-7.58116100 -15.17957100 1.57800300
-5.94697200 -15.60432200 1.54391500
-7.57278100 -15.16738800 -0.43942300
-5.94062400 -15.58849400 -0.47976700
-7.55332900 -14.93117900 -2.43054200
-5.91317000 -15.37575400 -2.47634900
-4.28850900 -15.97239500 -2.53549200
-5.79222500 -14.68899300 -4.33429000
-4.11056100 -15.23253300 -4.38723800
-2.40977100 -15.79966700 -4.42923000
-3.95954100 -14.37787600 -6.15515100
-2.20866000 -14.95687600 -6.19970700
-3.85212300 -13.45065300 -7.85339400
-2.05528600 -14.08063800 -7.91033900
-3.71923400 -12.34971800 -9.41220100
-5.63147400 -12.87844100 -7.79577600
-5.53509100 -11.71853100 -9.33474700
-5.38294200 -10.32349400 -10.64398200
-7.32185700 -11.12739000 -9.24444600
-7.24465200 -9.77718900 -10.62942500
-7.15502500 -8.25960700 -11.82086200
-5.23206300 -8.83948300 -11.84228500
-7.06025300 -6.65491100 -12.85766600
-5.06939300 -7.25926800 -12.87841800
-6.91013300 -4.91978600 -13.62789900
-4.86329700 -5.56627700 -13.67376700
-6.69050600 -3.11802700 -14.17941300
-4.60959200 -3.83281900 -14.33361800
-6.37232200 -1.26519200 -14.46167000
-4.23952100 -2.04373200 -14.61398300
-5.91585900 0.56784200 -14.33297700
-3.75628700 -0.27760300 -14.42126500
-5.38594100 2.30980300 -13.76586900
-3.24392700 1.43676800 -13.80154400
-4.90450700 4.02070800 -13.00732400
-2.76850100 3.15445500 -13.02554300
-4.45728300 5.65132300 -12.01409900
-2.33016600 4.77897800 -11.99212600
-4.03440500 7.19620700 -10.82357800
-1.90030300 6.35071000 -10.83459500
-3.67783400 8.54022800 -9.35092200
-1.54979300 7.71356800 -9.38180500
