170.82653800 -438.26348900 -225.25549300
163.43454000 -439.15847800 -235.10546900
155.84753400 -438.23049900 -244.87048300
146.72851600 -438.14349400 -245.71649200
136.20752000 -438.58349600 -237.81250000
125.87051400 -437.28649900 -229.95752000
116.68353300 -438.12948600 -231.12152100
107.57553100 -437.60849000 -232.35351600
96.98352100 -438.63647500 -224.63848900
86.45752000 -440.56347700 -216.86450200
76.09552000 -438.17450000 -209.00952100
65.32351700 -438.65948500 -201.20648200
54.33651700 -438.97747800 -193.04046600
-164.24147000 -401.29950000 151.14648400
-162.11247300 -411.27249100 146.60150100
-160.19447300 -418.75949100 142.78747600
-149.41847200 -426.31250000 142.07550000
44.82452400 -439.34549000 -193.99450700
37.46652200 -439.38748200 -204.27252200
20.71853600 -437.98147600 -215.64752200
30.21551500 -438.43948400 -214.43548600
10.94653300 -437.25949100 -216.61248800
1.60653700 -439.16549700 -210.90649400
-8.57147200 -437.47747800 -214.46746800
-23.93847700 -435.06747400 -211.02349900
-26.00647000 -427.34448200 -206.16149900
-31.81646700 -415.04049700 -210.31451400
-31.42147800 -401.68447900 -216.92547600
-32.50045800 -396.01547200 -226.73449700
-36.38746600 -371.93148800 -233.14251700
-43.29147300 -359.07049600 -231.76251200
-53.61747700 -349.94247400 -228.23950200
-65.51147500 -343.51849400 -223.18750000
-33.98046900 -386.70449800 -232.02050800
-78.95646700 -342.93649300 -217.32348600
-91.34347500 -335.13647500 -214.49047900
-101.06947300 -322.81448400 -215.73950200
-108.59646600 -311.17749000 -219.07348600
-114.00347900 -304.77749600 -214.17248500
-120.24647500 -299.52249100 -208.99749800
-127.29347200 -295.69549600 -203.94049100
-131.45246900 -288.89648400 -199.30346700
-136.47047400 -282.04348800 -194.62548800
-142.58447300 -275.26647900 -189.91449000
-142.54946900 -272.05447400 -177.79046600
-134.43447900 -265.78949000 -171.17450000
-134.24746700 -258.34649700 -171.72247300
-129.93847700 -250.58447300 -176.41351300
-117.08647200 -246.13949600 -179.16247600
-106.56347700 -242.19247400 -184.26446500
-96.91346700 -237.89047200 -189.62152100
-86.99546800 -233.57449300 -194.84149200
-76.86348000 -228.73748800 -200.31951900
-67.62046800 -223.20050000 -206.31646700
-59.25447100 -216.51547200 -211.90649400
-51.85047900 -209.03848300 -217.42950400
-45.52146900 -200.55848700 -222.59649700
-39.93046600 -191.68948400 -228.39550800
-33.79147300 -182.30848700 -233.45050000
-26.43847700 -172.49649000 -237.98449700
-18.52047700 -162.28749100 -242.53851300
-11.23345900 -151.83049000 -246.65747100
-4.55447400 -141.00549300 -249.89050300
1.79254200 -129.88848900 -252.71447800
247.01953100 -375.99649000 -295.08349600
237.47052000 -385.21548500 -294.76647900
228.34851100 -385.03747600 -292.13452100
219.55651900 -384.72348000 -288.49450700
211.14953600 -393.35849000 -283.25048800
204.81051600 -401.59848000 -275.25451700
198.40853900 -410.26049800 -267.81451400
196.13351400 -418.28250100 -257.99249300
195.40853900 -426.55850200 -248.39147900
193.27252200 -435.93847700 -239.26550300
339.35150100 -497.48049900 -175.01049800
339.17852800 -490.94851700 -183.88049300
338.76355000 -481.42251600 -192.53747600
338.55450400 -472.01547200 -201.25549300
338.04052700 -462.78048700 -210.04150400
337.40753200 -453.63549800 -218.90948500
336.49450700 -445.21649200 -227.77648900
329.88452100 -440.12548800 -235.89251700
327.83154300 -440.66348300 -244.21350100
325.93353300 -441.09549000 -252.50952100
314.95251500 -439.48849500 -258.35546900
310.83953900 -430.91247600 -267.16149900
307.55651900 -421.94949300 -274.95550500
301.71551500 -412.89648400 -282.11547900
293.02453600 -412.76449600 -285.62451200
284.23553500 -412.92050200 -289.14752200
275.33654800 -403.84249900 -292.73150600
265.91650400 -394.67450000 -294.76147500
256.44751000 -385.34948700 -296.18048100
342.70855700 -457.71948200 -87.54248000
342.39154100 -467.16946400 -97.58947800
341.68450900 -476.16348300 -107.66149900
340.81353800 -484.91445900 -117.71148700
340.70953400 -493.63247700 -127.73150600
340.38055400 -499.30050700 -137.54248000
5.39453100 -109.56948900 -254.64849900
11.17053200 -98.17749000 -255.23046900
8.56253100 -89.06848100 -254.72650100
11.81753500 -71.17948900 -260.52850300
17.46054100 -62.34148400 -267.02252200
23.85351600 -51.12048300 -267.21649200
6.20053100 -79.95248400 -254.08447300
29.89553800 -39.78749100 -266.42047100
30.18054200 -34.04229000 -259.66351300
34.97253400 -10.18738600 -252.05346700
33.66452000 -1.73748800 -252.06347700
41.46353100 7.49561300 -251.79150400
49.76052900 16.95841200 -251.52148400
57.78253200 27.27011300 -253.53051800
66.25952100 37.73461200 -254.87152100
37.39352400 -18.71148700 -251.30346700
30.47552500 -28.33519000 -252.48248300
75.69851700 47.40159200 -255.54046600
85.23751800 56.85076100 -256.75347900
94.74151600 66.21111300 -257.82647700
-0.57147200 -121.02648900 -253.15850800
347.23455800 458.56750500 -17.93450900
336.03253200 465.11352500 -20.19952400
325.55853300 470.26651000 -20.79650900
319.61151100 473.78851300 -17.34051500
313.20855700 475.89849900 -20.03747600
301.82653800 479.54751600 -23.55450400
289.28155500 482.62951700 -26.71350100
281.51251200 486.02349900 -22.49749800
278.35650600 489.33252000 -10.40350300
275.26355000 491.17550700 2.01251200
272.46350100 492.57251000 14.53149400
269.91149900 493.34851100 27.16552700
262.54553200 494.14151000 32.36651600
255.25653100 494.78552200 37.55950900
253.01654100 497.64950600 49.99047900
245.59350600 498.59851100 55.18048100
243.67651400 499.49050900 68.57751500
225.57550000 491.59552000 71.76953100
232.16552700 494.28250100 66.42950400
218.81753500 489.96951300 77.21948200
206.68454000 488.39752200 75.35449200
194.59854100 486.23550400 73.62951700
182.94152800 482.48852500 71.79449500
171.81152300 477.55950900 69.95550500
166.35351600 476.77652000 63.23950200
166.82052600 479.20550500 51.04150400
161.60852100 477.15652500 44.24151600
156.36651600 474.83950800 37.48352100
157.31253100 475.19250500 24.75250200
143.18951400 464.16952500 4.81152300
158.60952800 474.93951400 11.92450000
153.77151500 471.49850500 5.18048100
144.78051800 463.14752200 -7.93347200
140.85751300 458.07251000 -14.20550500
137.08154300 452.74350000 -20.32251000
139.66153000 450.07751500 -32.42150900
142.76254300 446.52050800 -44.00250200
139.56854200 440.09951800 -49.46350100
136.44152800 433.72250400 -54.83752400
139.34951800 430.29452500 -66.40747100
142.83953900 426.12350500 -77.78552200
143.59051500 425.05352800 -90.90747100
145.43454000 422.53051800 -104.55047600
148.73153700 406.96252400 -119.30548100
155.17251600 398.22351100 -128.06347700
162.46054100 389.24252300 -134.51348900
167.64553800 383.84249900 -145.53448500
173.32052600 377.44851700 -156.22747800
179.64651500 369.23150600 -164.74047900
186.47552500 359.46652200 -170.46051000
193.57153300 350.11151100 -175.58648700
149.98654200 416.32949800 -116.34149200
95.37753300 75.55551100 -256.32946800
95.88552900 85.03111300 -255.72448700
96.81753500 94.39541600 -254.05151400
106.22851600 103.79071000 -254.88348400
115.47851600 113.53121200 -255.44451900
116.25152600 122.87121600 -253.02050800
117.88653600 149.86282300 -248.77850300
110.27453600 158.84152200 -243.33148200
111.24453700 167.61351000 -240.49047900
121.69653300 184.91851800 -238.11651600
131.60253900 193.22651700 -238.21148700
141.72253400 201.36550900 -237.83648700
152.11352500 209.21551500 -236.61749300
153.59252900 217.68650800 -233.17047100
112.13153100 176.44052100 -237.71948200
108.50354000 141.12661700 -248.30151400
107.85952800 132.06790200 -250.27948000
202.83352700 348.75351000 -176.40051300
195.42953500 357.72750900 -171.41650400
197.59252900 364.69149800 -166.31951900
209.40753200 368.98049900 -161.77746600
220.14752200 376.59451300 -160.56451400
222.00952100 383.02551300 -155.06750500
224.01751700 388.59451300 -148.68048100
234.64154100 393.99652100 -145.00750700
245.42852800 399.07949800 -141.36450200
256.37554900 403.60452300 -137.58850100
267.17651400 408.64651500 -134.48248300
278.57354700 413.82751500 -131.80749500
289.80255100 417.07052600 -125.97552500
299.52954100 419.17352300 -119.51550300
305.28552200 422.69451900 -111.63147000
312.69555700 425.86050400 -102.72747800
324.16650400 427.90951500 -95.20446800
335.23852500 433.64550800 -97.08148200
344.36950700 440.61950700 -100.83252000
352.95953400 439.91250600 -103.83148200
361.80151400 439.55050700 -106.77648900
370.43652300 449.69650300 -111.11651600
379.45752000 461.36251800 -108.01849400
381.43750000 470.07650800 -92.65850800
385.41754200 464.27252200 -85.05346700
382.97955300 462.66351300 -73.08050500
378.65551800 455.60751300 -62.53350800
373.37554900 448.10250900 -52.30047600
368.27551300 440.82852200 -42.04748500
364.95550500 438.14352400 -29.15350300
356.19751000 446.23150600 -29.72351100
351.99353000 452.59350600 -23.97851600
144.65652500 218.23851000 -230.66949500
134.33453400 210.18751500 -231.22747800
124.14352400 202.07151800 -231.46051000
114.17251600 193.78150900 -231.26348900
104.55651900 185.32850600 -230.77948000
96.25753800 176.55850200 -230.06048600
89.11554000 176.58551000 -226.25952100
83.52551300 175.89451600 -223.45050000
75.61352500 167.92752100 -222.09051500
73.36154200 159.45251500 -225.08447300
71.41754200 150.82141100 -227.81951900
62.28152500 142.31970200 -225.95251500
52.91851800 133.89621000 -223.85351600
43.67053200 125.34721400 -221.18450900
33.93151900 117.13600900 -219.00451700
24.22052000 109.00721700 -216.69348100
14.69552600 100.92991600 -214.34948700
5.05151400 93.07101400 -212.41949500
-2.04147300 93.41230800 -206.61450200
-12.27346800 86.54921000 -205.46746800
-22.05947900 80.38011200 -203.23547400
-31.22946200 74.12181100 -201.04852300
-39.92947400 66.76351200 -199.92150900
-48.83947800 58.86581400 -199.39349400
-58.43147300 50.51906600 -198.94751000
-68.68946800 41.37403100 -198.50146500
-79.80047600 32.50751500 -197.60546900
-83.12147500 38.63321300 -191.16449000
-91.93447900 41.09391400 -182.43347200
-101.84547400 41.99287400 -172.55346700
-110.89747600 41.80466500 -162.74249300
-119.46447800 41.36650100 -153.11047400
-126.44047500 42.20239300 -144.95648200
-131.84046900 39.96491200 -143.54950000
-139.36247300 36.67751300 -142.70849600
-147.35347000 37.70381200 -134.10546900
-155.42347700 38.10851300 -125.10949700
-163.33847000 38.73711400 -115.90148900
-170.86047400 39.25351300 -106.47247300
-178.02346800 40.21551500 -97.13647500
-184.78646900 41.00011400 -88.72351100
-192.18817100 40.47911100 -87.09448200
-201.73077400 40.99891300 -86.06451400
-206.81657400 47.00023300 -78.59051500
-209.48497000 54.86293400 -70.23449700
-210.14218100 64.63491100 -61.66449000
-210.01248200 74.08671600 -52.55847200
-211.93367000 82.04421200 -42.66052200
-215.36618000 89.25621000 -32.15649400
-216.22287000 97.46111300 -21.29547100
-219.35217300 95.39811700 -12.00250200
-223.76797500 93.06571200 -4.06451400
-229.15367100 90.49990800 3.13452100
-237.25047300 87.21941400 8.35150100
-240.33557100 76.18241100 14.48748800
-236.75917100 70.56150800 24.65051300
-231.68826300 69.48231500 35.68151900
-226.22897300 70.33541100 46.61151100
-223.51387000 70.94711300 58.70849600
-225.11688200 71.10581200 71.39947500
-230.72708100 71.45171400 82.86749300
-237.55467200 72.08361100 93.20752000
-244.26446500 72.86531100 102.84753400
-251.18406700 72.71741500 112.67547600
-253.17916900 76.05041500 124.22552500
-257.55377200 78.40581500 135.25952100
-262.77548200 80.79401400 146.08453400
-264.27258300 74.71301300 151.75653100
-267.65008500 68.94111600 154.65051300
-267.48596200 56.60153200 154.30047600
-269.70047000 44.97159200 151.97851600
-272.32858300 32.62881500 150.89050300
-275.93756100 21.05471200 148.21850600
-283.13293500 15.67351200 150.78149400
-283.12875400 10.62581300 159.34350600
-285.33877600 -3.06238600 160.24853500
-288.33050500 -16.05138400 159.33551000
-293.00116000 -28.39708700 155.87951700
-299.05789200 -37.69809000 147.97149700
-304.48577900 -45.01378600 138.89752200
-311.34835800 -45.37848700 137.10949700
-317.56936600 -53.70848800 132.25250200
-318.65396100 -71.82448600 127.20648200
-318.14456200 -84.83448800 122.09350600
-320.38238500 -99.49848900 106.68750000
-321.67617800 -102.14949000 93.49951200
-321.31378200 -101.37448100 80.52752700
-322.44397000 -110.75248700 70.55749500
-321.09857200 -118.76448100 73.52349900
-323.24536100 -63.58248900 129.99151600
-320.10537700 -126.72848500 77.67749000
-326.43808000 -138.66148400 78.48852500
-325.10437000 -146.37248200 82.47949200
-323.42767300 -154.07048000 86.34448200
-329.11328100 -165.81648300 86.59350600
-326.98666400 -173.56948900 90.31848100
-324.35507200 -181.36848400 93.51647900
-329.72946200 -193.30249000 93.94549600
-326.64346300 -201.06448400 97.04052700
-323.17257700 -208.78848300 99.84552000
-327.70837400 -220.81448400 99.93548600
-331.37936400 -233.07348600 98.95251500
-326.79837000 -240.39047200 100.70147700
-314.35278300 -241.60647600 102.99548300
-315.86697400 -254.58248900 101.81048600
-316.11868300 -267.91949500 101.06652800
-313.77026400 -280.24148600 96.15051300
-309.91128500 -291.22949200 89.47448700
-308.77487200 -303.51449600 86.44848600
-309.89117400 -316.14047200 87.68750000
-304.26947000 -330.98547400 90.62951700
-311.01165800 -327.87747200 88.58850100
-299.11911000 -336.78949000 92.04852300
-294.75439500 -344.00247200 93.46752900
-290.36523400 -351.28347800 95.70147700
-286.00280800 -358.84848000 97.70050000
-281.85125700 -366.85348500 99.14349400
-269.98547400 -371.44348100 102.06848100
-258.36727900 -376.59347500 104.60748300
-245.41976900 -382.49649000 107.76251200
-236.40747100 -378.97949200 108.94653300
-228.23277300 -383.09249900 111.34252900
-215.48606900 -386.59048500 127.16351300
-218.77096600 -388.85849000 119.21051000
-211.80316200 -384.85647600 135.51348900
-202.02966300 -389.54449500 143.84448200
-190.89047200 -393.16247600 150.04950000
-178.49147000 -396.89849900 152.10553000
-155.90747100 -444.02648900 142.38653600
-157.11547900 -435.34249900 142.62652600
-154.73147600 -453.00549300 142.58148200
-144.57746900 -460.85751300 141.59051500
-134.47447200 -468.70651200 140.59753400
-124.50247200 -476.75949100 140.67053200
-114.72747800 -485.00747700 140.60351600
-105.41346700 -490.40951500 140.34851100
343.88452100 -501.79147300 -41.09649700
343.86352500 -495.80246000 -50.54449500
343.10351600 -486.60647600 -59.88452100
343.10150100 -477.24246200 -69.15448000
342.82153300 -467.58847000 -78.31750500
184.02352900 -437.12649500 -241.37152100
172.58252000 -437.61248800 -234.17950400
165.05752600 -438.08749400 -244.08947800
157.48553500 -438.59048500 -253.79852300
148.25451700 -438.79049700 -254.53949000
137.65454100 -437.99548300 -246.64849900
127.17752100 -437.65548700 -238.88250700
118.10351600 -437.61947600 -240.09448200
109.04052700 -437.77047700 -241.38751200
98.49054000 -437.86749300 -233.67950400
87.94052100 -439.66949500 -225.99951200
77.53152500 -438.50048800 -218.08551000
66.92453000 -438.83148200 -210.24749800
56.05053700 -438.92547600 -202.35247800
-173.66447400 -406.51849400 152.19348100
-170.72946200 -414.99649000 147.69348100
-168.12547300 -420.62948600 143.81951900
-158.44247400 -427.07550000 141.70452900
46.76351900 -438.12249800 -203.24749800
39.50753800 -438.15649400 -213.20648200
32.22354100 -437.95748900 -223.15850800
22.94552600 -437.64047200 -223.88549800
13.44451900 -438.06747400 -224.37249800
1.08853100 -438.03250100 -216.53552200
-18.48846400 -438.59347500 -219.10650600
-30.48446700 -431.13348400 -217.45752000
-31.11547900 -423.29248000 -213.50451700
-34.28448500 -410.70147700 -218.84747300
-36.82247900 -406.32849100 -227.62249800
-37.91546600 -379.13049300 -238.12847900
-42.85347000 -365.56448400 -239.50451700
-52.02346800 -355.06747400 -236.78149400
-62.66247600 -346.84448200 -232.57751500
-75.35946700 -342.82647700 -226.47650100
-37.41047700 -395.83447300 -235.12249800
-36.49346900 -389.72149700 -236.10052500
-89.16247600 -342.89450100 -220.38946500
-95.49847400 -328.82147200 -220.94952400
-106.23747300 -319.30850200 -223.30047600
-117.01347400 -300.68350200 -222.26647900
-112.44447300 -307.53747600 -227.08252000
-124.17446900 -297.07348600 -216.97448700
-130.78947400 -293.22549400 -211.85449200
-134.40847800 -285.87448100 -207.44751000
-140.00447100 -279.46649200 -202.55847200
-146.10347000 -272.59249900 -197.58447300
-146.64247100 -265.34549000 -184.68847700
-141.87147500 -265.76147500 -174.32147200
-141.04447900 -259.36450200 -178.41052200
-136.99847400 -252.55947900 -182.95349100
-124.75947600 -244.42349200 -182.27148400
-113.49447600 -239.25048800 -184.74346900
-103.83548000 -234.92648300 -189.49151600
-94.47647100 -230.45050000 -194.03747600
-84.94047500 -226.45849600 -199.51446500
-75.62646500 -221.57949800 -205.00048800
-67.18547100 -215.63247700 -210.41650400
-59.57247900 -208.76348900 -215.55847200
-53.22247300 -201.26748700 -220.94848600
-47.73347500 -192.68849200 -226.09149200
-41.94346600 -183.29048200 -231.09350600
-35.31048600 -173.74148600 -235.99847400
-27.87146000 -163.93248000 -240.57647700
-20.28347800 -153.63449100 -244.35351600
-13.34146100 -143.14749100 -247.93347200
-6.81048600 -132.26849400 -250.79547100
246.88549800 -385.30850200 -296.20550500
237.22253400 -394.54950000 -295.21252400
228.00054900 -394.32247900 -292.44451900
219.76852400 -393.89749100 -287.51849400
211.90753200 -402.30047600 -281.46252400
204.89953600 -410.71749900 -274.41546600
200.59552000 -418.93548600 -265.81048600
198.22851600 -427.08047500 -256.76550300
194.98953200 -435.97448700 -248.08148200
339.01654100 -497.04946900 -184.25848400
338.82354700 -490.56350700 -193.04950000
338.57751500 -481.12051400 -201.68652300
338.06250000 -471.78750600 -210.36651600
337.67352300 -462.56246900 -219.12152100
336.85455300 -453.35849000 -227.90350300
335.88153100 -444.66748000 -236.65551800
334.29553200 -444.53448500 -245.27746600
333.67950400 -443.97149700 -253.93249500
323.89953600 -441.33749400 -260.93750000
311.97851600 -440.94949300 -267.05151400
304.73553500 -431.92749000 -272.00848400
300.24554400 -421.89947500 -279.88848900
292.01953100 -421.82049600 -283.63946500
283.43450900 -421.85949700 -286.69348100
275.06652800 -413.09347500 -291.76550300
265.85052500 -403.96847500 -294.41449000
256.39953600 -394.73547400 -296.17846700
342.62054400 -467.40249600 -87.93750000
341.89752200 -476.54849200 -98.07647700
341.39154100 -485.38546800 -108.22149700
340.97351100 -494.08047500 -118.26947000
340.61853000 -499.73147600 -128.10650600
-2.90246600 -112.08648700 -252.99450700
2.88052400 -100.48248300 -253.95947300
0.25851400 -91.13249200 -253.35052500
3.70452900 -70.37348900 -255.13647500
8.55651900 -63.42448400 -265.11749300
15.53952000 -52.98748800 -264.81848100
22.07653800 -42.06978600 -263.80450400
-2.14047200 -82.04548600 -252.54650900
21.33352700 -33.68689000 -259.42950400
26.96252400 -11.19338600 -249.90850800
25.62454200 -2.24758500 -249.26049800
32.90652500 7.20201100 -250.84350600
40.86352500 16.71071200 -251.77050800
48.93353300 27.31831400 -250.31750500
57.14053300 38.23451200 -251.26849400
66.34951800 47.93601200 -253.26751700
28.76052900 -19.69519000 -250.43151900
21.00753800 -27.90689100 -252.87048300
76.16552700 57.16672100 -254.16949500
85.71252400 66.38361400 -255.56750500
-8.96048000 -123.44348100 -250.99548300
340.98553500 460.19149800 -24.84948700
328.65954600 466.70150800 -26.93347200
319.56250000 471.99450700 -23.62347400
310.14654500 474.79351800 -27.47052000
297.06353800 478.88452100 -30.85852100
284.67950400 481.70852700 -34.24346900
276.79650900 484.59350600 -30.01751700
273.60754400 488.54852300 -18.01751700
270.47052000 491.12350500 -5.60650600
267.56451400 492.72750900 6.95452900
264.90954600 493.50851400 19.61151100
257.45153800 494.35952800 24.76348900
250.07452400 494.85549900 30.01550300
248.10150100 494.54650900 42.85351600
240.89050300 494.77050800 48.13549800
238.45654300 497.63952600 60.75653100
226.91650400 492.86151100 58.95251500
220.04153400 491.87551900 64.44152800
213.29852300 490.38052400 69.91052200
201.08554100 488.71652200 68.15948500
189.07254000 485.94250500 66.47851600
177.41052200 482.08050500 64.85650600
172.04653900 480.92352300 57.91351300
167.56253100 480.51950100 38.46350100
172.82052600 482.57150300 45.39050300
162.26254300 478.27551300 31.57952900
163.46652200 478.25952100 18.73748800
149.13052400 467.58950800 -1.45251500
160.18753100 474.28952000 -0.92749000
164.97152700 477.82150300 5.84350600
151.03952000 466.15850800 -14.11846900
146.79452500 461.44952400 -20.51049800
143.01852400 456.03649900 -26.62451200
146.07351700 452.69751000 -38.41351300
149.27053800 448.88052400 -49.85949700
145.97653200 442.55252100 -55.37750200
142.89053300 436.07251000 -60.72949200
146.59652700 431.57351700 -71.85247800
148.36651600 429.51351900 -84.39147900
149.95352200 427.86450200 -97.66650400
153.63552900 423.06750500 -110.17749000
156.61053500 407.27652000 -124.63647500
163.67953500 397.86050400 -131.57647700
170.58252000 388.84249900 -138.20147700
176.38552900 381.68350200 -147.81549100
182.31652800 376.06152300 -158.55548100
188.72552500 366.78051800 -165.43048100
158.73053000 415.88052400 -120.61547900
86.39352400 75.82201400 -254.25750700
87.26052900 85.21581300 -252.80749500
88.25952100 94.64080800 -251.32348600
97.70852700 103.75411200 -252.35052500
106.92251600 113.25681300 -252.97052000
107.51153600 122.67261500 -251.13751200
109.36752300 150.01022300 -245.88049300
102.26452600 158.89851400 -239.84350600
103.15652500 167.76751700 -237.08648700
113.00152600 185.25151100 -234.83148200
122.82852200 193.56150800 -234.94647200
132.91552700 201.73451200 -234.79748500
143.11953700 209.84451300 -234.35949700
103.99752800 176.58450300 -234.14752200
99.47052000 131.95201100 -247.59649700
100.25552400 141.09841900 -245.29351800
200.05752600 370.02450600 -159.39849900
211.71353100 375.45651200 -156.26049800
213.91754200 382.13052400 -150.74047900
215.54452500 389.58551000 -146.06750500
225.89154100 395.96551500 -143.90448000
236.75451700 402.11950700 -141.41949500
247.74450700 406.42550700 -136.65350300
258.98950200 410.83950800 -132.63348400
270.24652100 416.89050300 -131.11846900
281.92450000 420.70752000 -126.31646700
293.57550000 423.28851300 -120.13348400
300.54553200 423.68051100 -114.37646500
302.76751700 430.44552600 -106.35247800
314.69854700 431.02752700 -95.72747800
326.77349900 435.51049800 -94.34051500
335.92852800 441.50851400 -97.62347400
344.56054700 449.31851200 -100.70849600
352.77349900 449.15451000 -104.48950200
361.23352100 449.03851300 -108.28247100
369.68353300 459.44052100 -109.16949500
376.27154500 466.94952400 -105.51446500
379.93951400 470.63650500 -97.86651600
378.20752000 465.44851700 -79.87646500
374.91052200 467.33950800 -86.49847400
378.23553500 471.85052500 -93.38647500
374.18450900 460.12252800 -68.97149700
369.43054200 453.35452300 -58.30249000
364.65753200 446.18551600 -48.05548100
360.25750700 440.24151600 -36.26446500
350.59350600 448.00552400 -36.23748800
345.85650600 454.22650100 -30.47949200
88.40353400 168.04351800 -230.12451200
95.54751600 167.89950600 -233.59851100
81.97552500 168.01051300 -226.27050800
80.34051500 159.31251500 -229.08648700
78.80554200 150.54951500 -231.78851300
69.74151600 142.14471400 -230.51251200
60.57452400 133.69371000 -228.58551000
51.23251300 125.27811400 -226.38250700
41.76953100 116.89061000 -224.02948000
32.19653300 108.58931000 -221.67150900
22.46353100 100.49061600 -219.52648900
12.73153700 92.52941100 -217.60449200
-4.79547100 85.19541200 -210.84051500
2.96453900 84.38651300 -215.92749000
-15.14846800 79.40090900 -208.28448500
-24.47647100 74.23391700 -205.83551000
-32.85348500 67.23041500 -204.82251000
-41.90547200 59.50480300 -204.09448200
-50.86447100 51.01915000 -203.26647900
-60.54447900 42.04639400 -202.82348600
-70.58047500 32.58821100 -202.69146700
-89.61547900 27.34481200 -195.38848900
-90.68246500 34.63001300 -189.42150900
-100.67047100 36.57531400 -180.14349400
-109.97346500 37.35571300 -170.76647900
-118.60847500 37.37461100 -161.25048800
-125.95147700 37.97301500 -152.06347700
-132.41746500 34.71981000 -150.99847400
-140.19947800 31.78381300 -150.25750700
-147.95347600 33.40281300 -141.94952400
-155.89547700 34.29731400 -133.22351100
-163.85946700 35.35741400 -124.25549300
-171.49647500 36.26401500 -114.91052200
-178.90847800 37.41561100 -105.39648400
-185.83047500 38.47511300 -95.97552500
-194.37017800 38.26631200 -94.90246600
-203.89056400 39.04851500 -93.72052000
-212.23877000 41.47572300 -84.17651400
-212.83287000 53.37609100 -79.52252200
-213.80297900 63.07161300 -70.88946500
-214.41397100 72.53671300 -61.68951400
-213.88226300 82.13410900 -52.74047900
-215.32226600 90.26110800 -42.69549600
-218.56796300 97.70591700 -31.82147200
-221.81616200 104.48111000 -11.50952100
-219.60357700 106.16790800 -21.08252000
-226.63707000 102.11531100 -3.58551000
-231.80746500 99.63421600 4.36450200
-240.04527300 96.32621800 10.39147900
-243.57586700 84.94480900 14.89453100
-242.12667800 77.13081400 22.81451400
-234.66537500 76.32551600 30.75750700
-230.88166800 76.04421200 41.66748000
-225.13667300 77.33761600 52.44751000
-223.96426400 77.69701400 65.11248800
-227.36596700 77.83961500 77.37951700
-233.15197800 78.33750900 88.51953100
-240.43267800 78.91491700 98.43548600
-249.75796500 78.73521400 106.35247800
-256.98217800 78.03530900 116.29553200
-260.48178100 80.81771100 127.41949500
-264.11868300 84.76731100 138.39947500
-270.97876000 80.42111200 155.12548800
-270.71325700 85.62251300 149.06152300
-273.77496300 74.62981400 157.11450200
-271.32946800 63.43231200 157.90350300
-272.47448700 51.30571000 157.72747800
-275.89688100 39.94801300 154.86950700
-279.85708600 28.31271400 151.08752400
-286.21722400 22.90941200 155.13049300
-288.13021900 17.73831200 162.65850800
-288.71148700 4.56621200 164.72949200
-291.23696900 -8.47278600 164.48053000
-296.42605600 -20.86388400 161.12451200
-302.54415900 -29.95639000 152.60553000
-307.45596300 -38.88948800 145.45953400
-312.13766500 -38.93528700 142.09149200
-317.46856700 -47.83128400 138.75451700
-325.60678100 -55.32848400 133.38549800
-326.35406500 -77.53349300 129.14849900
-323.14437900 -93.35449200 117.16052200
-322.71536300 -87.87348900 121.71148700
-327.89196800 -97.14147900 111.68249500
-328.09668000 -101.29148900 99.82647700
-328.11908000 -100.65448000 86.23449700
-327.16976900 -102.95549000 72.87951700
-328.37088000 -123.29649400 70.34649700
-329.50958300 -115.36749300 66.77148400
-331.02267500 -65.92948900 132.01153600
-327.38797000 -130.96348600 74.31152300
-333.94958500 -142.45349100 75.03350800
-332.57327300 -150.21948200 78.87847900
-330.93637100 -158.05249000 82.68951400
-334.81857300 -177.67749000 86.88250700
-336.99548300 -169.71048000 83.24353000
-332.29098500 -185.61448700 90.24151600
-338.34036300 -197.20549000 92.17248500
-335.24218800 -205.14648400 95.36450200
-331.74728400 -213.00347900 98.09149200
-335.87835700 -225.38348400 97.56750500
-339.15216100 -238.09347500 96.78851300
-333.87606800 -245.72549400 97.75653100
-321.65856900 -247.48449700 101.52752700
-322.47695900 -260.68847700 100.19250500
-320.63305700 -273.34149200 95.63653600
-316.63736000 -284.51449600 88.82348600
-314.56506300 -296.88848900 84.58850100
-315.09338400 -309.55349700 85.54553200
-316.34988400 -322.98248300 86.86651600
-310.47546400 -332.26849400 88.97552500
-306.48757900 -333.76449600 90.11450200
-304.25796500 -338.23449700 91.29950000
-303.06655900 -345.47650100 92.36248800
-297.89938400 -354.47650100 94.85650600
-293.75805700 -362.21649200 96.32952900
-289.99957300 -370.03848300 98.72747800
-278.05557300 -375.19348100 100.57348600
-266.48468000 -380.47448700 103.60052500
-255.09626800 -386.51647900 106.26049800
-236.13357500 -384.60348500 109.95452900
-224.32597400 -391.37249800 112.71551500
-214.14727800 -397.36547900 119.81152300
-211.28576700 -394.92849700 128.49353000
-206.31256100 -392.07247900 136.05950900
-196.73786900 -396.99948100 143.62048300
-186.56347700 -401.99148600 150.43249500
-166.15747100 -435.93750000 142.68951400
-164.90947000 -445.05850200 142.56750500
-163.73046900 -454.15750100 142.42248500
-153.56547500 -462.14151000 142.29248000
-143.40747100 -470.00650000 141.35150100
-133.33747900 -477.90951500 139.82849100
-123.41647300 -485.95547500 140.66247600
-114.04246500 -491.12649500 140.65948500
343.63549800 -501.88650500 -50.66650400
343.12152100 -495.79049700 -60.15948500
343.23352100 -486.51651000 -69.50750700
342.36053500 -477.06149300 -78.72448700
186.12753300 -437.12048300 -250.00048800
174.48953200 -438.24447600 -243.01647900
166.80853300 -438.43350200 -253.03949000
159.00753800 -438.91348300 -262.69146700
149.67453000 -439.08648700 -263.26550300
139.09353600 -438.80148300 -255.37451200
128.59252900 -438.10748300 -247.71649200
119.52853400 -438.27349900 -248.93847700
110.49054000 -438.14749100 -250.42352300
99.97451800 -437.75448600 -242.90850800
89.46551500 -437.50448600 -235.22247300
79.00851400 -438.11850000 -227.25647000
68.52551300 -438.53549200 -219.29150400
57.74151600 -437.96847500 -211.42248500
-182.42247000 -411.31848100 149.59350600
-178.40847800 -418.97247300 147.40148900
-174.46246300 -422.94149800 144.63751200
-167.48248300 -427.31250000 140.48150600
48.64953600 -437.60449200 -212.29248000
41.35052500 -437.97348000 -222.13946500
25.08252000 -438.55947900 -232.87548800
34.11554000 -437.78149400 -232.12048300
15.92053200 -437.36850000 -233.28051800
4.01751700 -437.50650000 -225.04650900
-5.21646100 -437.29049700 -225.05847200
-27.08548000 -436.90649400 -223.95349100
-14.16845700 -436.69049100 -228.09149200
-36.16947900 -427.00747700 -223.82751500
-35.91847200 -419.19647200 -220.86151100
-40.99847400 -415.03048700 -227.72949200
-41.49946600 -404.26748700 -235.58648700
-40.49147000 -386.39849900 -240.68347200
-44.50947600 -373.66348300 -244.46948200
-52.06246900 -362.07049600 -243.87951700
-61.34347500 -352.74447600 -240.88049300
-72.79747000 -346.33749400 -235.47650100
-84.37147500 -345.06149300 -228.62152100
-43.87947100 -393.59848000 -242.45849600
-93.52247600 -336.33148200 -226.54351800
-99.49447600 -323.26748700 -228.26147500
-109.82647700 -315.14547700 -231.18847700
-117.36547900 -304.80648800 -235.15551800
-122.70347600 -298.95349100 -230.09149200
-128.95747400 -294.94647200 -224.61950700
-135.12947100 -291.16049200 -219.31549100
-139.12147500 -284.07348600 -215.06549100
-144.73747300 -277.89749100 -209.98248300
-150.56147800 -271.25747700 -204.86749300
-151.62446600 -264.93548600 -194.12152100
-142.43447900 -255.02447500 -189.92047100
-130.20446800 -246.76547200 -188.80749500
-120.36447100 -237.96148700 -187.99548300
-110.21946700 -231.57147200 -189.42846700
-101.21247900 -227.31048600 -193.72552500
-92.38247700 -223.40347300 -198.72247300
-83.33247400 -219.41247600 -204.01251200
-74.60447700 -214.29348800 -209.10852100
-66.77647400 -207.83047500 -213.41149900
-60.53646900 -200.73548900 -218.31848100
-55.47747800 -193.34948700 -223.96350100
-49.98046900 -184.31149300 -228.63647500
-43.71147200 -174.63049300 -233.51849400
-36.77146900 -165.16348300 -238.45446800
-29.37146000 -155.23648100 -242.44250500
-22.22045900 -145.01448100 -246.01947000
-15.39447000 -134.40849300 -248.67150900
246.79553200 -394.69149800 -296.11547900
237.07055700 -403.96350100 -294.77648900
227.75451700 -403.67050200 -292.09350600
219.07553100 -403.15048200 -287.82348600
211.25051900 -411.63549800 -281.27948000
206.32751500 -419.74350000 -272.60852100
202.89651500 -428.14248700 -264.63250700
196.91552700 -435.94448900 -256.67047100
338.79150400 -496.65548700 -193.39050300
338.57251000 -490.22146600 -202.15350300
337.94354200 -480.83847000 -210.75952100
337.63354500 -471.53646900 -219.42846700
336.98950200 -462.29946900 -228.12548800
336.14849900 -453.01950100 -236.80950900
335.00653100 -452.72747800 -245.63848900
335.25054900 -452.43148800 -254.54748500
332.64654500 -443.52648900 -262.64050300
321.55151400 -442.09347500 -269.54852300
309.54754600 -441.55749500 -275.93652300
298.83050500 -431.27847300 -276.62451200
291.01654100 -430.78149400 -280.67248500
282.72253400 -430.72448700 -283.86651600
274.53051800 -422.05148300 -289.23950200
265.69354200 -413.26248200 -293.51049800
256.31652800 -404.08447300 -295.68450900
342.39550800 -476.84048500 -88.41449000
341.56054700 -485.80349700 -98.63348400
341.07452400 -494.56448400 -108.77648900
340.64953600 -500.18948400 -118.62750200
-11.15747100 -114.58148200 -251.12646500
-5.32647700 -102.94049100 -252.59149200
-7.61947600 -93.68348700 -251.01849400
-4.89047200 -72.03348500 -252.64349400
0.58252000 -64.09848800 -261.25647000
6.90652500 -54.02148400 -262.91247600
13.76254300 -43.71988700 -261.48846400
-10.10247800 -84.59549000 -250.30249000
12.44552600 -34.97538800 -257.65350300
18.18551600 -11.52858700 -248.70349100
16.81753500 -2.80298600 -248.05346700
24.64352400 6.64961200 -248.41351300
32.12152100 16.26951200 -250.51446500
40.50952100 25.66041400 -251.12249800
47.09951800 40.09091200 -250.39648400
57.62252800 49.29262200 -249.86248800
67.07852200 57.97831300 -251.45446800
19.82452400 -20.14489000 -249.21649200
11.61853000 -27.47448700 -253.05847200
76.89453100 66.82720900 -252.65448000
-17.33548000 -125.63748200 -248.78649900
334.38055400 461.67752100 -31.71148700
319.65850800 469.46551500 -31.06646700
304.81152300 474.60650600 -34.99847400
292.33551000 477.82650800 -38.19348100
280.08453400 480.10150100 -41.75750700
272.22253400 483.01751700 -37.65850800
268.87451200 487.07351700 -25.62847900
265.65551800 490.43951400 -13.27349900
262.61053500 492.11950700 -0.60949700
259.89849900 493.64050300 12.02648900
252.31451400 494.23049900 17.19848600
244.82055700 494.76150500 22.44848600
242.76550300 494.58151200 35.31652800
235.53155500 493.38952600 40.61151100
233.82855200 494.06350700 53.54553200
214.47354100 492.05850200 57.12353500
221.36950700 493.18652300 51.57348600
207.69354200 490.74551400 62.67053200
195.48053000 488.60452300 60.98553500
183.52752700 485.44451900 59.42150900
178.37652600 483.62451200 52.30950900
179.12454200 485.30450400 39.64849900
173.85553000 483.24752800 32.62951700
168.62951700 480.89550800 25.65753200
170.01452600 480.71450800 12.74951200
155.62353500 470.25750700 -7.54950000
171.93454000 479.63250700 -0.07348600
167.04953000 476.35150100 -6.89050300
157.74453700 468.55151400 -20.13848900
153.53353900 463.78152500 -26.47052000
149.47753900 458.69952400 -32.67047100
152.77352900 454.89151000 -44.19250500
156.31051600 450.51251200 -55.29351800
152.88052400 444.31152300 -60.91052200
149.64651500 437.92251600 -66.42047100
152.81951900 433.96850600 -77.91949500
154.33352700 432.69851700 -90.76049800
157.07653800 429.90252700 -103.93347200
162.08853100 422.37750200 -114.32751500
165.33953900 406.54852300 -128.19146700
172.51052900 396.59451300 -133.69451900
179.09552000 387.52652000 -140.69549600
185.02352900 381.29150400 -150.86846900
191.00354000 372.55850200 -158.56750500
167.63253800 414.57052600 -123.75952100
77.72152700 76.36431100 -251.32751500
78.78353900 85.79431200 -249.74951200
79.99853500 95.12541200 -247.84246800
89.44354200 103.93940700 -249.19250500
98.58453400 113.05221600 -250.09448200
98.79852300 122.70791600 -249.67248500
101.24752800 150.05722000 -242.61846900
94.52453600 159.13650500 -236.68347200
92.36154200 141.27780200 -242.10351600
91.49453700 132.09310900 -244.41149900
202.49551400 376.75750700 -153.92749000
205.13754300 382.78649900 -147.53851300
207.45053100 389.84051500 -141.98846400
217.27453600 397.58551000 -142.18347200
227.86950700 404.65051300 -141.47052000
239.19152800 409.70449800 -136.85546900
250.34155300 413.54550200 -131.59448200
261.73352100 419.41751100 -129.70947300
273.59454300 423.86151100 -125.76849400
285.92950400 427.61752300 -121.13049300
296.48553500 427.95251500 -113.57147200
305.64849900 435.74850500 -97.09649700
318.62249800 438.77252200 -91.63946500
328.08154300 443.88751200 -94.38250700
336.28955100 449.16250600 -97.22149700
344.53851300 457.84350600 -99.79248000
352.13153100 458.22552500 -104.25750700
360.51654100 458.46850600 -107.61651600
369.42950400 467.06152300 -106.06646700
370.13153100 471.78152500 -98.80151400
372.52954100 469.73852500 -92.65948500
366.72650100 465.11251800 -83.45849600
369.87451200 463.08151200 -76.09552000
365.23150600 457.97851600 -64.57348600
360.62554900 451.33551000 -53.86047400
356.61053500 444.47250400 -42.93347200
344.71350100 449.77951000 -42.64550800
339.59454300 456.08450300 -36.84448200
87.10852100 159.34552000 -233.26147500
85.99652100 150.43391400 -235.88348400
77.21951300 141.84460400 -234.71350100
68.19451900 133.43310500 -233.15246600
58.95452900 125.05821200 -231.21551500
49.55651900 116.68841600 -229.00146500
39.99551400 108.38131700 -226.77551300
30.41452000 100.10051000 -224.50048800
20.74853500 91.95531500 -222.39947500
10.94754000 83.86441000 -220.74047900
1.06051600 75.54031400 -219.41351300
-8.95346100 75.48041500 -214.27850300
-18.47045900 74.68270900 -209.28649900
-24.90048200 68.51760900 -208.92846700
-33.49646000 59.62902100 -207.05651900
-42.79847700 51.41148800 -206.66149900
-51.98947100 42.38012300 -206.11547900
-61.48246800 32.95661200 -205.60650600
-80.20547500 22.45741300 -203.93151900
-71.33346600 23.92801300 -207.06347700
-89.11547900 19.74821300 -201.00952100
-98.74647500 23.58971200 -193.11547900
-99.63546800 30.37791300 -186.94647200
-108.91847200 31.83441400 -177.98046900
-117.69647200 32.71921500 -168.94250500
-125.77847300 33.51341200 -159.87548800
-132.95246900 29.98221200 -158.61846900
-140.84747300 26.72891200 -157.63452100
-148.61647000 28.96681200 -149.64349400
-156.47647100 30.32531400 -141.21252400
-164.39746100 31.53721200 -132.42150900
-172.12448100 32.85271500 -123.25048800
-179.67047100 34.22391500 -113.81451400
-187.04846200 35.53871200 -104.01947000
-195.79307600 35.52921300 -102.84051500
-204.96337900 36.88341500 -101.34246800
-214.31036400 40.14611400 -92.52050800
-218.83897400 49.68166400 -84.71051000
-219.36987300 60.47928200 -78.47247300
-217.43768300 71.46111300 -71.41149900
-218.98376500 80.28291300 -61.47747800
-217.36306800 90.36581400 -53.10546900
-217.53326400 99.00441000 -43.08551000
-221.11166400 106.45150800 -31.57647700
-222.92288200 114.96630900 -20.48449700
-225.05867000 113.41941800 -11.03851300
-230.03077700 110.97840900 -3.29748500
-235.80317700 108.32341000 4.13250700
-243.83697500 105.04701200 10.77752700
-248.28857400 93.26041400 16.20849600
-247.79327400 84.46630900 23.09051500
-240.16197200 81.53431700 29.14251700
-233.96496600 82.23220800 36.83648700
-230.12817400 83.02021000 47.18951400
-226.36967500 83.87031600 58.89453100
-227.31367500 84.24101300 71.01849400
-230.07897900 85.07461500 83.04150400
-236.58227500 85.25151100 93.83551000
-244.74267600 85.33671600 103.30651900
-254.50546300 84.51641800 111.08050500
-263.35098300 83.11631000 119.46752900
-267.39038100 85.81330900 130.47851600
-271.74807700 89.78951300 141.46051000
-279.40817300 88.71661400 152.37951700
-279.31707800 83.41831200 157.82849100
-279.97677600 78.06471300 160.76348900
-276.80438200 69.86861400 159.86853000
-273.99548300 58.27694300 163.49151600
-277.53448500 45.67595300 161.25952100
-282.60989400 34.93451300 156.96051000
-289.69741800 30.07741400 159.30853300
-293.27255200 24.61221300 165.53448500
-293.12146000 12.03341300 168.55151400
-294.57507300 -0.83558700 169.32849100
-299.63870200 -13.18029000 166.24450700
-306.03436300 -22.11608900 156.80749500
-310.34167500 -31.29789000 149.02948000
-313.24026500 -33.32428700 145.54449500
-317.03738400 -40.20138500 144.29553200
-324.74395800 -50.35749100 141.35553000
-333.80517600 -56.32348600 134.28149400
-328.97677600 -84.87548800 125.59552000
-330.27456700 -90.67448400 121.80450400
-335.40368700 -93.91848800 116.20849600
-334.72818000 -98.01748700 105.08349600
-334.93277000 -99.99548300 92.32049600
-334.22625700 -99.21148700 78.47650100
-334.29907200 -108.59048500 68.90051300
-336.80618300 -119.96948200 63.53051800
-335.88238500 -127.36648600 67.11450200
-336.97308300 -76.06948900 133.89752200
-339.24646000 -67.11548600 135.93151900
-334.85336300 -134.88449100 70.84350600
-341.58508300 -145.92248500 71.46252400
-340.13208000 -153.91049200 75.11651600
-338.80767800 -161.74748200 79.38452100
-345.06417800 -173.36648600 80.02148400
-342.98187300 -181.52348300 83.89251700
-340.82128900 -189.40548700 88.09851100
-346.97357200 -201.02548200 90.33453400
-343.63607800 -209.32647700 93.05651900
-340.02917500 -217.40847800 95.73150600
-343.89846800 -230.07147200 95.17950400
-346.35098300 -242.98349000 93.30853300
-340.59106400 -250.89450100 94.34149200
-328.31408700 -253.18148800 98.81848100
-327.60528600 -266.12448100 95.39752200
-323.70538300 -277.61047400 88.62451200
-320.26257300 -289.73449700 82.46752900
-320.41458100 -302.75549300 83.50152600
-321.28356900 -316.19647200 84.73852500
-322.63226300 -331.64749100 86.16247600
-315.82788100 -333.34347500 87.96850600
-308.22366300 -337.11148100 89.97747800
-313.04028300 -334.66449000 88.73352100
-309.93838500 -339.33047500 90.15948500
-309.49447600 -349.30047600 91.87750200
-305.45397900 -357.24350000 94.10852100
-301.67486600 -365.14547700 95.47851600
-298.10711700 -373.06048600 97.39849900
-286.42102100 -378.22348000 100.46850600
-274.70538300 -383.80749500 102.55151400
-263.30355800 -389.82247900 105.12152100
-243.02966300 -394.14749100 109.80047600
-251.77236900 -396.55047600 108.00952100
-233.49926800 -392.79748500 111.42950400
-221.14646900 -400.61749300 114.36853000
-205.51266500 -402.88049300 127.52050800
-210.90017700 -406.74749800 120.20849600
-200.85487400 -399.69448900 135.72552500
-192.49937400 -405.69149800 143.73748800
-173.87747200 -445.84448200 142.56451400
-175.07446300 -436.17050200 141.78149400
-172.68246500 -455.21649200 142.41247600
-162.57946800 -463.33450300 142.31451400
-152.38346900 -471.27645900 141.59851100
-142.20147700 -479.16751100 140.95349100
-132.14947500 -487.07547000 140.52252200
-122.68547100 -492.08450300 140.53350800
343.25250200 -501.88150000 -60.35949700
343.15350300 -495.72146600 -69.86047400
342.61950700 -486.35049400 -79.17352300
188.25653100 -438.42648300 -258.79150400
176.32653800 -438.30349700 -251.88250700
168.45053100 -438.97848500 -262.04046600
160.22851600 -439.23449700 -271.60449200
150.83651700 -439.43048100 -271.86346400
140.43951400 -439.38748200 -263.90948500
129.98751800 -438.48950200 -256.42248500
120.92553700 -438.83349600 -257.71350100
111.90951500 -438.74749800 -259.41546600
101.42852800 -438.35549900 -252.24450700
90.88851900 -437.87847900 -244.80249000
80.46652200 -438.64749100 -236.74151600
70.09152200 -439.15048200 -228.52648900
59.46752900 -438.76849400 -220.41149900
-189.33647200 -415.16748000 144.09753400
-184.21246300 -425.11749300 142.47149700
-175.58947800 -427.90048200 142.63549800
50.38653600 -439.08749400 -221.32452400
43.07952900 -438.36547900 -231.28448500
35.90753200 -437.44747900 -241.24047900
27.06051600 -437.49148600 -241.98449700
18.14852900 -437.67947400 -242.60650600
6.78552200 -436.67450000 -233.86547900
-2.14846800 -436.82949800 -235.07849100
-22.33648700 -436.52249100 -231.69250500
-35.22747800 -435.60647600 -228.39349400
-10.82446300 -435.83548000 -236.94348100
-41.53846700 -423.08148200 -230.32348600
-45.70747400 -411.41149900 -234.68750000
-48.05447400 -400.85348500 -242.20550500
-47.70747400 -381.92248500 -246.90448000
-53.77447500 -370.65649400 -248.32946800
-61.73347500 -360.65448000 -246.91449000
-71.29647800 -352.49148600 -243.04852300
-82.09747300 -348.56747400 -236.61749300
-93.09547400 -343.90847800 -231.13848900
-51.67347700 -389.89047200 -247.66149900
-96.41447400 -330.70947300 -233.35052500
-105.54946900 -320.87149000 -235.64349400
-114.21546900 -312.23049900 -238.98449700
-129.21347000 -298.01547200 -237.40551800
-124.13247700 -304.13748200 -242.41851800
-135.12147500 -294.02847300 -231.70648200
-140.86047400 -290.17648300 -226.17749000
-144.74847400 -282.88949600 -222.21148700
-150.17147800 -276.76950100 -216.95147700
-155.59246800 -270.22848500 -211.77447500
-155.03047200 -264.47348000 -201.50451700
-146.99147000 -256.37649500 -197.21148700
-135.97047400 -248.76248200 -195.73950200
-125.24546800 -240.33947800 -194.48651100
-116.31147800 -231.72848500 -194.15948500
-107.91947900 -223.87649500 -194.26849400
-98.89846800 -219.97149700 -197.91546600
-90.37847900 -216.08349600 -202.40246600
-81.76246600 -212.28048700 -207.94146700
-73.52946500 -206.86947600 -212.31848100
-67.65647900 -200.30648800 -217.09246800
-63.09646600 -193.01248200 -221.78552200
-57.94546500 -184.83648700 -226.18951400
-51.99247700 -175.47148100 -230.84851100
-45.35647600 -165.95349100 -235.85449200
-38.20646700 -156.44648700 -240.25848400
-30.93948400 -146.47148100 -243.51049800
-24.06848100 -136.27148400 -246.83349600
246.70251500 -404.05648800 -295.62048300
237.12951700 -413.22549400 -292.99652100
227.90051300 -412.89047200 -290.43347200
219.17953500 -412.37149000 -286.52746600
211.97753900 -420.50347900 -279.46746800
208.56051600 -429.82748400 -270.17248500
199.71551500 -437.67147800 -265.36950700
338.50750700 -496.28646900 -202.47552500
337.99353000 -489.89749100 -211.19049100
337.43255600 -480.54348800 -219.79351800
337.10150100 -471.25448600 -228.44049100
336.16351300 -461.98745700 -237.06152300
336.05554200 -461.64450100 -246.00750700
335.64953600 -461.36850000 -254.94146700
335.05053700 -452.17749000 -263.49047900
330.65753200 -443.58548000 -271.44451900
320.07354700 -443.54849200 -277.71551500
299.57354700 -441.01348900 -277.85351600
291.08252000 -440.24148600 -280.23449700
282.41851800 -439.77749600 -281.79950000
274.02551300 -430.82147200 -286.11047400
265.36151100 -422.26049800 -290.96850600
256.18750000 -413.40448000 -294.51751700
342.37451200 -486.11947600 -88.94146700
342.03753700 -494.99050900 -99.21447800
341.26153600 -500.66549700 -109.15448000
-19.29446400 -116.87948600 -248.76348900
-13.27047700 -105.64048800 -250.40448000
-15.58746300 -96.61848400 -249.74249300
-13.19848600 -76.06749000 -252.95147700
-7.59848000 -66.02148400 -257.96746800
-1.75347900 -55.34148400 -261.02948000
5.08252000 -44.95408600 -259.86547900
-18.00848400 -87.84149200 -248.86749300
3.49551400 -36.33968400 -255.88348400
9.26654100 -12.11768700 -246.62847900
7.90652500 -3.53368800 -245.91650400
15.79751600 6.07231100 -246.81646700
23.86953700 15.58211100 -247.30847200
31.77151500 25.09991300 -249.01251200
39.88351400 35.30301300 -249.50549300
48.41851800 51.93125900 -248.47650100
58.43151900 59.37423300 -247.83947800
68.16351300 67.81001300 -249.55749500
10.70153800 -20.52038600 -247.66052200
2.22653200 -28.39068600 -251.55151400
-25.80645800 -127.51748700 -246.86346400
326.81353800 463.69952400 -37.04650900
312.90954600 469.40350300 -38.85546900
300.01251200 473.91351300 -42.27746600
287.77551300 476.43750000 -45.60650600
275.62152100 477.77850300 -49.18151900
267.74554400 480.77551300 -45.24047900
264.26355000 485.51251200 -33.35546900
260.87152100 488.72052000 -20.87951700
257.72955300 491.70651200 -8.29650900
254.86352500 492.93551600 4.49548300
247.20153800 493.79251100 9.67950400
239.61053500 494.31649800 14.96752900
237.40551800 494.85549900 27.79748500
230.07653800 494.51049800 33.19250500
228.39154100 493.92550700 46.05950900
215.80853300 493.17651400 44.22747800
208.90753200 491.86151100 49.81750500
202.12152100 490.46652200 55.41449000
189.93753100 488.01351900 53.83551000
184.43353300 487.06451400 46.72650100
180.44952400 485.36651600 26.78448500
185.65951500 487.57650800 33.86651600
175.21752900 483.13052400 19.74450700
176.91952500 482.55651900 6.84552000
162.29653900 472.69351200 -13.58349600
174.23452800 477.82351700 -12.69952400
179.07052600 481.17950400 -5.90649400
164.86251800 470.25952100 -25.93548600
160.49752800 465.74350000 -32.28552200
156.42153900 460.67352300 -38.41351300
159.86453200 456.49350000 -49.64849900
163.57153300 451.64352400 -60.44146700
159.94253500 445.63549800 -66.20947300
156.55752600 439.38150000 -71.82647700
159.59753400 435.28649900 -83.42150900
161.68853800 433.86950700 -96.22650100
165.40753200 429.31851200 -108.39251700
170.55752600 421.53350800 -118.03747600
