-31.54794300 52.42883300 1.88778700
-30.97285100 52.25704200 1.90463300
-37.55797600 53.18750800 1.91079700
-36.96246000 53.09126300 1.84332300
-35.78331800 52.85512500 1.75717200
-38.15433500 53.28109000 1.98098800
-36.36937300 52.98620600 1.78515600
-35.20323200 52.70198100 1.75134300
-33.44736100 52.29972800 1.67611700
-32.86398300 52.15872200 1.65863000
-31.70903400 51.83292400 1.67294300
-32.28526700 52.00033600 1.66052200
-34.03633500 52.42062400 1.71505700
-34.62194100 52.55317700 1.74108900
-31.13330800 51.66329200 1.68631000
-37.72679900 52.56253800 1.72763100
-37.13172500 52.46468400 1.66186500
-36.53690300 52.36673700 1.59487900
-35.95076800 52.23545800 1.56619300
-34.19749100 51.82378400 1.50146500
-33.02610000 51.55873100 1.44775400
-35.36876300 52.08945500 1.55419900
-33.60852100 51.70332300 1.46072400
-32.44739200 51.40034500 1.44885300
-34.78554900 51.94783800 1.53634600
-31.29365200 51.07005300 1.46768200
-31.87103300 51.23322300 1.46002200
-35.52949500 51.49454500 1.33810400
-34.94521300 51.35674300 1.31662000
-33.77312500 51.09417700 1.25988800
-34.35937500 51.22499100 1.28836100
-33.19008600 50.95203400 1.24313400
-32.61264400 50.78875700 1.25033600
-32.03475200 50.62742600 1.25567600
-31.45702700 50.46538500 1.26110800
-30.39797200 52.08422100 1.92257700
-29.82724000 51.89623300 1.95761100
-29.26968800 51.65902700 2.04779100
-28.72617100 51.36988800 2.19625900
-28.18347500 51.07770500 2.34814500
-27.63899200 50.79193100 2.49279800
-29.42851300 51.07339500 1.82208300
-28.33628800 50.51582300 2.09567300
-30.55596200 51.49967200 1.69397000
-29.98504600 51.31235500 1.72821000
-28.88150200 50.79430400 1.95706200
-30.71694900 50.90401500 1.47830200
-29.58531200 50.49216500 1.58883700
-30.14466900 50.72186300 1.50662200
-29.03680600 50.22189300 1.71597300
-30.30535100 50.12725100 1.28927600
-30.87771600 50.30892200 1.26055900
-43.24104300 68.92804000 16.21731600
-43.35190600 68.51614400 16.64016700
-43.46303600 68.10324900 17.06201200
-43.57704200 67.67972600 17.47363300
-43.69037600 67.25870500 17.88775600
-43.16284600 69.21927600 15.67916900
-43.80477500 66.83374000 18.29800400
-43.96160500 68.56000500 16.53302000
-43.85775000 68.94601400 16.08538800
-44.07025900 68.15625000 16.96359300
-44.18157600 67.74266800 17.38473500
-43.92188600 66.39877300 18.69882200
-44.29347600 67.32695000 17.80392500
-44.40943100 66.89623300 18.20867900
-44.04335400 65.94768500 19.08407600
-44.57021700 68.60785700 16.42968800
-44.67812700 68.20687100 16.86291500
-44.52370100 66.47174100 18.61947600
-44.78879500 67.79567700 17.28634600
-44.90059300 67.38032500 17.70587200
-44.16665300 65.48985300 19.46292100
-44.64038800 66.03832200 19.02169800
-44.48109800 68.93943800 15.93005400
-45.01678500 66.94874600 18.10980200
-45.12796800 66.53566000 18.53152500
-44.76059300 65.59191100 19.41140700
-43.80843400 69.13054700 15.44519000
-45.28725400 68.25305900 16.75793500
-45.23737700 66.12912800 18.95941200
-44.29246100 65.02273600 19.83294700
-45.39781600 67.84229300 17.18179300
-45.18749600 68.62395500 16.29595900
-45.50830800 67.43175500 17.60592700
-45.35898600 65.67753600 19.34420800
-45.62090300 67.01345100 18.02258300
-44.88583800 65.12690000 19.78347800
-45.73285300 66.59752700 18.44158900
-44.41921600 64.55214700 20.19958500
-45.84508100 66.18059500 18.85952800
-45.48375300 65.21427900 19.71795700
-45.01183300 64.66082000 20.15527300
-46.00983000 67.87759400 17.06643700
-45.96211600 65.74588000 19.26046800
-46.11845000 67.47396900 17.49719200
-44.54290000 64.09269700 20.57687400
-45.90815400 68.25555400 16.61120600
-46.22910700 67.06282800 17.92065400
-45.60448100 64.76585400 20.10574300
-46.34178500 66.64422600 18.33712800
-45.13476900 64.20230100 20.53256200
-46.08247800 65.29889700 19.64971900
-45.13372800 68.82494400 15.67138700
-44.66777800 63.62939500 20.95059200
-46.45633300 66.21870400 18.74682600
-45.82301700 68.57242600 16.09756500
-46.56901200 65.80010200 19.16320800
-46.20216000 64.85416400 20.04101600
-45.72962200 64.30130000 20.47824100
-46.73180000 67.50457000 17.37731900
-45.26281700 63.72737900 20.89523300
-46.84220500 67.09436000 17.80175800
-46.68647800 65.36381500 19.56271400
-46.63102000 67.87921900 16.91888400
-46.95337700 66.68132000 18.22348000
-46.32825100 64.38674900 20.41098000
-45.85590000 63.83210800 20.84606900
-46.80614500 64.92029600 19.95532200
-47.06802400 66.25544000 18.63287400
-46.54602400 68.19558000 16.40472400
-47.18166000 65.83329000 19.04580700
-46.45296100 63.92337000 20.78442400
-46.92789800 64.46778900 20.33929400
-47.29609300 65.40821100 19.45608500
-47.35202800 67.50952900 17.23297100
-47.45876700 67.11286900 17.67031900
-45.77657300 68.74636100 15.44708300
-47.57127800 66.69488500 18.08734100
-47.41623700 64.96234900 19.84637500
-47.25925400 67.85462200 16.74624600
-45.12653000 68.85328700 15.09420800
-44.48856000 68.91494800 14.84918200
-47.05459200 63.99665100 20.70529200
-47.68432600 66.27488700 18.50238000
-46.47477300 68.46115100 15.84204100
-47.53570200 64.51798200 20.23809800
-47.79813800 65.85209700 18.91470300
-47.91210200 65.43045000 19.32824700
-47.66067100 64.05490900 20.61203000
-48.03006400 64.99186700 19.72555500
-47.18840000 68.11871300 16.18209800
-48.19185600 66.69854000 17.94171100
-48.08709300 67.08790600 17.49734500
-48.30250900 66.28742200 18.36523400
-45.71950500 68.95954900 14.83429000
-46.40530000 68.72016100 15.27288800
-48.14911300 64.54838600 20.11807300
-48.41524100 65.86861400 18.78137200
-47.99305300 67.43768300 17.01513700
-48.52904100 65.44783000 19.19577000
-48.27036700 64.09980000 20.50595100
-46.31476200 69.05698400 14.77835100
-47.00703400 68.79342700 15.19387800
-48.64550400 65.01315300 19.59671000
-47.11709600 68.38451400 15.61959800
-47.90852400 67.75230400 16.49926800
-48.76347700 64.57459300 19.99398800
-46.91443600 69.13786300 14.70660400
-48.92532700 66.28304300 18.21191400
-48.82088100 66.67124200 17.76651000
-49.03355800 65.88086700 18.64395100
-48.88289600 64.13143900 20.38690200
-49.14860500 65.45362900 19.05212400
-47.61834700 68.83130600 15.08099400
-48.72747800 67.01865400 17.28195200
-49.25959000 65.04069500 19.47390700
-47.83660100 68.02034800 15.93893400
-47.73175400 68.41004200 15.49490400
-49.37798300 64.60142500 19.87060500
-47.53664800 69.13550600 14.55523700
-48.64742700 67.31673400 16.75033600
-49.49609800 64.16295600 20.26794400
-49.65860400 65.86743900 18.48208600
-49.76555600 65.47067300 18.91934200
-49.55697600 66.24583400 18.02722200
-49.87830700 65.05221600 19.33581500
-49.46109800 66.60237100 17.55148300
-49.99386200 64.62271900 19.74185200
-48.25662600 68.76987500 14.87313800
-50.10888700 64.19670100 20.15118400
-48.58014700 67.56763500 16.17349200
-48.37159000 68.34278900 15.28146400
-49.37772000 66.91274300 17.03152500
-48.48514200 67.92096700 15.69470200
-50.39359700 65.44760900 18.74807700
-50.50258600 65.04241900 19.17733800
-50.29222500 65.82646200 18.29342700
-50.61583700 64.62097200 19.59103400
-50.19374800 66.19288600 17.82711800
-50.72603600 64.20789300 20.01278700
-49.31533800 67.14554600 16.43746900
-50.10699100 66.51274900 17.31668100
-49.00299100 68.30650300 15.09762600
-49.12065500 67.86944600 15.49636800
-48.88668800 68.64318800 14.60903900
-48.22307200 68.89624000 14.15667700
-51.02825500 65.39865900 18.55221600
-51.13435000 65.00415000 18.99163800
-50.92499900 65.78385900 18.10366800
-51.24266800 64.60149400 19.42330900
-51.35152400 64.19850200 19.85458400
-49.24200100 67.41884600 15.88205000
-50.03670100 66.77479600 16.75045800
-50.83186300 66.13043200 17.61834700
-40.13003500 68.94159700 16.15911900
-40.71429100 69.07943700 16.14187600
-40.24092100 68.52961000 16.58181800
-39.55589300 68.76615900 16.14047200
-40.82305500 68.67530100 16.57208300
-38.98327300 68.58533500 16.11660800
-39.66993700 68.34249100 16.55197100
-41.30415700 69.19654800 16.10476700
-41.41093800 68.79972100 16.54196200
-39.09985400 68.15231300 16.51919600
-38.41590100 68.38488000 16.07400500
-40.36819500 68.05707600 16.94668600
-39.79095800 67.89308200 16.93893400
-40.94980200 68.20471200 16.93878200
-38.53162800 67.95503200 16.47958400
-42.00888100 68.88723800 16.47653200
-39.21846800 67.71177700 16.91464200
-41.53849000 68.32618700 16.90585300
-40.48671700 67.61689000 17.34237700
-41.90730300 69.26483900 16.02099600
-41.06642900 67.77152300 17.34118700
-39.90808500 67.45803800 17.33956900
-37.85561400 68.15850800 16.00659200
-39.33224500 67.28910800 17.32711800
-38.64756000 67.52440600 16.88452100
-37.96684300 67.74524700 16.42807000
-41.65705900 67.88582600 17.30139200
-38.76094800 67.10315700 17.29834000
-40.60517100 67.17694100 17.73831200
-40.02770200 67.01380900 17.73141500
-38.07872800 67.32957500 16.84732100
-42.13455200 68.42063100 16.84707600
-41.18839600 67.31860400 17.72470100
-39.45417000 66.83635700 17.71078500
-38.19118100 66.91180400 17.26446500
-38.87891400 66.66503100 17.69607500
-37.29714200 67.92543000 15.93277000
-37.40521200 67.52383400 16.36541700
-41.77789700 67.43705000 17.68887300
-37.51232900 67.12577100 16.80148300
-42.62283300 68.91538200 16.35437000
-40.14979600 66.56041000 18.11456300
-42.25541300 67.97180900 17.23455800
-40.73054900 66.71143300 18.10986300
-38.30868500 66.47538800 17.66375700
-37.62377200 66.71173100 17.22216800
-39.57559600 66.38542200 18.09631300
-41.31520100 66.84780900 18.09121700
-36.94596900 66.92159300 16.75531000
-39.00270800 66.20535300 18.07318100
-42.74082600 68.47715000 16.75201400
-42.52973200 69.26167300 15.86883500
-36.84272800 67.30535100 16.30554200
-37.73991000 66.28034200 17.62631200
-41.90145900 66.97824900 18.06686400
-36.73827400 67.69356500 15.86010700
-42.37578200 67.52479600 17.62368800
-37.05659100 66.51057400 17.17889400
-38.42843600 66.03063200 18.05517600
-40.27408200 66.09892300 18.48986800
-40.85665900 66.24319500 18.47872900
-39.69807800 65.93059500 18.47799700
-37.85546500 65.85109700 18.03259300
-42.85799000 68.04197700 17.15249600
-36.38113000 66.71202100 16.70397900
-37.17209200 66.08155100 17.58529700
-41.43947200 66.38638300 18.46664400
-42.49490400 67.08237500 18.01733400
-39.12495400 65.75139600 18.45571900
-36.27917500 67.09102600 16.24963400
-38.54804600 65.58642600 18.44702100
-36.49398800 66.29274700 17.11965900
-42.02580600 66.51654100 18.44198600
-36.17966800 67.46096800 15.78674300
-42.97641000 67.60215800 17.54858400
-40.39771700 65.63986200 18.86758400
-37.28982200 65.64428700 17.98388700
-37.97527300 65.40615100 18.42370600
-40.97889700 65.78927600 18.86138900
-39.82037400 65.47646300 18.86044300
-39.24392700 65.30956300 18.84991500
-42.61513900 66.63586400 18.40701300
-41.56386200 65.92450700 18.84167500
-43.09046600 67.17845200 17.96014400
-36.61240000 65.85296600 17.51574700
-38.66855200 65.13890100 18.83578500
-35.71789200 66.86808800 16.18557700
-35.82497800 66.47014600 16.62176500
-42.14964300 66.05672500 18.81903100
-37.40959200 65.19947100 18.37515300
-35.61936600 67.23440600 15.71917700
-35.93741600 66.05241400 17.03891000
-38.09904100 64.94659400 18.80099500
-39.94305800 65.02089700 19.24142500
-43.20736300 66.74427800 18.36157200
-40.52341100 65.17315700 19.23797600
-36.73054500 65.41416900 17.91287200
-42.73580200 66.18775900 18.79519700
-41.10422500 65.32396700 19.23309300
-39.36658100 64.85409500 19.23101800
-41.68753100 65.46530900 19.21917700
-36.05298200 65.62312300 17.44506800
-38.79614600 64.66519200 19.19946300
-36.84712600 64.98114800 18.31546000
-37.53255800 64.74287400 18.75524900
-43.32581700 66.30432900 18.75762900
-42.27540200 65.58977500 19.18908700
-35.16303300 66.62164300 16.09893800
-35.27120600 66.21968100 16.53128100
-38.22512800 64.47843900 19.16995200
-42.86063400 65.72425800 19.16864000
-35.06376300 66.99072300 15.63519300
-36.17231800 65.17995500 17.83798200
-35.38176300 65.80890700 16.95510900
-40.07245600 64.54052700 19.59872400
-40.65295000 64.69226800 19.59472700
-39.49623900 64.37277200 19.58734100
-41.23474900 64.83943200 19.58639500
-36.96994800 64.52506300 18.69601400
-43.44838700 65.84919700 19.13903800
-41.81792800 64.98122400 19.57287600
-35.49614300 65.38404100 17.36547900
-36.28863900 64.74787900 18.24148600
-37.65932100 64.27223200 19.12182600
-38.92390100 64.19090300 19.56253100
-42.40248500 65.11798100 19.55459600
-42.98659500 65.25658400 19.53802500
-38.35438500 63.99859600 19.52771000
-35.61475400 64.94350400 17.76092500
-36.40853900 64.30258900 18.63232400
-39.62280300 63.90286300 19.95474200
-43.57407800 65.38251500 19.50936900
-40.20528400 64.04748500 19.94393900
-37.09775900 64.05055200 19.05889900
-41.36593200 64.35245500 19.93740800
-41.94543100 64.50786600 19.93695100
-39.05039200 63.72126000 19.93017600
-40.78846700 64.18930100 19.93048100
-35.73285700 64.50484500 18.15811200
-37.78858900 63.79234300 19.47955300
-42.52981600 64.64524800 19.91922000
-43.11602000 64.77613100 19.89529400
-38.48248700 63.52303300 19.88967900
-35.84792300 64.07743100 18.56610100
-36.53360700 63.83821900 19.00494400
-39.75011400 63.43019900 20.31942700
-40.33118400 63.58004800 20.31359900
-43.70175900 64.90847000 19.87280300
-37.22523900 63.57727100 19.42297400
-40.91392500 63.72348000 20.30169700
-41.49341200 63.87917300 20.30148300
-42.07424500 64.02965500 20.29629500
-39.17900800 63.24379000 20.29022200
-42.65575800 64.17763500 20.28872700
-37.91632500 63.31811500 19.84277300
-35.96674700 63.63611600 18.96072400
-43.23947100 64.31771100 20.27356000
-36.66170100 63.36267100 19.36682100
-43.82838100 64.43836200 20.23983800
-41.03811600 63.26234400 20.67739900
-38.61557400 63.02903000 20.23388700
-40.45988500 63.10225700 20.67337000
-41.62115500 63.40492200 20.66464200
-39.88436900 62.93187700 20.65957600
-37.35800900 63.08444200 19.76837200
-42.20579500 63.54132800 20.64605700
-42.78561400 63.69558000 20.64447000
-43.36813400 63.84031700 20.63403300
-36.09919000 63.14452400 19.30728100
-39.31716900 62.73104900 20.61660800
-38.05318100 62.81018800 20.17367600
-43.95436500 63.97071100 20.60943600
-36.79529600 62.86679800 19.70935100
-41.17216100 62.76478600 21.01818800
-40.59469600 62.60195200 21.01120000
-41.75491000 62.90846300 21.00656100
-42.33560600 63.05992900 21.00302100
-37.48978000 62.59532900 20.11731000
-42.91575600 63.21255500 20.99935900
-40.02014500 62.42818500 20.99401900
-38.75712600 62.50376900 20.54834000
-43.49979400 63.35154700 20.98361200
-36.23226900 62.65052000 19.65158100
-44.08257300 63.49469000 20.97085600
-36.92863800 62.37184900 20.05264300
-39.45827500 62.20887000 20.93270900
-38.19381700 62.28830700 20.49133300
-37.63112600 62.07081600 20.43243400
-36.36783200 62.14738500 19.98709100
-38.89986400 61.97508200 20.85867300
-37.07116700 61.84300200 20.36364700
-38.33940100 61.74839000 20.79144300
-36.51059700 61.61764500 20.29718000
-37.77800800 61.52597800 20.72790500
-37.21806000 61.29745500 20.65899700
-36.65532300 61.08036800 20.60034200
-34.71431700 65.98075900 16.45184300
-34.61107600 66.36450200 16.00210600
-34.82591200 65.56613900 16.87204000
-34.50931900 66.74275200 15.54718000
-34.94055600 65.14026600 17.28143300
-35.05580900 64.71215800 17.68875100
-34.16058300 65.72992700 16.36108400
-34.26866500 65.32829300 16.79364000
-34.05784600 66.11180900 15.90951500
-35.17142900 64.28269200 18.09469600
-33.95779000 66.48379500 15.44854700
-34.38357900 64.90142800 17.20208700
-34.49388900 64.49156200 17.62689200
-35.28704100 63.85323300 18.50076300
-34.60524400 64.07786600 18.04794300
-33.60556400 65.48407700 16.27502400
-33.71486300 65.07797200 16.70333900
-33.50379200 65.86241900 15.82006800
-35.40417100 63.41818200 18.90139800
-34.72290400 63.64086200 18.44677700
-33.82619900 64.66432200 17.12442000
-33.40323300 66.23625200 15.36093100
-33.93434900 64.26244400 17.55682400
-34.04238100 63.86098500 17.98959400
-33.05254400 65.23063700 16.18176300
-34.84719800 63.17932900 18.82205200
-32.94879500 65.61625700 15.73376500
-33.16079700 64.82836200 16.61370800
-34.16663700 63.39961200 18.36511200
-33.27015700 64.42202000 17.04177900
-35.53908200 62.91747300 19.23919700
-32.84968900 65.98472600 15.26944000
-33.37902500 64.01747100 17.47168000
-33.49104700 63.60131800 17.89035000
-32.50017500 64.97500600 16.08636500
-32.60695300 64.57818600 16.52356000
-34.98214000 62.67849700 19.15976000
-32.71569400 64.17413300 16.95379600
-32.39827700 65.35379000 15.63180500
-34.29801900 62.91192600 18.71539300
-33.61546700 63.13932800 18.26532000
-35.67256500 62.42198900 19.58209200
-32.82803700 63.75676000 17.37139900
-32.30062100 65.71690400 15.16235400
-32.94350800 63.32784300 17.77789300
-32.05523700 64.32013700 16.42581200
-33.74310300 62.66547400 18.62878400
-34.42881000 62.42640700 19.06774900
-31.95166000 64.70513200 15.97732500
-35.11806100 62.17401100 19.49404900
-31.84854100 65.08842500 15.52710000
-32.16652300 63.90668500 16.84710700
-33.06409800 62.87999700 18.16635100
-35.80952100 61.91370400 19.91265900
-32.27841600 63.49099000 17.26632700
-31.74950800 65.45663500 15.06256100
-32.39477200 63.05879200 17.66964700
-33.18833200 62.41870900 18.54187000
-31.39466100 64.46637700 15.89810200
-33.87656800 62.17006700 18.97168000
-31.50366200 64.06133300 16.32739300
-34.56300000 61.92833700 19.40817300
-31.29542500 64.83532700 15.43414300
-35.25159800 61.67836000 19.83670000
-31.61549000 63.64588200 16.74676500
-32.51495000 62.61247300 18.05957000
-30.82993700 64.25638600 15.84631300
-30.93999500 63.84744300 16.27191200
-31.73120900 63.21604200 17.15246600
-31.20274000 65.18006900 14.94714400
-35.95092800 61.38898500 20.22760000
-32.63674200 62.16019400 18.44372600
-33.32286500 61.91938800 18.88101200
-31.84677900 62.78675800 17.55859400
-30.73868200 64.59584000 15.35418700
-34.01288200 61.66416200 19.30465700
-34.70189300 61.41291000 19.73193400
-31.06520500 63.38256100 16.64401200
-31.96902500 62.33279400 17.94119300
-35.39547000 61.14453900 20.14294400
-30.65191700 64.91872400 14.84631300
-30.28432800 63.97554800 15.72680700
-30.39127000 63.57812500 16.16342200
-31.18608500 62.93366200 17.03146400
-32.77243800 61.65657000 18.77874800
-36.09679400 60.85111200 20.52725200
-33.46151400 61.40482300 19.20565800
-31.30140700 62.50527200 17.43847700
-30.19302700 64.31519300 15.23486300
-32.09280000 61.87321500 18.31832900
-30.51218800 63.12908900 16.55065900
-34.15414800 61.13995400 19.61996500
-34.84651900 60.87626600 20.03546100
-31.42348100 62.05197100 17.82171600
-30.10808600 64.63132500 14.72052000
-35.54221000 60.60009000 20.43893400
-30.64061000 62.65231300 16.91149900
-32.22537200 61.38111900 18.66436800
-32.91146500 61.14063300 19.10208100
-33.60245900 60.88181300 19.52218600
-31.55052900 61.58026900 18.18725600
-30.76110800 62.20484200 17.30023200
-29.97353000 62.82280700 16.40689100
-34.29626100 60.61261000 19.93240400
-29.86825900 63.21405800 15.96435500
-29.76311500 63.60482800 15.52136200
-29.66386000 63.97386200 15.05752600
-34.99013900 60.34378100 20.34265100
-30.88165700 61.75714900 17.68884300
-30.09366200 62.37665600 16.79690600
-32.36745500 60.85390500 18.97692900
-33.05362700 60.61312100 19.41424600
-31.68391400 61.08517500 18.53045700
-29.57461900 64.30588500 14.55831900
-33.74665800 60.34677100 19.82724000
-30.21772800 61.91600800 17.17309600
-31.01105100 61.27677900 18.04611200
-34.43983100 60.08021500 20.23968500
-30.34066400 61.45948800 17.55325300
-29.44949300 62.46228800 16.21112100
-29.55701100 62.06273700 16.64581300
-32.51096000 60.32141100 19.28439300
-29.34699200 62.84330000 15.75885000
-31.82614100 60.55741900 18.84246800
-29.13671900 63.62480200 14.87277200
-29.24441100 63.22460900 15.30682400
-33.20062300 60.06774100 19.70941200
-31.14639300 60.77447500 18.38238500
-29.03792800 63.99210400 14.40734900
-33.89363900 59.80128500 20.12228400
-29.67779900 61.61418900 17.03350800
-30.47040600 60.97786700 17.90933200
-29.79974000 61.16135400 17.41720600
-31.96811700 60.03058600 19.15533400
-31.28749500 60.25086200 18.69839500
-32.65786400 59.77639000 19.57986500
-30.60592300 60.47487600 18.24493400
-33.34977300 59.51261900 19.99606300
-29.02867700 61.71833000 16.46548500
-28.92404200 62.10723900 16.02063000
-28.60757400 63.28337100 14.69534300
-28.82135000 62.48894500 15.56900000
-28.50462200 63.66605400 14.24456800
-28.71902700 62.86928600 15.11605800
-29.93413500 60.66252900 17.75683600
-29.14448200 61.28817700 16.87078900
-29.26499900 60.84062200 17.25952100
-31.42801700 59.72941600 19.01635700
-32.11657700 59.47981300 19.44531300
-30.75082800 59.93724100 18.54751600
-30.06974000 60.15923300 18.09213300
-32.81039800 59.20922900 19.85476700
-28.39630100 61.76061200 15.83822600
-28.50224900 61.36687500 16.27844200
-29.39981100 60.34024800 17.59768700
-27.97516300 63.32579800 14.06826800
-28.08199500 62.92879500 14.50528000
-28.29508800 62.13687900 15.38137800
-28.19216900 62.51942400 14.93054200
-28.61843300 60.93531800 16.68240400
-31.57986800 59.16854100 19.29568500
-30.89683900 59.39549300 18.84606900
-28.73570100 60.49974800 17.08261100
-61.67331700 62.80444300 16.13647500
-62.19947800 62.61064900 15.83761600
-61.53614800 62.85336300 15.39639300
-62.38320900 62.48477200 15.13867200
-62.83552600 62.32554600 15.43127400
-61.70361300 62.69490800 14.72470100
-63.77339200 61.93671400 15.21981800
-61.75573700 62.51188700 14.04858400
-63.09645100 62.13987000 14.81475800
-62.42506400 62.32508900 14.43103000
-63.81871000 61.78849800 14.50769000
-63.15160400 61.94506800 14.15164200
-62.48783100 62.10202000 13.79940800
-61.82272300 62.26339700 13.44216900
-62.05026200 62.13721500 13.27792400
-61.58626600 62.14852100 12.87884500
-52.39717900 64.92983200 18.62246700
-52.60976400 64.14110600 19.50149500
-52.28932600 65.31385800 18.17572000
-52.50553100 64.52788500 19.05471800
-52.19886400 65.67229500 17.69793700
-53.01863900 64.92952000 18.47323600
-53.12947800 64.51907300 18.89715600
-53.23653000 64.12095600 19.33316000
-52.92020800 65.29021500 18.00360100
-52.14710200 65.86731700 17.06720000
-53.74655900 64.54200700 18.76962300
-53.63988100 64.93310500 18.32733200
-53.86149200 64.11870600 19.18173200
-52.85616300 65.52848100 17.41488600
-53.56042900 65.21962000 17.78753700
-51.92034100 66.02986100 16.44305400
-54.36658100 64.52132400 18.60308800
-54.26967200 64.90567800 18.15115400
-54.49015400 64.09102600 19.00631700
-52.82584400 65.64860500 16.71154800
-53.51825300 65.38994600 17.12963900
-54.21320300 65.11546300 17.53527800
-55.01287500 64.44583900 18.38061500
-55.12370300 64.04097000 18.80914300
-54.92499500 64.78758200 17.88693200
-52.04634500 66.01954700 15.59414700
-55.75999500 63.98743400 18.60873400
-55.66097300 64.36350300 18.14978000
-53.49913800 65.46297500 16.38278200
-54.18587100 65.21508800 16.81533800
-52.81905000 65.68816400 15.92834500
-54.87400100 64.97032900 17.24740600
-55.58068100 64.64979600 17.60992400
-56.39339800 63.94251300 18.41674800
-56.30247500 64.28348500 17.92538500
-55.53425200 64.82849100 16.96228000
-52.20664600 66.02655800 14.74630700
-54.85607900 65.03552200 16.49444600
-52.80774700 65.74972500 15.16445900
-54.17634600 65.25965100 16.03811600
-53.49096700 65.49630700 15.59756500
-56.23387500 64.53919200 17.35318000
-57.02882800 63.89148700 18.21881100
-56.94622400 64.19383200 17.69259600
-56.18734700 64.71078500 16.70120200
-55.51100500 64.91375000 16.22842400
-57.67193200 63.80450400 17.98831200
-56.89019000 64.41126300 17.08132900
-52.78833400 65.80054500 14.40417500
-54.84725600 65.07422600 15.71298200
-54.17276000 65.27360500 15.23544300
-53.49057800 65.51046800 14.79058800
-52.09388400 66.07813300 13.78088400
-57.60658600 64.06106600 17.41345200
-56.84722100 64.56944300 16.41684000
-58.32671000 63.68949900 17.72726400
-56.16878100 64.78118100 15.95187400
-57.55944100 64.23088800 16.76116900
-55.50741200 64.92900100 15.42651400
-52.77409000 65.84548200 13.63360600
-54.84117900 65.09998300 14.92053200
-53.47423200 65.56536100 14.02908300
-58.27071000 63.89798000 17.11013800
-54.16188000 65.31342300 14.45794700
-52.10092500 66.04082500 12.93035900
-58.98331100 63.56158400 17.45541400
-56.83250400 64.62567900 15.65405300
-57.52223600 64.37121600 16.07846100
-56.16249500 64.80678600 15.15963700
-58.22842400 64.05635800 16.44488500
-52.75861000 65.91642000 12.88043200
-55.50654600 64.93667600 14.61596700
-58.93947200 63.72843900 16.79727200
-59.65241600 63.38899200 17.14013700
-57.51207000 64.41141500 15.30001800
-53.63060800 65.47119100 13.08514400
-58.16862100 64.15829500 15.73352100
-55.50759100 64.93438000 14.16937300
-54.84269000 65.09605400 13.81213400
-56.83037600 64.62859300 14.86050400
-54.17438100 65.26922600 13.44140600
-53.13565800 65.75239600 12.64398200
-52.77729800 65.84846500 12.44229100
-56.16680100 64.78189100 14.51043700
-52.16295600 65.79699700 12.30798300
-58.91220100 63.82922400 16.07757600
-59.61751200 63.51551100 16.44604500
-60.32378000 63.19874600 16.81127900
-58.82561100 63.87724300 15.32705700
-57.53274900 64.33666200 14.48236100
-56.19399300 64.70023300 13.72522000
-58.17734100 64.12418400 14.88586400
-56.85761300 64.53819300 14.08111600
-54.22485700 65.09349100 12.75674400
-54.87706400 64.97023800 13.06857300
-52.26046000 65.45812200 11.81790200
-55.52941900 64.83933300 13.38568100
-52.88990400 65.41301700 12.04168700
-53.54764600 65.27254500 12.37338300
-59.60156300 63.57341000 15.68594400
-60.29705400 63.30629000 16.09491000
-60.99276000 63.02510800 16.49554400
-60.19064300 63.37178800 15.36145000
-59.51737600 63.61212200 14.91992200
-58.92192100 63.79769900 14.55548100
-58.24636100 63.99937400 14.15356400
-57.57815600 64.17146300 13.78378300
-56.91186100 64.34118700 13.41848800
-56.24913000 64.49173000 13.07266200
-55.59369700 64.61905700 12.75415000
-54.94308100 64.72560900 12.45806900
-54.29153800 64.83721200 12.15701300
-53.63671900 64.96431000 11.83926400
-52.98964700 65.05979900 11.55627400
-52.35039900 65.12645000 11.30566400
-60.97974400 63.07298300 15.72567700
-60.98757900 63.04599000 15.03976400
-58.96669000 63.63507800 13.85394300
-60.30584700 63.26627300 14.61520400
-58.29896200 63.80287900 13.48822000
-59.63086700 63.46392100 14.21701000
-57.63770300 63.95164500 13.14563000
-56.97990400 64.08777600 12.81726100
-56.32304800 64.21963500 12.49350000
-55.67117300 64.33058200 12.19250500
-55.02322800 64.43258700 11.90307600
-54.37605300 64.52773300 11.62030000
-53.72871000 64.62323000 11.33712800
-53.08786800 64.69734200 11.07849100
-52.44950500 64.76071200 10.83154300
-61.02720300 62.90643300 14.31414800
-60.35609100 63.09417700 13.92837500
-59.69234800 63.24951900 13.57760600
-59.03164300 63.39464600 13.23861700
-58.36882000 63.55178800 12.88736000
-57.71092200 63.68283100 12.56308000
-57.05632400 63.80619800 12.24881000
-56.40658600 63.91166700 11.95468100
-55.75915500 64.00873600 11.66995200
-55.11562000 64.09156000 11.40127600
-54.47501800 64.16299400 11.14523300
-53.83602900 64.23365000 10.89074700
-53.19669000 64.29551700 10.64492800
-52.56026800 64.35164600 10.40612800
-61.08503300 62.69888300 13.66400100
-60.41958600 62.85869600 13.30755600
-59.10719700 63.11784400 12.66513100
-59.76329400 62.98299400 12.99066200
-58.44769700 63.26031500 12.32959000
-57.79471600 63.37357300 12.02563500
-57.14363500 63.48621400 11.72387700
-56.49553300 63.58415200 11.43786600
-55.85465200 63.65671500 11.18060300
-55.21720100 63.71884200 10.93536400
-54.58104700 63.77401700 10.69763200
-53.94511400 63.83065800 10.45849600
-53.30782700 63.89045700 10.21545400
-52.67529700 63.93360100 9.99133300
-59.18629800 62.81972500 12.11352500
-57.88637500 63.03862000 11.51760900
-58.53282200 62.93890400 11.80392500
-57.23935300 63.13036300 11.23812900
-56.59594700 63.21080000 10.97198500
-55.95836600 63.27720600 10.72238200
-55.32309700 63.32886500 10.48858600
-54.68868300 63.37396200 10.26162700
-54.05314300 63.42612500 10.02722200
-53.41887300 63.47428900 9.79736300
-52.79053100 63.50495900 9.58746300
-60.81641800 62.50594300 12.88995400
-60.34899900 62.50801100 12.48965500
-50.75101100 66.42163800 17.08258100
-49.75901400 67.80768600 15.28811600
-51.97898900 64.17582700 19.68377700
-51.87332900 64.56886300 19.24295000
-49.97430400 67.00763700 16.15643300
-51.76836000 64.95883900 18.79919400
-51.66295200 65.35108200 18.35754400
-51.55584300 65.74092900 17.91513100
-51.47649400 66.04998800 17.39120500
-49.89590100 67.29965200 15.61892700
-50.69850900 66.62615200 16.45916700
-51.24926800 66.29515800 16.84848000
-50.02338000 67.65029100 15.08438100
-49.62152100 67.96336400 14.64331100
-49.41358600 68.32883500 14.20236200
-48.97570800 68.41077400 13.99276700
-48.33831400 68.47053500 13.74987800
-50.65492600 66.78952800 15.79873700
-51.42662400 66.30925000 16.00100700
-51.00904500 66.61660000 15.55960100
-50.64743000 66.94058200 15.11853000
-50.29159900 67.26607500 14.67752100
-50.11938100 67.64115900 14.23660300
-49.75137700 67.83995800 13.92465200
-49.10004000 67.95128600 13.62390100
-48.46625500 67.99765000 13.39602700
-47.83430500 68.03693400 13.17611700
-51.57855200 66.32065600 15.15444900
-51.10911600 66.60855900 14.71179200
-50.71333300 66.92329400 14.27069100
-50.29863400 67.23289500 13.82965100
-49.87603400 67.37925700 13.55700700
-49.22705500 67.48183400 13.26611300
-48.58821100 67.54699700 13.01715100
-47.95572300 67.58828000 12.79501300
-51.07541700 66.56442300 13.86389200
-50.40451400 66.80488600 13.42260700
-50.00378000 66.90708900 13.20236200
-49.35001000 67.02746600 12.89147900
-51.66843000 66.29879800 14.30545000
-48.70760700 67.10582700 12.62774700
-48.07603500 67.14374500 12.40933200
-51.41490900 66.28344000 13.36920200
-50.74739500 66.45516200 13.00076300
-50.09823600 66.55861700 12.70889300
-49.45921300 66.62422200 12.45941200
-48.82186100 66.68383000 12.21673600
-48.19027300 66.72175600 11.99832200
-51.47176400 66.07475300 12.71905500
-50.82143400 66.18257900 12.42224100
-50.17721600 66.26770000 12.15094000
-49.54639100 66.30281800 11.93566900
-48.91878500 66.32619500 11.73358200
-51.54671100 65.79882000 12.14428700
-50.90244700 65.88409400 11.87277200
-50.26126900 65.95793200 11.61410500
-49.63438800 65.97837800 11.41528300
-49.00677500 66.00177000 11.21319600
-51.62572500 65.50775100 11.58636500
-50.98647300 65.57440900 11.33578500
-50.35142500 65.62542000 11.10269200
-49.72666200 65.63802300 10.91268900
-51.71059000 65.19492300 11.05300900
-51.07614100 65.24373600 10.82238800
-50.44790300 65.26947000 10.61767600
-49.82357400 65.28044900 10.42950400
-51.80990600 64.82842300 10.57971200
-51.17794000 64.86800400 10.35946700
-50.55051000 64.89074700 10.15814200
-49.92670400 64.89975700 9.97216800
-51.92390100 64.40735600 10.16775500
-51.29119900 64.44967700 9.94442700
-50.66102600 64.48257400 9.73168900
-50.03706700 64.49218800 9.54504400
-52.04018400 63.97779800 9.76532000
-51.41001900 64.01065800 9.55258200
-50.78029600 64.04192400 9.34170500
-50.15370600 64.06130200 9.14407300
-52.15988200 63.53553000 9.37701400
-51.53064700 63.56496400 9.16815200
-50.90197800 63.59229300 8.96167000
-50.27513900 63.61258700 8.76303100
-30.21364200 59.62527500 18.39825400
-32.27119800 58.90480000 19.71279900
-29.53766600 59.82861300 17.92507900
-28.86494300 60.01996600 17.44043000
-31.04403300 58.84923600 19.14050300
-31.73016400 58.60870400 19.57788100
-30.36246900 59.07315100 18.68685900
-29.67882500 59.30480200 18.24084500
-29.00322500 59.50676700 17.76629600
-29.82267800 58.77105700 18.54705800
-30.50833500 58.53194400 18.98608400
-31.19521700 58.28819300 19.42065400
-29.14540500 58.97919500 18.07849100
-29.97090500 58.22734100 18.84118700
-29.28799100 58.45011100 18.38922100
-30.66078200 57.96615600 19.26174900
-29.43434900 57.91504700 18.69128400
-30.12120800 57.66391800 19.12149000
-29.58567000 57.34620700 18.96664400
-27.44332300 62.99410200 13.90011600
-27.87292500 61.39765900 15.64016700
-27.97955300 61.00139600 16.07800300
-27.55832900 62.56688700 14.30822800
-27.77022900 61.77938800 15.18856800
-27.66723600 62.16222400 14.73800700
-28.09147600 60.58557900 16.49700900
-28.20968200 60.14653800 16.89389000
-28.33331500 59.68747700 17.27154500
-26.91504900 62.64947500 13.71960400
-27.02903600 62.22602100 14.13131700
-27.13752600 61.82288400 14.56253100
-27.35080900 61.03026600 15.43789700
-27.24600200 61.41979200 14.99371300
-27.45907600 60.62796000 15.86990400
-27.57180200 60.20917500 16.28610200
-28.47172700 59.17382000 17.59698500
-27.68523600 59.78776600 16.69982900
-27.80703400 59.33549500 17.08398400
-26.38575200 62.30837200 13.54245000
-26.50224700 61.87567100 13.94531300
-26.61112200 61.47110700 14.37515300
-28.61746800 58.63307200 17.89657600
-26.72405800 61.05155200 14.79064900
-26.83125100 60.65320600 15.22634900
-26.94097500 60.24551400 15.65322900
-27.94784000 58.81296500 17.40094000
-27.05670700 59.81562000 16.05877700
-27.16739100 59.40438800 16.48223900
-28.75869000 58.10903200 18.21206700
-27.28394100 58.97147400 16.88491800
-25.86268600 61.94449600 13.34353600
-25.98039100 61.50732400 13.74212600
-28.09207200 58.27780200 17.70587200
-26.09373500 61.08625000 14.15621900
-26.20526100 60.67190600 14.57659900
-26.31367100 60.26906600 15.00802600
-26.42702700 59.84796100 15.42205800
-28.90695800 57.56266000 18.50503500
-27.43156600 58.42377500 17.17779500
-28.23336800 57.75348700 18.02111800
-26.65258800 59.00997900 16.25415000
-26.54720300 59.40164900 15.81192000
-25.33609800 61.59363600 13.15701300
-26.77385700 58.55964700 16.64013700
-27.57085400 57.90688300 17.50021400
-25.45994400 61.13378100 13.53396600
-25.57558100 60.70423100 13.93991100
-29.05856900 56.99783300 18.78234900
-25.69252200 60.26988200 14.34118700
-28.38721100 57.18299100 18.29217500
-25.80304000 59.85925300 14.76516700
-24.80455400 61.26084900 12.98785400
-25.91815800 59.43164100 15.17300400
-26.92209400 58.00967400 16.93081700
-27.71978200 57.35436200 17.78845200
-26.03721800 58.98946400 15.56677200
-26.14503900 58.58879100 16.00036600
-24.93390500 60.78065500 13.34530600
-25.05699500 60.32357800 13.72494500
-28.53923800 56.61963700 18.56985500
-27.06671100 57.47308300 17.23440600
-26.27841400 58.09373500 16.34359700
-24.27685000 60.91410100 12.80532800
-25.17764100 59.87554200 14.11312900
-27.87218500 56.78908500 18.06460600
-25.29231100 59.44957700 14.52246100
-25.40753000 59.02159100 14.92993200
-24.41118800 60.41547400 13.14514200
-27.21411700 56.92677300 17.52841200
-25.52853000 58.57224300 15.31683300
-26.42950800 57.53321100 16.62420700
-24.53506700 59.95550500 13.52197300
-28.02306700 56.22896600 18.34570300
-25.65284300 58.11064900 15.69216900
-23.75386600 60.54968300 12.60589600
-24.65755300 59.50067100 13.90365600
-27.35834300 56.39038100 17.83258100
-24.77387400 59.06859600 14.30715900
-26.57191700 57.00479100 16.93560800
-23.88703000 60.05542000 12.94986000
-24.89710600 58.61100800 14.68631000
-25.79586800 57.57994800 16.00125100
-24.01199300 59.59142300 13.32287600
-26.71283300 56.48439800 17.25402800
-23.23214000 60.18085500 12.40222200
-27.50655400 55.84083600 18.12359600
-25.03076900 58.11488300 15.02850300
-24.13487400 59.13511700 13.70315600
-25.93682300 57.05688500 16.31774900
-23.36129200 59.70140100 12.76034500
-24.26099000 58.66687800 14.07202100
-25.16374200 57.62130700 15.37323000
-26.85220100 55.96383700 17.57370000
-23.48579200 59.23913600 13.13504000
-26.07716200 56.53952000 16.63894700
-22.70628900 59.82727800 12.21313500
-23.61175300 58.77146100 13.50442500
-24.40970000 58.11516600 14.36114500
-25.30779600 57.08680000 15.67868000
-27.00038500 55.41615300 17.86602800
-26.21543300 56.02654300 16.96502700
-22.84174700 59.32452400 12.54898100
-22.96678200 58.86026800 12.92175300
-25.44988800 56.55954700 15.99111900
-22.18206400 59.46745300 12.01806600
-24.55603200 57.57224300 14.65856900
-26.35582000 55.50488300 17.28299000
-23.77461100 58.16749600 13.74350000
-23.10539100 58.34587900 13.24649000
-25.58783300 56.05260500 16.32214400
-22.31856300 58.96084600 12.35025000
-26.50182500 54.96416500 17.58215300
-22.44968400 58.47411300 12.70153800
-21.66239000 59.09105700 11.80715900
-25.72539300 55.53986400 16.64883400
-24.82917200 56.55852500 15.32254000
-24.47144700 56.78287500 14.79180900
-24.21301500 57.13471200 14.35080000
-23.93077700 57.48008700 13.90982100
-23.23196600 57.87685400 13.29724100
-22.75353600 58.00544700 13.02737400
-25.85809300 55.04207600 16.99050900
-21.79787300 58.58821100 12.14294400
-24.96382000 56.05876900 15.66125500
-21.92856800 58.10304300 12.49569700
-25.10335500 55.54108400 15.98291000
-26.00448600 54.50135800 17.28958100
-21.16548200 58.63031000 11.51559400
-25.23657400 55.04871400 16.32827800
-24.36097000 55.99198200 14.92974900
-25.36794900 54.56070700 16.67840600
-23.53530100 59.06099700 11.33105500
-24.49123600 55.49916800 15.27658100
-23.99950400 56.19886000 14.38433800
-23.78549800 56.56269100 13.94339000
-23.56142400 56.92377500 13.50247200
-23.29597300 57.27370500 13.06146200
-22.71589700 57.48807500 12.67318700
-22.10867500 57.43569900 12.55606100
-21.40490900 57.60633900 12.17849700
-21.20916900 57.97510500 11.73754900
-20.85970100 58.30233000 11.29650900
-25.50318500 54.05578600 17.01275600
-24.62368800 55.01467900 15.62884500
-24.75420600 54.53174600 15.98345900
-23.01637800 58.68182400 11.11749300
-24.88049900 54.06298800 16.35186800
-25.00839600 53.58702900 16.71359300
-24.02252200 54.94440500 14.89349400
-23.18165600 58.06890900 11.34802200
-23.76502200 55.25733200 14.41778600
-23.55184900 55.62135300 13.97686800
-23.38215100 55.99716200 13.53591900
-23.24935700 56.38286600 13.09509300
-23.13846800 56.77454400 12.65423600
-23.03430900 57.16798400 12.21337900
-22.79477300 57.19753300 12.11468500
-22.18722500 57.14635500 11.99624600
-21.61689900 56.95663500 12.03320300
-23.82478700 58.64611800 10.89175400
-21.28447300 57.11717200 11.77127100
-22.49038500 58.32877300 10.84585600
-20.94766200 57.44785300 11.33023100
-24.14815500 54.49276700 15.27667200
-24.27300300 54.01998100 15.64209000
-24.39867800 53.55040000 16.01019300
-21.97160700 57.94880700 10.71460000
-22.67220900 57.65449500 11.10073900
-24.52751700 53.07270800 16.36993400
-22.48312600 57.20282000 11.46881100
-22.79353300 57.20395700 11.48663300
-21.42506800 57.67141700 10.59841900
-22.11670900 56.83314500 11.58548000
-20.86807800 57.43285400 10.51937900
-23.49086600 54.30465700 14.45053100
-23.15503300 55.05764000 13.56945800
-23.05009500 55.45092000 13.12860100
-23.01764700 55.86371600 12.68780500
-23.02649900 56.28770400 12.24704000
-23.08774600 56.72580000 11.80636600
-23.41104100 57.65625000 10.92507900
-21.75029900 56.46343200 11.70211800
-23.77811100 58.17691800 10.48461900
-21.11510800 56.61485300 11.36401400
-23.68014500 53.93171700 14.88870200
-23.32097400 54.67852000 14.00759900
-23.79603200 53.47600600 15.27224700
-22.17147100 57.20815300 10.82293700
-22.24502200 56.93479900 11.12844800
-23.92143100 53.01699100 15.64913900
-22.06179400 56.74990800 11.18676800
-24.04387700 52.56594800 16.03387500
-21.63889500 56.87917300 10.65741000
-21.84299300 56.76129900 10.72988900
-21.08378000 56.63368200 10.57168600
-22.00849700 56.67216500 10.78839100
-21.90618300 56.46369900 10.91665600
-23.23696500 53.35865800 14.48495500
-23.07496100 53.73652600 14.04409800
-23.40585300 52.98172000 14.92471300
-22.82164400 54.93257900 12.72128300
-22.83032400 55.35649900 12.28054800
-22.89403300 55.79530300 11.83978300
-22.94166900 56.22972100 11.39910900
-23.13308300 56.70295000 10.95852700
-23.39130600 57.19426700 10.51794400
-21.80558400 56.26058200 11.04531900
-23.65554800 57.68718000 10.07739300
-21.21180900 56.15822600 10.98425300
-22.95122100 54.12126900 13.59982300
-22.86242100 54.51329000 13.15741000
-21.50455700 56.35172300 10.67233300
-23.44967300 52.46357000 15.26892100
-21.82394200 56.19298600 10.89920000
-23.57171600 52.01968400 15.66003400
-21.84028600 56.13288100 10.75216700
-21.25575100 55.99642900 10.64498900
-21.19705400 55.89024400 10.64096100
-21.10713000 55.77374300 10.62997400
-21.41751900 55.73882300 10.66192600
-22.94723100 52.40241200 14.51855500
-22.81237000 52.78664400 14.07669100
-23.09842300 52.01917300 14.95684800
-22.68541900 54.86076400 11.87335200
-22.74630000 55.29882000 11.43258700
-22.73048600 53.18510400 13.63488800
-22.89746300 55.76118500 10.99197400
-23.11616100 56.24178300 10.55142200
-23.35116400 56.72683700 10.11080900
-23.54463800 57.20063000 9.67022700
-21.34349100 55.67141700 10.64602700
-22.69194400 53.59375000 13.19305400
-22.66401500 54.00441700 12.75109900
-22.68617800 54.42383600 12.30838000
-21.27467000 55.39865100 10.67346200
-23.10145800 51.46155500 15.27529900
-21.52520800 55.51165000 10.47668500
-22.68784700 51.45326200 14.55108600
-22.81044200 51.06373600 14.99093600
-22.90835600 55.30752600 10.58490000
-23.08079500 55.77564200 10.14431800
-23.25281100 56.24366800 9.70364400
-23.44044700 56.71590400 9.26306200
-22.50748400 53.08784500 12.78701800
-22.49912600 52.66320800 13.22641000
-22.51357800 53.51020100 12.34610000
-22.52129900 52.24562100 13.66485600
-22.60651400 54.37274200 11.46530200
-22.58295800 51.83873000 14.10232500
-22.53356700 53.92936700 11.90374800
-22.85656400 54.83688400 10.17773400
-23.04073000 55.30816700 9.73715200
-23.21462800 55.77672600 9.29647800
-23.40951500 56.25090000 8.85592700
-22.34578500 50.90094000 14.14062500
-22.30106000 51.72977400 13.26046800
-22.35289600 52.58610500 12.37918100
-22.32249600 52.15596800 12.81906100
-22.53476900 53.89661400 11.06085200
-22.43023700 50.49824500 14.57769800
-22.30457700 52.22148100 12.16418500
-20.16745900 57.72484600 10.94775400
-19.62102100 57.44708300 10.83120700
-19.06554400 57.20291900 10.74679600
-18.51373900 56.94499200 10.64920000
-20.37370900 56.96060200 11.03347800
-17.96409800 56.67927600 10.54415900
-19.82258800 56.70011100 10.93347200
-17.41028600 56.42898600 10.45382700
-19.26434900 56.46617100 10.85882600
-20.31764200 57.17007400 10.41711400
-16.85656900 56.17808500 10.36303700
-18.71017500 56.21698800 10.76959200
-19.76766200 56.90538800 10.31308000
-16.30449300 55.92137900 10.26657100
-18.15983000 55.95386500 10.66702300
-19.22030400 56.63124800 10.19998200
-20.02409700 55.95336900 11.03601100
-15.76293900 55.62556500 10.13278200
-17.60878400 55.69335200 10.56695600
-18.67063100 56.36542500 10.09481800
-20.65944900 55.90194700 11.09585600
-19.46927100 55.70681800 10.94931000
-20.52720100 56.39359300 10.49115000
-17.06071500 55.42160800 10.45614600
-18.12100200 56.09967800 9.98974600
-15.41145900 55.36338800 9.98330700
-18.91807200 55.44663200 10.84960900
-19.97425800 56.13984700 10.39758300
-15.59275800 55.21319600 10.02923600
-16.51466400 55.14263900 10.33847000
-17.57139800 55.83383200 9.88458300
-18.36439100 55.19586200 10.75882000
-19.42532300 55.87153600 10.29007000
-17.02092600 55.57095300 9.78225700
-17.81584900 54.92607900 10.64990200
-18.87528400 55.60706300 10.18624900
-16.12448300 54.77175900 10.21627800
-16.46902800 55.31359100 9.68524200
-20.83039100 55.26924900 10.92126500
-20.97041500 55.56066900 10.65621900
-20.26876600 55.04718000 10.99447600
-20.74657600 55.58074200 10.57186900
-19.68953700 54.89077000 10.99404900
-20.13466300 55.54557000 10.43548600
-16.64349200 54.66533700 10.36764500
-16.28797700 54.66949500 10.26266500
-17.26813700 54.65301500 10.53787200
-18.32638400 55.33863100 10.07855200
-20.87747400 55.18836200 10.89083900
-19.12693400 54.67272900 10.92611700
-15.91349000 55.06948900 9.58166500
-16.52818900 54.53517900 10.25683600
-17.77762200 55.06967200 9.97039800
-16.10270700 54.92604100 9.62539700
-20.63353500 54.93067900 10.88345300
-16.68861600 54.43731700 10.28024300
-18.57558100 54.41333000 10.82711800
-20.85517500 55.17832200 10.61700400
-19.63746500 55.08552600 10.35507200
-17.23262600 54.78657500 9.84878500
-20.75939900 55.01162000 10.60394300
-16.93954700 54.27475000 10.27941900
-20.34223900 54.55180400 10.92108200
-19.08679000 54.82340200 10.25344800
-17.42141700 54.08527400 10.51928700
-16.68008800 54.53157800 9.75396700
-20.11745500 54.31422400 10.92752100
-16.42810200 54.47598300 9.68893400
-18.08100500 53.94372600 10.70504800
-20.36362800 54.69713600 10.53082300
-18.53623600 54.56105800 10.15164200
-19.89016700 54.14772800 10.94320700
-19.30561800 54.01084900 10.92089800
-18.70511800 53.93348700 10.83181800
-18.19623000 53.89455400 10.72848500
-16.56473000 54.38921400 9.71868900
-16.76612300 54.33616600 9.79437300
-19.97958200 54.11116800 10.92434700
-20.24469200 54.50827800 10.51132200
-19.90891100 53.96714000 10.91265900
-17.98951700 54.28456900 10.03631600
-18.57520100 53.71357700 10.75549300
-19.84791800 54.30574000 10.42596400
-18.73254000 53.63472700 10.75064100
-17.44673500 53.99305700 9.98538200
-20.06559600 54.17364500 10.49520900
-19.29937600 54.03573600 10.31680300
-19.46759400 53.46663700 10.90100100
-19.96941200 53.85547600 10.49939000
-18.14633900 53.70335400 10.13760400
-18.75664900 53.74448400 10.18734700
-18.43920300 53.64341700 10.17340100
-19.86423100 53.68753100 10.48965500
-18.83145700 53.46694900 10.33660900
-19.50350400 53.40497600 10.52209500
-19.34343500 53.35043300 10.51187100
-64.53723900 61.41529100 14.21301300
-62.82259400 61.78456100 13.26309200
-62.35237100 61.77983100 12.86276200
-61.88543700 61.78302000 12.46304300
-63.60300400 61.45194200 13.24917600
-65.26423600 61.01480900 13.95019500
-63.13340800 61.44859300 12.84863300
-62.66635100 61.45139300 12.44537400
-64.38671100 61.12710600 13.22805800
-62.19673900 61.44844100 12.04989600
-63.91276600 61.11373900 12.83279400
-61.71762100 61.42337000 11.65402200
-64.68852200 60.86293800 13.06472800
-63.44600700 61.11772900 12.43234300
-65.15825700 60.77288100 13.21490500
-62.97274000 61.10509500 12.03295900
-64.68282300 60.75505100 12.81390400
-62.48079700 61.04724900 11.63885500
-64.21997800 60.76876800 12.41369600
-65.93399000 60.42843600 13.19696000
-63.74648300 60.75553900 12.01416000
-61.98182700 60.97251900 11.24511700
-65.45462000 60.40106200 12.79852300
-63.25289900 60.69433600 11.62207000
-64.97673800 60.37805900 12.40203900
-64.50504300 60.36908000 12.00158700
-62.74982500 60.60939800 11.23013300
-64.01526600 60.31682600 11.60717800
-62.22643300 60.47557100 10.84585600
-63.50779000 60.22263300 11.21975700
-65.24993900 59.95006600 11.99374400
-64.76050600 59.89721700 11.59692400
-62.97889700 60.07576000 10.83868400
-66.27291900 59.59446700 12.18481400
-64.98226200 59.77729800 11.62826500
-64.25852200 59.81588700 11.20632900
-62.43840000 59.89859000 10.45269800
-63.73041500 59.67350800 10.82635500
-64.98689300 59.35728500 11.20422400
-67.02131700 59.13080600 11.99719200
-66.38623800 59.17534600 11.77047700
-65.75483700 59.21257800 11.55282600
-63.18810300 59.49401900 10.44689900
-64.44551100 59.17811600 10.81991600
-62.64593500 59.31709300 10.07193000
-63.90945400 59.01712000 10.44485500
-66.53394300 58.63192700 11.49511700
-65.90423600 58.66282700 11.28463700
-63.36871300 58.84127800 10.06399500
-64.60777300 58.49123400 10.45535300
-66.06651300 58.07665300 11.05581700
-62.83832600 58.53264600 9.63137800
-64.07167100 58.32459300 10.07043500
-63.51956900 58.11479900 9.68496700
-66.20890800 57.53555300 10.78079200
-65.55867000 57.66081200 10.46273800
-64.77043900 57.79828600 10.07620200
-62.97386200 57.79181700 9.26196300
-63.62114700 57.54216800 9.40387000
-65.06191300 57.18214400 9.94104000
-64.24838300 57.30183400 9.56857300
-64.86718000 57.06482700 9.74563600
-63.06783300 57.07454700 8.94073500
-63.70642900 56.82754500 9.09228500
-64.32071700 56.58740200 9.27661100
-64.91238400 56.37563300 9.47708100
-63.03846000 56.41527600 8.76837200
-65.52867100 56.13642100 9.66287200
-63.66172000 56.17485000 8.94177200
-64.27346800 55.94564800 9.12307700
-64.87616700 55.71971100 9.31405600
-63.56822200 55.55624400 8.83770800
-64.16320000 55.33348100 9.03851300
-61.11869800 62.15015400 12.47839400
-59.27529100 62.49252300 11.59655800
-58.62916900 62.58445000 11.31759600
-57.98616000 62.66190300 11.05453500
-57.34327700 62.74372100 10.78729200
-56.70684400 62.80120800 10.54711900
-56.07193400 62.85651400 10.30969200
-55.43742000 62.90531200 10.07907100
-54.80098000 62.96087600 9.84088100
-54.16666400 63.00711800 9.61294600
-53.53584700 63.04258700 9.39736900
-52.91109800 63.05534400 9.20721400
-60.64992900 62.14785800 12.07571400
-60.16739300 62.11293000 11.67831400
-61.42355300 61.79840900 12.05761700
-59.37810900 62.11077100 11.14016700
-58.73741100 62.18077900 10.88574200
