-41.98982200 5.93865200 -22.16156000
-42.11782100 4.26203900 -23.15426600
-42.23268900 2.41104500 -23.89221200
-40.10226400 4.53314600 -23.95239300
-40.08713500 2.54758100 -24.47869900
-40.41165200 0.84816600 -25.56732200
-38.36848400 3.06688300 -25.75479100
-38.40273300 1.22550600 -26.52548200
-38.47141300 -0.55562200 -27.31521600
-36.35805500 1.71449700 -27.39675900
-36.39520300 -0.03459400 -28.27026400
-36.33396100 -1.91503000 -28.78042600
-34.23630500 0.47273100 -28.94537400
-34.20595600 -1.32896400 -29.71762100
-33.96830000 -3.21588300 -29.99661300
-32.10577400 -0.58493400 -30.53460700
-31.76528200 -2.43448600 -30.88174400
-31.33908800 -4.27289000 -31.03152500
-29.64848300 -1.56018600 -31.63592500
-29.18466200 -3.44458000 -31.79898100
-28.57447800 -5.26291100 -31.68689000
-30.74368300 -6.04994600 -30.93774400
-27.81273700 -6.97873500 -31.31295800
-29.96534700 -7.68872800 -30.51895100
-26.92364500 -8.54292300 -30.65591400
-25.74715400 -6.24239900 -31.96920800
-24.86774400 -7.87452700 -31.28680400
-23.86869000 -9.29269000 -30.34582500
-22.88436100 -7.11386100 -31.73956300
-21.92819200 -8.57326500 -30.73907500
-20.83956100 -9.70961800 -29.50799600
-19.99293500 -7.83258200 -31.12582400
-18.98054100 -8.93882400 -29.88430800
-18.00775500 -9.68576600 -28.84085100
-17.00418900 -8.30931500 -30.13568100
-16.15514400 -8.95328700 -28.95217900
-15.70436500 -9.12311700 -27.97354100
-14.63898800 -8.08442900 -29.66973900
-14.25090800 -8.07432900 -28.68060300
-13.68362400 -8.58934600 -28.09747300
-12.20237700 -7.85138900 -29.16546600
-11.66516900 -8.83544500 -28.43319700
-11.07037400 -9.96925700 -27.40753200
-9.66135800 -8.77123500 -28.55508400
-9.18448300 -9.93257100 -27.52294900
-8.80639300 -11.15650200 -26.35952800
-7.23281900 -9.87182600 -27.66391000
-7.04197300 -11.11557600 -26.51626600
-7.07366600 -12.30402000 -25.09658800
-5.23535900 -11.14903500 -26.64941400
-5.39018600 -12.40413500 -25.33169600
-5.66167400 -13.52032500 -23.79159500
-3.64267300 -12.56019800 -25.37210100
-4.02119800 -13.68251600 -24.00027500
-4.39514200 -14.62851500 -22.43838500
-2.28864300 -13.94308100 -23.97689800
-2.77026000 -14.92197400 -22.77182000
-2.88752400 -15.71009400 -21.37078900
-0.91072500 -15.22196000 -22.80242900
-1.06395000 -15.81809600 -21.61843900
-0.92063900 -16.08443800 -20.17727700
0.90920300 -15.91921000 -21.55249000
0.87917300 -16.15180600 -20.20004300
0.91191500 -16.34273500 -18.61828600
2.73085800 -16.38780200 -19.96521000
2.67478600 -16.46185900 -18.38250700
4.55647300 -16.73298300 -19.56146200
4.37445100 -16.62754100 -17.93542500
4.11015300 -16.33813700 -16.23410000
5.94672000 -16.90030500 -17.31790200
5.64743000 -16.37605900 -15.66848800
5.21141100 -16.06641400 -13.95721400
7.14609500 -16.72174800 -14.98471100
6.68637500 -16.44577800 -13.29550200
6.01434700 -16.54998000 -11.62710600
8.14220400 -16.96522500 -12.63516200
7.48318500 -16.88460500 -10.95748900
6.67385100 -16.77173200 -9.33615100
8.97945400 -17.21628600 -10.27401700
8.14469900 -16.96562200 -8.63040200
7.13126800 -17.01022700 -7.04446400
9.62230300 -17.18266500 -7.91842700
8.61072200 -17.17645100 -6.31890900
7.54755400 -17.25359500 -4.77319300
10.11564600 -17.23928500 -5.58621200
9.04272100 -17.07579800 -4.04422000
7.92336700 -16.98979400 -2.52188100
10.54238100 -16.97407200 -3.29586800
9.41408500 -17.00537900 -1.77212500
12.03522100 -16.91336800 -2.53125000
10.93413900 -16.92878200 -0.99847400
9.85596500 -16.86308700 0.46460000
12.45626100 -16.85325400 -0.17376700
11.43576000 -16.83905400 1.28610200
10.51529700 -16.65793600 2.69491600
12.94033100 -16.75591700 2.21804800
11.97712300 -16.42686800 3.61825600
11.00877400 -15.84769200 4.93048100
9.71290200 -15.98184100 4.07974200
10.19794500 -14.83244400 6.08474700
9.09761800 -14.92299500 5.24148600
9.54033700 -13.61046800 6.98858600
8.59137000 -13.82203700 6.16995200
11.16571000 -14.94809200 7.21102900
10.43218200 -13.65649600 8.09259000
12.27467300 -15.00598300 8.40939300
11.60547300 -13.69959300 9.29528800
11.37119300 -12.71638700 9.84271200
13.04177100 -13.67146100 10.18664600
12.88913200 -12.82750300 10.78305100
12.79416300 -12.28324100 11.41714500
11.32264700 -11.95577400 10.29489100
12.75533500 -11.81550000 11.97338900
11.24591400 -11.37057700 10.78848300
12.76165200 -11.33415400 12.44799800
11.15786000 -10.87796200 11.26263400
9.85709400 -10.45723900 9.87039200
10.97370900 -10.53028100 11.74191300
9.58744800 -10.04108400 10.26193200
8.31393100 -9.69690100 8.90036000
8.54327400 -10.05508400 8.45910600
6.84021800 -9.19973900 7.81390400
6.76818500 -8.96264300 8.29193100
5.55012500 -7.98427200 8.05545000
5.58943200 -8.13755200 7.58609000
7.92378200 -9.67201200 9.37393200
6.53269600 -8.93027700 8.77471900
5.34799200 -7.94643600 8.48791500
4.51591500 -6.80127500 8.36196900
4.78407300 -6.79613300 7.99673500
6.21133800 -8.97674200 9.20593300
5.02940400 -7.98630100 8.85818500
4.17688000 -6.82860800 8.68380700
3.84145400 -5.40881200 8.93215900
4.23465000 -5.40889000 8.61544800
4.64688900 -8.06456600 9.16680900
3.73630900 -6.89731800 8.91677900
3.30769300 -5.40554800 9.11358600
3.30966200 -3.68322600 9.21035800
3.85733000 -3.72654900 9.09069800
3.29946100 -6.90424300 9.06860400
2.65385100 -5.43676400 9.14721700
2.66847600 -7.00925800 9.17388900
2.04396100 -5.40258600 9.12582400
4.24028000 -8.18602900 9.33349600
3.67516700 -8.37235500 9.42782600
2.87415300 -8.60759400 9.50274700
4.85685300 -9.48149100 9.98333700
4.10171100 -9.78307900 10.07016000
6.16728600 -10.40451200 10.76498400
5.32122400 -10.82392900 10.86505100
5.40499100 -9.23893000 9.83712800
6.69319200 -10.06366300 10.60003700
5.84200700 -9.05666400 9.57739300
7.14750700 -9.84277000 10.27075200
8.43002700 -10.45400800 11.43356300
8.81065400 -10.04241200 11.09262100
10.25040400 -10.74311600 12.61196900
9.83036000 -11.13473900 12.97897300
7.52830900 -9.79390500 9.82516500
9.20451700 -9.88414400 10.67327900
10.65224500 -10.49575000 12.22287000
12.62225000 -11.04074100 13.01596100
12.38138200 -11.10827600 13.59417700
12.07793000 -11.44281800 14.02737400
14.12809900 -11.89529400 14.42007400
13.84469200 -12.37371100 14.80645800
13.53660000 -12.92830800 15.17395000
11.71545800 -11.85778400 14.41256700
13.09516000 -13.45440700 16.01992800
11.24557500 -12.40365400 15.07861300
12.67518200 -14.08167800 17.02557400
10.93849200 -13.22805800 15.98080400
12.28150600 -14.49635500 18.17120400
10.70641700 -13.89741300 17.09985400
8.98228800 -13.51036500 16.18295300
10.50548600 -14.03440500 18.24041700
8.92407600 -13.99485400 17.50891100
7.31472000 -13.81104900 16.97052000
7.23541600 -13.31196800 15.45544400
5.60876100 -13.83175300 16.55233800
5.48229200 -13.54251700 14.97781400
3.93069100 -14.35300800 16.18963600
5.87693800 -13.78457300 18.02600100
4.18538700 -13.98860400 17.75952100
2.36934300 -14.32504100 17.59414700
4.57431400 -13.28528000 19.19699100
2.75179700 -13.68405200 19.11590600
0.99041400 -14.11573800 19.28604100
3.27717600 -12.45697800 20.51452600
1.49543400 -13.07034100 20.75552400
-0.60065800 -13.72734300 20.72583000
-0.87926500 -14.47856700 19.14553800
-2.80674400 -14.20736900 20.31008900
-2.84103400 -14.88682700 18.83688400
-5.00780100 -14.74097300 19.84286500
-4.80214300 -15.31055500 18.50732400
-7.08695600 -15.22593500 19.40286300
-6.82316200 -15.68029500 18.07989500
-9.24337400 -15.56491100 19.09109500
-8.94372600 -16.16847600 17.86361700
-11.45130900 -15.75621300 18.58718900
-11.08989700 -16.18928100 17.45294200
-10.64615200 -16.47018400 15.97540300
-13.24235200 -16.30328200 17.00296000
-12.80633200 -16.59053800 15.64215100
-12.20449800 -16.74530000 14.14520300
-14.97606700 -16.56131200 15.25048800
-14.15559800 -16.53554900 13.70986900
-13.34922000 -16.37208600 12.16677900
-15.93775900 -16.43186200 13.15533400
-15.04056900 -16.31806900 11.60586500
-14.15810000 -16.27390700 10.03927600
-14.70658100 -16.21329900 7.83541900
-16.89317700 -16.30547000 14.64352400
-15.51683000 -16.29794300 16.48104900
-13.62706400 -15.86664900 18.04422000
-15.85014000 -15.96889600 17.39834600
-13.98068600 -15.33202400 18.81787100
-16.12459900 -15.54360100 18.13555900
-14.30947500 -14.60647000 19.37817400
-16.38107300 -14.93395300 18.68188500
-18.48901400 -15.16224300 18.03167700
-16.55936100 -14.15381600 18.94473300
-18.63605900 -14.53168500 18.42263800
-19.87304700 -14.26240900 18.25726300
-20.18584400 -15.14732200 17.69204700
-21.33848600 -14.70865500 17.48114000
-20.85664400 -13.77363800 18.14123500
-21.76219900 -13.19419300 18.12442000
-22.15094000 -14.06053000 17.37338300
-20.17210400 -12.82769400 18.66366600
-20.90051300 -12.12072600 18.88681000
-19.09396700 -11.89942900 19.17016600
-19.70248400 -11.01633300 19.29464700
-20.14412700 -10.07704200 18.93292200
-21.45871000 -11.31584700 18.60491900
-22.31472800 -12.48593300 17.98037700
-22.67533100 -11.78215800 17.54968300
-23.09172800 -12.56570400 16.77124000
-22.72576100 -13.32878700 17.16192600
-21.80313900 -10.59607300 18.04715000
-20.55378000 -9.30093200 18.21310400
-20.97596700 -8.69987500 17.35250900
-19.15202000 -8.08322300 18.41040000
-19.69081100 -7.39526700 17.53442400
-19.96392800 -7.02534500 16.42898600
-21.27974700 -8.34285900 16.35137900
-19.77720600 -7.15946800 15.23785400
-21.10549900 -8.41023600 15.26678500
-19.37635800 -7.61575900 14.13833600
-20.69765500 -8.73315200 14.27963300
-21.89446300 -9.93885000 14.52887000
-20.36991900 -9.32666000 13.70166000
-21.70039400 -10.41134600 14.06237800
-22.74533800 -11.52072500 14.33178700
-22.83696000 -11.18753100 14.90289300
-23.18582900 -12.51903000 14.75820900
-23.20494800 -12.18324700 15.47155800
-23.16156800 -13.40875200 15.11187700
-23.19754800 -13.05237400 15.95358300
-22.80789900 -14.16323700 15.35623200
-22.82437100 -13.88475800 16.27594000
-22.17144800 -14.82389500 15.43170200
-22.21620200 -14.61892300 16.44741800
-23.22133600 -14.51656500 14.61084000
-22.74842800 -15.23157100 14.69177200
-23.75797300 -14.75303800 13.91180400
-23.46163200 -15.53808500 13.96905500
-22.97701300 -16.18450200 13.76522800
-24.21242500 -15.61367600 13.20105000
-23.98270400 -16.17476300 12.90118400
-25.20941200 -15.55788800 12.76867700
-25.14366100 -16.12477900 12.39831500
-26.28655200 -15.45157400 12.65905800
-26.37117000 -16.08955800 12.32092300
-27.43288400 -15.27238600 12.84100300
-27.64502000 -15.93074400 12.52896100
-27.84484100 -16.32481400 11.95214800
-29.10692600 -15.80241300 12.85806300
-29.36794300 -16.21158800 12.26660200
-30.91290300 -15.79245900 13.18771400
-31.15831800 -16.21428700 12.59576400
-31.35512500 -16.41715400 11.83691400
-33.18187000 -16.26345100 12.73312400
-33.29550900 -16.51025800 11.93902600
-33.37829600 -16.66760600 10.99520900
-35.38208800 -16.66981500 11.79696700
-35.31514700 -16.79832600 10.81851200
-35.24929800 -16.87429400 9.61212200
-37.33440400 -16.79402900 10.48895300
-37.11403700 -16.86519600 9.30569500
-36.97999600 -16.91399200 7.67611700
-39.04672200 -16.73933000 9.00613400
-38.76358800 -16.61604700 7.48214700
-38.78337100 -16.48939100 5.64682000
-40.54037500 -16.69796400 7.15499900
-40.46621700 -16.67867700 5.34069800
-40.50054200 -16.70517300 3.23373400
-41.61098500 -16.77876100 4.86886600
-41.74616200 -16.75024800 6.85818500
-42.58571600 -16.82688900 6.62347400
-42.60476700 -16.67733000 4.51306200
-43.25798000 -16.82551800 6.35345500
-43.25560000 -16.47480000 4.50863600
-43.76145200 -16.54456300 6.04556300
-43.70996100 -16.18095600 4.52783200
-44.08950000 -16.05559200 5.83667000
-44.73258200 -15.83424800 7.31146200
-44.69193300 -15.24558900 7.18515000
-44.53196000 -16.33618200 7.53036500
-44.84125500 -16.08718900 9.14382900
-45.00798000 -15.44492600 9.07647700
-44.86597400 -14.79129800 8.99050900
-43.60494200 -16.12543900 10.53054800
-43.91445900 -15.50148900 10.75991800
-44.07650800 -14.80616300 10.58670000
-43.99135600 -14.29996900 10.38061500
-44.62455700 -14.31493200 8.82797200
-42.05736500 -15.63357300 11.57403600
-42.23899800 -14.97476300 11.72064200
-42.34299500 -14.33338200 11.57931500
-42.35439300 -13.67521300 11.32122800
-43.80251300 -13.64294100 10.12847900
-40.13067600 -15.15768700 12.46765100
-40.17313400 -14.43784900 12.53927600
-40.18193800 -13.69717200 12.40167200
-40.14734600 -12.95372400 12.17526200
-42.26404600 -12.95384200 11.10946700
-37.84220100 -14.60691600 13.27325400
-37.76240500 -13.83930000 13.16873200
-37.64683500 -13.05180500 12.97061200
-37.47641000 -12.21823100 12.67440800
-39.88829800 -12.04942300 11.86029100
-35.24317200 -13.91091500 13.82641600
-35.14307400 -13.12873800 13.57846100
-35.00131200 -12.23613200 13.24945100
-34.54613500 -10.76283600 12.49035600
-36.97812700 -11.01249700 12.17602500
-32.58490000 -13.04207600 13.62225300
-32.55155900 -12.09108700 13.33065800
-32.27305600 -10.42458000 12.76586900
-31.67214200 -8.78585600 12.03051800
-33.79499800 -8.98525400 11.93112200
-30.19937900 -11.51148800 13.12078900
-29.99160000 -10.03366100 12.68591300
-29.52216300 -8.50417700 12.00146500
-28.74694800 -6.94582900 11.24847400
-30.76730300 -7.06219700 11.26583900
-27.83673100 -9.65622100 12.55899000
-27.41088900 -8.20867700 12.01217700
-26.83945500 -6.85697900 11.31704700
-25.31758100 -8.04058300 12.02273600
-24.97517400 -6.84499700 11.37237500
-25.85158500 -9.44184900 12.45092800
-28.13771100 -11.11339600 12.91302500
-26.38523900 -10.93552200 12.71231100
-25.01499200 -10.98359900 12.70327800
-26.81907700 -12.37861800 12.78134200
-25.70486500 -12.52363200 12.62783800
-24.89493600 -12.66196100 12.77417000
-24.04908000 -11.19962300 12.73980700
-24.24423200 -12.77574000 13.11969000
-23.57240300 -11.45886200 12.93554700
-22.22395300 -10.57417500 12.49993900
-20.59320100 -10.37877100 12.17913800
-23.15497600 -11.65561300 13.32672100
-21.89231900 -10.98047300 12.99969500
-20.33719600 -10.63808100 12.82357800
-18.85402700 -9.97095300 12.64367700
-18.97547500 -10.30450100 11.99725300
-21.69190200 -10.90208200 13.60153200
-20.29213000 -10.06281900 13.34140000
-18.86479600 -9.21720300 13.01532000
-17.38427700 -9.35791400 12.44683800
-18.92468300 -8.37103700 13.36691300
-15.89397000 -9.23252100 12.10821500
-17.45900300 -9.91229200 11.90560900
-19.22988100 -9.78063400 11.43878200
-22.85471300 -11.71492000 13.80337500
-23.79670700 -12.79043400 13.62286400
-23.42998500 -12.72150800 14.14285300
-23.90218400 -13.83282900 13.76498400
-23.48921200 -13.69041600 14.39306600
-24.38375900 -13.90320800 13.13574200
-24.34288800 -14.85653500 13.25524900
-25.09635200 -13.91333200 12.70550500
-25.21566800 -14.81341800 12.86099200
-25.94162000 -13.74716800 12.62161300
-26.14436300 -14.66060100 12.68463100
-27.02342200 -13.63344000 12.84738200
-27.23874700 -14.48833100 12.87991300
-28.40033700 -13.52257000 13.07742300
-28.60516400 -14.37585400 13.21206700
-28.82505000 -15.15244600 13.19274900
-30.47189300 -14.43761100 13.62081900
-30.66326100 -15.18809300 13.57891800
-32.77819800 -14.60103800 13.95275900
-32.90911100 -15.30413500 13.82189900
-33.05238300 -15.88728900 13.40072600
-35.41873200 -15.41148900 13.72207600
-35.44008600 -16.02020300 13.27188100
-35.42723800 -16.42066600 12.59597800
-37.81118800 -15.97587500 12.78390500
-37.69162800 -16.40206100 12.16534400
-37.53864300 -16.63872300 11.40222200
-39.85197400 -16.24544100 11.64114400
-39.63220200 -16.49789800 10.95089700
-39.36386100 -16.66547000 10.10488900
-41.51088700 -16.43163700 10.53024300
-41.23509200 -16.61893100 9.76596100
-40.84637500 -16.72234700 8.71081500
-42.17675800 -16.62105600 8.29507400
-41.81489600 -16.13307800 11.15133700
-40.02377300 -15.78730700 12.16677900
-37.87040700 -15.35452400 13.19119300
-35.35063200 -14.68164100 13.92190600
-32.66803700 -13.84929500 13.83783000
-30.32605700 -13.65089400 13.46878100
-30.19831800 -12.77026400 13.28872700
-28.34508500 -12.44710400 13.01037600
-18.39666400 -6.00820900 15.31246900
-18.53346600 -5.87312900 16.60723900
-17.05715900 -4.99216100 16.83700600
-16.99757000 -5.09879100 15.51721200
-15.72481500 -4.03585400 17.10653700
-15.76688400 -4.09383400 15.77066000
-14.48489000 -2.96091100 17.36740100
-14.58393100 -3.01554100 16.06204200
-14.23920100 -3.58760800 14.82748400
-13.56217600 -1.67517900 16.31149300
-13.25771300 -2.21195400 15.08850100
-12.67849300 -3.02253200 14.01895100
-13.66053000 -4.43972400 13.70220900
-11.88421200 -4.04775600 13.05667100
-12.85371000 -5.46504800 12.73947100
-10.82386800 -5.20631400 12.20452900
-11.68211700 -6.46493900 11.92633100
-12.21965400 -7.46089600 11.62316900
-10.12587000 -7.27149000 11.13549800
-10.45615800 -8.03767400 10.98208600
-12.48383300 -8.30314600 11.37326000
-8.31589500 -7.96582600 10.55673200
-9.46251700 -6.25660500 11.38147000
-7.88276300 -7.24930000 10.66073600
-8.58299300 -5.05313300 11.53179900
-7.11528800 -6.21172500 10.67309600
-7.59867900 -3.77978300 11.56100500
-6.06949200 -4.99261900 10.67938200
-6.63463600 -2.57448800 11.47457900
-5.02018000 -3.78526300 10.72677600
-5.72620800 -1.39712500 11.24465900
-4.12575500 -2.47303800 10.58071900
-4.89563000 -0.20491800 10.78277600
-3.35347400 -1.07450700 10.28530900
-1.67580400 -1.61448900 9.91958600
-2.61362800 0.34878300 10.13259900
-1.10574000 -0.12988300 10.11352500
0.46228000 -0.34606600 10.01135300
0.02723300 -1.85589600 9.78579700
-1.92700200 1.74225200 9.98956300
-3.05484000 2.39343300 10.23809800
-2.14783900 3.68849900 9.86245700
-1.22216000 3.00517300 9.59390300
-3.99161500 1.04166800 10.42330900
-4.92660900 2.07901800 11.11554000
-3.87390100 3.22906100 10.85913100
-6.02075200 1.03155100 11.51168800
-6.75939600 2.40082900 12.48178100
-5.56872200 3.24902300 12.16037000
-7.10273400 -0.04401200 11.83038300
-7.94729200 1.44685400 12.71002200
-8.45279700 2.73997900 14.03537000
-7.25231900 3.74371000 13.90506000
-8.04525400 -1.18434100 12.21536300
-9.10283700 0.31078100 12.97537200
-9.59663000 1.48941400 14.19769300
-9.96078900 2.16879300 15.52963300
-8.82464200 3.49334700 15.63818400
-10.06886700 -1.03430000 13.24612400
-10.80338300 0.09610400 14.20187400
-11.27053800 0.90852400 15.36499000
-11.25005000 1.09723100 16.78634600
-10.09630600 2.40731400 17.07217400
-11.77877000 -1.46865500 14.17599500
-12.35433200 -0.62326000 15.21737700
-12.44554500 -0.28722800 16.51876800
-12.10615500 -0.49924300 17.85113500
-11.01566300 0.85770200 18.28555300
-13.28622100 -1.76058400 17.61578400
-12.76857800 -2.25820900 18.87118500
-11.71595400 -0.98532300 19.30572500
-13.98551600 -3.43076700 18.55456500
-13.34019500 -4.21045700 19.74472000
-12.14596900 -3.11048500 20.21585100
-15.25806800 -4.50888400 18.26297000
-14.62833400 -5.25786000 19.32595800
-13.83351900 -6.35760100 20.32214400
-12.45594000 -5.37131700 20.80194100
-16.69915000 -5.41677100 18.00174000
-16.08795900 -6.18608900 18.98635900
-15.38639500 -7.23136500 19.93893400
-14.72098900 -8.50990300 20.47924800
-13.02371200 -7.68220500 21.01010100
-17.67192100 -7.03814300 18.74658200
-17.00934600 -8.06893300 19.53414900
-16.41748000 -9.25736400 19.96926900
-15.88554800 -10.43240200 20.09130900
-14.20763800 -9.78658700 20.61212200
-18.62606000 -8.97322500 19.17114300
-18.09178200 -10.03563500 19.55578600
-17.60433200 -11.03368200 19.57092300
-15.39608800 -11.38354700 19.77203400
-15.04771400 -12.02559500 19.26605200
-13.13618500 -11.54159500 19.94857800
-13.67723500 -10.85690700 20.33468600
-11.28945500 -11.14618100 20.97396900
-11.84540900 -10.31273300 21.26879900
-12.39914300 -9.08344500 21.31735200
-9.91671000 -9.39387500 22.17523200
-10.63010400 -8.14045300 21.93093900
-11.49158900 -6.75483300 21.53274500
-8.98899100 -6.97613000 22.60690300
-10.10879500 -5.66721200 22.18002300
-11.17896700 -4.33404200 21.33441200
-8.79749700 -4.39096100 22.89865100
-9.96487000 -3.16886300 21.94119300
-11.05061700 -1.97016300 20.78140300
-8.83770800 -1.86882400 22.65979000
-10.01012400 -0.76851300 21.44873000
-10.62674700 0.20429600 19.85229500
-8.89297500 0.52384800 22.06265300
-9.59793900 1.44965700 20.47979700
-9.88490700 2.08387000 18.73547400
-8.43497100 2.61299100 20.82400500
-8.77299900 3.28964600 19.10629300
-8.92136000 3.61301800 17.39984100
-7.20383100 3.78988300 21.08035300
-6.48302500 3.06072600 22.60113500
-5.18270900 4.23429500 22.82586700
-5.95181300 5.04332400 21.51132200
-7.65750500 1.80673600 22.39123500
-6.49359100 0.89954400 23.61645500
-5.31864200 2.25970500 23.72827100
-7.70680600 -0.48379700 23.29174800
-6.07149500 -1.52112200 23.97103900
-4.86492500 0.01226000 24.26315300
-7.43219400 -3.00961700 23.55767800
-5.80798300 -3.98547700 24.20907600
-4.33464100 -2.24326300 24.67779500
-7.48510000 -5.66580800 23.42095900
-6.00423400 -6.69780300 23.68640100
-7.94725400 -8.22448700 22.65689100
-7.06061900 -9.48764400 22.53326400
-4.64442800 -7.86011300 23.74877900
-9.29612000 -10.45933900 22.13705400
-8.74914200 -11.54968800 21.98605300
-6.34000800 -10.78801200 22.31073000
-10.99993500 -12.06197500 21.01889000
-10.60271800 -13.08836700 21.07528700
-8.27758000 -12.57905600 21.60049400
-12.83414500 -12.42382400 19.98382600
-12.59356700 -13.43363400 20.23617600
-12.19568300 -14.36846200 20.00357100
-10.03551900 -14.07939700 20.72683700
-14.76920700 -12.78426200 19.32891800
-14.58906900 -13.69425400 19.59335300
-9.59988400 -14.87018100 20.02767900
-7.45384600 -14.52446900 20.47833300
-7.85590700 -13.56951900 21.12085000
-11.80353900 -15.15534100 19.44934100
-5.24633400 -14.09963400 20.96218900
-5.58167600 -13.20528000 21.82693500
-5.90251900 -12.01818800 22.17498800
-3.01829500 -12.38689800 22.56167600
-3.45330000 -11.20669000 23.03866600
-3.98552700 -9.53279900 23.56503300
-0.86113000 -9.76726700 23.84771700
-0.41508100 -11.11867900 23.06906100
1.80782700 -9.96517800 23.09289600
1.65949600 -8.60121500 23.91085800
4.34802200 -9.58319700 23.08627300
4.27021000 -8.11577600 24.15521200
4.09903700 -6.33224300 24.85815400
6.55484400 -6.39168900 24.97103900
6.25593600 -4.67253700 25.43689000
4.05008300 -4.57347100 25.17990100
4.10783400 -2.84174000 25.24453700
6.16769800 -2.90878900 25.47650100
6.18326600 -1.10372500 25.37759400
4.29337300 -1.04432900 25.14334100
8.53475200 -4.78479200 25.76794400
8.26778800 -3.04311900 25.89254800
8.15956900 -1.25257900 25.73962400
8.15549100 0.57350300 25.67880200
6.31153500 0.81195800 25.26342800
10.44084900 -3.18972800 26.23031600
10.20340000 -1.43867100 26.12475600
10.14400900 0.31287000 25.96865800
10.24010100 2.02686300 25.84243800
8.28872700 2.37950900 25.58703600
12.29715000 -1.57250400 26.43215900
12.16945600 0.09629800 26.31472800
12.20957200 1.71904400 26.13153100
12.35181800 3.17048600 25.85247800
10.44558700 3.44717000 25.76138300
14.18071700 0.02121700 26.67657500
14.15811700 1.59391800 26.53512600
14.24699800 3.02157200 26.07104500
14.34928700 4.36200300 25.66564900
12.52246900 4.35361100 25.47848500
16.14497900 1.58604800 26.68789700
16.16090600 3.02666500 26.17822300
16.16630900 4.45467000 25.72012300
16.08775100 5.69938300 24.96704100
14.30519100 5.55689600 25.07467700
18.11945000 3.12392400 26.16674800
18.05490100 4.53036100 25.58911100
17.94041600 5.85078800 24.82614100
17.67250600 7.04551300 23.86428800
15.89912400 6.74367900 24.06939700
20.05627600 4.66566100 25.37133800
19.84188700 6.01180600 24.60379000
19.49624600 7.15427400 23.50439500
18.99572000 8.07782700 22.24084500
17.22070500 7.85870000 22.61084000
21.88794100 6.26001400 24.27743500
21.38005600 7.40420900 23.16348300
20.73041300 8.36801100 21.82696500
19.92885600 9.03022000 20.31781000
18.33838800 8.77019500 20.84478800
23.28344200 7.74202300 22.52218600
22.45066600 8.62757100 21.20147700
21.51490000 9.42494200 19.77960200
20.53743700 9.79963300 18.15493800
19.08786200 9.41795700 18.73757900
24.30294400 9.12460700 20.54727200
23.21708300 9.82300900 19.16262800
22.06379700 10.24152800 17.59246800
20.81099900 10.08922200 15.79830900
19.54845600 9.71966600 16.41131600
25.04249200 10.37885300 18.44912700
23.65128900 10.68123200 16.91436800
22.23315400 10.47115700 15.17498800
25.25212700 11.15816500 16.03958100
23.75678300 10.94546500 14.46279900
22.41245500 10.58586100 12.76171900
21.89707200 10.06103100 11.40860000
25.22731200 11.60297000 13.53198200
23.87647200 11.11390700 12.04803500
23.40086700 10.60691100 10.69357300
23.14915700 10.32732000 9.56301900
21.75772500 9.66439100 10.41918900
25.22706200 11.49805500 10.98880000
24.74710700 11.15689500 9.69937100
24.31031800 10.97254600 8.57327300
23.81218300 11.09914400 7.64147900
22.67530600 10.33152800 8.68496700
25.94458200 11.71946000 8.54284700
25.40453900 11.55038800 7.45178200
27.07408900 12.11815300 7.31155400
26.31005100 12.13696700 6.28170800
28.07275200 12.50647000 6.10681200
27.00791000 12.78425200 5.23663300
28.90234600 13.03486600 4.98580900
27.58927900 13.38453700 4.15713500
26.24276000 13.81829800 3.86190800
24.99269900 14.14625200 3.94552600
27.84207000 13.98573300 3.15698200
26.36953500 14.35705900 2.87368800
24.95320500 14.79843500 2.99429300
23.63266200 14.81099300 3.47567700
23.75289000 14.03561800 4.44290200
26.31196400 14.86710700 1.91061400
24.85806700 15.31170700 2.08694500
23.48421900 15.54755400 2.41326900
22.35741200 14.58142100 3.93386800
24.60396200 15.81891300 1.03823900
23.19124400 16.02838500 1.31887800
24.06771900 16.10619700 -0.06503300
22.59655800 16.30400800 0.38171400
23.31414800 16.29214900 -1.16693100
21.75772900 16.41976200 -0.57183800
20.40076100 16.17020000 0.18566900
19.37187800 15.45567700 1.17025800
20.75335300 16.40615800 -1.51208500
19.34817300 15.95335800 -0.63678000
18.27660600 15.03350800 0.37298600
17.64298600 13.85678500 1.60406500
18.73833800 14.40105400 2.32351700
18.24741700 15.54048500 -1.55798300
17.25818400 14.52507800 -0.42208900
16.56031400 13.30173100 0.79953000
15.99854100 12.07841100 2.11166400
17.25780500 12.66871600 2.89730800
16.15507300 14.07011400 -1.23254400
15.40799500 12.79563500 -0.01034500
14.77339200 11.49785600 1.27865600
14.24680900 10.18403600 2.62048300
15.58404500 10.84498200 3.46954300
14.26846300 12.26877200 -0.87475600
13.55636200 10.96157500 0.40664700
12.88237800 9.64139900 1.76904300
12.29838200 8.31283600 3.18313600
13.81314700 8.89880400 4.01251200
12.37416800 10.42554100 -0.52212500
11.67112400 9.05423700 0.79074100
10.89032400 7.77548200 2.25891100
10.27517300 6.34611900 3.75308200
11.89366100 6.93553500 4.57705700
10.49609400 8.52143100 -0.19671600
9.74135200 7.09537500 1.18353300
9.01742200 5.64534400 2.68823200
8.55567200 4.05805200 4.16003400
10.03361500 4.85730700 5.13723800
8.74337000 6.59974300 0.20611600
7.97640200 5.11272400 1.70437600
7.22260300 3.55944800 3.24398800
8.42720400 2.80395100 5.65896600
7.18493700 4.61090100 0.72146600
6.40841300 2.99506000 2.26498400
6.00051100 4.51757800 0.00375400
5.27907900 2.98568700 1.43734700
4.58144000 4.57008700 -0.73913600
3.83183700 3.14832700 0.60812400
2.89888800 1.58224100 1.73620600
2.22618500 3.33628800 -0.39260900
1.28201300 1.89878500 0.74649000
0.47701600 3.69953200 -1.43832400
-0.42947000 2.30270400 -0.29287700
-1.21476700 4.29682200 -2.43377700
-2.12386700 2.98948700 -1.19180300
-2.78684600 4.89520300 -3.58609000
-3.62820400 3.48209000 -2.46215800
-4.31819900 5.56095900 -4.85730000
-5.11854900 4.19104000 -3.70517000
-6.68097700 5.11978900 -4.77270500
-7.48435200 3.68359400 -3.90161100
-8.20881700 5.55936100 -6.03067000
-8.98338700 4.20976300 -5.08734100
-9.81964500 2.74177200 -4.46942100
-10.57556900 4.52906400 -5.98584000
-11.29243500 3.01908100 -5.38580300
-11.93721000 1.40033000 -5.10012800
-12.80750700 3.16154900 -5.99353000
-13.28430600 1.53051800 -5.75961300
-13.64486300 -0.10811200 -5.72189300
-14.44177600 1.56737100 -6.07391400
-14.71683500 -0.03682700 -6.01828000
-14.97564300 -1.67663200 -6.13604700
-15.64478300 -0.06974800 -6.13330100
-15.81095900 -1.70541800 -6.25482200
-15.94165000 -3.38192600 -6.45220900
-16.48054900 -0.13177300 -6.22726400
-15.45239300 1.53041100 -6.14370700
-16.32609900 1.43970900 -6.22064200
-17.13038600 1.35268400 -6.09524500
-16.21336700 3.01327500 -6.41442900
-17.04407500 2.89379500 -6.30957000
-17.74578900 2.82061400 -5.99368300
-17.06628400 4.35266900 -6.93560800
-17.94258900 4.23310900 -6.69833400
-18.50385700 4.28836100 -6.04354900
-18.18014100 2.85086400 -5.35568200
-18.73054500 4.48041500 -5.22995000
-18.29883200 2.98289100 -4.57623300
-18.62552600 4.77535200 -4.33917200
-18.30704100 3.17318700 -3.70169100
-18.37483200 5.09281500 -3.31265300
-18.26193200 3.22143600 -2.62069700
-18.18286100 5.24611300 -1.96814000
-18.28904300 3.18137400 -1.15771500
-18.36179400 5.48360100 -0.43219000
-18.68834700 3.19481300 0.50912500
-19.09100300 5.74608200 0.95559700
-19.70817600 3.20484900 2.02905300
-20.53262300 0.83941800 2.75686600
-20.86722600 3.84126300 2.93695100
-21.88534500 1.61278500 3.85629300
-22.97393000 -0.27259800 4.45983900
-23.18940700 2.74190900 4.50961300
-24.35881000 0.85155500 5.38028000
-24.59143100 3.87419100 4.80218500
-22.20391100 4.80551500 3.47799700
-23.71652200 5.75094200 3.59375000
-25.35640000 6.42805100 3.22393800
-26.13034800 4.64768200 4.46316500
-27.00511200 6.82204100 2.70626800
-27.64305900 5.11216400 3.96688800
-28.58729600 7.00125500 2.23040800
-29.14407300 5.34440200 3.53051800
-30.12716700 7.06459000 1.83633400
-28.35831500 8.83218800 1.13430800
-29.88384200 8.74568600 0.56195100
-31.44040700 8.67129500 0.25814800
-29.90003200 10.58464800 -0.61959800
-31.48024700 10.40358700 -0.92340100
-33.07049600 10.21072000 -0.92169200
-31.67179100 11.86074100 -2.24948100
-33.29451800 11.55598100 -2.26565600
-34.88998400 11.14362000 -2.19836400
-34.65860700 9.85727700 -0.88382000
-36.44802100 10.73763300 -2.07992600
-36.23490100 9.41514600 -0.92230200
-35.00563800 12.01590000 -3.81424000
-36.55443600 11.52782400 -3.67157000
-34.92712400 12.41886500 -5.69274900
-36.52455100 11.93460100 -5.44577000
-38.15104700 11.41416500 -5.09057600
-36.34874000 11.97244600 -7.42871100
-37.99713100 11.43126700 -7.01702900
-39.75000000 10.89176900 -6.38717700
-37.68482200 10.78485900 -8.77984600
-39.55648800 10.44909300 -8.03793300
-41.42271400 10.17079500 -7.34793100
-39.37803600 9.75151100 -9.52627600
-41.24115000 9.43483000 -8.81384300
-43.10099000 9.02272400 -7.84292600
-41.30267300 8.67667000 -9.81079100
-43.13561200 8.42156600 -8.97979700
-44.86093100 8.05694600 -8.09783900
-43.36902600 8.03202800 -10.02783200
-45.17166900 7.83941700 -9.13763400
-46.95000500 7.42292000 -8.18115200
-45.49700900 8.05954400 -10.14828500
-43.67090600 8.22633400 -11.08062700
-43.97065000 8.72785200 -12.12997400
-45.85356100 8.53878400 -11.13690200
-44.42482000 9.14230700 -13.26284800
-46.41039300 8.89527100 -12.21206700
-44.94840200 9.31625400 -14.49267600
-46.96570600 8.96031600 -13.38543700
-48.85619400 8.36510500 -12.03640700
-47.39531700 8.67798200 -14.55706800
-45.41519200 9.17525100 -15.72308300
-45.61807300 8.42384000 -16.83902000
-43.42076900 9.60445400 -16.76626600
-43.68817100 8.97658500 -17.95712300
-43.80233800 8.02328100 -19.04983500
-41.61572300 9.35328700 -18.81549100
-41.74528500 8.50661100 -19.92901600
-41.85353900 7.37193700 -21.02618400
-39.62637300 8.97374700 -20.59347500
-39.79205300 7.83431200 -21.72445700
-39.94629700 6.28089500 -22.90075700
-37.79959100 8.22934700 -22.43811000
-37.99239300 6.60485100 -23.59506200
-38.17576600 4.86909100 -24.73602300
-36.15719600 7.01697900 -24.28756700
-36.27296400 5.24800900 -25.42053200
-36.40750100 3.53701000 -26.56799300
-34.45644400 5.85743000 -26.13168300
-34.46553000 4.12165100 -27.26425200
-34.33564000 2.28978700 -28.11862200
-32.57973500 4.86525700 -27.89306600
-32.42118800 3.04380000 -28.86126700
-32.26953900 1.22934900 -29.75515700
-30.53938300 3.94115100 -29.47000100
-30.29611200 2.13554000 -30.38851900
-30.02386500 0.32263200 -31.17120400
-28.34095800 3.08154300 -30.90185500
-27.97293900 1.20839300 -31.61209100
-27.58718100 -0.67995600 -32.21051000
-25.98968500 2.07830800 -32.07043500
-25.56240100 0.17367600 -32.66891500
-25.05028500 -1.76229100 -32.94616700
-27.10862700 -2.59677100 -32.46237200
-24.43858300 -3.66780100 -32.89645400
-26.49504900 -4.46975500 -32.35919200
-23.71284500 -5.47621200 -32.51153600
-22.35010500 -2.84835100 -33.13327000
-21.64799500 -4.70105000 -32.98059100
-20.86747700 -6.41369100 -32.25744600
-19.53602600 -3.92786000 -33.47830200
-18.72610100 -5.61199200 -32.71221900
-17.98266200 -7.07541700 -31.53289800
-15.04109200 -7.31546200 -31.10128800
-12.65637600 -7.15016200 -30.20257600
-10.64846400 -6.68482400 -30.42144800
-10.19051700 -7.74373600 -29.50601200
-8.81550600 -6.51061200 -30.64151000
-8.16977700 -7.61021000 -29.68704200
-7.61721800 -8.69182200 -28.66232300
-5.99181700 -7.32907300 -29.87115500
-5.57436400 -8.49500700 -28.80987500
-5.29091300 -9.82398000 -27.80221600
-3.50291100 -8.28948000 -28.79882800
-3.34513500 -9.77174200 -27.78778100
-3.40293100 -11.22171400 -26.65918000
-1.45807600 -9.75032400 -27.62478600
-1.58373600 -11.31263700 -26.47653200
-1.87308500 -12.72459000 -25.20681800
0.18725200 -11.37057700 -26.14868200
-0.11091600 -12.92907900 -24.91784700
-0.51264600 -14.23600000 -23.78826900
1.65252700 -13.09529500 -24.63885500
1.31189700 -14.49213800 -23.62985200
1.02955200 -15.49644800 -22.74108900
3.19527400 -14.67186500 -23.41912800
2.96578600 -15.73852700 -22.50769000
2.78733100 -16.21716700 -21.33151200
4.86377700 -15.99228300 -22.23400900
4.67961500 -16.62609500 -21.03448500
6.77949100 -16.28830700 -21.96228000
6.57172800 -16.78471900 -20.52227800
6.31809600 -16.91568000 -18.97131300
8.36241900 -16.88038800 -19.90762300
8.00891100 -17.02563900 -18.23089600
7.53210800 -17.07112500 -16.61367800
9.66289900 -17.15795300 -17.58609000
9.17647600 -17.13172500 -15.93200700
8.69664400 -17.03103300 -14.30679300
10.84395200 -17.14150600 -15.31225600
10.31359100 -17.12527100 -13.64978000
9.69510300 -17.08269500 -11.95587200
11.93439500 -17.11685600 -13.00631700
11.24233200 -17.20543500 -11.27713000
10.47227900 -17.62696100 -9.58444200
12.80037500 -17.21891800 -10.61984300
12.01644100 -17.47576300 -8.90039100
11.10189400 -17.33712400 -7.20614600
13.49251200 -16.94089100 -8.22708100
12.60656000 -17.06990100 -6.53607200
11.61694300 -16.98312000 -4.88772600
14.10700000 -16.83752100 -5.79400600
13.10685200 -16.86840800 -4.13299600
15.58110800 -16.62524000 -4.97555500
14.58007200 -16.80120100 -3.32067900
13.52165800 -16.83142900 -1.71661400
16.04368200 -16.76419400 -2.45434600
14.98877700 -16.77729600 -0.84185800
13.94634600 -16.75257900 0.71615600
16.42032400 -16.60586200 0.08126800
15.37982600 -16.74535000 1.66803000
14.33542300 -16.63202900 3.20309400
16.74959800 -16.54256100 2.64636200
15.65090800 -16.48503900 4.21560700
14.52776300 -16.21446200 5.74041700
13.28745100 -16.24573900 4.65844700
13.29464700 -15.90832000 7.18222000
12.19840200 -15.76209700 5.99264500
15.77274300 -16.23953600 6.77313200
14.58926400 -15.90997800 8.21307400
13.66920300 -14.96114300 9.39468400
16.03950300 -15.80665500 9.16748000
17.12711700 -16.25834300 7.75271600
18.53139300 -16.12862800 8.77444500
17.35466800 -15.65524300 10.20272800
19.86785900 -15.93701900 9.87381000
18.37734800 -15.37999300 11.36355600
21.15938400 -15.62783800 10.96154800
22.62280700 -16.07760000 9.27786300
24.18180500 -15.68560000 10.23336800
22.74123400 -15.40944700 11.86853000
21.16240300 -16.24474500 8.23553500
22.40067900 -16.36515400 6.59545900
23.91256500 -16.28799100 7.64477500
19.73654700 -16.36364400 7.20809900
20.93551100 -16.37353100 5.57171600
22.10399200 -16.33783500 3.94445800
23.58558700 -16.49074900 4.99078400
18.32597400 -16.38856300 6.21283000
19.50044600 -16.35886000 4.60318000
20.65129300 -16.33955400 2.96109000
21.75872400 -16.32080300 1.30450400
23.20561400 -16.48801800 2.31195100
18.11072000 -16.42931400 3.63513200
19.23093400 -16.35892300 2.00451700
20.32329000 -16.38182100 0.33865400
21.37183600 -16.40472400 -1.37652600
22.80033100 -16.42895100 -0.40457200
17.82783100 -16.44222500 1.04498300
18.90050900 -16.45968800 -0.60321000
19.94444100 -16.50494800 -2.31253100
20.95284800 -16.55719000 -4.07760600
22.38626700 -16.53125800 -3.15820300
17.48223900 -16.61655600 -1.53710900
18.51354200 -16.62184500 -3.22299200
19.50353400 -16.64002400 -4.97238200
20.43045000 -16.76870000 -6.77517700
21.90436600 -16.72586400 -5.89572100
17.05809600 -16.64646300 -4.11621100
18.02898600 -16.71093000 -5.83178700
18.93290500 -16.86452100 -7.60842900
19.76482600 -17.02706500 -9.45037800
21.29510700 -16.91030900 -8.64831500
16.52992100 -16.66792500 -6.67327900
17.40787500 -16.87220800 -8.41470300
18.21448700 -17.01142900 -10.22506700
19.00479300 -16.98282600 -12.07412700
20.57007000 -17.02728300 -11.32763700
15.87917700 -16.75943200 -9.20486500
16.68302000 -16.75298300 -10.97814900
17.44599500 -16.80636800 -12.79132100
18.16330000 -16.86213100 -14.59359700
19.77683600 -16.93509100 -13.90753200
15.12032300 -16.94389700 -11.68627900
15.85481500 -17.07682000 -13.46054100
16.48160200 -16.97664600 -15.23776200
17.02630800 -17.04971700 -16.98748800
18.77836400 -16.97752400 -16.38928200
14.20093700 -17.17384300 -14.09518400
14.77925900 -17.22823000 -15.84484900
15.27517300 -17.06162100 -17.60247800
15.70010400 -16.67361500 -19.33700600
17.49036200 -16.72873700 -18.73538200
13.05839700 -17.30958600 -16.42990100
13.51300600 -17.08680000 -18.18298300
13.93067000 -16.70020700 -19.93215900
14.28028500 -15.60208200 -21.40072600
16.06503500 -15.61877100 -20.75668300
11.78410300 -17.08793300 -18.76306200
12.17534600 -16.56386600 -20.47570800
12.45491800 -15.45111700 -21.87683100
12.66886100 -14.00601400 -23.01919600
14.52189400 -14.14117200 -22.52301000
10.40338100 -16.43356300 -20.98175000
10.63893100 -15.30410800 -22.33599900
10.81926300 -13.84841000 -23.44671600
11.02984600 -12.33000000 -24.55688500
12.90218900 -12.51198200 -24.13748200
8.80318800 -15.18565900 -22.77032500
8.97391100 -13.73876800 -23.86019900
9.17478900 -12.18669500 -24.97210700
9.42073800 -10.62224200 -26.12319900
11.28280600 -10.76510200 -25.66223100
7.13712300 -13.64654500 -24.20907600
7.34444800 -12.05581700 -25.33819600
7.57134600 -10.46151200 -26.52380400
7.75944900 -8.78630100 -27.58572400
9.65742500 -9.04753100 -27.28445400
5.52730600 -11.90944300 -25.59530600
5.73316600 -10.24174500 -26.74597200
5.88302200 -8.56170800 -27.86007700
6.00235000 -6.92102200 -28.96469100
7.93058400 -7.14402600 -28.65655500
3.91761800 -9.98844000 -26.87835700
4.02439500 -8.32788100 -28.06286600
4.09244200 -6.67103800 -29.18786600
4.18440600 -5.01478800 -30.19522100
6.16639300 -5.32399900 -30.02496300
2.18752300 -8.14395500 -28.25766000
2.18473800 -6.43963200 -29.31988500
2.18896500 -4.77211400 -30.32089200
2.29116800 -3.37390700 -31.52236900
4.35735700 -3.46102500 -31.16748000
0.25738900 -6.33398600 -29.41796900
0.18226600 -4.72204600 -30.49160800
0.18121000 -3.33618700 -31.77212500
0.31473200 -1.87063200 -32.76403800
2.49533800 -1.92746900 -32.53457600
-1.85769300 -4.92213600 -30.66326900
-1.97118000 -3.52585800 -31.92602500
-1.98457700 -2.01574700 -32.90301500
-1.83247400 -0.54563700 -33.48736600
0.48902900 -0.27163700 -33.34188800
-4.32025100 -4.10394100 -31.89755200
-4.47936200 -2.70615400 -32.81649800
-4.20555100 -1.02504000 -33.54458600
-3.67942000 0.83235500 -34.05715900
-1.54153100 1.15049700 -33.93988000
-6.93209500 -3.32190900 -32.57766700
-6.43132400 -1.44078800 -33.30365000
-5.63314400 0.56416700 -33.95187400
-3.21942500 2.72628000 -34.18219000
-7.97853500 -1.55735800 -32.72836300
-8.71706800 -3.54424900 -32.17111200
-7.13816800 -5.08418700 -31.60745200
-9.21419500 -5.33960300 -31.45730600
-6.50148400 -6.16208500 -30.76022300
-4.02091200 -5.43256600 -30.75347900
-3.76477800 -6.81743600 -29.74746700
-1.70555100 -6.44672800 -29.55923500
-1.53167000 -8.11071400 -28.64819300
0.35194400 -8.07094200 -28.48141500
0.35045600 -9.77899400 -27.40145900
2.12533200 -9.81608000 -27.07943700
1.94272600 -11.45121800 -25.83535800
3.72540300 -11.66326500 -25.69680800
3.46596500 -13.28402700 -24.49224900
5.29748200 -13.50970500 -24.41293300
5.07417300 -14.87053400 -23.23916600
6.95478400 -15.13090000 -23.14370700
8.63179800 -16.31982200 -21.50161700
10.07595800 -16.98502500 -19.32244900
11.34345600 -17.23269700 -17.00280800
12.52795800 -17.21251900 -14.70886200
13.53804400 -17.09657700 -12.35104400
14.34324300 -16.97727200 -9.93402100
15.00547800 -16.61040500 -7.49255400
-2.96282600 4.46587400 -34.13021900
-1.14839600 4.58017300 -34.03942900
-1.29694700 2.91951400 -34.17880200
0.80119700 4.68581800 -33.78189100
0.74656700 3.02877800 -33.85205100
0.64212400 1.36438800 -33.75064100
2.82892200 3.10272200 -33.47445700
2.78361100 1.41196800 -33.43609600
2.65831400 -0.26537100 -33.06610100
4.89485500 1.40365600 -33.04916400
4.76266500 -0.29422200 -32.67636100
4.57502000 -1.92156400 -32.03320300
6.86457800 -0.41670200 -32.30563400
6.66602700 -2.13621300 -31.79238900
6.41544300 -3.76593600 -31.01315300
8.70834700 -2.26409100 -31.25625600
8.45570000 -3.98174700 -30.63763400
8.16790000 -5.59510000 -29.74054000
10.46649900 -4.12560100 -30.09271200
10.14943700 -5.77804800 -29.25262500
9.86616500 -7.35812800 -28.23178100
12.15379300 -6.03572800 -28.85345500
11.82991000 -7.62539100 -27.86257900
11.55651500 -9.22280300 -26.82720900
13.81778700 -7.89319800 -27.44961500
13.47984900 -9.46631800 -26.40100100
13.15210300 -10.92628700 -25.17498800
15.40651300 -9.67164800 -25.85504200
15.05177300 -11.12518300 -24.68566900
14.78448100 -12.66811600 -23.63388100
16.96286800 -11.26180300 -24.06561300
16.66953500 -12.76354800 -23.01782200
16.36651200 -14.22642300 -21.92898600
18.56510200 -12.84482800 -22.34216300
18.22556900 -14.31500100 -21.31539900
17.88920600 -15.69402400 -20.17797900
20.08477800 -14.40760600 -20.68466200
19.69839300 -15.69902300 -19.51538100
19.29473900 -16.62171600 -18.07031300
21.50905600 -15.72659900 -18.86019900
21.05799300 -16.65085600 -17.44406100
20.46267100 -16.88700700 -15.71890300
22.71655100 -16.49990500 -16.70660400
22.09631700 -16.67498200 -15.03421000
21.36880100 -16.91204500 -13.21124300
23.73887100 -16.68077100 -14.35998500
22.95070800 -16.94486600 -12.49203500
22.12740700 -16.92320300 -10.56192000
24.51380300 -17.09278100 -11.70663500
23.66569700 -16.97763300 -9.74456800
22.78613900 -16.92545500 -7.79409800
25.14649400 -17.22902300 -8.86697400
24.24219100 -17.06378900 -6.89160200
23.29978400 -17.10246300 -4.96777300
25.67394100 -17.21195600 -5.94586200
24.74037700 -17.08657800 -4.01800500
23.80321100 -16.60969700 -2.19369500
26.15334500 -17.08465000 -3.02758800
25.19226800 -16.85668600 -1.17099000
24.21257600 -16.71452000 0.61169400
26.62579900 -16.84481800 -0.13699300
25.67767000 -16.74853100 1.66153000
24.67395000 -16.72062100 3.36697400
27.18333400 -16.65298800 2.70401000
26.21456500 -16.64328800 4.42059300
25.12771400 -16.47488000 6.04583700
27.83241300 -16.42355700 5.43200700
26.75890000 -16.32785400 7.07440200
25.52228400 -16.02780900 8.64157100
28.49597900 -15.90853100 8.03570600
27.26960000 -15.73535700 9.60556000
25.94542300 -15.47357500 11.16342200
29.15694400 -15.71992400 10.59463500
27.87509200 -15.56613100 12.11010700
26.57795700 -15.50000900 13.63223300
24.62797000 -15.24511400 12.75048800
25.42589400 -15.39397000 15.14971900
23.39697800 -14.97369300 14.27887000
24.66426500 -15.15374400 16.55972300
22.55839700 -14.41892600 15.71960400
24.18005900 -14.97444400 17.75402800
22.21918700 -14.30551100 16.82952900
19.82237100 -13.85661100 15.85302700
21.75246200 -14.27280200 17.66214000
19.57088300 -13.82133500 16.72540300
17.50381900 -13.29007100 15.92678800
17.66104900 -13.26592600 15.12829600
15.76736800 -12.64769700 15.13229400
15.98024000 -12.53707500 14.51214600
16.04328900 -12.68691400 13.89382900
15.99643300 -12.94773900 13.33157300
14.33687400 -11.74443600 13.86019900
14.40319400 -11.94131900 13.28564500
14.38438800 -12.29588700 12.77063000
14.34541500 -12.68967800 12.24237100
15.82673800 -13.35547800 12.63357500
17.25615100 -13.76941100 16.54107700
15.50193400 -13.06988900 15.62429800
16.91991800 -14.46554600 17.11355600
15.21130600 -13.64284700 16.26550300
16.45676600 -15.17950600 18.16372700
14.79384800 -14.32078400 17.10617100
15.88049500 -15.85863100 19.49920700
14.28828200 -14.96878900 18.20956400
15.20793900 -16.09244200 20.95703100
13.69501500 -15.44935200 19.38357500
14.51195700 -16.12223400 21.92199700
13.11307000 -15.59503400 20.36764500
11.90292000 -14.65343500 19.17910800
12.53782700 -15.54179600 21.11578400
11.58317900 -14.59601200 19.91717500
10.43225100 -13.89274200 19.20864900
11.31584200 -14.27872100 20.66735800
10.41666800 -13.59637300 20.01550300
9.21523700 -13.30807300 19.68139600
9.01523200 -13.83098200 18.73394800
7.80011000 -13.24049600 19.54812600
7.48275400 -13.83131400 18.38638300
6.25819400 -13.18202800 19.37582400
8.29290800 -12.31933200 20.57562300
6.86198400 -12.13470100 20.52713000
5.16474500 -12.14723800 20.49279800
3.81053900 -10.98192200 21.75503500
1.78036900 -11.50281500 21.89367700
-0.39687300 -12.58152200 22.10189800
-2.84557700 -13.43142700 21.62365700
9.07954400 -11.36353900 21.54977400
9.48843800 -12.59863500 20.63143900
10.02505100 -11.67658400 21.42529300
10.87648000 -10.90553900 21.99411000
10.21494700 -10.49983000 22.31057700
12.09270100 -10.32351100 22.50317400
11.70938500 -9.87263700 22.86050400
13.79820300 -9.89535100 22.90942400
13.53328500 -9.44544800 23.26629600
13.06669600 -8.93159700 23.69595300
12.48963500 -8.32702600 24.23239100
15.66846500 -9.07568700 23.61187700
15.23585300 -8.59401500 24.00280800
14.73926900 -8.05773400 24.49536100
14.20138400 -7.34734700 25.08450300
11.92484300 -7.53331600 24.91705300
17.42602300 -8.24414100 24.50570700
16.90416700 -7.68130100 24.81173700
16.34058600 -7.01605800 25.26046800
15.77676200 -6.09903100 25.78735400
13.67215200 -6.32607300 25.72991900
18.89593900 -7.30604200 25.38406400
18.31446800 -6.67250600 25.56698600
17.71018200 -5.84172400 25.95501700
17.10474000 -4.58294700 26.35568200
15.26763200 -4.90890700 26.22113000
19.67343900 -5.93005800 26.13958700
19.28435300 -5.09279600 26.23571800
18.86396200 -4.05653200 26.48840300
18.50861400 -2.79928400 26.77764900
16.63537200 -3.08436600 26.72921800
20.76344900 -4.28001200 26.40194700
20.57116300 -3.43785300 26.49432400
20.38728300 -2.45391500 26.66888400
20.25770400 -1.10991500 26.79180900
18.29766800 -1.33497600 26.94116200
22.33173900 -2.81335400 26.49823000
22.30963700 -2.04196400 26.56051600
22.31850200 -0.86811800 26.58276400
22.38443000 0.53671300 26.42202800
20.23335300 0.34213300 26.66836500
24.39763800 -1.67655000 26.27450600
24.57748400 -0.54331000 26.28811600
24.77095200 0.83593000 26.05859400
24.85733200 2.30353500 25.50174000
22.46591000 2.06455600 26.17440800
27.04645300 -0.35336100 25.67236300
27.31321000 1.08794600 25.29449500
27.33098600 2.52553900 24.54184000
27.18108200 4.01948200 23.87060500
24.79343800 3.76494200 24.87738000
29.79535700 1.15156600 24.08676100
29.84919200 2.70107700 23.43505900
29.64979600 4.25330400 22.79480000
29.23141700 5.81417500 22.22827100
26.84018700 5.53499600 23.28744500
32.28356200 2.53553400 22.16403200
32.12255900 4.18088200 21.53378300
31.65669600 5.80851400 20.94033800
30.90503700 7.46784600 20.43273900
28.50708000 7.31155400 21.62658700
34.36480300 3.87624400 19.92114300
33.89017100 5.65296200 19.34469600
32.94879200 7.31168700 18.72238200
31.80084000 8.97677600 18.23391700
29.76508100 8.91006500 19.71694900
34.76197100 7.25173600 16.89169300
33.53767800 9.02279700 16.46249400
31.91007600 10.38611200 15.86987300
30.19039500 10.09770200 17.34530600
36.14726600 7.23538600 14.79977400
34.89752600 9.05331800 14.46487400
33.30268900 10.48654200 14.00067100
31.51526500 11.49102400 13.38705400
30.08937100 11.28681200 14.92852800
36.03332900 9.17945100 12.24798600
34.55311200 10.61492500 11.99789400
32.81114600 11.68865600 11.56192000
30.90225200 12.17260700 10.88674900
29.62365000 11.93990700 12.36444100
35.57576000 10.87673200 9.76080300
33.88859200 11.89280700 9.56424000
32.06777200 12.47833300 9.14340200
30.31349800 12.57870900 8.45294200
29.12330100 12.26108200 9.86190800
34.71362700 12.36259100 7.39715600
33.02296400 12.93351000 7.18890400
31.36822500 13.09344900 6.77453600
30.06423400 13.05576300 6.03598000
29.00136200 12.55300900 7.43454000
33.71514100 13.50114800 4.97866800
32.13288900 13.77455900 4.84103400
30.71247900 13.69168500 4.36965900
29.33928700 13.68355900 3.69339000
32.44757800 14.50594300 2.82919300
30.92193600 14.45214500 2.63937400
29.40736400 14.42916500 2.29418900
27.83467100 14.50466500 1.99359100
