1.69806123 -1.30357707 2.07989001
1.50245667 -1.18429089 2.21482682
1.50227022 -1.29937780 2.11636519
1.31175351 -1.18202651 2.25650477
1.30875814 -1.29651129 2.15596485
1.12295663 -1.18176842 2.30261111
1.11500227 -1.29633927 2.20267344
0.93168026 -1.18687069 2.35661435
0.92361134 -1.30410731 2.26564860
0.73942941 -1.17947531 2.40710664
0.72582823 -1.29741418 2.31313086
0.54498565 -1.14608145 2.43667388
0.52546531 -1.26284528 2.33673596
0.32680795 -1.20609009 2.34092093
0.35206109 -1.08528471 2.44319487
0.15337507 -1.04671693 2.47588634
0.12383660 -1.16765141 2.37444377
-0.05057084 -1.00126994 2.51820898
-0.08549820 -1.13292468 2.41743994
-0.28458554 -1.08383715 2.43761969
-0.24729340 -0.93284845 2.54169941
-0.48202464 -1.03069365 2.43982673
-0.44921848 -0.87592125 2.55531478
-0.66467309 -0.84830326 2.57331610
-0.68518233 -0.99903405 2.44355297
-0.88736540 -0.97661865 2.42410445
-0.87366390 -0.81546843 2.54015160
-1.08931911 -0.94745284 2.37170625
-1.06777799 -0.77747399 2.45457435
-1.30451572 -0.77258676 2.43803525
-1.31838918 -0.93661767 2.36883974
-1.57749951 -0.74049717 2.39637184
-1.56679332 -0.90507275 2.33245039
-1.80520797 -0.68808460 2.29468560
-1.78796649 -0.86464190 2.23847508
-1.97101617 -0.62419206 2.14598989
-1.95879090 -0.81250167 2.09680200
-2.08369517 -0.75960183 1.93133795
-1.97101617 -0.62419206 2.14598989
-2.07922363 -0.56019914 1.97026384
-1.95879090 -0.81250167 2.09680200
-2.17165136 -0.71001273 1.75096822
-2.17261171 -0.50674045 1.79420829
-2.22549725 -0.66744637 1.56291664
-2.22314668 -0.45808294 1.60611355
-2.25019145 -0.42110604 1.41516685
-2.25185370 -0.63363689 1.37386191
-2.25717092 -0.38983342 1.22575378
-2.24170685 -0.60272253 1.18420506
-2.22644305 -0.35840306 1.04121351
-2.23045611 -0.57294041 0.99856114
-2.22265935 -0.13995309 1.07288754
-2.25384617 -0.17330389 1.25794351
-2.20940208 0.08347019 1.09580457
-2.23415375 0.04379890 1.28334010
-2.18932271 0.30137560 1.10878944
-2.22091103 0.26210561 1.30172813
-2.15624452 0.51741779 1.12497032
-2.19760680 0.47842014 1.31977236
-2.13159323 0.73417658 1.13967514
-2.17737007 0.69490665 1.33883417
-2.09008741 0.94573295 1.15635765
-2.15233159 0.90852678 1.35677779
-1.99307334 0.97508502 0.96768981
-1.94643664 1.18737233 0.97300702
-2.04485512 1.15486693 1.16961479
-1.80707121 1.20070112 0.79719502
-1.74644637 1.41225743 0.79457223
-1.89223266 1.39492989 0.97399586
-1.60616374 1.42617393 0.61213875
-1.53759885 1.63159609 0.55128467
-1.67181909 1.62249506 0.77225721
-1.49040318 1.61947107 0.29634508
-1.36276138 1.72150123 -0.07740767
-1.23216724 1.84462845 -0.21187152
-1.22672105 1.74671149 -0.45614800
-1.07596159 1.93413258 -0.36466616
-1.07488680 1.82962275 -0.58060807
-1.07312381 1.73455787 -0.79055911
-0.91001016 1.90317512 -0.69371706
-0.90149689 1.79558396 -0.88060772
-0.89249629 1.69755232 -1.07194138
-0.72459561 1.85043299 -0.96664339
-0.71850449 1.74823070 -1.14492059
-0.52936363 1.87304914 -1.03582454
-0.52962166 1.77822781 -1.20570302
-0.32237929 1.86083806 -1.08158696
-0.32792583 1.77296793 -1.24619126
-0.11437739 1.85378671 -1.12634611
-0.12492583 1.76965725 -1.28794062
0.09220564 1.85863101 -1.17564857
0.07672696 1.77514637 -1.33380342
0.29824403 1.86215663 -1.22261488
0.27719018 1.78579521 -1.38170123
0.25557736 1.70775688 -1.54682159
0.47547489 1.79109812 -1.42840958
0.44835857 1.71486557 -1.59383094
0.67176747 1.78661215 -1.47222292
0.44835857 1.71486557 -1.59383094
0.47547489 1.79109812 -1.42840958
0.63939130 1.70736992 -1.63625383
0.82795882 1.68168676 -1.67373240
0.86427641 1.76479864 -1.50858355
0.79073834 1.59545040 -1.84124613
0.97487730 1.57114315 -1.88233626
1.01363134 1.65474236 -1.71394825
0.93340015 1.46941388 -2.04506302
1.11161995 1.42422473 -2.07774019
1.15539026 1.52079451 -1.91191769
1.06645942 1.31967199 -2.24277449
1.28337586 1.35233474 -2.09326196
1.32773387 1.44946349 -1.92798400
1.49066126 1.36756992 -1.92442966
1.36999929 1.54237854 -1.76187479
1.53645241 1.46862555 -1.76552939
1.41179156 1.64731824 -1.60727441
1.58174181 1.57403827 -1.61174607
1.73407781 1.47354150 -1.60059571
1.62707424 1.67965150 -1.45976830
1.78028452 1.58470142 -1.44520688
1.89818048 1.47603524 -1.40388739
1.94653690 1.59361589 -1.22846246
1.82315183 1.69855559 -1.27283466
2.06348705 1.48626852 -1.18556643
2.13809991 1.58121860 -0.99694145
2.01170516 1.69537389 -1.04749084
2.08918452 1.78982258 -0.86087245
2.22317553 1.65280747 -0.79004318
2.33681464 1.51913190 -0.74048269
2.55281401 1.40712655 -0.51766139
2.66815853 1.42359400 -0.31600866
2.77352810 1.41588342 -0.13505138
2.80683637 1.22948003 -0.13873474
2.93313074 1.40523469 0.00341110
2.95766735 1.22294462 -0.01308515
2.98233294 1.03431964 -0.04174934
3.13357997 1.20998824 0.09505060
3.15196800 1.02398622 0.06099753
3.16592693 0.83514631 0.01612372
3.30178142 1.00372064 0.20424694
3.30884671 0.81495237 0.15750988
3.31361961 0.62386233 0.10283299
3.44619155 0.78968495 0.31350067
3.45135117 0.59751993 0.25377873
3.45297050 0.40498239 0.18752134
3.55651999 0.56426948 0.43214187
3.56286907 0.37360942 0.36290345
3.56033278 0.18190311 0.29362199
3.63733864 0.33276290 0.55895233
3.63642192 0.14231782 0.49010089
3.67708182 0.28708649 0.76800054
3.67127728 0.09549482 0.69965065
3.70871282 0.23986216 0.97941339
3.69448090 0.04692331 0.91350007
3.69274664 -0.14537060 0.84085059
3.71804309 -0.00202086 1.12710583
3.70907140 -0.19733885 1.05434179
3.70624757 -0.39446270 0.97418219
3.68130970 -0.25395069 1.25774288
3.68288660 -0.45925814 1.17352760
3.68512201 -0.66402096 1.08747756
3.62749267 -0.31301332 1.44848895
3.68130970 -0.25395069 1.25774288
3.68288660 -0.45925814 1.17352760
3.68814659 -0.04914483 1.34086907
3.61359048 -0.10157169 1.53373647
3.49123740 -0.15282331 1.70223904
3.60662532 0.09916385 1.61603141
3.67117715 0.14810799 1.40939116
3.66052818 0.33954200 1.47414362
3.58261895 0.28436336 1.68518388
3.58261895 0.28436336 1.68518388
3.64979362 0.52223337 1.53782105
3.56573558 0.45726594 1.75072467
3.66052818 0.33954200 1.47414362
3.62701988 0.69980824 1.59901917
3.56127858 0.62678611 1.81497538
3.42367578 0.53136295 2.00736952
3.42872095 0.69780177 2.07252359
3.55330944 0.79748154 1.87495542
3.24880958 0.46090630 2.16014981
3.26552081 0.62927991 2.22315383
3.11669636 0.60537398 2.36954212
3.24880958 0.46090630 2.16014981
3.26552081 0.62927991 2.22315383
3.08440614 0.44483998 2.29581761
3.05402184 0.56392550 2.58984089
3.01458001 0.38979036 2.51995754
2.94809365 0.20391724 2.47064090
2.84609199 -0.00388403 2.46192670
2.95348215 0.35507801 2.75832915
2.87422585 0.17409210 2.70075727
2.77441716 -0.01749954 2.66446829
2.65376925 -0.21033806 2.65452170
2.70649719 -0.23259585 2.45327020
2.79514146 0.16774298 2.93515897
2.70810246 -0.01057713 2.89140296
2.59156775 -0.17704456 2.86693811
2.45862341 -0.33337921 2.85891199
2.51947737 -0.39083666 2.66332173
2.60119891 0.01956329 3.11085606
2.49630213 -0.13429190 3.07584286
2.37327576 -0.27884558 3.05369949
2.23399615 -0.41395438 3.03966856
2.31553149 -0.46572194 2.86286759
2.37985396 -0.10246029 3.27564669
2.26082587 -0.23884462 3.23560286
2.13087654 -0.37320814 3.20084739
1.99697161 -0.51635730 3.17662621
2.08757925 -0.54761559 3.03115535
2.11201549 -0.20195380 3.38469958
1.99427724 -0.33435383 3.32995105
1.86676443 -0.46694019 3.27192020
1.72529233 -0.59054023 3.19735026
1.83474648 -0.31127912 3.44297409
1.72691166 -0.44671753 3.37234545
1.60255206 -0.56826818 3.28251171
1.59948504 -0.67206132 3.07746220
1.47986913 -0.64938790 3.15706301
1.57026184 -0.43786028 3.46159148
1.46344459 -0.55704612 3.36172533
1.35360336 -0.64017236 3.23127437
1.39694357 -0.71371043 3.01514626
1.26167715 -0.70548379 3.08846951
1.30799854 -0.55740446 3.43843079
1.20685685 -0.63416725 3.30196047
1.12043417 -0.70320499 3.15937042
1.19391489 -0.76994962 2.94392991
1.05063677 -0.77080953 3.01220822
1.04507601 -0.63161606 3.36880541
0.96516013 -0.70227337 3.22493982
0.89811450 -0.76613730 3.07415152
0.84329420 -0.82947093 2.92204475
1.00189328 -0.83483106 2.86189318
0.79475129 -0.69493538 3.28420305
0.73011351 -0.75224948 3.12908673
0.67575181 -0.80782944 2.97245073
0.63072032 -0.87778443 2.82321048
0.80231869 -0.89852297 2.77468204
0.55553406 -0.72116315 3.17307186
0.50177431 -0.78013974 3.01739645
0.45466471 -0.84450525 2.86474514
0.59534866 -0.95203906 2.67911553
0.41356018 -0.91050458 2.71314001
0.32225034 -0.72680998 3.04962945
0.27403709 -0.78995728 2.89654827
0.22929226 -0.86800992 2.75030327
0.38052469 -0.98087519 2.56517529
0.18932001 -0.94298118 2.60183692
0.08476727 -0.73013508 2.92869496
0.04141264 -0.80480534 2.78266501
-0.00450744 -0.89400834 2.64176631
-0.15907924 -0.73400474 2.81456852
-0.20143062 -0.81783319 2.67205000
-0.37672669 -0.65459049 2.83547878
-0.41612566 -0.74911070 2.69141245
-0.11267187 -0.65567970 2.95367599
-0.32467243 -0.56674898 2.96511292
-0.06088997 -0.58559573 3.09576440
-0.27293354 -0.51177102 3.11021113
-0.48493412 -0.41547352 3.09656715
-0.21159208 -0.44931167 3.25436354
-0.41725788 -0.35814515 3.24682474
-0.60346061 -0.25220218 3.21313000
-0.66689456 -0.28968063 3.05855823
-0.81953156 -0.14997120 3.03314734
-0.75788915 -0.10631560 3.18119812
-0.95643181 0.02502383 3.01379919
-0.89629430 0.06241631 3.16293907
-1.03144610 -0.01407416 2.88273191
-0.70653719 -0.06244503 3.34580255
-0.84498537 0.09285771 3.33382058
-0.99095786 0.25716102 3.34647608
-0.79191351 0.12344243 3.51208353
-0.91615856 0.28900695 3.51656961
-1.11179185 0.45052984 3.36338782
-1.02859402 0.46519157 3.53725076
-1.18964386 0.65193892 3.38154674
-1.09839141 0.65767175 3.55482197
-1.23129308 0.85770512 3.40268660
-1.14502811 0.85539764 3.57527399
-1.32721794 0.89260375 3.23378253
-1.34791338 1.10811567 3.25796103
-1.25168765 1.06385815 3.42546034
-1.47723198 0.97368050 3.08093071
-1.48537266 1.17874432 3.09910393
-1.48537266 1.17874432 3.09910393
-1.65658402 1.07996738 2.92138577
-1.47723198 0.97368050 3.08093071
-1.66038203 1.27482677 2.94011760
-1.81857991 1.19975519 2.72959328
-1.80787385 1.38641667 2.74581742
-1.82426977 1.00276029 2.71733952
-1.81918192 0.83225131 2.68291378
-1.95553756 1.10378742 2.50929427
-1.93508565 1.29358757 2.52524614
-1.96559870 0.92088097 2.48389816
-1.82594657 0.65565103 2.62939763
-1.97373927 0.73856229 2.44484305
-2.03767490 1.19448102 2.29406929
-2.06040549 1.00683069 2.26825714
-2.06717038 0.81485206 2.24144173
-2.05081749 0.62010735 2.19969225
-1.97095895 0.53885859 2.40107298
-2.11567020 1.08845198 2.05089641
-2.13397241 0.89048260 2.02803659
-2.14181185 0.69440502 2.00054741
-2.14483595 0.49871439 1.96814275
-2.03154087 0.42756978 2.15437412
-2.15598631 0.97306418 1.80627584
-2.17044735 0.77397692 1.77964675
-2.18619847 0.57470328 1.75316107
-2.18751693 0.37340876 1.72342193
-2.14804649 0.30167657 1.93533647
-2.17341423 0.85264581 1.56440699
-2.19167352 0.64177746 1.54160476
-2.20556116 0.43063685 1.51804268
-2.22221518 0.21630017 1.49853683
-2.20564723 0.17059506 1.69715118
-2.21532130 -0.04110451 1.67366076
-2.15628743 0.10572795 1.90178490
-2.15512657 -0.09244214 1.86652815
-2.24144888 0.00268007 1.47805619
-2.24954629 -0.20870420 1.45020902
-2.21914816 -0.25021002 1.64531195
-2.16736603 -0.29936913 1.83481121
-2.08534336 -0.36139852 2.01668549
-2.08403921 -0.16199587 2.06057048
-1.98117769 -0.43397632 2.19371581
-1.98423052 -0.23947524 2.24083996
-1.98328447 -0.04276704 2.28774881
-2.07819176 0.03302116 2.10071468
-1.97300839 0.15404148 2.32095647
-2.06543612 0.22968636 2.13273263
-1.95697081 0.34927347 2.35978198
-1.84887791 0.07105857 2.48468614
-1.85343552 0.26872703 2.53549361
-1.97300839 0.15404148 2.32095647
-1.95697081 0.34927347 2.35978198
-1.84882069 0.47015050 2.58578491
-1.97095895 0.53885859 2.40107298
-1.69189835 0.15315290 2.66601610
-1.68188024 0.35063505 2.72904873
-1.68188024 0.35063505 2.72904873
-1.84882069 0.47015050 2.58578491
-1.48287892 0.20715629 2.82583356
-1.67161846 -0.02873590 2.60385776
-1.64682388 -0.21508200 2.56180739
-1.41252255 -0.26828277 2.63912916
-1.83875954 -0.12811475 2.43182945
-1.82776678 -0.32055199 2.38324356
-1.61742866 -0.39775905 2.51486969
-1.98328447 -0.04276704 2.28774881
-1.98423052 -0.23947524 2.24083996
-1.35212708 -0.43609741 2.58052516
-1.59656107 -0.57339907 2.45540571
-1.30288184 -0.61570746 2.50907946
-1.81875193 -0.50787264 2.34383035
-1.98117769 -0.43397632 2.19371581
-2.14890623 1.06059039 1.58524609
-2.11727548 1.11803353 1.37178349
-2.07482386 1.32415783 1.38336396
-2.12309432 1.26205683 1.60324728
-1.99042189 1.36314130 1.17842913
-1.94282496 1.56784678 1.17428708
-2.03088140 1.52267194 1.39137578
-1.83102012 1.60307515 0.96736014
-1.76036286 1.80340934 0.95328605
-1.89025474 1.76570153 1.16962910
-1.69621229 1.99555981 0.94407040
-1.83610797 1.95366716 1.16960061
-1.64324093 2.17320633 0.95168084
-1.78755093 2.13056850 1.17490339
-1.73303163 2.29449892 1.19102705
-1.59312153 2.32991362 0.96834904
-1.42446113 2.35371923 0.75137526
-1.38226748 2.48951626 0.79450065
-1.54189861 2.47684646 0.99889082
-1.23364341 2.51257658 0.59052598
-1.26632071 2.38241220 0.53923136
-1.07471466 2.54872203 0.39146730
-1.09539604 2.42116618 0.31661075
-0.88044298 2.58440876 0.20292838
-0.88977319 2.45665264 0.11368237
-0.89679593 2.33775353 0.00247954
-0.90401936 2.22315383 -0.14104220
-0.67834592 2.48236465 -0.04855711
-0.68913800 2.36661816 -0.16780031
-0.70207989 2.26187921 -0.30458596
-0.90165454 2.10842538 -0.31781450
-0.71271431 2.16105270 -0.46692577
-0.47869959 2.38572288 -0.29246095
-0.49053794 2.27682757 -0.42378610
-0.50171697 2.17095637 -0.56537300
-0.71808881 2.05340433 -0.62604076
-0.51301074 2.07084656 -0.71692073
-0.27297652 2.26840043 -0.50307131
-0.28497249 2.15342808 -0.63091373
-0.29989222 2.05273056 -0.77502310
-0.52239823 1.97085142 -0.87402934
-0.31216052 1.95386791 -0.92480797
-0.07754388 2.17111397 -0.71492851
-0.08896656 2.05301738 -0.83749676
-0.10202311 1.94814932 -0.97558665
0.12220274 2.05662918 -0.89502591
0.10805695 1.94963992 -1.02705324
0.33289909 2.06425381 -0.95076340
0.31767839 1.95280719 -1.07669961
0.54545861 2.05608439 -0.98798388
0.52654022 1.95527244 -1.12236178
0.50257695 1.86872077 -1.27034080
0.73008484 1.97295821 -1.17450202
0.50257695 1.86872077 -1.27034080
0.52654022 1.95527244 -1.12236178
0.70152098 1.88431418 -1.32378531
0.93231094 1.97539473 -1.21941888
0.89966238 1.87591541 -1.36632288
1.09116805 1.83657384 -1.38842309
1.13301778 1.95494270 -1.25163746
1.05070841 1.73905814 -1.54717982
1.23292696 1.69732308 -1.58141923
1.27629590 1.81167889 -1.43516004
1.19583535 1.60779035 -1.74603784
1.45583427 1.75522470 -1.45483816
1.32505369 1.92437232 -1.28640711
1.50560963 1.86376190 -1.30152750
1.67545950 1.79008043 -1.30168509
1.55425286 1.97581029 -1.14638245
1.72598016 1.90220058 -1.13292456
1.87676823 1.80568814 -1.09554636
1.77647221 2.00355721 -0.96198547
1.94845748 1.91292107 -0.92652786
1.82673490 2.10333753 -0.80074924
2.01032925 2.00461769 -0.74710417
2.20295286 1.89180970 -0.68405724
2.06275606 2.10982990 -0.58755916
2.28325558 1.99074435 -0.49031577
2.10560918 2.22977519 -0.44779238
2.30618691 2.11133480 -0.32823393
2.33016467 2.25484204 -0.21641482
2.12872672 2.36207485 -0.33055568
2.53048468 2.16209912 -0.08709615
2.53186035 2.33395529 0.00025805
2.33869219 2.41103339 -0.11950104
2.69639277 2.27077937 0.13702936
2.69753981 2.09321880 0.04954614
2.86098313 2.23365927 0.26604700
2.85797334 2.05631375 0.18283480
2.87889814 1.90360510 0.07816742
2.89626884 1.74552202 0.02996848
3.04027772 2.05248713 0.31080616
3.06146073 1.89770031 0.22806686
3.07034659 1.73472989 0.18230449
2.90880919 1.58022976 0.01529242
3.08467841 1.56635630 0.15384093
3.20763350 1.87829471 0.41207686
3.21940017 1.71334624 0.35846049
3.24443865 1.54662097 0.30940160
3.26782870 1.37141097 0.27355698
3.11024666 1.39193451 0.12334220
3.35723209 1.68984175 0.54143852
3.37817121 1.52265763 0.49246562
3.39784956 1.34792054 0.45617679
3.41655302 1.16610336 0.41776678
3.29041600 1.18973708 0.24161078
3.50119829 1.31379580 0.65149474
3.48464441 1.48887694 0.69578093
3.51643348 1.13028741 0.60687894
3.53447747 0.94365478 0.55503970
3.43441081 0.97904074 0.36949614
3.58919716 1.27187443 0.85327661
3.59900069 1.09020054 0.80575132
3.61350465 0.90459973 0.75095958
3.62466931 0.71531558 0.69159603
3.54984164 0.75484353 0.49624938
3.65407896 1.04465318 1.01459885
3.66469908 0.85932463 0.95818758
3.66669130 0.66969645 0.89711845
3.68325877 0.47913674 0.83216530
3.63268113 0.52353758 0.62735945
3.67984772 0.81040913 1.17008781
3.68669891 0.62165523 1.10814440
3.69192982 0.43191245 1.04466760
3.69172931 0.57564914 1.32392883
3.69544148 0.38663730 1.25960612
3.70801067 0.19356944 1.19400811
3.67117715 0.14810799 1.40939116
3.68814659 -0.04914483 1.34086907
3.67597866 0.76040441 1.38482594
3.66991591 0.99585229 1.23056936
3.66313648 0.94054472 1.44758606
3.62081385 0.87494659 1.66275418
3.65674472 1.11651433 1.51357126
3.61703062 1.04899573 1.72924078
3.53980875 0.96857834 1.93473446
3.52765560 1.14446187 1.99475741
3.59260821 1.22424877 1.79296148
3.42495131 0.87159288 2.13164353
3.42006397 1.04843676 2.18841290
3.27446413 0.80606651 2.28855133
3.27648497 0.98600608 2.35178471
3.15755725 0.94726640 2.52688003
3.13836646 0.77399129 2.44735098
3.27648497 0.98600608 2.35178471
3.27446413 0.80606651 2.28855133
3.11729836 0.91400158 2.74464226
3.08952236 0.73767364 2.66703367
3.07146406 0.89476788 2.97177720
3.04559469 0.71187592 2.90077615
3.00122285 0.53527564 2.82538939
2.95960212 0.70492482 3.12564683
2.91343832 0.52611738 3.05420113
2.86916661 0.34395629 2.99169898
2.81701207 0.52254874 3.27769613
2.75878072 0.35016209 3.21357441
2.68927002 0.18071353 3.15889740
2.61940098 0.36840686 3.41617298
2.55338717 0.20433286 3.36462045
2.47499037 0.04559042 3.31897259
2.38552952 0.23299707 3.53833985
2.30909657 0.07934254 3.48837805
2.21639633 -0.06331928 3.43605185
2.12527275 0.10908166 3.62765765
2.03849196 -0.03709152 3.57048678
1.94048882 -0.17614163 3.50848627
1.85111380 -0.01612365 3.67713189
1.75920200 -0.16087796 3.61001468
1.66547000 -0.30630586 3.54541993
1.57249761 -0.14719079 3.69120622
1.48501444 -0.29747728 3.62222576
1.39920795 -0.44114235 3.54337025
1.31067860 -0.30078802 3.70903563
1.22159016 -0.43552420 3.61634970
1.13227248 -0.54542279 3.50103354
1.03928578 -0.41773802 3.67677379
0.95329314 -0.53193629 3.56326342
0.86982286 -0.62713015 3.43321395
0.76860958 -0.50589484 3.61729550
0.68859339 -0.59486854 3.48010850
0.61690414 -0.66541123 3.33075356
0.50442576 -0.53368479 3.50573444
0.43653455 -0.60080212 3.35494614
0.37721395 -0.66167051 3.20101953
0.25308356 -0.52315074 3.36854744
0.19045225 -0.59395134 3.22268939
0.13482933 -0.66169918 3.07584286
-0.00465076 -0.52124447 3.24051881
0.05772258 -0.45723730 3.38641953
-0.14719792 -0.38663733 3.39893150
0.12833689 -0.38142046 3.52612901
-0.07757254 -0.32303146 3.54357100
-0.28859851 -0.25223082 3.55178332
-0.35256273 -0.29802194 3.39638042
-0.47613415 -0.13781758 3.53222013
-0.54469901 -0.19240861 3.37379289
-0.64657164 -0.01685459 3.51517916
-0.39955771 -0.08494645 3.68791008
-0.56675613 0.03535729 3.67842221
-0.71083683 0.17184198 3.67677379
-0.59413046 0.25192979 3.79448342
-0.45744511 0.11551677 3.80225134
-0.71317291 0.39526522 3.80867219
-0.83306104 0.32853490 3.68485713
-0.94129711 0.49375549 3.70738721
-0.80630296 0.55321944 3.82908082
-1.00269592 0.68124813 3.72018552
-0.87439483 0.72202301 3.85419106
-0.92365432 0.89688903 3.88229656
-1.03333795 0.87457401 3.72782493
-0.96123308 1.07281566 3.91580486
-1.07611918 1.05984521 3.76124740
-1.18151760 1.05183351 3.60224676
-1.11501658 1.24289489 3.80488873
-1.20538056 1.24776793 3.63310409
-1.26448619 1.26617014 3.45026898
-1.26859951 1.46123016 3.46847105
-1.20420539 1.44004738 3.65282512
-1.36357832 1.50183308 3.29045177
-1.36770606 1.30915213 3.28136539
-1.48518634 1.56472242 3.11388016
-1.47128415 1.37737310 3.09028959
-1.48518634 1.56472242 3.11388016
-1.66082633 1.46812403 2.94982052
-1.47128415 1.37737310 3.09028959
-1.65004861 1.65822506 2.95429206
-1.79847193 1.58021533 2.75573516
-1.78564477 1.76945662 2.76272917
-1.91136599 1.67626917 2.55753636
-1.88594079 1.86648500 2.55680537
-1.92728889 1.48406136 2.54863596
-1.97729373 1.75691605 2.34137964
-2.00372219 1.57118618 2.33269429
-2.02738452 1.38376510 2.31839085
-2.03164101 1.66099119 2.10100150
-2.04846692 1.47163534 2.08823156
-2.07197165 1.28124750 2.07111907
-2.06256962 1.56159794 1.85870254
-2.08981514 1.36837244 1.84674978
-2.12544465 1.17132032 1.83092701
-2.09160662 1.45675862 1.61608887
-2.05450058 1.64832163 1.62485993
-1.98481810 1.71526682 1.39289474
-2.00865245 1.83279026 1.63192582
-1.93316507 1.89964938 1.39851296
-1.96247435 2.01237154 1.64185798
-1.88691545 2.07645035 1.40682566
-1.90809822 2.18414187 1.65601790
-1.82471406 2.24078226 1.42479825
-1.85617304 2.35154104 1.67338848
-1.77393532 2.40316510 1.44625318
-1.67719364 2.44783831 1.21842992
-1.62363446 2.60000229 1.25023305
-1.72324276 2.56229472 1.47212255
-1.48868334 2.61841917 1.04190135
-1.43323243 2.75924635 1.08948410
-1.55909705 2.74244928 1.29305732
-1.29719210 2.77256107 0.89071208
-1.34086204 2.63034344 0.84042060
-1.15007305 2.78441358 0.70733273
-1.19511878 2.64731240 0.64726675
-0.99734998 2.80973840 0.52765101
-1.04114890 2.68082118 0.45712274
-0.82120836 2.83292794 0.36453733
-0.85444456 2.70703435 0.28786042
-0.65196049 2.73092604 0.13543853
-0.63099259 2.85749316 0.21480970
-0.66719556 2.60511899 0.05037744
-0.45427769 2.62052584 -0.07461287
-0.44170845 2.74489999 0.01479080
-0.46701896 2.50106788 -0.17682949
-0.25013113 2.50437856 -0.27282602
-0.24121656 2.63048673 -0.17807637
-0.26192647 2.38605261 -0.38404319
-0.05284965 2.40062833 -0.47661424
-0.04214356 2.51902580 -0.36837816
-0.06600653 2.28761983 -0.59548479
0.15161224 2.42864752 -0.57103419
0.13891399 2.31499410 -0.68616402
0.12776360 2.19431758 -0.79905802
0.34598431 2.18422794 -0.83702379
0.35601678 2.31877756 -0.74409443
0.56093729 2.16790342 -0.86696357
0.57251763 2.28277540 -0.75216335
0.77465773 2.13324857 -0.87890226
0.57251763 2.28277540 -0.75216335
0.78747064 2.23239803 -0.74744809
0.56093729 2.16790342 -0.86696357
0.75463569 2.05794764 -1.02738285
0.54545861 2.05608439 -0.98798388
0.98522502 2.13647318 -0.91745561
0.95975685 2.07563353 -1.07654202
1.19418728 2.13350654 -0.95198166
1.16646898 2.06515670 -1.11275923
1.36760569 2.03418493 -1.13811278
1.39956641 2.11814260 -0.97717750
1.59327912 2.07484531 -0.98301065
1.42717004 2.21591616 -0.83205056
1.63181818 2.17433858 -0.82891190
1.44879723 2.31536674 -0.69417566
1.66248894 2.27930689 -0.68930280
1.86831236 2.21170259 -0.65401709
1.68625152 2.39291763 -0.56604660
1.89840972 2.32521296 -0.52095783
1.91830277 2.45091963 -0.40833607
1.70290542 2.51511312 -0.45968801
1.92827797 2.58190084 -0.30692205
1.71300960 2.64460373 -0.36678725
2.13732600 2.50039411 -0.22514303
2.14224195 2.64579344 -0.13859144
1.93343735 2.71832824 -0.21939585
2.33952355 2.56728220 -0.03607384
2.33123946 2.72129512 0.04302506
2.13606477 2.79160833 -0.05618183
2.52814841 2.50005007 0.07901300
2.52164149 2.66577244 0.14658888
2.69331145 2.61788869 0.26829720
2.70046306 2.44663429 0.20406064
2.84930229 2.58334851 0.40395057
2.86644316 2.41369915 0.33089983
2.99510288 2.56173563 0.54762995
3.01883674 2.39217234 0.47251543
3.03083301 2.21957088 0.39373171
3.16010809 2.37723827 0.63056988
3.17726398 2.20723081 0.55621493
3.19586682 2.04242587 0.47846326
3.30778670 2.18822646 0.73443466
3.32633209 2.02127171 0.66353375
3.34259892 1.85583627 0.59807897
3.43469715 1.98720419 0.86006999
3.45461893 1.82202685 0.79812652
3.46873593 1.65651953 0.74376494
3.54158616 1.78337312 1.01054275
3.56104898 1.61640406 0.95513493
3.57748795 1.44679785 0.90320957
3.60285616 1.56720185 1.17838609
3.62656116 1.39900029 1.12297821
3.64615297 1.22539532 1.06736958
3.64704204 1.34651601 1.34961188
3.66378164 1.17448759 1.28940272
3.63285279 1.28870022 1.57548594
3.62153053 1.51506174 1.40739894
3.60814452 1.46006930 1.63367426
3.57118201 1.40092075 1.85245383
3.59561801 1.63109446 1.68979883
3.56729817 1.57773590 1.91378093
3.51993036 1.32170713 2.05801940
3.50727510 1.49207294 2.12446308
3.41552067 1.22350359 2.25072885
3.39352107 1.40172338 2.30552053
3.27083826 1.34247434 2.47779250
3.27651381 1.16317976 2.41719627
3.27083826 1.34247434 2.47779250
3.19536543 1.30651498 2.67167735
3.17813802 1.12399566 2.60312676
3.27651381 1.16317976 2.41719627
3.14868593 1.28240848 2.88147068
3.13598776 1.09667873 2.81617355
3.08614039 1.27108598 3.09593630
3.08099508 1.08190227 3.03710318
2.99920154 1.26849210 3.30511355
2.99543238 1.07708669 3.25184131
2.99381304 0.88615429 3.19560194
2.88878751 1.07889247 3.45825219
2.87692022 0.88947934 3.40161157
2.85547924 0.70321929 3.34168911
2.73465967 0.89987016 3.58833051
2.71490979 0.71322310 3.53629017
2.67486596 0.53679478 3.47599530
2.54521799 0.73199815 3.70186901
2.50667858 0.55810666 3.64775133
2.45161510 0.39234146 3.59113955
2.31905723 0.58462101 3.79064226
2.26598525 0.42018878 3.73649549
2.19893980 0.26348147 3.67998409
2.06367326 0.45623401 3.84083343
2.00274754 0.29554242 3.78544021
1.93200421 0.13747357 3.73308444
1.80407584 0.31794348 3.87396932
1.73556828 0.15951635 3.81522202
1.65817487 0.00366900 3.75541377
1.53969145 0.17538200 3.88887477
1.46979368 0.01276988 3.83584619
1.39334631 -0.14810807 3.78019428
1.29121554 0.01361547 3.92817354
1.21420920 -0.14369376 3.86174393
1.12764323 -0.28674254 3.77552199
1.02953994 -0.12721184 3.92930579
0.94136882 -0.25938255 3.82992673
0.85448754 -0.39056432 3.73186636
0.75308788 -0.22792356 3.88185215
0.66513175 -0.34781167 3.77183867
0.58128887 -0.45011428 3.64581656
0.47355440 -0.30209225 3.80490303
0.39029917 -0.39562359 3.67142797
0.32051614 -0.45584711 3.51689911
0.20631789 -0.30220687 3.66388917
0.28148982 -0.23784138 3.81267095
0.08403634 -0.17546804 3.82258844
-0.00089575 -0.25627249 3.68699265
-0.10964780 -0.09529421 3.81853294
-0.20492765 -0.18042696 3.69066167
-0.29160824 0.00283773 3.80501723
-0.00933736 0.00786830 3.93012261
-0.18890436 0.09292938 3.92395973
-0.34799078 0.20034854 3.91252279
-0.10011695 0.18772194 4.04208517
-0.26254275 0.28281549 4.03573608
-0.39249200 0.40612894 4.02458525
-0.48702657 0.32469392 3.91743851
-0.49131188 0.53150630 4.05370855
-0.60331732 0.45920077 3.93880773
-0.57493973 0.66647172 4.08207130
-0.69359529 0.60435635 3.96484900
-0.75748777 0.76256853 3.99318361
-0.62278032 0.81215763 4.11168146
-0.79976749 0.92526662 4.02435637
-0.65062761 0.96105391 4.14192247
-0.66960335 1.11733127 4.16971254
-0.82795882 1.09255099 4.05591536
-0.68089700 1.27687633 4.19694328
-0.84015542 1.26500928 4.08072424
-0.98079640 1.25185251 3.94545770
-0.84435469 1.43967474 4.10328293
-0.98700225 1.43397045 3.97125554
-1.11194944 1.43316793 3.82405043
-0.97216845 1.61927032 3.98107314
-1.09112501 1.62070358 3.83103061
-1.19503284 1.62841427 3.66652656
-1.08153689 1.80594611 3.84480357
-1.19104850 1.81253886 3.68223453
-1.28217196 1.83416605 3.50596380
-1.27863193 1.65044272 3.48767591
-1.36734772 1.87127185 3.32231212
-1.36889553 1.68889570 3.30585885
-1.47056758 1.93229795 3.14218616
-1.48221970 1.74911928 3.12815499
-1.47056758 1.93229795 3.14218616
-1.63101554 1.84263635 2.96164441
-1.48221970 1.74911928 3.12815499
-1.60666525 2.02340722 2.97352600
-1.76024818 1.94994092 2.77482557
-1.73099637 2.12757301 2.78821158
-1.84992421 2.04771447 2.56324053
-1.81442356 2.22490239 2.57883382
-1.86210656 2.31182647 2.36325026
-1.90507412 2.13223100 2.34941983
-1.94508946 1.94642949 2.34239697
-1.92718852 2.21383810 2.12995219
-1.97098756 2.03237915 2.11881614
-2.00386548 1.84798229 2.11005926
-1.96280396 2.11645126 1.88809788
-2.00707579 1.93728554 1.87582958
-2.04130101 1.75210035 1.86807597
-1.91017640 2.28916740 1.90280259
-1.87812984 2.39013720 2.14501548
-1.85127151 2.45670986 1.92152035
-1.79986215 2.51469731 1.69619083
-1.79885888 2.62397981 1.94286072
-1.74244773 2.67495942 1.72264802
-1.66723275 2.71679473 1.50392568
-1.59637487 2.86334062 1.54345369
-1.67422688 2.82857060 1.75499570
-1.49402928 2.88518262 1.33836102
-1.42653942 3.02692723 1.38357890
-1.52027130 3.00509930 1.58733869
-1.32188642 3.04491401 1.18383229
-1.37951577 2.90246701 1.13675129
-1.19431615 3.05150676 0.99783015
-1.24740243 2.91278625 0.94419944
-1.05043614 3.05785584 0.82465535
-1.10290599 2.92236018 0.76596534
-0.90434891 3.07468176 0.65655398
-0.95173091 2.94186616 0.59322035
-0.74372900 3.09362888 0.50083560
-0.78341460 2.96174479 0.43520886
-0.60207045 2.98384476 0.29117113
-0.56720042 3.11077023 0.36400703
-0.40775567 3.00326490 0.16460434
-0.38078263 3.12917256 0.23887332
-0.42826492 2.87507844 0.09045004
-0.22560889 2.89236307 -0.02158408
-0.20507100 3.01321149 0.06462356
-0.23721790 2.76480722 -0.10194422
-0.02590528 2.77185869 -0.18628868
-0.01118621 2.88994098 -0.09162509
-0.03517816 2.64666772 -0.27566373
0.17576183 2.65235734 -0.34819856
0.18815911 2.76946521 -0.24836108
0.16431047 2.53866100 -0.45573235
0.38883728 2.64671063 -0.39993748
0.37603876 2.54658651 -0.51771873
0.36647925 2.43878055 -0.63539964
0.58907127 2.40653300 -0.64931613
0.59481835 2.50506616 -0.52538639
0.79508096 2.32656002 -0.61381555
0.59481835 2.50506616 -0.52538639
0.80246198 2.43204427 -0.48916918
0.58907127 2.40653300 -0.64931613
1.02356339 2.42602491 -0.51972526
1.01611078 2.31506562 -0.63889676
1.00369918 2.21529984 -0.77012151
1.23251116 2.32529879 -0.67646122
1.21744835 2.22012973 -0.80590874
1.24391973 2.43475318 -0.55714637
1.46543670 2.41950345 -0.56811047
1.25630260 2.55127311 -0.45174801
1.48009849 2.54896569 -0.47820508
1.26679373 2.67947388 -0.36439383
1.48839676 2.67173457 -0.38023078
1.27325749 2.81684732 -0.29521275
1.49544811 2.80326033 -0.29825112
1.71938729 2.77796412 -0.28068000
1.71902907 2.91162539 -0.19875760
1.49751198 2.93760967 -0.22456980
1.93563032 2.85851049 -0.14125720
1.92313266 2.99169898 -0.05589514
1.71073079 3.04168940 -0.11459950
2.13301206 2.94018936 0.00960257
2.11117005 3.07984138 0.08980504
1.90709496 3.12604809 0.02569752
2.32139349 2.87512136 0.11342444
2.29434848 3.02672648 0.18593051
2.47016048 2.98003244 0.28945142
2.50073075 2.82422829 0.21946767
2.63669991 2.94517684 0.40142813
2.67168450 2.78306627 0.33515638
2.81434631 2.74654794 0.47707295
2.78156877 2.91705728 0.53402871
2.92319846 2.89955759 0.67163134
2.97040868 2.73581338 0.60471475
3.05501080 2.88668752 0.82124430
3.10713696 2.72244143 0.75732309
3.14197826 2.55170321 0.69434786
3.23033571 2.70772243 0.92393392
3.26047611 2.53199649 0.86735070
3.28754950 2.35917997 0.80374479
3.36216235 2.50568271 1.04985571
3.39650226 2.33143306 0.98735338
3.41659570 2.15728354 0.92311698
3.47372365 2.29372525 1.18371761
3.50346279 2.12181139 1.12269163
3.52412963 1.95104444 1.06597936
3.53896356 2.07312536 1.33671296
3.56208134 1.90284562 1.28537524
3.57598329 1.73344004 1.23336411
3.57638478 1.85093451 1.51041806
3.59388375 1.68227434 1.46085751
3.57457876 1.80127382 1.73805511
3.55326700 2.02120018 1.55516303
3.55505848 1.97227025 1.77802730
3.52190828 1.91851056 2.00100613
3.54225969 1.74685490 1.96259618
3.48255229 1.66736889 2.18123245
3.46009374 1.84318089 2.21802306
3.37011671 1.58305311 2.35710192
3.34590983 1.76636088 2.39687347
3.25118899 1.71145451 2.57678461
3.26096344 1.52579641 2.53053474
3.25118899 1.71145451 2.57678461
3.19894814 1.67923594 2.77568531
3.19937849 1.49230230 2.72883391
3.26096344 1.52579641 2.53053474
3.14462972 1.66027462 2.98016167
3.15758610 1.47060335 2.93819737
3.06687808 1.65449870 3.18015194
3.07999182 1.46244836 3.14371967
2.97093916 1.65547323 3.37492514
2.98370910 1.46143079 3.34305048
2.86556911 1.66084778 3.56491184
2.87332273 1.46598852 3.53565979
2.88600683 1.27158761 3.50285387
2.75299048 1.47382808 3.72136092
2.76662016 1.27732062 3.69602180
2.76177621 1.08496940 3.65129137
2.59790254 1.29209697 3.84334183
2.58170748 1.10527790 3.79088593
2.56716013 0.91666734 3.74672866
2.40251303 1.12239051 3.92920518
2.38300705 0.93883920 3.88102055
2.35912967 0.75700772 3.84069014
2.18518090 0.96414971 3.98660541
2.15577149 0.78762102 3.94540071
2.11627221 0.61771387 3.89790392
1.94285369 0.82104355 4.01241732
1.90477324 0.65152335 3.96876192
1.85816514 0.48476925 3.91924429
1.69771719 0.67208993 4.03345728
1.65361738 0.50474823 3.98618984
1.60123348 0.33984298 3.93708777
1.45537555 0.51668686 4.06352615
1.40724838 0.34940249 4.01868057
1.35403323 0.18088552 3.97515416
1.22782469 0.35080701 4.12035275
1.17667341 0.18100020 4.07506323
1.11080301 0.01868905 4.01423740
0.99438328 0.19064569 4.15791750
0.92266536 0.04093248 4.07493401
0.84296453 -0.10578534 3.99120617
0.73052913 0.07095824 4.11976528
0.64943808 -0.06422219 4.02554560
0.56133860 -0.19280989 3.92600894
0.45776042 -0.00312442 4.02897120
0.37377429 -0.11753764 3.91322494
0.26840460 0.06202934 4.02223492
0.17927320 -0.06552645 3.93125486
0.08051063 0.11674934 4.03906107
0.34642860 0.18552914 4.12233019
0.16243297 0.24636894 4.11972189
-0.01557183 0.30805433 4.12301874
0.22844666 0.37838200 4.20141506
0.05234804 0.43324533 4.20653152
0.27594328 0.51420742 4.27870846
0.09391116 0.56769484 4.27334785
0.30520943 0.65291363 4.35287666
0.11810376 0.70578468 4.32297993
-0.07454846 0.74845141 4.30060768
0.12542747 0.84846085 4.35935497
-0.07740054 0.87395769 4.32921457
-0.28121746 0.87858695 4.29156399
-0.27000979 0.76990652 4.25377035
-0.42749098 0.72200865 4.18298435
-0.46204573 0.85625756 4.20607281
-0.47891459 0.99222630 4.23588371
-0.28965911 1.00941050 4.31276131
-0.29997823 1.14778686 4.33949041
-0.49237248 1.13702357 4.26474857
-0.31038332 1.29576612 4.36640644
-0.50178868 1.28943121 4.29010201
-0.31860995 1.45237291 4.39001131
-0.50742120 1.45092547 4.31109858
-0.68545467 1.44603813 4.21864223
-0.50985759 1.61896944 4.32898521
-0.68601358 1.61876869 4.23734570
-0.84472740 1.61869717 4.12446594
-0.68228728 1.79747593 4.25179243
-0.83658677 1.80148888 4.13823891
-0.96462977 1.80570245 3.99865866
-0.82417512 1.98882377 4.14622211
-0.95484096 1.99177623 4.00896311
-1.06891024 1.98961222 3.85173988
-0.94510943 2.17848063 4.00665617
-1.05950832 2.17561412 3.85728645
-1.18178988 1.99664927 3.69374323
-1.16807413 2.18252230 3.70331693
-1.26020086 2.20058060 3.53531599
-1.27655387 2.01647043 3.52263188
-1.34589255 2.23350167 3.35984778
-1.36158621 2.05349040 3.34166050
-1.43624210 2.29266453 3.18194342
-1.46142375 2.11428714 3.16262364
-1.43624210 2.29266453 3.18194342
-1.56599081 2.19821596 2.97986054
-1.46142375 2.11428714 3.16262364
-1.51989865 2.36964226 2.99353337
-1.68252516 2.29845476 2.79691148
-1.62996936 2.46434879 2.81290579
-1.76911974 2.39802003 2.59471393
-1.70628774 2.56179309 2.61017823
-1.75086057 2.65353298 2.40068579
-1.81385040 2.48617697 2.38109374
-1.75683713 2.72427607 2.18554640
-1.82598960 2.56183600 2.16450691
-1.73027980 2.78320956 1.96852958
-1.68896019 2.88466668 2.20823407
-1.65721464 2.93849802 1.99911427
-1.60311091 2.98006129 1.79086888
-1.53678191 3.13160896 1.82861948
-1.58681536 3.09418774 2.03399873
-1.44697702 3.14691567 1.62984753
-1.37194836 3.28417444 1.67090905
-1.45716703 3.27167678 1.86976695
-1.27450430 3.29340410 1.47715330
-1.35370350 3.16345501 1.43076026
-1.16879070 3.30190301 1.29009056
-1.25369406 3.18112636 1.23395169
-1.06079829 3.31504560 1.10663950
-1.13060999 3.18528271 1.05213463
-0.93560725 3.32522154 0.93687576
-0.99423993 3.19160318 0.88211274
-0.80011153 3.33850718 0.77698678
-0.85405761 3.20782709 0.71682048
-0.65214682 3.35627913 0.62702978
-0.69816720 3.22442365 0.56610411
-0.48642462 3.36820340 0.49720958
-0.52808809 3.23899937 0.43207023
-0.30748823 3.37632966 0.38665175
-0.34632826 3.25197005 0.31467587
-0.11477869 3.36892009 0.31507716
-0.14910410 3.25172639 0.23196530
-0.17882890 3.13261223 0.14883907
0.02953132 3.12477231 0.08702466
0.05442619 3.24271154 0.17159848
0.00743121 3.00713468 -0.00041558
0.21884416 3.00197482 -0.05800195
0.23753323 3.11815095 0.03208964
0.20226191 2.88569880 -0.15136133
0.41453478 2.88045311 -0.20321493
0.42888123 2.99667215 -0.10921062
0.40132061 2.76370382 -0.29989937
0.61666054 2.74524379 -0.33100003
0.62771058 2.86729622 -0.24023475
0.60586846 2.62273312 -0.42433071
0.81547552 2.56197906 -0.39360270
0.60586846 2.62273312 -0.42433071
0.82814515 2.69730306 -0.31311354
0.61666054 2.74524379 -0.33100003
1.03510082 2.55047059 -0.42050403
1.04603624 2.68367314 -0.33759281
0.84064269 2.83315706 -0.24132402
1.05555272 2.81885362 -0.26366779
0.85094756 2.96537066 -0.16673972
1.06274748 2.95413446 -0.19332574
1.27676880 2.95549607 -0.22874042
1.06829405 3.08372521 -0.11414086
1.27937722 3.07387924 -0.13135374
1.49402928 3.06315875 -0.13628398
1.48876941 3.19028449 -0.04991867
1.27894723 3.20017362 -0.04450115
1.69920778 3.16956019 -0.02955276
1.68615115 3.29671502 0.05656891
1.48154593 3.31861424 0.03353717
1.88529587 3.25985265 0.10730453
1.86173391 3.39503312 0.18780796
1.66961205 3.42804003 0.13744502
2.05000043 3.36355996 0.24308695
2.08220458 3.21985173 0.16940556
2.22817731 3.32946372 0.31986403
2.26276064 3.17712784 0.25392210
2.38257718 3.28721261 0.42676726
2.42961526 3.13370156 0.35939211
2.53458357 3.25704360 0.53695250
2.59205532 3.10495114 0.46555001
2.73368502 3.07833648 0.59398001
2.67510962 3.23396873 0.65739965
2.86498141 3.05913162 0.73588222
2.79144335 3.20742559 0.80216819
2.99040198 3.04627562 0.88331664
2.90290451 3.19038486 0.95135117
3.08989525 3.02623916 1.05101669
2.99884343 3.17198253 1.11265898
3.16621399 2.87049222 0.98764014
3.17618895 3.00607395 1.22694337
3.25333881 2.84634256 1.16898429
3.32134438 2.68112206 1.10719860
3.32547212 2.81769276 1.35203409
3.39499712 2.64775705 1.29549384
3.44124699 2.47125697 1.23982775
3.44223595 2.60507607 1.48975122
3.48865747 2.42694211 1.43956006
3.51895595 2.24837852 1.38856661
3.50065374 2.37485933 1.64433742
3.52635098 2.19605184 1.59880435
3.49867582 2.32251835 1.85276926
3.52146387 2.14594674 1.81447375
3.49625373 2.08957863 2.03316736
3.46909451 2.26193666 2.06595922
3.43187404 2.01797533 2.24581289
3.39564228 2.19130802 2.26870131
3.32230496 1.94812071 2.42851877
3.29405618 2.12801719 2.45219541
3.22544861 2.08267045 2.64446044
3.24329209 1.89807296 2.61585379
3.22544861 2.08267045 2.64446044
3.18056011 2.05466557 2.84253025
3.19308662 1.86707258 2.81410980
3.24329209 1.89807296 2.61585379
3.11655307 2.04077768 3.03499627
3.13333607 1.85007465 3.01329756
3.03877258 2.03753853 3.22673106
3.05353475 1.84639144 3.20861530
2.95275116 2.04203892 3.41597247
2.96640992 1.84844077 3.40228534
2.83808017 2.05029440 3.59049439
2.85698438 1.85595095 3.58514833
2.71609950 2.06277752 3.75818038
2.73390031 1.86671436 3.75706220
2.74550891 1.67022109 3.74473691
2.57745075 1.87607312 3.89781809
2.59209800 1.68065476 3.89387679
2.59801745 1.48503590 3.87412691
2.40834594 1.68934011 4.00472116
2.41387820 1.49802077 3.99397206
2.41321898 1.30849290 3.96966457
2.21507764 1.50882721 4.09064198
2.21479106 1.32361329 4.07656813
2.20306730 1.14269912 4.03215265
1.99403358 1.34122753 4.12135601
1.98572099 1.16540110 4.08949566
1.97038555 0.99189663 4.05327797
1.76632512 1.18067920 4.14546251
1.75451541 1.00936747 4.11873293
1.73053765 0.84021991 4.07838821
1.54047966 1.02160704 4.18010330
1.52391171 0.85137033 4.15013456
1.49519026 0.68289638 4.11109400
1.32731819 0.85839301 4.23893690
1.30060315 0.69142395 4.19725847
1.27228284 0.51885104 4.16704655
1.11397040 0.69638288 4.29530478
1.09287357 0.52071422 4.27460909
1.05063677 0.35203958 4.22420311
0.89564937 0.53838569 4.33418798
0.85603541 0.37168890 4.27984047
0.79933757 0.21759006 4.20375109
0.65681911 0.40642992 4.30206919
0.60285872 0.25737602 4.22655344
0.53641504 0.12255384 4.13191891
0.40997720 0.31211033 4.22286987
0.46200272 0.45199174 4.30453444
0.69489950 0.56591767 4.35956955
0.49601281 0.60147566 4.37480497
0.51776898 0.76334250 4.41262722
0.71675599 0.73474991 4.39365149
0.31858131 0.80235451 4.40394211
0.32306725 0.95909041 4.42905188
0.52536500 0.92859167 4.43776608
0.12085552 0.98835665 4.39644623
0.11297286 1.13688028 4.42244482
0.32022953 1.11625636 4.45241308
-0.09474240 1.14848912 4.38766050
-0.08462393 1.00850749 4.35674620
-0.10592145 1.29642534 4.41317177
0.10209479 1.28867161 4.44731092
-0.11896367 1.44907653 4.44702482
0.09081542 1.44547927 4.46803522
-0.12630171 1.61206138 4.46244574
0.08073995 1.60644317 4.48741245
-0.32494476 1.61628938 4.41066408
-0.32713756 1.78684139 4.42104053
-0.13151860 1.77974701 4.47399759
-0.50873971 1.79307580 4.34106684
-0.50405318 1.97324479 4.34605455
-0.32564703 1.96305466 4.42571259
-0.67332971 1.98144281 4.25594854
-0.66749650 2.16803265 4.26019144
-0.49498090 2.15642357 4.34112406
-0.82136601 2.17706180 4.15218449
-0.80965674 2.36726332 4.15295792
-0.65046996 2.35510945 4.24482727
-0.92745233 2.36825204 4.00675631
-0.78456122 2.55954266 4.14411497
-0.90636981 2.56123400 4.00621176
-1.02562726 2.56475973 3.86919689
-1.04404402 2.36852455 3.86221695
-1.12825942 2.56923127 3.72024298
-1.14423990 2.37336850 3.70959425
-1.24274445 2.38676929 3.55161166
-1.22057259 2.57864738 3.56468225
-1.29885459 2.60467458 3.39934731
-1.32059634 2.41695261 3.37949729
-1.35850489 2.64547825 3.22084069
-1.39430642 2.46893525 3.19892693
-1.35850489 2.64547825 3.22084069
-1.42363000 2.70949960 3.03449464
-1.47298968 2.53939199 3.01273847
-1.39430642 2.46893525 3.19892693
-1.56189179 2.62418056 2.82789731
-1.49848652 2.78557444 2.85051322
-1.64053214 2.71905923 2.63425612
-1.56620574 2.87116599 2.65831971
-1.67705035 2.81191683 2.41977620
-1.60008681 2.95800400 2.44791007
-1.60487378 3.03548336 2.23774409
-1.52201986 3.10369015 2.48786783
-1.52286553 3.17972159 2.27990890
-1.50886297 3.23981619 2.07563353
-1.44441152 3.32011914 2.32140064
-1.42929113 3.37747622 2.11321235
-1.37504399 3.40437770 1.90811980
-1.27406013 3.51894855 1.94641531
-1.33290768 3.49841046 2.14475727
-1.19669521 3.53064370 1.75412118
-1.28852117 3.41284776 1.71294522
-1.11409938 3.54468894 1.56551063
-1.19473183 3.42054439 1.52337444
-1.02651584 3.56214547 1.38087010
-1.09470809 3.43037605 1.33751547
-0.92746663 3.57725143 1.20521581
-0.99047059 3.44367647 1.15836418
-0.81474459 3.59080982 1.03998089
-0.87463850 3.45816588 0.98991889
-0.68723184 3.60115743 0.88793159
-0.74305534 3.46941686 0.83455890
-0.54657650 3.61170602 0.74923974
-0.59797144 3.48253059 0.69087940
-0.39368156 3.62163806 0.62594056
-0.44117814 3.49455523 0.56319469
-0.22146691 3.61910129 0.53712457
-0.26528019 3.49709201 0.46278384
-0.03982176 3.61101794 0.46951991
-0.07715691 3.48804855 0.39532268
0.14004622 3.60901141 0.40215909
0.11166864 3.48172808 0.33263406
0.08165721 3.36251354 0.25283277
0.30136845 3.48016572 0.27446002
0.27942598 3.35619307 0.19924508
0.25797081 3.23611879 0.11770969
0.46132913 3.23108792 0.06919549
0.47669315 3.35245228 0.15127543
0.44491887 3.11322093 -0.01837370
0.65191746 3.10701489 -0.06101175
0.66404253 3.22743344 0.02555421
0.63943422 2.98711276 -0.14935485
0.65191746 3.10701489 -0.06101175
0.85936046 3.09693956 -0.09324463
0.63943422 2.98711276 -0.14935485
0.62771058 2.86729622 -0.24023475
0.66404253 3.22743344 0.02555421
0.86800277 3.22142816 -0.00976009
1.07277989 3.20989084 -0.03002568
1.07550299 3.33690214 0.05264191
0.87511146 3.34482765 0.07501431
1.27718449 3.32767224 0.03915540
1.07647765 3.46480179 0.13323140
1.27340078 3.45754981 0.11894228
1.47178578 3.44972444 0.11293704
1.26594806 3.59060907 0.19392788
1.45991886 3.58020377 0.19341192
1.65080833 3.56323481 0.21284626
1.44558680 3.71373630 0.27004564
1.63039923 3.69954753 0.28750220
1.80823207 3.67417955 0.33415315
1.83668137 3.53389692 0.26216304
1.98041809 3.64696288 0.39443398
2.01491547 3.50556231 0.31996435
2.13946152 3.61689425 0.47119686
2.18364739 3.47206807 0.39767307
2.28414416 3.58542109 0.56836849
2.33561087 3.43827319 0.49599132
2.47451735 3.40598297 0.60781044
2.41718936 3.55572462 0.67703462
2.60405111 3.37994146 0.72877359
2.53710604 3.52939653 0.79675066
2.71142721 3.35258126 0.86902755
2.63288713 3.49845386 0.93562883
2.80826926 3.32834578 1.01864052
2.72194719 3.47226882 1.07889259
2.89929271 3.30969977 1.17338419
2.80577564 3.45185995 1.23085594
2.97695851 3.29121137 1.33651221
2.87789488 3.43172336 1.38799310
3.08320236 3.15256262 1.28275263
3.14892936 3.13527799 1.46113014
3.04271388 3.27501607 1.50717902
3.24671721 2.98341489 1.40748501
3.29206395 2.94658136 1.58976066
3.19407582 3.10424876 1.64211571
3.37576342 2.77916789 1.53912532
3.40031457 2.72999454 1.73259437
3.31445074 2.89459896 1.77579153
3.46158409 2.55509996 1.68843710
3.45324326 2.49811530 1.89024758
3.40319538 2.67451477 1.93096507
3.42241454 2.43417978 2.09337687
3.36492825 2.60705376 2.12411904
3.34969330 2.36455417 2.28660226
3.29514527 2.53729939 2.30695391
3.26489043 2.30652356 2.47289085
3.22415876 2.48239303 2.49199557
3.17299294 2.44955826 2.68122244
3.20842195 2.26607847 2.66716290
3.12621284 2.43182945 2.87062144
3.20842195 2.26607847 2.66716290
3.17299294 2.44955826 2.68122244
3.15934873 2.24416471 2.85939932
3.06350970 2.42138124 3.05566311
3.09528446 2.23133755 3.04842567
2.99174929 2.42120934 3.23758078
3.01753283 2.22917318 3.23462844
2.90247416 2.42748690 3.41281939
2.92858744 2.23417521 3.41667461
2.78562450 2.43435192 3.56836557
2.81576490 2.24339080 3.58600855
2.66954899 2.45038915 3.72589016
2.68843842 2.25646162 3.74254394
2.49912548 2.44614720 3.83082986
2.52870727 2.26111960 3.86276150
2.55500650 2.07011557 3.88613725
2.34453964 2.25097251 3.94661903
2.37316084 2.06699109 3.98042798
2.39299655 1.87934089 3.99619341
2.17575049 2.05932355 4.05452538
2.19300628 1.87713373 4.07317114
2.20852780 1.69458568 4.09287834
1.98324156 1.87140083 4.13378191
1.99165452 1.69583249 4.14411497
1.99599707 1.51787078 4.14046049
1.76636803 1.69740903 4.16122770
1.76901948 1.52581072 4.15996647
1.76748586 1.35404027 4.14731121
1.55068409 1.53125691 4.21680784
1.55264759 1.36193740 4.21716595
1.54949450 1.19203019 4.20307732
1.33660531 1.37079465 4.26977921
1.33942878 1.20070112 4.26964998
1.33995914 1.02834320 4.26659727
1.13827765 1.21228147 4.34803247
1.13645744 1.04115605 4.33388662
1.13062429 0.86800987 4.32065821
0.93471873 1.05639112 4.39429665
0.93063402 0.88427681 4.38095331
0.91858077 0.71120226 4.36398411
0.72615784 0.90501541 4.41146660
0.72916758 1.07472181 4.42743206
0.52572328 1.09415627 4.45730019
0.52143800 1.25847387 4.48134995
0.72731870 1.24361134 4.44164991
0.31233251 1.27505612 4.47097349
0.30225706 1.43559003 4.48726940
0.51269537 1.42415309 4.48681068
0.29233924 1.59742820 4.50227451
0.50561535 1.58690858 4.51333952
0.28501552 1.76177454 4.50363588
0.49757501 1.75036621 4.48930407
0.07440515 1.77170682 4.49734449
0.07231267 1.94016635 4.49604034
0.28207743 1.92667985 4.49337435
-0.13210621 1.95224833 4.47548771
-0.12698966 2.12721467 4.46708965
0.07687028 2.10904169 4.48219538
-0.31898257 2.14279366 4.42038107
-0.31148690 2.32366490 4.42334747
-0.11593959 2.30123520 4.45960808
-0.48123640 2.34054804 4.33079100
-0.45841968 2.52346873 4.31644440
-0.28700766 2.50261569 4.39856768
-0.62326765 2.54225826 4.23035145
-0.42452425 2.70769382 4.29698133
-0.58167583 2.72834635 4.20686150
-0.73136038 2.74422646 4.10827065
-0.53013754 2.91277194 4.17914295
-0.67889053 2.93157554 4.08533955
-0.82049179 2.94615126 3.98095822
-0.86857599 2.75448823 3.99507594
-0.94740266 2.95486546 3.85933614
-0.99173182 2.76103783 3.86674595
-1.10250461 2.76654148 3.72796822
-1.05665636 2.96211743 3.72346807
-1.19311225 2.77392244 3.57492948
-1.15011597 2.96997142 3.57795405
-1.26643527 2.79577875 3.41162968
-1.22702205 2.98798680 3.42250800
-1.29221880 3.02128029 3.26002455
-1.32810652 2.83117914 3.24089146
-1.29221880 3.02128029 3.26002455
-1.33882678 3.06315875 3.08640552
-1.37915742 2.88243103 3.06252837
-1.32810652 2.83117914 3.24089146
-1.43949556 2.94903231 2.87820315
-1.38411629 3.11727667 2.90645170
-1.49551976 3.02421856 2.68944907
-1.42057717 3.17867565 2.71951795
-1.44879723 3.24930406 2.52666497
-1.34531939 3.33455157 2.74042845
-1.36236012 3.39408708 2.54978275
-1.36482537 3.45732045 2.35139751
-1.27805877 3.53835416 2.56166387
-1.27447569 3.58615160 2.36793685
-1.23693991 3.61730981 2.17066979
-1.19256759 3.72212052 2.37875772
-1.15250933 3.74480820 2.19090676
-1.10104287 3.76478720 2.00302696
