-7.18803406 -1.13377261 -3.30985880
-7.40901136 -1.20422673 -3.23629093
-7.28352499 -1.06481516 -3.31385612
-7.50844860 -1.13720167 -3.23984909
-7.38140011 -0.99215478 -3.31987715
-7.61174059 -1.05782521 -3.23334837
-7.48080349 -0.90417010 -3.31362581
-7.57418108 -0.79766035 -3.28304458
-7.44319105 -0.64646769 -3.36354852
-7.51378012 -0.52678776 -3.30869126
-7.55834723 -0.41204217 -3.23128724
-7.64667940 -1.30189657 -3.15765262
-7.54805756 -1.36164939 -3.15744185
-7.69426918 -1.54384732 -3.07288623
-7.58984089 -1.58559489 -3.08075094
-7.44757414 -1.41812015 -3.15580726
-7.72367048 -1.77788162 -2.99263048
-7.59842348 -1.80871439 -3.01506782
-7.48579121 -1.63218594 -3.10232329
-7.71346760 -1.99183369 -2.91372085
-7.86278868 -1.97220767 -2.90056729
-7.83159494 -2.18087864 -2.81082153
-8.00462055 -2.16289830 -2.79837680
-7.94327307 -2.37068200 -2.71392584
-7.66606045 -2.18385744 -2.82428288
-7.75643396 -2.38459587 -2.75152779
-7.83886862 -2.57779336 -2.69891000
-7.64946127 -2.58540440 -2.77628875
-7.58301401 -2.40119696 -2.82267666
-7.68836784 -2.76329589 -2.73378396
-7.49055195 -2.58694029 -2.90411973
-7.50539207 -2.74980092 -2.84959984
-7.50056744 -2.91656327 -2.80783749
-7.38547516 -2.73779511 -3.02367806
-7.32915783 -2.87153649 -2.97057700
-7.45540810 -3.05383420 -2.78288960
-7.26541805 -2.99503374 -2.93453598
-7.41409349 -3.17938375 -2.76721525
-7.19100142 -3.12350106 -2.92772460
-7.13287735 -3.24045491 -2.91887116
-6.98401594 -3.22979331 -3.07725501
-7.04741049 -3.10949874 -3.13142180
-6.93363667 -3.35103178 -3.02552176
-6.76872349 -3.34993744 -3.16003370
-6.83223295 -3.24513602 -3.23675990
-6.68869734 -3.43026447 -3.06439114
-6.50363970 -3.41820288 -3.14810061
-6.57392645 -3.34125161 -3.25932121
-6.44296408 -3.46693945 -3.02030945
-6.25604725 -3.45324993 -3.07274914
-6.31342983 -3.41025853 -3.20366335
-6.20499039 -3.46530914 -2.94138479
-6.01017046 -3.45642281 -2.98737168
-6.05742311 -3.43881130 -3.11436152
-5.96161747 -3.45330286 -2.86674643
-5.77062035 -3.39528441 -2.91390634
-5.81175280 -3.41369247 -3.02743006
-5.91828585 -3.42347479 -2.75723457
-5.72997046 -3.36164665 -2.80785084
-5.54821205 -3.29095459 -2.85810566
-5.57918406 -3.34355664 -2.95211506
-5.54821205 -3.29095459 -2.85810566
-5.52193022 -3.22266221 -2.77640963
-5.72997046 -3.36164665 -2.80785084
-5.35653543 -3.30997562 -2.85081148
-5.32812738 -3.22841048 -2.76671052
-5.30344439 -3.12587595 -2.70997620
-5.11100197 -3.10477567 -2.71773767
-5.13888645 -3.22939515 -2.76200676
-5.08391142 -2.97453356 -2.68188739
-4.89375639 -2.94158530 -2.71289372
-4.92146730 -3.08663511 -2.73852396
-4.87684345 -2.79017878 -2.69120526
-4.69857931 -2.74575257 -2.71661353
-4.71389675 -2.91286540 -2.74575162
-4.69571400 -2.57798076 -2.68663263
-4.52283812 -2.51895952 -2.69363809
-4.52399826 -2.69522262 -2.73527741
-4.54028988 -2.34385967 -2.65277481
-4.38205767 -2.27255058 -2.64785886
-4.35957527 -2.45230341 -2.70177436
-4.42687273 -2.08346343 -2.64200020
-4.23444176 -2.19161820 -2.67680621
-4.28595209 -2.00182819 -2.66730142
-4.34497690 -1.80356836 -2.66118717
-4.14750528 -1.91664803 -2.68062234
-4.21154070 -1.71716523 -2.66724658
-4.27665806 -1.51060355 -2.67247772
-4.07740021 -1.62658060 -2.67318702
-4.13863230 -1.42374206 -2.65825009
-4.19709206 -1.22559035 -2.69551682
-3.99254727 -1.34289229 -2.67251897
-4.04775858 -1.14711165 -2.70024109
-4.09628487 -0.95030773 -2.71321273
-3.89178848 -1.07578719 -2.69566035
-3.93558288 -0.88145345 -2.70314980
-3.97694588 -0.68820775 -2.68781400
-3.77429175 -0.81471246 -2.70289230
-3.81433463 -0.61716110 -2.68120527
-3.86458015 -0.43081075 -2.62720013
-3.65503168 -0.55033416 -2.67900848
-3.70282292 -0.36258841 -2.61400104
-3.75124383 -0.18693285 -2.52659440
-3.54072928 -0.29942489 -2.61108541
-3.58683014 -0.11913522 -2.52731466
-3.63944960 0.06716843 -2.45944762
-3.42435408 -0.05057728 -2.53767014
-3.47947788 0.14280607 -2.48196363
-3.53348541 0.33012709 -2.40711880
-3.31497884 0.20765239 -2.48592186
-3.36788940 0.39950868 -2.41510773
-3.42306352 0.58876216 -2.34033918
-3.20007038 0.45985886 -2.41411567
-3.25234365 0.65196860 -2.33962655
-3.30385709 0.83592957 -2.24871969
-3.08012342 0.70618629 -2.33376455
-3.12981558 0.89343607 -2.24406862
-3.17699409 1.06722224 -2.13030910
-2.95517015 0.94360840 -2.23533869
-2.99993873 1.11816335 -2.11860800
-3.04298472 1.27951801 -1.98441291
-2.82444692 1.16943967 -2.11569118
-2.86745977 1.33840799 -1.98697507
-2.90722871 1.49048865 -1.83941972
-2.68918896 1.38842952 -1.98360097
-2.72746468 1.54135525 -1.83504939
-2.76456547 1.68144357 -1.67388058
-2.58251190 1.72882712 -1.66837037
-2.54667354 1.58972561 -1.83219039
-2.61986494 1.86515439 -1.50167191
-2.43475056 1.91114616 -1.49759400
-2.40021348 1.77821684 -1.66777492
-2.46837950 2.03352928 -1.32046437
-2.27831650 2.07454705 -1.31588221
-2.24676394 1.94730997 -1.48933494
-2.30888939 2.18895912 -1.13337398
-2.11461186 2.22309947 -1.12737966
-2.08680248 2.10985756 -1.31078577
-2.14172888 2.32011294 -0.93495578
-1.94511032 2.34722328 -0.92915267
-1.92057037 2.25187445 -1.12213850
-1.97115541 2.43000889 -0.72968286
-1.77515984 2.46025181 -0.72835118
-1.74912751 2.37169409 -0.92474824
-1.80241859 2.53078818 -0.52619153
-1.60349238 2.54809356 -0.52828497
-1.57750034 2.48028469 -0.72830814
-1.62567580 2.56811070 -0.32509452
-1.42869461 2.59257340 -0.33167446
-1.40521061 2.54479814 -0.52895898
-1.44686103 2.59253764 -0.13822444
-1.24947488 2.60745740 -0.14836615
-1.23080075 2.59833050 -0.34494466
-1.25873625 2.56684470 0.01995580
-1.06454742 2.58715916 0.01752489
-1.05375493 2.60785818 -0.16318123
-1.07763302 2.59859061 0.18279538
-1.27495396 2.59767532 0.18017425
-0.88097370 2.59737706 0.18292475
-0.87605906 2.59618211 0.00673095
-0.89075649 2.68943405 0.32544592
-1.07763302 2.59859061 0.18279538
-0.88097370 2.59737706 0.18292475
-0.69099343 2.69035149 0.31450745
-0.69252276 2.60986567 0.16350704
-0.69883013 2.78542161 0.47544017
-0.50125748 2.77755857 0.46616930
-0.49823210 2.67842436 0.29980159
-0.51161021 2.86666226 0.64665216
-0.31691828 2.85685635 0.64217907
-0.31222630 2.76298785 0.45838392
-0.32959318 2.93874145 0.83527696
-0.13112184 2.91973734 0.83947456
-0.12627819 2.85184121 0.63572234
-0.14244492 2.99446416 1.04061151
0.06218198 2.99110246 1.04050016
0.06606452 2.93155050 0.83223283
0.05521481 3.01835775 1.25236738
0.26318637 3.00127530 1.24949753
0.26843673 2.98458719 1.03528666
0.25968382 2.99131322 1.46270490
0.47525170 2.97730255 1.45321965
0.47698647 2.98530483 1.24233413
0.46724123 2.92286372 1.65840733
0.68369365 2.91154766 1.65154028
0.69205588 2.95399213 1.44505143
0.66904896 2.81372762 1.83943439
0.88651663 2.79321384 1.82935727
0.90110153 2.89321828 1.64256144
0.87225211 2.69171357 2.01099515
1.08297753 2.65112352 1.99427879
1.10048389 2.75751090 1.81378198
1.05888534 2.51153111 2.14771628
1.26220715 2.46783447 2.13776231
1.28917444 2.60655189 1.98385680
1.23206830 2.30716085 2.26232290
1.46164930 2.41993666 2.13013506
1.42317975 2.25605035 2.25437593
1.38286185 2.08447242 2.34803414
1.61185491 2.21072650 2.25572848
1.56560385 2.03293300 2.34437966
1.52354681 1.85088038 2.39869738
1.74075294 1.98223722 2.34216690
1.69429386 1.79401410 2.40987372
1.66311550 1.62410808 2.44038820
1.86065936 1.73744142 2.39346004
1.83215392 1.56018209 2.42078376
1.81808507 1.41300821 2.43825841
2.00506878 1.52384782 2.41297770
2.00545859 1.37246859 2.44841504
1.98422790 1.30321181 2.57942605
2.16784453 1.33454657 2.48393846
2.14704585 1.23430943 2.61068630
2.12364459 1.08819926 2.71306801
2.31193280 1.17340636 2.62681317
2.29018879 1.01921535 2.72397137
2.27085185 0.84364039 2.81511664
2.46256733 0.94920939 2.72899723
2.44790888 0.77347922 2.82095909
2.42029524 0.59177631 2.90553641
2.62619543 0.70955920 2.82912564
2.59898520 0.52236736 2.90649319
2.58477616 0.31750828 2.93178368
2.78983784 0.45982715 2.88315392
2.76512957 0.25099069 2.88888526
2.73794365 0.03910903 2.89970064
2.94443321 0.18769731 2.84584475
2.92694306 -0.02459618 2.88103962
2.91157889 -0.23749587 2.91487765
3.11362195 -0.08197540 2.84157801
3.10664845 -0.29650792 2.89247036
3.09078121 -0.51491672 2.91216803
3.28031301 -0.33796987 2.83433962
3.28368711 -0.56081146 2.88095713
3.28300285 -0.77329403 2.91221571
3.46593666 -0.58055967 2.82836914
3.47481799 -0.79689932 2.85743928
3.46335340 -1.01317012 2.86430669
3.65462494 -0.80500036 2.79317355
3.64521337 -1.02476597 2.80263996
3.81586719 -0.81870705 2.71437526
3.81822348 -1.03219366 2.73591256
3.80627084 -1.24382067 2.74597621
3.97494817 -1.24787974 2.65928340
3.98617601 -1.04409051 2.65158439
4.14223814 -1.06068933 2.54467726
4.12744570 -1.25559664 2.54737949
4.11368561 -1.45155454 2.55735207
4.28243685 -1.27033937 2.44052958
4.27693987 -1.45647752 2.46830058
4.27342367 -1.64663088 2.49727178
4.44347143 -1.46593201 2.40018201
4.43474150 -1.64937043 2.42548823
4.43001509 -1.83904195 2.45422912
4.58442211 -1.83484054 2.39414668
4.59792995 -1.65279698 2.37961149
4.73112440 -1.83524323 2.34394383
4.75406265 -1.66124189 2.34409189
4.89843988 -1.69158185 2.31527448
4.87744713 -1.84765911 2.32638812
4.95107460 -1.53042626 2.32110691
5.09929848 -1.56654346 2.32325578
4.78423595 -1.49428487 2.33329511
4.97319508 -1.37069249 2.30726600
4.80197859 -1.33566940 2.33143926
4.61193705 -1.47594750 2.35805058
4.62489891 -1.30389166 2.35242486
4.79776621 -1.17675698 2.28898382
4.62618065 -1.13416469 2.30756235
4.44997549 -1.28636670 2.36952400
4.45209980 -1.10805881 2.33917212
4.61803007 -0.95562768 2.27485228
4.45324183 -0.92232376 2.32753944
4.28804636 -1.08318293 2.42180014
4.28925657 -0.89398640 2.41001654
4.45650816 -0.73124647 2.33452249
4.28007126 -0.70415264 2.39440823
4.12638712 -0.86918509 2.51134133
4.09568977 -0.68286508 2.45940471
4.25271559 -0.52138972 2.34729981
4.06169128 -0.49559209 2.40651345
3.94184828 -0.64531916 2.56915164
3.96736097 -0.84437710 2.60973954
3.91133165 -0.45400357 2.51535392
4.03875256 -0.29138213 2.37131643
3.89434218 -0.25126192 2.46322775
3.80348516 -0.60090744 2.69275880
3.78959584 -0.39977446 2.64817047
3.78418350 -0.20839171 2.58443999
3.88745618 -0.03648307 2.40828013
3.77209616 -0.00213760 2.52912927
3.62429953 -0.17286173 2.65277696
3.61796045 -0.36233515 2.71201992
3.63789606 0.02793674 2.62594771
3.77126551 0.19037408 2.50379992
3.65069532 0.22672391 2.61486077
3.45679283 0.05053029 2.65511584
3.44298959 -0.15182479 2.69152880
3.48696327 0.24605018 2.66888380
3.66709042 0.40843737 2.58906674
3.52175975 0.43230864 2.65948343
3.28025746 0.08113593 2.70841599
3.32791734 0.28162059 2.75000334
3.36445475 0.46927872 2.73011303
3.53164291 0.60102260 2.60768986
3.36031079 0.63335562 2.65460491
3.15218806 0.33588862 2.79789281
3.18231821 0.52137488 2.76912475
3.18252182 0.68855673 2.68994141
3.34618926 0.79852957 2.57412839
3.17550635 0.85413659 2.60080862
2.99299645 0.58425367 2.79968977
3.00013995 0.75500500 2.71983790
3.00041628 0.91576594 2.61599135
3.17825937 1.01168883 2.50091028
3.00843716 1.07560623 2.51786208
2.81816030 0.81771278 2.73011565
2.82590938 0.98288578 2.62733245
2.83657289 1.13824272 2.52514076
3.01547170 1.20206273 2.38971186
2.84871101 1.26950347 2.40321517
2.65215731 1.04892302 2.63433886
2.66621065 1.20371437 2.53513575
2.67939758 1.32834196 2.40659142
2.89338470 1.42134905 2.32270288
2.72238636 1.48814321 2.33694839
2.49659181 1.25835145 2.53274536
2.50945735 1.38343740 2.41191483
2.54961276 1.54926968 2.34905028
2.61413765 1.71093845 2.27240372
2.78725863 1.64707303 2.26122594
2.34014392 1.43524837 2.41550159
2.37278819 1.60588717 2.35785246
2.43895507 1.77677310 2.28749228
2.52633071 1.92797780 2.16406345
2.70152068 1.86369038 2.15729427
2.26415825 1.84062040 2.30295157
2.20040202 1.65779018 2.37036657
2.34955025 1.99975133 2.18670249
2.41231489 2.14704800 2.05114794
2.59605217 2.08119011 2.03770375
2.15899038 2.04590750 2.19248700
2.08676505 1.88645625 2.31876326
2.22340441 2.20720720 2.06973505
2.27272677 2.34030151 1.90897214
2.46269917 2.27799487 1.89102983
2.03372979 2.26164675 2.08797836
1.97963190 2.10668659 2.22746277
2.08098149 2.39776564 1.92751956
2.11308479 2.49977303 1.74127817
2.30461717 2.43446088 1.72215116
1.84634852 2.32132316 2.11000371
1.88683438 2.45357227 1.94387114
1.91721344 2.55688071 1.76015806
1.93343925 2.61376858 1.55408609
2.12735009 2.54796124 1.53342509
1.68903744 2.50160766 1.95573044
1.71592164 2.60393953 1.77239645
1.73528349 2.67043567 1.57278001
1.74538136 2.69596553 1.35918224
1.94271564 2.63761878 1.33846080
1.51588774 2.66220212 1.78967226
1.53473806 2.73113441 1.59065998
1.54623151 2.75801086 1.37932873
1.54615724 2.74741673 1.16565132
1.74533427 2.68186688 1.14223707
1.32578623 2.77756286 1.60486388
1.33623576 2.81305814 1.39972734
1.33959174 2.80231261 1.19053352
1.33693755 2.77599502 0.97940379
1.53951836 2.71116114 0.95548403
1.12049127 2.86115623 1.41686940
1.12768376 2.85875583 1.20878506
1.12883937 2.83419251 1.00191915
1.11612797 2.76076126 0.80852437
1.32422686 2.69963384 0.78546619
0.90951794 2.90600610 1.22159791
0.91149819 2.88098407 1.01760340
0.90479672 2.81594253 0.82248658
1.10537040 2.67380285 0.63087946
0.89059222 2.71928716 0.64641225
0.69107509 2.92102885 1.02592981
0.68801939 2.86460829 0.82903981
0.67639101 2.77012277 0.64961475
0.88202691 2.63967943 0.48318660
0.66496384 2.68302155 0.48210108
0.47277474 2.89278841 0.82935560
0.46232828 2.79417872 0.64679050
0.44835058 2.71102309 0.47049570
0.43102172 2.61903691 0.33570394
0.65100938 2.59275460 0.35374537
0.25883311 2.82993746 0.63338065
0.24354661 2.72847152 0.46062723
0.22384910 2.62484765 0.30225095
0.20344803 2.52034354 0.15297067
0.41395837 2.52968907 0.20891574
0.05357193 2.73981810 0.45342508
0.03759230 2.63053513 0.28516155
0.01606875 2.51651478 0.12641472
0.20344803 2.52034354 0.15297067
0.01606875 2.51651478 0.12641472
0.20072490 2.46053600 0.00151671
0.00665270 2.47207165 -0.05207632
-0.13979375 2.63617373 0.28285903
-0.16045535 2.51982164 0.11868494
-0.16045535 2.51982164 0.11868494
-0.17579746 2.47893739 -0.06133035
-0.13991520 2.46513343 -0.24923085
0.05417698 2.45607805 -0.23494226
-0.33246168 2.55280471 0.12751773
-0.35002083 2.52542019 -0.05296319
-0.32542965 2.48503375 -0.24419893
-0.27213246 2.43154192 -0.44101849
-0.06981882 2.42548990 -0.42353672
-0.52092648 2.57142591 -0.03435630
-0.50145763 2.53415871 -0.23347709
-0.46809641 2.44529867 -0.42433843
-0.40699729 2.42464209 -0.62184197
-0.20543273 2.39262509 -0.62661135
-0.67731053 2.59319162 -0.21257889
-0.65233260 2.52030420 -0.40867198
-0.60876727 2.47184372 -0.60370827
-0.56619686 2.44286036 -0.78958791
-0.35317293 2.39495254 -0.80198824
-0.83992124 2.57485771 -0.38631156
-0.80519348 2.54388523 -0.58764434
-0.77447432 2.49162292 -0.77630246
-0.75448412 2.41885495 -0.95561337
-0.54914278 2.37690020 -0.95711452
-1.00668764 2.54641628 -0.56009161
-0.98117214 2.50146747 -0.75838268
-0.96060264 2.43180060 -0.94670868
-0.94637728 2.32267642 -1.11556470
-0.74418747 2.31511736 -1.12226987
-1.18236113 2.48551893 -0.73799515
-1.16138637 2.42324066 -0.93461275
-1.14429021 2.32612324 -1.11672235
-1.12802529 2.21669745 -1.29532826
-0.93261749 2.21891737 -1.29378355
-1.35891116 2.41120338 -0.92702484
-1.34015298 2.31922770 -1.11672497
-1.32169247 2.21149707 -1.30027008
-1.30253732 2.08969331 -1.47713864
-1.11056173 2.09841990 -1.47207546
-1.53339458 2.29942107 -1.11643636
-1.51379681 2.19900894 -1.30604064
-1.49364603 2.08074403 -1.48675907
-1.47147179 1.94204819 -1.65517962
-1.28290343 1.95203662 -1.64368486
-1.70535016 2.17561102 -1.30873775
-1.68328667 2.05853271 -1.49118888
-1.65920043 1.92499411 -1.66441011
-1.63450158 1.77108848 -1.82149863
-1.44918323 1.78601897 -1.80913627
-1.84640718 1.89890623 -1.66907048
-1.87282324 2.03340340 -1.49658620
-1.81910086 1.74540603 -1.82570732
-1.79087055 1.58239889 -1.97576165
-1.60867262 1.59938347 -1.96129525
-2.03092670 1.85736585 -1.66326296
-2.00277066 1.71458006 -1.82938814
-1.97186291 1.55065262 -1.97690833
-1.93970656 1.37324882 -2.10954762
-1.76124620 1.39449680 -2.09561634
-2.18387341 1.67161560 -1.82514310
-2.15244961 1.51895666 -1.98324347
-2.11762118 1.34062052 -2.11099315
-2.08198476 1.15352035 -2.22711563
-1.90582228 1.17950070 -2.21668458
-2.33173442 1.47842896 -1.98238480
-2.29552221 1.30505776 -2.11539984
-2.25742555 1.12000895 -2.23183441
-2.21816516 0.91861069 -2.31635165
-2.04507518 0.94870442 -2.31025529
-2.47281051 1.26533580 -2.11697078
-2.43181491 1.08016372 -2.22900629
-2.39049387 0.88343841 -2.32086134
-2.34884143 0.67655611 -2.38533187
-2.17817211 0.70999742 -2.38533497
-2.60596776 1.03762329 -2.22772408
-2.56233883 0.84361178 -2.31657147
-2.51903296 0.63843358 -2.37752223
-2.47633886 0.43108305 -2.43089008
-2.30730438 0.46555457 -2.42895031
-2.73484921 0.80063230 -2.31899929
-2.68945622 0.59973335 -2.38656950
-2.64535666 0.39518777 -2.44277525
-2.60214067 0.19079234 -2.49627233
-2.43545890 0.22374390 -2.48349929
-2.85997295 0.55799103 -2.39862299
-2.81355619 0.35899699 -2.46429300
-2.76800799 0.15943563 -2.52838087
-2.72443652 -0.04051906 -2.59146380
-2.56253362 -0.01340295 -2.55060935
-2.98186278 0.31468451 -2.47449327
-2.93461633 0.12037471 -2.54960489
-2.88909864 -0.07696395 -2.61718082
-2.84823966 -0.28197646 -2.65780854
-2.68792939 -0.24862099 -2.62627316
-3.10053325 0.07302599 -2.56159163
-3.05369115 -0.12220994 -2.62945938
-3.01074958 -0.32378572 -2.67650962
-2.97210717 -0.52781898 -2.70549226
-2.81175733 -0.48896563 -2.68985891
-3.21714020 -0.17615278 -2.62840986
-3.17300558 -0.37362558 -2.68128443
-3.13297057 -0.57536733 -2.70980692
-3.09481692 -0.77678132 -2.72420859
-2.93609428 -0.73287725 -2.72656822
-3.33499002 -0.42815101 -2.68092895
-3.29354048 -0.62780672 -2.70887494
-3.25377536 -0.82719547 -2.71334362
-3.45358324 -0.68626517 -2.70230508
-3.41270113 -0.88364595 -2.70094538
-3.37202096 -1.07917356 -2.69896030
-3.57263851 -0.94410038 -2.69329739
-3.52954459 -1.13686693 -2.68202972
-3.48377347 -1.32946169 -2.69016242
-3.68664169 -1.20067406 -2.68218589
-3.63560796 -1.39224994 -2.67614532
-3.58542299 -1.58671021 -2.70284510
-3.78733182 -1.46153617 -2.67608809
-3.73087716 -1.65362275 -2.69278073
-3.67912674 -1.85372949 -2.73369384
-3.87168360 -1.73088419 -2.68538141
-3.80963826 -1.93333268 -2.70364809
-3.77639842 -2.13770103 -2.77852321
-3.94970846 -2.01484275 -2.71282387
-3.91372514 -2.21586227 -2.76547050
-3.89819455 -2.42477918 -2.82871890
-4.05863810 -2.29727101 -2.75080061
-4.04458666 -2.49633217 -2.80995059
-4.05311155 -2.70444250 -2.84365821
-4.19715786 -2.57058430 -2.77962661
-4.21169376 -2.76375175 -2.81749153
-4.22956514 -2.94975305 -2.84835243
-4.36979103 -2.82728028 -2.79501700
-4.39471960 -2.99928546 -2.82868695
-4.41749907 -3.15938425 -2.84069610
-4.43750191 -3.30972147 -2.86420846
-4.56559134 -3.03619599 -2.79939771
-4.59126377 -3.18803596 -2.81908154
-4.61546993 -3.32592988 -2.85767579
-4.61546993 -3.32592988 -2.85767579
-4.77115774 -3.20678282 -2.80195451
-4.80037498 -3.33602357 -2.85055327
-4.80037498 -3.33602357 -2.85055327
-4.82628584 -3.44404268 -2.92974114
-4.98581028 -3.34347081 -2.83490491
-5.01466751 -3.43712401 -2.93054628
-5.04165745 -3.48000860 -3.05743241
-5.20009947 -3.42095590 -2.93630290
-5.23249340 -3.47072744 -3.05966544
-5.26280737 -3.47829223 -3.19567990
-5.41992378 -3.41836071 -3.06234360
-5.45263433 -3.43654752 -3.18921900
-5.48121214 -3.42003393 -3.32180309
-5.64894104 -3.39563584 -3.17619085
-5.68390751 -3.38906956 -3.30157256
-5.71047735 -3.34013891 -3.42041922
-5.89605141 -3.38458633 -3.27575278
-5.93123198 -3.33161044 -3.39526200
-5.95299578 -3.25725341 -3.49834561
-6.15402174 -3.33737707 -3.36654949
-6.18881845 -3.25660133 -3.47438574
-6.21109200 -3.15435576 -3.55685663
-6.41675568 -3.25505853 -3.42957830
-6.44901419 -3.14061713 -3.51058841
-6.47287035 -3.01943922 -3.57605743
-6.68386221 -3.13772321 -3.43678260
-6.72136021 -3.01291585 -3.50280809
-6.74829054 -2.88244176 -3.55755138
-6.99899340 -2.87800217 -3.42669058
-6.94701147 -3.00711727 -3.36821604
-7.03190708 -2.74043417 -3.46869588
-7.27106905 -2.73695707 -3.26807761
-7.19519091 -2.87200356 -3.22606301
-7.31334925 -2.60063982 -3.32068348
-7.43102598 -2.59107995 -3.09152508
-7.43781948 -2.44168758 -3.20021749
-7.47436714 -2.41853189 -2.99499512
-7.46822929 -2.25105381 -3.09604430
-7.51712942 -2.21426821 -2.92281318
-7.47119379 -2.05063367 -3.05391335
-7.57356310 -2.00845242 -2.94966412
-7.48405790 -1.84135020 -3.07502890
-7.12594652 -2.99897003 -3.18346858
-6.89123678 -3.13214469 -3.30840158
-6.63636303 -3.24827576 -3.35539818
-6.36928892 -3.34436417 -3.32558465
-6.10797262 -3.39867187 -3.24381185
-5.85407066 -3.40913343 -3.14887547
-5.61292315 -3.38064289 -3.05785966
-5.38692093 -3.37503147 -2.95197082
-5.35653543 -3.30997562 -2.85081148
-5.17012167 -3.34179187 -2.83007598
-4.98581028 -3.34347081 -2.83490491
-4.95530844 -3.21810365 -2.78238034
-5.17012167 -3.34179187 -2.83007598
-4.74178553 -3.06472135 -2.76980662
-4.54072475 -2.87306905 -2.77425456
-4.35515356 -2.63786721 -2.75099587
-4.20627022 -2.37735415 -2.72855902
-4.09128332 -2.10620022 -2.70114636
-4.00794172 -1.82215488 -2.67922187
-3.93582916 -1.53723323 -2.67588401
-3.84258318 -1.26890945 -2.67942548
-3.73309493 -1.00858700 -2.69161248
-3.61355925 -0.74904925 -2.69725513
-3.49654651 -0.48689362 -2.68392229
-3.37881398 -0.23641267 -2.61860156
-3.26428699 0.01551840 -2.55696774
-3.14940858 0.26538604 -2.48530579
-3.03046560 0.51218671 -2.40885425
-2.90709829 0.75444084 -2.32436848
-2.78035402 0.99152809 -2.22909999
-2.64967299 1.22246039 -2.11953950
-2.51073289 1.43517828 -1.98278081
-2.36506581 1.63139558 -1.82747662
-2.21560764 1.81678677 -1.66225719
-2.05985475 1.99305904 -1.49334252
-1.89693260 2.14808249 -1.31167328
-1.72695649 2.27991843 -1.11952448
-1.55470610 2.39749837 -0.92584145
-1.38022768 2.48777676 -0.73148882
-1.20655131 2.52597713 -0.53469592
-1.03343737 2.59317470 -0.36265415
-0.86325270 2.59368038 -0.18339288
-0.69339317 2.60209250 -0.01155139
-0.51067650 2.58255887 0.14850998
-0.69252276 2.60986567 0.16350704
-0.31449103 2.66209245 0.28310981
-0.51067650 2.58255887 0.14850998
-0.33246168 2.55280471 0.12751773
-0.12953885 2.75022292 0.45210114
0.06288866 2.83806872 0.63669777
0.26520941 2.90735579 0.83306098
0.47633210 2.95826626 1.03152585
0.69147539 2.94374847 1.23308015
0.90819544 2.92389274 1.43237710
1.11525905 2.84044528 1.62289929
1.31212032 2.71772146 1.80498326
1.48987663 2.55027390 1.96666563
1.65585148 2.37268901 2.12467289
1.79688644 2.15755177 2.24172020
1.91242766 1.93109059 2.33495307
2.02708650 1.69427133 2.38055682
2.17331195 1.48182201 2.41355371
2.33109093 1.30270600 2.51844120
2.47959232 1.11144543 2.63336015
2.64038706 0.88508224 2.73297691
2.80510807 0.64535022 2.82317567
2.97132850 0.39566097 2.83786130
3.12065434 0.12862523 2.79634070
3.27526355 -0.12772152 2.75797153
3.44194198 -0.35658601 2.76450253
3.63999605 -0.57445192 2.76234913
-2.77855873 -0.69599706 -2.71681738
-2.62087703 -0.66309583 -2.70496869
-2.65287995 -0.45556575 -2.66508746
-2.46368980 -0.63252699 -2.71307230
-2.49343753 -0.42346314 -2.66486192
-2.52619886 -0.21735683 -2.60763550
-2.33475065 -0.39436257 -2.66901660
-2.36495709 -0.18428697 -2.61612749
-2.39770460 0.01911188 -2.54623747
-2.20352435 -0.15802108 -2.61930084
-2.23304033 0.04802497 -2.54420137
-2.26842690 0.25583979 -2.48042846
-2.07095981 0.07626670 -2.55855870
-2.10249877 0.28616181 -2.48997784
-2.13864899 0.49787831 -2.43439603
-1.93793499 0.31444496 -2.50320816
-1.97139144 0.52755833 -2.44277596
-2.00784254 0.74000889 -2.38249183
-1.80508459 0.55763447 -2.46188688
-1.83944416 0.77098960 -2.39799380
-1.87228870 0.97445273 -2.30565858
-1.69949901 0.99438888 -2.29840207
-1.66971433 0.79650491 -2.40611577
-1.73028970 1.20052040 -2.20766020
-1.55572462 1.21367562 -2.18804765
-1.52735162 1.01503432 -2.29715514
-1.58288288 1.41176951 -2.08090854
-1.40379238 1.42462063 -2.06606793
-1.38069808 1.22977173 -2.17843890
-1.42639661 1.61275625 -1.94666696
-1.24441946 1.62126303 -1.92833138
-1.22515166 1.43302083 -2.04662681
-1.26349092 1.79493761 -1.79358411
-1.07584429 1.79542971 -1.77605653
-1.06072199 1.62305415 -1.90769577
-1.09320784 1.95352590 -1.62964833
-0.90366507 1.93441606 -1.59996128
-0.88775969 1.78348398 -1.74938881
-0.91807479 2.09049320 -1.45907557
-0.72157294 2.07132030 -1.44212842
-0.70734078 1.93421280 -1.59482193
-0.73408824 2.20728660 -1.29110157
-0.52785289 2.19008756 -1.28635311
-0.51628393 2.06710410 -1.43926120
-0.53848565 2.29150486 -1.12463546
-0.32145193 2.27719712 -1.12558830
-0.31265858 2.17953920 -1.28045261
-0.33121711 2.34515929 -0.96690845
-0.11066238 2.33811736 -0.95535862
-0.09734644 2.26279736 -1.10990214
-0.14642829 2.36404371 -0.79356849
0.07160628 2.35247445 -0.75639707
0.09786673 2.35704589 -0.92007667
-0.00053622 2.37597442 -0.60530877
0.20597297 2.38044024 -0.53407639
0.25909281 2.41797566 -0.70098066
0.13393360 2.43507624 -0.39276510
0.34504575 2.40712786 -0.33886465
0.42784837 2.43985367 -0.47067228
0.24540250 2.46000195 -0.18543984
0.44138226 2.46460819 -0.07115197
0.53763902 2.44168735 -0.20160097
0.40599284 2.47389317 0.07306703
0.65718520 2.45856690 0.02440345
0.62745208 2.44786024 0.14488086
0.41395837 2.52968907 0.20891574
0.63547856 2.50642896 0.25160939
0.85662436 2.41288233 0.15544876
0.86291641 2.47265267 0.25866565
0.86291641 2.47265267 0.25866565
0.87122375 2.54574800 0.35419601
0.63547856 2.50642896 0.25160939
1.07634962 2.41492915 0.25460657
1.08589256 2.49570012 0.35375297
1.09671926 2.58599067 0.47569969
1.29189134 2.43877602 0.35566890
1.30570662 2.52478957 0.46938804
1.31602371 2.61053967 0.61294806
1.50856090 2.45858455 0.45702699
1.52247524 2.54574060 0.58896989
1.52986860 2.62932253 0.76342142
1.73002589 2.55893135 0.73742032
1.72297204 2.47438979 0.56811935
1.73846853 2.63660359 0.93372613
1.93300402 2.56517649 0.91008633
1.92841339 2.49298048 0.70887405
1.94430721 2.62627268 1.11983073
2.13404489 2.55363369 1.09783196
2.12289596 2.49103475 0.88551879
2.13497996 2.56786060 1.31810176
2.32481790 2.50242805 1.29649186
2.32088494 2.48502326 1.07365417
2.32176447 2.48701954 1.51387453
2.50866365 2.41549468 1.49165905
2.51327348 2.44134808 1.27256417
2.49410486 2.36603117 1.70178008
2.67961526 2.29534388 1.68249691
2.68990612 2.33786845 1.46761990
2.64646173 2.20488977 1.87271750
2.82367969 2.12574744 1.85297906
2.85303831 2.20972109 1.65850008
2.77122259 2.00478339 2.01806808
2.94392157 1.92782450 2.00082374
2.99905419 2.05296016 1.83915448
2.87302876 1.79255497 2.14315844
3.04229426 1.72056735 2.13400626
3.11187434 1.84832466 1.98163927
2.95700502 1.57623410 2.24697399
3.12681890 1.50302219 2.22836757
3.20514655 1.64411557 2.11504412
3.05952144 1.35095799 2.30484509
3.22557926 1.28062916 2.28605008
3.29102659 1.42911303 2.20369840
3.18268704 1.13752735 2.37402844
3.39092779 1.21276164 2.26535511
3.34367585 1.06812036 2.34767818
3.33553886 0.94000274 2.46122551
3.50555491 0.99861687 2.31598306
3.50172901 0.88635558 2.42958760
3.51564050 0.75741613 2.53009486
3.66589594 0.81926954 2.37766075
3.67577386 0.70995516 2.46641254
3.68026972 0.56990349 2.53691983
3.83530235 0.64108539 2.40327120
3.82538962 0.52466291 2.46859169
3.78797030 0.37625220 2.49685431
3.96943569 0.45993608 2.40846586
3.91743112 0.34239033 2.40050411
3.89166236 0.16860087 2.37160897
4.07664776 0.26870033 2.33717561
4.04463148 0.11667399 2.30988312
4.03204966 -0.07480595 2.33361483
4.21502161 0.04856253 2.27055216
4.19850826 -0.12432966 2.28089929
4.21977520 -0.32830498 2.31372046
4.39160156 -0.17773707 2.25133038
4.41862202 -0.35358518 2.28883600
4.44774532 -0.54103839 2.32369757
4.60273409 -0.41222814 2.25372982
4.61675787 -0.57959372 2.27748561
4.62056684 -0.76497430 2.28125238
4.77428722 -0.62869060 2.20962143
4.76686621 -0.80224252 2.20999050
4.77188015 -0.99534631 2.22944212
4.91472101 -0.85457546 2.16531730
4.92519665 -1.03380561 2.20311284
4.94583988 -1.20982337 2.25369000
5.07783794 -1.05932248 2.23922467
5.09733105 -1.22818685 2.27791834
5.12419415 -1.39556754 2.30419397
5.21349478 -1.06844473 2.31565475
5.20255995 -0.91490293 2.26408863
5.06200027 -0.90427268 2.18399787
5.08730268 -0.74883455 2.14272165
5.21959496 -0.76981193 2.20863152
4.93409109 -0.69016832 2.14873672
5.11025620 -0.59646469 2.11972880
4.94279337 -0.54272383 2.13734674
4.77372837 -0.47168401 2.19517541
4.94677925 -0.40840068 2.12304807
4.77089453 -0.33290115 2.17320704
4.58771229 -0.25671029 2.21713471
4.77260399 -0.19909480 2.15005779
4.58721209 -0.10722557 2.19426751
4.39920712 -0.02387762 2.23095894
4.60979795 0.01343763 2.18484616
4.42638683 0.10289740 2.22876740
4.24699736 0.18707000 2.28194046
4.46490812 0.20697425 2.24209523
4.29139042 0.28633091 2.29749036
4.12881041 0.37155885 2.35986161
4.32395363 0.38305122 2.26006722
4.15936041 0.46075398 2.30874825
3.99359798 0.54677701 2.34686542
4.17788029 0.56944168 2.24427104
4.00024509 0.64201713 2.27101803
3.82565784 0.72852838 2.31802368
4.02421284 0.76847994 2.22455955
3.84299159 0.84684122 2.25302696
3.67301178 0.92416912 2.28532672
3.89284658 0.98566270 2.19171929
3.72132921 1.06537640 2.21779609
3.55558348 1.14238203 2.24455237
3.78567147 1.20273399 2.13690996
3.62188506 1.28229380 2.16056919
3.45524931 1.35500109 2.17801857
3.53062749 1.48975921 2.06964111
3.69545889 1.41002107 2.04880190
3.36993408 1.56993032 2.09508419
3.44251776 1.69698811 1.95138764
3.60208154 1.60864389 1.92636204
3.27881575 1.77606905 1.96920562
3.33440185 1.89190471 1.80030680
3.49430704 1.80088544 1.77795589
3.16567445 1.96891928 1.81646562
3.19044566 2.04093456 1.61702371
3.36302662 1.96620584 1.60191953
3.02140903 2.12324238 1.63628519
3.03748703 2.18103671 1.42513478
3.20696020 2.09580970 1.40658784
2.86564302 2.26174879 1.44524300
2.86521864 2.28396463 1.22027850
3.03743267 2.20621181 1.20413625
2.68538284 2.35253096 1.24816406
2.67552161 2.34062243 1.02077460
2.84858751 2.25880313 0.99727726
2.50182915 2.41657758 1.04660070
2.48601413 2.34990096 0.82370347
2.65660477 2.27048874 0.79584718
2.30360413 2.40942931 0.85940409
2.30128455 2.33668995 0.64707756
2.47437692 2.25057983 0.60768694
2.11955166 2.41913629 0.67913520
2.10306621 2.31787276 0.51213485
2.27832007 2.22761822 0.47294226
1.91981876 2.40413594 0.53786021
2.07445788 2.23666978 0.39138767
1.89510667 2.31788015 0.42097825
1.70677400 2.39298153 0.43936649
1.86693251 2.23241043 0.32278946
1.68606210 2.30962491 0.33460805
1.49461722 2.38357568 0.34159052
1.66540051 2.22766399 0.23697531
1.47966325 2.30308247 0.24128982
1.28094018 2.36354446 0.25050887
1.47966325 2.30308247 0.24128982
1.28094018 2.36354446 0.25050887
1.28366458 2.30615830 0.13764161
1.47928703 2.25667715 0.12773651
1.07634962 2.41492915 0.25460657
1.07151783 2.34981918 0.14664467
1.08890688 2.36496782 0.02189781
1.29860544 2.32760000 0.01086379
0.87420523 2.42473888 0.03793470
0.91621840 2.47681975 -0.09056140
1.12736237 2.42936635 -0.10416970
0.71467799 2.49537802 -0.11231363
0.77100766 2.53759432 -0.27524197
0.97085047 2.51371551 -0.24896356
0.59411973 2.48951793 -0.36124757
0.64281863 2.53106785 -0.53750634
0.83207119 2.54011774 -0.45335880
0.43841064 2.49704671 -0.64103687
0.49641734 2.42493725 -0.80962598
0.68312246 2.47002363 -0.71300071
0.29382387 2.39308095 -0.87307918
0.32461181 2.30732059 -1.03313816
0.52541727 2.32572579 -0.97193331
0.11977784 2.28117490 -1.08151233
0.13078661 2.16974759 -1.23049545
0.34433672 2.19777751 -1.19568610
-0.09066471 2.16676903 -1.26084089
-0.08759032 2.05042911 -1.40797329
0.13254647 2.05396414 -1.38262284
-0.30429932 2.06685114 -1.43527019
-0.29902783 1.91980803 -1.56752849
-0.08798335 1.90984237 -1.54555130
-0.50613797 1.92554128 -1.58147335
-0.29481083 1.77503252 -1.71123803
-0.49690703 1.78448832 -1.73033118
-0.69451022 1.79336751 -1.74821103
-0.68415743 1.63394475 -1.88944352
-0.49060974 1.63198864 -1.87513137
-0.87381035 1.63091540 -1.90051258
-0.86134416 1.46626902 -2.04379511
-0.67487335 1.46967363 -2.03083229
-1.04471922 1.44926465 -2.04245949
-1.02820790 1.26933038 -2.17573929
-0.84805119 1.28072715 -2.16619158
-1.20436299 1.24662113 -2.17290998
-1.01015306 1.07470977 -2.29529119
-1.18255949 1.05684757 -2.30043936
-1.35540807 1.03790903 -2.30187559
-1.32861066 0.83563513 -2.40886068
-1.15748549 0.85347509 -2.40992188
-1.49912047 0.81672943 -2.40824795
-1.46981180 0.60383469 -2.48423719
-1.30139148 0.62103641 -2.48335195
-1.63795519 0.58259887 -2.47617149
-1.60900104 0.36331758 -2.52930880
-1.44352770 0.38111022 -2.53120017
-1.77419424 0.34183246 -2.52228308
-1.58427668 0.14405377 -2.58730602
-1.74623895 0.12333591 -2.57636404
-1.90848219 0.10204617 -2.57064629
-1.72100890 -0.09393010 -2.63747263
-1.88188851 -0.11271106 -2.63316989
-2.04274893 -0.13456839 -2.62549901
-1.85766172 -0.32912487 -2.68389392
-2.01698875 -0.34677675 -2.68408418
-2.17657328 -0.36909112 -2.67815256
-1.99377108 -0.56175989 -2.73001361
-2.15021920 -0.58301216 -2.72020626
-2.30667186 -0.60682291 -2.71372080
-1.13263631 0.63723898 -2.48288226
-0.96425945 0.65221131 -2.47858047
-0.98653370 0.86465794 -2.39547849
-0.81659478 0.88850176 -2.39515352
-0.79626340 0.66441959 -2.46712661
-0.83519161 1.09034789 -2.28558159
-0.65637666 1.10227370 -2.28035975
-0.64464939 0.89716750 -2.37922835
-0.66616434 1.29203427 -2.16069531
-0.48141825 1.29629171 -2.15050054
-0.47717419 1.10438466 -2.26767850
-0.48638713 1.46799505 -2.01294684
-0.29623148 1.46116805 -1.99169970
-0.29836604 1.28969860 -2.13066220
-0.29445907 1.62220395 -1.85230792
-0.09601491 1.61471474 -1.83354354
-0.10449642 1.45726085 -1.97928417
-0.09028408 1.76622128 -1.68962610
0.11521583 1.77047062 -1.68192482
0.10248169 1.61271632 -1.82348442
0.12648316 1.91733885 -1.53293276
0.33533978 1.92479372 -1.51878572
0.31841010 1.77674270 -1.67866468
0.34687835 2.06883216 -1.35614121
0.54650074 2.07048368 -1.31839597
0.53417528 1.92686534 -1.50024283
0.54723877 2.21453762 -1.14033663
0.73605961 2.21609139 -1.08049822
0.73306835 2.06383801 -1.28058147
0.71841526 2.34830928 -0.89055276
0.89415485 2.35749936 -0.83630353
0.90745032 2.19823480 -1.04381871
0.86675608 2.48313403 -0.64691770
1.04498363 2.45705795 -0.63261282
1.06271970 2.32571936 -0.82840031
1.02375400 2.51621294 -0.42961770
1.21650660 2.47335577 -0.44213700
1.22494280 2.40467691 -0.64461368
1.17637813 2.47975111 -0.25439128
1.37491739 2.42002225 -0.27240369
1.40485930 2.41585398 -0.46603486
1.32982230 2.37769151 -0.11939167
1.51634705 2.28997684 -0.13217729
1.55660927 2.33189893 -0.29265478
1.49894547 2.27794981 0.00366068
1.68947840 2.22374606 0.00113425
1.71795607 2.26278877 -0.12880261
1.66469038 2.19249272 0.11948764
1.84106791 2.11573029 0.10696354
1.87515390 2.16245222 -0.01035582
1.84356773 2.15106249 0.22412120
1.66540051 2.22766399 0.23697531
2.01752019 2.07343078 0.20358270
2.02408886 2.05694723 0.08683687
2.01752019 2.07343078 0.20358270
2.04047036 2.15437365 0.29808921
1.84356773 2.15106249 0.22412120
2.18544126 1.99280953 0.17871930
2.20908308 2.06781244 0.27201226
2.24166083 2.14477730 0.36532161
2.37072229 1.97129393 0.24071991
2.40417194 2.04787827 0.33103472
2.44047737 2.12968659 0.43435588
2.56248283 1.95453703 0.29936403
2.60095906 2.04606104 0.40449587
2.63733053 2.16701412 0.57388151
2.75119853 1.96004474 0.38319689
2.79338241 2.08364272 0.54110271
2.82392645 2.18803692 0.77415544
2.93790412 1.99233806 0.52245754
2.99137616 2.11501575 0.75315779
3.02279687 2.18244028 0.97903502
3.15465164 2.03022575 0.74649328
3.19591212 2.10625768 0.96722579
3.21218657 2.12944865 1.18972981
3.36277890 2.01485920 0.95874321
3.38200116 2.03936172 1.17677104
3.38259578 2.02377987 1.39439118
3.54851151 1.93142354 1.37983775
3.55447555 1.95531309 1.16541672
3.52768540 1.87657809 1.58514249
3.69296765 1.78433704 1.56898963
3.71714687 1.83999228 1.36886811
3.65950727 1.71451879 1.76003253
3.82274604 1.62200344 1.74084079
3.86065316 1.69320273 1.55542505
3.76506591 1.52225804 1.90362108
3.93191433 1.43506062 1.88500822
3.99078083 1.53131390 1.72495604
3.85999680 1.32413077 2.02388549
4.02657986 1.23687565 2.00381851
4.09914160 1.34276509 1.86520338
3.95372939 1.11666155 2.10929942
4.12501097 1.03075755 2.08648658
4.19646788 1.14520192 1.98132634
4.06748295 0.90335107 2.16674137
4.30358458 0.93848503 2.06102610
4.24875784 0.82234591 2.14486885
4.21022987 0.69699347 2.19946694
4.43227100 0.72382760 2.11544847
4.39195299 0.61167133 2.17659116
4.35353327 0.49401391 2.21549273
4.57997608 0.51869500 2.15505958
4.53806782 0.41627291 2.19289279
4.50362206 0.31118178 2.22865582
4.73017073 0.32299888 2.17375493
4.68318796 0.22434711 2.19156981
4.64290380 0.12291583 2.18870044
4.85794973 0.12305757 2.13310957
4.82092953 0.02240769 2.13383055
4.79067516 -0.08421772 2.13614035
4.95467663 -0.28748769 2.10756254
5.12829876 -0.34840214 2.10290194
5.11733389 -0.46022660 2.11191845
5.24309874 -0.33928606 2.13321233
5.25706863 -0.47789365 2.13693619
5.24524307 -0.62561423 2.15893364
5.36561298 -0.45528066 2.16944790
5.48130560 -0.40898991 2.17002463
5.34157181 -0.30403179 2.15951777
5.43396854 -0.24631777 2.15472364
5.59495497 -0.33819625 2.13888454
5.52052307 -0.17361084 2.11390710
5.29307652 -0.15900561 2.14884257
5.36260223 -0.08893037 2.13246799
5.42709398 -0.01385867 2.08522296
5.59380913 -0.09795455 2.04715490
5.48551989 0.06231125 2.02093196
5.25509787 0.05938651 2.11172748
5.31295729 0.14121467 2.05581808
5.36136293 0.21264951 1.99519074
5.53970385 0.14184909 1.94026315
5.40316343 0.29165259 1.91384637
5.16051435 0.27856880 2.04638624
5.20476437 0.35569802 1.98152375
5.24850988 0.43524244 1.90159261
5.44690180 0.37111863 1.82112002
5.29117393 0.51323956 1.80323565
5.03711319 0.48781696 1.98222673
5.08111000 0.57138383 1.89585137
5.12531185 0.65035754 1.79489434
5.16944361 0.72304469 1.67915249
5.33112574 0.58478409 1.69058037
4.90419245 0.69864893 1.90384138
4.95276260 0.77882117 1.79507709
5.00270653 0.85467774 1.67198384
5.03498936 0.90684605 1.52477586
5.20180607 0.78098655 1.54099727
4.83580971 0.97950065 1.67103326
4.78270960 0.90311033 1.80503023
4.87233496 1.03504491 1.51780462
4.89968348 1.08161831 1.35552847
5.06526423 0.95740128 1.37048018
4.70611048 1.15856361 1.51497149
4.66731215 1.09924138 1.67350161
4.73428822 1.20590734 1.34527624
4.75423956 1.24147451 1.16836333
4.92532492 1.12537825 1.18669403
4.56581020 1.32538998 1.34079003
4.53761864 1.27695608 1.51655984
4.58275318 1.35890567 1.15562415
4.74641800 1.23725963 0.98331189
4.57083225 1.34676874 0.96510476
4.40987778 1.46961987 1.14910698
4.39519978 1.43758726 1.34133887
4.39125729 1.45005059 0.95430875
4.53374672 1.29980373 0.78588647
4.34941578 1.39559507 0.77215856
4.23706245 1.57346785 1.14827788
4.21434927 1.54956460 0.94694257
4.17794323 1.49732256 0.75591540
4.30485392 1.34457350 0.58100778
4.13446379 1.43242776 0.56206626
4.03968430 1.64110112 0.94446582
4.00212240 1.58915401 0.74549651
3.96298862 1.52296948 0.56195951
4.08994865 1.34774089 0.40344599
3.92519093 1.44563031 0.41212204
3.82920384 1.68300641 0.74296957
3.78225994 1.61444974 0.56249923
3.74819803 1.54109442 0.41899365
3.89444280 1.38255715 0.30720285
3.72569799 1.47788954 0.32903743
3.59824276 1.70485044 0.55367845
3.56318212 1.62347698 0.41978055
3.55469418 1.56055069 0.34090433
3.71735835 1.43237853 0.26076937
3.55269599 1.51520348 0.27182269
3.38102508 1.69119859 0.41177702
3.37647629 1.62792623 0.33344498
3.37956667 1.56959891 0.26743081
3.55165195 1.47819197 0.20102856
3.38069367 1.51590276 0.19847654
3.20345688 1.67976022 0.30612165
3.20075393 1.61201560 0.24030413
3.20331693 1.54928017 0.17558055
3.21139002 1.53877604 0.09856305
3.38460517 1.51159513 0.12299928
3.20331693 1.54928017 0.17558055
3.38069367 1.51590276 0.19847654
3.02004766 1.57966590 0.13482149
3.02726316 1.65341926 0.19947857
3.03034043 1.55813217 0.05223747
3.02004766 1.57966590 0.13482149
3.21038342 1.60352612 0.02997606
3.03072309 1.63138211 -0.00655231
2.83763003 1.64093268 0.11257328
2.83325267 1.61240065 0.03221227
2.85440445 1.67041409 -0.03462656
2.89268184 1.73742914 -0.15561925
3.04873276 1.69913685 -0.10869574
2.69699883 1.74867678 -0.04498953
2.65620041 1.69291985 0.02854538
2.74273849 1.79592192 -0.17460795
2.80829072 1.83873451 -0.36689949
2.96488905 1.76779079 -0.35495979
2.59399724 1.87801790 -0.18103904
2.53977108 1.82602954 -0.06132705
2.64799356 1.91834688 -0.36910552
2.66462326 1.88048160 -0.58841664
2.83670712 1.79806435 -0.59436649
2.43570042 1.95877361 -0.18170232
2.47581601 1.99171782 -0.36362317
2.49030972 1.96216917 -0.57524937
2.47754359 1.87258101 -0.77625120
2.65621233 1.79100704 -0.79193121
2.29713511 2.06895614 -0.34817150
2.31497002 2.04687762 -0.55603039
2.30045295 1.95277596 -0.75438327
2.28161335 1.84261727 -0.95216316
2.45910716 1.76532197 -0.97182053
2.13803577 2.12513661 -0.53474033
2.12627864 2.03307295 -0.73241240
2.10598874 1.91796684 -0.92991740
2.08740759 1.78204155 -1.12366951
2.26193047 1.70886624 -1.14303410
1.94833636 2.10610342 -0.70778698
1.93188870 1.99286628 -0.90530038
1.91151297 1.84699035 -1.09483552
1.90092123 1.71067154 -1.30123031
2.07252645 1.64290392 -1.32058501
1.75789106 2.06448460 -0.88178593
1.74017203 1.91854227 -1.07387984
1.73096788 1.77499115 -1.28025568
1.71795404 1.61173904 -1.47676480
1.88670504 1.55523515 -1.49783003
1.57220376 1.99687135 -1.05812812
1.56389761 1.84074461 -1.26373410
1.55200338 1.67205524 -1.46057343
1.53872728 1.50907707 -1.66115677
1.70411623 1.45836866 -1.68064129
1.39955354 1.90628755 -1.25350440
1.39022934 1.73868537 -1.45493746
1.37766755 1.57348442 -1.65500998
1.51635647 1.34793496 -1.86059868
1.35578310 1.40717053 -1.84895170
1.23328376 1.81314039 -1.46442044
1.21644425 1.63743830 -1.65402555
1.19526315 1.47157729 -1.84185135
1.15056694 1.28717685 -2.00297713
1.31450343 1.22838259 -2.02358747
1.05169463 1.69392896 -1.65683687
1.02738988 1.52645814 -1.83756435
0.98576236 1.34894693 -1.99382079
0.92778343 1.14619350 -2.12108445
1.09129632 1.09927738 -2.14423299
0.85569769 1.57450163 -1.83816850
0.81510907 1.39298964 -1.98335814
0.76372004 1.18994546 -2.10977936
0.72278672 0.97383535 -2.21688819
0.88618273 0.93603301 -2.23487616
0.63925928 1.42575383 -1.98058045
0.59641927 1.22416914 -2.10119104
0.55835360 1.00383556 -2.19942975
0.53027529 0.78004694 -2.28695202
0.69200099 0.74891150 -2.30471611
0.42490500 1.24299955 -2.08840704
0.39331660 1.03414404 -2.20074749
0.36887723 0.81359941 -2.29612303
0.34910050 0.58269078 -2.37166786
0.50885963 0.54978228 -2.36129141
0.22569375 1.06117415 -2.21584177
0.20625727 0.84373975 -2.31569672
0.18882547 0.61163557 -2.38534927
0.03983263 0.86581129 -2.32816362
0.02708363 0.63519204 -2.39764905
-0.12820619 0.88219470 -2.34189582
-0.13585463 0.65410483 -2.41589594
-0.29823899 0.89276028 -2.35865593
-0.30038214 0.66681176 -2.43238735
-0.47022253 0.89860505 -2.37108827
-0.46449962 0.67308873 -2.44685602
-0.63025737 0.67315912 -2.45684290
-0.29887503 1.09821343 -2.24969745
-0.12230754 1.08942640 -2.23452425
-0.11424512 1.28323281 -2.11486530
0.06886766 1.27517366 -2.10599923
0.05329804 1.07935941 -2.22693563
0.08605804 1.44736695 -1.96410441
0.27518794 1.44244504 -1.96086621
0.24812494 1.25988603 -2.09464383
0.29821146 1.62349176 -1.83449745
0.49065959 1.62120330 -1.83639741
0.45934102 1.45021129 -1.98645151
0.51491982 1.78102493 -1.67897022
0.70294851 1.76669550 -1.66903770
0.67669433 1.60425341 -1.83467460
0.72168761 1.91777647 -1.48181832
0.89733934 1.89226913 -1.46770144
0.88117188 1.73724461 -1.66307521
0.90616220 2.04766250 -1.25831413
1.06699407 1.85830092 -1.46271706
1.07176316 2.00980425 -1.24907017
1.07358313 2.16666675 -1.03287280
1.24058676 2.12371397 -1.04041004
1.23566008 1.96321094 -1.24785101
1.23530316 2.27261376 -0.83476377
1.41231155 2.21453190 -0.85055512
1.40344274 2.05774164 -1.04069507
1.41173959 2.33940172 -0.66240215
1.59591460 2.26676846 -0.67377222
1.58710110 2.14680696 -0.86624467
1.58837795 2.33439255 -0.47840011
1.77217913 2.26341987 -0.49504003
1.77178264 2.18467712 -0.68891513
1.74759054 2.26916647 -0.29935646
1.93046916 2.19633436 -0.31651914
1.95890343 2.20195937 -0.51729405
1.90724659 2.19493580 -0.14366341
2.08398175 2.10770059 -0.16370675
2.11423874 2.13338900 -0.33212292
2.05116582 2.08533621 -0.03211679
2.22622657 2.00482464 -0.05271949
2.26417184 2.03099418 -0.18112551
2.19579649 1.98524868 0.06484161
2.34884191 1.88569045 0.04543514
2.38843560 1.91653287 -0.06198060
2.34469175 1.90418434 0.14921203
2.18544126 1.99280953 0.17871930
2.50054312 1.80870748 0.13015801
2.49725127 1.78497159 0.03565081
2.50054312 1.80870748 0.13015801
2.52861738 1.87613940 0.21363828
2.34469175 1.90418434 0.14921203
2.66178274 1.71854830 0.11584616
2.68807840 1.78499222 0.19109176
2.71630764 1.86127293 0.27337217
2.87436342 1.78140032 0.26160625
2.85536337 1.70951247 0.18329978
2.89645219 1.86696005 0.35725915
3.03770232 1.72774363 0.27274421
3.05165267 1.80620730 0.36134320
3.08604646 1.91860819 0.51685393
3.24436355 1.85112810 0.52657145
3.21277261 1.75266886 0.39188564
3.31750917 1.94495761 0.74499017
3.41659927 1.78269017 0.53972089
3.48492217 1.85801232 0.74202812
3.53398013 1.92908466 0.95039630
3.70327735 1.83558702 0.94621754
3.65601373 1.77512527 0.74249238
3.72078538 1.85674548 1.15858221
3.87137938 1.73954022 0.94353932
3.89368463 1.76786137 1.15242994
3.88340116 1.74195468 1.35843909
4.05573606 1.64950669 1.35017288
4.06378603 1.67069924 1.14884079
4.02801132 1.59695363 1.54157031
4.19585276 1.49471509 1.53022993
4.22730017 1.54855323 1.34550571
4.16029119 1.43478608 1.71051621
4.32973003 1.33023250 1.69628930
4.36592674 1.38751125 1.52242172
4.26706457 1.24082768 1.84445333
4.43914080 1.13336122 1.82714963
4.49781609 1.21592534 1.68168354
4.37033892 1.04224980 1.95631909
4.54725790 0.93216681 1.93756664
4.61280823 1.02215326 1.81475425
4.48061800 0.83469129 2.03808832
4.72110558 0.81596303 1.91943884
4.66713428 0.72205538 2.01512885
4.62025738 0.62111425 2.09256673
4.85590506 0.61033523 1.99364531
4.81095505 0.51818550 2.07071662
4.77005672 0.42348275 2.13224626
4.94771671 0.31259254 2.10624695
4.99288607 0.40270418 2.05468655
4.90146589 0.21914972 2.13025045
5.06312799 0.10144658 2.09458041
5.11583376 0.19520913 2.09079647
5.21727943 -0.02256606 2.13125086
2.83763003 1.64093268 0.11257328
2.66178274 1.71854830 0.11584616
0.66815835 0.52175558 -2.38368630
0.82818669 0.48850447 -2.40780234
0.85403782 0.71554166 -2.32975221
1.01725435 0.67125690 -2.34151936
0.98941559 0.44929060 -2.42341256
1.05030024 0.89069939 -2.25702691
1.21689928 0.83889461 -2.26883531
1.18241668 0.62566346 -2.35495377
1.25863624 1.04258811 -2.16744590
1.42968202 0.98706508 -2.17662239
1.38686645 0.78871870 -2.28128648
1.47770548 1.17393744 -2.03934789
1.64284396 1.12080431 -2.04259181
1.60014057 0.93659604 -2.18245816
1.67773747 1.29202664 -1.86918366
1.84252453 1.23325312 -1.87153256
1.81050837 1.06802487 -2.04244375
1.86963785 1.39998794 -1.69238508
2.01116371 1.17741704 -1.87393439
2.03699446 1.33682764 -1.69714010
2.05707264 1.49477708 -1.51331389
2.20963979 1.27823269 -1.70369041
2.22940612 1.42872727 -1.52249324
2.24717951 1.57623756 -1.33830178
2.40489864 1.36070514 -1.52781844
2.42467904 1.50528800 -1.34980559
2.44220424 1.64267206 -1.16526055
2.59872627 1.42141712 -1.34474361
2.62093019 1.56469440 -1.17177916
2.63969541 1.68815768 -0.98589098
2.79972625 1.48203695 -1.16858888
2.81707954 1.59968209 -0.98310989
2.83556604 1.71068716 -0.79519022
2.99606347 1.51916695 -0.97430080
3.01203299 1.63414454 -0.78524697
3.00327945 1.71611357 -0.57437080
3.17741156 1.55403876 -0.75765437
3.16230297 1.64179194 -0.54331273
3.11825442 1.68775785 -0.30919325
3.31522870 1.56582439 -0.50683898
3.27437043 1.62217307 -0.28016418
3.22685289 1.64497483 -0.08087772
3.40278959 1.59505939 -0.07111682
3.43028259 1.55874503 -0.26144871
3.38651133 1.56801271 0.05610617
3.56372428 1.51747990 0.05084737
3.57222342 1.53070939 -0.07156347
3.55366540 1.48285186 0.12968051
3.71100473 1.41896176 0.10865394
3.73219085 1.44446528 0.02777797
3.70553613 1.40942287 0.18534294
3.55165195 1.47819197 0.20102856
3.84667969 1.31631255 0.15985468
3.85842347 1.32238102 0.08098261
3.84667969 1.31631255 0.15985468
3.86461973 1.33670306 0.23414083
3.70553613 1.40942287 0.18534294
4.01571798 1.22834718 0.23257253
3.99359798 1.20169711 0.16010745
4.05341387 1.28010345 0.29971084
