2.76982689 -1.96208572 -4.41030788
2.74287820 -1.91174853 -4.30587101
2.57430601 -2.04316926 -4.30765057
2.71647143 -1.87604928 -4.19578505
2.87123942 -1.74849784 -4.19269562
2.90310478 -1.79831111 -4.30899000
2.84486222 -1.72276950 -4.06409645
3.00744033 -1.61551726 -4.21591139
2.97112203 -1.56937087 -4.08921099
2.94938231 -1.54913116 -3.95335579
3.10078073 -1.42769921 -4.13447046
3.06733799 -1.38594592 -4.00010347
3.04289556 -1.36158705 -3.86128306
3.18612671 -1.22873747 -4.06905460
3.14712381 -1.18587697 -3.92607951
3.12256813 -1.16268468 -3.77875853
3.24991131 -1.01806641 -4.00779438
3.21352172 -0.98028976 -3.85015106
3.19197822 -0.96272284 -3.69156742
3.30296302 -0.80388331 -3.93650317
3.26703167 -0.77255940 -3.76576972
3.25328064 -0.76180267 -3.59856629
3.34906197 -0.59064066 -3.86480713
3.32290506 -0.56438863 -3.67108989
3.30043316 -0.55954295 -3.50092769
3.39263654 -0.36177179 -3.77079391
3.36592031 -0.35167578 -3.57305241
3.34474587 -0.35838464 -3.40834928
3.39392853 -0.14832082 -3.47497344
3.37657595 -0.17566818 -3.30395436
3.43185377 0.04940276 -3.52970362
3.40747738 0.01345356 -3.35092235
3.38236189 -0.03101416 -3.17286682
3.42406774 0.18121055 -3.38092446
3.40145874 0.13429621 -3.19557691
3.36486077 0.07957771 -3.01479530
3.40329218 0.28947484 -3.20594072
3.36893225 0.23716722 -3.02407551
3.34425807 0.17723404 -2.84282351
3.34000754 0.32862666 -2.84309149
3.36618233 0.38450596 -3.02022982
3.31515455 0.26888990 -2.66845894
3.29893279 0.42058617 -2.66912556
3.32803631 0.48038241 -2.83997202
3.28590822 0.36027196 -2.49539208
3.25221515 0.50946802 -2.49589205
3.27532411 0.57230616 -2.66631579
3.25365567 0.45164806 -2.32233691
3.19905615 0.59400427 -2.32307506
3.21259284 0.65742582 -2.49400496
3.21650410 0.54252416 -2.14937115
3.15271926 0.68085027 -2.14986539
3.14830828 0.73758084 -2.32221174
3.16735744 0.63050115 -1.97744727
3.09222651 0.76280892 -1.97824490
3.08449960 0.81643808 -2.14999628
3.10507274 0.71659708 -1.80858290
3.02236414 0.84664279 -1.81132722
3.00963116 0.89053905 -1.98013198
2.92759490 0.96726513 -1.81517887
2.92299318 1.01477480 -1.98113787
2.81899118 1.07483900 -1.82038736
2.82615829 1.13102782 -1.98191190
2.71198273 1.18749642 -1.82613194
2.72311473 1.24345911 -1.98204291
2.60517716 1.34843755 -1.98697174
2.59689069 1.29666555 -1.83403742
2.47733378 1.44583786 -1.99534154
2.46827984 1.39375043 -1.84534180
2.34260941 1.53727949 -2.00678873
2.33170962 1.48563254 -1.85917020
2.32690549 1.44923091 -1.71105182
2.18688893 1.56613266 -1.87527263
2.17726326 1.52527845 -1.73013067
2.17273903 1.50219333 -1.58484542
2.02486444 1.59874237 -1.74873912
2.01623893 1.57307971 -1.60493040
2.00778604 1.55523312 -1.46265745
1.85655403 1.63089371 -1.62402701
1.84637451 1.61436272 -1.48148632
1.83702266 1.60501671 -1.33946943
1.68330848 1.65934837 -1.49816036
1.67328990 1.65653265 -1.35530412
1.65917563 1.64769864 -1.21415043
1.50904512 1.69670248 -1.36810279
1.49474025 1.69088054 -1.22563338
1.47976291 1.69236863 -1.08458078
1.33166230 1.73259807 -1.23263383
1.31542885 1.73004425 -1.09027767
1.29853475 1.73381233 -0.94806433
1.31542885 1.73004425 -1.09027767
1.15107107 1.75711179 -1.09228969
1.29853475 1.73381233 -0.94806433
1.13345051 1.76034415 -0.94900489
1.28008687 1.74065208 -0.80650580
1.11438358 1.76601732 -0.80620813
0.96843195 1.77153552 -0.94662970
0.94829345 1.77378571 -0.80270195
0.92679179 1.77357745 -0.65907174
0.78416175 1.78041720 -0.79667175
0.76207078 1.77826822 -0.65219629
0.73917013 1.77940524 -0.50806010
0.59857011 1.78301275 -0.64371353
0.57549685 1.78314352 -0.49876779
0.55205458 1.78701293 -0.35404235
0.41310930 1.77611923 -0.48827291
0.38978606 1.78526282 -0.34326175
0.36671886 1.79457903 -0.19798267
0.22946420 1.77140462 -0.33089173
0.20733748 1.77652395 -0.18456496
0.18446074 1.79212046 -0.03857155
0.04932531 1.75892746 -0.17131992
0.02860943 1.76765430 -0.02403473
0.00716730 1.78058386 0.12348855
-0.12804547 1.75304008 -0.01195046
-0.14732078 1.75964177 0.13592999
-0.28341463 1.73149073 -0.00109846
-0.30139819 1.73820555 0.14664508
-0.43853968 1.70691156 0.00827728
-0.45520762 1.71381676 0.15520529
-0.59437907 1.67958200 0.01501591
-0.60936838 1.68494558 0.16137244
-0.74454546 1.62535167 0.02238554
-0.75996917 1.63441777 0.16748598
-0.89437836 1.56369805 0.02860029
-0.90709370 1.56810915 0.17366505
-1.04289579 1.49387133 0.03368995
-1.05440271 1.49660361 0.17847493
-1.07357669 1.51865888 0.32150978
-1.20401537 1.42206812 0.18133825
-1.22214186 1.44165301 0.32470647
-1.23541665 1.45517778 0.46933070
-1.36780190 1.35401523 0.32779601
-1.38375545 1.37068307 0.47156894
-1.40050673 1.38997042 0.61413944
-1.52790928 1.27395546 0.47459298
-1.54055917 1.28554583 0.61887795
-1.56644797 1.31358957 0.75693625
-1.67600405 1.17116785 0.62393785
-1.69840467 1.19181228 0.76502013
-1.81968772 1.06326067 0.62668806
-1.83549273 1.07236254 0.77060986
-1.95201337 0.94125128 0.63161105
-1.97035432 0.94813877 0.77672940
-2.07124901 0.80576462 0.63739133
-2.08914304 0.80934829 0.78435498
-2.18010855 0.66365254 0.64418942
-2.19135952 0.66105705 0.79339141
-2.27872324 0.51699829 0.65132093
-2.28687263 0.51141459 0.80175513
-2.36221194 0.36352223 0.65908939
-2.37151599 0.35897422 0.80950576
-2.43443775 0.20714706 0.66663760
-2.44420624 0.20267053 0.81551218
-2.50148439 0.04911107 0.67296547
-2.50710988 0.04302727 0.81965536
-2.51112819 0.03300269 0.96393436
-2.55288124 -0.12092586 0.82345921
-2.55726242 -0.13177192 0.96378547
-2.57896686 -0.14407049 1.10001624
-2.57371020 -0.30046350 0.96473199
-2.60620689 -0.31127980 1.09985542
-2.67983150 -0.32370937 1.22390676
-2.63641167 -0.47636992 1.09705162
-2.70905995 -0.49369866 1.22082317
-2.73765135 -0.52664167 1.37735903
-2.72398973 -0.66102105 1.21751928
-2.75049782 -0.69342238 1.37579942
-2.79370928 -0.73509228 1.54210401
-2.75389671 -0.85415500 1.37101924
-2.79401875 -0.89609867 1.53967512
-2.83980203 -0.94420958 1.71174192
-2.80835938 -1.04972363 1.52392995
-2.84298682 -1.09861434 1.69538951
-2.86064315 -1.14774311 1.87068880
-2.84999919 -1.18653178 2.03942800
-2.86239338 -1.24822116 1.66539323
-2.84976125 -1.29739749 1.83837080
-2.84050465 -1.33866262 2.00137138
-2.84050465 -1.33866262 2.00137138
-2.82579541 -1.48982310 1.95814192
-2.83320045 -1.44329572 1.80018926
-2.82018781 -1.52945101 2.10784411
-2.82579541 -1.48982310 1.95814192
-2.79845381 -1.67968893 2.05435777
-2.80931163 -1.63420928 1.90736425
-2.85614300 -1.73276436 2.16808081
-2.77627349 -1.82093203 1.98256660
-2.82029486 -1.88547873 2.08073473
-2.91857600 -1.79058433 2.27188063
-2.88857388 -1.94866788 2.16939020
-2.98119402 -1.84176087 2.38544273
-2.94313765 -2.00744033 2.28630996
-3.02476907 -1.89075291 2.52220917
-2.99180794 -2.05877757 2.42796969
-3.05536056 -1.71963847 2.61022186
-3.05189013 -1.93534553 2.66943479
-3.08345199 -1.76395738 2.75438809
-3.07954097 -1.97468793 2.82227421
-3.10081649 -1.80496049 2.90320897
-3.10412621 -2.00967860 2.97932172
-3.10694790 -1.84125495 3.05753613
-3.12102032 -1.67436111 3.13513160
-3.09888172 -1.87341213 3.21596503
-3.11441278 -1.71257830 3.29095316
-3.12513399 -1.55795336 3.36987591
-3.09878659 -1.60883820 3.52640581
-3.08515453 -1.75440896 3.44724488
-3.11702013 -1.46783924 3.61293626
-3.06776023 -1.53007030 3.76599574
-3.05491996 -1.66448522 3.68122125
-3.08429742 -1.40028632 3.85891366
-3.02413201 -1.46870244 4.01037169
-3.01065469 -1.59496808 3.91980505
-3.03971648 -1.34424043 4.10803986
-2.95484090 -1.41929984 4.25218773
-2.94599509 -1.53890419 4.15715075
-2.95296574 -1.29698086 4.34917736
-2.83904624 -1.36909950 4.47729445
-2.83827233 -1.48696566 4.38143587
-2.83796859 -1.24929857 4.57640314
-2.71554852 -1.32762015 4.69788885
-2.71265554 -1.43974781 4.59807730
-2.70844698 -1.20856333 4.79419422
-2.56594181 -1.28673601 4.89735651
-2.57432342 -1.40415573 4.80530787
-2.54779172 -1.16316104 4.98412514
-2.39485145 -1.24519718 5.07407236
-2.40927482 -1.36404550 4.98747110
-2.37017083 -1.11925280 5.15122080
-2.22479653 -1.32029212 5.14456081
-2.21190238 -1.20365810 5.23163271
-2.18923998 -1.07838655 5.30868006
-2.02141166 -1.15502942 5.36810732
-2.03723454 -1.27702093 5.28964281
-2.00360084 -1.03195441 5.45057774
-1.83667719 -1.10453749 5.50442123
-1.84875548 -1.22606468 5.42227840
-1.81898546 -0.97665846 5.58268309
-1.64778769 -1.03241873 5.62142992
-1.66134226 -1.15842247 5.54550219
-1.62601817 -0.90074784 5.68739986
-1.45360017 -0.93721503 5.71475315
-1.46986318 -1.06573677 5.64639091
-1.43371761 -0.80775255 5.78432417
-1.26199007 -0.83707631 5.81227255
-1.27843189 -0.96243715 5.74211788
-1.24196482 -0.71177500 5.88231945
-1.08720291 -0.85924470 5.84225655
-1.07026100 -0.73654473 5.91257763
-1.05121195 -0.61156487 5.97753525
-0.88680041 -0.64696044 6.03188467
-0.89606899 -0.75774884 5.94633055
-0.87071580 -0.52002209 6.08982372
-0.70888782 -0.65426463 6.04896927
-0.70010155 -0.53873783 6.12235594
-0.52699882 -0.55463785 6.15488863
-0.53629130 -0.67453998 6.08256721
-0.39551848 -0.62117875 6.24876451
-0.39833421 -0.73527676 6.16671038
-0.23730990 -0.64677000 6.28415442
-0.23699436 -0.76748765 6.19782591
-0.07586292 -0.66153306 6.29928589
-0.07473785 -0.77839327 6.20674944
0.08560787 -0.66961104 6.30343533
0.08734610 -0.78825116 6.21160078
0.24563807 -0.66695607 6.29463053
0.24865615 -0.78511989 6.19959974
0.40430507 -0.66831923 6.29041052
0.40869826 -0.79197168 6.19967127
0.39717951 -0.54258931 6.37882805
0.55266172 -0.53951168 6.37112522
0.56072187 -0.66709298 6.28251696
0.54012507 -0.40944809 6.45867920
0.69131523 -0.39898300 6.44417858
0.70469725 -0.52936804 6.35470724
0.67483187 -0.26711571 6.53378630
0.83155233 -0.36697459 6.40044260
0.81417590 -0.23551208 6.49132490
0.79033488 -0.09904915 6.57678986
0.95671082 -0.20864691 6.46366215
0.92886341 -0.06690382 6.54187632
0.89843243 0.07619055 6.61714983
1.04128873 0.10219850 6.60387516
1.07185054 -0.04022914 6.52873850
1.01129234 0.24775735 6.67020750
1.18478191 0.13480814 6.58785009
1.15593445 0.27737868 6.65577173
1.12714052 0.42328873 6.71365738
1.30021930 0.31535783 6.63383579
1.27255058 0.45815453 6.69185829
1.24646521 0.60343957 6.73820686
1.41804397 0.50063396 6.66161203
1.39093482 0.64380574 6.70577002
1.37392735 0.78081030 6.76623297
1.53349924 0.69286907 6.66407013
1.51970053 0.82403386 6.73001623
1.52116513 0.94280493 6.81928444
1.66344380 0.87671053 6.68317842
1.66242588 0.99872005 6.76110744
1.64446604 1.13545680 6.80375385
1.80815732 1.05616498 6.70676374
1.79144180 1.19180632 6.75104094
1.76855326 1.32848942 6.77917433
1.92949414 1.25732923 6.67627335
1.90979600 1.39122641 6.70932388
1.89152694 1.52167106 6.74749279
2.05218196 1.45818388 6.63540697
2.03372836 1.58469379 6.67165422
2.01766753 1.70940578 6.70512104
2.19295502 1.65043092 6.61132193
2.15366626 1.77530968 6.61013746
2.12426519 1.90156341 6.61918592
2.28358674 1.85030937 6.50971270
2.23851204 1.97650373 6.50670671
2.17637634 2.09040546 6.47803831
2.34160304 2.05971837 6.38923359
2.27950311 2.17597747 6.37004709
2.25210857 2.30535650 6.39563274
2.37270069 2.26502013 6.25621128
2.34467483 2.39553022 6.28561831
2.32191157 2.52550435 6.32478237
2.42700267 2.48851347 6.17046642
2.40665603 2.61958909 6.21560144
2.38463044 2.75030160 6.26316452
2.49219823 2.71583438 6.10746241
2.47386360 2.84821367 6.16146040
2.45602298 2.97869420 6.22221470
2.55102420 2.94976926 6.05138016
2.53512383 3.08345819 6.11491489
2.52439117 3.21195030 6.19043255
2.60140920 3.19202590 6.00039434
2.59233689 3.32532787 6.07720327
2.58890820 3.45270085 6.16675806
2.65336537 3.44511676 5.96042681
2.64866877 3.57574010 6.05386209
2.64805555 3.69969606 6.15838861
2.64805555 3.69969606 6.15838861
2.58605075 3.57194805 6.26643848
2.69273162 3.71055388 5.93084097
2.69959521 3.83871889 6.04639721
2.69959521 3.83871889 6.04639721
2.71700144 3.95199490 6.17866421
2.75490880 3.98631930 5.92270994
2.78155398 4.10106039 6.06573820
2.81998539 4.18232870 6.23465014
2.86597109 4.34869242 6.15172148
2.85769653 4.41503096 6.34777212
2.88611555 4.52441454 6.10362864
2.87598968 4.58500242 6.30578041
2.84739232 4.63844681 6.48623514
2.85773253 4.80584097 6.45907831
2.88077569 4.76021814 6.28165960
2.83374834 4.84673691 6.63084173
2.82676554 5.01319027 6.61493540
2.85226178 4.98049116 6.44907141
2.79726958 5.03858519 6.77703762
2.78445292 5.20132399 6.77775717
2.81182408 5.18671560 6.61570930
2.75402188 5.20419312 6.94156742
2.76113582 5.36350918 6.78550196
2.72269201 5.35809183 6.94447851
2.68720722 5.34690046 7.10406876
2.65663362 5.49698925 7.11075974
2.70019031 5.51552105 6.95739031
2.61642218 5.47528505 7.26768208
2.63338780 5.64937019 7.12782049
2.58505058 5.62106466 7.27803421
2.52058721 5.58732414 7.42176533
2.54276752 5.76639748 7.29024982
2.48721576 5.72853136 7.43352270
2.42530012 5.68787336 7.57389688
2.44705176 5.87319136 7.45002365
2.38074899 5.82368135 7.58238506
2.31156492 5.77367163 7.71472263
2.25706124 5.90336609 7.72324657
2.32529235 5.95786476 7.59500504
2.18437099 5.84787369 7.85153055
2.11562157 5.96084642 7.85432243
2.18356133 6.02554846 7.73055696
2.04584813 5.90134192 7.98174286
1.97209263 6.00910664 7.98567295
2.03597832 6.07331991 7.86244297
1.90339088 5.95002460 8.10922909
1.82177150 6.04895449 8.11056232
1.88579440 6.11112642 7.99086285
1.75415909 5.99067640 8.22752380
1.72516894 6.14032507 8.11402130
1.66318786 6.08362389 8.23040485
1.61308277 6.04968119 8.35352802
1.55264354 6.17132711 8.23678589
1.51007497 6.14723587 8.35686779
1.46301770 6.11912060 8.47081089
1.38178515 6.24079657 8.35671234
1.34187138 6.21897364 8.46870995
1.24210191 6.34286404 8.35545063
1.20502746 6.31398726 8.46557903
1.09303081 6.42983532 8.34297943
1.05784941 6.39770126 8.45648766
1.04153287 6.38986206 8.58110523
0.93069690 6.51524067 8.58796883
0.94210845 6.52217007 8.46261406
0.91666001 6.50889492 8.71529484
0.80260366 6.61737919 8.59026051
0.81662261 6.62998152 8.46256542
0.68508267 6.72223282 8.45676231
0.67083150 6.70359993 8.58827209
0.54510164 6.78015995 8.44147491
0.53185660 6.75797319 8.58096886
0.40413246 6.81407356 8.42757511
0.39317921 6.79937553 8.57216454
0.26281202 6.82722855 8.41100216
0.25148377 6.81121588 8.56030560
0.12074748 6.82519341 8.39564419
0.11053242 6.80200624 8.54539394
-0.01943000 6.79960155 8.37860107
-0.02826994 6.77355242 8.52936268
-0.14971980 6.70236254 8.51445675
-0.13843320 6.72041702 8.35976028
-0.25831148 6.62908268 8.35889149
-0.27348527 6.62595749 8.50852776
-0.40458465 6.55890465 8.37060070
-0.41284129 6.55862474 8.50769424
-0.53624356 6.43978834 8.38722706
-0.41504976 6.58286476 8.24872112
-0.55384618 6.45440292 8.27282524
-0.42868179 6.62509394 8.13290405
-0.26208559 6.66430569 8.21750546
-0.12287843 6.74690723 8.20416546
-0.00679210 6.83793783 8.23047733
0.01126285 6.90817547 8.09699059
0.13777855 6.86356497 8.24833488
0.16116133 6.93304062 8.11297321
0.19253279 7.03688192 7.99156618
0.04488451 7.01545191 7.98130274
0.23622663 7.12968683 7.84685755
0.08834617 7.10830402 7.84081030
0.27479509 7.21204424 7.69656754
0.12834333 7.18857241 7.69362593
0.00138708 7.15214729 7.68452454
0.15070218 7.24890423 7.53862000
0.03235377 7.21460390 7.53656578
-0.06665386 7.17813730 7.53554821
-0.10857971 7.12428188 7.67407703
-0.15383323 7.15051556 7.53034496
-0.18975858 7.10931015 7.66092062
-0.24862026 7.18015480 7.52770233
-0.28043222 7.14223528 7.65844965
-0.33631155 7.07000351 7.77965021
-0.42105022 6.94548798 7.86112070
-0.36703420 7.18961430 7.66315889
-0.41885367 7.10776901 7.77717447
-0.49452609 6.98252630 7.84722662
-0.50923562 7.14871168 7.77542400
-0.57131177 7.01080847 7.81880188
-0.60275465 6.84097385 7.89064121
-0.66521186 6.87547064 7.83719063
-0.54662538 6.79481602 7.93362713
-0.46926227 7.21606255 7.65316439
-0.57748491 7.23296881 7.63496590
-0.55412602 7.27126360 7.50718260
-0.44163516 7.25883961 7.52338648
-0.70145279 7.22905779 7.61189938
-0.67765933 7.26673317 7.48230553
-0.83176649 7.18272018 7.57792044
-0.80834198 7.23180771 7.44888639
-0.77879208 7.25728035 7.31301928
-0.65184784 7.28422260 7.34870625
-0.75109363 7.27923965 7.17797899
-0.63023901 7.29990816 7.21476126
-0.72246039 7.28334141 7.04918337
-0.59965324 7.29566956 7.08187008
-0.69489878 7.25679207 6.93656731
-0.56383508 7.26769781 6.97246313
-0.53226715 7.26245880 6.87096691
-0.67082548 7.26235151 6.83467913
-0.80644900 7.24257660 6.78765726
-0.65175259 7.30358124 6.74705315
-0.79435289 7.29086590 6.69553709
-0.92320198 7.25451183 6.63468742
-0.78834051 7.34381628 6.60741663
-0.91227853 7.29590797 6.53939438
-1.02771604 7.23066473 6.48348475
-0.89670002 7.33432150 6.44343424
-1.01322687 7.26800680 6.39165020
-1.13657558 7.19163799 6.36434507
-1.00199974 7.29287767 6.30348921
-1.13964140 7.21138954 6.29725027
-1.27678895 7.11620331 6.28991652
-1.14630270 7.22595644 6.23485851
-1.28478944 7.13794947 6.23304892
-1.40131629 7.05688906 6.20486259
-1.29795122 7.16680288 6.18777752
-1.16029775 7.23937988 6.17536545
-1.32027423 7.20875263 6.16454411
-1.18115044 7.28279972 6.14811993
-1.02290618 7.35747814 6.13345194
-0.99694580 7.31695747 6.16398430
-0.86891210 7.45868826 6.17169905
-0.84049928 7.41931057 6.21422005
-0.92398787 7.50676918 6.15447760
-0.73946172 7.56776810 6.25415134
-0.81662834 7.60878897 6.22053576
-0.89825368 7.63926268 6.20465994
-0.70276845 7.51499033 6.31394196
-0.64398408 7.58826351 6.42384958
-0.53960103 7.55146933 6.51922035
-0.61677361 7.50292444 6.47259712
-0.58694404 7.64061928 6.47049570
-0.70692348 7.45205688 6.36616611
-0.74898624 7.40877962 6.43675518
-0.62100613 7.44164515 6.53336954
-0.84243393 7.38849831 6.27380800
-0.86520952 7.36346626 6.35209417
-0.77775633 7.38343811 6.51648140
-0.99287415 7.30371189 6.22810793
-0.64181721 7.36266327 6.67842293
-0.63148320 7.40286875 6.60477972
-0.49753231 7.47691584 6.58230209
-0.40757304 7.52386618 6.60252380
-0.47154814 7.59576416 6.54642487
-0.53011811 7.67756224 6.49146175
-0.41142449 7.63876152 6.55599070
-0.32765618 7.57201242 6.61788177
-0.47476274 7.71604729 6.50306988
-0.52966583 7.80082178 6.47021008
-0.41811550 7.74846649 6.49267626
-0.35428321 7.66419792 6.52614260
-0.47518533 7.82967615 6.46420956
-0.58041972 7.89076853 6.45344687
-0.52842164 7.91544962 6.44758368
-0.42739597 7.84486675 6.42315292
-0.37704089 7.75369930 6.43637419
-0.48151913 7.93124151 6.41811085
-0.57562172 8.00656986 6.43999958
-0.52666551 8.01829052 6.42356968
-0.39098844 7.85185003 6.35999870
-0.44271260 7.93978548 6.36767244
-0.48467422 8.02626801 6.38649559
-0.56301361 8.10442829 6.43073034
-0.52101636 8.11050606 6.40127039
-0.45444569 8.03419018 6.33285427
-0.41221625 7.94904709 6.30551243
-0.48712081 8.11528587 6.36438608
-0.48712081 8.11528587 6.36438608
-0.49517497 8.20460987 6.35421896
-0.51017016 8.19465637 6.38250113
-0.46561912 8.12732887 6.31722784
-0.54542887 8.18888760 6.41431284
-0.51017016 8.19465637 6.38250113
-0.45444569 8.03419018 6.33285427
-0.42875916 8.04690647 6.27765989
-0.41221625 7.94904709 6.30551243
-0.38454148 7.96111298 6.23815632
-0.41000775 8.06418705 6.22163153
-0.36276600 7.97600222 6.17128849
-0.39278618 8.07997417 6.16553831
-0.34811008 7.99356937 6.10107422
-0.38885731 8.09894466 6.10957527
-0.34896731 8.01081371 6.03158712
-0.38506529 8.12403679 6.05901194
-0.34681234 8.03533459 5.96958828
-0.41712728 8.20816326 6.14026213
-0.44469494 8.26048851 6.21991730
-0.41606179 8.23468781 6.10715246
-0.38658926 8.15314007 6.01781797
-0.43923613 8.29182911 6.19053364
-0.46560729 8.33239174 6.26453304
-0.46986356 8.29514599 6.28773785
-0.41830000 8.26236820 6.07539988
-0.44255784 8.32634449 6.16240644
-0.47333404 8.36628151 6.23972225
-0.50741994 8.40107632 6.31178093
-0.49841329 8.35666275 6.32720518
-0.44965360 8.35295963 6.13463688
-0.48316219 8.39719582 6.21626806
-0.51533723 8.43223381 6.29041624
-0.54370260 8.45166302 6.35218334
-0.54019040 8.41491699 6.36764240
-0.49614531 8.42313290 6.19111109
-0.52471894 8.45791435 6.26600409
-0.55454272 8.48079109 6.33252096
-0.59596854 8.45286560 6.39071608
-0.55454272 8.48079109 6.33252096
-0.60587400 8.48251724 6.37606621
-0.54370260 8.45166302 6.35218334
-0.54117858 8.48239231 6.24013901
-0.56989497 8.50309086 6.31037045
-0.61848807 8.51211452 6.35418940
-0.56989497 8.50309086 6.31037045
-0.61848807 8.51211452 6.35418940
-0.68200487 8.50691128 6.37794113
-0.68200487 8.50691128 6.37794113
-0.66922408 8.48128510 6.40297890
-0.75396281 8.49365520 6.37111330
-0.74022961 8.46644497 6.40063286
-0.72559750 8.43167973 6.41925383
-0.65776491 8.44679451 6.41308641
-0.70853662 8.39210606 6.42824841
-0.64487106 8.40645695 6.42101574
-0.58902150 8.41445255 6.40393114
-0.54019040 8.41491699 6.36764240
-0.63099504 8.35894775 6.43151617
-0.57878268 8.36552620 6.41377687
-0.53445780 8.36799145 6.37902451
-0.53445780 8.36799145 6.37902451
-0.56850207 8.31590939 6.42285538
-0.52921337 8.31983089 6.39040613
-0.49686563 8.31156349 6.34268808
-0.52921337 8.31983089 6.39040613
-0.49399039 8.26130390 6.35242081
-0.52203423 8.26215363 6.39105511
-0.52203423 8.26215363 6.39105511
-0.56085265 8.25590992 6.41978979
-0.61877984 8.30655766 6.43850517
-0.60614783 8.24776649 6.44020224
-0.59006929 8.18060112 6.43476677
-0.65919363 8.23725510 6.44389868
-0.64098382 8.17134476 6.44295216
-0.61355919 8.09481430 6.44323158
-0.69299388 8.15723705 6.43876123
-0.66296166 8.07887840 6.44063663
-0.62555999 7.98838282 6.44519615
-0.71229297 8.06130028 6.42709398
-0.74287868 8.13709164 6.42327213
-0.76908898 8.20278168 6.42108107
-0.71438235 8.22212791 6.43388033
-0.83037943 8.15091515 6.39616871
-0.86319143 8.18883324 6.39487648
-0.79921627 8.24404049 6.42446232
-0.89486653 8.22162247 6.39086437
-0.82777208 8.28452587 6.42595673
-0.92544025 8.25430298 6.38366747
-0.85556000 8.32206440 6.42051601
-0.99018341 8.17465496 6.33921766
-1.02079880 8.20652008 6.32531166
-0.95237094 8.28736591 6.36851215
-1.09066737 8.11712074 6.28826141
-1.10550177 8.14643860 6.25102615
-1.03820503 8.23787975 6.29619646
-1.16394079 8.03885174 6.20220757
-1.09778106 8.16559982 6.20491028
-1.15011239 8.05528164 6.15338230
-1.19536591 7.93763638 6.09290123
-1.19536591 7.93763638 6.09290123
-1.15011239 8.05528164 6.15338230
-1.12574148 8.06625271 6.10623598
-1.17085207 7.95010757 6.04138565
-1.24710214 7.82362080 6.02645540
-1.21915340 7.83768749 5.96647501
-1.13829601 7.96093512 5.98838139
-1.18855584 7.85088539 5.90886927
-1.24800086 7.71586275 5.89267159
-1.20972407 7.72805452 5.82893419
-1.28005099 7.70356512 5.95558691
-1.27496135 7.59483576 5.80977821
-1.23876798 7.60991430 5.73938608
-1.29958820 7.57932234 5.88149786
-1.32994771 7.48746443 5.71390724
-1.29434979 7.50186443 5.63507986
-1.35636044 7.47295141 5.79086018
-1.40929914 7.38668299 5.61534643
-1.36148000 7.39393377 5.52756596
-1.44196820 7.37705088 5.70066833
-1.24141705 7.51619244 5.55500269
-1.30194557 7.40395164 5.44044065
-1.35041952 7.26706648 5.33778334
-1.23664296 7.41890574 5.35863066
-1.27865207 7.28036547 5.24378204
-1.30880928 7.13621712 5.13281536
-1.19300270 7.29544926 5.16297817
-1.20977771 7.15014696 5.05264235
-1.21503997 7.00609970 4.95205736
-1.08907199 7.02296400 4.88989830
-1.10263252 7.16406441 4.98302984
-1.06865966 6.88823938 4.80547428
-1.20190215 6.86669588 4.86685419
-1.16725659 6.72792339 4.79234266
-1.02751958 6.75631905 4.73448706
-1.11814559 6.59987211 4.70984221
-0.96929485 6.63654184 4.65182543
-1.05820048 6.47655916 4.63918209
-0.90539718 6.51604986 4.58279085
-0.85573852 6.40759516 4.49593306
-0.74847424 6.55017138 4.54641294
-0.69924432 6.45122910 4.44935179
-0.65674698 6.35347795 4.35315990
-0.54080349 6.49531078 4.41391468
-0.49786571 6.40393496 4.31154966
-0.45885670 6.30493307 4.21679211
-0.33456737 6.44930124 4.28813696
-0.29302847 6.34715605 4.19882679
-0.25639465 6.24151707 4.10848618
-0.12556913 6.38511181 4.19711828
-0.08919728 6.27865076 4.10783720
-0.05830800 6.16986895 4.01581240
0.07758344 6.32335091 4.11496305
0.10798461 6.21375275 4.02223015
0.13442713 6.09545851 3.93088365
0.29845762 6.14210510 3.94083071
0.27281871 6.26028061 4.03752851
0.31863776 6.00909996 3.85630584
0.29845762 6.14210510 3.94083071
0.46038082 6.18162537 3.96838045
0.48034069 6.04598427 3.88119507
0.31863776 6.00909996 3.85630584
0.49545497 5.90402079 3.79598594
0.33383536 5.86997032 3.77432370
0.64033514 6.08239174 3.91295934
0.65558630 5.94163036 3.81926799
0.79726392 6.11320353 3.95334911
0.81153291 5.96707964 3.86126471
0.94918042 6.13612223 4.00439501
0.96316952 5.98614025 3.91131043
0.97521812 5.83535528 3.81615400
1.11102617 6.00021887 3.96476698
1.12537253 5.84955215 3.86111617
1.13558173 5.69417715 3.76504302
1.27012169 5.85558891 3.91494155
1.27964056 5.69460583 3.82243419
1.29037344 5.53760576 3.72593284
1.42076433 5.69172478 3.88215327
1.42906272 5.52755165 3.79368806
1.43475354 5.36128855 3.71212244
1.56706154 5.51509190 3.85768723
1.57344282 5.34781742 3.77571654
1.57753241 5.17901278 3.70037746
1.71057844 5.33054829 3.84144783
1.71598351 5.16179705 3.76493001
1.71891832 4.99200439 3.69525790
1.84384465 5.13513470 3.84632349
1.85058331 4.96716881 3.77226400
1.72410333 4.82517576 3.62434769
1.85252988 4.79710817 3.70771718
1.85027361 4.62595177 3.65368342
1.97790265 4.76679659 3.79559898
1.97390831 4.59464598 3.74336290
1.96737206 4.42279339 3.69592476
2.08900023 4.56022120 3.84250164
2.07135630 4.38601685 3.80493927
2.07037997 4.21641445 3.75335765
2.18012643 4.34982347 3.90917373
2.18011451 4.18060207 3.85577631
2.17461991 4.01338100 3.80739164
2.27931261 4.14136696 3.96806479
2.27371120 3.97307467 3.91869187
2.26981807 3.81180000 3.86725307
2.16537547 3.85310102 3.76188803
2.26304364 3.65946698 3.81820774
2.15921426 3.70173216 3.71461678
2.26637721 3.51724744 3.76048923
2.36187243 3.46973205 3.86803865
2.35622954 3.61118937 3.93071103
2.41985321 3.35698509 3.77444267
2.50477648 3.29598045 3.89502358
2.44494486 3.41270375 3.98236322
2.56241775 3.17542362 3.81137991
2.47323847 3.23567820 3.68641782
2.65288329 3.12040758 3.93758631
2.58667564 3.24106526 4.01982450
2.74915266 3.07954144 4.06353045
2.66071725 3.19046044 4.14880514
2.82266402 3.03100157 4.20047569
2.71995997 3.13656950 4.28128529
2.89991999 2.90639067 4.12258863
2.94479275 2.84267783 4.27726698
2.87292409 2.97244978 4.34337282
2.97362828 2.69623780 4.21944714
2.98514080 2.62982202 4.38148355
2.95325160 2.76913619 4.43454123
3.00163627 2.49290657 4.33349133
3.04041886 2.43116999 4.49478388
3.00163627 2.49290657 4.33349133
3.00620222 2.56301904 4.54221010
2.98514080 2.62982202 4.38148355
3.01590514 2.36211681 4.28855991
3.05768800 2.30070138 4.45094156
3.08141017 2.23489261 4.61452532
3.06396866 2.36540866 4.65769529
3.05218792 2.17299509 4.41151571
3.08314848 2.10535884 4.57314682
3.01148796 2.23687506 4.25042582
3.08495212 2.05616450 4.36350012
3.11611533 1.98546267 4.52639341
3.04114532 2.12423539 4.20017815
3.15494561 1.95245421 4.31606770
3.18799615 1.87828195 4.48257446
3.10985899 2.02294779 4.14878130
3.22528458 1.84031463 4.27288580
3.25892401 1.76638043 4.44219637
3.18005514 1.91216552 4.10208130
3.30126047 1.72469854 4.23265028
3.32929277 1.64882958 4.40450287
3.26239443 1.79779947 4.06065512
3.37906408 1.60479057 4.19850540
3.40358400 1.52939188 4.37090492
3.34384727 1.67837346 4.02355099
3.45053387 1.47788191 4.16650867
3.47270823 1.40313208 4.33912325
3.41850781 1.54877436 3.99235868
3.51811075 1.34567535 4.13647079
3.54018378 1.27383053 4.30900764
3.48061395 1.41094220 3.96405840
3.57713890 1.20796239 4.10734320
3.59900379 1.13843322 4.27893972
3.54596996 1.27244353 3.93731833
3.64004874 1.06945765 4.07834721
3.65282321 0.99983317 4.24824095
3.61118317 1.13225400 3.91089392
3.69503474 0.92751211 4.04874945
3.70198774 0.85832226 4.21671438
3.67078328 0.98796922 3.88392735
3.72870421 0.77723265 4.01716995
3.74763441 0.71549582 4.18302774
3.72272754 0.83968991 3.85534763
3.78351808 0.63332880 3.98313713
3.79091740 0.57110965 4.14663744
3.77446365 0.69044626 3.82339883
3.82222915 0.54069656 3.78773546
3.83359933 0.48753178 3.94587278
3.77446365 0.69044626 3.82339883
3.82222915 0.54069656 3.78773546
3.87320375 0.39378646 3.74707747
3.88537717 0.34305039 3.90435123
3.87320375 0.39378646 3.74707747
3.91811156 0.24500117 3.70127034
3.92591000 0.19567595 3.85716939
3.91811156 0.24500117 3.70127034
3.96150804 0.04694424 3.80493927
3.95842433 0.09575752 3.65051651
3.95842433 0.09575752 3.65051651
4.00161791 -0.10238276 3.74863720
3.99025393 -0.05584940 3.59544683
3.99025393 -0.05584940 3.59544683
4.03900242 -0.25312057 3.68926954
4.02503681 -0.20845640 3.53743625
4.02503681 -0.20845640 3.53743625
4.05747938 -0.41014457 3.62675881
4.04882383 -0.36512920 3.47725296
4.04882383 -0.36512920 3.47725296
4.06643867 -0.57141888 3.55974770
4.05209827 -0.52807629 3.41535544
4.05209827 -0.52807629 3.41535544
4.05839586 -0.73797935 3.48950982
4.04590750 -0.69693458 3.34667754
4.04590750 -0.69693458 3.34667754
4.04968739 -0.90958196 3.41246247
4.04137707 -0.87031698 3.27377319
4.04137707 -0.87031698 3.27377319
4.03131104 -1.08708966 3.32958674
4.02072668 -1.04817593 3.19262409
4.02072668 -1.04817593 3.19262409
4.05424118 -0.95434725 3.55281258
4.04458570 -1.12836075 3.47026467
4.03108501 -1.30629706 3.38183522
4.04456758 -1.17185211 3.61573982
4.03148365 -1.34406173 3.53082275
4.01731586 -1.51653349 3.44507194
4.02417898 -1.38493991 3.68279886
4.00357103 -1.55170274 3.60169101
3.97886086 -1.71638203 3.52550697
3.98952818 -1.68487382 3.36197042
3.94227409 -1.87646592 3.45500708
3.95606709 -1.84796977 3.28631592
3.91420674 -2.03614497 3.39441919
3.92022514 -2.00684524 3.22402501
3.89240146 -2.19703245 3.34690976
3.88467455 -2.16727996 3.17687273
3.86952496 -2.36077714 3.30811501
3.85991120 -2.33326316 3.14001274
3.83729005 -2.31365442 2.96147537
3.85829759 -2.50471663 3.11192727
3.82662845 -2.48634028 2.94094396
3.79629278 -2.48672128 2.75998354
3.79629278 -2.48672128 2.75998354
3.82662845 -2.48634028 2.94094396
3.82080078 -2.66885448 2.93031216
3.78731585 -2.67346787 2.76051331
3.77422547 -2.50337744 2.57326674
3.81238890 -2.85840464 2.91978741
3.78199387 -2.86541128 2.76153708
3.74387217 -2.89837813 2.59585786
3.76857042 -3.05590796 2.75972748
3.73440695 -3.08692241 2.59841752
3.70281553 -3.13589644 2.43194032
3.70235682 -3.26799607 2.60804939
3.68059325 -3.31310058 2.44754863
3.65194821 -3.36722970 2.28811979
3.65591264 -3.48857236 2.45841289
3.62057686 -3.53642154 2.30798459
3.61988044 -3.41920400 2.13408995
3.59030056 -3.58424067 2.16043735
3.55510163 -3.45522451 1.99812710
3.52254558 -3.61680841 2.03196883
3.42207932 -3.63569093 1.93380666
3.45342708 -3.47797632 1.89355361
3.45342708 -3.47797632 1.89355361
3.42207932 -3.63569093 1.93380666
3.31508303 -3.48588157 1.85297310
3.29274201 -3.63972116 1.88540423
3.16105938 -3.49188828 1.87784410
3.14875484 -3.63665509 1.90703082
3.00492811 -3.50706196 1.92788363
3.00310063 -3.64257240 1.95161152
2.84266567 -3.53362942 1.98394156
2.85099387 -3.65834141 2.00110364
2.82001519 -3.41552520 1.95881450
2.68480206 -3.56273866 2.05919743
2.65574074 -3.45136714 2.03324270
2.60617137 -3.35764575 1.98480475
2.45454049 -3.38311195 2.06905508
2.50969386 -3.47650599 2.12028551
2.38547587 -3.30340934 2.00525856
2.30880308 -3.23887467 1.92681813
2.32139945 -3.39336276 2.16966414
2.24436355 -3.32191086 2.09842062
2.16231561 -3.26326942 2.01296759
2.11993122 -3.32425046 2.21000671
2.02770996 -3.27634788 2.11613035
2.16231561 -3.26326942 2.01296759
2.02770996 -3.27634788 2.11613035
2.08019638 -3.22442698 1.90719748
1.94001877 -3.24035096 2.00512767
1.86049461 -3.22070050 1.86677182
2.00205946 -3.19841909 1.78443813
1.78564966 -3.22506404 1.70717609
1.92985725 -3.19668674 1.64059365
2.07801747 -3.15977311 1.57812452
2.01079798 -3.16707158 1.43421459
1.86185193 -3.20562196 1.48785567
1.80003762 -3.22819519 1.33068871
1.71591210 -3.24030924 1.54337788
1.65074039 -3.26528716 1.37681735
1.58613431 -3.27910972 1.21101296
1.50254440 -3.29323006 1.42253518
1.43487263 -3.32174420 1.25209928
1.37888622 -3.37440276 1.08943212
1.28954005 -3.37465906 1.29495978
1.23366678 -3.44027114 1.13010788
1.17615032 -3.48253059 0.96354741
1.08435166 -3.49085855 1.16928935
1.01408422 -3.50625825 0.99613923
0.95150793 -3.51932478 0.82970965
0.85228604 -3.52593851 1.03148711
0.78241158 -3.53958845 0.86141449
0.72262728 -3.55285716 0.69710416
0.61483318 -3.56450081 0.89389914
0.54832214 -3.58199620 0.72839236
0.49045458 -3.59714627 0.56742162
0.38216645 -3.63764930 0.76444274
0.31279802 -3.63094664 0.60255527
0.25421017 -3.63365483 0.44436446
0.13206978 -3.63417292 0.63845086
0.06425504 -3.63775635 0.48194474
0.00901865 -3.62242794 0.33202845
-0.13021831 -3.60620666 0.52219194
-0.19612218 -3.60287309 0.37616280
-0.24839410 -3.58825874 0.23491977
-0.41031131 -3.58006763 0.42457131
-0.46908963 -3.55594063 0.28495336
-0.51031905 -3.51399112 0.14997870
-0.68447530 -3.49370384 0.34007072
-0.72496057 -3.44425941 0.20466742
-0.76024902 -3.41228700 0.06616864
-0.97133076 -3.33218551 0.11806553
-0.93662572 -3.35493112 0.25993359
-0.99838644 -3.31551123 -0.02680877
-1.16729820 -3.22327805 0.16527750
-1.19091928 -3.21139622 0.01615887
-1.21059918 -3.19691896 -0.13239428
-1.39351213 -3.08343410 -0.10156450
-1.37724888 -3.09870315 0.04822087
-1.40842998 -3.07080793 -0.25082603
-1.59451568 -2.96524024 -0.23084235
-1.58081818 -2.97471142 -0.08164036
-1.60586190 -2.95778155 -0.38096106
-1.78029799 -2.84032011 -0.36870414
-1.77394032 -2.84870148 -0.21798418
-1.78037512 -2.82550955 -0.51981699
-1.94027436 -2.69924974 -0.51382244
-1.94065547 -2.70708942 -0.36085239
-1.93782783 -2.68997502 -0.66747719
-2.06465888 -2.53660035 -0.66363156
-2.07499313 -2.54893446 -0.51013172
-2.05968237 -2.52888536 -0.81803650
-2.18231106 -2.37870121 -0.81758404
-2.19074011 -2.38583851 -0.66264945
-2.17109609 -2.36988497 -0.97226852
-2.28562856 -2.21718884 -0.81738168
-2.27372885 -2.20984888 -0.97223288
-2.25925159 -2.20091963 -1.12645304
-2.36182475 -2.04337168 -0.97237563
-2.34750223 -2.03606749 -1.12667334
-2.32361960 -2.02320933 -1.27847075
-2.40120292 -1.85564888 -1.27828622
-2.32361960 -2.02320933 -1.27847075
-2.42553830 -1.86768568 -1.12702453
-2.34750223 -2.03606749 -1.12667334
-2.38039780 -1.84436238 -1.42855370
-2.30249882 -2.01167297 -1.42863703
-2.44838500 -1.67411113 -1.42864883
-2.47413707 -1.68734431 -1.27929223
-2.41344190 -1.65528822 -1.57238030
-2.45972538 -1.47938764 -1.56965387
-2.48951316 -1.49663317 -1.42519033
-2.42071629 -1.45686221 -1.70858729
-2.45139146 -1.27747929 -1.70444417
-2.48469138 -1.29883802 -1.56467736
-2.40953684 -1.25257266 -1.83866274
-2.41753769 -1.07154667 -1.83206701
-2.45306993 -1.09591770 -1.69605052
-2.38438010 -1.04584241 -1.96585131
-2.38991642 -0.86485231 -1.96245193
-2.42100215 -0.89021736 -1.82772744
-2.35373497 -0.83899319 -2.09448004
-2.33499551 -0.65926498 -2.08978319
-2.37312937 -0.68484432 -1.95782065
-2.30170131 -0.63275701 -2.22143650
-2.28445578 -0.45263594 -2.22151375
-2.31394005 -0.48010832 -2.08768177
-2.25736451 -0.42513385 -2.35422015
-2.23271966 -0.24523899 -2.35664916
-2.25638819 -0.27404481 -2.22177553
-2.20652127 -0.21835597 -2.48936796
-2.17531061 -0.03901478 -2.49343944
-2.19560361 -0.06805272 -2.35841703
-2.15583277 -0.01199483 -2.62762237
-2.12347913 0.16851908 -2.63486695
-2.13440847 0.13793935 -2.49768353
-2.12169933 0.19772373 -2.77131820
-2.08349991 0.37699351 -2.77930665
-2.07895780 0.34372306 -2.64047456
-2.09230995 0.40735894 -2.91748405
-2.05334878 0.58796215 -2.92487741
-2.03562117 0.55166769 -2.78519416
-2.09337568 0.62295890 -3.06014967
-2.05215812 0.80047852 -3.06791234
-2.01518512 0.76474959 -2.92778850
-2.07860065 0.82706988 -3.21359038
-2.00608325 0.99287432 -3.22912121
-1.98283720 0.96705681 -3.08026457
-2.02474546 1.00876844 -3.38219261
-2.09738779 0.84413666 -3.36348248
-2.03841901 1.01506662 -3.53965116
-1.95662093 1.17070353 -3.56060505
-1.94417369 1.16597700 -3.40047956
-1.96709204 1.17089403 -3.72261715
-2.04778886 1.01464391 -3.69921088
-1.96999109 1.16376841 -3.88564801
-1.87229896 1.31714928 -3.74270844
-1.87366819 1.30852950 -3.90792966
-1.87188232 1.29511786 -4.07455540
-1.96947324 1.15226758 -4.04960108
-1.87187052 1.28067625 -4.24222946
-1.96539545 1.13514721 -4.21392918
-1.87182879 1.26512158 -4.40989065
-1.96006179 1.11565757 -4.37918615
-1.86971545 1.24624515 -4.57805252
-1.95740664 1.09581673 -4.54499626
-1.86455429 1.22218966 -4.74573803
-1.95757949 1.07401156 -4.71047926
-1.85813725 1.19428277 -4.91358471
-1.95435297 1.04659271 -4.87492704
-1.84963655 1.16091704 -5.07963896
-1.94658458 1.01260793 -5.03829050
-1.83163524 1.11855662 -5.24255037
-1.92913663 0.96927124 -5.19907665
-1.80518675 1.06881464 -5.40249729
-1.91544509 0.92539293 -5.35971975
-1.77944064 1.01640582 -5.56227732
-1.90018821 0.88085377 -5.52110147
-1.76421916 0.97133702 -5.72683191
-1.87809110 0.83154643 -5.68200684
-1.74078286 0.92101753 -5.89082623
-1.85369051 0.78167945 -5.84607840
-1.72439468 0.87749046 -6.06049395
-1.83153403 0.73576522 -6.01499081
-1.69655943 0.82890928 -6.23222780
-1.80049586 0.68856514 -6.18647385
-1.65294874 0.77416104 -6.40677691
-1.75647473 0.63661468 -6.35889244
-1.59428358 0.72588944 -6.58540344
-1.70192885 0.58758712 -6.53631687
-1.50797331 0.68522561 -6.76271486
-1.63931084 0.54679227 -6.71517563
-1.39864945 0.64046621 -6.92878151
-1.53907084 0.50615817 -6.88646889
-1.42000222 0.46542296 -7.05057049
-1.26629996 0.59351617 -7.08460236
-1.27590191 0.42028850 -7.19960594
-1.11025810 0.54866737 -7.23212624
-0.92422593 0.48651382 -7.35009336
-1.11093080 0.36979055 -7.33431292
-0.72342473 0.41190690 -7.44274950
-0.92089826 0.30529153 -7.43790436
-0.51958764 0.31987005 -7.51503515
-0.72335929 0.22476152 -7.52070761
-0.52872521 0.12478953 -7.58382607
-0.32704297 0.20831978 -7.57132435
-0.34154409 0.00850675 -7.63493156
-0.15113060 0.08454237 -7.63356161
-0.16344111 -0.12349749 -7.68636894
0.00935794 -0.05347423 -7.70134115
0.00410753 -0.27428886 -7.73146248
0.15832180 -0.20836711 -7.75976801
0.29178447 -0.37293932 -7.81941509
0.32062003 -0.14086787 -7.79780102
0.43580157 -0.31853634 -7.85703754
0.54422063 -0.50470543 -7.88344479
0.58274740 -0.27071714 -7.89585590
0.68400520 -0.45945194 -7.92264366
0.63943624 -0.70196474 -7.90591049
0.76745212 -0.65118694 -7.94763994
0.83445728 -0.87257898 -7.94226408
0.94569206 -0.82423604 -7.99392939
0.89895040 -0.60580254 -7.99419641
0.98712975 -1.05781949 -7.93235874
0.87480563 -1.10759127 -7.87233019
1.10084689 -0.99302286 -7.99848938
1.06849325 -0.76393974 -8.03184795
0.98712975 -1.05781949 -7.93235874
1.02669227 -0.57080579 -8.04098034
1.18578196 -0.70503044 -8.06957817
1.14913630 -0.54239887 -8.08214378
1.20930755 -0.88897908 -8.05949306
1.32193542 -0.86527491 -8.09552002
1.29902291 -0.67150992 -8.10302067
1.26745498 -0.51472408 -8.11763477
1.42441356 -0.63791221 -8.15100098
1.39082766 -0.47550082 -8.15889454
1.08942938 -0.36352786 -8.06198120
1.21517718 -0.33371013 -8.11165237
1.34161532 -0.29568335 -8.15061951
1.52689767 -0.43243796 -8.20276642
1.47906649 -0.25253123 -8.18721199
1.14173698 -0.14055830 -8.08156109
1.27395546 -0.10249584 -8.12837982
1.41717494 -0.06357618 -8.13964844
1.56525779 -0.02746032 -8.12810612
1.47906649 -0.25253123 -8.18721199
1.41717494 -0.06357618 -8.13964844
1.62978053 -0.21088518 -8.19915295
1.19919968 0.09610279 -8.07295322
1.34729445 0.13558201 -8.09365082
1.34729445 0.13558201 -8.09365082
1.50220525 0.17050137 -8.09913254
1.67090273 0.18549660 -8.07495308
1.72080541 -0.00089279 -8.10995579
1.27501512 0.33300799 -8.02960396
1.44637346 0.35630143 -8.04395676
1.62524450 0.36486757 -8.03077126
1.80753827 0.35101533 -7.97884989
1.84188020 0.18027000 -8.02128220
1.40077472 0.53900594 -7.98583364
1.58695579 0.53429729 -7.97019482
1.77551198 0.51661736 -7.92990637
1.96821725 0.49080580 -7.87548590
1.99107623 0.32639438 -7.91197586
1.55641770 0.70575696 -7.90986872
1.74903965 0.68249321 -7.87918806
1.94825161 0.65515190 -7.84239292
2.14059949 0.61035675 -7.75586319
2.15682125 0.45432088 -7.79405642
1.72572839 0.84716666 -7.82330275
1.92649984 0.81284857 -7.79004431
2.12096715 0.76132673 -7.70715094
2.29906416 0.70904887 -7.58565331
2.30877328 0.56021595 -7.62533474
2.10482287 0.90979052 -7.65870714
1.90689719 0.96533042 -7.72976589
2.28313422 0.84913701 -7.53085756
2.46112442 0.65323502 -7.43118954
2.45155835 0.78994799 -7.37813711
2.27493763 0.98760015 -7.47871113
2.10000730 1.05641496 -7.60931540
2.43982530 0.92260110 -7.32014465
2.60212350 0.86132252 -7.14675665
2.60074234 0.72749668 -7.19973040
2.44596839 1.05786145 -7.27465391
2.27725315 1.12726569 -7.43217087
2.61483884 0.99565428 -7.10221767
2.76178432 0.94372767 -6.90732098
2.74081278 0.80526453 -6.95272350
2.64696622 1.13065875 -7.07441235
2.47960210 1.19349098 -7.25229406
2.79440594 1.08345866 -6.87204504
2.89149094 1.04181266 -6.65853453
2.86894751 0.89662284 -6.70091820
2.81702685 1.22838056 -6.83974457
2.68353438 1.26516902 -7.05468369
2.90827775 1.18910384 -6.61970997
2.97861671 1.13427210 -6.39907408
2.96641326 0.98760611 -6.44473267
2.92249322 1.33669245 -6.58626127
2.83736777 1.37874925 -6.82226753
2.98609328 1.27774155 -6.35378456
3.04585385 1.19825327 -6.12800550
3.04375887 1.06122482 -6.18067026
2.92901158 1.48126316 -6.54879379
2.98831391 1.41916311 -6.30762053
3.03910351 1.33541262 -6.07646561
3.09446502 1.21583188 -5.84138250
3.10241771 1.08954835 -5.89971399
2.98455143 1.55766201 -6.25708723
3.03173995 1.46627390 -6.02040148
3.07389784 1.33600187 -5.77957392
3.13523579 1.06800508 -5.59871483
3.10897183 1.17863870 -5.53328085
3.04686618 1.44920719 -5.71305704
3.01867914 1.59012270 -5.95632553
3.07586837 1.28677797 -5.46888924
3.18872213 1.03453231 -5.29031610
3.14168286 1.13564122 -5.22779322
3.04041290 1.39282179 -5.40302134
3.01882219 1.55994785 -5.64401579
3.08801222 1.23401201 -5.16969347
3.23526740 1.01520336 -4.97502995
3.18632936 1.11836016 -4.92256689
3.02897763 1.32990026 -5.11308193
2.99806452 1.49536550 -5.33613443
3.13026524 1.22075510 -4.87467051
3.27204394 1.02491844 -4.65974951
3.21322989 1.13579011 -4.62288380
2.96584177 1.42216337 -5.05532742
3.06776619 1.31873882 -4.82725048
3.14785004 1.24432230 -4.58708286
3.27099633 1.06734431 -4.36940575
3.21121192 1.19025862 -4.34707642
2.99927902 1.41871071 -4.78419971
3.07657671 1.35387838 -4.55701494
3.13811707 1.30491626 -4.32479525
3.16955376 1.27320552 -4.10231352
3.24410748 1.15026152 -4.11720753
3.00127935 1.46119606 -4.52556038
3.05958724 1.41871071 -4.30657959
3.09104800 1.39414334 -4.08887196
3.18744230 1.25484693 -3.89547610
3.10218573 1.37727308 -3.88454676
2.97543192 1.52733219 -4.28703022
3.00701165 1.50974751 -4.07647800
3.02303672 1.50431848 -3.87459922
3.11871076 1.37049866 -3.69160342
3.02816820 1.49637151 -3.68381095
2.91267085 1.61519611 -4.06871557
2.92241001 1.61574972 -3.86784911
2.93255353 1.61941659 -3.67880440
2.92964864 1.60891581 -3.49775505
3.02407861 1.47987616 -3.50138640
2.81550884 1.72109711 -3.87540913
2.81944966 1.72680593 -3.68600750
2.82378340 1.72719872 -3.50080276
2.82759285 1.71529901 -3.31791973
2.92917848 1.59147406 -3.31817555
2.70501232 1.82939720 -3.69615126
2.71160817 1.83496892 -3.50872016
2.71757865 1.82689095 -3.32102084
2.72110271 1.80562150 -3.13576865
2.83609986 1.69679165 -3.13545942
2.59042001 1.92602360 -3.51325035
2.59515238 1.92032683 -3.32434249
2.59941483 1.90331352 -3.13698912
2.59727192 1.86929905 -2.95270085
2.72209096 1.77488101 -2.95201635
2.46069574 1.99284434 -3.32540226
2.46283889 1.97531891 -3.13972735
2.45665979 1.93695891 -2.95783830
2.58642554 1.81810451 -2.77413368
2.45080209 1.89810479 -2.77838969
2.31750011 2.03087711 -3.14226341
2.31703591 2.00919056 -2.96129107
2.31048775 1.97245598 -2.78399158
2.43613434 1.84078491 -2.60729337
2.29290295 1.91114151 -2.61734772
2.16602421 2.05808163 -2.96804142
2.15680909 2.01927495 -2.79702234
2.14048076 1.96210980 -2.63217640
2.27096081 1.84120154 -2.45807362
2.12076473 1.89957511 -2.47382498
1.99735641 2.04967594 -2.81272578
1.98271227 1.99963045 -2.65100503
1.96432412 1.94264996 -2.49390388
2.09876299 1.83214736 -2.32281303
1.94376910 1.88116300 -2.34181452
1.82137263 2.02775764 -2.67023873
1.80435336 1.97352719 -2.51477456
1.78475666 1.91740370 -2.36297083
1.92249370 1.81817603 -2.19494009
1.76421356 1.85881603 -2.21578097
1.64197195 1.99480855 -2.53572226
1.62369668 1.94620979 -2.38315105
1.60376656 1.89137816 -2.23566365
1.74355710 1.80018055 -2.07219863
1.58368170 1.83589184 -2.09101558
1.46092820 1.95974660 -2.40293241
1.44223630 1.91817188 -2.25137901
1.42309201 1.86490583 -2.10558224
1.56600177 1.79136443 -1.94470656
1.40540004 1.82092631 -1.95933867
1.27923572 1.92685103 -2.26862431
1.42309201 1.86490583 -2.10558224
1.44223630 1.91817188 -2.25137901
1.26222241 1.88668740 -2.11845827
1.40540004 1.82092631 -1.95933867
1.24588180 1.85085714 -1.96839285
1.38856542 1.78385198 -1.81267869
1.22905922 1.81584847 -1.82047069
1.10226953 1.91085577 -2.12500620
1.08615530 1.87332308 -1.97506607
1.06995761 1.84643412 -1.82473302
1.21252799 1.78808451 -1.67327499
1.05365276 1.82117033 -1.67625141
0.92605954 1.88603854 -1.97879279
0.91044533 1.86523926 -1.82589388
0.89297366 1.83329618 -1.67770982
1.03707409 1.79773390 -1.52874613
0.87637722 1.81686056 -1.52829945
0.75077826 1.87575793 -1.82492948
0.73335427 1.84776163 -1.67529309
0.71632916 1.82963526 -1.52493608
0.85973305 1.80421662 -1.38008559
0.69888735 1.81250894 -1.37554967
0.57417530 1.85392284 -1.66978657
0.55684662 1.83308792 -1.51882255
0.53876787 1.81547928 -1.36870992
0.68070138 1.79863286 -1.22743702
0.51993901 1.80109727 -1.21979356
0.39794147 1.82365263 -1.51136374
0.37957698 1.80412138 -1.36071527
0.35997427 1.78998923 -1.21129894
0.50022912 1.78823912 -1.07214534
0.33971676 1.77828014 -1.06279337
0.22098142 1.78623903 -1.35156560
0.20089653 1.77253568 -1.20144093
0.17990683 1.76402903 -1.05242348
0.31859607 1.77348816 -0.91527015
0.15869686 1.75404024 -0.90451926
0.04175329 1.75592732 -1.19035673
0.02059692 1.74498594 -1.04124999
-0.00069045 1.73431838 -0.89304227
0.13706420 1.74700391 -0.75744247
-0.02260882 1.72843695 -0.74616176
-0.13787958 1.72036493 -1.02971947
-0.15930389 1.70953667 -0.88146985
-0.18225804 1.71137023 -0.73478001
-0.04450335 1.72649038 -0.59940648
-0.20460497 1.71469784 -0.58807230
-0.31824473 1.68670762 -0.87028450
-0.34174058 1.68971372 -0.72366601
-0.36420655 1.69611311 -0.57729167
-0.22645783 1.72193050 -0.44179907
-0.38533321 1.70244086 -0.43116724
-0.50248516 1.67419457 -0.71402240
-0.52465940 1.67791522 -0.56784451
-0.54455972 1.67785573 -0.42169040
-0.40364414 1.69938111 -0.28475124
-0.56275755 1.67806995 -0.27574462
-0.68140960 1.63765609 -0.55904621
-0.70113140 1.63722754 -0.41356471
-0.71979940 1.63878727 -0.26814285
-0.57656223 1.66699779 -0.13040599
-0.73225290 1.62770903 -0.12294713
-0.85338122 1.57702649 -0.40614751
-0.87185889 1.57827067 -0.26139233
-0.88522893 1.57315707 -0.11641685
-1.01863205 1.50187790 -0.25563592
-1.03256762 1.49860382 -0.11120217
-1.16452420 1.41899049 -0.25166538
-1.17985272 1.41831183 -0.10761859
-1.18947256 1.41356754 0.03710096
-1.32432234 1.33016813 -0.10508264
-1.33669221 1.33041823 0.03924990
-1.35371733 1.34296679 0.18327291
-1.48439407 1.24309015 0.04066071
-1.49612725 1.24655449 0.18583263
-1.51259279 1.25985920 0.33013546
-1.63483441 1.14222515 0.18767206
-1.65124631 1.15344620 0.33311188
-1.66417575 1.16294098 0.47853377
-1.78647685 1.04159820 0.33540967
-1.80396640 1.05339086 0.48122451
-1.91685021 0.92161882 0.33827892
-1.93469071 0.93220299 0.48475450
-2.05460477 0.80006778 0.48979652
-2.04099083 0.79514480 0.34149346
-2.15353489 0.65871161 0.34584495
-2.16896486 0.66383702 0.49483863
-2.25629282 0.51623046 0.35116088
-2.26874042 0.51821870 0.50112474
-2.33990669 0.36305195 0.35811380
-2.35313964 0.36565930 0.50846463
-2.41248369 0.20590886 0.36554295
-2.42634177 0.20891505 0.51626283
-2.48726916 0.05093859 0.37227559
-2.49326944 0.05062309 0.52354318
-2.54353547 -0.11156204 0.37974045
-2.54919648 -0.11118701 0.53087711
-2.55409551 -0.11358600 0.67913848
-2.59305692 -0.27616996 0.53847295
-2.59155083 -0.27997977 0.68544859
-2.58784819 -0.28793278 0.82749528
-2.62056494 -0.44642711 0.68995482
-2.62100554 -0.45356461 0.83128721
-2.60952258 -0.46477380 0.96758932
-2.63391137 -0.61789876 0.83151931
-2.61895180 -0.62838763 0.96609527
-2.65716910 -0.64146006 1.09064043
-2.62742853 -0.79065013 0.96027923
