5.12301302 1.42303848 0.65801179
5.28846216 1.46007943 0.36426139
5.07389355 1.45599818 0.38369417
5.24299335 1.47704160 0.09305852
5.03137684 1.47403538 0.11114895
5.20208693 1.47677326 -0.18152633
4.99787951 1.47607708 -0.16348915
4.80360317 1.47092271 -0.15532963
4.80360317 1.47092271 -0.15532963
4.99787951 1.47607708 -0.16348915
4.96497202 1.45642829 -0.44032970
4.77987528 1.45572996 -0.43055958
4.63552380 1.46276212 -0.15264596
4.61007833 1.44724786 -0.41960779
4.74927664 1.42352176 -0.69918525
4.56906509 1.42040706 -0.68125659
4.42777300 1.41300011 -0.66096270
4.52225399 1.38100493 -0.93522710
4.35771751 1.37751544 -0.90022582
4.25888872 1.37343633 -0.86989552
4.29609013 1.32039773 -1.13938034
4.16349506 1.32404697 -1.09842193
4.08270311 1.32496023 -1.06191742
4.24809837 1.24771249 -1.38658893
4.48827314 1.31481540 -1.18001926
4.46169996 1.24508107 -1.42158818
4.21562052 1.17008793 -1.61994600
4.43915367 1.17099905 -1.65355074
4.20091152 1.09289122 -1.83290279
4.43453693 1.08704066 -1.86806393
4.20622587 0.98890913 -2.03721786
3.98274636 0.99288189 -2.00436473
3.75894499 0.98600942 -1.98783064
3.98253202 0.86941278 -2.20664001
3.74767160 0.86457992 -2.18318033
3.49370050 0.85014075 -2.17518139
3.49064016 0.95680749 -2.00409651
3.74128318 0.72838771 -2.37375236
3.49037218 0.72490025 -2.35260224
3.22899246 0.71679294 -2.33547640
3.22163844 0.82909733 -2.17496634
3.48167539 0.57807779 -2.53098798
3.22351718 0.58070922 -2.50532889
2.96186948 0.58006418 -2.47988248
2.96476817 0.70643300 -2.32586813
3.20923781 0.42272204 -2.67550039
2.94796562 0.42647979 -2.64431214
2.68341923 0.42680129 -2.61462498
2.69877195 0.57512486 -2.45921373
2.92321801 0.25024039 -2.80992126
2.65732932 0.24905880 -2.77610159
2.39031363 0.24723420 -2.74705935
2.41892624 0.42229196 -2.59014535
2.62485170 0.05762869 -2.93022466
2.35370207 0.05972157 -2.90494013
2.08255267 0.05870175 -2.87987065
2.12378073 0.24841374 -2.72682095
2.31478262 -0.14921124 -3.03689122
2.04008985 -0.15087409 -3.01069355
1.76507521 -0.15178742 -2.98696542
1.81349659 0.05429894 -2.85420942
1.99564099 -0.36775041 -3.12616372
1.71676111 -0.36850193 -3.10034299
1.44018972 -0.36936203 -3.07076406
1.49274468 -0.15345228 -2.95845985
1.66893005 -0.59241247 -3.19713306
1.38806403 -0.59144592 -3.16857433
1.11052644 -0.58489704 -3.13990664
1.16646349 -0.36254480 -3.04429841
1.33679748 -0.81728756 -3.25344610
1.05512643 -0.81149024 -3.22434855
0.77694452 -0.80123681 -3.19165730
0.83658516 -0.57432002 -3.10791183
1.00058496 -1.04184115 -3.29370618
0.71875268 -1.03282261 -3.26224971
0.44175190 -1.01601815 -3.23605204
0.50300318 -0.78405762 -3.15697765
0.66431856 -1.26746774 -3.31802392
0.38866016 -1.25775087 -3.27427435
0.11455806 -1.24330962 -3.23191929
0.17038774 -1.00012910 -3.18746948
0.33529964 -1.49910676 -3.31904578
0.06039223 -1.48160613 -3.28973341
-0.21446089 -1.45782495 -3.25333762
-0.16061760 -1.22140825 -3.19444847
0.01197104 -1.72478664 -3.32639956
-0.26035967 -1.69789267 -3.29451299
-0.30330551 -1.94327462 -3.32027888
-0.57660228 -1.90301239 -3.29644394
-0.61616617 -2.15107894 -3.31088543
-0.89263040 -2.09841537 -3.30149007
-0.93788463 -2.34433579 -3.30626774
-1.23013091 -2.28238511 -3.30326128
-1.17714667 -2.04296255 -3.28672719
-1.48345792 -1.99153554 -3.27448940
-1.54009283 -2.22478414 -3.28334618
-1.83255422 -1.96463954 -3.24217081
-1.88408959 -2.18951464 -3.25993967
-2.22142935 -1.96013021 -3.21092916
-2.25492716 -2.18720675 -3.23814487
-1.94652188 -2.41771960 -3.27282453
-2.29352450 -2.42013383 -3.25682712
-2.64997554 -2.47027469 -3.21012235
-2.33158565 -2.65821528 -3.25876021
-2.66747618 -2.70561814 -3.21726298
-2.99574327 -2.77803540 -3.14414787
-2.67622590 -2.94557738 -3.22048426
-2.98516822 -3.01536512 -3.14108825
-3.28240681 -3.10587239 -3.04097056
-2.96122527 -3.25698924 -3.13185477
-3.24133992 -3.34212947 -3.02765775
-3.50798035 -3.43999267 -2.88802934
-3.19232798 -3.57768607 -3.00017190
-3.44425941 -3.66953683 -2.86075830
-3.67396617 -3.77212429 -2.68451905
-3.37506294 -3.89607668 -2.81942320
-3.60364199 -4.00038242 -2.66696501
-3.78272700 -4.10468626 -2.45577979
-3.50942993 -4.21908331 -2.62670279
-3.68024683 -4.31946945 -2.43081689
-3.80398440 -4.41244650 -2.19767475
-3.57739115 -4.53285599 -2.41041851
-3.68948054 -4.61413240 -2.18114042
-3.86276698 -4.48422050 -1.92668676
-3.74724221 -4.68816090 -1.92142594
-3.47045588 -4.73631334 -2.38577724
-3.56552792 -4.80389929 -2.16530466
-3.61679411 -4.87035704 -1.92051256
-3.37801552 -4.94443941 -2.36457181
-3.45419025 -4.99726248 -2.15692925
-3.49117804 -5.04890490 -1.92572021
-3.29802871 -5.15455151 -2.34224033
-3.36137390 -5.19712162 -2.15005875
-3.39025474 -5.23469925 -1.93811977
-3.29765296 -5.40336943 -2.15027380
-3.31547570 -5.42913771 -1.95304430
-3.39025474 -5.23469925 -1.93811977
-3.31547570 -5.42913771 -1.95304430
-3.29647183 -5.45383167 -1.73219514
-3.26007557 -5.63372087 -1.95841157
-3.23505926 -5.65100622 -1.75452662
-3.22367835 -5.47165442 -1.51027310
-3.16983533 -5.66614389 -1.54650712
-3.06332922 -5.67575407 -1.35502183
-3.10777855 -5.48416185 -1.30407810
-2.91382408 -5.67553902 -1.20116913
-2.93599486 -5.48244429 -1.15371299
-2.72137308 -5.66458750 -1.10824525
-2.72985482 -5.47702169 -1.05585182
-2.51201177 -5.65363789 -1.05483198
-2.51179671 -5.47224379 -0.99540430
-2.29980564 -5.64955616 -1.03292859
-2.30195260 -5.86761427 -1.07496214
-2.50712657 -5.87352037 -1.08747017
-2.09833550 -5.87255335 -1.08564556
-2.29959059 -6.11713076 -1.08773839
-2.10209322 -6.12389469 -1.11312926
-1.91313183 -5.88307571 -1.15859914
-1.93326235 -6.12979841 -1.19665980
-1.79519117 -6.13403940 -1.30681610
-1.82493114 -6.38602591 -1.30842566
-1.94990385 -6.38538074 -1.20879102
-1.70339465 -6.38951349 -1.40032983
-1.67005777 -6.14091206 -1.41729391
-1.60580027 -6.39332628 -1.50329411
-1.58373654 -6.14660072 -1.55219805
-1.55974066 -6.40180826 -1.63111079
-1.53204036 -6.15320539 -1.69778359
-1.55759346 -6.40943050 -1.75994921
-1.51287591 -6.16023779 -1.84020329
-1.55732477 -6.41812754 -1.88475966
-1.52200198 -6.16270685 -1.95997000
-1.41184568 -5.92467880 -2.02932763
-1.51963985 -6.17027617 -2.07135916
-1.40905440 -5.93015432 -2.14050364
-1.27565396 -5.69309282 -2.22145605
-1.41104031 -5.93933535 -2.23471570
-1.27672744 -5.69464970 -2.33043051
-1.19486177 -5.43311024 -2.29945540
-1.17693162 -5.43133879 -2.43231988
-1.28284693 -5.70034027 -2.42147684
-1.16356504 -5.44110918 -2.56486082
-1.31307006 -5.71354675 -2.50436211
-1.21558321 -5.43692112 -2.64576197
-1.37491226 -5.70238018 -2.56733036
-1.28773201 -5.41952896 -2.71769571
-1.15766025 -5.10908413 -2.72950554
-1.28773201 -5.41952896 -2.71769571
-1.24033058 -5.09013319 -2.80680847
-1.36680651 -5.40143681 -2.78673172
-1.33518767 -5.07177496 -2.87015390
-1.33083904 -4.76809359 -2.94192576
-1.47282875 -5.05427408 -2.91186380
-1.48367298 -4.74484825 -2.99260306
-1.48361921 -4.46317720 -3.03914595
-1.65669119 -4.72214031 -3.01794100
-1.67456698 -4.44132900 -3.07124758
-1.66817892 -4.18032408 -3.12347913
-1.87372863 -4.43069839 -3.07892466
-1.88757861 -4.15906572 -3.12841868
-1.88194191 -3.90047956 -3.17646456
-2.10880351 -4.15418148 -3.12450099
-2.12147284 -3.89269567 -3.16298985
-2.12233186 -3.64038801 -3.21774650
-1.86766243 -3.64962173 -3.22751641
-2.11460114 -3.38808036 -3.25054646
-1.84366667 -3.40139318 -3.25666523
-2.09103489 -3.13716936 -3.26874542
-1.80582047 -3.15724635 -3.27464914
-2.05377889 -2.89039087 -3.27749562
-1.74961495 -2.92034650 -3.28785563
-2.00363970 -2.65236449 -3.27701235
-1.68390810 -2.68484306 -3.29301000
-1.61256421 -2.45486689 -3.28898191
-1.29787838 -2.51402426 -3.29241824
-2.36196971 -2.89892817 -3.25977993
-2.37952352 -3.14688635 -3.24925828
-2.67144823 -3.18768501 -3.20330524
-2.38601923 -3.39919400 -3.22499371
-2.65770531 -3.43671608 -3.18258548
-2.92853308 -3.49904132 -3.10962987
-2.63499808 -3.68741417 -3.14693904
-2.89063358 -3.74415517 -3.07495189
-3.13966560 -3.81340647 -2.96549201
-2.84468102 -3.98765945 -3.02760434
-3.07470989 -4.04348898 -2.90649652
-3.30688596 -4.12465620 -2.78662324
-3.01254582 -4.27942228 -2.86650252
-3.22861743 -4.35275269 -2.75360823
-3.41242599 -4.43542337 -2.58869743
-3.14599991 -4.57977629 -2.70835543
-3.32578230 -4.65777540 -2.56636405
-3.07449532 -4.81334591 -2.67367578
-3.24708390 -4.87985897 -2.54344273
-3.01072073 -5.04536152 -2.63255548
-3.17284155 -5.09936714 -2.50430894
-2.97051287 -5.28489304 -2.59390306
-3.11862230 -5.32633495 -2.47220540
-3.23189187 -5.36826229 -2.32511663
-3.07895112 -5.55754566 -2.44262648
-3.19748187 -5.59249210 -2.31239343
-3.25599527 -5.61831331 -2.14468956
-3.14369178 -5.81065845 -2.28437114
-3.18776488 -5.82863998 -2.12611580
-3.26007557 -5.63372087 -1.95841157
-3.21036506 -5.84415483 -1.95701694
-3.16044068 -6.05163765 -2.11419940
-3.19018078 -6.06505919 -1.94976974
-3.21036506 -5.84415483 -1.95701694
-3.19018078 -6.06505919 -1.94976974
-3.19479752 -5.85972404 -1.76547837
-3.17665291 -6.07762003 -1.76708806
-3.13290167 -5.87325191 -1.56937718
-3.12490296 -6.09055853 -1.57646263
-3.03251576 -5.88318205 -1.38712537
-3.01968575 -6.10370922 -1.40167320
-2.88896918 -5.88726282 -1.23949814
-2.87603164 -6.11342621 -1.25522757
-2.70897222 -5.88055277 -1.13986349
-2.69796753 -6.11525106 -1.15210330
-2.50106049 -6.11557245 -1.09858167
-2.69732308 -6.36068630 -1.15978062
-2.50127506 -6.37077951 -1.10674214
-2.30125475 -6.37953043 -1.09509218
-2.51244140 -6.63307095 -1.09992504
-2.30882406 -6.64788628 -1.08660996
-2.11594367 -6.65089273 -1.12579918
-2.10638809 -6.38623857 -1.12483263
-1.96337807 -6.64729691 -1.20879102
-1.97502708 -6.91200399 -1.19300866
-2.11943269 -6.92300892 -1.10437894
-1.85289979 -6.90014076 -1.27938354
-1.84511602 -6.64225101 -1.30112529
-1.74145544 -6.88510990 -1.34927964
-1.72996712 -6.63564920 -1.37816012
-1.64874601 -6.87555504 -1.42421961
-1.64021027 -6.63784790 -1.46958089
-1.60880637 -6.89273214 -1.52702010
-1.59796274 -6.64971304 -1.58209836
-1.59925079 -6.91372204 -1.63846648
-1.58497143 -6.66404581 -1.69606757
-1.58835340 -6.93240452 -1.75404334
-1.57187295 -6.67730522 -1.81325603
-1.58545458 -6.94840193 -1.87359500
-1.56263936 -6.69061804 -1.92979956
-1.55313754 -6.42714596 -1.99658096
-1.55437231 -6.70124865 -2.03866768
-1.53354347 -6.43648624 -2.08993483
-1.48995352 -6.18739986 -2.16079545
-1.52490067 -6.45189381 -2.17518139
-1.47889483 -6.20264530 -2.24308896
-1.41351008 -5.95114470 -2.31915736
-1.49822056 -6.21230936 -2.32135868
-1.42161584 -5.96220303 -2.39812350
-1.53633511 -6.21230936 -2.39044809
-1.45747578 -5.96209431 -2.46608639
-1.59334588 -6.20323753 -2.45207524
-1.51657987 -5.95318460 -2.52787519
-1.44593418 -5.68579292 -2.62992430
-1.44593418 -5.68579292 -2.62992430
-1.51657987 -5.95318460 -2.52787519
-1.58706474 -5.94148111 -2.59465456
-1.52436411 -5.66952658 -2.69804692
-1.47916353 -5.37014008 -2.82983851
-1.63629174 -5.63839197 -2.74657607
-1.61900604 -5.33342218 -2.86065197
-1.63097715 -5.02270889 -2.94981813
-1.78332770 -5.29557467 -2.88867426
-1.80544460 -4.99796104 -2.96592212
-1.84151900 -4.70947266 -3.02642274
-1.99397707 -4.97407103 -2.96162796
-2.03928518 -4.69755411 -3.01708269
-2.08088899 -4.42436457 -3.07049608
-2.24612284 -4.68869686 -2.97869849
-2.29497409 -4.42527819 -3.03978896
-2.33400106 -4.16518688 -3.09642339
-2.50997162 -4.43955755 -2.97612238
-2.56279492 -4.18891478 -3.04489017
-2.60252023 -3.93644524 -3.09819484
-2.36100292 -3.90697527 -3.14575744
-2.37861109 -3.65166140 -3.19052887
-2.79024720 -4.22917509 -2.97134471
-2.73157215 -4.47165918 -2.91315174
-2.94930816 -4.51836157 -2.83214641
-2.67982292 -4.71789932 -2.87718606
-2.88564086 -4.75687361 -2.78887796
-2.63188457 -4.96553564 -2.82855034
-2.83544779 -5.00069904 -2.74662924
-2.59377003 -5.21328068 -2.77765775
-2.79862189 -5.24468422 -2.70545578
-2.57986641 -5.47057915 -2.73793435
-2.77269292 -5.49006605 -2.66020107
-2.94173884 -5.52404737 -2.56233788
-2.76329851 -5.74489641 -2.62364340
-2.92686868 -5.76615477 -2.53705359
-3.04346681 -5.78800344 -2.41068673
-2.91935301 -6.01287842 -2.50758338
-3.03477025 -6.02452850 -2.39173627
-3.11545491 -6.03794765 -2.26316595
-3.04486227 -6.26378965 -2.39404416
-3.13848448 -6.27044678 -2.26552916
-3.18926787 -6.28113031 -2.11205125
-3.17144585 -6.50256920 -2.27583575
-3.22953033 -6.51024628 -2.11285591
-3.19506574 -6.29149008 -1.94300580
-3.23554254 -6.51770687 -1.93452382
-3.19506574 -6.29149008 -1.94300580
-3.23554254 -6.51770687 -1.93452382
-3.18373895 -6.30147552 -1.76284695
-3.21396208 -6.52758503 -1.75243378
-3.12925148 -6.31425190 -1.57775080
-3.15603924 -6.53998518 -1.56771231
-3.02210140 -6.32863808 -1.40698719
-3.04942560 -6.55877590 -1.39882672
-2.88199019 -6.34678316 -1.25801861
-2.90174532 -6.58261013 -1.25699878
-2.71417952 -6.61004066 -1.15843737
-2.94313431 -6.81977844 -1.24330914
-2.74821377 -6.85966396 -1.13954210
-2.53208899 -6.89584684 -1.07818329
-2.80060768 -7.10209274 -1.11216474
-2.56666017 -7.15121412 -1.04978418
-2.31499791 -6.92177391 -1.06411886
-2.32101011 -7.18868256 -1.03641796
-2.10558271 -7.18723297 -1.07662690
-2.31854033 -7.42300653 -1.02246010
-2.07691622 -7.43733883 -1.08768523
-1.94818628 -7.17257833 -1.15736425
-1.89300072 -7.42880392 -1.16176701
-1.81800652 -7.15185690 -1.22484398
-1.74768233 -7.39842033 -1.19832468
-1.63205075 -7.35198402 -1.23466730
-1.70237482 -7.12528467 -1.28169346
-1.53944886 -7.32799006 -1.30638611
-1.61116862 -7.10880327 -1.36060619
-1.48968530 -7.33185387 -1.41079819
-1.57074571 -7.11932516 -1.46689618
-1.47583532 -7.35483074 -1.52428222
-1.56263936 -7.14562941 -1.58274341
-1.48163283 -7.38832855 -1.63921809
-1.55888152 -7.17327690 -1.70009363
-1.48667908 -7.41694069 -1.76102245
-1.55829132 -7.19507217 -1.82329440
-1.51749265 -7.43384933 -1.90510476
-1.56467950 -7.20983458 -1.95825183
-1.58797753 -6.96160650 -1.99706423
-1.58040833 -7.21928167 -2.09959650
-1.58776307 -6.96912146 -2.11699057
-1.55791557 -6.70822573 -2.13985872
-1.59871423 -6.96992874 -2.23036599
-1.58277047 -6.70930052 -2.23294425
-1.54819918 -6.46160889 -2.25452399
-1.62668240 -6.70339489 -2.31427336
-1.59216475 -6.45914125 -2.33021545
-1.68057942 -6.69566441 -2.38985634
-1.64922941 -6.45001411 -2.39925170
-1.75063527 -6.68342400 -2.45808768
-1.72223711 -6.43621778 -2.45792580
-1.66511881 -6.18943930 -2.51327229
-1.66511881 -6.18943930 -2.51327229
-1.72223711 -6.43621778 -2.45792580
-1.81215477 -6.42070341 -2.51021290
-1.75482202 -6.17129564 -2.57753086
-1.68492794 -5.92016983 -2.66041613
-1.86803830 -6.14735222 -2.65037775
-1.82906520 -5.87491512 -2.70148301
-1.78343523 -5.59249210 -2.78930783
-1.99929166 -5.82719231 -2.75462818
-1.96423709 -5.54106474 -2.82763696
-1.96600842 -5.25778389 -2.90316892
-2.16618991 -5.50219965 -2.83397079
-2.16930366 -5.22390938 -2.88480783
-2.19979525 -4.95372629 -2.92630506
-2.38236880 -5.20807314 -2.83687067
-2.41538334 -4.95077324 -2.88239360
-2.46026182 -4.69556761 -2.93022466
-2.37399459 -5.47519684 -2.79489017
-2.38150978 -5.74736643 -2.75307178
-2.18449593 -5.77828646 -2.77030396
-2.57820177 -5.73716640 -2.69488096
-2.40529132 -6.02608490 -2.72376132
-2.58893847 -6.00702763 -2.66975617
-2.76195669 -6.00396824 -2.59739256
-2.61046529 -6.27576113 -2.65649676
-2.78122878 -6.26470232 -2.60109711
-2.92665410 -6.26159000 -2.50683188
-2.79717207 -6.52339745 -2.59154201
-2.95596457 -6.50911808 -2.52551198
-3.07964873 -6.50310564 -2.41557074
-2.99080467 -6.75487709 -2.54891849
-3.12007165 -6.74344206 -2.43285632
-3.20982862 -6.73742962 -2.28673434
-3.16215849 -6.98066330 -2.44622469
-3.23860240 -6.97685194 -2.28727078
-3.25819635 -6.74054193 -2.11489558
-3.28815103 -6.97567272 -2.11065459
-3.26914763 -6.74666357 -1.92829645
-3.31998491 -6.97218323 -1.91498351
-3.26914763 -6.74666357 -1.92829645
-3.31998491 -6.97218323 -1.91498351
-3.25615644 -6.75278187 -1.73471808
-3.31150270 -6.97647762 -1.71378112
-3.21331811 -6.76137257 -1.54360962
-3.26657057 -6.98737383 -1.52686036
-3.09532428 -6.78687000 -1.38508570
-3.15775657 -7.01432323 -1.36549020
-3.00701666 -7.05173874 -1.22060299
-3.23312640 -7.24644566 -1.34868789
-3.07986355 -7.28649282 -1.20433712
-2.86685205 -7.33684683 -1.09745526
-2.91972899 -7.55511951 -1.08129597
-3.14460468 -7.51356936 -1.18892932
-2.63467622 -7.59478951 -1.02407169
-2.60423803 -7.38848829 -1.03303707
-2.32836437 -7.62860918 -1.04275191
-2.34607959 -7.80307770 -1.04484677
-2.66710043 -7.77977943 -1.04683316
-2.06097245 -7.64782858 -1.11286104
-1.83749306 -7.63956118 -1.13997209
-1.66157615 -7.61551142 -1.17234194
-1.52710199 -7.57492781 -1.19435203
-1.43111777 -7.55082512 -1.26344121
-1.37480521 -7.54475737 -1.36366558
-1.32681310 -7.77285385 -1.39984846
-1.40615535 -7.95097303 -1.48466516
-1.51319790 -8.05114460 -1.58574951
-1.61879110 -8.17311001 -1.63127255
-1.66463614 -8.31773090 -1.64340389
-1.66329384 -8.28637886 -1.90038252
-1.66764224 -8.41639900 -1.90827274
-1.68895400 -8.44624615 -1.63733816
-1.71031988 -8.40125942 -2.14898348
-1.69609368 -8.50492001 -2.15268803
-1.66506565 -8.52209949 -1.90725303
-1.77500689 -8.38977146 -2.36076093
-1.76298213 -8.50685310 -2.37369895
-1.84983993 -8.36926460 -2.56883359
-1.85026932 -8.49375534 -2.59191656
-1.84983993 -8.36926460 -2.56883359
-1.85026932 -8.49375534 -2.59191656
-2.02457619 -8.33861256 -2.72762561
-2.05045080 -8.47163677 -2.74099374
-2.00074100 -8.16795540 -2.66562390
-1.86723304 -8.19329548 -2.51611853
-2.19571543 -8.13735771 -2.77266550
-2.24032569 -8.30001545 -2.82489920
-2.15899634 -7.96256781 -2.70244980
-2.00455260 -7.97888708 -2.58767772
-1.88709569 -7.98167801 -2.48326540
-2.12034535 -7.76265574 -2.68124461
-1.97862411 -7.76614523 -2.60318995
-1.86390483 -7.77253199 -2.55353427
-2.08572030 -7.55866194 -2.69729519
-1.94330072 -7.57755709 -2.66272402
-1.83572161 -7.59291172 -2.62294507
-1.75074220 -7.60455990 -2.57881880
-1.75074220 -7.60455990 -2.57881880
-1.84307599 -7.39256954 -2.59299159
-1.94281805 -7.37098789 -2.64538503
-1.74972248 -7.41028309 -2.55165648
-1.74972248 -7.41028309 -2.55165648
-1.68127763 -7.42934036 -2.47794938
-1.75578868 -7.17027044 -2.51987624
-1.85327554 -7.15239334 -2.55868864
-1.75578868 -7.17027044 -2.51987624
-1.68723631 -7.19222593 -2.44536471
-1.63919032 -7.21053314 -2.35013270
-1.63988817 -7.45371389 -2.35662842
-1.67848599 -6.94383764 -2.41825533
-1.75450003 -6.92730331 -2.48777485
-1.62480354 -6.95833206 -2.33343697
-1.60649800 -7.22303915 -2.23433876
-1.59613705 -7.46079922 -2.20588827
-1.55770051 -7.44909573 -2.05482483
-1.55125868 -7.63746834 -2.03587651
-1.49253035 -7.62436867 -1.88427651
-1.75450003 -6.92730331 -2.48777485
-1.84849811 -6.91098404 -2.54065132
-1.75063527 -6.68342400 -2.45808768
-1.83475506 -6.66812515 -2.51670837
-1.95951283 -6.89219522 -2.58703256
-1.94834709 -6.64836979 -2.56158638
-1.91431236 -6.40137815 -2.58155656
-2.08002996 -6.62195921 -2.63620496
-2.05775189 -6.36584044 -2.65821457
-2.03305769 -6.09920025 -2.67442727
-2.23823190 -6.32697487 -2.67603683
-2.21563148 -6.05641508 -2.71238160
-2.42676401 -6.29820108 -2.68511081
-2.44453287 -6.56414318 -2.68054628
-2.25600052 -6.59280825 -2.67077613
-2.63177705 -6.53912687 -2.66240239
-2.65190792 -6.79615879 -2.67201090
-2.45457125 -6.82192469 -2.70405912
-2.82991886 -6.77312899 -2.62230229
-2.85896111 -7.01899433 -2.62987089
-2.66935492 -7.04331207 -2.67856193
-3.02730846 -6.99580288 -2.55981517
-3.07041550 -7.22803164 -2.57285976
-2.89460564 -7.24923658 -2.65944958
-3.22539663 -7.21235752 -2.46141529
-3.11722636 -7.45135021 -2.60995603
-3.27805901 -7.43358135 -2.48707652
-3.31923342 -7.20027971 -2.29859734
-3.40287042 -7.41935730 -2.32221699
-3.37608266 -7.19496346 -2.10791683
-3.46165252 -7.41586781 -2.11886859
-3.41043973 -7.19147396 -1.90011227
-3.48473549 -7.41935730 -1.90607142
-3.41043973 -7.19147396 -1.90011227
-3.48473549 -7.41935730 -1.90607142
-3.46702075 -7.42928743 -1.69923353
-3.38037705 -7.20301771 -1.69724715
-3.34403443 -7.21514893 -1.50726676
-3.42691946 -7.44367504 -1.49733496
-3.31590462 -7.47234011 -1.32533658
-3.33630395 -7.68953991 -1.35641837
-3.44978833 -7.67010641 -1.52723515
-3.17407608 -7.72384357 -1.21179736
-3.17869258 -7.90668488 -1.26381600
-3.34290719 -7.88564157 -1.39614403
-2.96713090 -7.92794323 -1.14931214
-2.95156264 -7.76007748 -1.09858167
-2.70322824 -7.94479895 -1.07716346
-2.75723243 -8.08850670 -1.02954757
-3.02542973 -8.07272434 -1.09949493
-2.45108271 -8.09945869 -1.01843405
-2.39450121 -7.95435429 -1.07093608
-2.52011752 -8.25057316 -0.95696878
-2.80919743 -8.22432232 -0.97640055
-2.20612955 -8.28224659 -0.99690735
-2.27006555 -8.42428970 -0.95380080
-2.56054044 -8.37710381 -0.92196745
-1.99805689 -8.49117756 -1.09214115
-1.93621480 -8.35783195 -1.13122177
-1.80163312 -8.54582787 -1.34348023
-1.76813555 -8.43336105 -1.37295246
-1.70924580 -8.54373264 -1.63100421
-1.72717595 -8.62372017 -1.62670994
-1.83400357 -8.63386536 -1.33800650
-1.67005777 -8.59746933 -1.90097225
-1.69045711 -8.65952682 -1.89318860
-1.74623299 -8.68239498 -1.62547517
-1.68932974 -8.66661167 -2.14968181
-1.68852437 -8.59457016 -2.15317130
-1.76518297 -8.66918850 -2.37439728
-1.75965393 -8.60149479 -2.37713528
-1.87737894 -8.65184879 -2.58273816
-1.86433423 -8.58394146 -2.58998537
-1.86433423 -8.58394146 -2.58998537
-1.87737894 -8.65184879 -2.58273816
-2.06655598 -8.62635040 -2.73224330
-2.05946946 -8.55774403 -2.73906064
-2.28085542 -8.60348225 -2.84363461
-2.28042579 -8.53745174 -2.84948516
-2.26770329 -8.43260956 -2.84213138
-2.50030899 -8.41736317 -2.91036057
-2.51007915 -8.51522732 -2.91326046
-2.47298431 -8.28498459 -2.89532948
-2.71267653 -8.27306652 -2.92254734
-2.74268484 -8.40829182 -2.94697356
-2.65147853 -8.10058498 -2.87310481
-2.42091298 -8.11636734 -2.85313654
-2.59103179 -7.92402411 -2.80637860
-2.36572742 -7.94324255 -2.78050447
-2.53423619 -7.73114395 -2.75639939
-2.31027341 -7.75122070 -2.74523473
-2.49343753 -7.51394415 -2.77030396
-2.26899195 -7.53853226 -2.75602484
-2.25025654 -7.32176256 -2.72515798
-2.47019315 -7.29320335 -2.74437475
-2.06537485 -7.34779787 -2.69745708
-2.07804370 -7.11411762 -2.66347575
-2.25004196 -7.08974648 -2.70754862
-1.96074760 -7.13628960 -2.60238504
-2.07986879 -6.87018538 -2.64935780
-2.25685954 -6.84656620 -2.68833208
-2.46058393 -7.06397867 -2.73283315
-2.69302869 -7.26936865 -2.71919870
-2.71922565 -7.49225760 -2.74426818
-2.92391610 -7.47255516 -2.67920470
-2.74810672 -7.71036863 -2.72306299
-2.94087982 -7.69088173 -2.65118241
-3.11899805 -7.67391729 -2.56722403
-3.00207806 -7.88612461 -2.70384431
-3.17289519 -7.87506676 -2.59733939
-3.26490664 -7.65824318 -2.44702935
-3.31730056 -7.86572456 -2.47360206
-3.37919664 -7.64841795 -2.29655766
-3.42885256 -7.86234331 -2.32651114
-3.51189876 -7.86389971 -2.15075707
-3.45971918 -7.65024471 -2.11978173
-3.55162430 -7.86835575 -1.95084286
-3.50282693 -7.65523720 -1.92389357
-3.50282693 -7.65523720 -1.92389357
-3.55162430 -7.86835575 -1.95084286
-3.53299618 -7.87227345 -1.74416685
-3.50991249 -7.66183949 -1.72172678
-3.46127677 -7.87404633 -1.55466771
-3.57454681 -8.04609871 -1.53620040
-3.63542223 -8.05334568 -1.75517166
-3.44393682 -8.04395008 -1.35153437
-3.53063416 -8.20639324 -1.32501507
-3.65855956 -8.21219063 -1.53609407
-3.32916427 -8.20853901 -1.16649139
-3.25368738 -8.05393600 -1.20718157
-3.08909702 -8.21347904 -1.04210889
-3.12898278 -8.34033108 -1.01134861
-3.38665819 -8.34537697 -1.13717890
-2.84693551 -8.34564495 -0.93635345
-2.86218166 -8.44173717 -0.92014289
-3.14836240 -8.43808556 -0.99202335
-2.57970500 -8.48001289 -0.90962118
-2.86889195 -8.52676868 -0.91241235
-2.58555651 -8.55897903 -0.90811807
-2.29223633 -8.52510548 -0.94225931
-2.30479789 -8.60412502 -0.95165265
-2.02677703 -8.58635616 -1.08301413
-2.04975295 -8.66183472 -1.09536040
-1.86197221 -8.69903469 -1.34434044
-2.06677032 -8.71830750 -1.11710203
-1.88441157 -8.74933529 -1.35663331
-1.77092707 -8.73537922 -1.62772977
-1.80013001 -8.78535652 -1.63154078
-1.91597676 -8.78745174 -1.37703168
-1.74215317 -8.76925278 -1.88368666
-1.71509743 -8.71567726 -1.88749766
-1.72669268 -8.77827072 -2.13325644
-1.70269680 -8.72491169 -2.14109349
-1.79121888 -8.77880764 -2.36226392
-1.77312803 -8.73049355 -2.37026286
-1.90701187 -8.75744343 -2.56185460
-1.89165843 -8.70622921 -2.57404137
-1.89165843 -8.70622921 -2.57404137
-1.90701187 -8.75744343 -2.56185460
-2.08174753 -8.72840023 -2.70244980
-2.07283640 -8.67767048 -2.72118521
-2.28509641 -8.72276306 -2.81362581
-2.28123116 -8.66709518 -2.83525896
-2.50728726 -8.71428108 -2.89500833
-2.50954223 -8.65066814 -2.90263009
-2.50997162 -8.58329582 -2.90810609
-2.75138116 -8.64562225 -2.94063783
-2.75406551 -8.58458424 -2.94766974
-2.75202537 -8.50513554 -2.94885135
-2.98650980 -8.50266552 -2.92222571
-2.98940897 -8.58646393 -2.91524673
-2.97588062 -8.39696503 -2.92319226
-3.18787217 -8.39122105 -2.85190153
-3.20102453 -8.50459862 -2.85055804
-3.14814734 -8.24466896 -2.82500553
-2.94125557 -8.25857162 -2.89565325
-3.08034658 -8.06332874 -2.77465177
-2.87527990 -8.08040142 -2.85055804
-2.80490255 -7.90550327 -2.77679992
-3.26109505 -8.05237865 -2.67329907
-3.33759236 -8.23645496 -2.73449802
-3.42461133 -8.03686428 -2.55981517
-3.50733614 -8.21949100 -2.62525511
-3.59897208 -8.21830940 -2.44396996
-3.53782725 -8.03407383 -2.39812350
-3.66940260 -8.22566605 -2.24174786
-3.61276817 -8.04196358 -2.19998264
-3.70773292 -8.23301888 -2.01510143
-3.65673375 -8.04942608 -1.98122633
-3.65673375 -8.04942608 -1.98122633
-3.70773292 -8.23301888 -2.01510143
-3.69452620 -8.23178482 -1.77342391
-3.72899008 -8.37613773 -1.79301739
-3.74445105 -8.37860680 -2.03920436
-3.70091438 -8.36255646 -1.54500401
-3.72813082 -8.47448349 -1.55477417
-3.74933600 -8.48108578 -1.80713511
-3.62092757 -8.46535683 -1.31502986
-3.59897208 -8.35197926 -1.30955398
-3.41677356 -8.45424557 -1.12365091
-3.43459678 -8.54673862 -1.11457920
-3.63687205 -8.56595707 -1.32302868
-3.16060162 -8.52403069 -0.97779715
-3.16833210 -8.60348225 -0.96867001
-3.44420600 -8.62387943 -1.11082137
-2.86781812 -8.60240650 -0.91155225
-2.86878490 -8.67396641 -0.91987455
-3.17037201 -8.67487907 -0.96598738
-2.58620071 -8.63424301 -0.90967441
-2.58829451 -8.70499420 -0.92400706
-2.31435323 -8.67418098 -0.96851027
-2.32004356 -8.74300194 -0.98719049
-2.08808208 -8.76694489 -1.14544594
-2.33453798 -8.79394531 -1.02691615
-2.11690974 -8.80479050 -1.18227398
-1.91597676 -8.78745174 -1.37703168
-2.11690974 -8.80479050 -1.18227398
-1.95307148 -8.82078743 -1.39936519
-2.15132046 -8.82819462 -1.22597027
-1.99762738 -8.84032822 -1.42819238
-1.84194851 -8.82025146 -1.64372730
-1.89391351 -8.83887863 -1.65993786
-1.80013001 -8.78535652 -1.63154078
-1.82638097 -8.84381866 -1.89292026
-1.77575839 -8.81751347 -1.88513660
-1.74215317 -8.76925278 -1.88368666
-1.80888033 -8.84940052 -2.11929846
-1.75933194 -8.82400894 -2.12568545
-1.72669268 -8.77827072 -2.13325644
-1.84962535 -8.85551929 -2.33381367
-1.81408739 -8.82384777 -2.35201049
-1.79121888 -8.77880764 -2.36226392
-1.95650661 -8.83136272 -2.51150107
-1.92724991 -8.79883099 -2.53904009
-1.90701187 -8.75744343 -2.56185460
-2.11717796 -8.80113888 -2.63566828
-2.09779882 -8.76882267 -2.67190456
-2.09779882 -8.76882267 -2.67190456
-2.29416895 -8.82250595 -2.76311016
-2.28837109 -8.77386856 -2.79113245
-2.28837109 -8.77386856 -2.79113245
-2.51281714 -8.82953835 -2.85608935
-2.50744867 -8.77537155 -2.88131833
-2.50744867 -8.77537155 -2.88131833
-2.74842882 -8.81917667 -2.89683270
-2.74558330 -8.76694489 -2.92244077
-2.74558330 -8.76694489 -2.92244077
-2.74858952 -8.70617580 -2.93172741
-2.98554373 -8.76237965 -2.89162517
-2.98710060 -8.70692730 -2.90590453
-2.98849630 -8.64862728 -2.91164875
-3.20531917 -8.66800690 -2.84862709
-3.20376253 -8.73371506 -2.85088181
-3.20376253 -8.59387112 -2.84470749
-3.39578438 -8.60439396 -2.77749825
-3.39771652 -8.68604660 -2.78222251
-3.39014769 -8.50599289 -2.77347231
-3.54899406 -8.50341702 -2.65397382
-3.55795813 -8.60401821 -2.66046953
-3.53675413 -8.37726402 -2.64635181
-3.37908912 -8.38714218 -2.76837111
-3.65351272 -8.50352573 -2.48337197
-3.62645698 -8.38026905 -2.46694446
-3.71857595 -8.49890804 -2.28233147
-3.69844484 -8.38032532 -2.26746225
-3.75690484 -8.49445152 -2.05584478
-3.74445105 -8.37860680 -2.03920436
-3.77225852 -8.57486916 -2.06695819
-3.74278712 -8.58581924 -2.29478645
-3.75690484 -8.49445152 -2.05584478
-3.77225852 -8.57486916 -2.06695819
-3.76125336 -8.57121944 -1.82028830
-3.76764154 -8.63934135 -1.83231306
-3.77735829 -8.64159584 -2.07404375
-3.75067854 -8.65141869 -1.57850230
-3.74337697 -8.57443905 -1.56626248
-3.65335178 -8.65109825 -1.32667792
-3.65872002 -8.71965122 -1.33140230
-3.76141429 -8.71970367 -1.58972228
-3.44930506 -8.69764042 -1.10980165
-3.44071651 -8.76345634 -1.12424290
-3.64299083 -8.78288746 -1.34868789
-3.16548681 -8.74418354 -0.98015827
-3.16548681 -8.74418354 -0.98015827
-3.44071651 -8.76345634 -1.12424290
-3.15448213 -8.79909992 -1.02170849
-3.41994143 -8.81928444 -1.15704274
-2.87039495 -8.79883099 -0.96931511
-2.87066364 -8.74241161 -0.93334723
-2.87066364 -8.74241161 -0.93334723
-2.59307218 -8.76624680 -0.95208269
-2.60166121 -8.81252193 -0.99653262
-2.59307218 -8.76624680 -0.95208269
-2.33453798 -8.79394531 -1.02691615
-2.35558152 -8.82449055 -1.07855797
-2.61164641 -8.83603382 -1.05622661
-2.38043642 -8.83367062 -1.13750243
-2.18959546 -8.83904076 -1.27057993
-2.40550590 -8.84451389 -1.19735813
-2.22792435 -8.84451389 -1.31755280
-2.04792786 -8.84714603 -1.45734096
-2.09871125 -8.85278130 -1.48976612
-1.95108509 -8.85106468 -1.67706382
-2.00900817 -8.85852528 -1.69805193
-1.94614625 -8.86668587 -1.90918612
-1.88188815 -8.85986900 -1.90279698
-1.92520976 -8.86523628 -2.10888314
-1.86583745 -8.85847187 -2.11409092
-1.96225071 -8.86749172 -2.27814364
-1.89364481 -8.86459255 -2.30911899
-2.02768970 -8.85884857 -2.43763399
-1.99118543 -8.85036755 -2.47752142
-2.15969419 -8.85734653 -2.56040692
-2.13693333 -8.83232975 -2.59986210
-2.32745171 -8.86845779 -2.66685867
-2.30721354 -8.85976028 -2.72118521
-2.53654456 -8.87259102 -2.74679112
-2.52376842 -8.86029625 -2.80680847
-2.76034617 -8.86851120 -2.78104067
-2.75342155 -8.84993744 -2.84282970
-2.98269820 -8.84617901 -2.81974459
-2.98157096 -8.86845779 -2.76455998
-2.98361111 -8.81042576 -2.86419463
-3.19243550 -8.84961510 -2.82656407
-3.18357778 -8.89095116 -2.78447723
-3.19834018 -8.79292583 -2.84497595
-2.98554373 -8.76237965 -2.89162517
-3.39616013 -8.81724548 -2.78152418
-3.38488650 -8.87028217 -2.76160717
-3.39857554 -8.75497341 -2.78495836
-3.19834018 -8.79292583 -2.84497595
-3.39857554 -8.75497341 -2.78495836
-3.56762075 -8.76007175 -2.66632199
-3.56450844 -8.81574249 -2.66342235
-3.56762075 -8.76007175 -2.66632199
-3.56531310 -8.69184303 -2.66551518
-3.69404292 -8.75121498 -2.50189233
-3.68330622 -8.68105316 -2.49791956
-3.66940260 -8.60111904 -2.49174547
-3.75524116 -8.65764713 -2.30058360
-3.75330877 -8.72104549 -2.29951072
-3.78245759 -8.70622921 -2.08037758
-3.77735829 -8.64159584 -2.07404375
-3.77955890 -8.77016449 -2.08649874
-3.74300122 -8.78068733 -2.29795241
-3.78245759 -8.70622921 -2.08037758
-3.77955890 -8.77016449 -2.08649874
-3.77204347 -8.77011108 -1.85775721
-3.77360082 -8.70687389 -1.84471262
-3.75545621 -8.78541088 -1.60507476
-3.75545621 -8.78541088 -1.60507476
-3.77204347 -8.77011108 -1.85775721
-3.72721887 -8.84413910 -1.62611818
-3.74836969 -8.82733631 -1.87311184
-3.62114263 -8.84183216 -1.37220085
-3.64299083 -8.78288746 -1.34868789
-3.57905579 -8.87881756 -1.40956342
-3.67589831 -8.87565136 -1.65419376
-3.39020085 -8.85825729 -1.20562518
-3.35235524 -8.86759949 -1.26795053
-3.52435350 -8.87446880 -1.46190369
-3.11389804 -8.84311962 -1.14802408
-3.13757229 -8.83173847 -1.07925630
-2.86604691 -8.83173847 -1.03045893
-2.86196709 -8.84263611 -1.10019326
-2.62109447 -8.84489059 -1.12386596
-2.85756493 -8.84897041 -1.17518640
-2.63553476 -8.85154819 -1.19349182
-2.43529940 -8.84676838 -1.25388622
-2.64315748 -8.85900879 -1.26907682
-2.46305346 -8.84950638 -1.31782115
-2.26829362 -8.85090351 -1.36500692
-2.31532001 -8.85766697 -1.42148161
-2.15185666 -8.85820389 -1.52208281
-2.20913577 -8.86389542 -1.56062686
-2.06784391 -8.86566639 -1.71952534
-2.13263845 -8.87446880 -1.73745596
-2.08115745 -8.87849522 -1.92357206
-2.01147771 -8.87232208 -1.91723812
-2.06558943 -8.87650967 -2.08569384
-2.00004315 -8.87151623 -2.09283257
-2.06966901 -8.87393284 -2.23267603
-2.01808047 -8.87130165 -2.25243115
-2.11750007 -8.87199974 -2.35904264
-2.08002996 -8.86636448 -2.39350748
-2.21353817 -8.87189388 -2.46828771
-2.18658924 -8.86459255 -2.51445389
-2.37270594 -8.88155556 -2.54494572
-2.34951544 -8.87473774 -2.60727119
-2.56623101 -8.88209438 -2.61129713
-2.55001879 -8.87978363 -2.68108487
-2.76770091 -8.88171673 -2.71479607
-2.77714896 -8.88778305 -2.64194894
-2.98194671 -8.88053608 -2.70089340
-2.98259115 -8.88552761 -2.62788439
-3.16849327 -8.89245319 -2.65832329
-3.16242719 -8.88939381 -2.58676434
-3.17498851 -8.89980793 -2.72397637
-3.33871984 -8.91231632 -2.66863012
-3.31601214 -8.90356541 -2.61140370
-3.36416507 -8.90227699 -2.71887755
-3.47679114 -8.91177845 -2.57592106
-3.51490498 -8.89889622 -2.61451840
-3.54663181 -8.86555767 -2.64603019
-3.62865829 -8.90115070 -2.46672940
-3.66961765 -8.86523628 -2.48836446
-3.69286251 -8.81311131 -2.49834991
-3.71921992 -8.83576393 -2.29618073
-3.74300122 -8.78068733 -2.29795241
-3.69404292 -8.75121498 -2.50189233
-3.67471766 -8.87495327 -2.29242301
-3.69533110 -8.86051178 -2.10099292
-3.74514818 -8.82352543 -2.09342432
-3.77955890 -8.77016449 -2.08649874
-3.69608283 -8.86346531 -1.89082539
-3.63037634 -8.87162495 -1.90999091
-3.63032198 -8.87060547 -2.11001158
-3.60922551 -8.87559795 -1.68720877
-3.54346371 -8.87156963 -1.72156501
-3.56445384 -8.87199974 -1.92786622
-3.46637678 -8.86931515 -1.51365399
-3.40442705 -8.87312889 -1.56781888
-3.47083163 -8.87350273 -1.75463319
-3.26694632 -8.86528969 -1.40387452
-3.31483102 -8.86464596 -1.33177900
-3.06714058 -8.85025883 -1.30010545
-3.09253263 -8.85085011 -1.22060299
-2.85058641 -8.85841846 -1.25635374
-2.84564734 -8.86453724 -1.34954798
-3.04126596 -8.86002922 -1.39265454
-2.65475297 -8.86008453 -1.35711670
-2.82943535 -8.86507607 -1.45315313
-2.65877938 -8.86593437 -1.48756480
-2.79905105 -8.87339687 -1.61752963
-2.63376331 -8.87532902 -1.63653338
-2.75320649 -8.87645626 -1.81126964
-2.58974385 -8.87989235 -1.80724359
-2.43406510 -8.87973118 -1.79833150
-2.28692174 -8.87801266 -1.78034759
-2.53933573 -8.88450813 -1.98707902
-2.37522912 -8.88354206 -1.96318913
-2.24150634 -8.88214684 -1.94241405
-2.34135580 -8.88311386 -2.12048006
-2.21971130 -8.88268375 -2.09927487
-2.13714767 -8.88118076 -2.08553195
-2.15631223 -8.88321972 -1.93253744
-2.20425057 -8.87511539 -1.75973415
-2.50020146 -8.87978363 -2.16718268
-2.46138930 -8.88724613 -2.29875922
-2.65877938 -8.88665676 -2.20406199
-2.62818050 -8.88751411 -2.35045433
-2.42660308 -8.88461685 -2.39807010
-2.60509682 -8.88821316 -2.44982052
-2.58260417 -8.88418674 -2.53581858
-2.39638019 -8.88305855 -2.47703815
-2.78584576 -8.88891029 -2.56470132
-2.79942727 -8.88703060 -2.47456837
-2.98506069 -8.88794422 -2.55063677
-2.98135662 -8.88971519 -2.47005916
-3.15410638 -8.88880253 -2.50591850
-3.14315510 -8.89116573 -2.41820240
-2.98672485 -8.88472271 -2.33697939
-3.14562416 -8.89213181 -2.30171013
-3.28063560 -8.88504410 -2.27562070
-3.16741920 -8.88885784 -2.16240525
-3.30887246 -8.88552761 -2.14173841
-3.38719463 -8.88305855 -2.27035999
-3.40512490 -8.87967777 -2.12837029
-3.46766472 -8.88289928 -2.28056026
-3.49080229 -8.87828064 -2.12783384
-3.54437709 -8.88198566 -2.28356624
-3.56155515 -8.87511539 -2.11736536
-3.51388526 -8.89116573 -2.41777229
-3.43695879 -8.90163422 -2.53372574
-3.57449222 -8.90872002 -2.44235826
-3.61319709 -8.88064384 -2.28753901
-3.49166107 -8.87291336 -1.95019984
-3.41366076 -8.87377167 -1.96877360
-3.39385152 -8.87683296 -1.79494846
-3.32240033 -8.87914085 -1.98987019
-3.33410287 -8.87489891 -1.63191557
-3.21401596 -8.86555767 -1.47870600
-3.00411797 -8.86765289 -1.49620664
-2.95526671 -8.87221527 -1.64361882
-2.90829515 -8.87124920 -1.83000302
-3.03235483 -8.88101959 -2.02063036
-2.86916065 -8.88907051 -2.01719427
-2.70376492 -8.88278961 -2.00575924
-2.83480382 -8.88332653 -2.21522856
-3.00605011 -8.88617325 -2.18672299
-2.81284761 -8.88171673 -2.37590051
-3.20558739 -8.88391876 -2.00941062
-0.10049364 -0.97693753 -3.14667082
0.23437697 -0.75995481 -3.12106490
0.56661713 -0.55322337 -3.07452202
0.89622658 -0.35164633 -3.01321650
1.22368872 -0.15033755 -2.93076110
1.54631984 0.04984289 -2.82844186
1.85875082 0.24164979 -2.70475745
2.15894246 0.41579631 -2.56963849
2.43803716 0.56551641 -2.44391465
2.70118809 0.68989891 -2.31985569
2.95789695 0.81229496 -2.18028045
3.20607042 0.92057133 -2.01977038
4.67256451 1.17212749 -1.68184137
4.68142223 1.24857044 -1.45154369
4.90168047 1.25039518 -1.47323215
4.90694141 1.31733835 -1.22983444
4.69623852 1.31980598 -1.21083272
5.11700106 1.32082772 -1.24615562
5.12397957 1.37875044 -0.99255985
4.91923523 1.37907183 -0.97833365
5.32652283 1.37654901 -1.00587273
5.34305716 1.41332161 -0.74288368
5.14003038 1.42513144 -0.72854894
5.16633463 1.45975602 -0.45654127
5.37188435 1.45728827 -0.47758463
5.20208693 1.47677326 -0.18152633
5.40914011 1.47441220 -0.20707904
5.40914011 1.47441220 -0.20707904
5.45460939 1.47586203 0.06262077
5.66187668 1.46040106 0.02107052
5.66187668 1.46040106 0.02107052
5.71502209 1.44633663 0.28169847
5.50319147 1.45766306 0.32834780
5.77144194 1.41836751 0.53964174
5.55617571 1.42400515 0.59042555
5.98268270 1.39812887 0.47683308
6.04763746 1.36210775 0.72994554
5.83242512 1.36763883 0.79372078
6.25909281 1.34584188 0.64813411
6.32689333 1.28475142 0.89367682
6.11302280 1.28888595 0.97833365
6.53899193 1.26956058 0.79071456
6.61119509 1.19064796 1.02578878
6.39780807 1.19800162 1.13433456
6.82291794 1.17491877 0.90076333
6.89957666 1.08768368 1.12537014
6.68543720 1.09401953 1.25780463
7.11140728 1.07184780 0.97403938
7.18747473 0.96416122 1.18023336
6.97999287 0.98176837 1.34085083
7.39796400 0.94462097 1.00850320
7.48133230 0.83967227 1.20095515
7.27175617 0.84681100 1.37810683
7.68613052 0.81288475 1.01038206
7.76864004 0.69285184 1.17974997
7.56749201 0.70874089 1.37445557
7.96200323 0.65119308 0.97768962
8.03844738 0.52101326 1.13122070
7.85227728 0.55016398 1.33215380
8.21592140 0.46303743 0.93061030
8.27824593 0.31755835 1.06154168
8.11279774 0.36683705 1.26376283
8.44423199 0.24879053 0.87580043
8.48911095 0.09531265 0.98928541
8.34438324 0.16187905 1.17942846
8.63335609 0.01457535 0.81283098
8.59309292 0.15216215 0.69548178
8.76884937 -0.09150167 0.65666944
8.67409992 -0.13128054 0.90994269
8.79923344 -0.22554575 0.75614226
8.89451981 -0.22662084 0.52085298
8.91508007 -0.33983657 0.62215143
9.02292728 -0.37279826 0.40812054
9.03715324 -0.46759999 0.50931150
9.16153622 -0.61576378 0.41423944
9.03634834 -0.57217389 0.59230447
9.15691948 -0.69596457 0.50260079
9.27217579 -0.84053236 0.43474633
9.12889671 -0.78051490 0.57614619
9.23846245 -0.90693700 0.50823742
9.33782864 -1.05515409 0.45573643
9.18896770 -0.97527474 0.56175917
9.28618622 -1.11135852 0.51081461
9.36874962 -1.27117229 0.48182568
9.22826385 -1.16536355 0.55284816
9.29171562 -1.32909477 0.52777773
9.32564259 -1.52090168 0.52380598
9.22278690 -1.37810743 0.55456519
9.24393749 -1.55794263 0.54458106
9.22944355 -1.76365232 0.53148222
9.14978027 -1.78566217 0.52230287
9.08519936 -1.78673720 0.51424980
9.02013683 -1.77707362 0.50662678
8.99329567 -1.96533787 0.44666359
8.93478107 -1.96297657 0.44526801
8.90316296 -2.17319560 0.39035165
8.95673752 -1.77326262 0.50737834
8.90380669 -1.78517890 0.53636724
8.88727283 -1.97521436 0.47796041
8.98196793 -1.59299719 0.57179761
8.92672920 -1.59809637 0.59520316
8.94669914 -1.40897417 0.65398479
9.00354862 -1.40892088 0.62628496
9.03688526 -1.27063370 0.62687576
8.95459080 -1.23273480 0.66643959
9.07757664 -1.13369000 0.62177563
8.99377823 -1.09310627 0.66692293
8.90944290 -1.05794525 0.73236197
9.04128742 -0.97806591 0.65452230
8.94342422 -0.91461223 0.72656357
8.85211086 -0.87494189 0.81717956
8.97992897 -0.79210967 0.70095766
8.87444210 -0.73005259 0.79269993
8.78973198 -0.68474454 0.91139257
8.90235806 -0.59498864 0.75603580
8.80390358 -0.52681267 0.87821686
8.71403980 -0.46808326 1.02492976
8.80750084 -0.37129515 0.82963336
8.69761276 -0.29415175 0.98053509
8.59255695 -0.23714255 1.15618360
8.54440308 -0.06095640 1.08924150
8.40692329 -0.01618494 1.27176154
8.19085121 0.19795343 1.37842834
7.94026232 0.39040539 1.46727300
7.65918112 0.55832243 1.52830923
7.36355305 0.70927739 1.55740559
7.06191206 0.84729421 1.54237461
6.76590729 0.97854924 1.48122990
6.47076225 1.09122837 1.37048388
6.18318558 1.19982636 1.22538054
5.89877653 1.29736793 1.05037594
5.61694479 1.36796045 0.84933543
8.91636753 -0.46593714 0.69784391
9.01471424 -0.67943048 0.65473634
9.08772278 -0.87542516 0.62537265
9.13528538 -1.05461752 0.59745777
9.16346836 -1.24314988 0.58086950
8.85973358 -2.17920804 0.42819738
8.83444977 -2.36435938 0.34944543
8.81759262 -2.50178432 0.22388241
4.93791628 1.42314506 -0.71405649
4.71878481 1.37826705 -0.95981318
8.88238716 -2.51123309 -0.43775252
8.88904476 -2.57613468 -0.45171043
9.50472641 -5.57220030 -0.68308121
9.49705124 -5.78768206 -0.70401609
9.54074764 -6.40395403 -1.00055861
9.50682068 -6.41088009 -1.09069133
9.45652008 -6.20388079 -1.08634186
9.40793800 -6.21413422 -1.16665113
9.37529850 -6.00343180 -1.16906750
9.32134724 -6.01534843 -1.24626207
9.29810333 -5.80077982 -1.25039673
9.23202133 -5.81334114 -1.32039726
9.22268009 -5.59308338 -1.33650327
9.14065361 -5.60194016 -1.38739371
9.14392757 -5.37416601 -1.41530752
9.04788971 -5.37599230 -1.44332981
9.06796646 -5.13893080 -1.48176742
8.96559525 -5.12953520 -1.46448183
8.99785805 -4.88420916 -1.49856973
8.89881420 -4.86912251 -1.46045578
8.94004154 -4.61847925 -1.47833121
8.85243320 -4.60065746 -1.41004658
8.89242649 -4.35060453 -1.42824554
8.82494736 -4.33444738 -1.32463825
8.87036324 -4.08681059 -1.33623314
8.80556774 -4.07129622 -1.21770322
8.84545422 -3.82688093 -1.22682834
8.79021549 -3.81313801 -1.08317578
8.82585907 -3.57119036 -1.09171116
8.79547596 -3.55712581 -0.91955101
8.82457161 -3.31496501 -0.92685151
8.80079079 -3.30535674 -0.73907065
8.85436535 -3.09551287 -0.73729926
8.85468769 -3.12718415 -0.53228801
8.81179523 -3.31947446 -0.53357607
8.88984966 -2.97408319 -0.52530903
8.88984966 -2.97408319 -0.52530903
8.85468769 -3.12718415 -0.53228801
8.88974190 -3.02024913 -0.31680626
8.90241051 -2.92635870 -0.30542552
8.91035557 -2.87734628 -0.51317573
8.89194298 -2.94138956 -0.10223787
8.89435863 -2.85157847 -0.09488313
8.90026474 -2.81507611 0.07469880
8.89543152 -2.71678305 0.06981373
-6.85083342 6.41404629 -1.10454082
-6.72043848 6.05813313 -1.41971028
-6.87418461 5.94851351 -1.41901195
-6.80584717 5.75734997 -1.45895267
-6.96936417 5.67822170 -1.38046789
-6.90269041 5.55920839 -1.31900263
-7.11151505 5.64171934 -1.25007308
-7.05337715 5.53150749 -1.19676626
-7.18903208 5.52914667 -1.06105733
-7.18355560 5.41834545 -1.06014609
-7.02760935 5.42092323 -1.17223334
-7.31636667 5.42344666 -0.95884663
-7.35678911 5.33916473 -1.01923883
-7.21866512 5.32032251 -1.11237776
-7.37627649 5.22444534 -1.04221535
-7.23562813 5.20098591 -1.14598441
-7.37423658 5.10183430 -1.03287530
-7.22988462 5.07139778 -1.13648260
-7.41482019 4.98657894 -1.02036726
-7.52814388 5.03827620 -0.92706650
-7.59632063 4.94368792 -0.90441352
-7.62879801 5.09990311 -0.85513282
-7.69767189 5.03151226 -0.83033168
-7.77975273 4.96118832 -0.80542195
-7.87133455 4.89403009 -0.78797662
-7.92211819 4.99516773 -0.72887248
-8.03087902 4.96526766 -0.76881111
-8.07017422 5.04004812 -0.70042008
-8.21581459 5.07859182 -0.71647090
-8.11054325 5.09399748 -0.64534199
-8.63163757 5.04203415 -0.48816058
-8.80127430 5.03457165 -0.40935439
-8.74737644 5.05121231 -0.33446771
-8.59937477 5.05556202 -0.40076584
-8.95077991 5.08261776 -0.30080873
-8.87728882 5.09485769 -0.23794682
-8.79295349 5.12062311 -0.16064474
-8.67984390 5.08315420 -0.23971818
-8.54440403 5.11611414 -0.27896056
-8.69541264 5.18203735 -0.07614866
-8.59303951 5.17623997 -0.12703900
-8.49378109 5.21762848 -0.15044455
-8.52341461 5.31436348 0.02498902
-8.45539951 5.34115076 -0.00501869
-8.38153172 5.38415098 -0.03379259
-8.41411686 5.46000433 0.16085975
-8.35023499 5.49897814 0.13820577
-8.33665276 5.58331108 0.31567895
-8.47424126 5.43509436 0.18200964
-8.53629780 5.41985083 0.20176494
-8.58804798 5.31135750 0.05306462
-8.65423775 5.33358192 0.07233664
-8.59663677 5.44062376 0.20638174
-8.66132355 5.47889948 0.20246324
-8.73669434 5.39526224 0.07421551
-7.22923946 5.97771740 2.54762936
-7.29403496 5.87593460 2.60780764
-9.00430107 3.39924526 1.42856812
-9.01090336 3.49002290 1.37504637
-8.97772789 3.29209709 1.47452021
-9.17737293 3.29161382 1.26397789
-9.16754913 3.39269638 1.20804048
-9.15718746 3.16771483 1.30789030
-8.91814041 3.19020796 1.49143004
-9.08530617 3.05546331 1.31341922
-8.84706497 3.09765887 1.49089253
-8.99662399 2.96350622 1.29838836
-9.18730354 2.92614388 1.08983231
-9.27571869 3.03468823 1.09042311
-9.08482361 2.83848071 1.07689524
-9.20646858 2.77851653 0.85685092
-9.31769848 2.87884927 0.86238003
-9.06592751 2.72274208 0.83317709
-9.06592751 2.72274208 0.83317709
-9.20646858 2.77851653 0.85685092
-9.13034725 2.67426610 0.61082494
-9.27834892 2.74324870 0.61329353
-8.95786476 2.67227960 0.60234290
-8.90713596 2.69724250 0.79806828
-8.90713596 2.69724250 0.79806828
-9.13496399 2.67501760 0.37483737
-9.28258991 2.74491191 0.35722920
-8.96709824 2.67077661 0.40130237
-9.09088993 2.72215033 0.13949382
-9.24001980 2.76654696 0.09896340
-8.92125416 2.70239496 0.19559179
-8.99791241 2.78791165 -0.09509815
-9.12852097 2.83101845 -0.15699348
-8.86290169 2.76949787 -0.02123128
-8.83600616 2.87492967 -0.30531800
-8.86290169 2.76949787 -0.02123128
-8.83600616 2.87492967 -0.30531800
-8.72708511 2.87611151 -0.20246324
-8.61709023 2.89098263 -0.07947636
-8.71103382 2.79902339 0.10690894
-8.49888134 2.90826821 0.07163936
-8.35039616 2.98873734 -0.06804237
-8.45631123 2.98331475 -0.22092946
-8.23309994 3.00022578 0.11297458
-8.16041374 3.07049441 -0.18313695
-8.04284954 3.05723667 0.00061793
-7.93865204 3.04343867 0.18458681
-7.82468510 3.10200620 -0.08597204
-7.73288727 3.07334113 0.09858763
-7.84911013 3.03823328 0.36447644
-7.65032434 3.04880810 0.28019536
-7.50484562 3.07731390 0.03808789
-7.43962145 3.04059434 0.22243255
-7.26896572 3.04231262 0.00040291
-7.22569704 2.99319339 0.18834457
-7.18838787 2.95448780 0.37456909
-7.00941038 2.92630553 0.17068315
-6.98911858 2.88529181 0.35706845
-6.96812963 2.86333513 0.54538590
-6.79843903 2.78769684 0.35594115
-6.79006481 2.76268077 0.53851444
-6.94982290 2.85721636 0.73332751
-6.77626801 2.75511193 0.72017539
-6.75866127 2.76284242 0.89861512
-6.60835075 2.62584543 0.71475381
-6.59068918 2.62670350 0.88691288
-6.56481361 2.64178777 1.05509925
-6.43388224 2.46619344 0.88449746
-6.40773916 2.47193742 1.05128825
-6.37053728 2.49604034 1.21351647
-6.26859474 2.27809095 1.05569005
-6.22452116 2.29730773 1.21807909
-6.17196655 2.33177257 1.37714028
-6.09294605 2.08537078 1.22811747
-6.03029919 2.11758089 1.38771510
-5.95385504 2.16562676 1.53877771
-5.91627789 1.89275897 1.40339124
-5.83027840 1.93769026 1.55686808
-5.73719263 1.99008358 1.70530009
-5.73118019 1.71598303 1.57227588
-5.63664579 1.76622844 1.72543120
-5.55601501 1.56067860 1.74137461
-5.65194559 1.50517237 1.58478296
-5.48746347 1.38154161 1.75060821
-5.58645296 1.31765985 1.59600294
-5.38165474 1.45347524 1.89957666
-5.32383966 1.30944598 1.90709221
-5.43066692 1.22704375 1.75994921
-5.21142864 1.40381980 2.04591489
-5.26430559 1.53662896 2.03609037
-5.16558313 1.29795778 2.05058503
-5.28035641 1.19284737 1.91621840
-5.21142864 1.40381980 2.04591489
-5.16558313 1.29795778 2.05058503
-5.04479885 1.40875912 2.17528892
-5.00571775 1.32002103 2.18183875
-5.12940121 1.20449734 2.06035495
-4.87435627 1.44064569 2.29065275
-4.84042931 1.36124980 2.30230188
-4.97479725 1.23536408 2.19568825
-4.69108534 1.49030113 2.39146781
-4.66660643 1.42352176 2.41852355
-4.81938601 1.28485990 2.33037758
-4.49616432 1.55504298 2.48616314
-4.47812748 1.50227273 2.53581977
