-9.03580000 -16.65940000 22.31570000
-9.72840000 -17.35070000 22.09080000
-10.23430000 -17.92300000 21.87620000
-10.06960000 -18.14180000 21.71260000
-3.55090000 13.12970000 12.23140000
-3.34780000 13.25630000 12.31480000
-3.17350000 13.35490000 12.44290000
-10.02550000 35.56840000 -9.80840000
-10.22840000 35.46690000 -10.02000000
-10.45720000 35.50470000 -10.22860000
22.62090000 -11.50580000 -24.91830000
23.02400000 -11.33190000 -24.91270000
23.36870000 -11.20950000 -24.68980000
23.42870000 -11.12750000 -24.54740000
-4.62250000 19.72440000 -25.14190000
-4.24550000 19.36640000 -25.24220000
-3.88470000 19.01000000 -25.41460000
-25.78400000 14.97960000 18.43420000
-25.93410000 14.71390000 18.51300000
-26.43310000 14.67650000 18.59240000
-42.01040000 11.43850000 -21.33470000
-41.92060000 11.47740000 -21.54840000
-41.78890000 11.66690000 -21.64650000
23.37150000 -11.13900000 -25.40870000
23.32380000 -11.23120000 -25.02310000
23.27170000 -11.25760000 -24.84760000
-2.08070000 -0.16680000 18.34080000
-1.56320000 -0.19360000 18.04700000
-2.50930000 -0.20010000 18.59420000
-9.85670000 -6.54220000 23.10510000
-9.16330000 -5.94660000 23.08620000
-8.62620000 -5.71750000 23.09290000
29.05520000 -5.18410000 11.27650000
29.36370000 -5.48750000 11.21750000
29.74400000 -5.62530000 11.00640000
-14.51040000 22.21180000 17.09820000
-15.15870000 21.84740000 17.62130000
-15.59180000 21.65100000 17.95320000
-7.01990000 12.26830000 15.52800000
-6.78330000 12.56340000 15.17590000
-6.39790000 12.86260000 14.61740000
-6.20100000 12.85030000 14.41740000
-27.44220000 -3.20230000 13.17010000
-27.24950000 -3.11440000 13.10320000
-27.23110000 -2.96150000 12.98200000
-27.19120000 -2.80400000 12.88100000
-36.60310000 15.67900000 6.90130000
-36.61590000 15.85490000 6.66740000
-36.71940000 16.08220000 6.26480000
-36.77170000 16.24860000 5.81560000
-44.41910000 9.43850000 -11.53050000
-44.18280000 9.59710000 -11.05960000
-43.97350000 10.00170000 -10.77280000
-42.06230000 28.44780000 -3.35330000
-42.21760000 27.85180000 -3.77610000
-42.35270000 27.22000000 -4.12710000
15.66180000 2.58650000 8.83840000
15.74130000 2.42360000 8.82950000
15.91570000 2.31830000 8.83420000
23.98530000 -9.42180000 15.50940000
24.60000000 -9.15070000 15.61720000
23.53310000 -9.61070000 15.63790000
25.03300000 -9.01740000 15.65850000
-13.60020000 33.04170000 -17.96670000
-13.39540000 32.74960000 -18.01880000
-13.26330000 32.53110000 -18.04080000
-37.77470000 -3.44660000 -17.55630000
-37.87050000 -3.25190000 -18.20860000
-37.99040000 -3.02630000 -18.78970000
32.50740000 -12.26800000 -26.29570000
33.05490000 -12.49850000 -26.23260000
32.03170000 -12.14920000 -26.41030000
25.87120000 -8.73630000 13.88120000
26.24570000 -8.64310000 13.77810000
26.94860000 -8.52800000 13.60210000
-33.55170000 -8.31690000 -20.33470000
-33.30320000 -7.68430000 -20.34130000
-33.08560000 -7.19340000 -20.33610000
5.22530000 -22.69660000 -2.30870000
5.36980000 -22.73040000 -2.42180000
5.12480000 -22.63950000 -2.09950000
39.60790000 -21.94780000 12.22350000
39.99720000 -21.85960000 12.05430000
39.10200000 -22.02670000 12.35720000
20.91920000 -12.82720000 -4.75560000
21.07120000 -12.82140000 -5.11280000
20.75750000 -12.88960000 -4.49110000
20.72020000 -12.85370000 -4.21070000
20.47600000 -13.14360000 -3.58550000
20.51460000 -13.17500000 -3.38840000
20.56240000 -13.00540000 -3.82570000
20.69450000 -12.86650000 -4.00290000
-26.40170000 37.08680000 -15.74500000
-26.20710000 36.81150000 -15.76820000
-26.59190000 37.26750000 -15.74520000
-21.25840000 -20.06820000 21.45220000
-21.17920000 -19.83260000 21.64480000
-21.05950000 -19.62160000 21.79160000
20.59070000 -13.30960000 -3.09230000
20.70310000 -13.39200000 -2.96480000
20.57870000 -13.19680000 -3.26610000
-37.93270000 37.08940000 -10.20320000
-37.61320000 37.47430000 -9.98880000
-37.39880000 37.77540000 -9.73730000
2.44700000 -10.13580000 2.99780000
2.85180000 -10.08980000 2.98920000
2.91040000 -10.21680000 3.23780000
2.15300000 -10.19310000 2.99990000
1.90400000 -10.33750000 3.15690000
-17.03500000 22.26110000 -26.62470000
-16.88430000 21.90450000 -26.79520000
-16.65000000 21.57580000 -26.85480000
41.32260000 -13.88150000 -8.76990000
41.27690000 -13.39370000 -8.78280000
41.19520000 -12.66790000 -8.89170000
3.28630000 -10.35570000 3.49590000
3.62730000 -10.44820000 3.59470000
2.90720000 -10.34860000 3.47700000
-14.79520000 18.40870000 10.02960000
-15.18330000 18.44110000 9.99400000
-15.45930000 18.49330000 10.02250000
41.23710000 -14.09470000 -7.90770000
41.20220000 -14.10930000 -8.06580000
41.17980000 -13.89920000 -8.20340000
-12.04970000 15.20510000 -29.72240000
-11.78370000 15.12390000 -29.77580000
-12.35540000 15.29960000 -29.62320000
-13.62800000 17.92240000 10.80670000
-14.07930000 18.02440000 10.65370000
-13.36020000 17.90000000 10.76020000
26.99200000 4.65800000 -7.14210000
27.63710000 4.34700000 -7.22680000
27.93470000 4.22550000 -7.44910000
15.79250000 -4.35250000 -25.56440000
15.91430000 -3.72550000 -25.66320000
16.37490000 -3.40140000 -25.79530000
8.78740000 17.92280000 -13.58760000
9.23700000 17.75970000 -13.06190000
8.26200000 18.10490000 -14.10600000
-32.55160000 -9.25900000 -14.19850000
-32.07530000 -9.21090000 -13.93080000
-31.81980000 -9.10520000 -13.75680000
23.53460000 -20.76130000 -19.49390000
23.21020000 -20.59360000 -19.44440000
23.97850000 -20.77650000 -19.24090000
23.06520000 -20.35600000 -19.20680000
-37.93640000 24.80050000 15.27100000
-37.61090000 24.73150000 15.27590000
-37.28740000 24.62540000 15.20160000
-8.09990000 -17.20750000 -13.08270000
-7.88080000 -16.93430000 -13.22930000
-7.52130000 -16.59660000 -13.49480000
-23.19620000 42.38200000 -10.41220000
-22.93160000 42.16400000 -10.64840000
-23.25470000 42.66620000 -10.11310000
-12.30080000 -9.91960000 13.96020000
-12.25650000 -10.20550000 13.84210000
-12.15440000 -10.57490000 13.71850000
2.85640000 23.02830000 -3.92010000
2.92880000 23.20210000 -3.66540000
2.73810000 22.88460000 -4.11520000
3.77730000 2.01080000 11.04880000
3.93100000 2.07800000 10.95980000
4.20580000 2.07120000 10.88340000
-18.83230000 -19.45790000 -11.31660000
-18.97830000 -19.25410000 -10.80930000
-19.48240000 -18.70010000 -10.45110000
6.68750000 12.95250000 -21.44040000
6.98580000 12.85850000 -21.66390000
7.18980000 12.77070000 -21.87900000
-26.60260000 12.38270000 20.40280000
-26.22930000 12.21970000 20.41210000
-25.80430000 12.08170000 20.40910000
-40.20980000 8.11400000 -5.01060000
-40.17520000 8.12090000 -5.14560000
-40.22090000 8.12990000 -5.27960000
5.08580000 -20.74310000 -11.09370000
5.03530000 -20.60040000 -11.21160000
4.91760000 -20.51380000 -11.49840000
-39.02280000 15.94620000 11.14230000
-38.91710000 15.84090000 10.98930000
-38.84960000 15.65430000 10.79710000
-38.78070000 15.42910000 10.80890000
18.73400000 -21.16860000 14.69200000
19.06070000 -21.26560000 14.74320000
19.46700000 -21.38470000 14.95990000
19.92010000 -21.43100000 14.86840000
40.54090000 -11.44270000 -4.25320000
40.57270000 -11.24590000 -4.13850000
40.47500000 -11.03910000 -3.92020000
40.42900000 -10.90690000 -3.72190000
-38.69260000 15.10920000 10.77570000
-38.62230000 14.79990000 10.57020000
-38.54660000 14.51620000 10.46740000
21.05730000 -21.71770000 15.77180000
21.02310000 -21.67430000 15.34060000
20.30700000 -21.48140000 14.77080000
20.67320000 -21.58840000 14.98480000
8.40490000 -16.33420000 -30.45700000
8.35290000 -15.89520000 -30.52960000
8.32140000 -15.49770000 -30.55280000
-18.04970000 29.33200000 -20.14730000
-18.32940000 29.66620000 -19.95590000
-18.56410000 30.22830000 -19.42710000
19.43160000 -10.89410000 -31.82980000
19.55070000 -10.87930000 -31.18710000
19.74960000 -11.07920000 -30.88700000
13.24410000 -10.71550000 25.29450000
13.55430000 -11.16890000 25.34760000
12.98220000 -10.24490000 25.21420000
-35.36420000 -21.40090000 -16.43600000
-34.86970000 -21.67440000 -16.46700000
-36.06570000 -20.90760000 -16.53950000
-35.69510000 -21.13440000 -16.57580000
42.23710000 -19.93240000 9.57040000
42.35980000 -19.68430000 9.54410000
42.45400000 -19.43080000 9.53280000
13.39860000 -21.65950000 24.30890000
14.11660000 -21.72400000 24.25730000
14.92560000 -21.78230000 23.83080000
17.45270000 7.80200000 1.36070000
17.45030000 7.66950000 1.40010000
17.49200000 7.59330000 1.36520000
-1.73920000 14.70190000 11.65630000
-1.43320000 14.69770000 11.81740000
-1.94130000 14.42960000 12.03300000
-36.23690000 16.23870000 -21.81600000
-35.97950000 16.32650000 -22.06190000
-35.73280000 16.38560000 -22.26430000
28.56910000 -12.98620000 19.66410000
28.52080000 -13.26460000 19.79750000
28.23310000 -13.53600000 20.00600000
28.49390000 -12.78980000 19.56220000
-38.82240000 19.79520000 0.81610000
-38.57030000 19.68510000 0.70040000
-38.29840000 19.52040000 0.62110000
16.56070000 -21.00430000 -24.55480000
16.71640000 -20.87280000 -24.37170000
16.77580000 -21.14880000 -24.83620000
16.94410000 -21.28410000 -25.14930000
17.51610000 8.04950000 -1.22490000
17.48850000 8.19070000 -2.01130000
17.42380000 8.33570000 -2.32330000
-40.88440000 6.38690000 12.61370000
-41.21930000 5.97820000 12.52010000
-41.44320000 5.66850000 12.41290000
16.49900000 -20.32410000 -23.70740000
16.60610000 -20.55930000 -23.96300000
16.82930000 -20.73880000 -24.21050000
27.34500000 -11.28670000 -27.48920000
27.29860000 -11.53600000 -27.81570000
27.59660000 -11.80580000 -28.01120000
35.34520000 -19.10960000 -3.51940000
35.42620000 -18.83670000 -3.19340000
35.43410000 -18.71270000 -2.95050000
-16.89360000 30.25080000 -18.47470000
-16.63960000 30.21290000 -18.51450000
-16.43780000 30.19470000 -18.55150000
-30.96060000 44.50490000 4.55620000
-30.38120000 44.84330000 3.88540000
-31.65670000 44.08190000 5.20480000
3.43400000 -20.70500000 7.43500000
3.11700000 -20.67570000 7.58250000
2.71010000 -20.64020000 7.69010000
-6.00370000 25.32360000 7.67820000
-6.07760000 24.97060000 7.89920000
-6.16040000 24.46890000 8.09580000
13.86730000 -10.32070000 15.65990000
14.16840000 -10.22700000 15.86920000
14.66640000 -10.28820000 16.07390000
17.35320000 -11.16660000 12.08900000
17.58520000 -10.97040000 12.19980000
17.19350000 -11.52060000 11.92690000
9.18900000 -19.29220000 24.40550000
9.55270000 -19.50420000 24.57130000
9.02250000 -19.22530000 24.24760000
18.44180000 -12.30200000 16.26320000
18.32760000 -12.55370000 15.88760000
18.53680000 -12.09480000 16.53670000
-43.82190000 20.49520000 -11.33520000
-43.56620000 20.43470000 -11.49260000
-44.01820000 20.59660000 -11.22700000
-12.83770000 26.53360000 17.01850000
-12.70320000 26.24420000 16.88260000
-12.37290000 26.05970000 16.58030000
-24.87980000 23.04670000 20.39730000
-24.64690000 23.14880000 20.12480000
-24.39010000 23.16230000 19.99790000
39.72710000 -6.16690000 -3.34040000
39.49360000 -5.62090000 -2.35140000
39.40470000 -5.49210000 -1.83900000
36.27040000 -18.07130000 -8.46730000
36.28990000 -17.87430000 -8.66560000
36.23230000 -17.71280000 -8.88350000
-43.57400000 9.70870000 -20.57650000
-43.34910000 9.56990000 -21.15280000
-43.84110000 9.64620000 -20.02300000
19.34160000 -14.82330000 -18.41840000
19.79620000 -14.73630000 -18.54700000
20.00910000 -14.65400000 -18.71280000
39.28850000 -8.01810000 -16.13730000
39.77530000 -8.50580000 -16.35250000
40.28190000 -9.00830000 -16.45320000
34.84240000 -17.24980000 -11.34140000
35.35610000 -17.30940000 -11.25470000
34.48010000 -17.14810000 -11.32120000
34.09870000 -12.09150000 -24.84000000
35.27940000 -12.29120000 -24.33470000
35.96700000 -12.39670000 -23.94370000
19.58100000 -14.17670000 -20.02220000
19.52950000 -14.20140000 -19.84490000
19.44440000 -14.26950000 -19.63400000
3.40640000 -19.88680000 9.56830000
3.92710000 -19.80590000 9.49620000
2.95550000 -19.92360000 9.65280000
41.00540000 -19.14220000 -11.63810000
41.19340000 -18.92340000 -11.46600000
41.33500000 -18.64080000 -11.27820000
-23.76870000 8.21930000 18.25350000
-23.79680000 8.49910000 18.47210000
-23.60200000 7.90490000 17.99440000
-23.57390000 8.19670000 18.22290000
-23.69170000 8.56130000 18.56080000
-23.51520000 8.38930000 18.44630000
15.79900000 -17.17430000 7.14840000
15.59130000 -17.12590000 7.35250000
15.40370000 -17.06810000 7.53770000
15.49070000 -16.97390000 7.69660000
18.13890000 -21.70630000 -29.96590000
18.50970000 -21.68490000 -29.60160000
18.98500000 -21.69720000 -28.92070000
31.97490000 -2.48010000 -14.04550000
32.17330000 -2.56130000 -13.68580000
31.90220000 -2.50520000 -14.36890000
14.55950000 -16.74260000 8.42810000
15.13130000 -16.78030000 8.10070000
15.49520000 -16.85260000 7.86680000
13.48820000 9.76960000 10.51640000
13.67960000 9.29740000 10.64260000
13.93330000 8.88570000 10.72710000
-18.55290000 22.46910000 -26.66650000
-18.88650000 22.75600000 -26.51110000
-19.30890000 23.15840000 -26.35350000
42.65900000 -12.42970000 -18.02240000
43.44870000 -13.46380000 -18.25570000
43.97470000 -14.43790000 -18.78910000
-18.12050000 -16.44850000 0.02140000
-17.76760000 -16.62480000 0.17050000
-18.49380000 -16.21990000 -0.21740000
-27.16530000 -11.83680000 18.49980000
-26.93110000 -12.58690000 18.71600000
-27.26320000 -11.45440000 18.30450000
3.54880000 -19.49640000 6.81860000
3.76600000 -19.06080000 6.55220000
3.94560000 -18.73110000 6.40540000
32.75330000 -17.86340000 -9.26090000
33.04890000 -17.93940000 -9.32490000
33.28600000 -18.15720000 -9.26820000
16.19050000 -8.80540000 21.42230000
15.88680000 -8.61200000 21.69470000
15.41790000 -8.42870000 21.76200000
10.77200000 -8.75320000 -30.17980000
11.13820000 -8.52650000 -30.12750000
11.37760000 -8.39640000 -30.02410000
-35.86550000 -16.14190000 -21.03070000
-35.38720000 -16.17390000 -21.30020000
-36.30510000 -16.57450000 -20.64040000
-36.25490000 -16.33040000 -20.74270000
-16.38960000 -18.48560000 14.34080000
-16.07450000 -18.49510000 14.34850000
-15.80780000 -18.36850000 14.30880000
-16.72250000 -18.66980000 14.37360000
-29.80630000 20.08130000 21.15760000
-29.52920000 19.71600000 21.15280000
-29.39980000 19.47090000 21.13830000
-9.90250000 40.61800000 2.18390000
-9.53250000 40.47360000 2.50400000
-9.21010000 40.27870000 2.96480000
-7.50190000 37.91030000 -3.02440000
-7.10280000 37.72260000 -3.13980000
-7.93420000 37.93090000 -2.99290000
21.83240000 -21.36620000 21.69360000
21.61160000 -21.42690000 21.45710000
21.25250000 -21.48540000 21.03310000
-16.06790000 -10.18470000 17.62500000
-15.94510000 -10.09680000 17.90400000
-15.85330000 -9.98550000 18.10530000
0.73060000 12.09110000 15.75380000
0.97440000 11.88670000 15.88900000
1.27750000 11.65410000 16.10850000
38.10100000 -21.06920000 -15.98720000
38.64250000 -20.96450000 -15.53140000
37.46760000 -21.16810000 -16.34150000
-43.32720000 23.18380000 -8.31460000
-43.33190000 23.00920000 -8.34870000
-43.29060000 22.83920000 -8.40080000
19.50080000 -12.26390000 -24.18660000
19.54310000 -12.36710000 -24.29340000
19.52730000 -12.41360000 -24.44360000
-42.91460000 30.37620000 6.67030000
-42.69730000 30.71370000 6.83310000
-43.04670000 30.16520000 6.55870000
23.22410000 -9.32170000 13.05210000
23.16990000 -9.53270000 13.10660000
22.99220000 -9.74890000 13.17520000
23.13310000 -9.71300000 13.22960000
16.68100000 8.60190000 6.54980000
16.96320000 8.73780000 6.08530000
17.18460000 8.82650000 5.60640000
-14.76410000 11.68020000 18.64850000
-14.18680000 11.71610000 18.49720000
-14.83340000 12.29350000 18.24300000
-15.05780000 11.88380000 18.56690000
-35.25960000 28.05910000 16.10490000
-35.36250000 27.96550000 15.84550000
-35.40070000 27.90540000 15.61460000
-42.16060000 6.35340000 10.69850000
-42.01850000 6.33050000 11.02620000
-41.87160000 6.24530000 11.35190000
-15.54870000 11.40660000 19.02560000
-15.16670000 11.63690000 18.77660000
-15.96190000 11.14070000 19.23450000
-2.36340000 11.43690000 -28.92230000
-1.59700000 11.04290000 -28.79990000
-0.89490000 10.76650000 -28.66620000
18.89970000 -14.37590000 11.36570000
19.12290000 -14.52730000 11.49290000
19.21850000 -14.66030000 11.61900000
-25.75610000 45.12280000 6.53580000
-24.90910000 45.36650000 5.96010000
-24.59050000 45.69740000 4.72580000
-24.60790000 45.57570000 5.29070000
-18.42080000 -7.33600000 16.42020000
-18.14720000 -7.79630000 16.23390000
-18.69440000 -7.09340000 16.68220000
-0.35970000 9.56170000 -29.76380000
0.00070000 9.11420000 -30.08070000
0.23300000 8.81220000 -30.25760000
-24.12760000 45.50970000 5.56880000
-23.68340000 45.44350000 5.63430000
-24.50530000 45.50490000 5.59810000
-24.30890000 12.09340000 20.41810000
-24.00190000 12.17640000 20.41780000
-23.61730000 12.66880000 20.34420000
-23.62700000 12.36440000 20.36520000
-34.15730000 20.70970000 19.37670000
-34.22290000 20.54240000 19.29870000
-34.15520000 20.88360000 19.49050000
-43.49210000 27.37990000 1.52490000
-43.42340000 27.34270000 1.16780000
-43.53870000 27.29120000 1.95300000
-33.96420000 21.05460000 18.52960000
-33.95930000 21.16480000 18.31100000
-34.03160000 21.26100000 18.12810000
8.07570000 -21.09620000 -12.40930000
8.42020000 -21.02380000 -12.42730000
7.69530000 -21.24940000 -12.49140000
4.62050000 16.41900000 8.57400000
4.74650000 16.40490000 8.87920000
4.60170000 16.38320000 8.32390000
-42.43520000 34.39020000 -4.02550000
-42.53150000 34.14180000 -3.90980000
-42.30660000 34.63080000 -4.30540000
-38.81790000 15.92220000 0.78320000
-38.74930000 16.20280000 0.26830000
-38.79080000 16.39210000 -0.07120000
36.09330000 -17.07220000 -10.36260000
36.31960000 -17.08590000 -10.23470000
36.57400000 -17.06550000 -10.16760000
-27.28220000 -12.85170000 16.78670000
-27.18840000 -13.05400000 17.04440000
-7.66050000 0.25270000 -34.53410000
-7.01980000 -0.27560000 -34.54570000
-6.49030000 -0.78800000 -34.53240000
-0.59570000 25.69390000 4.24800000
-0.38170000 25.56270000 4.09080000
-0.81590000 25.92490000 4.44670000
-11.65290000 22.01130000 12.46940000
-11.48740000 21.88080000 12.20740000
-11.34080000 21.68740000 11.98070000
-26.74320000 -14.21250000 16.85420000
-26.48420000 -14.56730000 16.78080000
-26.91880000 -13.88690000 16.83140000
-41.81340000 19.80130000 0.23270000
-41.83120000 19.70760000 -0.00570000
-41.79950000 19.51330000 -0.25530000
-36.86540000 40.59090000 1.77550000
-36.47420000 41.15680000 2.08940000
-36.16400000 41.51890000 2.19300000
-31.75530000 8.29740000 18.70130000
-31.80200000 7.89470000 18.40900000
-31.54660000 7.12430000 18.02610000
-1.70850000 -3.13580000 22.49820000
-1.29270000 -3.61690000 22.61620000
-2.05240000 -2.84650000 22.28830000
8.15110000 12.32910000 -18.37280000
8.59260000 12.13020000 -17.96220000
7.44830000 12.80870000 -18.62230000
7.58370000 12.64140000 -18.66110000
31.28800000 -16.31150000 -29.41550000
31.31090000 -16.65880000 -29.65990000
31.48450000 -16.94060000 -29.77840000
-22.36620000 23.94870000 -25.70530000
-22.15290000 23.71480000 -25.81660000
-22.65650000 24.20740000 -25.57330000
7.03310000 12.71160000 -19.39790000
7.39800000 12.59730000 -19.03540000
7.71750000 12.51340000 -18.69940000
36.81330000 -20.63590000 6.87380000
37.26250000 -20.89370000 7.18630000
36.10780000 -20.47600000 6.70110000
4.91210000 -21.15730000 5.28110000
4.83110000 -21.12190000 5.80840000
4.73200000 -21.08530000 6.16310000
4.69150000 -21.15600000 6.40920000
37.56660000 -20.14200000 6.35190000
37.67840000 -19.91540000 6.19910000
37.81360000 -19.55230000 6.01160000
4.48410000 -21.10150000 6.87020000
4.62660000 -21.18790000 6.65450000
4.32200000 -20.99380000 6.98150000
-10.20930000 40.29270000 -0.58680000
-10.01740000 40.27170000 -0.42970000
-9.75950000 40.21240000 -0.40360000
-9.56030000 40.08710000 -0.57590000
-34.53210000 31.16790000 -14.23270000
-34.46180000 30.76380000 -14.30930000
-34.34770000 30.34910000 -14.35700000
-10.64900000 34.12770000 -13.01690000
-10.75730000 34.42190000 -13.08180000
-10.90430000 34.59470000 -13.20230000
-33.12060000 37.75620000 16.03360000
-33.17700000 38.20750000 15.63310000
-32.90420000 37.34090000 16.45140000
-0.43500000 -20.60090000 9.31840000
-0.11520000 -20.26830000 9.65030000
-0.56480000 -20.72560000 9.10340000
-29.53830000 22.16760000 -23.50850000
-29.75090000 21.90460000 -23.26100000
-30.04920000 21.86480000 -22.94650000
18.84800000 -13.20300000 -5.66550000
18.91230000 -13.22670000 -6.41460000
19.02620000 -13.35460000 -7.16960000
-40.58290000 10.10910000 -24.75410000
-40.13860000 10.30730000 -25.02430000
-40.00190000 10.16210000 -25.22580000
-41.02540000 9.97610000 -24.41730000
21.80330000 -12.04630000 -28.68200000
22.03560000 -12.00740000 -28.69880000
22.34480000 -11.87600000 -28.70880000
0.61850000 14.25250000 -5.15700000
1.13480000 13.83210000 -5.13530000
0.04270000 14.61960000 -5.27950000
-40.97200000 18.85570000 -8.97970000
-40.80420000 18.66310000 -9.18180000
-41.07950000 19.00740000 -8.73640000
-44.28210000 8.78180000 -1.11990000
-44.25770000 8.45360000 -1.21700000
-44.17290000 8.22890000 -1.36870000
22.14300000 -12.83200000 -29.89440000
22.26230000 -13.02390000 -30.17860000
22.49930000 -13.12860000 -30.31470000
22.48940000 -13.24020000 -30.41450000
20.62610000 -17.74820000 23.71660000
20.81860000 -17.86360000 23.61960000
20.45230000 -17.41400000 23.77450000
-23.42830000 41.21630000 13.87340000
-22.58700000 41.05940000 13.81490000
-24.11660000 41.26240000 14.00490000
9.82350000 0.96300000 -27.18060000
10.26240000 0.84080000 -26.90630000
9.33890000 1.37480000 -27.35560000
22.44040000 -13.40240000 -30.54580000
22.56340000 -13.59130000 -30.69390000
22.41920000 -13.93470000 -30.95140000
-43.81090000 22.96020000 5.04390000
-43.84160000 23.07500000 4.14310000
-43.67520000 22.68310000 6.07260000
-13.78350000 -15.56170000 13.72660000
-13.74160000 -15.06720000 13.69930000
-13.70190000 -14.73940000 13.70840000
-10.22030000 -18.94190000 -10.37050000
-10.18650000 -19.07350000 -10.50080000
-10.10490000 -19.14630000 -10.62270000
5.07010000 -14.66900000 12.59340000
5.59380000 -14.71320000 12.43460000
6.19830000 -14.81850000 12.23430000
-22.11990000 11.53290000 -28.37930000
-21.64170000 11.69900000 -28.66230000
-22.47340000 11.55270000 -28.22290000
3.66890000 16.34400000 9.82290000
3.68120000 16.27840000 10.08930000
3.63930000 16.20410000 10.28890000
3.72050000 16.13200000 10.34440000
47.02010000 -18.36060000 -17.12680000
47.02910000 -18.42880000 -17.43540000
47.02440000 -18.56330000 -17.70570000
-9.94970000 -18.43800000 7.85310000
-9.61250000 -18.50460000 8.05060000
-9.15790000 -18.64120000 8.28230000
35.04460000 -11.85840000 15.28600000
35.38330000 -11.71590000 15.03730000
35.73410000 -11.72230000 14.79280000
-21.51870000 9.71640000 -28.32870000
-21.15740000 9.19600000 -28.41820000
-20.65260000 8.60640000 -28.59120000
20.68510000 0.96780000 -21.34810000
20.40530000 1.37620000 -20.87320000
19.92390000 1.85890000 -20.50120000
-8.85010000 -18.47520000 8.92010000
-8.62660000 -18.43710000 9.11200000
-9.07070000 -18.48320000 8.72810000
9.39010000 -12.43630000 26.32210000
9.57390000 -12.54030000 26.37080000
9.75750000 -12.65880000 26.38580000
25.78200000 5.18610000 -5.44760000
26.14020000 5.01590000 -4.92320000
25.58540000 5.29950000 -5.99440000
18.93240000 -16.42520000 8.85060000
18.76180000 -16.16430000 9.15090000
18.64760000 -15.82370000 9.51650000
28.64500000 -10.80450000 -26.10620000
29.19190000 -10.86470000 -25.83860000
29.96960000 -11.04930000 -25.63500000
-22.71730000 -15.58960000 -14.03980000
-22.81680000 -15.46590000 -13.53490000
-23.07070000 -15.09920000 -12.98690000
-37.09090000 18.15630000 15.92570000
-37.12150000 18.06660000 15.75550000
-37.16930000 17.88420000 15.72180000
30.63510000 -11.19630000 -24.52130000
31.13910000 -11.35390000 -24.14640000
30.05690000 -11.03220000 -24.89670000
0.03770000 30.35340000 -1.72130000
0.19670000 30.12630000 -1.68330000
-0.07230000 30.44450000 -2.11920000
38.51780000 -10.94000000 -21.01330000
38.83230000 -11.17100000 -20.99400000
39.38180000 -11.79410000 -21.11890000
40.13500000 -12.38810000 -20.93090000
8.93990000 -11.37930000 -30.33060000
9.16990000 -11.38230000 -30.53360000
9.28710000 -11.39490000 -30.70370000
-8.59170000 29.92970000 -15.26380000
-8.54450000 29.59600000 -15.62460000
-8.56230000 30.18910000 -14.65520000
-8.04540000 28.64760000 9.17210000
-7.81060000 28.21570000 9.04900000
-7.68390000 27.68140000 9.18840000
-7.60310000 27.28300000 9.25380000
38.07460000 -12.77060000 -22.83990000
38.36330000 -13.05470000 -22.91220000
37.82020000 -12.56780000 -22.77900000
-36.90150000 16.64180000 5.01520000
-36.80490000 16.40860000 5.41590000
-36.93180000 16.84850000 4.68750000
21.69870000 -10.82460000 13.46980000
21.94700000 -10.67540000 13.64640000
21.55990000 -10.85770000 13.28810000
-8.68450000 29.77320000 9.41190000
-8.40890000 29.44550000 9.20690000
-8.24250000 28.99260000 9.27180000
38.48590000 -16.33440000 14.68390000
38.77450000 -16.29920000 14.38140000
38.74560000 -16.12530000 14.28470000
38.12230000 -16.53710000 15.25350000
38.18400000 -16.38520000 15.05400000
5.23330000 -21.37790000 6.98560000
5.54720000 -21.46280000 6.64780000
4.85310000 -21.29380000 7.25710000
-5.68810000 24.92200000 -7.52690000
-5.57870000 24.50950000 -7.64460000
-5.69610000 25.26580000 -7.43820000
-5.55310000 25.13830000 -7.42200000
0.93210000 -4.75900000 22.35770000
1.05110000 -4.51000000 21.96810000
0.73320000 -4.88500000 22.57010000
38.91030000 -15.92160000 13.98820000
39.43390000 -16.07440000 13.58980000
38.61530000 -15.91390000 14.25530000
6.82660000 -15.07810000 -14.38980000
7.37490000 -14.78910000 -14.02210000
7.65790000 -14.80020000 -13.74580000
12.28510000 -9.80740000 -7.78930000
12.24590000 -9.67180000 -8.20530000
12.11110000 -9.70850000 -9.04740000
12.17050000 -9.57760000 -8.64360000
1.49110000 13.09780000 -1.21190000
0.92420000 13.12210000 -0.66730000
0.51280000 13.18140000 -0.29990000
11.98050000 -9.84120000 -9.61680000
11.89870000 -9.87230000 -9.85810000
12.06270000 -9.86370000 -9.32250000
38.74170000 -21.19230000 14.44060000
38.37520000 -21.36910000 14.76230000
37.99630000 -21.38710000 15.07950000
-34.46280000 -3.77190000 -27.03680000
-34.34720000 -3.35840000 -27.36770000
-34.22190000 -3.07220000 -27.66130000
-33.50240000 35.77210000 -11.65200000
-33.46540000 35.31990000 -11.95160000
-33.58420000 34.94560000 -12.08180000
8.17750000 -16.90480000 24.07510000
8.39630000 -17.50890000 24.21810000
8.04790000 -16.37690000 24.01930000
-22.09480000 -6.07220000 -25.64120000
-21.96730000 -6.57500000 -25.38290000
-21.85370000 -6.54390000 -25.36990000
-22.17900000 -5.35350000 -25.98220000
13.20470000 12.03620000 -12.45550000
13.32620000 11.88020000 -12.39850000
13.06850000 12.22900000 -12.45810000
-32.42290000 36.58120000 -13.27700000
-32.45150000 36.20370000 -13.52840000
-32.52450000 35.90550000 -13.61570000
2.36430000 23.09300000 -7.18270000
2.17600000 22.59430000 -7.45940000
1.91080000 21.95360000 -7.63540000
-21.63260000 -6.49240000 -25.44330000
-21.47410000 -6.30940000 -25.63490000
-21.76700000 -6.37930000 -25.45720000
11.40710000 -20.06910000 -4.00120000
11.50490000 -19.86910000 -4.21190000
11.41860000 -20.08620000 -3.34840000
-7.23760000 32.55570000 8.08850000
-7.10090000 32.25990000 8.03890000
-7.27200000 32.73060000 8.11130000
-19.37900000 5.74110000 12.48640000
-19.53350000 5.58620000 12.50940000
-19.20720000 5.84610000 12.50010000
-19.25870000 5.91060000 12.59520000
-13.00490000 17.57310000 -27.97860000
-13.44890000 17.44900000 -28.10260000
-13.85130000 17.40760000 -28.21170000
-19.15910000 34.13360000 -16.52300000
-19.00600000 34.23610000 -16.39520000
-18.82840000 34.27140000 -16.35010000
-30.19450000 28.57840000 18.65220000
-30.16930000 28.74020000 18.67510000
-30.10240000 28.84640000 18.72220000
40.52890000 -9.83850000 -8.39400000
40.54680000 -10.05190000 -8.15570000
40.58330000 -9.65910000 -8.76940000
-35.42720000 24.32720000 14.27000000
-35.25500000 24.17990000 14.16850000
-35.09390000 24.08310000 14.15910000
-6.91610000 18.04860000 -27.72140000
-6.48130000 17.69870000 -27.69540000
-6.13270000 17.54880000 -27.66610000
-13.00080000 21.67720000 14.29280000
-13.00030000 21.86730000 13.80890000
-13.23700000 21.92220000 13.48530000
3.08370000 3.03600000 11.57310000
3.32220000 2.80860000 11.39400000
3.40760000 2.64280000 11.26500000
-6.39120000 16.82290000 -27.89200000
-6.19030000 16.57150000 -27.96810000
-5.86040000 16.32130000 -28.07980000
31.61200000 -17.14740000 -11.50610000
31.94760000 -17.02460000 -11.27380000
32.16820000 -16.99000000 -11.09130000
-6.81530000 7.70490000 10.86230000
-6.79910000 7.68160000 11.40620000
-6.52140000 7.97720000 11.66850000
-6.23250000 8.33440000 11.69810000
-36.09940000 13.55350000 13.16470000
-35.73700000 13.83500000 13.14750000
-35.44630000 14.07970000 13.17240000
-6.75630000 7.72580000 11.71100000
-6.94490000 7.59890000 12.08260000
-7.20670000 7.45920000 12.66930000
-19.53580000 -14.98390000 -21.64270000
-19.32840000 -15.29620000 -21.59360000
-19.59340000 -14.45070000 -22.05140000
-20.08450000 -13.46450000 -22.28290000
-37.22560000 28.10410000 -16.49510000
-37.36660000 27.34760000 -16.79840000
-37.55220000 26.44910000 -17.11790000
25.66390000 -17.97330000 -7.85960000
25.58700000 -17.77170000 -7.40410000
25.77230000 -18.18670000 -8.22080000
-4.32390000 26.57630000 6.80690000
-4.15340000 26.53760000 6.72720000
-3.85930000 26.14180000 6.48500000
-42.34890000 5.02100000 -8.18410000
-41.79480000 4.56830000 -7.91560000
-42.62940000 5.39800000 -8.28850000
-36.39460000 26.72610000 -16.63810000
-36.03800000 26.64720000 -16.47310000
-36.64340000 26.89780000 -16.70620000
28.74160000 -17.53230000 4.17300000
28.67600000 -17.70450000 3.94820000
28.72540000 -17.38080000 4.45540000
28.90200000 -17.30640000 4.49040000
3.01830000 19.61390000 -11.25550000
3.14450000 19.71540000 -11.54240000
3.27140000 19.76650000 -11.75030000
-14.91990000 -18.99530000 -0.05310000
-14.84150000 -19.24000000 -0.41400000
-14.70440000 -19.23640000 -0.17100000
-15.05310000 -18.75330000 0.37550000
5.15270000 -5.19050000 13.15010000
5.28590000 -4.99350000 12.95730000
5.43070000 -5.05230000 12.83890000
4.96000000 -5.26250000 13.31000000
30.24980000 -8.53630000 -21.51290000
30.60690000 -8.80620000 -21.54870000
30.91780000 -9.02710000 -21.60240000
28.21940000 -21.75180000 20.53160000
28.84920000 -21.71050000 20.36970000
29.62790000 -21.67830000 20.07600000
-14.08700000 -19.70360000 0.50040000
-13.91900000 -19.67770000 0.96680000
-13.71420000 -19.83300000 1.15110000
-13.56060000 -20.06650000 0.92870000
31.92340000 -18.82080000 -0.54390000
32.23490000 -19.05020000 -0.64050000
32.55520000 -19.25600000 -0.85720000
30.44000000 -21.96930000 19.30220000
31.21780000 -22.01740000 18.84490000
31.94400000 -22.04450000 18.37620000
-14.50010000 -19.54560000 -0.22610000
-14.29220000 -19.71720000 -0.00830000
-14.58890000 -19.28780000 -0.01960000
-16.74770000 -16.70930000 1.28420000
-16.59240000 -16.59010000 1.70310000
-16.46120000 -16.44840000 2.05510000
-22.51840000 2.62790000 -30.75330000
-22.45740000 2.32780000 -30.42840000
-22.44480000 3.11730000 -31.03170000
-22.42440000 3.50810000 -31.26500000
-12.21440000 -19.37010000 -2.89080000
-12.20700000 -19.30580000 -3.24580000
-12.12870000 -19.26040000 -2.48440000
-35.94810000 -11.76700000 -18.58300000
-35.49130000 -11.56120000 -18.53870000
-35.11500000 -11.48790000 -18.58770000
11.42430000 14.03980000 -11.29700000
11.57890000 14.74290000 -10.76610000
11.75710000 15.74360000 -10.02280000
11.74870000 15.46400000 -10.23520000
-7.61620000 38.72500000 -2.06770000
-7.47640000 38.71060000 -1.94450000
-7.62100000 38.60200000 -2.26810000
11.72080000 15.09480000 -10.47060000
11.84520000 14.90650000 -10.52330000
12.02290000 14.81710000 -10.54340000
-12.90630000 30.03930000 -17.71140000
-12.76850000 29.93310000 -17.68200000
-12.61810000 29.83880000 -17.65970000
-18.00680000 44.48610000 -1.20030000
-17.59090000 44.28850000 -1.41060000
-17.29750000 44.15870000 -1.86160000
-42.97960000 22.64740000 -1.00920000
-42.96530000 22.40250000 -0.44300000
-43.03030000 22.99060000 -1.16870000
-42.97430000 22.81360000 -1.30930000
-12.15690000 12.25550000 17.43940000
-12.03880000 12.75560000 16.97040000
-11.78290000 13.09090000 16.60760000
15.29980000 7.34910000 -19.21940000
15.56980000 6.99490000 -19.16200000
15.67210000 6.67340000 -19.24560000
-38.66850000 -1.07980000 -10.43720000
-38.19490000 -1.33300000 -10.32620000
-37.92330000 -1.47670000 -10.19900000
-37.97440000 -1.32170000 -9.98760000
-43.12400000 24.28130000 -0.81370000
-43.05050000 23.54680000 -1.16630000
-43.05610000 23.19750000 -1.11470000
1.67690000 -10.41810000 3.11070000
1.58030000 -10.36290000 2.85990000
1.72430000 -10.19870000 2.51620000
-4.86920000 34.81690000 6.66840000
-4.72570000 34.94570000 6.26410000
-4.96550000 34.50120000 7.06530000
22.72520000 -8.87300000 -24.72990000
23.12370000 -9.14760000 -24.59780000
22.27970000 -8.72690000 -24.82860000
40.74000000 -14.86700000 -1.51210000
40.97610000 -15.00240000 -1.42850000
40.44940000 -14.70270000 -1.51030000
11.05840000 -14.14060000 26.61890000
11.35890000 -14.05780000 26.66410000
11.65780000 -14.03710000 26.68760000
12.25280000 -12.97630000 14.34370000
11.94610000 -13.21130000 14.39640000
11.61960000 -13.44360000 14.40470000
35.85570000 -3.99680000 2.12910000
36.18300000 -4.40940000 2.14380000
35.43130000 -3.50080000 2.20520000
-37.66310000 -18.58780000 -15.13980000
-37.68680000 -18.76780000 -15.36950000
-37.60810000 -18.33820000 -14.91410000
8.12250000 -2.21890000 12.36040000
8.19890000 -2.11570000 12.30750000
8.34980000 -2.33520000 12.50400000
8.57400000 -2.49600000 12.61180000
7.81640000 -1.85160000 11.78480000
8.04590000 -1.92550000 12.04540000
8.27520000 -2.01280000 12.24580000
-10.58580000 5.40430000 14.84840000
-10.58740000 5.57370000 15.21520000
-10.58900000 5.74570000 15.71200000
17.50550000 -14.41110000 -0.85190000
17.89470000 -14.11270000 -1.38370000
18.25710000 -14.00260000 -1.49160000
-17.76390000 4.08070000 12.12150000
-17.42700000 4.72070000 11.84000000
-17.16280000 4.99950000 11.78600000
-11.94270000 -13.19110000 13.47150000
-11.76360000 -13.38000000 13.41170000
-11.40400000 -13.59870000 13.35380000
-10.19930000 5.27010000 13.67210000
-10.03930000 5.36630000 13.91630000
-10.05340000 5.47250000 14.25600000
-30.65970000 1.73050000 10.66700000
-30.71000000 1.58700000 10.53780000
-30.83330000 1.52460000 10.39040000
-30.85150000 1.31470000 10.44510000
14.38330000 16.75730000 -5.94690000
14.53390000 16.56390000 -6.04070000
14.69100000 16.34400000 -6.09930000
-37.09470000 16.32070000 16.18360000
-36.94260000 16.31990000 16.20990000
-36.83220000 16.29730000 16.15390000
-12.62020000 38.02310000 10.70420000
-12.37840000 38.28590000 10.04970000
-12.74300000 37.79530000 11.23280000
-22.52870000 38.47360000 16.74970000
-22.95200000 37.94430000 17.33760000
-23.04680000 37.29580000 17.86190000
10.32180000 12.90500000 10.14820000
10.55290000 12.96940000 9.76700000
10.73830000 13.04970000 9.33090000
-13.63520000 39.21280000 10.41510000
-13.32350000 38.84040000 10.55610000
-14.35810000 40.18390000 9.82150000
-14.18080000 39.78290000 10.21860000
-5.44180000 24.99880000 -7.40950000
-5.38090000 25.24980000 -7.36220000
-5.21990000 25.40790000 -7.36100000
-19.37030000 5.63580000 18.50150000
-19.09330000 5.51710000 18.52870000
-19.75220000 5.83780000 18.44730000
-1.56590000 17.29980000 -4.56480000
-1.60090000 17.10160000 -4.63070000
-1.54920000 16.97720000 -4.78250000
-33.21910000 -9.86440000 -15.70780000
-32.82690000 -9.85020000 -15.37910000
-32.27930000 -9.89440000 -15.07060000
-29.36630000 41.59490000 -10.30010000
-29.11420000 41.40840000 -10.74940000
-28.89470000 41.27050000 -11.05470000
-36.65460000 -17.64820000 -13.23110000
-36.53900000 -17.88860000 -13.21460000
-36.44010000 -18.19350000 -13.15230000
31.41800000 1.48310000 -9.96130000
31.67480000 1.18630000 -9.71520000
31.19240000 1.62020000 -10.16170000
23.55870000 -11.80260000 20.04150000
23.62120000 -11.41310000 19.74680000
23.67930000 -11.02490000 19.38720000
-29.11620000 -0.43780000 11.48230000
-29.21940000 -0.50010000 11.35350000
-29.84670000 17.57300000 -25.22140000
-29.60070000 17.66040000 -25.39800000
-29.39820000 17.93750000 -25.47620000
-38.23820000 38.01340000 -8.36140000
-38.12500000 38.29290000 -7.94440000
-38.04120000 38.48600000 -7.55940000
4.90750000 12.68630000 13.59030000
5.12920000 12.55240000 13.59900000
5.29940000 12.45390000 13.67200000
-26.81960000 -20.84880000 -14.52220000
-26.88530000 -20.87590000 -14.25550000
-26.64330000 -20.65320000 -14.70860000
-26.50010000 -20.44870000 -14.90600000
31.79950000 -17.56660000 -9.64070000
32.06900000 -17.44570000 -9.74120000
31.57100000 -17.68590000 -9.55560000
-28.18370000 28.98570000 18.37040000
-28.59120000 28.79670000 18.17130000
-29.02030000 28.69170000 18.20490000
-36.35030000 28.77460000 16.59290000
-36.08260000 28.55680000 16.34530000
-36.63850000 28.98260000 16.71020000
-1.97580000 30.57360000 -5.72650000
-1.76710000 30.18320000 -5.87890000
-2.20840000 31.03530000 -5.61610000
-40.27370000 11.55050000 -23.82080000
-39.84080000 11.89180000 -24.01920000
-40.44790000 11.51810000 -23.62280000
2.69420000 -8.43880000 -31.88090000
3.24670000 -8.75970000 -31.59820000
2.18860000 -7.62930000 -32.26050000
-22.41960000 4.21240000 15.27180000
-22.13590000 4.68460000 15.16290000
-21.97680000 5.15950000 15.20890000
-42.64120000 11.84400000 -6.56830000
-42.32120000 11.81850000 -6.78260000
-42.11440000 11.74180000 -6.94300000
-6.95750000 -22.82620000 -12.82090000
-6.61810000 -22.82250000 -13.15660000
-5.86760000 -22.79160000 -13.62560000
-39.52680000 10.09610000 12.22200000
-39.21890000 10.18830000 12.70280000
-39.81450000 9.94590000 11.78750000
4.12230000 14.83390000 3.05970000
4.47500000 14.82820000 3.40260000
4.61950000 14.79680000 3.65650000
-29.31980000 -8.12800000 -14.57360000
-29.09230000 -8.08700000 -14.88460000
-28.94440000 -8.07560000 -15.21310000
-33.59650000 7.27280000 -30.04790000
-33.50920000 6.90910000 -30.19570000
-33.52000000 6.41470000 -30.33140000
-21.33950000 16.97800000 18.21440000
-21.09360000 16.86910000 18.05220000
-20.76470000 16.71560000 17.86020000
4.76910000 15.65150000 2.27380000
4.68000000 15.75270000 1.87240000
4.86260000 15.46450000 2.71700000
-29.49400000 45.13330000 -0.01270000
-28.95000000 45.28260000 0.19540000
-28.75540000 45.39480000 0.55320000
-10.18420000 -18.93360000 20.91360000
-9.93830000 -18.83390000 20.83650000
-10.54000000 -19.12980000 20.85230000
-10.95260000 -19.33220000 20.79400000
-17.42810000 -9.46040000 16.94130000
-17.34210000 -9.53130000 16.81390000
-17.19400000 -9.75120000 16.90170000
-17.02840000 -9.92860000 16.99310000
-22.65350000 -19.93940000 15.17390000
-22.52370000 -20.04550000 15.29510000
-21.86880000 -20.07880000 15.02470000
-22.15490000 -20.10710000 15.17500000
-39.56520000 24.13780000 -17.78660000
-39.51280000 23.69170000 -17.92420000
-39.69110000 24.44120000 -17.65690000
-22.33000000 -20.34630000 15.77480000
-22.34550000 -20.22600000 15.58260000
-22.36050000 -20.12780000 15.35970000
-9.75060000 -18.14600000 21.62630000
-9.99610000 -18.42510000 21.49260000
-10.21580000 -18.66590000 21.35540000
13.16730000 -0.58270000 -25.71890000
12.95430000 -0.69100000 -25.80350000
12.56970000 -0.56980000 -25.89820000
12.26290000 -0.56870000 -26.02050000
-40.79440000 21.11500000 -18.17700000
-40.53390000 21.70230000 -18.15960000
-40.31290000 22.28240000 -18.09840000
13.83900000 -0.68660000 -25.58410000
14.35780000 -0.79590000 -25.54300000
13.38240000 -0.50740000 -25.64480000
-28.31400000 4.46870000 18.09570000
-28.58290000 4.89070000 18.25290000
-27.86680000 4.14170000 18.03790000
-27.47930000 3.90090000 17.96960000
-27.27140000 3.55000000 17.79040000
42.00400000 -12.50460000 -10.69660000
41.88830000 -12.92940000 -10.26840000
41.97750000 -11.63430000 -11.20040000
41.94540000 -11.84250000 -10.95290000
16.60650000 -17.61350000 -34.95910000
16.57370000 -18.05330000 -34.90820000
16.59610000 -18.39160000 -34.84430000
-29.38060000 5.65670000 18.44330000
-28.91120000 5.35380000 18.43210000
-29.71580000 5.74270000 18.32800000
16.46940000 12.52910000 -3.49700000
16.62870000 12.48530000 -3.18160000
16.35670000 12.48010000 -3.73780000
41.66210000 -11.85060000 -10.33660000
41.90500000 -12.07220000 -10.72430000
41.43470000 -11.57710000 -9.95690000
-0.34050000 15.19360000 7.97990000
-0.66970000 15.25360000 8.07800000
-1.12130000 15.26810000 8.14780000
-39.27010000 -2.33830000 -14.10860000
-38.72360000 -2.77040000 -14.05970000
-38.39480000 -2.89390000 -13.52020000
-38.37640000 -2.99400000 -13.85150000
-17.93180000 32.13210000 -17.46220000
-17.60020000 31.86580000 -17.65120000
-17.16210000 31.55430000 -17.84120000
40.29340000 -10.67280000 3.83210000
40.28430000 -10.89960000 3.40760000
40.34770000 -11.07630000 3.10980000
-22.88010000 -11.94320000 -21.79270000
-22.79600000 -11.77590000 -21.73190000
-22.66220000 -11.58090000 -21.81320000
17.92350000 -1.48640000 11.94660000
18.43900000 -1.58970000 12.03940000
17.51540000 -1.31600000 11.80560000
-38.40180000 -3.02800000 -14.09110000
-38.36630000 -3.09450000 -14.47450000
-38.58350000 -2.95150000 -15.09480000
-37.37670000 -15.25090000 -11.39690000
-37.30220000 -15.11750000 -11.07700000
-37.22250000 -15.11910000 -10.87950000
-12.48220000 -9.10120000 13.80980000
-12.41390000 -9.23680000 13.90770000
-12.60490000 -8.88900000 13.79920000
-4.06230000 -14.68890000 2.50000000
-3.80700000 -14.39800000 2.14480000
-3.82250000 -14.31060000 1.70730000
-21.99270000 44.78230000 -5.05080000
-21.64250000 44.76290000 -4.75720000
-21.35680000 44.81050000 -4.34290000
-41.91990000 33.61140000 -1.26630000
-41.84690000 33.62750000 -1.01410000
-41.76240000 33.55520000 -0.80690000
-16.00170000 7.06080000 20.65490000
-15.78530000 6.65760000 20.49080000
-15.68880000 6.43480000 20.38390000
40.62430000 -10.07360000 -7.65330000
40.83210000 -10.49450000 -7.44920000
40.47550000 -9.70550000 -7.76020000
15.19830000 14.81370000 -6.47040000
15.29390000 14.97510000 -5.98020000
15.41540000 14.79170000 -5.30160000
15.38650000 14.96130000 -5.49860000
9.89880000 3.74480000 12.85670000
10.15310000 3.75250000 12.67930000
9.60280000 3.73760000 13.12800000
20.05750000 -11.41920000 -27.43530000
20.37850000 -11.50350000 -27.59300000
20.58810000 -11.55370000 -27.62460000
-27.38150000 -21.20790000 -17.03690000
-27.57700000 -21.48970000 -16.74110000
-27.74420000 -21.68550000 -16.56510000
10.60730000 -8.35640000 20.16540000
10.65580000 -8.38530000 20.39150000
10.72650000 -8.35310000 20.60280000
-42.83750000 4.10440000 5.59580000
-42.62500000 3.88030000 5.44450000
-42.58990000 3.89160000 4.93050000
10.90870000 -20.09680000 -8.71300000
10.87160000 -20.33790000 -8.04410000
10.78350000 -20.53220000 -7.62850000
29.06720000 -17.05910000 4.97520000
29.04610000 -17.11920000 4.77490000
29.07770000 -17.23270000 4.51060000
-22.13530000 41.27520000 -11.55160000
-22.07730000 41.00140000 -11.82270000
-21.96410000 40.69910000 -12.14230000
-4.51890000 23.39240000 4.99700000
-4.50810000 23.62780000 5.08080000
-4.44000000 23.76370000 5.10900000
-4.26980000 23.69390000 4.95790000
4.85410000 7.66780000 16.41560000
5.12940000 7.43810000 16.33190000
4.54380000 7.69850000 16.41580000
-36.97410000 12.32940000 15.60340000
-36.67120000 12.26320000 16.00080000
-36.31780000 12.11800000 16.36990000
-34.25260000 33.53840000 -13.28310000
-34.26380000 33.34940000 -13.51770000
-34.18100000 33.76980000 -12.94690000
-3.75590000 23.49850000 4.60900000
-3.17060000 23.07640000 4.10410000
-4.04910000 23.59870000 4.78890000
42.39790000 -15.73960000 -6.87220000
42.33150000 -15.34820000 -6.90000000
42.19740000 -14.82610000 -6.89570000
13.26520000 -8.26400000 -30.12460000
13.56330000 -8.21190000 -30.11010000
12.92870000 -8.31630000 -30.19400000
-41.89010000 11.00610000 -6.13960000
-41.85600000 10.75230000 -5.86050000
-42.09030000 10.59750000 -5.52930000
18.28490000 -17.68440000 25.66790000
18.35150000 -17.32300000 25.62540000
18.46320000 -16.96140000 25.53510000
13.42260000 -8.83830000 -30.69590000
13.62940000 -8.88540000 -30.80730000
13.34470000 -8.71670000 -30.56810000
37.02950000 -6.88780000 -17.03080000
36.70510000 -6.56080000 -16.82610000
36.31030000 -6.32250000 -16.84870000
-14.46050000 15.47450000 16.17410000
-15.12240000 15.21600000 16.56860000
-15.84970000 14.99420000 17.02410000
-15.59680000 15.03820000 16.92760000
-9.87370000 -17.64370000 1.72570000
-10.12150000 -17.80920000 0.99630000
-10.26320000 -17.89250000 0.34850000
12.64630000 -9.22060000 -31.59390000
12.64120000 -9.21540000 -31.29400000
12.68700000 -9.15870000 -31.09500000
-37.01990000 14.33810000 12.32200000
-36.80810000 14.33300000 12.31410000
-36.62540000 14.50000000 12.36480000
-36.46060000 14.64590000 12.48460000
-21.07720000 28.78810000 20.22860000
-21.49770000 28.73980000 20.43450000
-21.86170000 28.75600000 20.55590000
-42.89890000 3.29330000 -21.39830000
-42.81140000 2.99650000 -21.10060000
-42.65390000 2.75120000 -20.92400000
-6.53220000 29.35240000 -6.49720000
-6.04640000 29.39740000 -6.62250000
-7.04720000 29.82730000 -6.30240000
-37.29810000 14.10910000 12.27390000
-37.24150000 13.87090000 12.31370000
-37.20620000 14.32140000 12.29480000
29.23090000 2.79320000 0.91660000
29.70200000 2.34630000 1.06140000
28.86160000 3.13240000 0.61730000
-25.96520000 21.93090000 -24.91060000
-25.94830000 21.43800000 -25.17120000
-25.92610000 20.85610000 -25.44650000
23.44740000 -21.36840000 21.70360000
23.91680000 -21.47210000 21.59230000
24.09000000 -21.45770000 21.64560000
22.76520000 -21.22520000 21.95540000
23.00220000 -21.31110000 21.80040000
-39.44020000 37.72340000 -4.91410000
-39.61780000 37.55130000 -4.43740000
-39.39180000 37.76620000 -5.31980000
-0.93580000 15.97490000 -5.99790000
-1.05050000 15.82810000 -5.87450000
-1.10870000 15.65960000 -5.78140000
6.21810000 15.87210000 6.57600000
6.06990000 16.06720000 6.98100000
6.41110000 15.68260000 6.25640000
-25.21280000 20.26630000 -26.11750000
-25.03760000 19.60980000 -26.39220000
-25.04250000 19.12780000 -26.49120000
-25.36990000 20.76020000 -25.84550000
-20.60960000 -10.21940000 21.24970000
-20.64200000 -10.54240000 21.40940000
-20.42460000 -11.08660000 21.49290000
26.31750000 3.43410000 4.43900000
25.98970000 3.38340000 4.62340000
25.74500000 3.39280000 4.74810000
-38.64710000 38.42550000 6.08060000
-38.61900000 38.39820000 6.51640000
-38.54470000 38.23670000 7.49240000
-38.56020000 38.34420000 7.13660000
-38.25120000 -11.90130000 -15.88160000
-38.30500000 -12.23880000 -15.88970000
-38.39060000 -12.44630000 -15.91260000
-9.81370000 36.92730000 -7.17830000
-9.71690000 36.74390000 -6.99120000
-9.67370000 36.64020000 -6.57420000
-9.65720000 36.49610000 -6.14310000
35.98510000 -2.72330000 -3.13730000
36.34610000 -2.91490000 -3.10500000
36.78550000 -3.15690000 -2.94720000
27.91570000 3.94260000 1.90290000
28.07340000 3.75550000 2.17690000
28.30180000 3.50320000 2.43870000
-28.43950000 -1.53090000 12.30990000
-28.25430000 -1.41090000 12.39660000
-28.07570000 -1.47490000 12.51840000
-10.14750000 37.37340000 -7.85680000
-10.01900000 37.22910000 -7.69140000
-9.92730000 37.11940000 -7.36390000
13.84930000 -17.23440000 -6.05330000
14.02160000 -16.93650000 -5.73110000
14.25780000 -16.67890000 -5.63110000
14.17820000 -16.73950000 -5.46330000
40.17880000 -11.29270000 -19.77120000
40.39740000 -11.00750000 -19.18190000
39.94130000 -11.44250000 -20.21330000
-27.69240000 -1.53680000 12.63530000
-27.45310000 -1.53070000 12.71870000
-27.89430000 -1.58510000 12.56420000
9.44630000 -14.48020000 -32.77380000
9.63160000 -14.28880000 -32.76540000
9.29830000 -14.68820000 -32.77540000
34.85270000 -17.49860000 3.89000000
35.07220000 -17.43360000 3.96680000
35.42360000 -17.31820000 3.86660000
15.79200000 12.06050000 -4.54260000
15.64110000 11.96460000 -4.72210000
15.57420000 11.90560000 -4.86270000
-1.02480000 31.74650000 -3.03090000
-0.98010000 31.80090000 -2.68770000
-0.94630000 31.94190000 -2.31740000
-2.09510000 -12.73130000 -15.01690000
-1.58110000 -12.39990000 -14.85160000
-1.15870000 -12.09310000 -14.80770000
6.73380000 12.03320000 15.00650000
6.80530000 11.93260000 15.07810000
6.90810000 11.79690000 15.12890000
7.09470000 11.79750000 15.06220000
24.45740000 -20.73830000 -18.91780000
25.00900000 -20.80680000 -18.76540000
25.76590000 -20.85370000 -18.53750000
23.23810000 6.40090000 -9.38370000
23.60770000 6.28800000 -9.18040000
24.05240000 6.18910000 -9.09760000
-3.41240000 21.66900000 -12.05090000
-3.11310000 21.67900000 -12.55700000
-2.74560000 21.57090000 -12.75180000
-5.79840000 -15.31020000 -14.88180000
-5.29530000 -14.97040000 -15.17650000
-4.64930000 -14.49740000 -15.32320000
-30.92880000 27.11700000 19.25270000
-31.24380000 27.16270000 19.31360000
