21.53370000 4.65120000 -7.49430000
3.35980000 -19.02680000 2.19200000
4.59460000 -18.97270000 2.35360000
4.37280000 -19.39390000 3.60900000
-15.35990000 -3.00550000 -17.54750000
-12.74730000 -20.75940000 -11.92980000
-15.38980000 -15.83010000 3.99650000
0.40340000 -18.25730000 0.67280000
1.53270000 -18.21110000 0.31940000
1.24430000 -18.72150000 1.45070000
-16.06100000 -14.85530000 4.06100000
20.43100000 5.10930000 -7.76440000
5.16830000 1.17790000 -17.47170000
-14.08410000 -15.48060000 4.26030000
-5.82300000 -8.64610000 -17.39260000
-6.26270000 -8.64230000 -17.66970000
-0.58600000 -17.47850000 -0.43780000
0.55110000 -17.69920000 -0.31430000
0.12360000 -18.06530000 0.13920000
21.33990000 5.31060000 -7.34620000
-5.38680000 -8.56060000 -17.15730000
2.04650000 -17.52660000 -0.56830000
11.78920000 13.73340000 -8.64020000
-5.22160000 -7.75780000 -17.24100000
5.28180000 2.17760000 -17.30760000
-6.03480000 -7.87970000 -17.31590000
-11.70660000 -3.55610000 -17.68050000
0.82800000 -16.70420000 -1.23960000
-7.04810000 -7.06850000 -17.33550000
-6.41480000 -6.90980000 -17.26000000
-18.31520000 -12.64770000 3.82210000
19.81240000 5.66010000 -7.75560000
6.92830000 2.47380000 -16.93730000
20.48300000 5.82750000 -7.54230000
21.56480000 5.67930000 -7.03340000
5.13640000 -18.38280000 0.55390000
3.83020000 -18.11630000 -0.03990000
5.72240000 -18.10860000 -0.01480000
6.82700000 -18.41180000 0.89010000
-10.27610000 -6.46510000 -17.70520000
8.19010000 2.75390000 -16.55050000
-14.48910000 -14.68250000 4.41880000
10.18910000 -4.79730000 -16.43000000
4.15440000 -17.34300000 -0.77460000
5.32270000 -17.69930000 -0.49780000
-10.55550000 -4.93270000 -17.57760000
27.41660000 -1.36170000 -8.45540000
26.70200000 -0.45970000 -9.75330000
11.25400000 14.84780000 -6.86050000
-10.01880000 -5.71600000 -17.55030000
12.03630000 13.71540000 -5.52910000
27.55080000 -1.40360000 -7.71830000
26.87360000 -1.09940000 -8.39200000
27.33150000 -0.96850000 -7.46760000
26.57360000 -0.79810000 -7.86640000
-9.14280000 -5.03200000 -17.51900000
-9.45180000 -21.71990000 -12.11630000
25.96150000 -0.62810000 -8.37780000
26.22030000 -0.55340000 -9.15870000
25.06380000 -0.21480000 -9.23700000
11.40880000 -3.79480000 -15.93170000
4.73940000 -16.47090000 -1.60620000
2.31080000 -16.39880000 -1.54330000
-15.43930000 -13.28200000 4.46520000
6.07120000 -17.06440000 -1.11180000
13.15130000 -5.03760000 -15.00700000
-8.32190000 -21.54270000 -11.43600000
-9.89050000 -21.51670000 -11.67590000
3.22010000 -18.42830000 0.47430000
-11.19020000 -17.47210000 -0.17760000
-9.69970000 -4.01920000 -17.63680000
-9.15260000 -21.27980000 -11.08610000
-11.79270000 -17.07980000 0.38350000
-11.11580000 -16.88940000 0.64690000
12.65430000 -3.88300000 -15.37930000
1.94410000 -18.93060000 2.01780000
4.06020000 -18.67800000 1.05120000
2.64280000 -19.14570000 2.77530000
-7.19110000 -21.11070000 -10.90160000
-9.38850000 -6.24200000 -17.60850000
24.21540000 0.01920000 -10.03460000
-9.99120000 -16.37220000 1.04920000
-6.09220000 -20.87990000 -11.07520000
-8.19390000 -21.06430000 -10.68180000
-7.84500000 -20.59710000 -10.11890000
-6.48680000 -4.82710000 -17.62040000
12.40960000 13.33930000 -4.39780000
10.44930000 -2.93490000 -16.27480000
-7.18970000 -20.31490000 -9.95830000
-8.88810000 -16.11840000 0.79210000
-8.21530000 -6.65340000 -17.42810000
5.23930000 -18.84910000 1.73960000
-10.20700000 -20.60310000 -10.59810000
-7.57010000 -5.41140000 -17.45670000
13.20620000 13.24060000 -4.22180000
-8.96790000 -20.71920000 -10.34780000
-9.15180000 -20.09210000 -9.92640000
-8.83840000 -5.78930000 -17.41670000
9.91550000 -1.27530000 -16.28630000
12.05530000 13.62560000 -3.79880000
11.58410000 14.38250000 -3.31920000
12.76500000 13.39110000 -3.91230000
13.39570000 13.33710000 -3.53390000
12.53750000 13.34800000 -3.38280000
-8.29340000 -15.73170000 0.91730000
-8.49910000 -15.33000000 1.47870000
13.24090000 13.38130000 -3.05270000
-12.53180000 -17.98890000 2.09610000
12.33210000 13.28890000 -2.81400000
11.95170000 13.67000000 -3.24240000
-7.41970000 -2.77550000 -17.62230000
-9.11680000 -2.42240000 -17.67700000
12.78250000 13.25790000 -2.54710000
-12.48990000 -17.42930000 2.06760000
12.56640000 13.20260000 -1.99640000
12.16240000 13.43290000 -2.35110000
12.90730000 -2.83290000 -15.20620000
11.77740000 13.86770000 -2.49350000
-12.59200000 -17.63080000 2.49620000
-12.82970000 -17.47270000 2.91350000
12.38910000 -2.36530000 -15.43140000
24.35040000 -0.27500000 -9.08370000
24.17390000 -0.23510000 -8.33250000
24.84040000 -0.38890000 -8.51600000
-12.48540000 -16.87320000 3.06220000
25.12330000 -0.19860000 -7.97130000
12.35090000 13.42540000 -1.60400000
11.95000000 13.79330000 -1.71660000
-12.29300000 -16.32700000 3.02380000
23.53840000 0.20950000 -8.05470000
23.22210000 0.11730000 -8.24120000
-12.17450000 -16.78780000 1.04430000
12.04530000 13.97130000 -1.17740000
11.48970000 -1.42950000 -15.62890000
11.55910000 14.41590000 -1.56240000
24.27960000 0.28740000 -7.89290000
-7.79870000 -19.89880000 -9.62530000
-11.77210000 -16.40390000 1.28460000
-14.78220000 -2.14800000 -17.48590000
-12.13930000 -1.51440000 -17.51220000
-12.16190000 -16.24300000 2.10640000
26.38580000 -0.28470000 -7.62760000
12.50830000 -0.22870000 -15.16430000
-10.86750000 -16.25200000 1.38470000
-1.03160000 -6.59450000 -17.69870000
25.68730000 -0.41520000 -8.03440000
-11.29940000 -15.49120000 2.13990000
14.59940000 12.78400000 -2.46870000
15.38200000 12.11220000 -2.07790000
-12.68850000 -0.70540000 -17.32450000
-2.20330000 -5.71490000 -17.68780000
26.28390000 0.90350000 -7.41890000
25.19990000 0.32960000 -7.78740000
14.44420000 -4.63410000 -14.42980000
-11.63010000 -15.79000000 1.91120000
-7.24130000 -19.09810000 -9.36760000
13.95790000 -3.40570000 -14.67920000
-11.96200000 -15.45150000 2.57890000
27.41420000 0.05030000 -7.29170000
15.32930000 -3.83280000 -14.17900000
-10.57040000 -1.94700000 -17.62920000
-9.63290000 -15.72290000 1.75220000
-10.40730000 -15.47230000 2.14020000
14.44670000 13.12530000 -0.73660000
-9.51150000 -1.04670000 -17.51920000
-1.69210000 -18.81370000 2.15030000
-0.64080000 -18.97220000 2.24640000
-1.28800000 -19.19100000 2.88230000
-4.71940000 -21.09950000 -13.71960000
-0.49710000 -19.31320000 3.09240000
-9.63420000 -15.03530000 2.29440000
-4.33380000 -20.99070000 -14.66740000
-4.27600000 -20.82140000 -15.42440000
23.49690000 1.79050000 -7.64190000
0.22390000 -19.32510000 3.34270000
-0.87480000 -4.64280000 -17.70120000
16.01040000 -3.69830000 -14.01680000
0.71610000 -19.05430000 2.68350000
-10.78570000 -14.85890000 2.58310000
-2.04640000 -18.68840000 2.47090000
-2.34060000 -18.90080000 3.78190000
-2.97290000 -18.31990000 2.57130000
16.12610000 -2.98770000 -13.90710000
-4.20030000 -20.33090000 -16.03340000
-3.92380000 -20.39060000 -15.33240000
25.44430000 1.74720000 -7.40230000
-10.36370000 -14.12490000 2.85740000
-3.09080000 -18.56820000 4.21060000
-3.62380000 -18.08340000 3.26480000
-3.51990000 -20.29000000 -15.02820000
-3.31140000 -20.10510000 -15.63360000
-9.25560000 -14.31190000 2.53270000
0.33510000 -4.20460000 -17.73690000
14.22950000 12.92840000 -3.13620000
-2.86060000 -19.89450000 -15.17050000
-4.79850000 -16.46660000 2.28620000
-4.61290000 -16.98460000 3.00650000
26.41810000 2.14750000 -6.98100000
-4.80360000 -16.17990000 3.29020000
-3.28170000 -20.27150000 -14.27920000
-0.57280000 -19.48050000 4.25590000
13.92370000 13.26700000 -2.56370000
15.47710000 -2.57260000 -14.07970000
-5.93280000 -5.83850000 -17.50350000
15.02050000 -1.93560000 -14.29880000
-7.22600000 -14.70220000 1.13370000
-1.43090000 -19.27240000 4.31680000
-0.16290000 -19.50760000 4.04940000
13.95370000 13.45500000 -1.37720000
-3.93390000 -20.62590000 -13.84340000
-3.83170000 -6.03320000 -17.67630000
-8.08620000 -14.78440000 1.74550000
-9.85300000 -0.09820000 -17.42400000
-1.75170000 -19.34910000 4.98110000
-5.04340000 -15.81530000 2.41610000
-4.10350000 -20.67310000 -12.95660000
13.99860000 0.95490000 -14.41630000
-5.07880000 -14.91490000 1.71970000
0.11430000 -19.69370000 5.63460000
-2.78350000 -19.81390000 -14.47570000
-4.91410000 -15.59080000 3.32110000
-0.75670000 -19.61060000 5.59240000
-5.12580000 -15.11100000 2.91980000
27.65960000 -0.44450000 -7.26940000
-3.09090000 -20.05970000 -13.59620000
-5.23940000 -14.61250000 2.23840000
-2.66180000 -19.54150000 -13.54590000
28.34010000 -0.28970000 -6.99480000
28.74470000 -0.04890000 -6.65180000
-5.31450000 -13.98950000 2.80010000
-2.34700000 -18.89690000 -13.98420000
14.80380000 12.77890000 0.45860000
15.29000000 -0.06720000 -14.00290000
-8.35250000 -13.96780000 2.42380000
27.36640000 1.13230000 -7.05220000
2.29870000 -19.85200000 5.00650000
2.66300000 -19.69890000 4.56690000
4.02370000 -20.04430000 5.98280000
3.87630000 -19.88910000 4.87550000
28.21770000 0.25940000 -7.01020000
4.59670000 -20.06370000 5.63340000
14.18410000 13.34210000 0.08350000
-3.35020000 -4.01720000 -17.61920000
28.69840000 0.42970000 -6.25020000
-11.85130000 0.36310000 -17.01360000
27.93670000 1.08180000 -6.64950000
-13.09000000 -16.98340000 3.44760000
13.11640000 13.39150000 -2.09300000
-4.98420000 -20.92560000 -12.11080000
13.56610000 13.51440000 -1.96210000
28.66120000 0.72780000 -5.77500000
-12.79850000 -16.41070000 3.82800000
1.38150000 -19.53780000 3.96280000
2.67860000 -19.46900000 3.65940000
27.84380000 1.62910000 -5.60960000
-5.15820000 -20.75650000 -11.47040000
-8.76500000 1.28740000 -17.05470000
12.80180000 13.46760000 -1.37990000
13.25360000 13.73910000 -1.28700000
12.58670000 13.79420000 -1.04700000
12.93060000 14.14330000 -0.73860000
-13.17550000 -15.73010000 4.27810000
-4.58580000 -20.23720000 -11.24630000
-12.45550000 -15.79870000 4.07510000
-12.74800000 -15.52270000 4.36910000
28.79040000 0.77310000 -4.77130000
-12.19230000 -15.67470000 3.12150000
3.52910000 -19.60820000 4.28250000
-11.02720000 1.50180000 -16.72880000
-12.17270000 -14.93150000 3.41330000
-8.87010000 2.28870000 -16.71390000
9.89470000 0.25200000 -16.07330000
11.10170000 15.25430000 -3.75860000
-11.62370000 -14.76400000 2.73120000
-3.47490000 -20.07110000 -12.41160000
27.61360000 1.96850000 -4.54860000
-11.98440000 -14.59140000 3.00210000
-2.95230000 -19.41500000 -12.57240000
-11.87670000 -14.13310000 3.11760000
-12.24860000 -15.24530000 3.87120000
-12.45820000 -14.66140000 4.38870000
-12.28230000 -14.37110000 4.01340000
-12.15690000 -13.94200000 3.49260000
-3.31660000 -0.98580000 -17.56150000
26.69330000 2.29280000 -6.55970000
-2.59780000 -18.90150000 -12.70000000
-2.21830000 -18.61840000 -13.77200000
-2.13780000 -18.69960000 -12.58770000
-11.49330000 -13.81200000 3.14240000
10.36390000 16.09770000 -6.07850000
-3.53630000 -19.43420000 -11.60880000
-4.16020000 -19.81060000 -11.08100000
11.44410000 1.64770000 -15.38220000
-3.06130000 -19.02430000 -11.90210000
-3.10790000 -18.89820000 -11.47560000
0.35380000 -19.89700000 6.46730000
1.60050000 -20.11320000 6.57560000
1.38370000 -20.32390000 7.21840000
0.89160000 -19.80170000 5.06050000
-2.47960000 -18.88450000 -11.66190000
-16.04330000 -0.58660000 -16.77180000
9.37740000 2.14560000 -16.14770000
-2.68400000 -18.73150000 -11.20130000
10.13230000 1.78360000 -15.92670000
-16.22490000 0.04220000 -16.69630000
1.26610000 -19.82230000 6.01620000
1.95860000 -19.87890000 5.53520000
-12.96710000 -14.51760000 4.68630000
0.65050000 -18.37640000 -12.14680000
0.17110000 -18.48770000 -12.59650000
1.06190000 -18.28620000 -12.52080000
1.26610000 -18.01320000 -12.01630000
-0.98670000 -18.41100000 -12.85380000
-1.44810000 -18.73700000 -12.19860000
-1.42830000 -18.35750000 -13.20390000
22.67520000 2.93240000 -7.52460000
10.29340000 16.53340000 -2.60550000
-12.75380000 -13.69730000 4.78160000
10.01920000 16.76300000 -4.00940000
2.21680000 -20.00150000 6.31660000
-0.65500000 -18.78210000 -12.10960000
-0.47420000 -18.35330000 -13.18820000
0.01590000 -18.46980000 -11.84560000
-1.69510000 -18.84910000 -11.56970000
-0.91030000 -18.71110000 -11.53620000
-0.33640000 -18.36710000 -11.41770000
24.33300000 2.77950000 -7.25220000
3.46050000 -19.99150000 6.29080000
-13.54160000 -13.15600000 4.78930000
-14.95090000 0.23920000 -16.69710000
11.33470000 2.18940000 -15.46630000
3.14980000 -20.05950000 6.81370000
-16.23260000 -11.46750000 4.46630000
-2.57690000 -18.40560000 -11.03210000
-1.35120000 -18.51410000 -11.25320000
-1.47850000 -18.04200000 -10.99480000
2.48000000 -20.35120000 7.19640000
-13.00700000 -12.68210000 4.87200000
-0.68460000 -18.08420000 -11.16770000
10.99870000 15.51880000 -2.52060000
25.08990000 2.99210000 -7.02710000
-12.38490000 -13.64280000 4.15360000
-0.54890000 -17.51030000 -11.15610000
-15.79870000 0.63930000 -16.72780000
-14.63600000 0.97490000 -16.62000000
25.35980000 3.26580000 -6.70890000
-12.56930000 -13.41070000 4.55780000
-14.80420000 1.43030000 -16.68250000
0.81530000 -17.87700000 -11.70390000
0.33990000 -17.86040000 -11.53990000
-13.19250000 1.21390000 -16.59600000
28.89840000 0.65590000 -3.44640000
-15.20120000 1.93260000 -17.46660000
-15.27160000 1.62400000 -17.06040000
-16.15710000 1.76500000 -17.70800000
-16.19010000 1.35390000 -17.43070000
28.07560000 1.55600000 -3.65780000
-13.86600000 1.83390000 -16.62450000
-14.45870000 2.11320000 -17.02220000
-1.30060000 -2.61380000 -17.59840000
9.46510000 17.41650000 -3.70880000
-17.31520000 0.02240000 -16.79060000
-1.99510000 -17.62700000 0.25870000
-0.66700000 -17.95200000 0.17170000
-0.84390000 -18.16040000 0.73160000
-2.50450000 -19.41820000 -15.23450000
-2.37150000 -18.69230000 -15.67600000
-16.91260000 0.53760000 -16.89460000
-2.13400000 -18.23930000 1.40350000
-1.51340000 -18.54360000 1.50110000
-6.21590000 -14.11550000 0.79390000
-2.24150000 -18.79340000 -14.83790000
-2.85100000 -17.52530000 0.45020000
-6.89360000 -13.81420000 1.60550000
-15.91390000 1.08440000 -16.93970000
-2.44660000 -17.89450000 -16.29560000
-17.15440000 1.22840000 -17.70210000
14.85550000 2.00270000 -13.96350000
-2.15510000 -17.99840000 -15.65780000
11.66260000 14.80410000 -0.83250000
10.91980000 15.52640000 -1.36260000
26.39440000 2.87340000 -5.60680000
-1.95650000 -18.15110000 -14.76310000
-5.19430000 -14.03730000 0.99220000
-1.76700000 -17.66820000 -15.39300000
-0.35670000 -18.53750000 1.49320000
11.06770000 15.42420000 -1.00620000
-1.42450000 -17.82570000 -14.79540000
-1.02200000 -17.63700000 -15.33400000
11.38570000 15.38130000 -0.70310000
-1.75430000 -18.23770000 -13.87030000
11.20870000 15.83200000 -0.12550000
-5.51290000 -13.55770000 1.80890000
10.29890000 16.62250000 0.25590000
26.25080000 3.21080000 -4.21560000
-0.27670000 -2.76110000 -17.69470000
-6.50920000 -13.20600000 1.70750000
10.57270000 16.59790000 1.08570000
-6.00870000 -13.16850000 1.58880000
-4.08020000 -17.55050000 -17.21370000
11.85670000 3.13970000 -15.11360000
25.11320000 3.73750000 -6.26300000
12.89990000 14.52740000 0.30190000
13.93030000 13.50560000 0.47440000
-3.06780000 -17.89350000 -16.80090000
13.13170000 14.31320000 1.03820000
-3.32190000 -17.48120000 -17.08860000
-7.55710000 -13.59520000 2.29120000
-2.74190000 -17.25670000 -16.94450000
14.41920000 13.00810000 1.05290000
-4.17190000 -17.06280000 -17.36930000
-12.50820000 1.92230000 -16.56700000
-1.38680000 -17.45760000 -0.33140000
-3.28500000 -17.08420000 -17.40140000
-9.25940000 -13.49250000 2.88710000
26.80150000 2.71520000 -3.18330000
-2.08170000 -17.18320000 -0.29680000
-13.43070000 2.39180000 -16.65360000
-2.31810000 -16.86940000 -16.55880000
-1.09900000 -16.71940000 -1.01790000
27.00560000 2.48430000 -2.26430000
-1.70750000 -17.29470000 -15.74660000
14.31740000 13.25950000 1.49140000
-0.80500000 -17.19250000 -15.61650000
-1.75540000 -16.71690000 -15.81290000
13.78720000 13.76840000 1.38640000
-1.77630000 -16.29470000 -1.04330000
-1.45150000 -16.61670000 -15.41250000
-12.40480000 2.48140000 -16.54440000
-2.77290000 -17.03090000 -0.19670000
13.71440000 13.73740000 2.32260000
-3.30290000 -17.05860000 0.25490000
-8.54410000 -12.66120000 3.15490000
-2.28250000 -16.39300000 -16.19600000
-8.22560000 -12.21510000 3.36150000
-11.21080000 2.40890000 -16.58940000
-2.75690000 -15.77440000 -0.89520000
-2.12720000 -16.06920000 -15.55200000
24.24730000 4.65820000 -5.58050000
-1.36860000 -16.27690000 -15.13760000
12.21300000 14.48440000 -0.67900000
-7.02790000 -12.71970000 2.43180000
14.09490000 3.29500000 -14.07720000
12.52010000 14.72680000 -0.02200000
-6.56500000 -12.29100000 2.43110000
-5.88790000 -12.59920000 2.56050000
25.99570000 3.46760000 -2.88900000
25.24980000 4.07110000 -3.96740000
-0.74110000 -17.79420000 -14.82090000
-3.11550000 -18.03160000 1.49230000
11.85510000 15.22080000 -0.12120000
24.32020000 4.79740000 -4.75250000
14.18000000 4.16270000 -13.78310000
0.41320000 -18.09660000 -13.64080000
-6.02360000 -0.65700000 -17.53740000
-6.38440000 -11.76560000 3.03250000
23.56530000 3.96480000 -6.98190000
24.04980000 4.42790000 -6.42490000
-9.71390000 -12.63620000 3.55600000
-11.46120000 -12.14830000 3.98270000
13.30430000 14.27130000 2.26920000
13.03540000 14.31730000 2.73380000
-7.46940000 0.22220000 -17.45720000
12.65040000 14.83440000 1.92520000
1.06430000 -18.14030000 -13.27240000
1.92970000 -18.16450000 -13.34340000
22.47570000 4.86120000 -7.04270000
1.65200000 -18.13220000 -12.69390000
12.33000000 15.05620000 3.51830000
-12.29640000 -12.97160000 3.81690000
23.44720000 4.64200000 -6.67310000
-12.15570000 -12.46700000 3.90130000
12.08300000 15.26700000 2.27940000
-12.58140000 -12.40880000 4.29510000
11.64010000 15.61870000 0.97810000
7.45900000 -19.81050000 5.51200000
6.64240000 -19.92000000 4.83760000
8.21400000 -19.72040000 5.06150000
23.00420000 5.35950000 -6.11600000
22.32500000 5.53170000 -6.59280000
-12.90170000 -11.74580000 4.69640000
11.06380000 16.21190000 2.30330000
-3.58550000 1.04130000 -17.54690000
6.41590000 -18.99860000 2.60690000
5.14890000 -19.52100000 4.04570000
-12.73180000 -11.03010000 4.51200000
6.63270000 -19.13920000 3.20160000
-0.27320000 -16.82730000 -15.46240000
-12.35210000 -10.51440000 4.68420000
6.12550000 -19.59020000 4.14720000
-0.93980000 -16.70640000 -15.26000000
-0.54290000 -16.40890000 -15.04990000
-4.81970000 2.21100000 -17.36450000
-11.44860000 -10.70810000 4.74420000
0.23530000 -16.55920000 -15.42850000
-6.70720000 1.58980000 -17.21610000
8.54380000 -19.11390000 3.55460000
8.27700000 -18.76190000 2.30030000
-0.02940000 -16.32300000 -15.08970000
7.54680000 -19.37280000 3.75780000
0.69720000 -16.04050000 -15.37990000
0.38660000 -15.82240000 -15.17490000
9.90600000 -18.79090000 3.03290000
21.39750000 6.35900000 -6.34700000
7.91170000 -19.54760000 4.36570000
-2.04670000 2.68360000 -17.48390000
10.12020000 16.77000000 -0.52050000
-0.42010000 -15.76170000 -15.03020000
-1.24460000 -15.75370000 -15.06480000
2.81710000 2.30370000 -17.72310000
3.52020000 2.69730000 -17.54360000
-9.65540000 -10.89960000 4.49940000
-28.72120000 -15.72620000 -16.96210000
-8.76320000 -10.81900000 4.22840000
-7.62410000 -11.64370000 3.39320000
11.01050000 -18.72000000 3.10260000
11.15080000 -18.80210000 3.81090000
9.85520000 -19.16440000 3.81010000
0.45530000 -17.26850000 -11.59860000
0.95550000 -17.10370000 -11.60000000
0.08850000 -16.94220000 -11.36310000
12.00990000 -18.47530000 4.88910000
-24.83520000 -14.85260000 -17.65960000
1.15420000 3.73070000 -17.54940000
-0.39360000 -16.92350000 -11.00040000
-24.22850000 -14.60370000 -17.97590000
-7.41810000 -10.82000000 3.65200000
0.24290000 -16.45970000 -10.91620000
0.68430000 -16.51620000 -11.27960000
-7.15180000 -10.24630000 4.02030000
8.96590000 -19.66300000 6.21850000
9.77920000 -19.43720000 5.96760000
9.66680000 17.37380000 -0.00870000
10.94730000 -19.09550000 6.13050000
10.73280000 -19.05450000 6.68090000
2.46000000 3.55710000 -17.59660000
-24.57300000 -13.68730000 -18.15870000
-24.04530000 -12.47140000 -18.35090000
9.57240000 -19.37660000 4.67620000
9.14380000 17.89210000 -1.35010000
10.62270000 -19.13120000 4.26680000
11.03830000 -19.01710000 5.18300000
-5.09150000 -20.03380000 -10.52340000
3.20750000 3.88290000 -17.46850000
-10.38900000 -10.64620000 4.74070000
-26.26650000 -15.16320000 -16.44960000
-25.22800000 -15.44720000 -16.96050000
-6.29270000 -20.39420000 -10.28030000
-25.92770000 -14.44960000 -17.23570000
-3.36310000 2.43130000 -17.43480000
-26.82550000 -15.19270000 -16.25300000
-6.37420000 -19.77370000 -9.80290000
-5.32940000 -19.77680000 -10.16310000
-5.09980000 -19.21160000 -10.02860000
2.58680000 4.96840000 -17.37590000
-4.48040000 -19.47530000 -10.51680000
-19.57530000 3.46970000 -18.24850000
-11.13180000 -9.61700000 5.20690000
11.82830000 -18.73950000 5.80990000
-25.43250000 -14.06680000 -17.80010000
-3.96610000 -18.98410000 -10.82600000
-10.09430000 -9.53900000 5.12210000
-9.06190000 -9.33760000 4.91980000
8.06330000 18.86260000 -1.49750000
-3.34200000 -18.65030000 -11.09740000
-18.37080000 3.01320000 -18.13980000
8.61990000 18.44540000 0.18700000
-4.15750000 -18.31970000 -10.59600000
3.20860000 5.44060000 -17.26550000
-25.59600000 -12.61510000 -18.16350000
-3.39240000 -17.90130000 -10.79500000
4.52120000 2.91500000 -17.40430000
-8.13110000 -9.45380000 4.55670000
-4.77290000 -18.72850000 -10.16820000
11.53400000 -18.76430000 6.53130000
-7.61840000 -9.26230000 4.58660000
-4.83410000 -17.95810000 -9.97640000
5.12840000 3.40820000 -17.21870000
6.06310000 3.25150000 -17.03990000
-3.87790000 -17.69640000 -10.55860000
-17.77080000 3.83400000 -18.05000000
5.49550000 3.95980000 -17.20920000
-3.11350000 -17.24650000 -10.39600000
7.70720000 -18.69070000 1.70290000
-4.38110000 -17.55290000 -9.95970000
-3.86140000 -17.30130000 -9.89920000
7.96990000 -17.99730000 0.21150000
-9.15730000 -7.96180000 5.29870000
-24.89040000 -11.91620000 -18.34620000
-8.11540000 -8.04650000 5.09560000
7.46820000 3.37140000 -16.82850000
-6.13040000 -18.82720000 -9.51770000
-28.04410000 3.03250000 -17.50220000
6.37070000 3.79040000 -17.10970000
6.36150000 4.24540000 -17.32760000
8.94820000 -18.29590000 1.12030000
7.44820000 3.82770000 -17.03800000
16.15440000 -21.77690000 -10.46330000
15.63720000 -21.36910000 -9.52160000
10.05080000 -18.05000000 1.14060000
7.51150000 4.20680000 -17.38170000
17.08840000 -21.42280000 -9.65000000
17.47260000 -21.57000000 -10.15740000
9.83650000 -18.35540000 1.90290000
-5.73230000 -18.32510000 -9.56450000
-27.36630000 4.27100000 -17.41490000
5.69580000 4.76570000 -17.44630000
7.38740000 4.76790000 -17.46390000
18.26800000 -21.10200000 -9.18450000
18.30730000 -21.42930000 -9.91240000
5.83150000 5.48200000 -17.46200000
-28.72800000 3.33890000 -16.83910000
-6.46800000 -18.09850000 -9.09950000
-5.78360000 -17.75360000 -9.01930000
8.25480000 5.30280000 -17.47770000
7.67370000 5.95430000 -17.41730000
-27.90460000 4.91720000 -16.65310000
-5.21660000 -17.72400000 -9.36310000
3.73160000 4.66220000 -17.23250000
4.60230000 4.25310000 -17.19260000
-5.02150000 -17.49100000 -9.00160000
-28.62100000 4.71760000 -15.97450000
-4.14300000 -17.26720000 -9.07530000
4.15720000 4.87490000 -17.24160000
-30.01810000 -15.23660000 -16.81710000
-30.88490000 -14.75930000 -16.52690000
4.84210000 5.04790000 -17.45890000
7.40700000 -17.49320000 -0.59310000
-30.30960000 -14.04700000 -16.81890000
4.15700000 5.62170000 -17.47340000
11.90660000 -20.05030000 -15.44550000
11.89270000 -20.49700000 -15.21950000
-30.97990000 -13.79570000 -16.65080000
5.43360000 6.30100000 -17.51330000
-28.57560000 5.22820000 -15.38320000
-28.66450000 5.34790000 -14.76300000
-2.08610000 -17.81450000 -10.89080000
-29.04420000 -14.70210000 -16.76320000
3.50110000 6.15380000 -17.42910000
-2.42240000 -17.33210000 -10.60510000
-29.14350000 4.94530000 -14.47610000
-29.52850000 -14.74640000 -16.90610000
9.23840000 -20.57450000 -12.78970000
11.93690000 -21.31710000 -13.70620000
11.14980000 -21.24260000 -12.70500000
13.15580000 -21.69170000 -13.23150000
-29.15060000 5.01390000 -13.62250000
-1.32830000 -17.19080000 -10.71600000
-28.58090000 -14.71210000 -16.53950000
3.92790000 6.43930000 -17.59670000
-28.07130000 -14.86070000 -16.34860000
-25.50300000 2.47570000 -18.32820000
-1.86120000 -16.88430000 -9.94790000
-3.05910000 -17.09300000 -9.61450000
-29.92940000 -13.49730000 -16.64700000
-1.69790000 -16.76640000 -9.18960000
-29.41190000 -13.67120000 -16.46100000
9.64800000 -20.36370000 -14.01720000
12.27520000 -20.92910000 -14.96560000
11.67090000 -21.03020000 -14.28620000
-28.85960000 -14.00300000 -16.26950000
-28.39110000 -13.86660000 -16.14060000
-29.16690000 -12.98810000 -16.10330000
-23.74830000 2.21370000 -18.39080000
-30.48830000 -13.29560000 -16.74930000
7.12780000 6.52610000 -17.46320000
9.96670000 -19.67420000 -14.80030000
9.40310000 -19.98710000 -14.34390000
-32.11520000 -14.67750000 -15.38510000
-32.15220000 -14.25260000 -15.64960000
-31.66100000 -14.11870000 -16.15580000
10.73300000 -18.48280000 2.34010000
11.65190000 -18.35290000 2.68570000
-21.82310000 3.31690000 -18.38300000
11.37230000 -17.99540000 1.82410000
8.93460000 -20.34590000 -13.34670000
4.97130000 7.00300000 -17.50780000
-22.77700000 4.16800000 -18.34030000
-1.81570000 -16.52370000 -7.97740000
-25.04810000 3.23540000 -18.31940000
5.54860000 7.25620000 -17.40450000
-23.91250000 3.85470000 -18.28620000
12.98450000 -19.63110000 -15.86010000
6.83000000 7.06510000 -17.37830000
12.21380000 -19.21010000 -15.53920000
6.69170000 7.35440000 -17.20910000
8.64990000 -19.13380000 -14.37390000
10.30990000 -19.18960000 -15.08090000
6.47650000 7.66430000 -16.86660000
-31.10360000 -13.12180000 -16.66930000
8.99490000 -18.14500000 -14.60180000
10.23860000 -18.42900000 -15.08920000
11.30330000 -19.20140000 -15.46230000
-31.81180000 -12.86470000 -16.29570000
12.61190000 -17.72640000 2.69950000
-23.45200000 5.07740000 -18.17740000
11.89430000 -18.53620000 -15.47470000
11.01500000 -17.96010000 -15.36210000
9.68040000 3.45530000 -15.95010000
-26.68450000 3.39040000 -18.05620000
8.60780000 4.20670000 -17.37520000
8.22130000 3.97840000 -16.98340000
9.01120000 4.26110000 -16.71070000
11.54520000 -17.72260000 -15.49970000
-25.86760000 3.94190000 -18.04580000
-1.54380000 -16.94970000 -10.34080000
9.55080000 4.37530000 -17.09760000
12.22980000 -17.49940000 -15.46270000
8.89180000 3.68800000 -16.26680000
-0.43770000 -16.69200000 -10.51410000
9.22670000 4.20650000 -16.36550000
-0.52830000 -16.59620000 -9.98460000
-26.70160000 4.31910000 -17.73380000
-29.59480000 -11.68440000 -15.81010000
9.91060000 -17.46790000 -14.85210000
6.02100000 -19.98940000 5.15700000
5.62280000 -19.95550000 4.79370000
4.89300000 -19.91020000 5.12660000
5.78360000 -20.02090000 6.08930000
11.01970000 -17.01010000 -15.21410000
6.18680000 -20.27390000 7.25520000
5.22560000 -20.16590000 6.50260000
11.73560000 -16.66060000 -15.56380000
-25.30150000 4.73480000 -17.87170000
10.02660000 4.57040000 -16.32910000
10.57310000 4.70670000 -16.72070000
11.04500000 5.14180000 -16.09930000
10.18010000 -16.39860000 -15.23040000
10.94800000 4.20950000 -15.34340000
-26.28020000 5.56280000 -17.38880000
-18.82160000 -21.46870000 -8.54900000
10.88680000 4.70880000 -15.47800000
-24.17130000 5.50590000 -17.91440000
12.19880000 -16.34200000 -16.04730000
-27.53600000 -14.97690000 -16.23790000
11.26560000 5.26470000 -15.51110000
-27.14640000 -14.43910000 -16.44810000
-18.47440000 -21.18070000 -8.54700000
9.18260000 4.68350000 -17.54540000
6.64760000 -19.32140000 -13.10650000
7.66490000 -19.61070000 -13.62340000
7.10440000 -19.78970000 -12.91800000
6.65550000 -18.81730000 -13.35310000
7.30730000 -19.97770000 -12.35990000
6.42240000 -19.50130000 -12.48850000
9.96290000 4.67000000 -17.56420000
7.80110000 -19.80310000 6.14900000
8.05630000 -19.95850000 7.27510000
7.26400000 -20.15750000 6.92590000
6.92100000 -19.77130000 -11.72580000
9.61650000 5.17250000 -17.60580000
6.54390000 -20.06480000 6.71970000
-23.41630000 6.91420000 -17.88380000
5.59750000 -18.94950000 -12.55460000
9.33600000 5.88090000 -17.32460000
7.27520000 -20.21280000 7.59610000
10.35930000 5.84320000 -17.34740000
5.70800000 -19.24640000 -12.05640000
7.36190000 -19.86570000 -11.30240000
-24.98610000 6.01830000 -17.62800000
-22.43540000 -21.22480000 -8.81840000
-21.96330000 -21.22300000 -8.65080000
-21.31020000 -21.32760000 -8.97330000
8.58210000 6.53700000 -17.29620000
-21.57790000 -21.38290000 -8.25850000
9.58740000 6.64110000 -17.10160000
10.20800000 -20.98930000 -12.09120000
10.65050000 4.81750000 -17.30230000
10.59770000 5.30810000 -17.45220000
11.54040000 5.04230000 -16.90430000
4.52860000 -20.30070000 7.58810000
11.80990000 5.25810000 -16.38090000
11.54420000 5.47380000 -17.15690000
9.03630000 -20.56450000 -11.76820000
4.89560000 -20.18920000 7.30910000
5.59660000 -20.23180000 7.61110000
9.65960000 -20.60570000 -10.53680000
11.36540000 6.07510000 -17.06610000
-20.34290000 4.96310000 -18.33720000
10.50780000 6.66000000 -16.99970000
11.32500000 6.96460000 -16.63840000
12.53090000 4.22710000 -14.61870000
7.40510000 -20.08390000 8.21010000
8.17010000 -20.34890000 -11.98400000
12.11240000 5.14800000 -14.69080000
-22.04350000 5.36480000 -18.27260000
8.77570000 -19.85270000 7.11590000
12.17680000 5.67230000 -14.79350000
-20.85410000 5.45680000 -18.19280000
9.68480000 -19.37850000 6.84250000
13.09260000 5.43460000 -14.19690000
13.52960000 4.96960000 -13.99080000
12.81590000 5.87040000 -14.44370000
9.40060000 -19.47450000 7.36900000
-20.93810000 6.34450000 -17.85250000
14.54290000 5.44170000 -14.17560000
15.20540000 5.25760000 -14.49320000
14.97770000 5.07690000 -13.83580000
8.38540000 -19.86240000 8.05970000
8.20290000 -20.22660000 -10.99780000
14.52140000 5.70910000 -14.57150000
15.10390000 5.78990000 -14.57040000
8.88750000 -20.34590000 -10.75820000
9.22330000 -19.52700000 7.91640000
-18.11010000 5.02550000 -18.19030000
8.66370000 -19.60440000 8.61610000
14.42080000 4.61950000 -13.59980000
15.05410000 4.66620000 -13.51440000
9.05710000 -19.30140000 8.67060000
14.28210000 5.14180000 -13.69470000
10.06920000 -18.80830000 7.74250000
13.98820000 5.55580000 -13.97970000
13.37060000 5.97910000 -14.50630000
10.86180000 -18.61120000 7.39330000
13.88330000 5.82380000 -14.43360000
9.51010000 -18.86410000 8.67890000
-19.86240000 6.32080000 -17.72820000
12.32250000 5.83280000 -16.56630000
12.08150000 5.70320000 -15.90670000
9.93990000 -18.29210000 8.57710000
-22.61210000 6.31590000 -18.14460000
10.64630000 -18.03060000 8.16080000
12.77950000 6.11680000 -15.82720000
12.25640000 6.30850000 -16.67580000
12.44950000 7.03790000 -16.21940000
-24.11280000 7.52560000 -17.49090000
13.02560000 6.69290000 -16.04510000
13.20150000 6.28850000 -15.60640000
7.75360000 -19.72160000 8.83300000
11.82420000 5.79920000 -15.39330000
-20.69790000 6.95930000 -17.74490000
7.93540000 -19.34070000 9.51310000
12.49240000 6.10510000 -15.13040000
12.97670000 6.15100000 -14.96750000
-22.38590000 7.66340000 -18.03150000
-21.68810000 7.31550000 -18.01390000
5.23630000 -16.29100000 -15.94150000
12.68750000 7.74530000 -15.58320000
5.69460000 -16.13990000 -15.76520000
13.68880000 6.50860000 -15.43660000
13.60410000 6.13920000 -15.15800000
6.22120000 -15.89810000 -15.61410000
6.66250000 -15.99820000 -15.95250000
-21.42810000 8.35970000 -18.08470000
14.11400000 6.14420000 -14.96400000
14.32990000 6.41860000 -14.99090000
7.36490000 -16.04610000 -15.53810000
14.97350000 6.31890000 -14.55520000
6.92890000 -15.81680000 -15.27090000
9.53490000 -17.83870000 9.37160000
-22.31140000 8.65910000 -17.89570000
3.48220000 -17.60440000 -14.23310000
10.19410000 -17.55930000 8.77540000
9.82430000 -17.11910000 9.28970000
4.02180000 -17.32020000 -14.73630000
-23.07710000 8.73380000 -17.52670000
4.26040000 -17.03110000 -14.21020000
14.59460000 6.86320000 -14.54720000
13.60550000 7.12050000 -15.38880000
-20.30340000 7.68920000 -17.74890000
13.15700000 8.17070000 -14.74660000
13.92530000 7.87570000 -14.27980000
14.94820000 7.12740000 -13.79230000
6.35450000 -17.66170000 -13.28950000
5.79630000 -17.25790000 -13.12090000
14.66380000 7.76550000 -13.29130000
7.21000000 -18.29520000 -13.70150000
0.85810000 -15.64520000 -3.91380000
1.61540000 -16.15880000 -4.58210000
1.35490000 -15.92630000 -3.90050000
2.32170000 -16.18500000 -4.01880000
5.46970000 -16.35130000 -13.55210000
-22.45840000 9.48410000 -17.63940000
6.99980000 -16.56570000 -13.92020000
6.00100000 -16.37360000 -13.58770000
0.92510000 -15.69200000 -3.02380000
8.88300000 7.18880000 -17.15250000
1.92840000 -15.90330000 -3.33840000
9.85030000 7.44250000 -16.85960000
4.17550000 -16.92140000 -15.44720000
2.26480000 -15.87860000 -2.80070000
10.85210000 7.65660000 -16.37090000
4.54130000 -16.83200000 -14.79020000
4.68950000 -16.70460000 -15.47320000
8.05160000 7.32860000 -17.12850000
5.02410000 -16.42120000 -15.33390000
4.89940000 -16.25700000 -14.88830000
4.45600000 -16.36690000 -16.10140000
-20.88080000 10.27880000 -18.04430000
0.12810000 -15.07440000 -5.70460000
0.59450000 -15.30110000 -5.15770000
7.59410000 7.55740000 -16.82870000
9.23840000 7.96750000 -16.83030000
8.49140000 7.99760000 -16.57990000
9.01590000 8.24970000 -16.64110000
7.49120000 7.75000000 -16.35700000
-0.93000000 -14.51100000 -4.53430000
-0.26330000 -14.63760000 -4.73340000
8.50660000 8.07780000 -15.98590000
-0.10740000 -14.64570000 -4.00380000
5.60510000 -15.97000000 -15.38720000
-26.64800000 6.35150000 -16.78480000
0.78750000 -15.48460000 -4.46670000
9.88050000 8.15970000 -16.67070000
6.23120000 -15.64530000 -15.11470000
5.53260000 -15.71050000 -14.81290000
10.52310000 8.29260000 -16.30080000
6.90870000 -15.59330000 -14.75110000
6.27610000 -15.47110000 -14.53790000
6.70030000 -15.69200000 -14.15630000
9.80340000 8.83300000 -16.32040000
-25.39430000 7.11890000 -17.11310000
5.10270000 -15.90780000 -14.30100000
-27.81290000 5.96210000 -15.92470000
10.73680000 9.04900000 -15.96390000
-1.14710000 -15.43770000 -1.93250000
-0.51530000 -15.15670000 -2.52750000
-0.70600000 -15.88800000 -1.71010000
8.95200000 8.48940000 -15.97590000
5.55150000 -15.70800000 -14.11160000
-1.15850000 -14.77940000 -2.29250000
-26.28840000 7.84900000 -16.00920000
9.35850000 9.03230000 -16.06500000
5.98620000 -15.72380000 -13.96240000
0.04920000 -15.24310000 -3.09510000
0.25490000 -15.49990000 -2.84240000
1.30030000 -15.88980000 -2.18410000
9.86380000 9.44210000 -16.02210000
10.49520000 9.70240000 -15.68870000
11.77280000 7.87570000 -15.94290000
-28.76210000 5.57020000 -14.12940000
0.07610000 -15.95370000 -1.76610000
-27.95760000 6.84950000 -14.28190000
11.57250000 8.60450000 -15.57910000
-28.09560000 6.29850000 -15.03810000
-27.64820000 6.85250000 -15.08590000
-27.06710000 7.27520000 -15.62930000
8.35400000 -17.06370000 -14.27570000
-1.54330000 -14.59900000 -4.34220000
12.44180000 9.05510000 -14.69620000
7.86180000 -17.64600000 -14.03300000
-0.85000000 -14.20870000 -3.52810000
11.57940000 9.52950000 -15.18000000
-27.11170000 7.79060000 -14.96050000
-0.38400000 -14.68930000 -3.16280000
-26.96880000 8.37160000 -14.08540000
-1.17390000 -14.29640000 -2.67090000
-1.51660000 -14.09000000 -3.33380000
-2.01350000 -14.25760000 -3.40450000
9.68630000 -16.79130000 -14.79530000
-26.29800000 9.18480000 -14.42080000
8.86790000 -16.27910000 -15.10150000
8.25530000 -16.12390000 -15.65200000
7.58420000 -16.02830000 -14.48460000
8.23990000 -16.25800000 -14.90300000
8.32850000 -16.58740000 -14.45030000
-23.89210000 9.15020000 -17.07230000
3.93730000 -16.12360000 -3.00390000
7.68150000 -15.97080000 -15.08750000
-24.53710000 10.11330000 -15.98570000
-24.39390000 9.44140000 -16.59920000
3.37520000 -16.20620000 -1.89000000
2.80870000 -15.96350000 -2.34870000
16.23570000 4.95930000 -14.25300000
15.82870000 4.69480000 -14.50870000
16.79530000 4.19630000 -14.22650000
-24.52730000 10.79010000 -15.45050000
4.61790000 -16.16020000 -2.28840000
5.65280000 -16.29920000 -2.02340000
-25.57230000 9.87500000 -14.87750000
15.53750000 4.46100000 -13.86990000
15.31830000 4.84310000 -14.21010000
15.69030000 5.38230000 -14.41810000
15.50730000 6.01820000 -14.22270000
15.78750000 6.18170000 -13.77750000
13.83850000 -21.72120000 -14.17810000
15.23890000 -22.08630000 -13.46290000
16.54530000 5.80890000 -13.16140000
14.18170000 -22.00590000 -12.67760000
-22.21580000 10.71840000 -17.26610000
15.95380000 6.90470000 -12.55030000
15.27960000 -21.97790000 -13.97950000
16.12990000 -22.05300000 -13.65100000
-1.90680000 -15.36540000 -1.55940000
17.36460000 4.92530000 -12.85700000
17.16930000 5.85240000 -12.32900000
-2.51020000 -14.57390000 -2.00240000
-1.78920000 -14.66420000 -2.09490000
-2.68630000 -14.90180000 -1.50900000
16.04840000 -22.12970000 -12.71150000
18.25860000 5.65170000 -11.45750000
15.14480000 -22.06350000 -11.94230000
15.09440000 -22.06690000 -12.88970000
17.32160000 6.61560000 -11.52600000
16.52260000 -22.03020000 -11.87820000
-2.34380000 -14.25500000 -2.61210000
-1.83320000 -14.23510000 -2.45700000
13.87940000 -21.47330000 -14.89060000
-23.17010000 11.77960000 -16.07010000
17.74850000 6.42800000 -10.92500000
17.48120000 6.43130000 -10.41650000
-23.44100000 12.76130000 -14.85990000
-2.34760000 -19.15420000 5.69950000
-1.57220000 -19.54100000 5.82070000
-1.75990000 -19.46780000 6.32270000
17.16050000 7.11700000 -10.98700000
-0.38130000 -19.73740000 6.50020000
-1.10850000 -19.61900000 6.76840000
-22.42770000 12.05680000 -16.36140000
-2.44590000 -19.15300000 6.40300000
13.63480000 -21.84730000 -11.54850000
13.26270000 -21.75110000 -12.37850000
-1.85530000 -19.10460000 7.02010000
-1.24070000 -19.55480000 7.29770000
-1.46510000 -19.24370000 7.63440000
-2.56690000 -18.69500000 6.93760000
-3.03770000 -18.68540000 5.00970000
-3.85380000 -18.22940000 4.75450000
-4.04220000 -17.89060000 4.47920000
12.61500000 -21.64770000 -11.98470000
-3.85370000 -18.28530000 5.76820000
-3.33920000 -18.65070000 5.55020000
-3.11510000 -18.63810000 6.37700000
-4.47600000 -17.41310000 4.67740000
-4.24820000 -17.89260000 5.34380000
14.52130000 -21.93800000 -11.59390000
-22.49520000 13.11280000 -15.66550000
15.72050000 -21.94700000 -11.06090000
-2.34470000 -18.23690000 7.54520000
-1.57490000 -18.93540000 8.11900000
18.09890000 -21.94390000 -12.14640000
-1.98950000 -18.13680000 8.00620000
-14.86870000 2.30960000 -17.81240000
-3.31110000 -18.13460000 6.82230000
-3.96000000 -17.48040000 6.49310000
18.39890000 -6.13130000 -0.49310000
-14.67800000 2.83440000 -17.90090000
-4.35060000 -17.42470000 5.66140000
-13.96660000 2.60230000 -17.48200000
17.68310000 -6.20210000 -0.17310000
-14.04530000 2.89520000 -17.79090000
-15.27920000 3.57880000 -17.94470000
18.38280000 -5.52160000 -0.09790000
-4.54050000 -16.71380000 5.90490000
-13.59280000 3.36470000 -17.84690000
17.96170000 -5.85630000 0.32710000
-14.48970000 4.51840000 -17.97160000
18.29640000 -5.43580000 0.36360000
17.17190000 -21.94460000 -11.22130000
-4.23670000 -16.08990000 6.88930000
18.73710000 -21.63870000 -11.16430000
-2.82580000 -17.63310000 7.75980000
19.06500000 -5.67500000 -0.44130000
20.40200000 -5.70400000 -0.44690000
-3.65050000 -17.00660000 7.38600000
19.52070000 -5.13810000 -0.45880000
-3.14030000 -16.62790000 8.09240000
20.03190000 -4.98390000 -0.35880000
-2.31330000 -17.27280000 8.34110000
20.62200000 -5.15860000 -0.34680000
-16.03940000 4.44800000 -17.98780000
20.66150000 -4.69400000 -0.03780000
19.10620000 -4.84140000 -0.17080000
18.69520000 -4.82970000 0.23510000
19.18820000 -4.29160000 0.19760000
19.65460000 -4.16130000 0.05470000
20.25080000 -4.24050000 0.02770000
-0.15340000 -20.07320000 7.56960000
-0.71390000 -19.85430000 7.06870000
0.36490000 -20.04520000 7.46310000
0.76190000 -20.12410000 7.76920000
20.21270000 -3.33470000 0.60740000
18.52190000 -5.17110000 1.10360000
-16.40670000 5.39620000 -18.02410000
18.85180000 -4.38590000 0.74430000
-0.19910000 -20.02210000 8.13980000
-0.83210000 -20.05230000 7.64420000
19.23110000 -3.82330000 0.59120000
19.13770000 -3.84930000 1.17660000
-1.05920000 -19.73230000 8.09200000
19.05850000 -4.35650000 2.36530000
13.97000000 -19.80810000 -16.16550000
13.43310000 -19.13160000 -15.87480000
19.35670000 -3.55500000 1.77070000
14.47000000 -19.18230000 -16.01670000
-14.17730000 5.23150000 -17.89190000
19.70970000 -3.36080000 0.58920000
19.56700000 -3.13850000 1.03330000
-0.80910000 -19.27040000 9.06110000
-1.21780000 -18.93490000 8.87130000
-15.11760000 6.77530000 -17.87910000
12.91480000 -18.39820000 -15.48810000
14.01430000 -18.49560000 -15.73610000
13.39220000 -17.94530000 -15.55740000
22.29480000 -5.35230000 0.66270000
-12.37280000 3.12370000 -17.61160000
-12.37180000 3.45880000 -17.80370000
-11.69570000 3.36220000 -17.37570000
-11.64660000 3.56690000 -17.60930000
21.30700000 -5.12580000 -0.01390000
-1.59120000 -18.46800000 8.50030000
-11.89550000 3.92900000 -17.79180000
14.15500000 -17.88600000 -15.67680000
-13.20770000 3.03030000 -17.54980000
-12.70180000 3.10390000 -17.14250000
-0.17670000 -18.85230000 10.04860000
-13.61000000 2.72610000 -17.07720000
21.65540000 -4.79810000 0.59150000
-12.92050000 2.87160000 -16.81890000
-1.08650000 -18.46430000 9.28750000
-12.28340000 3.21920000 -17.21420000
15.67410000 -18.56090000 -15.83560000
-0.74180000 -18.02620000 9.65040000
20.82740000 -3.96660000 0.41680000
15.55660000 -18.04620000 -15.87230000
-11.97900000 2.95940000 -16.65970000
-1.51890000 -17.67320000 8.72750000
21.60550000 -3.99090000 0.94340000
-12.88410000 3.99710000 -17.89550000
-0.67740000 -17.31890000 9.37660000
0.20530000 -17.21640000 10.06420000
22.91870000 -4.99560000 1.45250000
0.22170000 -18.39780000 10.48930000
13.78940000 -17.35560000 -15.75910000
0.05270000 -17.92220000 10.34380000
14.45170000 -17.48530000 -15.98160000
-10.71850000 2.93810000 -16.68940000
14.45160000 -17.09560000 -16.30730000
13.31890000 -16.84650000 -15.87900000
24.32640000 -4.87300000 2.04520000
-10.74280000 3.40000000 -16.95560000
-10.60860000 3.68760000 -17.42300000
-10.99350000 4.04960000 -17.79780000
22.75480000 -4.11270000 1.68350000
23.79750000 -4.31490000 2.19990000
-1.58770000 -17.03220000 8.79910000
16.25550000 -17.56880000 -16.16600000
-0.05060000 -16.62220000 9.69420000
16.52220000 -16.87310000 -16.40930000
15.30370000 -17.51280000 -16.02440000
-11.60370000 3.37490000 -16.93810000
23.01260000 -3.40160000 2.01470000
16.14030000 -16.80940000 -16.30030000
23.10060000 -2.86140000 2.13190000
-4.47530000 -17.33710000 3.28360000
15.58440000 -16.83830000 -16.35400000
-4.12630000 -17.67690000 3.65160000
15.15880000 -16.89660000 -16.55580000
-12.67720000 6.10170000 -17.83970000
19.56930000 -2.87970000 2.97200000
-4.70110000 -16.97710000 3.91110000
-11.43310000 4.86640000 -17.86850000
-4.69520000 -16.86770000 4.81000000
-4.84010000 -16.43850000 3.84460000
20.96490000 -2.73280000 1.12370000
20.09950000 -2.62730000 1.02150000
20.50940000 -2.49450000 1.08510000
21.70880000 -2.56680000 1.53360000
12.83840000 -17.23340000 -15.55130000
-4.82060000 -15.53770000 5.16660000
-4.89970000 -15.94700000 4.48760000
19.72930000 -2.68960000 1.73020000
20.00140000 -2.34350000 1.44350000
19.97270000 -1.90510000 2.18540000
20.26550000 -2.06450000 1.42870000
20.95350000 -1.67710000 1.57500000
-4.53990000 -16.04460000 6.17190000
20.45010000 -1.48980000 1.83930000
-11.17630000 7.07860000 -17.82170000
20.95410000 -1.14110000 1.91660000
-4.61380000 -14.88800000 6.29150000
-4.87190000 -14.71940000 4.75690000
-4.92580000 -14.52050000 4.17520000
22.95160000 -1.70710000 2.09620000
23.64260000 -2.64860000 2.29880000
21.87280000 -1.44130000 1.87550000
21.47060000 -0.85200000 2.08040000
22.22720000 -0.87590000 1.98810000
-4.82890000 -13.91920000 5.92820000
23.67740000 -1.51420000 2.16500000
-2.40310000 -16.51260000 8.71740000
25.21890000 -4.22160000 2.13570000
-3.72740000 -16.05810000 7.65330000
26.06460000 -4.31540000 2.04440000
-2.78840000 -15.86740000 8.69030000
26.05100000 -3.36890000 2.14930000
-3.40370000 -15.33320000 8.48330000
24.18800000 -3.82680000 2.34080000
24.93190000 -3.60910000 2.35280000
-12.08820000 8.38310000 -17.80610000
24.76110000 -2.84100000 2.37910000
25.57660000 -2.71180000 2.33000000
-13.01050000 8.43050000 -17.71380000
-1.51150000 -16.31280000 9.12670000
-0.44310000 -16.10030000 9.59420000
-2.02340000 -15.71310000 9.09520000
25.12720000 -1.69270000 2.21360000
-1.08540000 -15.50310000 9.53740000
26.75760000 -2.29920000 1.95470000
27.42060000 -2.08680000 1.51460000
-1.23560000 -14.99600000 9.79390000
28.07330000 -1.75120000 1.06180000
26.83040000 -1.06010000 1.39960000
26.07400000 -2.29480000 2.16340000
0.14870000 -15.68400000 10.31260000
-0.28720000 -15.67460000 9.89490000
26.15320000 -1.48850000 1.96810000
-0.53700000 -15.34010000 10.86630000
-0.04700000 -15.47000000 11.20010000
25.85420000 -0.73650000 1.77020000
-0.80000000 -15.17400000 10.13610000
-1.02660000 -14.98250000 10.54030000
-6.42170000 2.79710000 -16.89990000
-1.06350000 -14.88120000 11.73980000
-0.63970000 -14.86150000 12.28150000
-1.35840000 -14.67170000 11.13750000
24.02190000 -0.92670000 2.01560000
-6.73260000 3.39150000 -16.87100000
-1.32500000 -14.37100000 12.29470000
-1.04810000 -14.27540000 12.71310000
-1.71970000 -14.08000000 11.89420000
22.14680000 -0.12070000 1.98740000
22.71760000 -0.18320000 1.82560000
-4.20010000 -15.41950000 7.15030000
22.85700000 0.84350000 1.71240000
-6.80310000 3.90610000 -16.98760000
-6.79110000 4.56930000 -17.33860000
-4.59220000 -14.45000000 6.92690000
27.72170000 -0.72690000 0.77880000
27.30750000 0.22330000 0.43640000
-3.92260000 -14.97370000 8.09610000
-4.33760000 -14.68280000 7.61100000
-7.35230000 5.07670000 -17.46210000
-6.46410000 5.20380000 -17.63950000
26.46660000 0.06820000 0.97810000
25.68520000 0.45730000 1.08690000
27.12060000 0.78090000 0.04920000
26.43400000 2.35610000 -0.89200000
26.85900000 1.57070000 -0.44930000
-5.13110000 -12.94580000 6.39940000
26.12350000 1.36930000 0.21560000
25.10120000 1.69440000 0.28800000
25.76540000 2.64240000 -0.75010000
25.25100000 2.37370000 -0.23760000
24.98980000 -0.17370000 1.61580000
23.94130000 0.27690000 1.51590000
24.50300000 1.11430000 0.81140000
23.97570000 1.11790000 0.97250000
23.36540000 0.55850000 1.50110000
23.42990000 1.25410000 1.23240000
23.62880000 1.87230000 0.52510000
23.57440000 2.76230000 -0.18320000
24.32640000 2.79000000 -0.39710000
23.33940000 2.12520000 0.71530000
23.25080000 1.66210000 1.57150000
23.31340000 2.12630000 1.22030000
23.06560000 2.95030000 0.09050000
23.07890000 2.88130000 0.78880000
19.33730000 -3.57340000 3.61300000
19.60390000 -2.63950000 4.57070000
19.80350000 -1.80700000 3.85300000
19.82610000 -1.85580000 2.68860000
20.17920000 -1.18680000 2.43270000
20.91070000 -0.73280000 2.29710000
20.78690000 -0.41770000 2.68700000
19.89410000 -0.96580000 3.92350000
20.20980000 -0.59110000 3.26100000
20.66180000 -0.18420000 3.43990000
21.18350000 -0.02410000 3.39900000
20.86070000 -0.05570000 4.44390000
21.59860000 0.23170000 3.85630000
19.64020000 -1.73020000 5.53180000
19.67750000 -1.27740000 5.28930000
19.37480000 -1.95230000 5.98580000
19.72710000 -0.77670000 5.18500000
20.02600000 -0.36000000 4.84280000
20.33740000 -0.18050000 4.21890000
21.30000000 0.02810000 4.60820000
20.96550000 0.01770000 5.39270000
21.63010000 0.47430000 5.45660000
20.37590000 -0.12140000 5.39530000
22.17110000 1.05040000 4.56160000
21.67680000 -0.14290000 2.27460000
21.52510000 0.08790000 2.80320000
22.30270000 0.72370000 2.27150000
22.28700000 0.94660000 2.72960000
22.07160000 0.77880000 3.58950000
22.88220000 1.62440000 2.30960000
22.91230000 2.11710000 3.38450000
23.42230000 2.15040000 2.08740000
23.44430000 2.76580000 1.69230000
23.27000000 2.26090000 2.51610000
23.54790000 2.89670000 2.56750000
22.97570000 3.73330000 0.87660000
23.41410000 2.71520000 2.97350000
23.23480000 3.08440000 3.48900000
23.40380000 3.59740000 2.79830000
22.40120000 1.71010000 4.87110000
23.06670000 3.62350000 4.33720000
23.26260000 4.11340000 3.68450000
17.06270000 6.16440000 -8.61880000
17.18860000 6.37440000 -7.98190000
17.72830000 6.12420000 -7.74770000
18.45880000 5.61040000 -7.80050000
18.92180000 5.86120000 -7.80440000
18.10150000 6.61160000 -7.63780000
19.57670000 6.31420000 -7.61540000
20.43880000 6.42130000 -7.17820000
19.10460000 6.90380000 -7.50000000
19.80010000 6.88680000 -7.16430000
22.69400000 3.77500000 0.21220000
22.93020000 3.63210000 -0.42890000
23.36670000 3.82450000 -0.78200000
22.68870000 4.73160000 -1.02570000
22.49340000 4.36970000 -0.40100000
23.26440000 4.98140000 -1.46660000
22.29400000 5.17200000 -0.99470000
22.99670000 5.60560000 -1.78570000
22.94060000 5.97460000 -2.51430000
22.30910000 5.80320000 -1.42060000
24.52500000 3.68260000 -1.09100000
