-0.75120000 -11.13440000 -7.89990000
-0.50150000 -11.06320000 -8.12020000
-0.49720000 -11.21110000 -8.31550000
-0.23960000 -11.39120000 -8.95580000
-0.40640000 -11.81870000 -9.52570000
-0.10350000 -11.49130000 -9.17720000
-0.64840000 -10.20410000 -7.54750000
-0.33270000 -10.27200000 -7.79560000
-0.89510000 -9.54700000 -7.18470000
-0.84170000 -8.94390000 -7.16810000
0.51600000 -13.86420000 -8.98620000
0.70210000 -13.79840000 -9.10300000
0.63200000 -13.71480000 -9.26360000
1.00700000 -13.79040000 -9.27780000
0.75440000 -13.72740000 -9.42810000
1.13460000 -13.68030000 -9.63410000
0.19660000 -13.84260000 -8.94920000
0.44540000 -13.80970000 -9.07110000
0.42340000 -13.76470000 -9.28040000
-0.12450000 -13.80000000 -8.97530000
0.10310000 -13.81170000 -9.06370000
-0.29450000 -13.73150000 -8.80660000
-0.11850000 -13.75770000 -9.10500000
0.07640000 -13.65900000 -9.23340000
0.73060000 -13.64530000 -9.66990000
-0.47560000 -13.68350000 -8.97400000
-0.22380000 -13.71640000 -9.25420000
0.04120000 -13.63640000 -9.43640000
-0.01330000 -13.49900000 -9.73970000
0.65520000 -13.43810000 -9.91000000
-0.90210000 -13.62270000 -8.78210000
-0.72040000 -13.59650000 -8.99140000
-0.40000000 -13.61380000 -9.20120000
-0.42310000 -13.61220000 -9.29900000
-0.21260000 -13.65950000 -9.36100000
-0.36480000 -13.56370000 -9.53950000
-1.09130000 -13.64220000 -8.80170000
-0.58340000 -13.60430000 -9.27520000
-0.74820000 -13.59930000 -9.26180000
-0.67660000 -13.57830000 -9.37520000
-0.49750000 -13.44910000 -9.68990000
-0.50500000 -13.24940000 -9.90780000
0.20810000 -13.28000000 -9.94240000
-0.61050000 -13.31520000 -9.81150000
-0.72590000 -13.06210000 -9.91590000
-0.60660000 -12.98290000 -9.99230000
-0.40830000 -13.07040000 -9.99590000
-0.11780000 -13.16180000 -9.96300000
-0.73260000 -13.24720000 -9.79460000
-0.89330000 -12.97300000 -9.79150000
-0.86020000 -12.76240000 -9.87480000
-0.59100000 -12.81760000 -10.02480000
-0.09830000 -12.99280000 -9.99000000
0.16220000 -13.11330000 -10.00050000
-1.25240000 -12.96050000 -9.19800000
-1.05770000 -12.51590000 -9.60030000
-0.92190000 -12.50260000 -9.77980000
-0.74930000 -12.56960000 -9.94250000
-0.57430000 -12.54610000 -9.99090000
-0.22450000 -12.43260000 -9.92000000
-1.44250000 -12.95020000 -8.95450000
-1.31370000 -12.83330000 -9.09290000
-1.15040000 -12.47610000 -9.38880000
-1.02960000 -12.40390000 -9.57720000
-0.87120000 -12.31460000 -9.73130000
-0.77970000 -12.38810000 -9.85770000
-1.59000000 -13.08520000 -8.84300000
-0.98200000 -12.09420000 -9.23470000
-0.63310000 -12.18740000 -9.80200000
-0.44320000 -12.25750000 -9.88630000
1.22430000 -13.29780000 -10.14690000
0.60740000 -13.15590000 -10.16540000
1.25260000 -13.19110000 -10.23480000
0.90480000 -13.06210000 -10.25380000
0.75650000 -12.89760000 -10.25370000
0.65250000 -12.81200000 -10.21050000
0.20950000 -12.66590000 -9.96640000
0.52120000 -12.53770000 -10.08900000
0.74350000 -12.27330000 -10.24410000
0.20490000 -12.10370000 -9.75710000
0.45360000 -12.29500000 -9.97220000
0.65760000 -11.98350000 -9.98110000
-0.04570000 -12.51410000 -9.89180000
0.15410000 -11.85070000 -9.60010000
0.66390000 -11.80240000 -9.79030000
-0.16570000 -12.14190000 -9.76690000
-0.27560000 -11.85560000 -9.59130000
0.04440000 -11.68810000 -9.43890000
0.25900000 -11.62410000 -9.43580000
-0.40880000 -12.02450000 -9.67760000
-0.63900000 -11.92530000 -9.48790000
2.79430000 -9.37540000 -4.85640000
2.89690000 -9.23450000 -5.08700000
2.58360000 -11.08890000 -4.93470000
2.70670000 -10.97760000 -5.08150000
3.01130000 -11.41600000 -6.03570000
2.97490000 -10.50960000 -5.74360000
2.39870000 -11.16690000 -4.78050000
1.82530000 -10.17840000 -4.19950000
2.14750000 -10.97940000 -4.56540000
1.90860000 -11.10100000 -4.51310000
2.24360000 -12.89380000 -5.29180000
2.45910000 -12.54850000 -5.34440000
1.45140000 -10.27300000 -4.07210000
1.33990000 -11.78860000 -4.62570000
1.36520000 -13.37010000 -5.14290000
1.89800000 -13.19020000 -5.20250000
1.02230000 -13.26730000 -5.07200000
1.29970000 -13.67650000 -5.28080000
1.57950000 -13.63130000 -5.31020000
3.00650000 -10.15030000 -6.20070000
3.03210000 -11.76120000 -6.59600000
2.98830000 -11.77450000 -6.94550000
3.05360000 -12.35690000 -6.57210000
3.15810000 -12.60840000 -7.20910000
3.11430000 -12.45470000 -7.45110000
2.97690000 -12.03180000 -7.63970000
2.99030000 -12.52160000 -6.34890000
3.21180000 -12.98990000 -7.15970000
3.23010000 -12.80700000 -7.48930000
3.01440000 -12.39880000 -8.00430000
2.83600000 -11.29030000 -5.45480000
2.78000000 -12.64400000 -5.83000000
2.93150000 -13.20410000 -6.23940000
3.16430000 -13.20060000 -7.08280000
3.26010000 -13.12100000 -7.59110000
2.63030000 -12.59620000 -5.56420000
2.78850000 -13.14160000 -5.89090000
2.70380000 -13.31010000 -5.81660000
2.80330000 -13.36620000 -6.04210000
2.90180000 -13.36000000 -6.30870000
3.01310000 -13.24350000 -6.56090000
2.39240000 -13.25020000 -5.46930000
2.51550000 -13.16720000 -5.54000000
1.93580000 -13.57830000 -5.39760000
2.40820000 -13.54840000 -5.64690000
2.53100000 -13.36720000 -5.63530000
2.56180000 -13.51510000 -5.77540000
2.41810000 -13.65720000 -5.77510000
1.85420000 -13.66280000 -5.50150000
2.08880000 -13.71450000 -5.80070000
2.51470000 -13.67000000 -5.93050000
2.73090000 -13.55070000 -6.15990000
1.56030000 -13.75250000 -5.41000000
1.45970000 -13.87200000 -5.84340000
1.98450000 -13.71830000 -6.21200000
2.37210000 -13.73080000 -6.08270000
2.81720000 -13.47460000 -6.46490000
2.93010000 -13.36890000 -6.51660000
1.33840000 -13.83390000 -5.39640000
1.45320000 -13.85990000 -5.55550000
1.18860000 -13.91100000 -5.62990000
1.23980000 -13.93520000 -5.84340000
1.78520000 -13.82210000 -6.39330000
2.10070000 -13.74110000 -6.37410000
0.88970000 -13.75930000 -5.33070000
0.97820000 -13.92340000 -5.57340000
0.47430000 -13.85510000 -5.36810000
0.75620000 -13.99390000 -5.58960000
0.77660000 -14.03290000 -5.74930000
0.79610000 -14.02810000 -6.02950000
0.97820000 -13.97830000 -6.11960000
1.24140000 -13.99960000 -6.38440000
0.26820000 -13.83320000 -5.53190000
0.46420000 -13.98220000 -5.76180000
0.59240000 -14.03310000 -5.91340000
0.46520000 -14.06270000 -6.00000000
0.40090000 -14.03470000 -5.87710000
0.22570000 -14.01360000 -5.94890000
0.31040000 -14.12110000 -6.33970000
0.70870000 -14.10240000 -6.53030000
0.14310000 -14.05530000 -6.17110000
2.91910000 -12.11050000 -8.90740000
2.81450000 -11.96550000 -8.93230000
2.98920000 -12.22360000 -8.78290000
2.94860000 -12.36240000 -9.05040000
2.86670000 -12.21520000 -9.09250000
3.06150000 -12.76540000 -8.46960000
3.00380000 -12.75560000 -8.82500000
2.97200000 -12.61510000 -9.09150000
2.82440000 -12.73510000 -9.49200000
2.73090000 -12.29360000 -9.43200000
2.72870000 -12.14530000 -9.23830000
3.20430000 -12.87930000 -8.10320000
3.14710000 -12.98000000 -8.33840000
3.11320000 -13.10610000 -8.48420000
2.96260000 -13.01690000 -8.98530000
2.93670000 -13.06140000 -9.25380000
3.25260000 -12.89800000 -7.78470000
3.26440000 -13.04750000 -7.93480000
3.21910000 -13.00780000 -8.12450000
3.19530000 -13.20500000 -8.23430000
3.13750000 -13.18120000 -8.34050000
3.25260000 -13.16310000 -7.84910000
3.11920000 -13.43560000 -7.76860000
3.03650000 -13.47510000 -8.26800000
3.03820000 -13.40960000 -8.41030000
3.04770000 -13.29470000 -8.59100000
3.18760000 -13.31510000 -7.50800000
3.07630000 -13.48360000 -7.41530000
2.97580000 -13.57300000 -7.86890000
2.82730000 -13.59380000 -8.33540000
2.89680000 -13.55330000 -8.41060000
3.10720000 -13.39520000 -7.20440000
2.89170000 -13.56610000 -6.84370000
2.77780000 -13.61420000 -7.78780000
2.67340000 -13.58410000 -7.94400000
2.51590000 -13.58920000 -8.22050000
2.73480000 -13.59090000 -8.37060000
2.98720000 -13.45380000 -6.79060000
2.58190000 -13.72180000 -6.71960000
2.38980000 -13.82210000 -6.90830000
2.00570000 -13.99920000 -7.10710000
2.46820000 -13.78300000 -7.57170000
2.59130000 -13.61270000 -7.86820000
2.52600000 -13.69460000 -6.50490000
2.22730000 -13.73950000 -6.55990000
1.97680000 -13.96640000 -6.81770000
1.64130000 -13.96810000 -6.58470000
1.64410000 -13.98890000 -6.86420000
1.74920000 -14.03830000 -7.09800000
1.42920000 -14.02640000 -6.59340000
1.42910000 -14.05400000 -6.86630000
1.25010000 -14.05410000 -7.22840000
1.52710000 -14.09860000 -7.39000000
1.83470000 -14.01370000 -7.56230000
2.18900000 -13.82570000 -7.73880000
1.03700000 -14.02550000 -6.44850000
1.12720000 -14.02700000 -6.77290000
1.00430000 -14.07480000 -7.14180000
0.95320000 -14.06610000 -7.37140000
1.21020000 -14.01020000 -7.52170000
1.31500000 -14.03260000 -7.38480000
0.70970000 -14.07920000 -6.93530000
0.22080000 -14.09950000 -6.77820000
0.84700000 -14.06190000 -7.62480000
1.25690000 -14.02440000 -7.64170000
1.56900000 -14.07570000 -7.62860000
0.45960000 -14.07530000 -6.57070000
-0.29230000 -14.10760000 -7.09830000
1.12020000 -14.05630000 -8.10890000
0.93680000 -13.96420000 -8.74990000
2.61150000 -12.30580000 -9.53560000
2.44130000 -12.38930000 -9.65360000
1.95020000 -12.56660000 -9.77830000
2.73040000 -12.61940000 -9.60180000
2.48800000 -12.66190000 -9.77500000
2.62090000 -13.10540000 -9.78340000
1.92720000 -13.06590000 -9.91350000
1.74890000 -13.05450000 -9.98010000
1.66320000 -12.90510000 -10.03320000
1.58980000 -12.30640000 -9.80090000
1.67300000 -12.23270000 -9.71340000
2.71090000 -13.06790000 -9.67640000
2.69120000 -13.29690000 -9.60640000
2.57140000 -13.26970000 -9.73630000
1.80550000 -13.26030000 -9.89340000
1.62400000 -13.07360000 -10.08750000
2.71050000 -13.33650000 -9.49610000
2.62280000 -13.43200000 -9.56580000
2.48560000 -13.53650000 -9.52360000
2.11170000 -13.50160000 -9.65180000
1.72460000 -13.34940000 -9.87500000
2.85100000 -13.23690000 -9.36840000
2.67890000 -13.60730000 -9.19550000
2.29580000 -13.59080000 -9.45250000
1.90090000 -13.68600000 -9.40840000
1.92030000 -13.60450000 -9.54770000
1.67520000 -13.56370000 -9.69720000
2.92970000 -13.18020000 -9.16930000
2.82340000 -13.47050000 -9.09550000
2.78760000 -13.57520000 -8.90350000
2.56520000 -13.70070000 -8.76280000
2.35530000 -13.64000000 -8.94990000
2.28600000 -13.64620000 -9.09230000
2.15040000 -13.60840000 -9.21820000
2.94380000 -13.47750000 -8.52230000
2.75310000 -13.57510000 -8.68530000
2.33560000 -13.76510000 -8.56090000
2.26610000 -13.70450000 -8.84510000
2.16160000 -13.71980000 -8.95690000
2.52020000 -13.65500000 -8.37370000
2.36180000 -13.73540000 -8.30750000
2.19990000 -13.84430000 -8.12260000
2.13490000 -13.88420000 -8.24530000
1.99800000 -13.90570000 -8.42780000
1.93120000 -13.78180000 -8.75610000
2.39930000 -13.64640000 -8.19870000
2.48970000 -13.59250000 -8.10300000
2.03170000 -13.89220000 -7.87710000
1.85000000 -13.85310000 -8.12740000
1.82860000 -13.90410000 -8.50620000
1.64590000 -13.97000000 -7.94690000
1.63030000 -13.93740000 -8.44390000
1.77720000 -13.83930000 -8.80550000
1.96190000 -13.79240000 -8.96460000
1.33390000 -13.99420000 -8.39530000
1.43080000 -13.86880000 -8.74070000
1.32120000 -13.83310000 -9.07760000
1.73830000 -13.75810000 -9.02740000
1.73280000 -13.71930000 -9.30600000
1.21100000 -13.94520000 -8.73200000
1.13080000 -13.75910000 -9.19000000
1.53620000 -13.77170000 -9.26740000
1.65430000 -13.67370000 -9.39860000
1.46010000 -13.63330000 -9.59900000
1.69410000 -13.64280000 -9.56010000
1.58060000 -13.36780000 -9.95750000
1.58690000 -13.18670000 -10.08320000
1.39240000 -12.86790000 -10.25970000
1.38250000 -13.54060000 -9.80190000
1.41500000 -13.24840000 -10.11740000
1.33980000 -13.13210000 -10.24060000
1.32920000 -12.70260000 -10.32690000
1.40770000 -12.40850000 -10.09240000
1.21270000 -12.98140000 -10.35100000
1.27910000 -12.90660000 -10.34980000
1.02060000 -12.83610000 -10.39010000
1.10650000 -12.69590000 -10.41790000
0.83190000 -12.61750000 -10.35170000
0.97750000 -12.63450000 -10.41080000
0.91160000 -12.48780000 -10.37670000
1.07390000 -12.49880000 -10.38420000
0.85660000 -12.12030000 -10.19630000
0.93940000 -12.33480000 -10.32740000
0.80280000 -11.52220000 -9.58840000
0.97610000 -11.61770000 -9.67220000
0.87540000 -11.72390000 -9.79490000
1.20290000 -11.66320000 -9.67310000
1.10040000 -11.75960000 -9.82930000
0.95810000 -11.82590000 -9.88080000
1.41970000 -11.84240000 -9.70280000
1.36270000 -11.88020000 -9.83250000
1.42970000 -12.14340000 -9.89670000
1.17230000 -11.88700000 -9.89070000
1.11060000 -11.93590000 -10.00960000
0.91270000 -11.96040000 -10.05080000
1.25910000 -12.17950000 -10.14320000
1.10580000 -12.34740000 -10.31340000
0.97810000 -12.17920000 -10.24070000
1.24990000 -12.40130000 -10.27970000
2.19350000 -12.00590000 6.68270000
1.86760000 -12.25950000 6.30050000
2.14830000 -11.93980000 6.66960000
2.65480000 -11.39610000 7.12110000
2.87630000 -11.54240000 7.16340000
2.08330000 -11.70030000 6.55400000
2.24090000 -11.51540000 6.70980000
2.27180000 -11.66940000 6.79170000
2.12490000 -11.54750000 6.51990000
2.69980000 -11.18860000 7.14530000
3.41310000 -11.40230000 7.57300000
3.89060000 -11.98220000 7.24310000
3.38110000 -11.95430000 7.18780000
3.78070000 -11.69590000 7.41860000
4.03480000 -11.83550000 7.43370000
3.30900000 -12.02750000 7.09240000
3.09300000 -11.32150000 7.44850000
3.08490000 -11.14050000 7.62430000
3.57540000 -11.26150000 7.85220000
3.98930000 -11.69420000 7.56480000
2.88400000 -11.32400000 7.30310000
2.90830000 -10.99030000 7.54850000
2.94490000 -10.89000000 7.77430000
3.27930000 -11.09660000 7.94630000
3.45460000 -11.12520000 8.03870000
3.69940000 -11.26960000 8.02840000
2.83190000 -11.04860000 7.34880000
2.88950000 -10.79370000 7.63890000
2.93400000 -10.38180000 8.19160000
2.97280000 -10.63980000 8.25730000
3.05440000 -10.86050000 8.13790000
3.31990000 -11.02190000 8.25690000
2.79740000 -10.95920000 7.21550000
2.90350000 -10.68820000 7.54360000
2.96560000 -10.39290000 7.98290000
2.92430000 -10.09580000 8.58970000
2.91890000 -10.41230000 8.46980000
2.71710000 -11.07660000 7.05820000
2.81370000 -10.96020000 7.01060000
3.36020000 -10.59560000 6.68000000
4.32630000 -9.98620000 6.08970000
2.99700000 -10.02050000 8.48890000
2.46630000 -11.24210000 6.56510000
2.23960000 -11.38130000 6.42640000
3.44060000 -12.60010000 10.54220000
3.12620000 -12.19520000 10.61320000
3.29640000 -11.98130000 10.38270000
4.13800000 -12.92940000 10.08490000
3.59020000 -12.31300000 10.37850000
3.63950000 -12.20830000 10.29800000
3.37040000 -11.79590000 10.18570000
3.10280000 -11.61750000 10.35880000
3.97670000 -12.56270000 10.18380000
4.16420000 -11.80850000 8.20080000
4.44530000 -12.31840000 7.95970000
4.34180000 -12.12020000 7.70400000
4.50690000 -12.11800000 8.36580000
4.46670000 -11.96530000 8.48750000
4.56340000 -12.11490000 8.58570000
4.14600000 -11.84270000 7.55610000
4.11990000 -11.70420000 7.77280000
3.88940000 -11.42630000 8.52310000
4.33730000 -11.76710000 8.63640000
4.50470000 -11.98520000 8.69460000
3.60680000 -11.13270000 8.32730000
3.80610000 -11.29850000 8.88370000
4.05930000 -11.48890000 9.03080000
4.16500000 -11.62530000 9.12990000
4.41640000 -11.94120000 8.91240000
4.51590000 -12.03120000 8.86280000
3.38130000 -11.02220000 8.50610000
3.42240000 -11.07050000 8.80170000
3.77360000 -11.32350000 9.16560000
4.01180000 -11.52240000 9.27480000
4.22980000 -11.83420000 9.25790000
3.19980000 -10.90650000 8.50220000
3.21730000 -10.91220000 8.93450000
3.44220000 -11.17840000 9.17050000
3.36610000 -11.30100000 9.53720000
3.76780000 -11.44270000 9.46120000
3.82690000 -11.71400000 9.73310000
3.08890000 -10.76250000 8.70840000
3.15980000 -10.90070000 9.01800000
2.85540000 -10.43260000 8.96020000
3.10840000 -11.01750000 9.46900000
2.72080000 -10.83590000 9.84180000
3.38430000 -11.54710000 9.92270000
2.83110000 -10.31710000 8.89960000
2.64290000 -10.24760000 9.46890000
2.55640000 -10.59380000 9.91540000
2.71070000 -10.10730000 9.32790000
2.61180000 -10.31310000 10.02020000
2.50160000 -10.48230000 10.11260000
2.42240000 -10.82930000 10.35040000
2.56150000 -11.00270000 10.33710000
2.86780000 -9.95940000 9.02310000
3.12640000 -9.65610000 9.02970000
2.79590000 -9.99300000 9.48400000
2.88120000 -10.07380000 9.96510000
2.53670000 -10.38390000 10.31380000
2.38110000 -10.59750000 10.46740000
4.07220000 -9.05850000 9.43310000
3.20010000 -9.79090000 9.55510000
3.34930000 -9.72880000 9.89620000
2.86040000 -10.07950000 10.37200000
5.04500000 -9.35630000 5.75380000
5.59200000 -9.09210000 5.00260000
6.34880000 -8.49040000 4.27230000
5.19530000 -9.64420000 4.67690000
6.08670000 -8.84820000 4.20750000
6.48380000 -8.49850000 3.79570000
6.77150000 -8.19980000 3.49390000
5.51790000 -9.47270000 4.04740000
6.08660000 -8.99440000 3.52820000
6.55670000 -8.52240000 3.27550000
7.43410000 -7.55950000 2.02370000
6.45350000 -8.67180000 2.86400000
3.67000000 -9.40980000 9.94650000
2.57420000 -10.20860000 10.85060000
2.28380000 -10.55260000 10.89330000
4.11410000 -8.92540000 9.80080000
3.85150000 -9.12210000 10.11410000
2.30100000 -10.40320000 11.26700000
8.32770000 -6.17020000 0.37760000
8.07620000 -6.84340000 -0.32640000
7.32120000 -7.81620000 1.49640000
7.15660000 -7.91690000 2.16350000
2.12600000 -11.02770000 11.06900000
1.91620000 -11.32870000 11.71930000
3.68110000 -11.93260000 10.07490000
3.96770000 -11.97900000 9.62530000
4.18760000 -12.20380000 9.38310000
4.38790000 -12.05400000 9.09930000
3.87370000 -12.11890000 9.96620000
4.03650000 -12.24090000 9.91110000
4.12340000 -12.34330000 9.84310000
4.21560000 -12.32950000 9.48630000
4.08750000 -12.46330000 10.01920000
4.48680000 -12.14470000 9.04860000
2.19060000 -10.73300000 10.98140000
1.87200000 -11.06330000 11.86990000
2.06450000 -10.84940000 11.43810000
7.71690000 -7.27380000 -0.40390000
7.42060000 -7.66590000 -0.51930000
7.93320000 -7.11800000 -0.46350000
8.24070000 -7.03370000 -0.53820000
7.31030000 -7.86040000 -0.70140000
7.51450000 -7.89690000 -0.81800000
7.93610000 -7.89610000 -0.84810000
7.15160000 -8.04140000 -0.85910000
7.01310000 -8.40220000 -1.14650000
7.67040000 -8.23910000 -1.00450000
6.87950000 -8.18700000 -0.87630000
6.87870000 -8.27040000 -1.00280000
6.69310000 -8.46640000 -1.22890000
6.80150000 -8.54260000 -1.27980000
7.42350000 -9.23700000 -1.41150000
6.15970000 -8.72250000 -1.66040000
6.54970000 -8.61100000 -1.42160000
6.66120000 -8.69320000 -1.44360000
5.91300000 -8.76540000 -1.84980000
6.04810000 -8.91650000 -1.93900000
6.59000000 -9.02210000 -1.65970000
7.10120000 -9.28570000 -1.54480000
5.73740000 -8.73740000 -1.94160000
5.59280000 -8.83650000 -2.26110000
5.06270000 -8.69080000 -3.06130000
5.11730000 -8.70730000 -2.79650000
4.88270000 -8.47960000 -3.66150000
5.08510000 -8.65390000 -3.41630000
7.19350000 -9.97560000 -1.75120000
7.09120000 -12.00270000 -2.63160000
6.29370000 -9.52530000 -2.08930000
6.25940000 -10.49150000 -2.48680000
6.61290000 -11.26170000 -2.60340000
6.74950000 -11.71670000 -2.69930000
6.71750000 -12.20000000 -2.92120000
7.35310000 -12.37270000 -2.66170000
5.80080000 -9.03670000 -2.27060000
6.14280000 -9.81180000 -2.27890000
5.93570000 -10.26270000 -2.70800000
5.77790000 -10.51330000 -2.91680000
6.07670000 -11.23820000 -3.02600000
6.48150000 -11.46390000 -2.76570000
5.42320000 -8.90800000 -2.58190000
5.66990000 -9.27620000 -2.50550000
5.76660000 -9.64210000 -2.52140000
5.58730000 -9.57450000 -2.73420000
5.28010000 -8.86040000 -2.80640000
5.35920000 -8.97450000 -2.78460000
5.21460000 -8.82850000 -3.11860000
5.27950000 -8.95910000 -3.22560000
5.44870000 -9.66900000 -3.25530000
5.54800000 -9.89500000 -3.07530000
5.16880000 -8.67400000 -3.71690000
5.25290000 -8.83590000 -3.63690000
5.33540000 -9.06410000 -3.73210000
5.51570000 -10.34380000 -3.82100000
5.62300000 -10.55780000 -3.36300000
6.03220000 -11.35020000 -3.11450000
5.01420000 -8.40210000 -4.03010000
5.24750000 -8.43540000 -4.38400000
5.30370000 -8.67420000 -4.21070000
5.38360000 -9.04590000 -4.11390000
5.49300000 -10.20040000 -3.99860000
5.41550000 -8.28850000 -4.79050000
5.49240000 -8.57900000 -4.74180000
5.61810000 -9.28060000 -4.78210000
5.64240000 -8.80670000 -4.91230000
7.08920000 -12.64440000 -2.88010000
6.43740000 -12.65830000 -3.39220000
5.78280000 -11.54590000 -3.68560000
5.90230000 -12.44320000 -4.52690000
6.27500000 -11.96260000 -3.16330000
5.97100000 -11.82690000 -3.47260000
5.75930000 -11.80000000 -4.27630000
5.72970000 -11.59030000 -4.49360000
5.98310000 -12.38350000 -5.20580000
5.64720000 -10.97680000 -3.68190000
5.56050000 -10.10210000 -4.49980000
6.03980000 -11.57320000 -5.60550000
5.86460000 -11.37920000 -3.36790000
6.08920000 -11.61890000 -3.20470000
6.33540000 -11.79560000 -3.12260000
6.10450000 -11.40070000 -3.03340000
6.28020000 -11.42850000 -2.94190000
6.50960000 -12.12270000 -3.12090000
5.68140000 -10.07110000 -4.83650000
6.13250000 -11.36970000 -5.77540000
5.81640000 -9.82950000 -5.05370000
5.96630000 -10.45520000 -5.32090000
6.06170000 -10.80750000 -5.53930000
6.25250000 -11.26130000 -5.92650000
5.82170000 -9.24940000 -5.08210000
0.84920000 13.75530000 -8.49250000
0.32630000 13.81160000 -8.26610000
-2.04110000 12.30660000 -2.72240000
-1.71870000 12.57490000 -2.82960000
-1.72070000 13.07200000 -3.47470000
-2.26370000 12.70640000 -3.30600000
-2.18480000 12.99630000 -3.65200000
-2.77920000 12.82800000 -3.98270000
-1.85500000 13.26220000 -3.86390000
-2.25320000 13.17960000 -4.01920000
-2.44450000 13.16490000 -4.22410000
-2.60200000 12.99190000 -4.05110000
-1.96060000 13.54650000 -4.56460000
-2.39330000 13.45210000 -4.78530000
-2.64850000 13.12520000 -4.24960000
-2.81240000 12.94600000 -4.08580000
-1.70730000 13.82570000 -5.21830000
-2.40250000 13.57570000 -5.15330000
-2.65160000 13.62040000 -5.10830000
-2.65260000 13.38500000 -4.61470000
-1.10020000 14.01600000 -5.57100000
-1.50900000 13.97140000 -5.71830000
-1.83400000 13.88090000 -5.75080000
-1.18210000 14.06490000 -6.03310000
-1.66550000 13.97520000 -6.41630000
-2.12350000 13.79890000 -6.27320000
-2.24210000 13.70640000 -5.89390000
-1.49960000 13.99860000 -6.74100000
-1.94700000 13.83480000 -7.00220000
-2.59980000 13.56710000 -6.27440000
-2.49820000 13.61320000 -5.98690000
-2.46700000 13.61730000 -5.52530000
-1.23590000 14.00120000 -7.11930000
-1.64900000 13.91090000 -7.16190000
-1.88840000 13.75870000 -7.47750000
-2.55470000 13.47340000 -7.11730000
-0.31630000 13.89820000 -7.97720000
-1.21270000 13.87670000 -7.73210000
-1.44360000 13.74670000 -7.97120000
-1.95050000 13.53190000 -8.05990000
-2.31870000 13.47830000 -7.67230000
-0.50740000 13.73790000 -8.32080000
-0.86560000 13.57710000 -8.64560000
-1.19350000 13.52300000 -8.57710000
-1.61640000 13.58110000 -8.22660000
-0.46660000 13.66060000 -8.64210000
-0.60670000 13.59410000 -9.03030000
-1.02110000 13.45220000 -8.94030000
-1.39920000 13.34790000 -8.80340000
-2.19090000 13.25530000 -8.29140000
-2.41940000 13.24740000 -8.03100000
0.19300000 13.78670000 -8.64310000
-0.29070000 13.70380000 -8.83630000
-0.13810000 13.85470000 -9.14010000
-0.84200000 13.44660000 -9.24040000
-0.96150000 13.34190000 -9.29620000
0.61670000 13.80030000 -8.65360000
0.59600000 13.97770000 -9.00600000
0.34590000 13.98650000 -9.00130000
0.18990000 13.93650000 -9.22730000
-0.07840000 13.75580000 -9.40660000
-0.42810000 13.51840000 -9.49170000
0.80350000 13.82560000 -8.79960000
0.74550000 13.93610000 -8.98340000
0.72860000 13.96690000 -9.13400000
0.44840000 13.96920000 -9.23350000
0.24540000 13.85650000 -9.40630000
0.11290000 13.61330000 -9.63760000
1.00710000 13.78770000 -8.91490000
0.94120000 13.90180000 -9.14020000
0.81020000 13.91090000 -9.34730000
0.80540000 13.74780000 -9.62330000
1.30360000 13.63780000 -9.04770000
1.18180000 13.77860000 -9.22380000
1.17650000 13.73880000 -9.48510000
0.96730000 13.81180000 -9.48660000
-3.11860000 13.20060000 -4.27260000
-3.05810000 13.34450000 -4.41300000
-3.20200000 13.23890000 -4.37500000
-2.92390000 13.49500000 -4.61980000
-3.01120000 13.50370000 -4.64910000
-3.13240000 13.44460000 -4.65820000
-3.40620000 13.21310000 -4.70250000
-3.13030000 13.58630000 -5.14330000
-3.40460000 13.36490000 -5.38830000
-3.55900000 13.16810000 -5.34400000
-2.90330000 13.60030000 -4.81790000
-2.94520000 13.69800000 -5.24890000
-3.01350000 13.68220000 -5.48260000
-3.21880000 13.54570000 -5.54080000
-3.40670000 13.33370000 -5.94900000
-2.82810000 13.69350000 -5.11000000
-2.82260000 13.69030000 -5.42560000
-3.07560000 13.60500000 -5.87380000
-3.11860000 13.35260000 -6.64670000
-3.34320000 13.31120000 -6.36650000
-3.50790000 13.17320000 -6.16020000
-3.56470000 13.13450000 -5.80340000
-3.62320000 13.02530000 -5.20400000
-2.69910000 13.28950000 -7.47730000
-3.23170000 13.14790000 -7.01420000
-3.46250000 12.99210000 -6.75030000
-3.58120000 12.89810000 -6.37260000
-3.60260000 12.92180000 -5.82990000
-2.79390000 13.11720000 -7.58780000
-3.18580000 13.06570000 -7.18520000
-3.34440000 13.04230000 -6.96270000
-3.34990000 12.85480000 -7.05430000
-3.52960000 12.81840000 -6.64370000
-3.56710000 12.79000000 -6.37310000
-2.61380000 13.12080000 -7.90900000
-2.70170000 12.72250000 -8.06710000
-2.97510000 12.80070000 -7.47320000
-3.15910000 12.84520000 -7.29690000
-2.29510000 13.06110000 -8.38070000
-2.58220000 12.87760000 -8.17000000
-2.38950000 12.71090000 -8.46940000
-2.69020000 12.56600000 -8.11910000
-2.84210000 12.49160000 -7.84110000
-3.08910000 12.54800000 -7.25820000
-1.63470000 13.11800000 -8.87520000
-1.93360000 12.92290000 -8.78720000
-2.18790000 12.93820000 -8.56670000
-1.20480000 13.20390000 -9.22990000
-1.55850000 12.93390000 -9.03280000
-1.87330000 12.67310000 -8.91460000
-2.18770000 12.62760000 -8.67800000
-2.50440000 12.55150000 -8.36880000
-0.69180000 13.26250000 -9.52650000
-0.93980000 13.11950000 -9.45360000
-1.24770000 12.97580000 -9.27460000
-1.10930000 12.68010000 -9.30970000
-1.56910000 12.55850000 -9.11080000
-1.97740000 12.36520000 -8.85800000
-0.92600000 12.87820000 -9.44550000
-1.50000000 12.28890000 -9.14930000
-1.23240000 12.08200000 -9.24640000
-1.71340000 12.03300000 -8.98130000
-1.15420000 11.79270000 -9.19590000
-1.03340000 11.42300000 -9.10460000
-1.53040000 11.63050000 -8.89680000
-3.62230000 12.88240000 -5.45740000
-3.44550000 12.53060000 -5.53400000
-3.28500000 12.35370000 -6.49100000
-3.28430000 11.91220000 -5.99970000
-3.26700000 12.54170000 -6.92100000
-3.12080000 11.63270000 -6.32350000
-3.46400000 12.64800000 -6.61580000
-3.41020000 12.68270000 -6.83750000
-3.04440000 11.84080000 -6.91780000
-2.89390000 11.73840000 -7.27450000
-2.81810000 11.55740000 -7.32350000
-2.57260000 11.62120000 -7.88770000
-2.95250000 12.03560000 -7.41360000
-2.80930000 11.80130000 -7.59390000
-2.66060000 11.90100000 -7.95250000
-2.47810000 11.70480000 -8.07590000
-2.39940000 11.56870000 -8.18260000
-2.81880000 12.12060000 -7.79400000
-2.71330000 12.24330000 -8.04220000
-2.48520000 12.02650000 -8.27250000
-2.06260000 11.59620000 -8.53100000
-2.54720000 12.33150000 -8.29960000
-2.16820000 12.13130000 -8.65730000
-2.20280000 12.34120000 -8.66560000
-1.81070000 11.52480000 -8.70780000
-1.30030000 11.35880000 -8.97210000
1.13750000 -12.74680000 8.96760000
1.30340000 -13.18060000 8.99950000
1.17700000 -13.23030000 9.31430000
0.89290000 -13.30310000 9.74670000
0.46930000 -13.32470000 10.17090000
0.18430000 -13.37730000 10.54530000
1.45780000 -13.31480000 8.94320000
1.47000000 -13.26500000 8.51260000
1.84440000 -13.36940000 8.22660000
1.84030000 -13.38580000 8.60050000
2.82400000 -13.40910000 8.48150000
2.73530000 -13.39380000 8.77480000
1.34790000 -13.15260000 8.52390000
1.36090000 -13.23430000 8.33600000
1.59660000 -13.24220000 7.92400000
2.22250000 -13.41720000 7.99750000
2.19600000 -13.42450000 8.40940000
0.82280000 -13.12620000 7.89510000
1.44970000 -13.22250000 7.62360000
2.06580000 -13.29410000 7.63450000
0.66020000 -13.24070000 7.59920000
0.78010000 -13.25880000 7.52760000
1.11490000 -13.15240000 7.46890000
1.60980000 -13.14160000 7.36150000
1.91500000 -13.22400000 7.42990000
0.57820000 -13.14170000 7.34940000
0.82660000 -13.08970000 7.09060000
1.17490000 -13.06180000 7.12270000
0.97580000 -13.05200000 6.98440000
1.42020000 -13.07710000 6.76910000
3.28560000 -13.28180000 9.66070000
3.57670000 -13.21020000 9.54650000
3.68660000 -13.40970000 8.43820000
4.11100000 -13.38370000 8.41910000
3.66010000 -13.35640000 9.29540000
3.93420000 -13.29730000 9.55210000
3.74550000 -13.14860000 9.77720000
3.41350000 -13.40450000 8.42910000
3.54490000 -13.36300000 8.21340000
3.77370000 -13.43690000 8.23730000
3.87630000 -13.44680000 8.33200000
3.19480000 -13.43060000 8.30580000
3.71880000 -13.34980000 7.98710000
3.99930000 -13.35660000 7.89500000
4.04110000 -13.42890000 8.25770000
3.05180000 -13.41920000 8.04370000
3.23860000 -13.39630000 8.04410000
3.58730000 -13.43340000 7.84250000
3.76740000 -13.41300000 7.80150000
4.39820000 -13.41510000 7.58520000
2.63250000 -13.36760000 7.59640000
2.82680000 -13.39480000 7.75910000
3.13710000 -13.37320000 7.91900000
3.29730000 -13.35030000 7.69570000
3.51640000 -13.38630000 7.75470000
3.97780000 -13.44490000 7.58030000
2.33000000 -13.23880000 7.41480000
2.61570000 -13.20720000 7.09910000
2.98910000 -13.37450000 7.32410000
3.11200000 -13.39340000 7.46400000
3.26120000 -13.25000000 7.36190000
3.36180000 -13.26460000 7.49650000
2.36580000 -13.16930000 7.05200000
2.45490000 -13.15670000 6.78770000
2.74620000 -13.24550000 7.03460000
3.08060000 -13.30110000 7.22950000
3.11480000 -13.25230000 6.97870000
3.31980000 -13.22710000 7.30600000
1.93190000 -13.21570000 7.12950000
2.18410000 -13.16820000 6.98250000
1.88810000 -13.17300000 6.83800000
2.19750000 -13.10010000 6.73330000
2.06640000 -13.10130000 6.67440000
2.26700000 -13.03650000 6.61890000
1.72400000 -13.00930000 6.51380000
2.03180000 -12.98480000 6.56910000
2.21990000 -12.96050000 6.57160000
3.10910000 -13.16060000 6.54380000
3.00350000 -13.22660000 6.64000000
2.62960000 -13.21550000 6.80350000
1.53410000 -13.05680000 6.48250000
1.52410000 -12.98590000 6.34470000
1.54370000 -12.87540000 6.25710000
1.93420000 -12.70020000 6.45280000
2.14860000 -12.57870000 6.51470000
3.14290000 -13.09940000 6.51680000
1.32470000 -13.08120000 6.74070000
1.20500000 -13.14520000 6.67200000
1.16490000 -13.09910000 6.28010000
0.79920000 -13.09130000 6.72200000
0.99710000 -13.10670000 6.30400000
1.05170000 -12.99250000 6.09260000
0.83830000 -12.98210000 5.94150000
0.76050000 -13.14720000 6.36890000
0.81890000 -13.09760000 6.12950000
0.59340000 -13.13460000 6.69890000
0.47160000 -13.13950000 6.56630000
0.58540000 -13.08380000 6.18450000
0.66330000 -13.00620000 5.94500000
0.72490000 -12.89730000 5.76870000
0.50970000 -13.05870000 5.92850000
0.46080000 -12.95000000 5.59780000
0.22630000 -12.83700000 5.29550000
3.41770000 -13.26310000 6.67950000
3.58760000 -13.26130000 6.75530000
3.76140000 -13.19750000 6.83590000
3.76200000 -13.26550000 7.03860000
3.59270000 -13.23760000 7.31880000
3.42700000 -13.22540000 6.61650000
3.71540000 -13.22730000 6.74130000
3.73840000 -13.18080000 6.69420000
3.77360000 -13.09030000 6.80360000
3.92780000 -13.14120000 7.02960000
3.87680000 -13.21910000 7.03180000
3.61030000 -13.14800000 6.56640000
3.37430000 -13.00470000 6.50590000
3.59180000 -13.07400000 6.52960000
3.67080000 -12.95080000 6.58670000
3.76790000 -12.96800000 6.82270000
3.85640000 -12.97460000 6.96020000
4.00740000 -13.14110000 7.06470000
3.30400000 -12.85790000 6.52190000
3.63410000 -12.89760000 6.57640000
3.73450000 -12.85430000 6.86670000
3.60860000 -12.75770000 6.79180000
3.74920000 -12.74370000 6.97670000
3.14180000 -12.70490000 6.49600000
3.23600000 -12.25460000 6.71200000
3.42380000 -12.82730000 6.57750000
3.49480000 -12.75650000 6.67530000
3.01490000 -12.41020000 6.58040000
2.57000000 -12.32670000 6.63760000
2.59630000 -11.86420000 6.89240000
2.25300000 -12.16250000 6.64940000
2.04070000 -12.29710000 6.49760000
1.95500000 -12.52680000 6.41930000
1.81050000 -12.45890000 6.27930000
3.50490000 -12.33230000 6.96700000
3.74080000 -12.51510000 7.02370000
3.86920000 -12.63210000 7.11050000
4.02630000 -13.00200000 7.05560000
3.38630000 -12.14220000 7.01860000
3.65970000 -12.16070000 7.13370000
4.04610000 -12.38200000 7.20930000
4.19830000 -12.54130000 7.21090000
4.27140000 -12.46560000 7.30400000
3.45980000 -12.90420000 10.39390000
3.71730000 -13.01490000 9.99860000
3.98080000 -12.93230000 10.14980000
4.15620000 -13.26430000 9.66810000
4.45610000 -13.03350000 9.69480000
4.48000000 -12.82890000 9.81220000
4.50020000 -12.65920000 9.78630000
4.02000000 -13.34340000 9.32940000
4.34080000 -13.23660000 9.32770000
4.34370000 -13.19140000 9.58690000
4.45790000 -13.11880000 9.45920000
4.54540000 -12.92360000 9.63710000
4.57840000 -12.74150000 9.62970000
4.40250000 -13.38030000 8.89550000
4.39320000 -13.32640000 9.06010000
4.49640000 -13.15440000 9.16500000
4.47730000 -13.08980000 9.32920000
4.60250000 -13.37800000 8.65860000
4.67090000 -13.31350000 8.76240000
4.53870000 -13.06370000 9.17220000
4.53590000 -12.88640000 9.24960000
4.54890000 -12.96160000 9.38820000
4.37080000 -13.39290000 8.44000000
4.52710000 -13.30150000 8.07630000
4.69420000 -13.30800000 8.35400000
4.86070000 -13.24280000 8.38950000
4.91400000 -13.10740000 8.55340000
4.64200000 -12.78920000 8.97520000
4.27230000 -13.34840000 8.28390000
4.30850000 -13.27540000 8.11270000
4.31000000 -13.28700000 7.92520000
4.44270000 -13.31920000 7.85500000
4.55260000 -13.28110000 7.85070000
4.70930000 -13.25140000 8.20840000
4.67920000 -13.16000000 7.97360000
4.89650000 -13.14290000 8.29780000
4.95250000 -12.91850000 8.49730000
4.91060000 -12.90990000 8.65150000
4.61150000 -13.17980000 7.81770000
4.61820000 -13.04810000 7.74640000
4.72470000 -12.82000000 8.00570000
4.89840000 -12.84040000 8.19080000
4.92540000 -12.98170000 8.26690000
4.52500000 -13.33750000 7.61600000
4.60350000 -13.20900000 7.57290000
4.57330000 -13.17440000 7.27900000
4.62130000 -13.03070000 7.34390000
4.61570000 -12.80920000 7.78230000
4.47520000 -13.35160000 7.36840000
4.27540000 -13.42340000 7.45750000
4.36870000 -13.35850000 7.31450000
4.41180000 -13.25980000 7.22480000
4.41870000 -13.06230000 7.11640000
4.51030000 -12.95740000 7.16010000
4.00510000 -13.36640000 7.25170000
4.20630000 -13.32940000 7.27310000
4.21410000 -13.22590000 7.17310000
4.39690000 -12.97410000 7.09300000
3.86540000 -13.28500000 7.16210000
4.12220000 -13.28930000 7.17230000
3.67990000 -13.30160000 7.49580000
4.41280000 -12.72590000 7.18640000
4.58010000 -12.89790000 7.28330000
4.57420000 -12.77210000 7.59170000
4.50220000 -12.66050000 7.37230000
4.43280000 -12.53760000 7.45640000
4.43910000 -12.43640000 7.55720000
4.62180000 -12.66870000 7.87820000
4.80370000 -12.53020000 8.24270000
4.32990000 -12.22430000 7.58770000
4.62940000 -12.20910000 8.41140000
4.87100000 -12.59250000 8.33510000
4.66450000 -12.20340000 8.53830000
4.76040000 -12.41270000 8.67970000
4.57830000 -12.15730000 8.75930000
4.29050000 -12.40420000 9.64230000
4.55420000 -12.64330000 9.61560000
4.50820000 -12.70300000 9.24300000
4.56460000 -12.73480000 9.41960000
4.58680000 -12.62780000 9.01300000
4.49570000 -12.52950000 9.07500000
4.60320000 -12.28330000 8.85040000
4.68870000 -12.41530000 8.85650000
4.91260000 -12.75790000 8.59920000
-3.97490000 10.77700000 -5.68860000
-3.56970000 10.60790000 -5.36940000
-3.45630000 10.96510000 -5.68720000
-3.91070000 10.98150000 -5.87000000
-3.97630000 10.96370000 -5.91560000
-4.02840000 10.75550000 -5.73440000
-4.02980000 10.88970000 -6.01770000
-3.42290000 10.74800000 -5.37040000
-3.33020000 11.01440000 -5.51590000
-3.23970000 11.31080000 -5.97150000
-3.31170000 11.25200000 -6.07660000
-3.30580000 11.09290000 -5.48830000
-3.32200000 11.23420000 -5.37750000
-3.05640000 11.57460000 -6.56650000
-3.16820000 11.40160000 -6.37330000
-3.32110000 11.33220000 -6.51260000
-3.76940000 11.20150000 -6.21240000
-3.89480000 11.09930000 -6.05720000
-3.01950000 11.49810000 -6.73510000
-3.08070000 11.42000000 -6.73760000
-3.25400000 11.33350000 -6.75420000
-3.54450000 11.30940000 -6.63450000
-3.78660000 11.22270000 -6.40900000
-2.75520000 11.41420000 -7.44450000
-2.91100000 11.27040000 -7.24040000
-3.20160000 11.25690000 -7.03050000
-3.40880000 11.28630000 -6.90710000
-2.12200000 11.50430000 -8.52550000
-2.35230000 11.48200000 -8.35740000
-1.22750000 11.24540000 -9.06730000
-1.99660000 11.44020000 -8.66640000
-2.19740000 11.42340000 -8.61350000
-1.13800000 11.18550000 -9.18620000
-1.42090000 11.10680000 -9.13220000
-1.71880000 11.08260000 -9.23200000
-1.99310000 11.32900000 -8.88580000
-2.29460000 11.41500000 -8.63790000
-0.67160000 11.42400000 -9.37680000
-0.96920000 11.21240000 -9.32090000
-1.29340000 11.00400000 -9.44300000
-1.65570000 10.89180000 -9.50610000
-2.08940000 11.12600000 -9.46050000
-2.26300000 11.31060000 -9.27000000
-0.48310000 11.59930000 -9.43030000
-0.30470000 11.55030000 -9.61790000
-0.58660000 11.42830000 -9.53560000
-1.28230000 11.00640000 -9.64660000
-1.45420000 10.82610000 -9.69840000
-1.60500000 10.76290000 -9.64900000
-0.11860000 11.59670000 -9.68240000
-0.08050000 11.56130000 -9.78020000
-0.44840000 11.52830000 -9.79300000
-0.62560000 11.53530000 -9.96910000
-0.83710000 11.43810000 -9.95210000
0.16580000 11.53800000 -9.93480000
-0.08880000 11.61120000 -10.29380000
-0.38030000 11.61510000 -10.09500000
-0.50040000 11.58080000 -10.18330000
0.15180000 11.53650000 -10.50720000
-0.07000000 11.57970000 -10.48000000
-0.31380000 11.57110000 -10.40300000
-0.55580000 11.50380000 -10.28770000
0.54750000 11.23360000 -10.86900000
0.34650000 11.40180000 -10.74570000
0.81950000 10.73570000 -11.20910000
0.36520000 11.24590000 -10.94570000
0.12720000 11.45090000 -10.72430000
-0.20630000 11.51940000 -10.53980000
0.57740000 10.97950000 -11.10800000
0.51460000 10.88050000 -11.09700000
0.06890000 11.40390000 -10.74960000
-0.17630000 11.45970000 -10.58850000
-0.08410000 10.88380000 -10.40740000
-3.31000000 10.52880000 -10.71780000
-3.35250000 10.64110000 -10.49750000
-3.47320000 10.72930000 -10.18170000
-3.51100000 10.73700000 -10.35510000
-4.03770000 10.87600000 -10.08430000
-3.97570000 10.81180000 -9.66180000
-3.66160000 10.73340000 -9.56840000
-4.44200000 10.88790000 -10.10440000
-4.40940000 10.85660000 -9.91150000
-4.16920000 10.71730000 -9.49840000
-3.66770000 10.68740000 -9.33900000
-4.65520000 10.85350000 -10.12830000
-4.75080000 10.72670000 -9.88010000
-4.50180000 10.59930000 -9.48090000
-4.94480000 10.75600000 -10.25150000
-0.49980000 10.77650000 -10.06870000
-0.76930000 11.31030000 -10.16050000
-1.02520000 11.24660000 -9.98530000
-1.00040000 11.30890000 -9.94700000
-1.72970000 10.81410000 -9.59720000
-2.27460000 11.13130000 -9.53040000
-2.37440000 10.91690000 -9.70640000
-2.47220000 11.10750000 -9.57220000
-2.70650000 11.32140000 -9.35940000
-2.64520000 11.44510000 -9.09600000
-2.18150000 11.35760000 -9.06630000
-2.38250000 10.69020000 -9.82580000
-2.82490000 10.98710000 -9.63650000
-2.92820000 11.16470000 -9.48980000
-2.91300000 11.27650000 -9.38100000
-2.77100000 11.41790000 -9.18520000
-2.54140000 10.59200000 -9.85900000
-2.81320000 10.68200000 -9.81270000
-3.09880000 10.83150000 -9.63440000
-3.06910000 11.18320000 -9.40490000
-3.12930000 11.28410000 -9.23660000
-2.91280000 11.42870000 -9.09440000
-3.12730000 10.61240000 -9.85650000
-3.32140000 10.74830000 -9.61910000
-3.24010000 10.84350000 -9.54490000
-3.23380000 11.16880000 -9.28140000
-3.27670000 11.19230000 -9.17030000
-3.15660000 11.34510000 -9.06430000
-3.48090000 10.74900000 -9.50940000
-3.40240000 10.86760000 -9.35170000
-3.58080000 10.73870000 -9.14200000
-3.49120000 10.96380000 -8.86890000
-3.25620000 11.28760000 -8.95690000
-3.56390000 10.73730000 -9.34700000
-3.68910000 10.63490000 -9.19190000
-3.65540000 10.60290000 -8.99930000
-3.53900000 10.73390000 -8.39020000
-3.42700000 11.02530000 -8.56580000
-3.28770000 11.23200000 -8.60630000
-3.83240000 10.48770000 -9.09130000
-3.76530000 10.18170000 -8.64100000
-3.66020000 10.40620000 -8.57260000
-3.54290000 10.61290000 -8.30640000
-3.35860000 10.83700000 -8.09820000
-3.31270000 11.12020000 -8.41690000
-4.41190000 10.32760000 -9.09040000
-4.04960000 9.57210000 -8.13300000
-3.92820000 9.67210000 -8.18680000
-3.84590000 9.66960000 -8.04770000
-3.66950000 9.91360000 -8.13880000
-4.75240000 10.48410000 -9.49960000
-5.26650000 10.01340000 -8.94840000
-4.80210000 10.11390000 -8.85080000
-4.75850000 9.80860000 -8.41020000
-5.05590000 10.38270000 -9.63290000
-5.47740000 9.92070000 -9.03200000
-5.42800000 9.86910000 -8.85280000
-5.31170000 9.85330000 -8.71260000
-5.20160000 10.37510000 -9.91590000
-5.35950000 10.24720000 -10.01260000
-5.59220000 9.95930000 -9.46440000
-5.60640000 9.76390000 -8.93490000
-5.48460000 9.54040000 -8.48050000
-5.10620000 10.62550000 -10.24690000
-3.62780000 10.06630000 -8.17280000
-4.16410000 9.52920000 -8.12230000
-4.66860000 9.59570000 -8.16970000
-4.86160000 9.56660000 -8.17930000
-5.30290000 9.40550000 -8.22410000
-5.24460000 9.17680000 -8.01400000
-5.64020000 9.15920000 -8.31180000
-5.51740000 9.00640000 -8.09990000
-5.41750000 8.81190000 -7.94140000
-5.77830000 8.89470000 -8.33060000
-5.67120000 8.63380000 -8.13240000
-5.72330000 9.53380000 -8.80330000
-5.85750000 9.08040000 -8.59460000
-5.89050000 9.55390000 -9.27800000
-5.93700000 9.27110000 -8.95910000
-5.99510000 9.03480000 -8.91340000
-5.93170000 8.89230000 -8.61160000
-5.87510000 8.72650000 -8.44240000
-6.00970000 9.34360000 -9.44330000
-6.00970000 8.95580000 -9.10740000
-5.98660000 8.74290000 -8.79080000
-5.92900000 8.64840000 -8.54710000
-5.95090000 8.53410000 -8.78090000
-5.85120000 8.30220000 -8.45040000
-3.99510000 10.88170000 -6.11620000
-3.93570000 11.06350000 -6.21150000
-3.93840000 11.02510000 -6.28510000
-3.88040000 11.10930000 -6.46250000
-3.73560000 11.13770000 -6.79130000
-3.77740000 11.03150000 -6.67590000
-3.52410000 10.83980000 -7.21860000
-3.59340000 10.95930000 -7.12500000
-3.45300000 10.87240000 -7.36450000
-3.39410000 10.52790000 -7.59080000
-3.75710000 11.21290000 -6.61720000
-3.57960000 11.17180000 -7.00380000
-3.49440000 11.00650000 -7.24340000
-3.61390000 11.24650000 -6.83580000
-3.05600000 11.13390000 -7.34030000
-3.28140000 11.01380000 -7.39550000
-2.97830000 11.11400000 -7.47780000
-3.20940000 10.95120000 -7.59760000
-3.33140000 10.90840000 -7.48460000
-3.41010000 10.72740000 -7.49610000
-2.75240000 11.24660000 -7.72280000
-3.21840000 10.90510000 -7.75480000
-3.37240000 10.72750000 -7.69040000
-3.39630000 10.66700000 -7.76380000
-3.58020000 10.32890000 -8.09020000
-2.58310000 11.39130000 -8.13110000
-2.74410000 11.25090000 -7.92570000
-3.04030000 11.06190000 -7.93570000
-3.19600000 10.96180000 -8.00260000
-2.52080000 11.41670000 -8.28840000
-2.76900000 11.45100000 -8.57280000
-2.97340000 11.37020000 -8.43020000
-3.14090000 11.30550000 -8.46550000
-2.66860000 11.46580000 -8.89940000
-3.01130000 11.44480000 -8.84280000
-3.13780000 11.38470000 -8.90940000
-2.43990000 11.43860000 -8.94200000
-1.67560000 11.48450000 -1.72720000
-1.89930000 11.59030000 -2.03230000
-2.25800000 11.41500000 -2.05550000
-1.94030000 11.45500000 -1.76880000
-2.26940000 11.38730000 -1.87830000
-2.27550000 11.42700000 -1.66280000
-1.63040000 11.64470000 -1.96300000
-2.34410000 11.48170000 -2.23510000
-2.70510000 11.12760000 -2.23410000
-2.44310000 12.24110000 -2.96730000
-2.89290000 11.38770000 -2.66740000
-2.66280000 11.28480000 -2.36870000
-2.73200000 12.45990000 -3.50010000
-4.04690000 7.53760000 -3.17570000
-3.25460000 7.27330000 -2.47710000
-3.81410000 7.61100000 -2.99700000
-4.49910000 7.62890000 -3.70170000
-4.62490000 7.78370000 -3.91290000
-3.02890000 7.64540000 -2.29950000
-3.13180000 8.08810000 -2.42800000
-3.77940000 8.30950000 -3.10060000
-3.97970000 7.72580000 -3.15390000
-4.29220000 8.26540000 -3.68840000
-2.88220000 7.83760000 -2.14100000
-3.08220000 8.22170000 -2.35750000
-3.28770000 8.45980000 -2.66660000
-2.81830000 7.89460000 -2.02910000
-3.05790000 8.31940000 -2.24550000
-3.23530000 8.87390000 -2.59180000
-2.39090000 11.52750000 -1.35890000
-2.61770000 11.43860000 -1.23970000
-2.16250000 11.65890000 -1.02180000
-2.73160000 11.29630000 -1.64860000
-2.86330000 11.25020000 -1.33240000
-2.68870000 11.16390000 -1.97820000
-2.93520000 11.08490000 -1.85210000
-2.99500000 11.11470000 -1.63650000
-3.11020000 11.01060000 -1.58420000
-3.08730000 10.92400000 -1.34760000
-2.88140000 10.95020000 -2.28480000
-2.93920000 10.92180000 -2.12870000
-3.09610000 10.95420000 -1.84760000
-3.25360000 10.81630000 -1.74350000
-3.23900000 10.79690000 -1.54630000
-2.98610000 10.84890000 -2.43610000
-3.08160000 10.67480000 -2.44780000
-3.04860000 10.74080000 -2.25930000
-3.25150000 10.70610000 -1.96260000
-3.42550000 10.40360000 -1.93110000
-3.39080000 10.54640000 -1.66210000
-3.51610000 11.31340000 -3.25570000
-3.41550000 11.04850000 -3.05060000
-3.24150000 10.31600000 -2.67970000
-3.17400000 10.43700000 -2.41880000
-3.27100000 10.28970000 -2.29800000
-3.30550000 11.47750000 -3.18980000
-3.54510000 11.78870000 -3.60510000
-3.72780000 11.70690000 -3.66480000
-2.98860000 12.16170000 -3.60600000
-3.20980000 11.89090000 -3.56260000
-3.34430000 12.00380000 -3.71540000
-3.50700000 12.19880000 -3.85560000
-3.66200000 12.15250000 -3.91180000
-3.85020000 11.92610000 -4.01870000
-2.82760000 12.60110000 -3.81750000
-3.10720000 12.18820000 -3.73620000
-2.95370000 12.84530000 -4.04140000
-3.20240000 13.03400000 -4.16590000
-3.42030000 12.71390000 -4.06660000
-3.68220000 12.47950000 -4.21420000
-3.33630000 12.97490000 -4.20240000
-3.52620000 12.98880000 -4.56630000
-3.63400000 12.88950000 -4.71680000
-3.84850000 12.11510000 -4.24370000
-3.39650000 10.24630000 -1.55420000
-3.50440000 10.02850000 -1.72230000
-3.45520000 9.99110000 -1.63400000
-3.50230000 10.21240000 -1.84700000
-3.55050000 9.58010000 -1.87570000
-3.46840000 9.46360000 -1.66000000
-3.51920000 9.93430000 -2.03760000
-3.49230000 9.48260000 -2.07280000
-3.38610000 8.94880000 -1.94740000
-3.43630000 9.08270000 -1.81550000
-3.32430000 9.93860000 -2.36950000
-3.29230000 9.31950000 -2.36520000
-3.23380000 8.90190000 -2.24560000
-3.12560000 8.46320000 -2.02040000
-3.14550000 8.35870000 -1.82120000
-3.25690000 8.56630000 -1.78760000
-3.26870000 9.67430000 -2.61940000
-3.19610000 8.83820000 -2.40060000
-2.91240000 8.06150000 -1.81630000
-3.24210000 10.13110000 -2.55540000
-3.28620000 9.57210000 -2.73320000
-4.09790000 8.54950000 -3.62450000
-4.47660000 8.34520000 -4.00310000
-5.33930000 7.41320000 -4.82280000
-3.58960000 8.72010000 -3.11830000
-3.70790000 8.93650000 -3.47320000
-3.77590000 9.11960000 -3.84040000
-4.35410000 8.56310000 -4.03950000
-3.57910000 8.53040000 -2.99410000
-3.36610000 8.79310000 -2.83590000
-3.43350000 9.02800000 -3.04390000
-3.59060000 9.21960000 -3.54960000
-3.77020000 9.31080000 -4.16690000
-3.49300000 9.61960000 -3.30230000
-3.54300000 9.61540000 -3.75070000
-3.53420000 9.80940000 -4.17840000
-3.47310000 10.85430000 -3.17210000
-3.52960000 9.89570000 -3.55930000
-3.51810000 9.90760000 -3.96390000
-3.44970000 10.11910000 -4.34720000
-3.50160000 10.04940000 -4.65340000
-3.64400000 9.70700000 -4.32540000
-4.34950000 8.82170000 -4.50750000
-3.96070000 9.14760000 -4.31460000
-3.88840000 9.34680000 -4.49800000
-4.03120000 9.78370000 -5.05670000
-4.08090000 9.98270000 -5.08290000
-4.04110000 10.00940000 -5.35410000
-3.88590000 9.77240000 -4.68800000
-3.91970000 10.35450000 -5.78650000
-3.52190000 10.19610000 -4.93200000
-3.42290000 10.23940000 -4.73800000
1.05530000 -12.61400000 8.72340000
0.80300000 -12.14570000 8.95350000
0.84720000 -12.13190000 8.54820000
1.28370000 -13.02840000 8.67310000
1.21980000 -13.06450000 8.46720000
1.12180000 -13.18310000 8.30310000
1.11190000 -12.72030000 8.55150000
1.19120000 -12.93950000 8.54400000
1.09530000 -12.91020000 8.43580000
1.13060000 -13.00280000 8.42220000
1.06820000 -13.02570000 8.35260000
0.99920000 -12.56650000 8.53900000
0.99420000 -12.60840000 8.46990000
0.97650000 -12.69530000 8.39020000
0.94720000 -12.43480000 8.55220000
0.88240000 -12.46350000 8.39640000
0.76890000 -12.72120000 8.14720000
0.95740000 -12.88830000 8.30020000
0.61250000 -12.18040000 8.11090000
0.43470000 -12.47440000 7.80990000
0.62500000 -13.03200000 7.96170000
0.77550000 -13.08610000 7.99830000
0.89350000 -13.04720000 8.18230000
0.18780000 -11.89470000 7.60140000
-0.04060000 -12.28710000 7.31560000
0.04360000 -12.89830000 7.30900000
0.35150000 -13.05640000 7.59100000
0.59210000 -13.15220000 7.78040000
0.45370000 -13.06380000 7.33100000
0.25590000 -13.01250000 7.43330000
0.27320000 -13.04740000 7.25040000
-0.03400000 -12.93620000 7.09660000
0.59680000 -13.04640000 6.92900000
0.84140000 -13.08910000 6.88680000
