-1.52370000 -1.91350000 -1.13420000
-1.52610000 -1.89390000 -1.13850000
-1.53700000 -1.94020000 -1.10770000
-1.53690000 -1.93200000 -1.12630000
-1.53750000 -1.91530000 -1.14020000
-1.53790000 -1.89510000 -1.14830000
-1.96280000 5.50520000 1.87140000
-1.94630000 5.48060000 1.84380000
-1.97600000 5.52780000 1.90050000
-1.99400000 5.49130000 1.88050000
-1.97890000 5.46360000 1.85850000
-2.00410000 5.51270000 1.90920000
-1.97350000 5.53840000 1.93610000
-1.96680000 5.55010000 1.97040000
-1.99910000 5.52360000 1.94440000
-1.99100000 5.53400000 1.97930000
-2.02870000 5.47960000 1.88770000
-2.01470000 5.45630000 1.87060000
-2.03370000 5.50040000 1.91870000
-2.06640000 5.47320000 1.89400000
-2.04920000 5.44330000 1.87480000
-2.06480000 5.48730000 1.92910000
-2.02690000 5.50850000 1.95430000
-2.01910000 5.51880000 1.99010000
-2.05560000 5.49280000 1.96450000
-2.05080000 5.50370000 2.00230000
-5.43940000 -4.92990000 2.38240000
-5.44470000 -4.90950000 2.43620000
-5.52180000 -4.91140000 2.40480000
-5.51610000 -4.91740000 2.33870000
-5.44180000 -4.86500000 2.47390000
-5.52280000 -4.87530000 2.45630000
-5.59240000 -4.90690000 2.37260000
-5.57150000 -4.92470000 2.30280000
-5.60010000 -4.88200000 2.44050000
-5.45280000 -4.82130000 2.43630000
-5.52460000 -4.81460000 2.44340000
-5.44610000 -4.76410000 2.43640000
-5.51920000 -4.75400000 2.45160000
-5.59850000 -4.81260000 2.45170000
-5.59060000 -4.74840000 2.45420000
-5.65990000 -4.90990000 2.35960000
-5.65080000 -4.96750000 2.29290000
-5.66650000 -4.87710000 2.42410000
-5.74420000 -4.92690000 2.33400000
-5.72290000 -4.99210000 2.29790000
-5.74010000 -4.87760000 2.40620000
-5.66880000 -4.80850000 2.43680000
-5.66580000 -4.73990000 2.43150000
-5.73920000 -4.80190000 2.41650000
-4.89970000 -2.33260000 1.22170000
-4.89520000 -2.30470000 1.14100000
-4.83260000 -2.32740000 1.13830000
-4.83670000 -2.34890000 1.22160000
-4.96770000 -2.31220000 1.22550000
-4.95180000 -2.28230000 1.14510000
-4.89140000 -2.27680000 1.07030000
-4.82920000 -2.30200000 1.06080000
-4.94350000 -2.24980000 1.07830000
-5.03560000 -2.28800000 1.22350000
-5.01630000 -2.25400000 1.15400000
-5.10590000 -2.25420000 1.22970000
-5.07730000 -2.21430000 1.15560000
-4.99690000 -2.21390000 1.07880000
-5.05260000 -2.17250000 1.08720000
-4.88050000 -2.24950000 0.99770000
-4.82770000 -2.27420000 0.98310000
-4.93730000 -2.21160000 1.00560000
-4.87270000 -2.21290000 0.91440000
-4.82670000 -2.24960000 0.90940000
-4.91700000 -2.17160000 0.93150000
-4.98490000 -2.17120000 1.01380000
-5.03500000 -2.12930000 1.02300000
-4.96800000 -2.12970000 0.94340000
-5.01920000 -2.09020000 0.95690000
6.14780000 -1.54730000 2.49270000
6.12380000 -1.50070000 2.44850000
6.09970000 -1.46760000 2.52110000
6.12660000 -1.51210000 2.55720000
6.10010000 -1.43760000 2.40500000
6.07140000 -1.40320000 2.46450000
6.07490000 -1.43840000 2.58150000
6.11940000 -1.47700000 2.60950000
6.03850000 -1.37950000 2.52120000
6.07790000 -1.36600000 2.35410000
6.04760000 -1.33360000 2.41140000
6.06100000 -1.28040000 2.28740000
6.01800000 -1.25750000 2.36430000
5.99950000 -1.31170000 2.48320000
5.95500000 -1.24650000 2.43300000
6.03570000 -1.41310000 2.64350000
6.10130000 -1.43930000 2.66990000
5.99740000 -1.36330000 2.60090000
6.00450000 -1.39730000 2.71050000
6.07450000 -1.40310000 2.73990000
5.95490000 -1.34900000 2.66750000
5.94850000 -1.29630000 2.55230000
5.89200000 -1.23140000 2.50400000
5.91400000 -1.27460000 2.62290000
5.85880000 -1.21510000 2.58140000
-1.90530000 5.67750000 1.91500000
-1.90630000 5.66800000 1.89320000
-1.92430000 5.66230000 1.90300000
-1.91950000 5.66850000 1.92370000
-1.90880000 5.65840000 1.87320000
-1.92540000 5.65350000 1.88290000
-1.94010000 5.65330000 1.91090000
-1.93720000 5.65810000 1.93240000
-1.94300000 5.64620000 1.88870000
-1.91010000 5.64970000 1.85320000
-1.92600000 5.64440000 1.86140000
-1.92630000 5.63460000 1.84090000
-1.94270000 5.63700000 1.86840000
-1.94100000 5.62800000 1.84790000
-1.96070000 5.64820000 1.91660000
-1.95730000 5.65300000 1.93840000
-1.96120000 5.63790000 1.89620000
-1.98100000 5.63730000 1.92410000
-1.97840000 5.64200000 1.94420000
-1.98100000 5.62790000 1.90490000
-1.95960000 5.62920000 1.87640000
-1.95680000 5.62110000 1.85580000
-1.97820000 5.61940000 1.88400000
-1.97540000 5.61140000 1.86400000
-3.35850000 -0.59490000 3.38130000
-3.42130000 -0.58570000 3.38120000
-3.42720000 -0.64510000 3.36180000
-3.36320000 -0.65660000 3.36300000
-3.35250000 -0.55100000 3.41980000
-3.41170000 -0.53940000 3.41950000
-3.48440000 -0.57300000 3.38490000
-3.48880000 -0.62800000 3.35530000
-3.47340000 -0.52620000 3.42550000
-3.33820000 -0.49410000 3.43920000
-3.40060000 -0.47980000 3.43750000
-3.46160000 -0.46510000 3.43360000
-3.54100000 -0.55440000 3.38660000
-3.54560000 -0.60440000 3.34410000
-3.53490000 -0.51090000 3.44140000
-3.60970000 -0.53760000 3.38600000
-3.61280000 -0.58330000 3.33590000
-3.60600000 -0.50050000 3.44840000
-3.52260000 -0.44010000 3.43100000
-3.58990000 -0.42970000 3.41220000
-2.83430000 4.02930000 2.33690000
-2.87840000 4.07580000 2.36820000
-2.90980000 4.02830000 2.40340000
-2.86740000 3.97410000 2.36860000
-2.80580000 4.07860000 2.29960000
-2.85390000 4.12380000 2.31890000
-2.93180000 4.11170000 2.36870000
-2.96260000 4.06220000 2.39690000
-2.90270000 4.15590000 2.32570000
-2.77620000 4.12530000 2.27330000
-2.83190000 4.16790000 2.29000000
-2.75880000 4.17850000 2.24930000
-2.80730000 4.21720000 2.26910000
-2.88060000 4.20640000 2.30210000
-2.85450000 4.24980000 2.28940000
-2.98440000 4.14000000 2.35830000
-3.02070000 4.09090000 2.37920000
-2.95720000 4.18690000 2.33760000
-3.03350000 4.17430000 2.37500000
-3.06750000 4.13050000 2.39160000
-2.99990000 4.21960000 2.36080000
-2.92900000 4.23430000 2.32300000
-2.89950000 4.28010000 2.30870000
-2.97190000 4.26320000 2.34560000
-2.94430000 4.31250000 2.33250000
4.73330000 -0.36850000 0.16710000
4.72510000 -0.39510000 0.08480000
4.65140000 -0.36530000 0.09060000
4.65390000 -0.34650000 0.16560000
4.81080000 -0.38290000 0.15910000
4.80200000 -0.41160000 0.07890000
4.72410000 -0.39570000 -0.00120000
4.63920000 -0.36920000 0.00670000
4.80410000 -0.41480000 -0.01500000
4.88630000 -0.38810000 0.14740000
4.88170000 -0.41300000 0.07170000
4.96010000 -0.39330000 0.14110000
4.96130000 -0.41510000 0.06660000
4.87970000 -0.41660000 -0.00950000
4.94790000 -0.41790000 -0.00650000
4.72510000 -0.38730000 -0.08030000
4.63910000 -0.36590000 -0.07100000
4.80650000 -0.40190000 -0.09040000
4.73400000 -0.37890000 -0.15180000
4.65200000 -0.36010000 -0.14680000
4.81290000 -0.38830000 -0.15510000
4.88460000 -0.40760000 -0.08430000
4.95440000 -0.41240000 -0.08010000
4.88570000 -0.39470000 -0.15250000
4.96260000 -0.40150000 -0.15040000
-1.89070000 2.13770000 1.39440000
-1.86550000 2.20630000 1.44190000
-1.90550000 2.21820000 1.43880000
-1.93490000 2.14290000 1.42530000
-1.84740000 2.26070000 1.51050000
-1.88400000 2.29530000 1.50210000
-1.94960000 2.23180000 1.44580000
-1.98170000 2.15330000 1.45480000
-1.92280000 2.30990000 1.48180000
-1.83550000 2.34440000 1.57280000
-1.87800000 2.36710000 1.55560000
-1.81820000 2.44620000 1.57980000
-1.86110000 2.45640000 1.58580000
-1.91040000 2.38540000 1.52630000
-1.89670000 2.47560000 1.56020000
-1.99750000 2.24400000 1.46340000
-2.03080000 2.16100000 1.46580000
-1.95940000 2.32090000 1.47590000
-2.04480000 2.26080000 1.47890000
-2.08240000 2.17170000 1.47890000
-2.00930000 2.33610000 1.48880000
-1.94560000 2.40450000 1.51070000
-1.92830000 2.48680000 1.53200000
-1.98350000 2.41980000 1.50730000
-1.96190000 2.50280000 1.51570000
4.92790000 0.59760000 1.97070000
4.87440000 0.59990000 1.91470000
4.88600000 0.50190000 1.94980000
4.94210000 0.46620000 1.98880000
4.87550000 0.59100000 1.82600000
4.86540000 0.51740000 1.87480000
4.90650000 0.41440000 1.93700000
4.94940000 0.36780000 1.96280000
4.88970000 0.44360000 1.88320000
4.86130000 0.56520000 1.77680000
4.84570000 0.51650000 1.82110000
4.80510000 0.56870000 1.81590000
4.83540000 0.47210000 1.87500000
4.79620000 0.51970000 1.87100000
4.91300000 0.34800000 1.91450000
4.94410000 0.30720000 1.93400000
4.87210000 0.38050000 1.91510000
4.89210000 0.28550000 1.92950000
4.92700000 0.25680000 1.91370000
4.86460000 0.31950000 1.94190000
4.83370000 0.42130000 1.91990000
4.78990000 0.46830000 1.92230000
4.83060000 0.35410000 1.95560000
4.78310000 0.38900000 1.95680000
-1.64510000 5.70630000 1.84190000
-1.66130000 5.70540000 1.84960000
-1.65500000 5.69050000 1.85280000
-1.64050000 5.69180000 1.84630000
-1.65260000 5.71740000 1.83140000
-1.66910000 5.71670000 1.83950000
-1.68080000 5.70160000 1.85380000
-1.67350000 5.68620000 1.85480000
-1.68790000 5.71340000 1.84640000
-1.65910000 5.72760000 1.82080000
-1.67690000 5.72530000 1.82770000
-1.66750000 5.73080000 1.80580000
-1.68560000 5.73260000 1.81620000
-1.69320000 5.72200000 1.83420000
-1.70060000 5.73050000 1.82280000
-1.69500000 5.69830000 1.85920000
-1.68910000 5.68310000 1.86260000
-1.70080000 5.71010000 1.85230000
-1.70850000 5.69550000 1.86600000
-1.70450000 5.68080000 1.86990000
-1.71400000 5.70820000 1.85850000
-1.70810000 5.71920000 1.84170000
-1.71470000 5.72920000 1.82960000
-1.72130000 5.71740000 1.84860000
-1.72610000 5.72740000 1.83610000
-5.09410000 1.40180000 2.21360000
-5.15420000 1.38370000 2.13100000
-5.15290000 1.28350000 2.15000000
-5.09020000 1.30580000 2.23920000
-5.09400000 1.48940000 2.18890000
-5.15740000 1.47580000 2.11270000
-5.22990000 1.37780000 2.07640000
-5.22720000 1.27120000 2.09530000
-5.24140000 1.47610000 2.06420000
-5.09580000 1.57770000 2.17240000
-5.16090000 1.56730000 2.09700000
-5.10780000 1.65620000 2.15850000
-5.16520000 1.65080000 2.09630000
-5.23920000 1.56710000 2.05940000
-5.24960000 1.63840000 2.05170000
-5.32630000 1.37830000 2.04230000
-5.32280000 1.28560000 2.05220000
-5.32570000 1.47430000 2.03230000
-5.41290000 1.38520000 2.01330000
-5.41160000 1.29260000 2.02240000
-5.41310000 1.47610000 2.00240000
-5.32790000 1.56010000 2.02680000
-5.33030000 1.63610000 2.01830000
-5.40820000 1.55800000 1.99370000
-5.40190000 1.63610000 1.98150000
3.25870000 -0.45890000 3.28700000
3.25820000 -0.46280000 3.32140000
3.22750000 -0.45500000 3.27710000
3.21970000 -0.45900000 3.31330000
3.25840000 -0.46790000 3.35670000
3.21800000 -0.46290000 3.34900000
3.19440000 -0.44840000 3.26600000
3.18620000 -0.45280000 3.30380000
3.16120000 -0.44440000 3.25450000
3.14830000 -0.45160000 3.29080000
3.17430000 -0.45900000 3.34060000
3.13280000 -0.46290000 3.32470000
3.26420000 -0.47430000 3.39060000
3.21490000 -0.46850000 3.38570000
3.27120000 -0.48160000 3.42950000
3.21420000 -0.46740000 3.42920000
3.16880000 -0.46320000 3.37730000
3.12010000 -0.46830000 3.36330000
3.16210000 -0.46270000 3.42150000
3.10920000 -0.46400000 3.40600000
3.27290000 -3.32470000 0.21460000
3.20560000 -3.32830000 0.20540000
3.21680000 -3.31810000 0.14150000
3.28550000 -3.31520000 0.15100000
3.25950000 -3.33510000 0.27860000
3.19130000 -3.33870000 0.26850000
3.13960000 -3.33160000 0.19440000
3.15040000 -3.32150000 0.13160000
3.12910000 -3.34160000 0.25690000
3.24520000 -3.34570000 0.34280000
3.17870000 -3.34920000 0.33330000
3.16830000 -3.35920000 0.39590000
3.12090000 -3.35230000 0.32540000
3.09920000 -3.36310000 0.38720000
3.07540000 -3.33530000 0.18710000
3.08500000 -3.32260000 0.12160000
3.06490000 -3.34510000 0.24860000
3.01230000 -3.33270000 0.16980000
3.00470000 -3.34530000 0.23440000
3.05380000 -3.35530000 0.31160000
3.03480000 -3.36560000 0.37220000
2.99070000 -3.35710000 0.29490000
4.35940000 0.36270000 1.67980000
4.37500000 0.38930000 1.70030000
4.37530000 0.41490000 1.65870000
4.36090000 0.39500000 1.62820000
4.39570000 0.41960000 1.72140000
4.38780000 0.44650000 1.68620000
4.38360000 0.43870000 1.60130000
4.36740000 0.41050000 1.57730000
4.39170000 0.47290000 1.63080000
4.43310000 0.43480000 1.72830000
4.43230000 0.45950000 1.69550000
4.47880000 0.42250000 1.72150000
4.47510000 0.44350000 1.69430000
4.43250000 0.47570000 1.65140000
4.47150000 0.46090000 1.65380000
4.40100000 0.45240000 1.54190000
4.39100000 0.41530000 1.51130000
4.40040000 0.49050000 1.57590000
4.43580000 0.50220000 1.61050000
4.47220000 0.48180000 1.62150000
-2.30530000 -0.44570000 3.24450000
-2.37220000 -0.41540000 3.24510000
-2.38710000 -0.45730000 3.27380000
-2.31640000 -0.48600000 3.27320000
-2.43840000 -0.38550000 3.24770000
-2.45780000 -0.43640000 3.26180000
-2.40700000 -0.51310000 3.25860000
-2.33500000 -0.53510000 3.26770000
-2.47980000 -0.48760000 3.21980000
-2.50450000 -0.35540000 3.23170000
-2.52300000 -0.40130000 3.23780000
-2.55720000 -0.32170000 3.23820000
-2.58880000 -0.36250000 3.23730000
-2.53300000 -0.45390000 3.20340000
-2.60000000 -0.40320000 3.19000000
-2.41360000 -0.55230000 3.22920000
-2.34680000 -0.57690000 3.24370000
-2.47420000 -0.52840000 3.19400000
-2.42790000 -0.59610000 3.23830000
-2.36030000 -0.61760000 3.25330000
-2.49630000 -0.57930000 3.20400000
-2.53780000 -0.49690000 3.16810000
-2.61510000 -0.44710000 3.14900000
-2.56560000 -0.55230000 3.16330000
-2.63610000 -0.50630000 3.14850000
7.48320000 -0.34930000 1.55640000
7.45350000 -0.35280000 1.57520000
7.47760000 -0.32120000 1.60790000
7.45370000 -0.38600000 1.52650000
7.42290000 -0.39260000 1.54430000
7.42980000 -0.33730000 1.56080000
7.45410000 -0.30450000 1.59390000
7.39800000 -0.37830000 1.51530000
7.41590000 -0.41900000 1.50420000
7.39350000 -0.42120000 1.51210000
7.39330000 -0.45040000 1.50050000
7.37180000 -0.44070000 1.50520000
7.37860000 -0.40710000 1.48960000
7.36020000 -0.42530000 1.48330000
7.42330000 -0.31710000 1.53640000
7.44540000 -0.28390000 1.56620000
7.40040000 -0.34810000 1.50240000
7.41120000 -0.29160000 1.52190000
7.43310000 -0.26000000 1.55350000
7.38250000 -0.32090000 1.48640000
7.37340000 -0.38130000 1.47270000
7.34240000 -0.40790000 1.46190000
7.35100000 -0.35360000 1.46830000
7.32560000 -0.38140000 1.45820000
-5.58270000 1.20510000 0.28300000
-5.60710000 1.31160000 0.30690000
-5.58000000 1.32000000 0.26030000
-5.56030000 1.21940000 0.24640000
-5.61570000 1.19380000 0.34460000
-5.63350000 1.30130000 0.35270000
-5.62480000 1.40710000 0.31890000
-5.59700000 1.41990000 0.27180000
-5.65200000 1.40150000 0.37190000
-5.63550000 1.18950000 0.37650000
-5.65990000 1.28470000 0.38960000
-5.67850000 1.17260000 0.41950000
-5.69090000 1.27940000 0.42540000
-5.67600000 1.39150000 0.40960000
-5.69710000 1.36910000 0.44390000
-5.63400000 1.49230000 0.33260000
-5.60440000 1.50180000 0.28290000
-5.65720000 1.48140000 0.37900000
-5.62970000 1.57250000 0.34830000
-5.60280000 1.58460000 0.30470000
-5.65580000 1.56560000 0.39360000
-5.67930000 1.46590000 0.41820000
-5.70620000 1.45300000 0.46220000
-5.68330000 1.54950000 0.43630000
-5.71200000 1.53400000 0.47900000
-4.06110000 4.33810000 2.81510000
-4.11650000 4.35860000 2.80520000
-4.10280000 4.32340000 2.76840000
-4.03180000 4.31250000 2.76780000
-4.06440000 4.40550000 2.79560000
-4.12080000 4.40800000 2.77060000
-4.18470000 4.36690000 2.78510000
-4.17400000 4.32900000 2.76960000
-4.18420000 4.41630000 2.74940000
-4.06100000 4.47020000 2.78170000
-4.12060000 4.47420000 2.76210000
-4.18400000 4.47530000 2.74020000
-4.24290000 4.37070000 2.77020000
-4.25780000 4.33510000 2.76940000
-4.23940000 4.42280000 2.73730000
-4.31650000 4.37610000 2.75740000
-4.32090000 4.33220000 2.76300000
-4.31330000 4.42410000 2.72590000
-4.23950000 4.47310000 2.71990000
-4.30500000 4.47800000 2.70680000
-3.85140000 -2.74130000 3.14510000
-3.81330000 -2.75100000 3.11930000
-3.79780000 -2.71260000 3.14160000
-3.83400000 -2.70530000 3.15780000
-3.86290000 -2.79360000 3.12980000
-3.82950000 -2.79990000 3.10750000
-3.77120000 -2.76160000 3.10790000
-3.75670000 -2.72930000 3.14120000
-3.78820000 -2.79880000 3.08250000
-3.86800000 -2.85730000 3.12430000
-3.83310000 -2.85910000 3.11180000
-3.87160000 -2.90190000 3.10650000
-3.83400000 -2.91580000 3.12290000
-3.79630000 -2.86320000 3.08890000
-3.79240000 -2.92110000 3.10720000
-3.73430000 -2.78910000 3.12310000
-3.72200000 -2.75130000 3.15070000
-3.74330000 -2.82430000 3.09800000
-3.70190000 -2.81370000 3.13620000
-3.69190000 -2.77640000 3.16090000
-3.70910000 -2.84790000 3.11370000
-3.75250000 -2.87270000 3.08410000
-3.75300000 -2.92850000 3.08700000
-3.71230000 -2.88990000 3.09650000
-3.71300000 -2.94010000 3.08320000
6.07760000 -2.43170000 -1.22890000
6.01570000 -2.39290000 -1.24670000
6.06430000 -2.33970000 -1.24890000
6.13280000 -2.37350000 -1.23840000
5.95540000 -2.34990000 -1.26990000
5.99980000 -2.29630000 -1.26180000
6.11970000 -2.28810000 -1.27350000
6.18880000 -2.33110000 -1.27040000
6.06030000 -2.24260000 -1.27540000
5.88810000 -2.31300000 -1.28760000
5.92970000 -2.25190000 -1.27030000
5.81890000 -2.27810000 -1.29310000
5.85800000 -2.20340000 -1.27290000
5.97580000 -2.18270000 -1.27300000
5.89780000 -2.13480000 -1.26740000
6.17080000 -2.24430000 -1.30470000
6.23600000 -2.28160000 -1.30240000
6.10980000 -2.18970000 -1.30670000
6.22150000 -2.17900000 -1.31140000
6.15430000 -2.12960000 -1.32390000
6.02890000 -2.13130000 -1.29630000
5.94480000 -2.06650000 -1.27760000
6.07920000 -2.07320000 -1.31900000
5.98110000 -1.99080000 -1.30060000
-2.51460000 -0.43800000 -0.46210000
-2.56390000 -0.49530000 -0.46630000
-2.61190000 -0.44790000 -0.44260000
-2.56180000 -0.38690000 -0.43190000
-2.46800000 -0.48260000 -0.48980000
-2.51270000 -0.54870000 -0.48990000
-2.61730000 -0.55420000 -0.46400000
-2.66560000 -0.50180000 -0.44260000
-2.55530000 -0.61170000 -0.48970000
-2.41250000 -0.53120000 -0.51370000
-2.44820000 -0.59820000 -0.51730000
-2.34750000 -0.57790000 -0.55200000
-2.37490000 -0.64910000 -0.54960000
-2.47940000 -0.67170000 -0.51960000
-2.40320000 -0.72540000 -0.55380000
-2.65660000 -0.62410000 -0.48020000
-2.71920000 -0.56580000 -0.45270000
-2.59050000 -0.68460000 -0.50890000
-2.70520000 -0.69450000 -0.49970000
-2.63590000 -0.75880000 -0.52790000
-2.52050000 -0.74220000 -0.53710000
-2.43540000 -0.80350000 -0.57320000
-2.56010000 -0.80510000 -0.55430000
-2.47270000 -0.87560000 -0.60280000
-3.45110000 -3.09110000 2.70980000
-3.41590000 -3.08230000 2.70940000
-3.44450000 -3.12890000 2.68900000
-3.40770000 -3.10940000 2.69080000
-3.37740000 -3.07090000 2.70860000
-3.37520000 -3.10430000 2.68360000
-3.44980000 -3.16250000 2.66810000
-3.41280000 -3.14600000 2.66590000
-3.43230000 -3.18140000 2.65090000
-3.37210000 -3.13540000 2.66000000
-3.38180000 -3.16960000 2.63830000
-3.33820000 -3.05780000 2.70370000
-3.32730000 -3.08970000 2.67660000
-3.32460000 -3.12300000 2.65200000
-3.33020000 -3.15840000 2.62730000
3.83310000 -2.72330000 -1.02660000
3.85170000 -2.73090000 -1.08470000
3.75780000 -2.67330000 -1.03530000
3.77990000 -2.68180000 -1.09360000
3.87140000 -2.72620000 -1.13850000
3.79470000 -2.68280000 -1.14720000
3.69110000 -2.64090000 -1.04770000
3.71570000 -2.63960000 -1.10510000
3.61740000 -2.60580000 -1.06080000
3.64700000 -2.60190000 -1.11190000
3.73340000 -2.64470000 -1.16580000
3.67250000 -2.60400000 -1.17650000
3.91120000 -2.70820000 -1.19550000
3.84040000 -2.66020000 -1.19570000
3.94040000 -2.68560000 -1.25350000
3.87830000 -2.63980000 -1.24690000
3.76620000 -2.62540000 -1.21470000
3.69870000 -2.59370000 -1.23200000
3.81440000 -2.59450000 -1.24330000
3.74230000 -2.55100000 -1.25860000
5.26490000 -0.57030000 -0.38670000
5.26870000 -0.54890000 -0.32370000
5.30410000 -0.61780000 -0.30590000
5.30130000 -0.63920000 -0.36740000
5.25980000 -0.53590000 -0.25030000
5.30300000 -0.60000000 -0.23740000
5.32500000 -0.69260000 -0.28940000
5.32830000 -0.70650000 -0.34940000
5.32180000 -0.67900000 -0.22820000
5.24860000 -0.52720000 -0.18490000
5.29560000 -0.59250000 -0.17300000
5.22870000 -0.53020000 -0.11780000
5.27570000 -0.58830000 -0.11170000
5.30810000 -0.66890000 -0.16240000
5.28900000 -0.66340000 -0.10230000
5.33730000 -0.76880000 -0.27880000
5.35020000 -0.77660000 -0.33700000
5.33060000 -0.75530000 -0.21400000
5.36570000 -0.83400000 -0.26200000
5.38210000 -0.84240000 -0.32330000
5.36440000 -0.82170000 -0.20410000
5.32540000 -0.74230000 -0.15650000
5.31150000 -0.73620000 -0.09030000
5.36120000 -0.81110000 -0.14170000
5.35780000 -0.79760000 -0.07780000
6.57680000 -5.55180000 1.43010000
6.47550000 -5.58550000 1.40770000
6.45750000 -5.57010000 1.52170000
6.54850000 -5.54490000 1.54070000
6.37000000 -5.57620000 1.38980000
6.35130000 -5.58170000 1.50710000
6.43890000 -5.57450000 1.63870000
6.53580000 -5.55720000 1.64470000
6.33640000 -5.58400000 1.63090000
6.26660000 -5.52420000 1.38200000
6.24930000 -5.54760000 1.48970000
6.16830000 -5.50160000 1.36660000
6.14410000 -5.51120000 1.47620000
6.22680000 -5.57050000 1.60980000
6.12680000 -5.53480000 1.58900000
6.42220000 -5.58220000 1.74150000
6.52600000 -5.58040000 1.75190000
6.31320000 -5.58510000 1.73120000
6.41140000 -5.57760000 1.83370000
6.50950000 -5.57510000 1.83910000
6.30440000 -5.58310000 1.82710000
6.21360000 -5.58270000 1.70080000
6.09870000 -5.56240000 1.68430000
6.19810000 -5.58780000 1.81030000
6.09430000 -5.57620000 1.79520000
5.60000000 -2.71450000 2.96790000
5.62830000 -2.68500000 3.02240000
5.54380000 -2.68170000 3.05590000
5.52550000 -2.70540000 2.98770000
5.67380000 -2.71640000 2.94360000
5.69380000 -2.68210000 2.99950000
5.65190000 -2.63770000 3.07980000
5.58520000 -2.64560000 3.10410000
5.72010000 -2.63700000 3.04750000
5.74310000 -2.71470000 2.91580000
5.76360000 -2.67540000 2.97380000
5.81920000 -2.65630000 2.93810000
5.78100000 -2.61610000 3.01580000
5.83460000 -2.59680000 2.98220000
5.66860000 -2.58890000 3.11880000
5.60960000 -2.60650000 3.15070000
5.73020000 -2.57200000 3.08310000
5.67060000 -2.52370000 3.14650000
5.73780000 -2.49700000 3.10420000
5.79050000 -2.55400000 3.04590000
5.86090000 -2.54340000 3.01690000
5.79960000 -2.48130000 3.06670000
5.86900000 -2.47550000 3.05100000
10.34850000 -5.58870000 1.12750000
10.30050000 -5.59800000 1.16440000
10.33710000 -5.61540000 1.20030000
10.39930000 -5.60640000 1.15590000
10.32100000 -5.57960000 1.10480000
10.28670000 -5.58990000 1.13990000
10.27840000 -5.60420000 1.19560000
10.30830000 -5.62140000 1.23080000
10.26340000 -5.59800000 1.17030000
10.28790000 -5.58660000 1.07660000
10.26380000 -5.58930000 1.11490000
10.24740000 -5.59760000 1.04720000
10.23150000 -5.59290000 1.09110000
10.24450000 -5.59370000 1.14920000
10.21720000 -5.59050000 1.13150000
10.26160000 -5.60960000 1.21650000
10.28600000 -5.62980000 1.25710000
10.24570000 -5.60300000 1.19770000
10.24320000 -5.61580000 1.24080000
10.24750000 -5.65010000 1.32370000
10.21900000 -5.61070000 1.24060000
10.22270000 -5.60050000 1.18390000
10.19280000 -5.59710000 1.16940000
10.19230000 -5.60810000 1.23260000
10.16000000 -5.60450000 1.21880000
-0.98570000 5.50120000 1.57490000
-0.95230000 5.49650000 1.56480000
-0.96180000 5.50200000 1.53090000
-0.99840000 5.51040000 1.54520000
-0.91750000 5.48890000 1.55280000
-0.92590000 5.49940000 1.51870000
-0.97440000 5.50830000 1.49920000
-1.00780000 5.51730000 1.51330000
-0.93960000 5.50720000 1.48440000
-0.88060000 5.47830000 1.53840000
-0.88850000 5.49250000 1.50610000
-0.83830000 5.46590000 1.52290000
-0.84850000 5.48150000 1.49010000
-0.90030000 5.49830000 1.46910000
-0.86420000 5.48330000 1.45520000
-0.98740000 5.50220000 1.46930000
-1.01930000 5.50570000 1.48500000
-0.95370000 5.49740000 1.45370000
-1.00340000 5.48710000 1.44400000
-1.03600000 5.49190000 1.45920000
-0.96970000 5.48180000 1.42870000
-0.91670000 5.49150000 1.43710000
-0.88200000 5.48280000 1.42180000
-0.93360000 5.47170000 1.41320000
-0.89890000 5.46170000 1.39720000
-0.06970000 -5.69230000 3.84410000
-0.05950000 -5.67410000 3.75910000
-0.15670000 -5.68450000 3.76180000
-0.16560000 -5.69450000 3.84370000
0.01730000 -5.69010000 3.83880000
0.02290000 -5.67220000 3.76100000
-0.06410000 -5.66280000 3.67940000
-0.15140000 -5.67480000 3.67940000
0.02870000 -5.65720000 3.67650000
0.09880000 -5.69070000 3.83610000
0.11700000 -5.67590000 3.76250000
0.17960000 -5.70940000 3.84170000
0.18830000 -5.69720000 3.75950000
0.10240000 -5.66510000 3.68050000
0.19100000 -5.69000000 3.67450000
-0.06800000 -5.64890000 3.60490000
-0.16040000 -5.65730000 3.60510000
0.02180000 -5.64330000 3.59430000
-0.07110000 -5.63600000 3.52800000
-0.15530000 -5.63870000 3.53640000
0.01930000 -5.63180000 3.52390000
0.10420000 -5.65880000 3.59850000
0.19090000 -5.68390000 3.59150000
0.10600000 -5.64990000 3.51840000
0.19260000 -5.68020000 3.51490000
-2.61140000 5.09790000 1.99270000
-2.61090000 5.09310000 2.02440000
-2.61390000 5.10100000 1.95460000
-2.64520000 5.07070000 1.99090000
-2.64690000 5.06570000 2.02080000
-2.64840000 5.08030000 1.95980000
-2.63280000 5.12960000 1.93990000
-2.66580000 5.10780000 1.94490000
-2.67570000 5.05070000 1.99010000
-2.67120000 5.03990000 2.01210000
-2.68160000 5.06600000 1.96410000
-2.69740000 5.02480000 1.99160000
-2.70660000 5.03820000 1.96990000
-2.69330000 5.08500000 1.95370000
-2.72000000 5.06100000 1.95690000
3.02870000 -1.05770000 3.85470000
2.98560000 -1.05550000 3.83320000
2.97390000 -1.09240000 3.86670000
3.01500000 -1.09810000 3.88550000
3.03940000 -1.02050000 3.80570000
2.99810000 -1.02390000 3.78920000
2.94640000 -1.06160000 3.81200000
2.93990000 -1.09260000 3.84730000
2.96140000 -1.02690000 3.76350000
3.05160000 -0.99240000 3.76260000
3.00830000 -0.99910000 3.74480000
3.06270000 -0.95430000 3.71970000
3.01060000 -0.96220000 3.70810000
2.96400000 -1.00780000 3.72720000
2.96050000 -0.97150000 3.69650000
2.90320000 -1.07910000 3.79100000
2.89990000 -1.10590000 3.82990000
2.91160000 -1.05250000 3.75390000
2.87290000 -1.09880000 3.77560000
2.87500000 -1.11860000 3.80540000
2.87360000 -1.07620000 3.74160000
2.91620000 -1.02470000 3.71710000
2.90910000 -0.98620000 3.68830000
2.87330000 -1.04690000 3.70770000
2.85960000 -1.01280000 3.67560000
-2.73550000 3.63090000 0.02580000
-2.67840000 3.65300000 0.00760000
-2.65390000 3.59040000 0.04080000
-2.71280000 3.56790000 0.03900000
-2.76010000 3.69210000 0.00140000
-2.70090000 3.70170000 -0.01940000
-2.61650000 3.65620000 -0.00470000
-2.59550000 3.60100000 0.04140000
-2.63930000 3.70760000 -0.04320000
-2.76580000 3.76130000 -0.02840000
-2.72840000 3.75950000 -0.04690000
-2.80040000 3.82510000 -0.03850000
-2.75150000 3.82250000 -0.06190000
-2.67330000 3.77080000 -0.07130000
-2.69840000 3.84290000 -0.09260000
-2.54580000 3.66590000 -0.01200000
-2.52900000 3.61230000 0.03920000
-2.57560000 3.72950000 -0.05600000
-2.47330000 3.68180000 -0.01600000
-2.46510000 3.62480000 0.04130000
-2.50350000 3.74880000 -0.03520000
-2.60110000 3.79810000 -0.06410000
-2.63500000 3.87000000 -0.06990000
-2.53840000 3.81930000 -0.02400000
-2.56820000 3.89670000 -0.02000000
6.28140000 0.57720000 1.45920000
6.24020000 0.60160000 1.47540000
6.24730000 0.66220000 1.46960000
6.26250000 0.52660000 1.46680000
6.23180000 0.54710000 1.48650000
6.21990000 0.62300000 1.51380000
6.23310000 0.67730000 1.52170000
6.20960000 0.56780000 1.51310000
6.24880000 0.47530000 1.48510000
6.22060000 0.49640000 1.49640000
6.23780000 0.43600000 1.50220000
6.21250000 0.45310000 1.51190000
6.19960000 0.51460000 1.52020000
6.18690000 0.47330000 1.52690000
6.19230000 0.64410000 1.54530000
6.19500000 0.69630000 1.55320000
6.18290000 0.58160000 1.54580000
6.17720000 0.68090000 1.51700000
6.18180000 0.74630000 1.54030000
6.16600000 0.60760000 1.51280000
6.17650000 0.52810000 1.54580000
6.16470000 0.48550000 1.53570000
6.14990000 0.54210000 1.51680000
6.15050000 0.48910000 1.52420000
8.21610000 -5.44900000 0.88940000
8.15590000 -5.46620000 0.85030000
8.11590000 -5.46800000 0.91030000
8.18060000 -5.44760000 0.95550000
8.25620000 -5.45020000 0.82970000
8.19500000 -5.45400000 0.78830000
8.08880000 -5.46320000 0.80540000
8.05130000 -5.47680000 0.87040000
8.13800000 -5.44630000 0.74550000
8.30370000 -5.45860000 0.77570000
8.24230000 -5.45400000 0.73360000
8.33720000 -5.46290000 0.71750000
8.28590000 -5.45690000 0.68310000
8.18460000 -5.44180000 0.69140000
8.22650000 -5.44090000 0.63710000
8.03020000 -5.43240000 0.77100000
7.98690000 -5.45690000 0.82900000
8.07510000 -5.41870000 0.71270000
7.96820000 -5.40260000 0.73930000
7.92860000 -5.43280000 0.79790000
8.01990000 -5.38850000 0.67970000
8.12240000 -5.41400000 0.65290000
8.17260000 -5.42120000 0.59630000
8.06420000 -5.38760000 0.61410000
8.11200000 -5.39890000 0.55180000
-6.42320000 6.28110000 1.05890000
-6.42680000 6.30570000 1.09720000
-6.38500000 6.33960000 1.07340000
-6.39890000 6.32110000 1.03340000
-6.45060000 6.24470000 1.08070000
-6.44530000 6.26740000 1.11920000
-6.42970000 6.33940000 1.13240000
-6.40670000 6.37720000 1.10110000
-6.43060000 6.29320000 1.16000000
-6.45970000 6.20060000 1.10580000
-6.44310000 6.22330000 1.14210000
-6.46810000 6.15710000 1.13070000
-6.45450000 6.17770000 1.16890000
-6.41560000 6.24220000 1.17260000
-6.43560000 6.19960000 1.20140000
-6.42100000 6.36140000 1.16160000
-6.40700000 6.40650000 1.13550000
-6.41780000 6.31280000 1.19000000
-6.40500000 6.38360000 1.20220000
-6.39200000 6.42820000 1.17480000
-6.42350000 6.33580000 1.22950000
-6.40690000 6.26670000 1.21150000
-6.42880000 6.21970000 1.23810000
-6.42210000 6.28730000 1.25200000
-6.42590000 6.24390000 1.27370000
-2.91860000 -4.30230000 -0.89790000
-2.92140000 -4.30220000 -0.82230000
-2.92360000 -4.22330000 -0.83030000
-2.92040000 -4.37600000 -0.89800000
-2.92700000 -4.38130000 -0.82190000
-2.91510000 -4.30070000 -0.74860000
-2.91260000 -4.21970000 -0.76290000
-2.93220000 -4.38370000 -0.73730000
-2.93820000 -4.44380000 -0.89840000
-2.93190000 -4.44900000 -0.83390000
-2.97060000 -4.49860000 -0.91140000
-2.95640000 -4.51890000 -0.85490000
-2.93600000 -4.45440000 -0.76070000
-2.93420000 -4.53120000 -0.78100000
-2.90710000 -4.29600000 -0.68650000
-2.89920000 -4.20550000 -0.69720000
-2.91850000 -4.37370000 -0.68190000
-2.88630000 -4.28470000 -0.61490000
-2.89290000 -4.19490000 -0.62480000
-2.89980000 -4.36980000 -0.60970000
-2.93090000 -4.46460000 -0.69600000
-2.90550000 -4.53660000 -0.71450000
-2.89700000 -4.46130000 -0.61700000
-2.84970000 -4.54470000 -0.64670000
-5.64500000 3.71320000 0.64330000
-5.61080000 3.70850000 0.59510000
-5.60110000 3.64760000 0.60820000
-5.64190000 3.65260000 0.65940000
-5.65300000 3.77210000 0.62970000
-5.61860000 3.76590000 0.57700000
-5.58350000 3.70100000 0.54000000
-5.56970000 3.64030000 0.55850000
-5.59620000 3.75940000 0.52150000
-5.65950000 3.83240000 0.61350000
-5.63080000 3.82760000 0.55870000
-5.66540000 3.89130000 0.59420000
-5.63450000 3.88100000 0.54290000
-5.59870000 3.81460000 0.50060000
-5.59930000 3.87630000 0.48600000
-5.54830000 3.69250000 0.48420000
-5.53570000 3.63790000 0.50530000
-5.55500000 3.74990000 0.46550000
-5.49710000 3.69140000 0.43920000
-5.50280000 3.74790000 0.42250000
-5.55510000 3.80450000 0.45230000
-5.55340000 3.86850000 0.43760000
-5.50400000 3.80760000 0.40600000
-5.50360000 3.86650000 0.39210000
-2.24020000 0.28410000 2.79990000
-2.30590000 0.27660000 2.85510000
-2.25790000 0.22450000 2.87800000
-2.20990000 0.22310000 2.82840000
-2.27690000 0.36360000 2.79640000
-2.33710000 0.34730000 2.83680000
-2.35220000 0.26930000 2.89660000
-2.30490000 0.21530000 2.91840000
-2.38970000 0.33640000 2.89380000
-2.31390000 0.44620000 2.77710000
-2.36860000 0.42710000 2.81690000
-2.35780000 0.52890000 2.73620000
-2.41070000 0.51280000 2.79020000
-2.42030000 0.41150000 2.86850000
-2.45600000 0.49820000 2.84470000
-2.38100000 0.26760000 2.95630000
-2.34060000 0.20630000 2.96770000
-2.42530000 0.33360000 2.94660000
-2.40610000 0.27160000 3.01120000
-2.45240000 0.32940000 2.99890000
-2.46170000 0.41170000 2.92640000
-2.49010000 0.48830000 2.90490000
-2.49840000 0.39650000 2.97550000
-2.54610000 0.46560000 2.95920000
-4.35720000 -0.06020000 2.78720000
-4.41460000 -0.10980000 2.77080000
-4.38500000 -0.14900000 2.79710000
-4.32450000 -0.10260000 2.81340000
-4.38500000 -0.02160000 2.76460000
-4.44440000 -0.07050000 2.74710000
-4.47520000 -0.16030000 2.75820000
-4.44800000 -0.19830000 2.79100000
-4.51140000 -0.11420000 2.72460000
-4.40920000 0.01620000 2.73690000
-4.47090000 -0.03440000 2.72100000
-4.42950000 0.05610000 2.71060000
-4.49170000 0.00310000 2.69290000
-4.53380000 -0.08750000 2.70530000
-4.55840000 -0.05200000 2.67580000
-4.53160000 -0.21430000 2.75250000
-4.50000000 -0.24730000 2.78210000
-4.56390000 -0.17970000 2.72200000
-4.58040000 -0.26720000 2.73390000
-4.54460000 -0.30430000 2.76950000
-4.60840000 -0.23890000 2.70870000
-4.58830000 -0.14600000 2.69460000
-4.61140000 -0.11310000 2.66240000
-4.63690000 -0.20550000 2.67850000
-4.65930000 -0.17200000 2.64220000
-2.63670000 -2.43240000 3.10370000
-2.69870000 -2.43640000 3.09290000
-2.67340000 -2.47240000 3.04980000
-2.60990000 -2.47820000 3.06210000
-2.75790000 -2.41710000 3.06470000
-2.72620000 -2.44330000 3.01950000
-2.64350000 -2.51010000 3.00920000
-2.57470000 -2.52040000 3.02070000
-2.69580000 -2.47140000 2.97320000
-2.80830000 -2.41420000 3.04180000
-2.78360000 -2.43550000 2.99830000
-2.86940000 -2.43450000 3.03300000
-2.84420000 -2.46010000 2.99240000
-2.76280000 -2.45760000 2.95420000
-2.82360000 -2.48680000 2.95270000
-2.60620000 -2.54200000 2.96810000
-2.52810000 -2.56250000 2.98760000
-2.66500000 -2.50100000 2.93090000
-2.55920000 -2.57760000 2.92550000
-2.47090000 -2.60640000 2.96030000
-2.63370000 -2.53140000 2.88460000
-2.73500000 -2.48300000 2.90700000
-2.79930000 -2.51270000 2.90860000
-2.70570000 -2.50800000 2.86210000
6.64830000 0.39290000 1.48840000
6.62720000 0.39900000 1.52500000
6.64940000 0.44600000 1.53270000
6.67530000 0.44970000 1.49740000
6.62430000 0.34290000 1.48390000
6.61040000 0.35320000 1.52310000
6.59630000 0.41510000 1.51730000
6.61810000 0.46190000 1.53230000
6.57660000 0.36840000 1.50850000
6.60070000 0.30380000 1.50570000
6.58960000 0.31980000 1.54250000
6.55930000 0.33760000 1.52020000
6.56960000 0.42460000 1.49190000
6.59000000 0.47690000 1.50220000
6.55090000 0.37300000 1.48610000
6.53590000 0.44370000 1.47540000
6.55390000 0.49290000 1.48290000
6.51820000 0.38860000 1.46840000
6.53350000 0.33620000 1.49690000
6.50440000 0.34270000 1.46520000
-7.69820000 -5.70070000 1.21410000
-7.68840000 -5.69940000 1.13760000
-7.77900000 -5.70130000 1.12590000
-7.79150000 -5.70750000 1.20400000
-7.60880000 -5.68340000 1.21300000
-7.59760000 -5.68070000 1.14540000
-7.67710000 -5.68090000 1.06640000
-7.75410000 -5.68560000 1.05840000
-7.59740000 -5.67730000 1.06810000
-7.50980000 -5.67710000 1.21300000
-7.50610000 -5.66610000 1.13990000
-7.41390000 -5.68540000 1.22600000
-7.41850000 -5.66780000 1.16010000
-7.50470000 -5.66840000 1.08320000
-7.41110000 -5.65390000 1.08860000
-7.67340000 -5.67100000 1.01350000
-7.73680000 -5.66920000 0.99880000
-7.61010000 -5.66970000 1.00390000
-7.66720000 -5.66080000 0.95490000
-7.73420000 -5.65460000 0.94420000
-7.59690000 -5.65970000 0.94420000
-7.50290000 -5.65980000 1.02400000
-7.41270000 -5.64900000 1.02330000
-7.50410000 -5.64960000 0.95070000
-7.40830000 -5.64300000 0.96380000
5.60980000 0.29600000 1.90610000
5.61580000 0.27720000 1.85940000
5.58450000 0.28700000 1.91120000
5.58920000 0.27040000 1.85840000
5.62560000 0.26550000 1.80340000
5.59560000 0.25260000 1.80680000
5.55940000 0.27960000 1.91420000
5.57590000 0.24680000 1.86230000
5.53270000 0.26760000 1.91600000
5.55000000 0.22620000 1.87140000
5.58430000 0.22760000 1.81680000
5.57140000 0.19240000 1.82160000
5.62010000 0.25350000 1.76260000
5.59910000 0.23930000 1.76240000
5.61680000 0.25470000 1.71520000
5.59720000 0.23880000 1.71360000
5.59010000 0.20990000 1.76780000
5.57530000 0.18150000 1.76630000
5.59090000 0.20840000 1.71080000
5.57220000 0.18210000 1.70700000
-4.80440000 5.64200000 -0.23340000
-4.74490000 5.62020000 -0.26060000
-4.76750000 5.55850000 -0.25760000
-4.77890000 5.70050000 -0.22900000
-4.72410000 5.68080000 -0.25530000
-4.68950000 5.60290000 -0.27850000
-4.71070000 5.53650000 -0.28070000
-4.66060000 5.66310000 -0.27710000
-4.75710000 5.75720000 -0.21290000
-4.69820000 5.73990000 -0.23620000
-4.73930000 5.81770000 -0.18860000
-4.67400000 5.79920000 -0.20640000
-4.64130000 5.72070000 -0.25490000
-4.61550000 5.78170000 -0.22680000
-4.64110000 5.58520000 -0.30130000
-4.66450000 5.52270000 -0.30370000
-4.62030000 5.64570000 -0.28750000
-4.59200000 5.56910000 -0.31830000
-4.57080000 5.62240000 -0.30240000
-4.59380000 5.70360000 -0.26730000
-4.56280000 5.76370000 -0.24400000
-4.54090000 5.68810000 -0.27910000
-3.57170000 -3.08940000 2.72500000
-3.57850000 -3.05320000 2.74510000
-3.60300000 -3.08820000 2.74330000
-3.59200000 -3.10780000 2.72330000
-3.54300000 -3.07720000 2.72710000
-3.54860000 -3.04040000 2.74450000
-3.59220000 -3.03480000 2.76710000
-3.62000000 -3.06560000 2.76940000
-3.55540000 -3.00760000 2.76200000
-3.50150000 -3.06470000 2.72770000
-3.50470000 -3.03000000 2.74550000
-3.51320000 -2.99570000 2.76440000
-3.60660000 -3.01060000 2.79810000
-3.63880000 -3.04710000 2.80590000
-3.57070000 -2.97740000 2.78840000
-3.61880000 -2.99710000 2.83280000
-3.57650000 -2.95150000 2.81990000
-3.52380000 -2.95940000 2.78330000
-3.53400000 -2.92270000 2.80280000
4.83050000 -1.28550000 -1.05550000
4.87430000 -1.22150000 -1.00550000
4.94450000 -1.26890000 -1.02970000
4.89320000 -1.32670000 -1.07630000
4.91800000 -1.15000000 -0.97730000
4.98460000 -1.20920000 -0.98890000
5.00900000 -1.32660000 -1.05690000
4.96290000 -1.38230000 -1.10340000
5.05400000 -1.27680000 -1.01450000
4.95860000 -1.06910000 -1.00190000
5.01910000 -1.13600000 -1.01300000
4.99440000 -1.02340000 -0.93750000
5.06120000 -1.07190000 -1.01440000
5.09940000 -1.21080000 -1.01170000
5.12720000 -1.14700000 -1.05240000
5.07540000 -1.38940000 -1.08180000
5.02480000 -1.43740000 -1.12440000
5.12680000 -1.34150000 -1.03910000
5.17340000 -1.27570000 -1.01540000
5.20660000 -1.22130000 -1.06650000
5.10510000 -5.72670000 -2.43860000
5.07750000 -5.65100000 -2.40010000
5.17730000 -5.65220000 -2.39650000
5.19630000 -5.72230000 -2.44690000
4.99480000 -5.73140000 -2.44300000
4.96780000 -5.64890000 -2.40650000
5.05410000 -5.60930000 -2.32970000
5.15960000 -5.61540000 -2.32430000
4.93890000 -5.60780000 -2.33590000
4.90120000 -5.72180000 -2.46370000
4.85320000 -5.64360000 -2.41440000
4.80810000 -5.69740000 -2.48900000
4.72740000 -5.62730000 -2.42640000
4.81420000 -5.60640000 -2.33900000
4.68410000 -5.59490000 -2.34230000
5.03380000 -5.59600000 -2.24160000
5.14600000 -5.59030000 -2.23470000
4.91270000 -5.59840000 -2.24850000
4.99960000 -5.61100000 -2.14870000
5.12680000 -5.60500000 -2.13610000
4.87450000 -5.61790000 -2.15550000
4.77900000 -5.60420000 -2.24980000
4.63770000 -5.61330000 -2.24790000
4.73830000 -5.62390000 -2.15670000
4.59590000 -5.63270000 -2.15530000
-2.72930000 -1.75130000 3.25980000
-2.61910000 -1.73410000 3.26850000
-2.67430000 -1.65490000 3.24870000
-2.66840000 -1.81350000 3.30810000
-2.58610000 -1.78150000 3.34350000
-2.52480000 -1.70390000 3.29870000
-2.55950000 -1.63070000 3.27770000
-2.49580000 -1.75680000 3.35810000
-2.61800000 -1.87810000 3.33990000
-2.54400000 -1.84490000 3.31970000
-2.61150000 -1.90110000 3.25890000
-2.55440000 -1.85610000 3.22870000
-2.47940000 -1.80190000 3.29110000
-2.48460000 -1.82610000 3.21210000
-2.43620000 -1.68630000 3.31250000
-2.45550000 -1.61420000 3.30510000
-2.40600000 -1.74490000 3.33690000
-2.32700000 -1.66880000 3.31520000
-2.34110000 -1.60050000 3.31780000
-2.30480000 -1.73020000 3.33310000
-2.39490000 -1.78080000 3.28120000
-2.39930000 -1.80310000 3.20910000
-2.30630000 -1.76970000 3.27450000
-2.31430000 -1.79190000 3.20770000
-5.61710000 -5.70080000 1.43240000
-5.68400000 -5.69370000 1.35860000
-5.66720000 -5.62540000 1.33850000
-5.63070000 -5.76590000 1.48060000
-5.68310000 -5.77160000 1.36960000
-5.74720000 -5.67000000 1.28700000
-5.74260000 -5.60060000 1.27800000
-5.70970000 -5.72440000 1.28160000
-5.57230000 -5.80410000 1.49830000
-5.59160000 -5.76700000 1.36930000
-5.47370000 -5.76240000 1.50300000
-5.51790000 -5.73820000 1.38050000
-5.63310000 -5.71600000 1.26420000
-5.54050000 -5.70390000 1.25380000
-5.81170000 -5.65330000 1.22610000
-5.82150000 -5.58020000 1.23730000
-5.75100000 -5.67360000 1.19630000
-5.86440000 -5.64770000 1.17630000
-5.91510000 -5.59510000 1.21130000
-5.80410000 -5.64970000 1.12360000
-5.67930000 -5.67880000 1.16480000
-5.59070000 -5.66810000 1.14210000
-5.73600000 -5.64710000 1.07640000
-5.64580000 -5.63190000 1.02990000
-4.99960000 3.75610000 0.14480000
-5.06580000 3.76470000 0.17470000
-5.06740000 3.81920000 0.15450000
-4.99880000 3.81240000 0.12910000
-4.99450000 3.70370000 0.16040000
-5.06430000 3.71020000 0.19260000
-5.13070000 3.77440000 0.20370000
-5.13260000 3.82940000 0.18450000
-5.13080000 3.72210000 0.22280000
-4.99460000 3.65150000 0.18300000
-5.06160000 3.66030000 0.21050000
-5.05720000 3.60270000 0.23410000
-5.13180000 3.66430000 0.24180000
-5.12630000 3.61080000 0.26280000
-5.20080000 3.78670000 0.24090000
-5.20170000 3.83870000 0.21620000
-5.19950000 3.72950000 0.25920000
-5.25740000 3.78900000 0.27210000
-5.25930000 3.84380000 0.24640000
-5.25480000 3.73600000 0.29090000
-5.19460000 3.67110000 0.27310000
-5.19350000 3.61730000 0.28770000
-5.25420000 3.67930000 0.30670000
1.97550000 -5.73510000 4.25160000
2.04960000 -5.70560000 4.27570000
2.04520000 -5.69200000 4.18080000
1.98730000 -5.72300000 4.17060000
2.09540000 -5.69860000 4.28030000
2.10360000 -5.68410000 4.18800000
2.05330000 -5.68890000 4.09250000
1.99560000 -5.71090000 4.08380000
2.11950000 -5.68330000 4.10040000
2.14830000 -5.69290000 4.28360000
2.17740000 -5.67940000 4.19590000
2.20380000 -5.68620000 4.28550000
2.26840000 -5.68500000 4.19870000
2.20140000 -5.68220000 4.10550000
2.29810000 -5.68120000 4.11140000
2.05960000 -5.68830000 4.00770000
2.00290000 -5.69950000 4.00180000
2.14250000 -5.68710000 4.01500000
2.06680000 -5.69150000 3.92620000
2.00820000 -5.69310000 3.92230000
2.14790000 -5.69020000 3.92890000
2.22540000 -5.68590000 4.02270000
2.31470000 -5.68430000 4.02980000
2.23610000 -5.68870000 3.93420000
2.32570000 -5.68690000 3.94420000
-1.48060000 2.88630000 0.92140000
-1.46280000 2.92680000 0.92370000
-1.44770000 2.85590000 0.89130000
-1.42010000 2.88930000 0.89340000
-1.43740000 2.97020000 0.93340000
-1.39800000 2.92790000 0.88270000
-1.42140000 2.81230000 0.86930000
-1.39020000 2.84170000 0.86230000
-1.37080000 2.78010000 0.84220000
-1.36520000 2.87330000 0.84130000
-1.34010000 2.81030000 0.81800000
-1.45460000 3.01200000 0.89960000
-1.43140000 2.95400000 0.84420000
-1.50720000 3.02910000 0.87390000
-1.47450000 2.96270000 0.81730000
-1.40540000 2.88900000 0.80740000
-1.38130000 2.82360000 0.77190000
-1.44870000 2.89340000 0.76890000
-1.42710000 2.83180000 0.73250000
7.65090000 -5.28750000 -0.11490000
7.64300000 -5.28050000 -0.11970000
7.63730000 -5.28850000 -0.12510000
7.64600000 -5.30170000 -0.12030000
7.63570000 -5.27080000 -0.11940000
7.63140000 -5.27670000 -0.12780000
7.63200000 -5.29740000 -0.13200000
7.63730000 -5.31370000 -0.12430000
7.62530000 -5.28340000 -0.13430000
7.62650000 -5.26590000 -0.12290000
7.63060000 -5.26250000 -0.11340000
7.62240000 -5.27060000 -0.13350000
7.62680000 -5.30740000 -0.14130000
7.62280000 -5.32180000 -0.13080000
7.62360000 -5.29200000 -0.14570000
7.61790000 -5.27730000 -0.14590000
-2.20690000 4.15120000 1.62180000
-2.24620000 4.15900000 1.63290000
-2.26480000 4.07980000 1.63340000
-2.21760000 4.07110000 1.62580000
-2.19350000 4.22130000 1.61170000
-2.23640000 4.22650000 1.62520000
-2.28330000 4.16430000 1.64890000
-2.31130000 4.08950000 1.64920000
-2.27890000 4.22760000 1.63700000
-2.18940000 4.28890000 1.59620000
-2.23550000 4.28970000 1.61140000
-2.19000000 4.35070000 1.57400000
-2.23720000 4.35090000 1.58880000
-2.27760000 4.29250000 1.62440000
-2.27950000 4.35160000 1.60290000
-2.32890000 4.17510000 1.66810000
-2.35580000 4.10350000 1.67140000
-2.32080000 4.23750000 1.65700000
-2.37400000 4.18590000 1.69400000
-2.39710000 4.11780000 1.69210000
-2.36360000 4.24530000 1.67680000
-2.32010000 4.29810000 1.64160000
-2.32040000 4.35580000 1.62040000
-2.35900000 4.30320000 1.66140000
-2.35620000 4.36280000 1.64330000
5.11360000 -3.51520000 1.00380000
5.12170000 -3.52100000 0.94550000
5.20770000 -3.51840000 0.95380000
5.02210000 -3.51290000 0.99190000
5.03460000 -3.51700000 0.92950000
5.13620000 -3.52190000 0.87690000
5.21640000 -3.52690000 0.88830000
5.05170000 -3.51260000 0.86030000
4.92740000 -3.50710000 0.98550000
4.94000000 -3.50710000 0.91420000
4.82980000 -3.49540000 0.97100000
4.83820000 -3.49580000 0.89980000
4.95880000 -3.50360000 0.84020000
4.85510000 -3.49260000 0.83480000
5.14560000 -3.51750000 0.80760000
5.22960000 -3.52540000 0.81940000
5.05940000 -3.50970000 0.79490000
5.15630000 -3.51500000 0.74180000
5.06740000 -3.50700000 0.72940000
4.96170000 -3.50050000 0.77500000
4.86940000 -3.48840000 0.76160000
4.97970000 -3.49890000 0.71340000
4.88450000 -3.48490000 0.69580000
-3.56130000 0.81140000 2.64760000
-3.65580000 0.76730000 2.64310000
-3.62000000 0.72080000 2.62010000
-3.61800000 0.86430000 2.66810000
-3.71230000 0.81720000 2.67790000
-3.78680000 0.73260000 2.64720000
-3.75340000 0.68190000 2.60170000
-3.81240000 0.77820000 2.69370000
-3.66250000 0.90720000 2.70650000
-3.74860000 0.86170000 2.72430000
-3.69840000 0.95360000 2.74680000
-3.77610000 0.90120000 2.76320000
-3.83620000 0.82260000 2.73860000
-3.86040000 0.86030000 2.77770000
-3.89500000 0.70490000 2.66600000
-3.88060000 0.64680000 2.62150000
-3.91070000 0.74530000 2.70560000
-3.99360000 0.68020000 2.67460000
-3.98440000 0.63970000 2.65620000
-4.00730000 0.72880000 2.70790000
-3.92880000 0.78940000 2.74700000
-3.94600000 0.83620000 2.78970000
-4.01370000 0.76470000 2.73690000
-4.02580000 0.80820000 2.77520000
5.90060000 -1.85040000 2.96050000
5.92660000 -1.78100000 2.96010000
5.93840000 -1.79740000 3.02000000
5.94800000 -1.84780000 2.91060000
5.97500000 -1.78170000 2.90810000
5.95670000 -1.72480000 2.96520000
5.96050000 -1.74340000 3.01790000
5.99720000 -1.71540000 2.90510000
6.01790000 -1.85020000 2.86590000
6.01780000 -1.77640000 2.85380000
6.03420000 -1.70480000 2.85180000
5.97880000 -1.66300000 2.96160000
5.98970000 -1.69100000 3.01820000
6.01960000 -1.64580000 2.90250000
6.05960000 -1.63020000 2.84680000
-3.02890000 -3.08040000 -0.41870000
-3.09350000 -3.01770000 -0.40600000
-3.11120000 -3.03040000 -0.48070000
-3.05450000 -3.09790000 -0.49060000
-3.16010000 -2.96480000 -0.37650000
-3.17290000 -2.96760000 -0.46910000
-3.15810000 -3.07730000 -0.53260000
-3.11260000 -3.15170000 -0.53330000
-3.23110000 -3.02660000 -0.53520000
-3.23370000 -2.91510000 -0.35530000
-3.23890000 -2.90820000 -0.44920000
-3.30870000 -2.86610000 -0.32910000
-3.30450000 -2.84710000 -0.41850000
-3.28360000 -2.94960000 -0.51290000
-3.34560000 -2.88840000 -0.49910000
-3.21460000 -3.12950000 -0.56510000
-3.16630000 -3.19600000 -0.56180000
-3.27240000 -3.07410000 -0.56330000
-3.25820000 -3.17590000 -0.59330000
-3.21780000 -3.24200000 -0.59000000
-3.31240000 -3.10980000 -0.59470000
-3.33060000 -3.00680000 -0.55130000
-3.38470000 -2.94920000 -0.53690000
-3.36670000 -3.05090000 -0.58150000
-3.42200000 -2.99370000 -0.56750000
1.12030000 -2.99710000 2.56400000
1.23530000 -2.98450000 2.56660000
1.21240000 -2.93010000 2.56300000
1.11420000 -2.93760000 2.55810000
1.31540000 -2.96910000 2.55890000
1.30130000 -2.92600000 2.55800000
1.20400000 -2.87660000 2.55240000
1.10790000 -2.88550000 2.53890000
1.29470000 -2.88190000 2.54690000
1.40390000 -2.95790000 2.56520000
1.39930000 -2.91190000 2.56500000
1.49690000 -2.94930000 2.58780000
1.48930000 -2.89720000 2.58760000
1.38790000 -2.86260000 2.55300000
1.48040000 -2.84660000 2.58030000
1.19800000 -2.82910000 2.53430000
1.10410000 -2.83290000 2.51570000
1.28810000 -2.82720000 2.53260000
1.19010000 -2.76780000 2.50690000
1.10800000 -2.76710000 2.48640000
1.28380000 -2.76680000 2.53100000
1.38270000 -2.80820000 2.53500000
1.47130000 -2.79010000 2.56510000
1.37250000 -2.75170000 2.54920000
1.46490000 -2.74880000 2.57870000
6.46030000 -2.78570000 -1.54840000
6.43630000 -2.74350000 -1.50810000
6.49160000 -2.71930000 -1.50860000
6.51380000 -2.76360000 -1.54010000
6.42340000 -2.73950000 -1.45780000
6.48080000 -2.72460000 -1.45230000
6.55020000 -2.70810000 -1.49180000
6.56090000 -2.74540000 -1.53120000
6.53190000 -2.69320000 -1.44880000
6.40300000 -2.71050000 -1.42160000
6.46080000 -2.69190000 -1.41350000
