3.30859000 1.16283000 0.41758300
-2.53711000 1.34794000 -1.87952000
-2.54097000 1.31963000 -1.78725000
-3.87762000 1.41738000 0.59237700
-3.78946000 1.43735000 0.57832200
-5.68127000 -0.30789000 -0.69830300
-5.64446000 -0.30621000 -0.72809300
-5.63313000 -0.29811800 -0.66726700
-5.57589000 -0.29327500 -0.77125900
-5.70981000 -0.29252000 -0.64600200
-5.81842000 -0.28196800 -0.07515300
-5.82958000 -0.28200200 -0.06187830
-5.86616000 -0.26817600 -0.06866410
-5.78339000 -0.27623400 -0.03175770
-5.91309000 -0.22415300 -0.17076500
-5.96507000 -0.23003100 -0.05220840
-5.72808000 -0.26066000 0.03094330
-5.77623000 -0.25025300 0.06532200
-5.67854000 -0.25972700 0.00819388
-5.66029000 -0.26654700 -0.04607580
-6.06757000 -0.42228100 -1.38030000
-6.17007000 -0.40925300 -1.44045000
-6.11255000 -0.50239600 -1.46559000
-5.48663000 -0.21801100 -0.06500820
-5.47595000 -0.18523600 0.01267250
-5.57282000 -0.23244000 -0.00303665
-5.40515000 -0.14128100 -0.02532810
-5.32035000 -0.02662590 -0.05730620
-5.35172000 -0.07542440 -0.06857920
-5.29766000 -0.01843200 -0.19537200
-5.67893000 -0.39234700 -1.27171000
-5.86685000 -0.38438300 -1.28026000
-5.81323000 -0.45499800 -1.31248000
-5.24239000 0.11223700 -0.18923100
-5.25831000 0.09083670 -0.13404500
-5.23354000 0.12191600 -0.28101800
-1.75454000 0.97190800 -0.98482600
-5.59052000 -0.33801900 -1.25930000
-5.64653000 -0.33322600 -1.24437000
-5.54926000 -0.37581500 -1.28763000
-6.50183000 -0.27110200 -1.56350000
-6.61299000 -0.23389800 -1.62167000
-6.53654000 -0.30869500 -1.71633000
-6.43127000 -0.34501600 -1.63149000
-6.63387000 -0.24377200 -1.69271000
-6.37211000 -0.27812500 -1.43944000
-3.85930000 1.20815000 0.86358900
-3.88074000 0.97742100 0.93696100
-3.91449000 1.13713000 0.82422300
-5.49606000 -0.33386200 -1.29082000
-5.44015000 -0.29042400 -1.30236000
-5.50853000 -0.26485900 -1.26359000
-0.30960300 0.76534700 0.26452000
-0.16895000 0.78867300 0.41676800
-0.28281600 0.80711400 0.42957700
-3.76588000 1.57256000 -2.28744000
-0.02830540 0.76583900 0.40565600
-0.06488090 0.74326800 0.32736500
0.01074700 0.76866400 0.41324800
0.09844530 0.72210400 0.33764600
-4.88973000 0.17395500 -1.47399000
-1.16775000 1.00995000 0.74334400
-1.22712000 0.97790400 0.61009600
-0.85976300 0.93569700 0.61375200
-4.72014000 0.38651200 -1.51866000
-4.63274000 0.41033000 -1.58620000
-4.63019000 0.48242100 -1.55612000
0.75945200 0.79646900 0.68308600
0.76832400 0.81573200 0.59826400
0.86088300 0.75393000 0.58480200
0.73338600 0.83014300 0.55201800
0.63234500 0.86977200 0.55581000
0.45691500 0.82748000 0.47982500
0.70529300 0.79670600 0.48378700
0.73422600 0.81647800 0.51988700
2.68339000 1.03514000 1.14557000
2.65086000 0.94963300 1.12562000
2.69717000 0.99172200 1.05430000
2.77688000 1.10645000 1.07445000
0.07969100 1.23725000 0.80029400
-0.05168250 1.31884000 0.86252900
-0.15820300 1.19294000 0.78757100
0.36223600 1.24545000 0.82010100
0.25166100 1.26483000 0.82592800
0.38070100 1.06786000 0.69119500
-5.96910000 -0.16464100 -0.47312400
-5.95671000 -0.18101200 -0.52097300
-5.88872000 -0.21468600 -0.50562800
-5.78030000 -0.23469600 -0.47349800
-5.85788000 -0.19415100 -0.40918500
3.57265000 1.56774000 0.96810800
3.50108000 1.50720000 0.98187400
3.52718000 1.49218000 0.94055700
3.60534000 1.59012000 0.93222800
3.60040000 1.62324000 0.98042400
3.65418000 1.69255000 0.87251200
-5.52664000 -0.20581400 -0.35902900
-5.49949000 -0.20322700 -0.36688400
-5.49318000 -0.21097100 -0.32563500
-5.45862000 -0.19242900 -0.34134400
-5.66834000 -0.20339600 -0.40955000
-5.70105000 -0.21673900 -0.41580100
-5.66328000 -0.21729900 -0.42793100
-5.61953000 -0.20304000 -0.43074700
-5.64666000 -0.22213400 -0.43707500
-5.65216000 -0.18996900 -0.40792100
-5.66573000 -0.19189400 -0.38846300
-5.63705000 -0.19097800 -0.39373000
-5.58453000 -0.19857800 -0.39711500
-5.50330000 -0.20718800 -0.41050000
-5.41593000 -0.15850000 -0.40584300
-5.36178000 -0.11530800 -0.31498900
-5.42221000 -0.17556600 -0.28061900
-5.34376000 -0.06575450 -0.39205100
-5.38192000 -0.10144800 -0.43289300
-5.35771000 -0.05910440 -0.44558200
-3.96005000 1.43943000 -1.96585000
-3.99569000 1.36312000 -1.97528000
-3.92937000 1.44781000 -2.01298000
-2.78622000 1.32347000 -1.60613000
-6.47920000 -0.09685040 -1.09177000
-6.64844000 -0.07952960 -1.17105000
-6.56999000 -0.14150100 -1.28213000
-3.41836000 1.62265000 -1.97315000
-3.32279000 1.65121000 -2.03086000
-6.37714000 -0.09903890 -1.05823000
-6.46446000 -0.04678810 -0.98632700
-6.39949000 -0.13415500 -1.12459000
3.46920000 1.30993000 0.20993700
-5.71337000 -0.29507300 -0.74994300
-5.80410000 -0.26851500 -0.69269700
-5.79685000 -0.24490000 -0.80482400
-6.98188000 0.18825600 -0.72365700
-6.98560000 0.15533600 -0.78906400
-6.84768000 0.12792100 -0.78565400
-5.90295000 -0.20852000 -0.74721200
-5.93320000 -0.18376800 -0.83864300
-5.98864000 -0.15028900 -0.92586600
-5.84901000 -0.17996800 -0.94409400
3.75545000 1.82742000 -0.18151200
-5.52120000 -0.26970200 -0.72716000
-5.54835000 -0.25119400 -0.55285800
-0.41697200 0.93483100 0.61896900
-0.47469400 0.88761100 0.56106900
-0.25465500 0.84233200 0.50766400
-5.27661000 0.09597710 -0.93930200
-5.26323000 0.07455940 -0.83027900
-5.34645000 -0.02471720 -0.90535600
-5.23216000 0.15297000 -0.89005400
-5.18992000 0.25533400 -0.99008500
-5.19563000 0.24049800 -0.86866100
-5.22725000 0.19278500 -0.97174600
0.50316000 1.07135000 0.70814300
0.54776000 0.95271200 0.61195400
-5.12897000 0.39447700 -0.96996500
-5.16753000 0.32163100 -0.94698700
-5.10971000 0.37040400 -1.05351000
-5.06818000 0.45474300 -1.02715000
-6.73028000 0.14697200 -0.71997600
-6.66212000 0.21776600 -0.62600900
-6.78607000 0.17217300 -0.68540200
-5.01460000 0.53734400 -1.04352000
-4.99687000 0.46980800 -1.15871000
-3.66705000 1.30194000 1.08260000
-3.65953000 1.17163000 1.15052000
-4.85702000 0.68591900 -1.12224000
-4.94116000 0.61256500 -1.09739000
-4.88283000 0.62780700 -1.16772000
-1.06135000 0.82424800 -0.54674200
-1.07459000 0.83989000 -0.77712000
-0.86757600 0.78514500 -0.55619100
0.58575200 1.01993000 0.73625300
0.56020300 1.06000000 0.71525100
0.55986400 1.03043000 0.68765800
-6.20851000 0.16924700 -0.40181400
-6.18540000 0.11762400 -0.49639100
-6.17088000 0.05622910 -0.39709800
-2.27636000 1.10351000 -1.19104000
-2.44033000 1.16461000 -1.32558000
-2.29374000 1.14813000 -1.39136000
-6.23939000 0.18773800 -0.58501400
-6.25882000 0.24251700 -0.52680900
-6.28023000 0.23089600 -0.57641300
-6.19128000 0.10495100 -0.64608600
-5.21118000 0.16864500 -0.20705200
-5.17208000 0.27080500 -0.35013100
-5.16802000 0.27329900 -0.17856000
-5.13403000 0.33633900 -0.27360400
-5.12005000 0.36753700 -0.37291500
-5.07103000 0.42371500 -0.46610900
-5.06964000 0.42502100 -0.31992600
-4.98030000 0.49958900 -0.37867400
-3.82501000 1.52487000 -2.12714000
-3.83528000 1.55421000 -2.05315000
-3.88028000 1.50238000 -2.03741000
-3.79416000 1.57765000 -2.08175000
-3.82409000 1.56818000 -2.03592000
-3.78624000 1.56426000 -2.16996000
-3.74805000 1.61546000 -2.11332000
-3.71359000 1.65126000 -2.13221000
-3.71892000 1.63663000 -2.09714000
-3.68466000 1.68806000 -2.14661000
-3.66482000 1.64044000 -2.06252000
-3.63326000 1.67452000 -2.09021000
-3.69215000 1.71479000 -2.19469000
-3.64913000 1.74619000 -2.17412000
-3.71009000 1.74387000 -2.31017000
-3.59050000 1.70409000 -2.09628000
-3.67171000 1.80122000 -2.24722000
2.85125000 1.34380000 1.27433000
2.86465000 1.30592000 1.24057000
2.91167000 1.35575000 1.24033000
-3.64930000 1.02986000 1.22781000
-3.42245000 1.66516000 -2.03831000
-3.47905000 1.68367000 -2.05446000
3.09977000 1.48066000 1.22355000
3.02295000 1.45865000 1.24435000
3.10250000 1.42352000 1.17009000
-3.38487000 1.68170000 -2.05674000
-3.42786000 1.73329000 -2.09160000
-3.41889000 1.69826000 -2.06973000
-7.11556000 0.09635030 -1.09298000
-6.83268000 0.02373360 -1.01652000
-6.97833000 0.11907400 -0.87673600
-3.65071000 0.84359600 -0.87039200
-3.56831000 0.78291400 -0.85477600
-3.65354000 0.72679500 -0.76360800
-3.38405000 0.56977100 -0.55751400
-3.40081000 0.59529500 -0.65308400
-3.34907000 0.55988100 -0.59057000
-3.53668000 0.64222700 -0.68580900
-3.45806000 0.59330100 -0.58391100
-6.67497000 0.04893440 -0.88623700
-6.68245000 -0.02389440 -1.03805000
-6.55050000 -0.01763450 -0.96519000
-6.46472000 0.03889140 -0.86586200
-3.30318000 0.55212000 -0.55669200
-3.33991000 0.55290000 -0.54625800
-6.63377000 0.10509600 -0.78172600
-3.33019000 0.56631100 -0.49427900
-3.24217000 0.56192500 -0.48033400
-6.43693000 0.17398000 -0.68640300
-3.17447000 0.57928000 -0.49084400
-3.18519000 0.55738700 -0.56155200
-3.11851000 0.63919000 -0.52486600
-6.03263000 -0.10939600 -0.58621000
-6.06411000 -0.08407620 -0.68196600
-5.91277000 -0.20688300 -0.59624500
-6.02085000 -0.12228900 -0.51551000
-3.11982000 0.63331200 -0.57754100
-3.09631000 0.66580800 -0.57293500
-3.11881000 0.64962400 -0.61308200
-4.72399000 0.67490900 -0.26511300
-3.08822000 0.72564200 -0.60070600
-3.08366000 0.69282400 -0.55374000
-6.22772000 0.10930300 -0.74495600
-4.20068000 0.81504500 -0.26152500
-3.99957000 0.88833200 -0.19775600
-3.69412000 0.97690400 -0.93797800
-5.24306000 0.11370500 -0.45896700
-5.20115000 0.19533000 -0.43910200
-3.04575000 0.84410500 -0.59924700
-3.15411000 0.63123400 -0.71120500
-3.54280000 0.91265000 -0.14110200
-3.48240000 0.91206500 -0.13971100
-3.44488000 0.92465300 -0.13794700
-2.97441000 0.99569200 -0.70653900
-2.99474000 0.96868400 -0.64701900
-3.03603000 0.89857800 -0.70590300
-2.96747000 0.98431700 -0.80015000
-2.93929000 1.02239000 -0.77399900
-2.92673000 1.03487000 -0.80597700
-2.91657000 1.05690000 -0.78891900
-2.90661000 1.07171000 -0.73645600
-2.89559000 1.08444000 -0.78431300
-2.91093000 1.08035000 -0.83185700
-3.19898000 1.05807000 -0.14354500
-2.89642000 1.11081000 -0.85890700
-2.85949000 1.11742000 -0.80793600
-2.86434000 1.13502000 -0.86057800
-2.80877000 1.14482000 -0.84575900
-2.88278000 1.13148000 -0.87835600
-3.16319000 1.05827000 -0.15719300
-3.18030000 1.06984000 -0.14667500
-2.67866000 1.13994000 -0.84864300
-2.78085000 1.13405000 -0.74965500
-4.82632000 0.59168100 -0.65095500
-3.17422000 1.10323000 -0.13117800
-3.02474000 1.10812000 -0.18589700
-3.04432000 1.14296000 -0.14239200
-3.00689000 1.16611000 -0.14212900
-2.62537000 1.14718000 -0.23437400
-2.65823000 1.16927000 -0.07929210
-2.83942000 1.18913000 -0.10361100
-7.49392000 0.65384800 -0.44746500
-4.75053000 0.74524400 -1.21297000
-4.64001000 0.82209400 -1.28981000
-4.71665000 0.80392500 -1.11010000
-4.62851000 0.88175000 -1.15859000
-2.91055000 1.18100000 -0.16559900
-4.73694000 0.71682000 -0.84355400
-7.05719000 0.57786400 -0.27938100
-7.08922000 0.58705000 -0.27354500
-4.56978000 0.91086100 -1.29065000
-4.52959000 0.97602200 -1.13927000
-4.48865000 1.00652000 -1.29178000
-2.46490000 1.11843000 -0.10879300
-2.36501000 1.10044000 -0.01186650
0.02120570 0.67157600 0.12515600
-0.23909000 0.70454600 0.06157290
-0.22584900 0.67731800 -0.09143880
0.33027400 0.64429700 0.22054800
0.27501200 0.68719100 0.30711800
0.20337100 0.65814000 0.21632400
0.39264500 0.70303600 0.33850200
-4.34188000 1.14654000 -1.31267000
-4.41238000 1.09837000 -1.23666000
-4.41554000 1.07946000 -1.35889000
-4.25311000 1.21254000 -1.31925000
-4.29193000 1.18771000 -1.34716000
-4.26041000 1.21846000 -1.37477000
-4.20873000 1.25393000 -1.38077000
-4.23521000 1.24555000 -1.41806000
-4.21199000 1.23629000 -1.33665000
-2.29322000 1.10834000 0.15631200
-2.22245000 1.07196000 0.00336763
-4.12975000 1.24687000 -1.29071000
-4.18476000 1.27200000 -1.43315000
-6.05296000 -0.08740980 0.12464700
-6.02382000 -0.06647560 0.16668500
-3.94941000 1.32761000 -1.37219000
-6.87296000 0.51279600 -0.18582100
-6.73080000 0.48103800 -0.25925200
-6.16440000 0.11518100 -0.07298150
3.42886000 1.28828000 0.31957800
3.45187000 1.36055000 0.39365400
3.37879000 1.24393000 0.39765800
-6.76298000 0.48301500 -0.18716100
-6.10456000 -0.02483610 0.05790000
-6.80474000 0.49133600 -0.17096000
-6.68406000 0.44733800 -0.16119700
1.03427000 0.68541000 0.53643600
0.98826100 0.70291800 0.52193200
1.08271000 0.65897100 0.44995900
3.62159000 1.59953000 0.18881600
3.61703000 1.61648000 0.38590100
3.53497000 1.47818000 0.37204100
-6.15816000 0.08964920 -0.00257013
-3.48593000 1.16233000 -1.04492000
3.83252000 1.99770000 0.08718970
3.80898000 1.98874000 0.17153700
3.79841000 1.94421000 0.11580900
-3.54532000 1.23117000 -1.09941000
2.64908000 0.89670400 0.78889400
2.64768000 0.87554000 0.92247300
2.70450000 0.95599500 0.83527500
2.70602000 0.95797100 0.75272600
2.67517000 0.93414400 0.72300400
2.76184000 1.01013000 0.82512200
2.80276000 1.05001000 0.86533600
3.06909000 1.17952000 0.77667100
3.19612000 1.27147000 0.81627500
-4.63735000 0.67552000 -0.68566500
-4.53186000 0.70258700 -0.67589300
3.39953000 1.39389000 0.79367800
-4.48635000 0.89507500 0.23174400
3.47585000 1.44184000 0.80050600
-0.72286000 0.78719800 0.04251330
-0.83188200 0.82591900 0.17884000
-1.00476000 0.84347700 0.08088710
-4.38255000 0.74763600 -0.68786100
-5.81692000 -0.11993900 0.25619900
-5.72933000 -0.11859900 0.29428400
-4.38400000 1.08888000 0.16968000
-5.64655000 -0.12114400 0.29685400
-7.02193000 -0.05441350 -1.74888000
-6.76256000 -0.15563300 -1.57974000
-5.60097000 -0.12213600 0.28618300
-4.32363000 0.75755200 -0.69119500
-4.34890000 0.72141800 -0.60808600
-4.26782000 1.19023000 0.18004500
-5.56313000 -0.11959200 0.29032300
-4.07507000 1.31269000 0.12949900
-4.15546000 0.71227400 -0.55333300
-4.01312000 1.32173000 0.09614680
-3.93822000 1.28380000 0.02392870
-3.94813000 1.34528000 0.11519800
-3.89809000 1.33808000 0.09520530
-3.30430000 0.71457200 -0.26186500
-3.12066000 0.77293900 -0.24408600
-3.09249000 0.79780900 -0.25780200
-3.03036000 0.91117500 -0.29385100
-3.01310000 0.90037700 -0.33663600
-3.81829000 1.37246000 0.20684100
-2.98730000 0.94858100 -0.35401600
-3.01696000 0.86753300 -0.41497000
-3.82722000 1.31977000 0.05790870
-3.68352000 1.33074000 0.08272790
-2.85181000 1.15296000 -0.48574600
-2.39679000 1.20699000 0.64650200
-2.78384000 1.32216000 0.75041900
-2.58291000 1.24390000 0.54788700
-6.38446000 -0.18576200 -1.23103000
-6.30795000 -0.24775000 -1.31723000
-6.21422000 -0.21549200 -1.20285000
-2.46404000 1.30276000 0.99112000
-2.24570000 1.21814000 0.85974700
-6.04757000 -0.21755300 -1.14178000
-6.12886000 -0.23949700 -1.20009000
-5.87403000 -0.19718700 -1.10312000
-5.92631000 -0.17733900 -1.07742000
-2.10382000 1.13870000 0.65324600
-2.06800000 1.16909000 0.83908400
-5.86302000 -0.17140100 -1.04760000
-5.82492000 -0.18356500 -1.09092000
-5.70441000 -0.15115400 -1.11847000
-5.72510000 -0.15321500 -1.09269000
-5.66949000 -0.14387600 -1.11938000
-5.65502000 -0.16450500 -1.15745000
-5.63197000 -0.12407000 -1.11130000
-6.56325000 -0.19861200 -1.44602000
-6.68463000 -0.15520000 -1.42903000
-5.61214000 -0.10987900 -1.12236000
-5.58442000 -0.09372900 -1.12098000
-5.54577000 -0.07885950 -1.11371000
-5.50506000 -0.05847660 -1.10827000
-5.47265000 -0.03639730 -1.11394000
-5.48520000 -0.04655060 -1.08051000
-5.13127000 0.14935600 -1.26710000
-5.14400000 0.22684200 -1.18520000
-4.90035000 0.40939700 -1.32521000
-4.80283000 0.62808700 -1.27831000
-4.73605000 0.50445800 -1.43669000
-4.72589000 0.69678500 -1.31509000
3.71356000 1.87003000 0.88821300
3.70924000 1.79621000 0.76611900
-1.21394000 1.08815000 0.86576100
-1.22870000 1.04333000 0.80903100
-1.13066000 1.04089000 0.81102400
-1.39539000 1.07234000 0.83480900
-1.44870000 1.03705000 0.68877800
-1.33097000 1.05665000 0.82233100
-1.14935000 1.08876000 0.86603200
-1.10858000 1.09901000 0.87093500
-0.15522600 1.64114000 1.08334000
-0.17910300 1.81577000 1.17858000
-0.32650000 1.69566000 1.13525000
-4.59175000 0.82977000 -1.37845000
-4.55066000 0.87516700 -1.39693000
-4.45103000 0.91919100 -1.49712000
-4.29466000 1.14010000 -1.51923000
-4.17738000 1.26153000 -1.64939000
-4.18207000 1.27418000 -1.59372000
-4.15700000 1.24070000 -1.73491000
-4.04691000 1.39998000 -1.67588000
-3.74427000 1.45332000 -1.60822000
-3.54704000 1.41830000 -1.50364000
-3.58007000 1.49838000 -1.69124000
-7.54596000 0.47253900 -0.67230500
-2.45765000 1.12781000 -1.08094000
-2.24498000 1.06985000 -1.01837000
-1.72628000 0.95026100 -0.75190300
-2.05917000 1.01169000 -0.52390800
-2.04900000 1.01978000 -0.92954700
1.67337000 0.61879000 0.15545500
-1.57028000 0.91068300 -0.52581600
-1.70269000 0.93794500 -0.42341000
-1.40540000 0.87951000 -0.65962400
-6.25021000 0.27825300 -0.19434600
-6.38411000 0.41320600 -0.33567700
-6.32006000 0.36799500 -0.29087400
-6.27609000 0.31738100 -0.34474500
-6.45958000 0.42201900 -0.31571000
1.97888000 0.65480600 0.22430500
-4.92417000 0.54021900 0.00728636
-0.69186500 0.77227700 -0.06578840
-4.90681000 0.54810800 0.01701550
3.22108000 1.06246000 0.40171200
-1.41572000 0.87622800 -0.56744700
-6.25541000 -0.51284700 -1.59503000
-6.31700000 -0.42377400 -1.60151000
-6.39669000 -0.40921900 -1.69200000
-6.16683000 -0.57446200 -1.53977000
-5.96972000 -0.61705100 -1.43330000
-4.72973000 0.73016300 0.00014428
-4.80114000 0.64041200 0.01987410
-5.77873000 -0.59257200 -1.35990000
-6.12653000 -0.05748440 -0.22639200
-6.11955000 -0.02559090 -0.33164000
-6.03259000 -0.12321400 -0.26866800
-4.59308000 0.82877800 -0.14134000
-4.54353000 0.87901800 -0.11960800
-4.52540000 0.84067800 -0.18238600
-4.54346000 0.90077500 -0.08000470
-5.60605000 -0.56760000 -1.35505000
-4.43863000 0.96808200 -0.09799560
-4.28075000 0.99328300 -0.11975300
-4.36393000 1.00903000 -0.09717280
-6.46843000 -0.39038800 -1.78466000
-4.15281000 1.07604000 -0.08508550
-4.24317000 1.07464000 -0.07517820
-4.02991000 1.12889000 -0.07314250
-4.12013000 1.14199000 -0.04721220
-3.99938000 0.99893200 -0.13648000
-3.94601000 1.19596000 -0.05454090
-5.44321000 -0.46162200 -1.37499000
1.19207000 0.61410800 0.28807500
-5.65848000 -0.21975900 0.08815620
-5.83442000 -0.26737800 0.03302140
1.44554000 0.67413700 0.29305400
-5.50162000 -0.16213900 0.08899600
1.37638000 0.69448600 0.30118900
-5.42454000 -0.12352700 0.06153040
1.39840000 0.68446900 0.33108000
-3.19947000 1.24761000 0.05371840
-3.09750000 1.25323000 0.11278900
-3.12440000 1.21448000 0.01269810
-4.77615000 0.12474100 -1.60282000
-5.37915000 -0.06819750 0.06128440
-2.97027000 1.26953000 0.26116100
-5.33648000 -0.02267310 0.03031570
-5.30111000 0.04773820 -0.00765949
-2.22205000 1.13986000 0.47108900
3.59229000 1.54646000 0.69330800
3.60810000 1.59239000 0.60649100
2.43574000 0.49346500 0.82793800
2.43457000 0.44323300 0.89976600
2.39570000 0.42012700 0.82575000
3.74780000 1.88542000 0.58252900
3.69714000 1.76265000 0.63196400
-1.93910000 1.10747000 0.67607100
3.75574000 1.85864000 0.13670900
3.78585000 1.97980000 0.47175900
-1.72547000 1.07045000 0.62321000
2.41481000 0.67441700 0.61279400
2.44368000 0.70690400 0.62484700
2.49403000 0.79858100 0.55971100
-5.65991000 -0.27659000 -0.57502200
-0.82159300 0.97731100 0.70356200
-0.87152800 0.97325600 0.70581900
-0.66294900 0.95644400 0.65814000
-0.61709400 1.08699000 0.77152200
3.25283000 1.20430000 0.55872800
3.37482000 1.29076000 0.48069900
-6.65296000 -0.25700400 -1.82750000
-6.76769000 -0.19611800 -2.00393000
-6.78532000 -0.18011200 -1.82854000
-6.90206000 -0.12605500 -1.85853000
-4.39710000 0.60651700 -1.81589000
-0.31804300 1.02476000 0.68228900
-0.44202800 1.29621000 0.89825600
0.18757700 1.14646000 0.73173200
-2.59525000 1.35276000 -1.86529000
-2.65712000 1.34342000 -1.77306000
-2.65614000 1.36445000 -1.85061000
-6.11390000 -0.33393800 -1.31765000
-5.92786000 -0.16422500 -0.38708900
-6.27448000 -0.34999500 -1.46904000
-6.24978000 -0.44459800 -1.54646000
0.51644300 1.25160000 0.86020500
0.48886700 1.30057000 0.89303100
0.44329200 1.26025000 0.85003500
0.52479000 1.27965000 0.89127500
-0.44132400 0.83188200 0.43518300
-0.07304940 0.78416100 0.43227400
-5.98003000 -0.44178200 -1.35332000
-5.99397000 -0.35285400 -1.28878000
-5.88946000 -0.49438100 -1.34939000
-5.54881000 -0.20545800 -0.37227000
-5.55760000 -0.21285400 -0.33495700
-5.52198000 -0.22490800 -0.29450500
-5.68925000 -0.20121600 -0.38116800
-5.72282000 -0.20578000 -0.36763000
-5.77767000 -0.20731500 -0.37747000
-5.72914000 -0.29140800 -1.21029000
-5.66426000 -0.21377900 -0.32543100
-5.59169000 -0.29922100 -1.23968000
-0.71806700 0.75758600 -0.67668200
-5.47447000 -0.21057200 -0.26809100
-0.23873400 1.40401000 0.94501000
-5.57721000 -0.25731800 -1.22587000
-5.38799000 -0.23364400 -1.30609000
-5.31353000 -0.03172360 -0.36965800
-5.31886000 -0.06253970 -0.28372400
-4.83478000 0.29963700 -1.45012000
-4.61280000 0.57355500 -1.53135000
-4.52428000 0.59056200 -1.64019000
-7.47031000 0.31511700 -0.88210600
-7.38113000 0.22869100 -1.01088000
-3.72582000 1.75529000 -2.41505000
3.38202000 1.47744000 1.07347000
3.29340000 1.40429000 1.01539000
3.43648000 1.47184000 0.99777000
3.54148000 1.62050000 1.07784000
3.62470000 1.68095000 0.96927800
-0.62543200 0.89606800 0.55468200
-6.91067000 0.20653500 -0.65037000
-6.80199000 0.22053100 -0.61304800
-1.80515000 1.24022000 1.02675000
-1.81034000 1.18053000 0.95890400
-1.69448000 1.16201000 0.93020900
-1.61476000 1.21957000 1.00009000
-6.43042000 0.29680300 -0.53424800
-6.34495000 0.22817300 -0.60918000
-6.15654000 0.02453080 -0.33542300
-6.17499000 0.05097010 -0.32932400
-6.23317000 0.22193000 -0.44406400
0.20394800 1.02837000 0.64468700
0.27906700 0.94466200 0.58093400
-6.30724000 0.28151000 -0.52683400
-5.21211000 0.19550800 -0.11266200
-5.08607000 0.40418000 -0.15078900
-4.87004000 0.56660800 -0.39647000
-4.86969000 0.58348700 -0.29838900
-4.77292000 0.60408200 -0.40323000
0.55471500 1.08074000 0.73443800
-4.26847000 0.91328700 -1.77062000
-4.17686000 1.01367000 -1.88659000
-4.23523000 1.07016000 -1.71255000
-6.29046000 -0.03170660 -0.93649400
-6.28224000 -0.13727700 -1.08338000
-6.55030000 -0.06237000 -1.05002000
-6.01862000 -0.14486000 -0.84478400
-6.05679000 -0.11602000 -0.89538900
-6.04486000 -0.12038000 -0.95239000
-6.10093000 -0.10108300 -0.94415400
-6.04555000 -0.13066100 -0.98575900
-3.34962000 1.57411000 -1.90329000
-3.42694000 1.59369000 -1.91479000
3.15430000 1.49066000 1.21850000
3.10654000 1.55336000 1.27344000
-3.26669000 1.56741000 -1.90721000
-5.27821000 0.02031510 -0.70801600
-5.18047000 0.30271600 -0.88778000
-5.17553000 0.32314900 -0.88956200
-5.14845000 0.38478200 -0.91489800
-4.95238000 0.63146300 -0.99888100
-4.88593000 0.68470600 -1.05542000
-4.80823000 0.73949300 -1.03992000
-4.80551000 0.71659100 -1.16397000
-4.62681000 0.71402100 -0.28773600
-4.52250000 0.76876600 -0.26050700
-4.28274000 0.79826700 -0.27628500
-4.14909000 0.90508400 -0.18506600
-3.88637000 0.92408500 -0.16923000
-3.77416000 0.90648400 -0.17316500
-3.61063000 0.95770000 -0.12860000
-3.49346000 0.98893100 -0.11759000
-3.41104000 0.97900700 -0.11704700
-6.11706000 -0.00246826 -0.55399400
-3.35993000 1.03437000 -0.11017600
-3.29095000 1.02402000 -0.12581700
3.72964000 1.78988000 0.01026380
-6.82144000 0.47019800 -0.12619900
-6.95399000 0.54794700 -0.26159300
-2.94829000 1.18381000 -0.14537800
-5.32852000 -0.00992418 -0.45610000
-7.00692000 0.56302000 -0.26857400
-5.30680000 0.01296950 -0.42570800
-7.02101000 0.55698000 -0.18236000
-5.28593000 0.01726150 -0.37995500
-5.27086000 0.06157290 -0.42126400
-2.09254000 1.04799000 -1.14819000
-3.74621000 1.61263000 -2.04012000
-3.78372000 1.58991000 -2.01474000
-3.72676000 1.62705000 -2.06990000
-3.72154000 1.63186000 -2.08194000
-3.61258000 1.64747000 -2.04078000
-4.93553000 0.53107500 -0.57149300
-3.53426000 0.69703100 -0.78360100
-3.53962000 1.64633000 -2.01240000
-3.52777000 1.68217000 -2.05690000
-3.76689000 0.87378500 -0.86878000
-3.74570000 0.78201500 -0.79751200
-3.63667000 0.63706100 -0.60549900
-3.55833000 0.61217400 -0.58431800
-3.60714000 0.61579600 -0.55610600
-3.50920000 0.60393800 -0.59388600
-3.50887000 0.60261500 -0.52786900
-3.17810000 0.58257100 -0.46159700
-3.19075000 0.58450500 -0.43686300
-3.12389000 0.64767300 -0.43209500
-3.07958000 0.71718500 -0.50744400
-3.66195000 0.67703800 -0.68496100
-4.39441000 1.06093000 0.21176900
-3.06851000 0.75418500 -0.55172900
-3.10920000 0.75446500 -0.77241300
-2.86002000 1.11100000 -0.75131700
-4.35029000 1.11757000 0.19496500
-2.77784000 1.14356000 -0.60422600
-2.71047000 1.14727000 -0.45220700
-4.20436000 1.25948000 0.22537400
-4.00162000 1.36163000 0.19257300
-3.47978000 1.42830000 0.58670200
-4.33313000 1.15925000 -1.25401000
-4.28028000 1.18228000 -1.25267000
-3.97329000 1.23580000 -1.14332000
-4.08317000 1.20312000 -1.12372000
-6.08224000 -0.02248650 0.10236400
-6.06072000 -0.06207330 0.13722600
-6.05665000 -0.03170670 0.14981400
-5.99367000 -0.05372670 0.19875700
-5.91352000 -0.09406840 0.26141500
-5.94515000 -0.07226900 0.24733500
-3.96909000 0.68161000 -0.43389400
-6.07063000 0.00121297 0.14048300
-3.68290000 1.24471000 -1.11121000
0.18437100 0.70933000 0.33551600
-4.77516000 0.59621100 -0.54547000
-3.67964000 1.15526000 -1.02932000
-3.58110000 1.14010000 -1.02558000
-3.53549000 1.16005000 -1.03760000
0.59666900 0.68208500 0.32585500
-3.60983000 1.20243000 -1.06298000
-4.24651000 0.71646400 -0.57504700
-4.45638000 0.70646300 -0.64303300
-4.22273000 0.70806600 -0.47303900
0.84607300 0.70414800 0.40982100
0.90713700 0.66751300 0.37515400
0.92022500 0.69234900 0.42928800
-3.68807000 0.72359800 -0.30987400
0.98583500 0.67334000 0.42036500
0.89527000 0.72107800 0.48657700
-0.97591100 1.41588000 1.07498000
-0.86192600 1.36652000 1.01955000
-0.73711000 1.48520000 1.07196000
-3.35738000 0.72828000 -0.26095700
-1.01519000 1.54731000 1.16423000
0.75995200 0.69564000 0.36608700
0.77679800 0.75479500 0.45436200
-3.11944000 0.85452100 -0.21717200
-3.06565000 0.91939400 -0.24918400
-1.90624000 0.98974600 -0.30335100
-3.00172000 0.98822800 -0.27426600
-2.95957000 1.03250000 -0.34086900
-5.87068000 -0.10910800 0.26662300
-5.74108000 -0.11211000 0.32743300
-5.81355000 -0.11268700 0.30612500
-5.70468000 -0.11778500 0.33927400
-5.66534000 -0.12130500 0.33108900
-2.89028000 1.12076000 -0.39205100
-2.80877000 1.15835000 -0.45236800
-2.25712000 1.06247000 -0.33269200
2.89648000 1.12487000 0.88402300
3.03943000 1.24624000 0.95616500
3.31824000 1.35452000 0.84739600
3.53147000 1.46641000 0.79532400
3.56245000 1.50422000 0.75026600
3.62260000 1.58326000 0.77321900
-6.72463000 -0.12240700 -1.38238000
-1.64522000 1.10363000 0.80733500
3.64725000 1.76184000 0.98167100
-1.48565000 1.10697000 0.87741500
-1.33749000 1.09982000 0.88088400
-3.12395000 1.64101000 1.33411000
3.85450000 2.05624000 0.11787900
-5.76454000 -0.15920400 -1.07606000
-5.74079000 -0.15729500 -1.03022000
-5.66132000 -0.14585300 -1.06642000
-5.60433000 -0.13516500 -1.05891000
-5.64268000 -0.15779600 -1.01338000
-5.55561000 -0.12910900 -1.02098000
-5.59391000 -0.15401300 -1.00205000
-5.53032000 -0.08291410 -1.07437000
-5.47151000 -0.06947810 -1.02865000
-5.44014000 -0.00622582 -1.09963000
-5.40312000 0.02738940 -1.09279000
-5.21656000 0.20019900 -1.11247000
-5.09849000 0.28459700 -1.18685000
-5.07478000 0.34982600 -1.15440000
3.73998000 1.86706000 0.67742900
-3.01726000 1.94876000 1.47168000
-3.12845000 1.71180000 1.57035000
-3.17028000 1.68536000 1.77716000
-3.15220000 0.68579200 -0.81525700
-3.17680000 0.66099800 -0.82589400
-3.17293000 0.70999200 -0.86830500
-3.14591000 0.71182400 -0.84406300
-3.14339000 0.72256300 -0.85458900
-3.14380000 0.74242000 -0.87730500
-3.15969000 0.75175900 -0.90329400
-3.17635000 0.76902000 -0.91592400
-3.13124000 0.80033700 -0.90717100
-3.16814000 0.80892900 -0.93763900
-3.13063000 0.84682800 -0.94582400
-3.16795000 0.85390200 -0.95695300
-3.10980000 0.92069200 -0.96804000
-4.50724000 0.93211700 -1.39120000
-4.46788000 0.97702300 -1.41947000
-6.07706000 -0.14673500 -0.08079370
-5.97418000 -0.18414200 -0.21100500
-4.24262000 1.19743000 -1.55276000
-4.27461000 1.18689000 -1.49538000
-5.93314000 -0.25282300 -0.02168070
-5.88527000 -0.26151700 0.00769342
-6.08740000 -0.10937900 -0.16576100
-6.15947000 -0.01301180 -0.23434000
-6.52844000 0.41646300 -0.37717300
-4.04686000 1.38759000 -1.62068000
-3.95398000 1.41360000 -1.59364000
-6.40117000 0.41796400 -0.30991700
-6.39033000 0.40227200 -0.27414700
-2.90286000 1.16038000 -1.00601000
-2.97954000 1.17713000 -1.06750000
-3.03193000 1.21557000 -1.13727000
0.81724200 0.48118300 0.01661690
0.78612900 0.49206500 0.04152930
0.70824500 0.50562800 0.00675198
1.03607000 0.49560200 0.08024240
1.57289000 0.62476200 0.17560000
1.62322000 0.63150500 0.19063900
1.77094000 0.62914700 0.17672000
-4.86078000 0.56413100 0.04683070
-4.83820000 0.63428800 -0.06743400
-1.22935000 0.83698900 -0.33875600
-1.13096000 0.82863400 -0.39625800
-4.73027000 0.68625800 0.07657810
-4.69949000 0.73980700 0.07049630
-4.68581000 0.77718000 0.03447210
-4.49921000 0.94431500 -0.05745030
-0.61059700 0.76677200 -0.01315590
-4.32579000 1.03999000 -0.09245660
-4.30895000 1.04755000 -0.09162540
-4.28756000 1.05305000 -0.08787620
-1.02648000 0.81366200 -0.33080900
-2.76602000 1.22354000 0.19418500
1.83718000 0.63243000 0.21146300
1.89942000 0.64031000 0.21844400
-3.66759000 1.28575000 0.00095018
2.02476000 0.66254200 0.27540300
0.02034900 1.30239000 0.84428300
0.16442900 1.33558000 0.87051100
2.28211000 0.70869400 0.35429600
3.37332000 1.18729000 0.33404100
-2.42887000 1.19173000 0.50306700
-5.78733000 -0.26503700 -0.57757500
-7.07743000 0.21927500 -0.73643100
-5.83332000 -0.59865300 -1.37325000
-7.53564000 0.27761700 -1.05184000
-7.63943000 0.38663900 -0.92463600
0.93844500 0.61625400 0.29081500
-5.70026000 -0.51724000 -1.32937000
1.15991000 0.63656900 0.32853600
1.20587000 0.64758800 0.31338600
1.25303000 0.67097300 0.29892400
0.83039800 0.59777100 0.24100700
-5.56430000 -0.46908700 -1.32235000
-0.71577700 0.86253700 0.42311300
3.63406000 1.60644000 0.69668300
1.29964000 0.70942300 0.33915500
1.35419000 0.70664100 0.33568600
-5.48613000 -0.40946500 -1.32122000
-5.41500000 -0.41955900 -1.37412000
-5.28243000 -0.04853540 -1.28143000
-5.54999000 -0.23417000 -0.24662200
-6.17134000 0.02884830 -0.27846500
-1.59033000 1.37318000 1.11686000
-1.39633000 1.27927000 1.03122000
-5.78310000 -0.20762100 -0.32541400
-6.26909000 0.27933800 -0.49280300
-6.33747000 0.32791600 -0.48523700
-5.39597000 -0.16124000 -0.23647700
-4.98744000 0.50516200 -0.23188000
2.47352000 0.71015300 0.67041400
2.52103000 0.80084500 0.63273500
-0.15273200 0.81580000 0.47812900
-4.81090000 0.63418600 -0.22760500
0.11250000 0.80561200 0.44995900
3.08852000 1.11956000 0.60304700
3.17375000 1.18234000 0.61638200
3.33456000 1.28169000 0.54492700
0.61305600 0.91955500 0.60155500
0.66918400 0.88918800 0.62930900
3.83494000 2.07639000 0.30960300
-0.10175300 0.85914400 0.51893700
-4.41981000 0.64959800 -1.73303000
-0.04303910 0.93461900 0.58266500
0.08661250 1.01003000 0.63567000
2.70621000 1.11151000 1.18365000
-4.22359000 0.86099400 -1.92105000
3.04809000 1.33144000 1.09448000
2.92193000 1.23498000 1.07515000
3.30599000 1.49030000 1.13263000
3.41463000 1.53168000 1.11516000
-4.67536000 0.72867000 -0.22721500
-2.58293000 1.31700000 -1.75274000
-4.44566000 0.80753000 -0.24182100
-4.36365000 0.83219600 -0.23042100
-5.79727000 -0.32068900 -1.22543000
0.54344200 1.10249000 0.75261500
0.51150700 1.14165000 0.77550100
-4.26578000 0.87375100 -0.20371900
-5.66010000 -0.23059900 -1.19169000
-6.93829000 0.50969200 -0.13574200
-6.88686000 -0.01209560 -1.18370000
-3.83206000 0.94526500 -0.15218900
-5.54376000 -0.20924100 -1.22312000
-3.68722000 0.94109100 -0.14491900
-5.43842000 -0.14572500 -1.23733000
-3.44176000 1.05274000 -0.09984470
-3.28398000 1.13521000 -0.10043800
-3.12987000 1.14133000 -0.10144800
-3.06782000 1.15575000 -0.09541690
-2.98471000 1.18804000 -0.10387400
-6.08859000 -0.08801190 -0.85812600
-5.36937000 -0.12826000 -0.72138400
-5.40731000 -0.17537900 -0.59158800
-5.44007000 -0.21879200 -0.69524100
-5.37239000 -0.13081400 -0.59319900
-4.40399000 0.96618200 0.27887200
-4.34107000 1.10786000 0.24122800
-4.33513000 1.03617000 0.31182600
-3.73758000 1.65046000 -2.29492000
-5.23512000 0.11969300 -0.76640800
-5.22878000 0.11255100 -0.69678500
-4.12113000 1.32703000 0.22669800
-5.16675000 0.31381900 -0.80594300
-5.16411000 0.35048800 -0.88761900
-5.10121000 0.44992600 -0.92578900
-5.04107000 0.53016800 -0.96194100
-6.14061000 0.01527670 -0.68642000
-4.29568000 1.00955000 -1.64667000
-4.39049000 0.78436500 -1.68066000
-6.21429000 0.11771700 -0.70372300
-2.98855000 1.35147000 0.69236600
-2.75570000 1.25552000 0.39684300
-5.26440000 0.04799280 -0.33549900
-5.24245000 0.11108400 -0.39803100
-4.04133000 1.24574000 -1.97540000
-4.09965000 1.31038000 -1.81265000
-4.04067000 1.36782000 -1.88725000
-3.96449000 1.46112000 -1.91671000
-3.91003000 1.49513000 -1.95837000
-5.09754000 0.39870100 -0.54726800
-3.83483000 1.55269000 -1.98422000
-5.08233000 0.44045100 -0.66087900
-5.12013000 0.40421400 -0.73477700
-5.04626000 0.46007000 -0.59099400
-2.18861000 1.23727000 0.96182200
-3.42213000 1.57602000 -1.87307000
-3.32470000 1.55562000 -1.85084000
-3.78968000 0.71911000 -0.69881200
-3.83885000 0.83335800 -0.82915900
-3.92272000 0.86435200 -0.84233200
-3.87979000 1.00123000 -0.92632400
-0.11765800 0.63310900 -0.28482600
-3.57101000 0.61335300 -0.50756200
-3.42799000 0.59140100 -0.49358400
-3.61414000 1.61900000 -1.96800000
-3.24678000 0.59015400 -0.39285600
-3.18783000 0.62527900 -0.36628200
-3.90042000 0.67749600 -0.42253600
-3.05275000 0.78904700 -0.52991300
-4.60595000 0.65507800 -0.58024700
-4.50094000 0.68230600 -0.56743000
-4.31929000 0.70771000 -0.53564700
-4.33714000 0.70318900 -0.48958800
-2.85551000 1.11812000 -0.67741100
-0.57650600 1.66665000 1.15708000
-0.49967400 1.75476000 1.19585000
-3.30246000 0.78318500 -0.22122600
-4.47013000 1.04413000 -1.19802000
-3.18530000 0.78942000 -0.21757900
-5.98128000 -0.04401450 0.23306700
-3.13032000 0.79506100 -0.22649400
-6.04416000 -0.01201090 0.17226700
-2.92635000 1.09683000 -0.33981700
-2.85449000 1.15041000 -0.41621700
-4.34075000 1.13956000 -1.17262000
-4.31892000 1.16614000 -1.22841000
-3.81049000 1.14933000 -1.01336000
-3.74893000 1.22241000 -1.07913000
-5.89783000 -0.10417100 0.32745800
-5.83978000 -0.11406100 0.34238700
-5.78659000 -0.12169500 0.36349900
-5.73423000 -0.11535100 0.34647600
3.57331000 1.55220000 0.49454200
2.54804000 0.64742600 1.09551000
2.51647000 0.55491000 1.11578000
2.48924000 0.51347400 1.01272000
2.59890000 0.78227800 1.06662000
2.72761000 0.99310500 0.94135500
-3.32077000 1.33905000 1.44484000
-3.29760000 1.44580000 1.39220000
2.80573000 1.07337000 0.93713900
-1.12955000 1.14446000 0.90916400
3.24941000 1.33803000 0.91908900
3.45405000 1.43780000 0.87772900
3.57385000 1.51269000 0.82363800
-6.83623000 -0.07219240 -1.35895000
-6.12854000 -0.16079000 -1.07129000
-5.95636000 -0.16607400 -1.06023000
-5.92917000 -0.15948400 -1.03256000
-5.88650000 -0.16259700 -0.99635300
-5.68715000 -0.15760900 -1.01934000
-5.66556000 -0.18747500 -0.96227200
-5.85781000 -0.24385700 0.07839320
-5.95057000 -0.23667200 0.02218960
-6.06661000 -0.15261300 0.00843986
-6.14497000 -0.04220780 -0.11813300
-6.15156000 -0.02896700 -0.19169100
-5.58120000 -0.21844400 -0.90732400
-5.53982000 -0.16203700 -0.96255200
3.78605000 2.03936000 0.71786400
3.74869000 1.98440000 0.88493900
-5.45419000 -0.12871800 -0.93937800
-5.41574000 -0.06871470 -0.97759100
-5.46818000 -0.03520130 -1.06740000
-5.38707000 -0.02564170 -1.00587000
-5.42468000 -0.00746423 -1.06055000
-7.35261000 0.43527700 -0.59121400
-5.37707000 0.04790810 -1.06676000
-5.35234000 -0.00142485 -0.97960900
-5.33377000 0.03050240 -0.98531800
-3.16594000 1.56442000 1.70853000
-5.29420000 0.14235800 -1.07686000
-5.26957000 0.11938800 0.03092640
-5.24541000 0.15279100 -0.02524330
-5.21558000 0.20164900 -0.00474159
-6.63579000 0.44119700 -0.34178500
-6.54899000 0.44074800 -0.32619400
-6.28589000 0.29020400 -0.13296000
-6.32309000 0.33211500 -0.17970500
-6.35707000 0.37129500 -0.22167600
-6.31066000 0.35333800 -0.23464500
-0.95346700 0.99379200 0.74099500
0.00212905 1.31575000 0.85332600
0.06775640 1.32532000 0.85918700
-3.19959000 0.61573700 -0.76445600
-3.16988000 0.63420300 -0.77339700
-3.24735000 0.61103800 -0.75630500
-3.21946000 0.66848800 -0.83197500
-3.18403000 0.63864800 -0.80317000
-3.20604000 0.58274900 -0.70020300
-3.16407000 0.65009000 -0.79333900
-3.23940000 0.78656100 -0.91462700
-4.41508000 1.01359000 -0.04350540
-4.31592000 1.06564000 -0.06149630
-4.22784000 1.12103000 -0.02495470
-3.10031000 0.86372500 -0.92618800
-3.07212000 0.86693100 -0.86622700
-3.21783000 0.90931700 -0.97517300
-4.08150000 1.21048000 -0.00692985
-4.00540000 1.21521000 -0.02817790
-3.16858000 0.99744800 -1.00654000
-3.06612000 0.90219200 -0.92057300
-3.03676000 0.95095600 -0.93668900
-3.04729000 0.98587800 -0.96824300
-3.73240000 1.28442000 0.00033098
-3.41929000 1.31264000 0.10020100
-4.32426000 1.11986000 -1.47293000
-4.21643000 1.23886000 -1.51983000
-2.57144000 1.22816000 0.45738100
0.24945500 0.59031500 -0.01951760
-1.84851000 1.13649000 0.83176400
-3.14115000 1.24283000 -1.18405000
-2.78154000 1.16770000 -1.01498000
1.13240000 0.52969300 0.13425800
-7.10574000 0.58604000 -0.20159000
-6.77193000 0.24809800 -0.58084900
-6.18863000 0.08150630 -0.30306300
-6.19769000 0.12287400 -0.31879800
-6.21014000 0.16080700 -0.32269100
-7.26805000 0.64360100 -0.32230100
-6.28822000 0.31297900 -0.45805100
-7.18003000 0.61377800 -0.29704100
-7.22513000 0.63533900 -0.29942400
-7.14030000 0.60449800 -0.26713200
-7.11166000 0.59347900 -0.27092400
-5.18428000 0.25403600 -0.03760190
-5.14376000 0.31649900 -0.08819010
1.31440000 0.58033200 0.17264000
-1.20946000 0.83788800 -0.26563100
-6.01415000 -0.11774200 -0.39536700
-5.88130000 -0.18527800 -0.36075100
-5.84375000 -0.19511800 -0.35153100
-5.47991000 -0.22885200 -0.14632800
-5.58347000 -0.25458700 -0.13208600
-7.00893000 0.52266100 -0.11611400
-5.59648000 -0.25441700 -0.19794200
-5.64260000 -0.25778500 -0.19525300
-5.43392000 -0.20146200 -0.19864600
-5.36055000 -0.11650400 -0.18795900
-5.46617000 -0.22158200 -0.57106100
-0.99440300 0.89618600 0.39569000
2.06880000 0.67339100 0.28468200
2.08463000 0.67507900 0.30105300
2.16359000 0.68446900 0.34580500
1.21997000 0.68689500 0.33898600
1.24331000 0.70516500 0.35926700
2.91409000 0.91257400 0.44090900
-4.27228000 1.18888000 0.25748800
-3.21401000 1.13458000 -0.11016800
-3.17216000 1.15927000 -0.08830880
-3.22360000 1.16073000 -0.09992100
-3.03016000 1.19826000 -0.05599130
-3.06931000 1.19468000 -0.03661780
2.45427000 0.45075600 0.96485000
2.47142000 0.57613300 0.81637700
2.49269000 0.67134700 0.75097000
2.55688000 0.79394100 0.72649000
2.58685000 0.85864400 0.66717300
2.65017000 0.91121700 0.66416200
3.66830000 1.68516000 0.72116300
0.55162800 1.11414000 0.78688400
3.31396000 1.30048000 0.61010500
3.34901000 1.32064000 0.57842400
-6.17963000 -0.48566900 -1.50838000
-6.01930000 -0.52603700 -1.42062000
-5.95458000 -0.52882700 -1.39103000
-5.80328000 -0.52761400 -1.34218000
-2.04361000 1.20349000 0.94973500
-6.45449000 -0.35670500 -1.68949000
-5.41976000 -0.36857200 -1.33855000
-5.07072000 -0.05260680 -1.44585000
-6.22077000 -0.28026300 -1.31507000
-4.79872000 0.16194400 -1.55855000
-4.64056000 0.34327800 -1.62357000
2.77079000 1.19536000 1.20139000
2.87337000 1.15630000 1.00048000
-5.89695000 -0.31917900 -1.23443000
2.86058000 1.25956000 1.19329000
2.96802000 1.33648000 1.16813000
3.13429000 1.37165000 1.09145000
3.20152000 1.41265000 1.09978000
-5.59068000 -0.21823200 -1.20785000
-6.09284000 -0.04538860 -0.43362200
-6.01108000 -0.14349500 -0.76453300
-4.22969000 0.89138600 -1.87039000
-6.16778000 -0.04357330 -0.88901000
-6.16844000 -0.08411010 -0.96676700
-6.12531000 -0.03322490 -0.80870000
-5.32321000 -0.05813740 -0.62265000
-3.96840000 1.33380000 -2.04164000
-3.90304000 1.40439000 -2.09745000
-3.85988000 1.45987000 -2.13411000
-5.20652000 0.19590700 -0.73882300
-5.12970000 0.39848900 -0.83132200
-4.99037000 0.59588800 -0.91573800
-4.87836000 0.70231600 -0.99163700
-3.71981000 1.59059000 -1.94242000
-3.95497000 0.71144200 -0.37497600
-3.38395000 1.55730000 -1.82920000
-4.30888000 0.71476800 -0.42045800
-3.56107000 1.58421000 -1.87302000
-5.94592000 -0.07243870 0.29027200
-5.97140000 -0.05193710 0.27430800
-6.01522000 -0.01321540 0.21478000
-6.05280000 0.02589640 0.19903700
-3.74395000 1.63041000 -2.19778000
-3.13255000 0.81442600 -0.22021700
-3.11120000 0.91606900 -0.20877400
-2.95851000 1.07001000 -0.30208800
-2.88785000 1.13806000 -0.34064000
-2.91065000 1.14180000 -0.29107800
-2.88059000 1.15255000 -0.31582900
-2.83945000 1.15844000 -0.34791700
-0.49976700 0.71590400 -0.32182600
-1.33342000 0.85833800 -0.59789000
-1.17709000 0.84125500 -0.54356100
-2.56375000 1.16859000 -1.22006000
-3.89764000 0.79435700 -0.77993600
-3.97496000 0.89203000 -0.85592900
-3.30830000 0.58641400 -0.41514800
-3.27697000 0.58336000 -0.40394300
-3.06462000 0.75035100 -0.45031500
-2.98071000 1.00165000 -0.64479700
-2.96294000 1.02255000 -0.61288700
-2.90064000 1.09771000 -0.62794300
-4.68234000 0.83427400 -1.00700000
-4.63662000 0.87497200 -0.99890600
-4.44838000 1.06000000 -1.12038000
0.03354740 0.61359900 -0.16031500
-3.76416000 1.18751000 -1.03969000
-3.93226000 1.19276000 -1.04329000
-3.84288000 1.21280000 -1.06989000
-1.45567000 1.16297000 0.94395900
-1.16066000 1.23544000 0.97960100
-4.19031000 1.17532000 -1.12794000
-1.63956000 0.93114200 -0.23754600
-1.46608000 0.90376900 -0.14117000
-6.00598000 -0.19780700 0.02917900
-5.91288000 -0.23805500 0.06945280
-6.12120000 -0.09289790 -0.09552740
-6.17389000 0.03222420 -0.19319200
3.48417000 1.43887000 0.51934500
3.53067000 1.49592000 0.53611400
-5.43181000 -0.09132020 0.13183200
-5.32791000 0.01967040 0.09968370
0.94546000 0.71917000 0.54100000
-6.47304000 0.36819000 -0.13465600
-6.57864000 0.44182500 -0.25330600
-6.71793000 0.46447300 -0.32650800
3.34296000 1.38666000 0.92266000
-1.28704000 1.02250000 0.75486300
3.48262000 1.44719000 0.85718500
3.51998000 1.46005000 0.83571600
3.52891000 1.46740000 0.88281000
-1.05648000 1.01082000 0.76911300
3.85754000 2.08928000 0.16924700
-2.08831000 1.27950000 1.05302000
-1.92570000 1.20745000 0.97914300
-4.67531000 0.70366400 0.13344300
-4.63866000 0.80618900 0.10583400
-4.66007000 0.81345900 0.03643150
-4.62694000 0.85522500 0.06518650
-5.66136000 -0.23146400 -0.89141900
-5.72418000 -0.21415200 -0.92260000
-6.01826000 -0.15501300 -1.03992000
-5.91505000 -0.15915300 -0.97921100
-5.85214000 -0.16377600 -1.00440000
-5.81234000 -0.15836400 -1.02276000
-5.77830000 -0.15400400 -1.03931000
-4.12988000 1.16864000 -0.02136670
-5.50009000 -0.20765400 -0.87833100
-5.50252000 -0.25419700 -0.79162500
-5.59366000 -0.26222900 -0.84749800
-7.24720000 0.65205000 -0.27901600
-7.18410000 0.61859500 -0.19415100
-5.41384000 -0.15000900 -0.85548800
-3.57122000 1.31723000 0.06457580
-5.31687000 0.10849700 -1.04083000
-2.20223000 1.63983000 1.32981000
-2.32020000 1.53871000 1.26449000
-5.28861000 0.15123900 -1.04822000
-5.25386000 0.18104600 -1.05552000
-5.18264000 0.22368600 -1.13581000
-5.15614000 0.27519100 -1.09068000
-1.98657000 1.12935000 0.75315800
-6.18876000 0.07922450 -0.26348500
-6.18351000 0.06963950 -0.22512800
-5.15588000 0.29419100 -0.02452220
-4.98585000 0.51448400 -0.11010000
-4.27104000 1.03262000 0.39480800
-4.33164000 0.97060100 0.36070900
-3.13645000 1.45579000 1.10891000
-4.18091000 1.29213000 0.25653000
-3.23934000 1.46336000 1.06057000
-5.90375000 -0.19029100 -0.28782100
-5.79193000 -0.24509500 -0.20250600
-3.03988000 1.43752000 1.13669000
-5.96619000 -0.14993300 -0.34156400
-5.70464000 -0.27373100 -0.12569900
-3.35967000 0.63792700 -0.75824700
-3.38923000 0.73304700 -0.85154400
-3.29818000 0.68423100 -0.82665700
-3.33991000 0.78651900 -0.89399800
-3.47108000 0.76449100 -0.86213800
-3.29481000 0.61436300 -0.75173300
-3.29162000 0.57482700 -0.66406000
-3.61142000 1.40824000 0.39381500
-3.16972000 0.58595600 -0.67700400
-3.32687000 0.89209000 -0.95312800
-2.32473000 1.26312000 0.97721800
-3.30192000 1.00248000 -0.99777000
-4.71749000 0.71603100 -0.18540500
-3.05961000 1.04089000 -0.99554800
-3.12246000 1.07062000 -1.02059000
-4.62151000 0.75800200 -0.22472100
-3.02602000 0.92830000 -0.89272500
-2.99593000 0.97974500 -0.90373500
-3.00096000 0.95172800 -0.87493800
-4.43695000 0.85620100 -0.19563500
-3.01193000 1.00009000 -0.93714700
-3.01949000 1.02592000 -0.96024400
-2.98534000 1.09002000 -0.98012700
-2.96733000 1.03679000 -0.91861300
-3.70801000 1.02122000 -0.12246700
-3.51299000 1.08619000 -0.09772410
-4.35148000 1.11176000 -1.41705000
-3.40080000 1.13739000 -0.08887710
-3.24020000 1.17833000 -0.09310130
-4.24771000 1.22816000 -1.47414000
-3.21525000 1.18637000 -0.08213370
-3.12111000 1.17590000 -0.05180960
-4.17419000 1.28271000 -1.50716000
-4.13429000 1.31686000 -1.52567000
-4.10827000 1.33913000 -1.56881000
-4.02649000 1.35992000 -1.50116000
-3.15653000 1.20868000 -1.09858000
-3.04990000 1.12792000 -1.02959000
-2.95177000 1.16561000 -1.03587000
0.53143100 1.19584000 0.83729400
1.25255000 0.57900000 0.19485500
1.56000000 0.63997900 0.22779200
0.65682500 0.64074200 0.27434200
-5.65092000 -0.25311900 -0.50215100
-5.40780000 -0.15853400 -0.52708900
0.83069500 0.64281200 0.31157100
1.14663000 0.65038700 0.36950500
1.18382000 0.66675800 0.35740100
1.20978000 0.69478300 0.37423800
1.26983000 0.71184100 0.37982800
1.28859000 0.70885500 0.38322100
1.31181000 0.71256200 0.36141300
2.20943000 0.69687000 0.37454300
2.18425000 0.67781000 0.38462000
2.24892000 0.70735400 0.39519800
2.09711000 0.66210100 0.33388800
2.31617000 0.72170600 0.40701400
2.29043000 0.71634500 0.40609800
-6.25516000 0.13797300 -0.71369900
-6.23750000 0.15081500 -0.66632500
-6.30266000 0.17777200 -0.66375500
2.45194000 0.75178400 0.43398700
3.08616000 1.15432000 0.68340000
0.63027500 0.94000600 0.66486600
0.61555900 0.94256700 0.63120900
-5.85661000 -0.27768400 -1.19158000
-7.38684000 0.18101200 -1.20048000
-5.38263000 -0.29795700 -1.33714000
-5.41737000 -0.32347100 -1.31785000
-4.61335000 0.65235500 -0.47821400
-5.07180000 0.05991060 -1.37961000
-3.82438000 0.74457400 -0.30813600
-4.70704000 0.29765200 -1.58125000
-4.76866000 0.24553700 -1.54422000
-5.99194000 -0.03593950 0.26549500
-6.01862000 -0.01483550 0.25506200
-6.03572000 0.01013630 0.23388200
-6.07032000 -0.09534920 -0.76317600
-3.17507000 0.84442700 -0.18940100
-3.18157000 0.87413200 -0.18074900
3.84374000 2.15016000 0.49331300
3.86223000 2.14870000 0.37255900
-3.09155000 0.95061700 -0.21405900
-6.16688000 -0.00165387 -0.83137300
-3.06049000 0.97937200 -0.22396600
-3.04178000 1.00976000 -0.22286300
-2.99044000 1.08755000 -0.24944700
-2.94907000 1.11337000 -0.28291800
-2.79207000 1.16861000 -0.26218700
-5.04098000 0.53584200 -0.88108800
-4.94521000 0.63413500 -0.91484700
-4.37216000 0.72275000 -1.74840000
-4.74669000 0.78458500 -1.01491000
-4.77025000 0.75945200 -0.96579200
-4.00308000 1.41381000 -1.91470000
-3.84614000 1.53418000 -1.89415000
-2.82903000 1.42364000 -1.84428000
-3.46766000 1.55327000 -1.80541000
-4.71442000 0.81070200 -1.01994000
-4.04728000 0.79082800 -0.74991800
-3.97950000 0.81013400 -0.78696000
-3.94304000 0.73866200 -0.68605500
-3.73139000 0.65345800 -0.55642900
-4.09554000 0.90583100 -0.85495400
-5.89525000 -0.20729000 0.11923500
-3.11731000 0.68594500 -0.34516900
-3.03223000 0.80389900 -0.46207200
-3.03540000 0.79177800 -0.42847400
-6.15464000 -0.00379158 -0.13728600
-6.10502000 -0.12225500 -0.01785520
-3.02056000 0.86254600 -0.50540800
-4.57934000 0.91975000 -1.01559000
-4.38430000 1.09734000 -1.08753000
-5.48762000 -0.11038000 0.18212300
-2.26302000 1.28856000 1.04462000
-5.39412000 -0.04958740 0.14586100
-5.36417000 -0.02474280 0.11517200
-4.24905000 1.14453000 -1.09811000
-5.34722000 -0.00181521 0.11875200
-4.11735000 1.15416000 -1.04948000
-5.30655000 0.04316630 0.15397000
-5.29943000 0.06336260 0.09920020
-5.24235000 0.15825400 0.03942560
-4.02879000 1.19167000 -1.06525000
-5.18600000 0.23988700 0.02281730
-3.87553000 1.14549000 -1.00414000
-3.92211000 1.14158000 -0.99274000
-3.94443000 1.17183000 -1.00653000
-7.39319000 0.50162500 -0.54418900
-7.52340000 0.51943800 -0.60286900
-3.85583000 1.17995000 -1.02814000
-2.79688000 1.36240000 0.97434200
-7.28458000 0.67177100 -0.23491700
-7.32605000 0.68819300 -0.28053400
-6.75141000 0.47431200 -0.32160500
-4.62144000 0.70243400 0.19152100
-4.28165000 0.96163500 0.42319800
-4.23305000 0.98784600 0.47130100
-4.15978000 1.10493000 0.50134500
