7.12197000 0.83147000 2.06611000
7.22590000 0.73385300 2.01032000
7.22087000 0.76537400 1.93562000
7.15630000 0.80924000 2.00145000
7.13891000 0.83787200 1.92345000
7.29698000 0.68219300 2.07083000
7.30458000 0.69048200 2.14697000
7.22873000 0.74474900 2.13959000
7.31259000 0.67870100 2.20333000
7.32881000 0.67010100 2.22558000
7.25541000 0.72064100 2.23604000
6.98658000 1.08738000 2.41193000
6.92514000 1.11765000 2.43613000
6.94267000 1.04105000 2.40178000
6.66338000 1.79067000 2.31211000
6.74319000 1.84572000 2.35052000
6.69160000 1.85034000 2.23225000
6.55248000 1.64433000 2.25670000
6.51214000 1.64415000 2.26265000
6.54238000 1.50599000 2.27906000
6.51553000 1.52276000 2.28510000
6.51553000 1.52276000 2.28510000
6.51214000 1.64415000 2.26265000
6.47438000 1.65308000 2.27772000
6.51254000 1.68121000 2.25002000
6.51835000 1.48874000 2.28940000
6.52805000 1.42815000 2.31023000
6.41450000 1.36750000 2.45546000
5.46752000 0.19787100 2.55205000
5.19372000 0.20259900 2.56661000
5.50138000 0.03016860 2.51562000
5.31550000 -0.71497900 2.33214000
5.15773000 -0.65436000 2.29198000
5.23307000 -0.74338700 2.29508000
5.23307000 -0.74338700 2.29508000
5.15773000 -0.65436000 2.29198000
5.16099000 -0.78689300 2.25401000
5.23307000 -0.74338700 2.29508000
5.16099000 -0.78689300 2.25401000
5.31550000 -0.71497900 2.33214000
3.82162000 -1.03428000 1.39570000
3.94770000 -1.03231000 1.44764000
3.80320000 -0.97541500 1.53670000
3.36694000 -0.72836600 1.54365000
3.31945000 -0.77040300 1.63291000
3.26616000 -0.66848600 1.61055000
3.34024000 -0.67602500 1.52743000
3.31735000 -0.63942600 1.53688000
3.25989000 -0.60217500 1.59417000
3.12406000 -0.55301600 1.64315000
3.18471000 -0.50506400 1.60510000
3.19438000 -0.54874500 1.62764000
3.19711000 -0.57388400 1.62937000
3.27361000 -0.56842600 1.56606000
3.25989000 -0.60217500 1.59417000
3.12406000 -0.55301600 1.64315000
3.19276000 -0.62818000 1.64387000
3.04551000 -0.53174000 1.65889000
3.03507000 -0.51543400 1.65269000
3.04231000 -0.48518800 1.61460000
2.96336000 -0.47730800 1.61061000
2.89331000 -0.53449300 1.63785000
2.91025000 -0.45694600 1.58722000
1.95635000 -0.15130000 2.11106000
1.44334000 0.06014260 2.37507000
1.76895000 0.09829840 2.36060000
-2.92499000 2.74231000 0.60839200
-2.89344000 2.64303000 0.53217700
-2.93583000 2.75451000 0.52121300
-2.84503000 2.55583000 0.60903400
-2.89054000 2.71810000 0.69921900
-2.78951000 2.57061000 0.82238400
-1.52532000 2.14989000 2.19135000
-1.55065000 1.97623000 2.24991000
-1.52440000 2.03240000 2.16702000
-0.47175500 0.74479700 2.58986000
-0.41648700 0.73050600 2.62505000
-0.41330600 0.51353700 2.53242000
-0.24500900 0.13858500 2.48160000
-0.25476700 0.13069500 2.45571000
-0.32235200 0.28632400 2.46109000
-0.33942600 0.39223100 2.52469000
-0.36297900 0.33897600 2.46846000
-0.45802800 0.43851000 2.46702000
-0.25476700 0.13069500 2.45571000
-0.26429200 0.00070046 2.28378000
-0.30303100 0.10849400 2.31741000
-0.16827900 -0.05424700 2.37410000
-0.20385700 -0.04736890 2.34796000
-0.16827900 -0.05424700 2.37410000
-0.14032900 -0.07323740 2.37484000
-0.08662680 0.03475080 2.44615000
0.09082410 -0.12776700 2.37746000
-0.32235200 0.28632400 2.46109000
-0.35899000 0.21969300 2.34964000
-0.43737400 0.30060600 2.37340000
-0.45802800 0.43851000 2.46702000
-0.36297900 0.33897600 2.46846000
-1.68151000 1.18710000 1.84811000
-1.81820000 1.36172000 1.86940000
-1.69674000 1.44887000 2.04762000
-2.56890000 2.32061000 -0.00700464
-2.63107000 2.42239000 0.02259970
-2.68224000 2.46509000 0.07007560
-2.68224000 2.46509000 0.07007560
-2.63107000 2.42239000 0.02259970
-2.55823000 2.43706000 -0.07911350
-2.57252000 2.38772000 -0.04035450
-2.25677000 2.36843000 -0.55086600
-2.43473000 2.32895000 -0.21358300
-2.35640000 2.31932000 -0.35030000
-1.86977000 3.31293000 -0.67670600
-2.04283000 3.16744000 -0.57155900
-1.94313000 3.20705000 -0.83206400
-1.55415000 3.81659000 -0.05379950
-1.65687000 3.69964000 0.03995560
-1.62143000 3.72618000 -0.12817500
-2.10134000 2.25338000 -0.73590500
-2.17972000 2.36205000 -0.67265000
-1.28401000 0.35285900 1.25893000
-1.00975000 0.10543900 1.17886000
-0.99952600 0.05370220 0.96281700
-0.05817040 -0.41681500 1.94891000
0.01502810 -0.53615600 1.81084000
-0.09330060 -0.44725600 1.85795000
-0.04391790 -0.38965200 2.06364000
1.82588000 0.37348300 2.56324000
2.07687000 0.49274700 2.59461000
1.99181000 0.38039100 2.54092000
3.34768000 -0.66153900 1.50225000
3.36507000 -0.63893000 1.48874000
3.38728000 -0.70107700 1.43565000
3.31735000 -0.63942600 1.53688000
3.41106000 -0.72911500 1.39406000
3.43366000 -0.75669600 1.33984000
3.42343000 -0.75440900 1.43173000
3.48624000 -0.81253800 1.22889000
3.52644000 -0.83939900 1.34061000
3.38728000 -0.70107700 1.43565000
3.62364000 -0.91203300 1.16736000
3.71312000 -1.01384000 1.17491000
3.64467000 -0.96355600 1.34685000
3.82124000 -1.07347000 0.91576900
3.73131000 -0.97881100 0.87460700
3.80361000 -1.02991000 0.78194100
3.73052000 -1.00183000 1.01426000
3.64474000 -0.92011800 1.07436000
3.67455000 -0.95615300 0.95601600
3.64642000 -0.87163000 1.02844000
3.65300000 -0.92352300 0.94268800
3.65214000 -0.91706300 1.01980000
3.66782000 -0.83543900 0.99276200
3.71113000 -0.30764000 1.63847000
3.76540000 -0.32901400 1.58883000
3.71493000 -0.38689900 1.51662000
3.37466000 -0.15364500 1.86586000
3.77987000 -0.03051880 1.87041000
3.47619000 -0.16279000 1.83612000
0.11529200 3.42631000 2.07853000
0.06452750 3.33189000 2.17120000
-0.08861140 3.35650000 2.14001000
0.83282000 3.06898000 2.29631000
0.90866400 2.81464000 2.42400000
0.80157100 2.90152000 2.39744000
2.86372000 0.66685100 2.65537000
2.78734000 0.78121200 2.65038000
2.86365000 0.71082500 2.65737000
2.86680000 0.59232000 2.64643000
2.67090000 0.47904900 2.55271000
2.96151000 0.69410100 2.67055000
2.86372000 0.66685100 2.65537000
2.99650000 0.53763500 2.68031000
2.86372000 0.66685100 2.65537000
2.86680000 0.59232000 2.64643000
2.96473000 0.78791500 2.66415000
3.21453000 0.74182000 2.67001000
0.39771500 4.31014000 -0.10424300
0.45232200 4.33804000 -0.26129200
0.49261800 4.31212000 -0.14133800
0.45409200 4.31148000 -0.77938300
0.33591800 4.29473000 -0.70483200
0.33375900 4.31195000 -0.77390600
-0.27534300 -1.03896000 -0.24586300
-0.29342900 -1.10156000 -0.31813700
-0.27668600 -1.06686000 -0.33971500
-0.33871600 -1.11778000 -0.17824900
-0.30973400 -1.08646000 -0.12663800
-0.35063400 -1.10246000 -0.04635710
-0.39364400 -1.12564000 -0.04120090
-0.34475700 -1.07912000 0.12404000
-0.32112700 -1.05552000 0.08936750
-0.40904400 -1.10031000 0.27907600
-0.49721500 -1.15751000 0.28074000
-0.45941900 -1.14454000 0.20735700
-0.42852100 -1.13841000 -0.58785500
-0.43567200 -1.13872000 -0.37925300
-0.54547000 -1.17212000 -0.54169200
-0.72284300 -1.25640000 -0.64075900
-0.77475500 -1.37252000 -0.45328800
-0.76133900 -1.30684000 -0.65937000
0.04508960 -0.88094000 -0.99768400
0.04254070 -0.85390400 -0.99178900
0.02726670 -0.87413000 -0.97273000
0.02045660 -0.87841100 -0.96825500
0.01382170 -0.88231200 -0.96372200
-0.05367580 -0.91724800 -0.91616800
-0.05463890 -0.92263700 -0.94908000
-0.10221200 -0.95269900 -0.86686300
-0.18008000 -0.97340200 -0.93118900
0.22769700 -0.49051900 -1.06745000
0.34906200 -0.51031700 -1.09515000
0.33866200 -0.40535500 -1.14319000
-0.11134700 -0.58423500 -0.96246700
0.00870441 -0.75583000 -0.91312300
0.00440435 -0.59076300 -0.95355500
-0.03765270 -0.70586300 -0.92666500
-0.11134700 -0.58423500 -0.96246700
-0.18222100 -0.53901700 -0.97861600
-0.16179000 -0.60670900 -0.96166900
-0.91262000 0.01070150 -0.39423500
-0.91552800 0.09235420 -0.50115300
-1.10272000 0.27324900 -0.31060700
-1.07888000 1.24196000 -1.12494000
-1.30059000 1.30644000 -0.96732100
-1.11322000 1.02269000 -1.00851000
0.40850400 4.08442000 -1.20862000
0.49490400 4.11036000 -1.17993000
0.42991700 4.17626000 -1.07449000
1.78344000 4.05825000 -0.91261700
1.84419000 4.04771000 -0.90251900
1.81278000 4.07221000 -0.82830800
1.50977000 4.26111000 -0.55119700
1.54203000 4.33038000 -0.50417800
1.43986000 4.25192000 -0.53926000
1.48081000 4.22086000 -0.59435300
1.49523000 4.60227000 -0.11045000
1.50088000 4.53575000 -0.14395500
1.50185000 4.61825000 -0.29759000
1.50388000 4.59466000 -0.00274348
1.53105000 4.50724000 -0.01572150
1.47925000 4.63859000 -0.27902800
1.47848000 4.63960000 -0.27192600
1.47491000 4.64740000 -0.14717500
1.51817000 4.63147000 0.14835200
1.64915000 4.57656000 0.28029300
1.56270000 4.60115000 0.16791700
1.61333000 4.58119000 0.22465400
1.57068000 4.61097000 0.27318100
1.24880000 4.64976000 0.11923500
1.22641000 4.64151000 0.33215600
1.33605000 4.65207000 0.17335500
-1.87538000 1.10822000 3.11186000
-1.81732000 1.08000000 3.15638000
-1.92467000 1.18191000 3.15027000
1.62538000 4.54829000 0.54828800
1.75701000 4.53990000 0.50815700
1.68720000 4.55550000 0.44412300
1.90308000 4.53753000 0.36398800
2.03056000 4.53120000 0.36434800
1.96072000 4.52651000 0.32448000
1.75272000 4.54903000 0.29138300
1.82178000 4.53830000 0.30872000
1.69389000 4.55982000 0.26848200
1.80934000 4.52128000 0.28179100
1.69497000 4.52540000 0.23735000
1.69389000 4.55982000 0.26848200
1.75272000 4.54903000 0.29138300
1.82178000 4.53830000 0.30872000
1.81444000 4.47441000 0.25958000
1.63641000 4.48995000 0.20295900
1.55551000 4.53919000 0.11280400
1.52166000 4.62309000 0.10327000
1.50069000 4.44298000 -0.06260400
1.43068000 4.33202000 -0.06880110
1.52873000 4.47625000 -0.11795000
1.44481000 4.32773000 -0.01082800
1.50301000 4.27645000 0.07678840
1.42671000 4.30595000 0.02834930
1.41467000 4.28852000 0.10967100
1.47052000 4.27178000 0.14451900
1.39336000 4.25928000 0.16970700
1.38175000 4.30225000 -0.02265810
1.29620000 4.32019000 0.02001190
1.28769000 4.31864000 -0.00156632
1.18455000 4.31560000 0.08240180
1.33425000 4.29355000 0.09775360
1.24646000 4.21586000 0.18771500
1.27227000 4.31068000 -0.05263210
1.26297000 4.32250000 0.03137490
1.20241000 4.31949000 -0.06230240
1.25951000 4.30105000 -0.10268600
1.27227000 4.31068000 -0.05263210
1.16058000 4.30566000 -0.15016200
1.18718000 4.30084000 -0.21498400
1.25516000 4.29895000 -0.19507900
1.27041000 4.29940000 -0.17951300
1.05462000 4.24932000 -0.53430800
1.21646000 4.25042000 -0.59588100
1.13638000 4.26866000 -0.46421300
1.39692000 4.25133000 -0.52602900
1.41845000 4.26161000 -0.49783500
1.39647000 4.25724000 -0.42154300
3.36299000 0.95835100 2.63202000
3.52053000 0.97729300 2.60592000
3.49702000 0.83465100 2.62333000
3.38713000 0.61890800 2.67734000
3.15460000 0.64579900 2.68157000
3.14593000 0.64799700 2.68086000
3.13728000 0.65027400 2.68032000
3.15460000 0.64579900 2.68157000
3.25899000 0.62229400 2.69240000
3.14423000 0.63771400 2.68240000
3.14593000 0.64799700 2.68086000
3.42759000 0.57313500 2.67967000
3.53595000 0.53873500 2.66207000
3.54745000 0.48712400 2.67663000
3.18875000 0.40943100 2.80382000
3.06091000 0.31944100 2.88099000
3.15103000 0.40122000 2.80434000
3.07037000 0.37438800 2.81699000
3.13553000 0.39687100 2.80547000
3.14320000 0.39906000 2.80476000
3.02512000 0.36009700 2.82756000
2.98654000 0.35140900 2.83889000
2.96773000 0.36790900 2.79901000
2.98654000 0.35140900 2.83889000
2.74529000 0.36494200 2.92853000
2.75070000 0.30401100 2.96201000
2.67910000 0.34098000 2.96919000
2.71276000 0.35808300 2.94735000
2.71276000 0.35808300 2.94735000
2.70050000 0.35919200 2.95160000
2.70135000 0.36215000 2.94923000
2.74529000 0.36494200 2.92853000
2.60040000 0.39645300 2.99697000
2.70135000 0.36215000 2.94923000
2.74529000 0.36494200 2.92853000
2.63257000 0.41803100 2.94231000
2.56413000 0.40653200 2.97332000
2.55687000 0.48875800 2.87791000
2.66372000 0.46036000 2.86797000
1.99475000 0.36677100 2.97148000
1.91937000 0.39868100 2.93563000
1.97244000 0.42454900 2.86417000
0.45453000 0.57335900 2.88690000
0.43264100 0.66929300 2.88545000
0.35172700 0.69509400 2.87732000
-0.02786560 0.33801300 2.80200000
0.00008480 0.17674100 2.76681000
0.08767200 0.24658300 2.78964000
-0.88919300 -0.72548600 2.46555000
-0.90700600 -0.81610800 2.44215000
-0.85664100 -0.85677400 2.39411000
-0.91620000 -0.80842300 2.45394000
-0.79367700 -0.90979600 2.30895000
-0.79660500 -0.79305200 2.38163000
-0.68791700 -0.86919800 2.27435000
-0.90700600 -0.81610800 2.44215000
-0.91620000 -0.80842300 2.45394000
-0.92096700 -0.81814200 2.45424000
-0.93826400 -0.86275800 2.45766000
-0.90904900 -0.90534000 2.41470000
-0.97700400 -0.97300300 2.46136000
-0.94922900 -1.04100000 2.41051000
-0.79367700 -0.90979600 2.30895000
-0.86595100 -0.98847100 2.32332000
-0.85788600 -1.09362000 2.24359000
-0.93826400 -0.86275800 2.45766000
-0.92520900 -0.80083400 2.46601000
-0.98260800 -0.87854700 2.49107000
-0.92096700 -0.81814200 2.45424000
-0.91620000 -0.80842300 2.45394000
-0.98508800 -0.75272600 2.53357000
-0.98629500 -1.01148000 2.45800000
-0.97700400 -0.97300300 2.46136000
-1.11137000 -0.89645700 2.58025000
-0.97463000 -1.16088000 2.33648000
-1.05117000 -1.23359000 2.39458000
-1.11226000 -1.28331000 2.45326000
-1.06514000 -1.30644000 2.37918000
-1.05117000 -1.23359000 2.39458000
-1.06514000 -1.30644000 2.37918000
-1.01409000 -1.28919000 2.31423000
-0.99140200 -1.32532000 2.24589000
-0.94471400 -1.33304000 2.08904000
-0.93657200 -1.30727000 2.11258000
-1.07503000 -1.34873000 2.37635000
-1.07503000 -1.34873000 2.37635000
-1.11646000 -1.59497000 2.30993000
-1.03510000 -1.44921000 2.24040000
-0.97727600 -1.35755000 2.16015000
-2.41155000 -3.91741000 1.60681000
-2.38657000 -4.01333000 1.56419000
-2.41703000 -4.02360000 1.63777000
-2.40928000 -4.36993000 1.99006000
-2.49807000 -4.44860000 1.89049000
-2.47380000 -4.44142000 1.98976000
-2.83909000 -4.95689000 1.59560000
-2.86138000 -4.95114000 1.60767000
-2.81573000 -4.83768000 1.37742000
-2.78203000 -4.88930000 1.32194000
-2.79277000 -4.94490000 1.36570000
-2.72296000 -4.90487000 1.26862000
-2.68902000 -4.81303000 1.24964000
-2.67679000 -4.93552000 1.24987000
-2.76540000 -4.94130000 1.31382000
-2.71862000 -4.93828000 1.27160000
-2.70686000 -5.02538000 1.26613000
-2.79277000 -4.94490000 1.36570000
-2.74117000 -5.03170000 1.31249000
-2.77930000 -5.00378000 1.37818000
-2.54041000 -4.94682000 1.10057000
-2.53715000 -4.95195000 1.08264000
-2.51777000 -4.97146000 1.03172000
-2.47825000 -5.08578000 1.02553000
-2.48555000 -4.98648000 0.99836500
-2.47766000 -4.98848000 0.99525200
-2.50934000 -5.08677000 1.06468000
-2.44146000 -4.99571000 0.98838400
-2.71116000 -5.22291000 1.94401000
-2.80761000 -5.20565000 1.91475000
-2.72787000 -5.22137000 1.80149000
-2.81716000 -5.19745000 1.78682000
-2.79297000 -5.20659000 1.76495000
-2.78923000 -5.19460000 2.01731000
-2.76673000 -5.17757000 2.08341000
-2.70269000 -5.16988000 2.20003000
-2.66610000 -5.19306000 2.17006000
-2.68179000 -5.21720000 2.03012000
-2.67321000 -5.17371000 2.23740000
-2.68367000 -5.16975000 2.23042000
-2.62742000 -5.19898000 2.21022000
-2.67743000 -5.17053000 2.23973000
-2.76673000 -5.17757000 2.08341000
-2.70269000 -5.16988000 2.20003000
-2.76395000 -5.14638000 2.18101000
-2.65122000 -5.16970000 2.28018000
-2.68367000 -5.16975000 2.23042000
-2.67743000 -5.17053000 2.23973000
-2.86855000 -5.08710000 2.12004000
-1.56474000 -4.66425000 2.40897000
-1.54119000 -4.51556000 2.41122000
-1.62512000 -4.64525000 2.42416000
-1.47048000 -4.64851000 2.35525000
-1.46476000 -4.77124000 2.32285000
-1.36616000 -4.55868000 2.31012000
-1.50939000 -4.42688000 2.41427000
-1.45695000 -4.49146000 2.39069000
-1.41329000 -4.39963000 2.42061000
-1.40545000 -4.46800000 2.40508000
-1.51864000 -4.30493000 2.42171000
-1.45642000 -4.27898000 2.43082000
-1.46287000 -4.28149000 2.42931000
-1.51864000 -4.30493000 2.42171000
-1.57785000 -4.25445000 2.41571000
-1.63545000 -4.35341000 2.42325000
-1.45827000 -4.27129000 2.43185000
-1.46287000 -4.28149000 2.42931000
-1.45642000 -4.27898000 2.43082000
-1.46790000 -4.05874000 2.45073000
-1.53570000 -4.17440000 2.41494000
-2.30603000 -3.42433000 1.38013000
-2.24370000 -3.40758000 1.31206000
-2.25695000 -3.59106000 1.34225000
-2.07204000 -3.11627000 1.17171000
-1.92500000 -3.23929000 1.14624000
-2.05324000 -3.34533000 1.18679000
-1.42134000 -2.18680000 1.28863000
-1.47636000 -2.06401000 1.20690000
-1.37148000 -2.11060000 1.28905000
-0.99099400 -1.53634000 1.70510000
-0.95081400 -1.43748000 1.80224000
-1.01408000 -1.56398000 1.83380000
-0.91554800 -1.44889000 1.52841000
-1.39400000 -1.61810000 0.99358900
-1.49464000 -1.53851000 0.79310000
-1.36473000 -1.54692000 0.89891900
-1.26739000 -1.55175000 1.00361000
-1.43104000 -1.66141000 1.01709000
-1.18810000 -1.54883000 1.06509000
-1.16291000 -1.51160000 1.02369000
-1.21655000 -1.50465000 0.93739600
-1.13773000 -1.49157000 0.99065100
-1.98924000 -3.97575000 2.45079000
-2.08405000 -3.90384000 2.41338000
-2.11812000 -4.01392000 2.36688000
-2.01931000 -3.83946000 2.46065000
-1.92114000 -3.93319000 2.48315000
-1.77868000 -1.55953000 0.80011500
-1.70041000 -1.53353000 0.73510800
-1.67488000 -1.59105000 0.79922900
-1.70041000 -1.53353000 0.73510800
-1.78236000 -1.50443000 0.74477800
-1.67203000 -1.48822000 0.69489900
-1.61112000 -1.54449000 0.75191900
-1.58839000 -1.48385000 0.67599600
-1.56564000 -1.53144000 0.74688900
-1.61112000 -1.54449000 0.75191900
-1.61853000 -1.63382000 0.87418900
-1.14272000 -1.44495000 0.67180300
-1.32834000 -1.50037000 0.78456800
-1.03142000 -1.43723000 -0.31767000
-1.16485000 -1.45685000 -0.33255500
-1.16919000 -1.45758000 -0.41017000
-0.71089600 -0.98264400 -2.23646000
-0.73920600 -0.87859600 -2.30873000
-0.64237700 -0.93812500 -2.19011000
-0.63116900 -0.81606000 -2.25216000
-0.54797900 -0.81999000 -2.19875000
-0.67396600 -1.27799000 -2.06068000
-0.79951400 -1.41366000 -2.10035000
-0.79621600 -1.23930000 -2.18678000
-0.84247600 -1.37474000 -2.16061000
-0.89851300 -1.47989000 -2.16784000
-0.92567500 -1.46141000 -2.19425000
-0.91847600 -1.46637000 -2.18739000
-0.95971600 -1.31676000 -2.27074000
-1.02427000 -1.16915000 -2.36867000
-0.98015600 -1.42298000 -2.24623000
-0.92567500 -1.46141000 -2.19425000
-0.92214400 -1.47762000 -2.18631000
-0.91847600 -1.46637000 -2.18739000
-1.08162000 -1.49527000 -2.29732000
-1.03099000 -1.63274000 -2.22288000
-1.15030000 -1.63205000 -2.30387000
-1.15280000 -1.31023000 -2.40413000
-1.18012000 -1.29727000 -2.42094000
-1.12595000 -1.21037000 -2.41565000
-1.23600000 -1.11631000 -2.50374000
-1.18012000 -1.29727000 -2.42094000
-1.15280000 -1.31023000 -2.40413000
-1.28527000 -1.27338000 -2.48128000
-1.33733000 -1.26468000 -2.50272000
-1.38357000 -1.26014000 -2.51644000
-1.49414000 -1.43410000 -2.50670000
-1.54663000 -1.24934000 -2.54109000
-1.50593000 -1.25109000 -2.53868000
-1.33733000 -1.26468000 -2.50272000
-1.38357000 -1.26014000 -2.51644000
-1.37381000 -1.17716000 -2.53721000
-1.28527000 -1.27338000 -2.48128000
-1.50593000 -1.25109000 -2.53868000
-1.51578000 -1.06631000 -2.57460000
-1.54663000 -1.24934000 -2.54109000
-2.09278000 -0.56635400 -2.56456000
-1.97023000 -0.71036800 -2.57992000
-2.19013000 -0.74757000 -2.48734000
-2.27025000 -0.19005900 -2.59801000
-2.21232000 -0.17799600 -2.61617000
-2.17891000 -0.17340400 -2.62829000
-2.36917000 -0.00170252 -2.57966000
-2.38978000 0.06862600 -2.59345000
-2.27937000 -0.03507180 -2.62413000
-2.31263000 -0.16120400 -2.58567000
-2.25219000 -0.12657000 -2.62902000
-2.23373000 -0.16970700 -2.62002000
-3.92703000 -0.59556900 -0.17519400
-3.91886000 -0.60927700 -0.03165710
-3.95476000 -0.59255300 -0.12264900
-8.56639000 0.57907000 0.65016700
-8.62432000 0.54892000 0.63867700
-8.52787000 0.51504500 0.72057300
-8.47533000 0.57807700 0.72033000
-8.41828000 0.58975200 0.67974200
-8.44800000 0.58839900 0.66537300
-8.42785000 0.58921700 0.67488700
-8.50779000 0.53885100 0.62880300
-8.51152000 0.54107900 0.69473400
-8.53946000 0.53463900 0.60200000
-8.52312000 0.56499200 0.64746200
-8.57926000 0.58168700 0.54791800
-8.60430000 0.60624200 0.58241600
-8.54950000 0.54273300 0.58032500
-8.54950000 0.54273300 0.58032500
-8.52532000 0.51446200 0.59649400
-8.47938000 0.49644400 0.57227900
-8.54435000 0.45039800 0.52701200
-8.48707000 0.42509400 0.53955200
-8.45577000 0.45124500 0.52219600
-8.52381000 0.41916900 0.51970500
-8.52977000 0.40596700 0.50995700
-8.48655000 0.34944400 0.52759500
-8.56170000 0.34741100 0.51654400
-8.62648000 0.42169900 0.52376200
-7.80799000 -0.04389570 0.67021700
-7.84508000 -0.05543390 0.63152700
-7.81886000 -0.05325470 0.65033200
-7.80941000 -0.05518100 0.65305600
-8.00615000 -0.01679170 0.57623900
-8.13048000 -0.05764230 0.53854000
-7.90776000 -0.07346120 0.59165900
-7.81886000 -0.05325470 0.65033200
-7.84508000 -0.05543390 0.63152700
-7.81036000 -0.05763260 0.64995300
-7.80941000 -0.05518100 0.65305600
-7.83368000 -0.09794820 0.61216700
-7.77822000 -0.19947700 0.57768800
-7.77519000 -0.10547800 0.61829600
-7.84508000 -0.05543390 0.63152700
-7.72725000 -0.17811200 0.56565400
-7.71688000 -0.10718100 0.61354800
-7.67039000 -0.16965800 0.55616800
-7.66605000 -0.11733700 0.60292400
-7.59979000 -0.14981200 0.58185200
-7.63021000 -0.13043200 0.59568600
-7.91729000 -0.39256100 0.35520300
-7.89170000 -0.35290700 0.42540500
-8.04795000 -0.40062600 0.41953900
-8.25726000 0.04244620 0.49896400
-8.28992000 0.06207860 0.47832000
-9.12480000 0.68422700 0.11448700
-9.20310000 0.76782500 0.08635160
-9.17269000 0.71842300 0.20228800
-9.84240000 1.09690000 0.05089060
-9.79386000 1.13453000 0.04446000
-9.74975000 1.06765000 -0.00842502
-9.72619000 1.13284000 0.02056640
-9.82012000 1.03901000 0.02217160
-9.91398000 1.04911000 0.04730080
-9.93620000 1.03041000 0.04979130
-9.95955000 0.99814200 0.06143650
-9.98712000 0.96989900 0.08808330
-9.94240000 1.07833000 0.07622410
-9.79033000 1.21634000 0.22597700
-9.70464000 1.16908000 0.27232500
-9.70734000 1.17705000 0.22541300
-9.71155000 1.17218000 0.17176900
-9.70734000 1.17705000 0.22541300
-9.63923000 1.15373000 0.16417100
-9.71155000 1.17218000 0.17176900
-9.29908000 0.82024300 0.29925400
-9.39824000 0.85637500 0.36420200
-9.29350000 0.77851700 0.35098100
-9.09238000 -0.08071870 0.40171600
-8.94887000 -0.17291700 0.42094000
-8.94318000 -0.11841700 0.45294700
-8.12857000 -0.50254400 -0.24231200
-8.09173000 -0.53676900 -0.16164200
-8.20666000 -0.53734300 -0.13232900
-8.13135000 -0.57474000 -0.11528500
-8.18029000 -0.56328000 -0.09317140
-8.14165000 -0.58043200 -0.09096300
-8.14472000 -0.56558600 -0.04467400
-7.97645000 -0.35973700 -0.43574700
-7.96131000 -0.33771100 -0.44222600
-7.92278000 -0.34565900 -0.45395900
-8.06434000 -0.48819400 -0.28872700
-7.99592000 -0.46641200 -0.34363600
-8.05746000 -0.51309000 -0.27093400
-8.04623000 -0.57346600 -0.30000300
-8.00671000 -0.56194700 -0.38014800
-8.07097000 -0.58785500 -0.22589000
-8.07404000 -0.69057000 -0.21974100
-8.08448000 -0.69729200 -0.07259530
-8.08630000 -0.65443800 -0.12627800
-8.05221000 -0.77114300 -0.00131337
-8.03047000 -0.79586300 -0.11599500
-8.01287000 -0.80330600 -0.05141600
-8.00891000 -0.80499800 -0.10812400
-8.01458000 -0.80911400 -0.02496380
-7.99178000 -0.79493900 0.09482530
-8.01458000 -0.80911400 -0.02496380
-7.94167000 -0.79674800 0.16674000
-8.01287000 -0.80330600 -0.05141600
-7.94005000 -0.81294700 -0.05010260
-7.99576000 -0.81656600 -0.01717110
-7.93265000 -0.81706200 0.01712240
-7.86719000 -0.79135900 0.17844300
-7.96247000 -0.78533700 0.16025100
-7.92265000 -0.76683300 0.21825300
-8.01627000 -0.76854500 0.13835100
-7.96036000 -0.68635700 0.23584200
-7.89541000 -0.71179800 0.28566300
-7.88159000 -0.75165600 0.25837400
-7.82032000 -0.73171200 0.31065600
-7.79357000 -0.70497800 0.34967700
-8.04879000 -0.67819500 0.10883500
-8.07196000 -0.48065400 0.09894050
-8.11646000 -0.51399500 0.06331410
-8.14135000 -0.54825900 0.03566530
-8.07196000 -0.48065400 0.09894050
-8.16827000 -0.53227500 0.03269800
-8.11646000 -0.51399500 0.06331410
-7.65840000 -0.41852700 0.40899300
-7.75506000 -0.48427300 0.34072700
-7.70774000 -0.52774100 0.40598700
-7.46362000 -0.36895000 0.52911300
-7.44580000 -0.44592300 0.55203400
-7.39828000 -0.36784100 0.56742400
-7.38563000 -0.29616000 0.57414700
-7.31560000 -0.30031400 0.62838400
-7.31970000 -0.20666600 0.64334700
-7.25192000 -0.29465200 0.66350500
-7.20788000 -0.22856500 0.68668800
-5.99498000 -0.02841740 0.99971800
-5.97767000 -0.05970480 0.88435500
-5.92050000 0.03346660 1.07833000
-5.70981000 0.07135000 1.16537000
-5.74054000 0.15606700 1.28865000
-5.85680000 0.07709970 1.15519000
-5.22885000 0.03242560 1.12803000
-5.36026000 -0.01270560 1.05059000
-5.20955000 -0.07280930 0.96369200
-3.46701000 0.40126900 -1.95573000
-3.48793000 0.40708600 -1.96883000
-3.47993000 0.40254300 -1.97079000
-3.40940000 0.32660100 -1.98422000
-3.54250000 0.44074700 -1.95897000
-3.49575000 0.41112400 -1.96709000
-3.54250000 0.44074700 -1.95897000
-3.59846000 0.41552100 -1.95104000
-3.54265000 0.45154600 -1.98426000
-3.60064000 0.39718200 -1.99922000
-3.54959000 0.41508300 -2.01022000
-3.52230000 0.34358700 -2.03572000
-3.49384000 0.38362100 -2.00407000
-3.48839000 0.40534500 -1.97368000
-3.49575000 0.41112400 -1.96709000
-3.48793000 0.40708600 -1.96883000
-3.59846000 0.41552100 -1.95104000
-3.60682000 0.41111400 -1.91514000
-3.67497000 0.38366900 -1.96512000
-3.71938000 0.36277200 -1.89543000
-3.69154000 0.39149100 -1.96918000
-3.48839000 0.40534500 -1.97368000
-3.49384000 0.38362100 -2.00407000
-3.47993000 0.40254300 -1.97079000
-3.48793000 0.40708600 -1.96883000
-3.62294000 0.32317700 -2.05423000
-3.52686000 0.28058400 -2.08302000
-3.64259000 0.27262600 -2.07984000
-3.60307000 0.20339700 -2.08875000
-3.63850000 0.22923700 -2.10728000
-3.38450000 -0.51789600 -2.31422000
-3.38279000 -0.53800500 -2.32732000
-3.37823000 -0.58523800 -2.35441000
-3.28147000 -0.66190900 -2.62027000
-3.17256000 -0.52614600 -2.70721000
-3.19062000 -0.50009200 -2.57639000
-3.18987000 -0.58341800 -2.79780000
-3.25884000 -0.10100300 -2.23522000
-3.30102000 -0.02136410 -2.19998000
-3.34087000 -0.11941900 -2.19640000
-3.34103000 0.33927700 -2.02470000
-3.31360000 0.36573900 -2.02157000
-3.36649000 0.33795400 -2.01038000
-2.66472000 0.24897600 -2.43491000
-2.59885000 0.12717300 -2.45394000
-2.80134000 0.24335300 -2.32588000
-2.37764000 0.16582500 -2.60935000
-2.48696000 0.28076000 -2.57133000
-2.32972000 0.26812200 -2.65843000
-2.24883000 0.22148300 -2.69900000
-2.20313000 0.39907000 -2.76389000
-2.10510000 0.30870000 -2.78314000
-2.34273000 0.10020500 -2.62205000
-2.28478000 0.15248700 -2.65697000
-2.25362000 0.06746830 -2.65106000
-2.29875000 0.01839690 -2.62347000
-2.37764000 0.16582500 -2.60935000
-2.46328000 0.10787100 -2.54463000
-2.34273000 0.10020500 -2.62205000
-2.29875000 0.01839690 -2.62347000
-2.53653000 0.38433100 -2.55118000
-2.42117000 0.37312300 -2.63217000
-2.66061000 0.45451300 -2.49926000
-2.61103000 0.49715400 -2.56245000
-2.72232000 0.42178600 -2.43565000
-2.83413000 0.41574500 -2.34756000
-2.71159000 0.48890400 -2.49328000
-2.81081000 0.47361100 -2.54232000
-2.81286000 0.47034200 -2.54412000
-2.80432000 0.47417500 -2.55207000
-2.79233000 0.49104500 -2.53354000
-2.79233000 0.49104500 -2.53354000
-2.82272000 0.48457500 -2.49556000
-2.82030000 0.46564300 -2.53534000
-2.81081000 0.47361100 -2.54232000
-2.81286000 0.47034200 -2.54412000
-2.88475000 0.42505500 -2.45044000
-2.81709000 0.37206300 -2.63030000
-2.82030000 0.46564300 -2.53534000
-2.80432000 0.47417500 -2.55207000
-2.81286000 0.47034200 -2.54412000
-2.77257000 0.45567100 -2.61920000
-3.06341000 0.09119650 -2.37111000
-3.12862000 0.07618520 -2.30186000
-3.13527000 0.01357150 -2.32176000
-3.03203000 -0.01891250 -2.49782000
-2.93423000 0.11746400 -2.60534000
-3.00450000 0.03893410 -2.49909000
-2.89157000 0.09156620 -2.72455000
-2.61809000 0.65911700 -2.75949000
-2.62969000 0.61953100 -2.73743000
-2.65930000 0.58527600 -2.74741000
-2.65211000 0.63667300 -2.79119000
0.41306700 -0.69532700 -1.21923000
0.62925700 -0.58761100 -1.31208000
0.46222600 -0.65727800 -1.21219000
0.62925700 -0.58761100 -1.31208000
0.60158900 -0.56867900 -1.25816000
0.46916200 -0.63336500 -1.17667000
-0.45136400 1.95792000 -1.67054000
-0.13022100 2.08570000 -1.83487000
-0.36522700 2.30877000 -1.77248000
2.10882000 4.02604000 -0.99540800
2.16863000 4.05826000 -0.94750400
2.11041000 4.04587000 -0.91335600
1.98984000 4.05324000 -0.87144500
1.96917000 4.01391000 -0.93545000
2.03452000 4.05825000 -0.87783700
1.94874000 4.05557000 -0.86442100
1.89013000 4.02531000 -0.93085800
1.98984000 4.05324000 -0.87144500
2.03452000 4.05825000 -0.87783700
1.94874000 4.05557000 -0.86442100
2.06166000 4.10990000 -0.78448100
1.92448000 4.37782000 -0.64796800
1.83044000 4.30521000 -0.69576500
1.89974000 4.31991000 -0.67345700
1.71904000 4.58587000 -0.65381500
1.69383000 4.57654000 -0.82882400
1.62493000 4.57994000 -0.80659400
1.53823000 4.59972000 -0.72277200
1.54914000 4.60145000 -0.68867300
1.63547000 4.59106000 -0.63282000
1.53823000 4.59972000 -0.72277200
1.41286000 4.63774000 -0.68940200
1.47868000 4.62062000 -0.61028900
1.38696000 4.64182000 -0.59312800
1.30942000 4.66686000 -0.61882100
1.28577000 4.66727000 -0.46851300
-2.91878000 2.53937000 2.77527000
-2.92070000 2.53031000 2.66404000
-2.96833000 2.58860000 2.79433000
-2.93887000 2.55821000 2.83109000
-2.91592000 2.53159000 2.86917000
-2.85984000 2.46339000 2.85164000
-2.89161000 2.49877000 2.91715000
-3.54501000 3.06247000 1.79188000
-3.57719000 3.14289000 1.74680000
-3.59757000 3.13062000 1.79979000
-4.00225000 2.53519000 2.21844000
-4.12552000 2.48583000 2.27294000
-3.91761000 2.37045000 2.34403000
-4.17077000 2.44702000 2.31821000
-4.24161000 2.32258000 2.42244000
-4.09727000 2.29907000 2.41109000
-4.35580000 2.35049000 2.35867000
-4.35963000 2.28352000 2.37970000
-4.27574000 2.27578000 2.44131000
-4.54959000 2.02524000 2.20182000
-4.49618000 1.95947000 2.14280000
-4.50635000 1.86215000 2.21754000
-4.38850000 1.61427000 2.10195000
-4.36791000 1.58876000 2.10451000
-4.41543000 1.67403000 2.14245000
-4.33030000 1.51529000 2.11401000
-4.28773000 1.45228000 2.12165000
-4.30358000 1.44949000 2.17131000
-4.35640000 1.56924000 2.11760000
-4.38271000 1.58657000 2.18454000
-4.38850000 1.61427000 2.10195000
-4.45389000 1.74611000 2.09457000
-4.40365000 1.61958000 2.07472000
-4.36791000 1.58876000 2.10451000
-4.33248000 1.52597000 2.09851000
-4.24358000 1.39919000 2.06422000
-4.28059000 1.44850000 2.09614000
-4.12933000 1.34207000 2.10716000
-4.76422000 1.22234000 1.96978000
-4.77049000 1.42924000 1.99986000
-4.95520000 1.39330000 1.96108000
-3.79931000 0.75873900 1.86770000
-3.82963000 0.61219600 1.78709000
-3.80267000 0.67031500 1.84732000
-3.79338000 1.10729000 2.03917000
-3.84533000 1.20795000 2.10011000
-3.85573000 1.17923000 2.07285000
-3.83442000 1.07947000 1.99787000
-3.86450000 1.13355000 2.02529000
-3.84533000 1.20795000 2.10011000
-3.83447000 1.22919000 2.12590000
-3.87470000 1.24804000 2.10900000
-3.85573000 1.17923000 2.07285000
-3.82850000 1.24609000 2.17157000
-3.82827000 1.24810000 2.17625000
-3.83500000 1.25094000 2.17481000
-3.75666000 1.17825000 2.14341000
-3.83447000 1.22919000 2.12590000
-3.82850000 1.24609000 2.17157000
-3.77713000 1.21262000 2.19484000
-3.82194000 1.24506000 2.17781000
-3.82827000 1.24810000 2.17625000
-3.82194000 1.24506000 2.17781000
-3.80946000 1.27229000 2.24772000
-3.86315000 1.25884000 2.17065000
-3.82827000 1.24810000 2.17625000
-3.72420000 1.09877000 2.29217000
-3.73254000 1.12114000 2.39652000
-3.75382000 1.18554000 2.20779000
-3.67956000 0.99091300 2.29234000
-3.70699000 1.08335000 2.37174000
-3.62274000 0.90190600 2.40183000
-3.52619000 0.82440700 2.22824000
-3.50286000 0.79401500 2.29519000
-3.44568000 0.74853300 2.27785000
-3.45869000 0.78342000 2.21457000
-3.38755000 0.75563500 2.24833000
-3.38144000 0.71328600 2.26119000
-3.38144000 0.71328600 2.26119000
-3.28521000 0.64975800 2.19864000
-3.37402000 0.66703600 2.27772000
-3.36167000 0.74152900 2.22083000
-3.36110000 0.74399000 2.20991000
-3.27681000 0.57548000 2.21001000
-3.43156000 0.64208200 2.31756000
-3.18285000 0.22211500 2.37035000
-3.10539000 0.19788100 2.34343000
-3.12033000 0.16042600 2.40367000
-3.01697000 0.11495400 2.44132000
-2.98462000 0.09661540 2.48004000
-3.07323000 0.12800000 2.42775000
-3.07512000 0.13502400 2.38385000
-2.67870000 -0.04172620 2.56195000
-2.77118000 0.02728890 2.54564000
-2.84164000 0.02148090 2.48671000
-2.61332000 -0.44601100 2.50853000
-2.73723000 -0.35252800 2.40001000
-2.71204000 -0.53603000 2.37692000
-2.58196000 -0.63032000 2.48521000
-2.77441000 -0.66284300 2.28527000
-2.68910000 -0.69866400 2.36530000
-2.56627000 -0.64811400 2.49093000
-2.53758000 -0.63844400 2.51443000
-2.44765000 -0.61362600 2.58095000
-2.33271000 -0.45333600 2.69264000
-2.26150000 -0.56839700 2.69951000
-2.19817000 -0.46899000 2.74607000
-2.53758000 -0.63844400 2.51443000
-2.56627000 -0.64811400 2.49093000
-2.44765000 -0.61362600 2.58095000
-1.53429000 -1.25677000 2.66515000
-1.41400000 -1.20176000 2.65573000
-1.52853000 -1.08386000 2.70836000
-1.27699000 -3.11477000 1.53572000
-1.37698000 -2.97661000 1.38423000
-1.29748000 -2.99184000 1.50657000
-1.55603000 -3.37680000 1.23664000
-1.64069000 -3.16635000 1.18419000
-1.52656000 -3.19212000 1.25355000
-1.93035000 -3.97289000 1.20956000
-1.90192000 -4.04107000 1.21891000
-2.01605000 -4.08396000 1.25570000
-2.30280000 -4.35291000 1.44492000
-2.32417000 -4.41339000 1.44007000
-2.37601000 -4.38068000 1.51066000
-2.40219000 -4.34043000 1.58020000
-2.46030000 -4.42921000 1.57045000
-2.22902000 -4.44129000 1.27087000
-2.32259000 -4.50127000 1.19129000
-2.32828000 -4.49055000 1.29030000
-2.65919000 -4.78764000 1.24203000
-2.58926000 -4.86025000 1.22612000
-2.60314000 -4.90691000 1.23600000
-2.62450000 -4.80557000 1.17154000
-2.57392000 -4.84024000 1.07588000
-2.54841000 -4.88324000 1.16282000
-2.51769000 -4.87500000 1.00830000
-2.47766000 -4.98848000 0.99525200
-2.48555000 -4.98648000 0.99836500
-2.54041000 -4.94682000 1.10057000
-2.44042000 -4.91329000 0.97671900
-2.44146000 -4.99571000 0.98838400
-2.28381000 -5.01324000 0.98811100
-2.34662000 -5.00849000 0.98834500
-2.16552000 -5.01472000 1.01115000
-2.16450000 -4.93797000 0.99102000
-2.03090000 -4.99021000 1.02788000
-2.25867000 -5.22898000 1.69672000
-2.22558000 -5.23392000 1.82350000
-2.50570000 -5.22341000 1.89570000
-2.32941000 -5.22267000 2.05718000
-2.22477000 -5.22910000 2.05135000
-2.27312000 -5.22257000 2.12977000
-2.67321000 -5.17371000 2.23740000
-2.62742000 -5.19898000 2.21022000
-1.13927000 -4.62111000 2.06013000
-1.18027000 -4.69079000 2.12688000
-1.16788000 -4.74830000 2.11414000
-1.18155000 -4.68122000 2.12916000
-1.21639000 -4.66691000 2.18025000
-1.01859000 -4.98406000 1.89116000
-1.03406000 -4.99718000 1.96108000
-1.03227000 -5.09443000 1.94768000
-0.99684100 -5.07435000 1.82605000
-1.02362000 -5.11650000 1.86920000
-1.01667000 -5.11660000 1.79017000
-1.02454000 -5.11871000 1.72971000
-1.03289000 -5.07459000 1.63393000
-1.03736000 -5.12224000 1.65318000
-1.06953000 -5.12629000 1.54885000
-1.09450000 -5.12653000 1.50535000
-1.11106000 -5.10334000 1.44892000
-1.15151000 -5.13399000 1.41816000
-1.19421000 -5.14038000 1.35679000
-1.21562000 -5.10289000 1.31139000
-1.09450000 -5.12653000 1.50535000
-1.06953000 -5.12629000 1.54885000
-1.11505000 -5.18743000 1.52751000
-1.03736000 -5.12224000 1.65318000
-1.04281000 -5.17880000 1.67057000
-1.15151000 -5.13399000 1.41816000
-1.88234000 -5.22326000 2.21310000
-1.65086000 -5.23224000 2.25422000
-1.99490000 -5.21840000 2.29534000
-1.99490000 -5.21840000 2.29534000
-1.79438000 -5.21244000 2.38926000
-2.00438000 -5.21640000 2.35162000
-1.81795000 -5.18955000 2.42021000
-1.96740000 -5.19604000 2.41416000
-1.15194000 -5.17170000 2.11061000
-1.17869000 -5.17797000 2.12091000
-1.12864000 -5.16244000 2.09439000
-1.08238000 -5.13585000 2.04447000
-1.11779000 -5.19216000 1.99070000
-1.07821000 -5.13432000 2.03886000
-1.12864000 -5.16244000 2.09439000
-1.08238000 -5.13585000 2.04447000
-1.06130000 -5.09149000 2.08740000
-1.07821000 -5.13432000 2.03886000
-1.07571000 -5.13012000 2.04173000
-1.05866000 -5.08659000 2.06317000
-1.04091000 -5.12634000 1.97019000
-1.04191000 -5.15683000 1.91787000
-1.03121000 -5.11849000 1.92222000
-1.07821000 -5.13432000 2.03886000
-1.04091000 -5.12634000 1.97019000
-1.07571000 -5.13012000 2.04173000
-1.03121000 -5.11849000 1.92222000
-1.02362000 -5.11650000 1.86920000
-1.05717000 -5.16582000 1.87836000
-1.03122000 -5.16883000 1.76354000
-1.25263000 -5.21574000 1.77284000
-1.36357000 -5.22939000 1.72333000
-1.25241000 -5.22893000 1.70189000
-1.42360000 -5.24900000 1.65376000
-1.36847000 -5.22566000 1.83988000
-1.51148000 -5.24970000 1.84124000
-1.66552000 -5.20449000 1.21071000
-1.58432000 -5.13314000 1.08744000
-1.57662000 -5.17310000 1.15936000
-1.51403000 -5.10921000 1.12195000
-1.47505000 -5.11503000 1.14664000
-1.51734000 -5.13376000 1.13263000
-1.46571000 -5.18495000 1.21930000
-1.27852000 -5.14365000 1.26877000
-1.25304000 -5.07679000 1.27980000
-1.34922000 -5.06477000 1.23706000
-1.17097000 -4.42485000 2.16936000
-1.16098000 -4.40319000 2.18123000
-1.16237000 -4.40054000 2.18962000
-1.19143000 -4.52848000 2.16197000
-1.15669000 -4.49778000 2.10831000
-1.18262000 -4.48785000 2.17233000
-1.19202000 -4.60576000 2.14337000
-1.18370000 -4.67164000 2.13076000
-1.13769000 -4.43295000 2.07779000
-1.11226000 -4.33635000 1.91212000
-1.12114000 -4.32711000 2.03247000
-1.17097000 -4.42485000 2.16936000
-1.14487000 -4.35676000 2.19990000
-1.16098000 -4.40319000 2.18123000
-1.16009000 -4.39309000 2.19127000
-1.16237000 -4.40054000 2.18962000
-1.09331000 -4.27032000 2.31059000
-1.02522000 -4.20840000 2.34688000
-1.03524000 -4.29326000 2.37607000
-1.13704000 -4.33084000 2.30255000
-1.19422000 -4.39806000 2.28902000
-1.14487000 -4.35676000 2.19990000
-1.09643000 -4.51574000 2.52142000
-1.14494000 -4.57040000 2.61932000
-1.18016000 -4.52468000 2.54963000
-1.16841000 -4.51197000 2.51686000
-1.08387000 -4.60114000 2.64118000
-1.10799000 -4.63697000 2.73248000
-1.11926000 -4.61569000 2.69168000
-1.13132000 -4.59655000 2.65618000
-1.02626000 -4.60906000 2.66175000
-1.04349000 -4.40782000 2.87737000
-1.07881000 -4.32537000 2.88587000
-1.09845000 -4.40458000 2.90374000
-1.12193000 -4.38697000 2.90467000
-1.11902000 -4.43364000 2.89906000
-1.11572000 -4.49550000 2.88263000
-1.12576000 -4.34567000 2.89566000
-1.21244000 -4.42691000 2.89679000
-1.12193000 -4.38697000 2.90467000
-1.11902000 -4.43364000 2.89906000
-1.21321000 -4.50487000 2.88751000
-1.11572000 -4.49550000 2.88263000
-1.11203000 -4.53928000 2.86669000
-1.13762000 -4.25034000 2.81682000
-1.13391000 -4.27165000 2.84237000
-1.12096000 -4.19608000 2.76299000
-1.06768000 -4.26824000 2.83029000
-1.13391000 -4.27165000 2.84237000
-1.13762000 -4.25034000 2.81682000
-1.17196000 -4.29444000 2.86199000
-1.20279000 -3.87998000 2.65446000
-1.26726000 -3.83215000 2.56760000
-1.39724000 -3.88808000 2.55194000
-1.32910000 -3.83760000 2.55594000
-1.35135000 -3.85479000 2.55351000
-1.41835000 -3.90491000 2.56559000
-1.42280000 -3.90128000 2.55970000
-1.32307000 -3.93043000 2.64383000
-1.23439000 -3.79789000 2.51928000
-1.23544000 -3.75192000 2.43961000
-1.30854000 -3.78110000 2.50662000
-1.44639000 -3.68429000 2.49287000
-1.51857000 -3.71957000 2.50156000
-2.91657000 -0.90702300 1.77891000
-2.88706000 -0.83784200 1.97723000
-2.90194000 -0.87235000 1.86773000
-2.88706000 -0.83784200 1.97723000
-2.91774000 -0.68376000 2.04233000
-2.93379000 -0.75042100 1.91346000
-2.88259000 -0.60648500 2.16942000
-2.81478000 -0.72147800 2.20485000
-2.86162000 -0.54850200 2.22607000
-2.92462000 -0.86264100 1.72811000
-2.91657000 -0.90702300 1.77891000
-2.92030000 -0.85462400 1.81430000
-2.95879000 -0.78190200 1.64928000
-2.92090000 -0.90585500 1.51899000
-2.93022000 -0.88926800 1.60594000
-2.84436000 -1.04396000 1.41120000
-2.88235000 -1.00199000 1.51944000
-2.79818000 -1.09113000 1.30908000
-2.82181000 -1.03357000 1.33255000
-2.82156000 -0.97367400 1.20246000
-2.75273000 -1.14404000 1.20562000
-2.78871000 -1.14402000 1.34697000
-2.79818000 -1.09113000 1.30908000
-2.74661000 -1.19996000 1.24411000
-2.71081000 -1.36095000 1.29017000
-2.77735000 -1.23189000 1.38466000
-2.86921000 -1.05234000 1.55155000
-2.83381000 -1.15271000 1.52007000
-2.87826000 -1.05256000 1.64981000
-2.88235000 -1.00199000 1.51944000
-2.90649000 -0.93941900 1.68055000
-2.90282000 -0.95559800 1.63635000
-2.77817000 -0.99482400 1.10721000
-2.74010000 -1.15739000 1.18214000
-2.64614000 -1.22542000 1.06785000
-2.58744000 -1.19487000 0.97455900
-2.61839000 -1.24041000 1.04355000
-2.58434000 -1.25860000 1.01648000
-2.61839000 -1.24041000 1.04355000
-2.58434000 -1.25860000 1.01648000
-2.64614000 -1.22542000 1.06785000
-1.87254000 -1.29817000 0.24379100
-1.87915000 -1.31302000 0.03515940
-1.71454000 -1.33394000 0.20000200
-1.29183000 -1.57850000 -0.82274300
-1.29749000 -1.60133000 -0.90482400
-1.21437000 -1.58647000 -0.86854600
-0.93738900 -1.86890000 -1.35963000
-0.97237300 -1.97758000 -1.32938000
-0.95536700 -1.99405000 -1.45376000
-0.81491500 -1.47662000 -1.64212000
-0.76167000 -1.37540000 -1.57496000
-0.82363200 -1.48532000 -1.49963000
-0.81509000 -1.54994000 -1.90334000
-0.84987000 -1.62968000 -1.84809000
-0.81470100 -1.54203000 -1.99570000
-0.81971100 -1.55596000 -1.81517000
-0.81509000 -1.54994000 -1.90334000
-0.81470100 -1.54203000 -1.99570000
-0.77358700 -1.46847000 -2.02101000
-0.75202900 -1.40284000 -1.99275000
-0.71667500 -1.35266000 -2.02371000
-0.71911600 -1.38300000 -1.90462000
-0.82693900 -1.53060000 -2.05381000
-0.88287900 -1.60639000 -2.08952000
-0.83030500 -1.52800000 -2.06299000
-0.96360800 -1.62043000 -2.16886000
-0.89851300 -1.47989000 -2.16784000
-0.92214400 -1.47762000 -2.18631000
-0.91847600 -1.46637000 -2.18739000
-0.85333300 -1.51124000 -2.10637000
-1.71665000 -1.39673000 -2.50271000
-1.87292000 -1.38755000 -2.48554000
-1.92946000 -1.24068000 -2.49899000
-1.73572000 -1.24326000 -2.53231000
-2.29065000 -0.67544200 -2.45415000
-2.23388000 -0.56620800 -2.50373000
-2.70499000 -0.29760000 -2.16486000
-2.64374000 -0.20895200 -2.27569000
-2.64516000 -0.40266000 -2.20335000
-3.92728000 -0.51466600 0.38556600
-3.92814000 -0.51903400 0.36054400
-3.87330000 -0.54296700 0.38657800
-3.92728000 -0.51466600 0.38556600
-3.87330000 -0.54296700 0.38657800
-3.92907000 -0.49303900 0.52828600
-3.92907000 -0.49303900 0.52828600
-4.77391000 0.36066100 1.46808000
-4.62245000 0.41124000 1.52186000
-4.76166000 0.55837700 1.60792000
-3.75425000 0.62096100 2.03935000
-3.73827000 0.42547300 1.98473000
-3.72810000 0.53790800 2.02451000
-3.42085000 0.68088000 2.10364000
-3.39604000 0.71382100 2.13077000
-3.39793000 0.72260600 2.14475000
-3.41446000 0.73471900 2.15203000
-3.39133000 0.71772300 2.14164000
-3.39793000 0.72260600 2.14475000
-3.39133000 0.71772300 2.14164000
-3.38891000 0.71980400 2.14543000
-3.36841000 0.73933000 2.18108000
-3.41446000 0.73471900 2.15203000
-3.39240000 0.76544200 2.19587000
-3.36346000 0.67211500 2.12556000
-3.38891000 0.71980400 2.14543000
-3.36841000 0.73933000 2.18108000
-3.31607000 0.66826200 2.16097000
-3.04661000 -0.52979400 1.60706000
-3.08547000 -0.48920600 1.49076000
-3.03401000 -0.56554700 1.48877000
-3.68716000 -0.45681900 0.90989300
-3.76520000 -0.46788100 0.85372000
-3.70497000 -0.49074300 0.76681300
-3.07758000 -0.78868300 0.12628800
-3.17809000 -0.72320000 -0.21936200
-2.95365000 -0.85860300 -0.09537980
-1.88340000 -1.33826000 -0.17561200
-1.74570000 -1.39023000 -0.24179600
-1.72869000 -1.39394000 -0.15514300
-3.83872000 -0.43728400 0.89071800
-3.78635000 -0.41893600 0.94613200
-3.87923000 -0.35073800 1.00660000
-3.89262000 -0.10274400 1.24221000
-3.87855000 -0.13951900 1.33524000
-3.87573000 -0.05987020 1.34675000
-3.87550000 -0.10821200 1.38076000
-3.87570000 -0.10389200 1.37784000
-3.87618000 -0.08411400 1.39425000
-3.87570000 -0.10389200 1.37784000
-3.87550000 -0.10821200 1.38076000
-3.87581000 -0.10019600 1.39162000
-3.87618000 -0.08411400 1.39425000
-3.87550000 -0.10821200 1.38076000
-3.87855000 -0.13951900 1.33524000
-3.86661000 -0.07832550 1.48232000
-3.87581000 -0.10019600 1.39162000
-3.87618000 -0.08411400 1.39425000
-2.41016000 -1.30892000 -1.03566000
-2.52298000 -1.21646000 -1.15168000
-2.48627000 -1.35856000 -1.17254000
-2.57922000 -1.24286000 -1.25376000
-2.53859000 -1.39364000 -1.28540000
-2.13825000 -1.99510000 -1.07205000
-2.07905000 -2.16583000 -1.08295000
-2.05713000 -2.07652000 -1.04379000
-1.70312000 -1.84842000 -0.98385000
-1.62882000 -1.76884000 -0.96374100
-1.81178000 -1.70367000 -0.93412700
-2.45573000 -1.06854000 -2.23117000
-2.35451000 -1.08321000 -2.32559000
-2.37861000 -1.26880000 -2.27083000
-2.46510000 -1.28345000 -2.17162000
-2.55309000 -1.08634000 -2.09444000
-2.50650000 -0.98350000 -2.18479000
-2.71362000 -0.92150900 -1.79719000
-2.83206000 -0.68346800 -1.71439000
-2.71382000 -0.84076100 -1.88908000
-2.70253000 -1.12058000 -1.59945000
-2.68547000 -1.09607000 -1.73586000
-2.66240000 -1.23906000 -1.70667000
-2.70091000 -1.13760000 -1.49846000
-2.66536000 -1.28661000 -1.58807000
-2.63089000 -1.42194000 -1.53385000
-2.62560000 -1.48136000 -1.65025000
-2.58112000 -1.68554000 -1.66105000
-2.59840000 -1.52947000 -1.56080000
-2.26979000 -2.13279000 -1.21583000
-2.17959000 -2.14135000 -1.13382000
-2.22536000 -1.98274000 -1.13924000
-2.13366000 -2.26333000 -1.13002000
-2.02290000 -2.32299000 -1.07588000
-1.98327000 -2.16236000 -1.02304000
-1.86105000 -2.28653000 -1.01228000
-1.82730000 -2.43886000 -1.03674000
-1.73412000 -2.45780000 -1.02869000
-1.37610000 -2.35715000 -1.12124000
-1.29248000 -2.47335000 -1.15930000
-1.23440000 -2.25103000 -1.15629000
-2.39123000 -1.94511000 -2.15018000
-2.34918000 -2.07507000 -2.17533000
-2.41091000 -2.06704000 -2.10378000
-2.48181000 -2.07945000 -1.50207000
-2.50061000 -1.95173000 -1.51613000
-2.52490000 -1.95657000 -1.65363000
-1.26046000 -2.98171000 -2.19621000
-1.24318000 -3.16472000 -2.16946000
-1.27567000 -3.01783000 -2.19945000
-1.14998000 -2.86866000 -2.09452000
-1.21813000 -2.83446000 -2.17557000
-1.26046000 -2.98171000 -2.19621000
-1.27567000 -3.01783000 -2.19945000
-1.21813000 -2.83446000 -2.17557000
-1.38755000 -3.04780000 -2.29099000
-1.87692000 -3.34154000 -1.16412000
-1.77030000 -3.37204000 -1.14248000
-1.79787000 -3.29137000 -1.13241000
-1.09939000 -3.68956000 -1.77908000
-1.11368000 -3.81026000 -1.83501000
-1.12873000 -3.72108000 -1.97973000
-1.12105000 -3.53956000 -1.94001000
-1.15487000 -3.62406000 -2.09988000
-1.17463000 -3.75074000 -2.11828000
-1.14743000 -3.87386000 -2.04938000
-1.21229000 -3.87168000 -2.15191000
-1.16605000 -3.97156000 -2.07754000
-1.22645000 -3.93574000 -2.19413000
-1.22554000 -3.92390000 -2.19491000
-1.22554000 -3.92390000 -2.19491000
-1.22645000 -3.93574000 -2.19413000
-1.23097000 -3.93780000 -2.20246000
-1.24785000 -3.94820000 -2.23407000
-1.21564000 -3.84651000 -2.19982000
-1.29662000 -3.90870000 -2.31770000
-1.16683000 -3.42350000 -2.21150000
-1.57569000 -3.95527000 -2.56229000
-1.58014000 -3.95317000 -2.51771000
-1.59508000 -3.98046000 -2.60619000
-1.63619000 -3.91875000 -2.58664000
-1.64898000 -3.94233000 -2.62504000
-1.65339000 -3.94931000 -2.64795000
-1.64131000 -3.93026000 -2.68854000
-1.37851000 -3.95708000 -2.42043000
-1.40883000 -4.01698000 -2.38112000
-1.41571000 -4.01824000 -2.38378000
-1.45488000 -3.99113000 -2.43388000
-1.42796000 -4.03142000 -2.38915000
-1.57991000 -4.03087000 -2.42446000
-1.56358000 -3.99293000 -2.44868000
-1.63081000 -4.00200000 -2.43348000
-1.41571000 -4.01824000 -2.38378000
-1.40883000 -4.01698000 -2.38112000
-1.41199000 -4.02604000 -2.37795000
-1.42796000 -4.03142000 -2.38915000
-1.51298000 -4.07987000 -2.39545000
-1.57538000 -4.19041000 -2.43622000
-1.59496000 -4.06860000 -2.41811000
-1.58356000 -4.31735000 -2.41638000
-1.47164000 -4.26717000 -2.38856000
-1.49958000 -4.33651000 -2.39313000
-1.91807000 -4.05620000 -2.40493000
-1.88838000 -4.01984000 -2.43722000
-1.89047000 -4.13737000 -2.40137000
-1.87771000 -4.01745000 -2.44027000
-1.98376000 -4.09017000 -2.31987000
-1.95948000 -4.01288000 -2.40844000
-1.94260000 -3.85318000 -2.42576000
-1.86653000 -3.78486000 -2.43970000
-1.89065000 -3.95086000 -2.44267000
-2.04464000 -3.83587000 -2.35239000
-2.10519000 -3.78276000 -2.25669000
-1.96522000 -3.78025000 -2.38551000
-2.31148000 -3.35315000 -1.67391000
-2.37175000 -3.21226000 -1.71721000
-2.35515000 -3.33265000 -1.79760000
-1.13089000 -4.25493000 -1.72608000
-1.12495000 -4.34735000 -1.73730000
-1.12389000 -4.34639000 -1.74693000
