-1.82819000 0.19265000 -3.35624000
6.87292000 -4.90357000 2.61282000
6.71764000 -5.37209000 2.35565000
5.80458000 0.29942100 -4.27140000
5.53499000 0.32946900 -4.18017000
3.81757000 -2.53158000 -1.46208000
3.78974000 -2.77145000 -1.02876000
3.90653000 -2.84178000 -0.78240700
-1.48053000 2.78169000 3.09623000
-1.72778000 3.32524000 2.64258000
-1.78021000 2.86211000 3.12768000
-1.67231000 2.73623000 3.18900000
-1.75744000 2.49481000 3.40868000
5.08625000 -1.85390000 -2.75775000
-7.38872000 2.34150000 0.19886900
-7.50400000 2.12537000 0.17009900
8.38600000 4.14081000 -0.28672100
8.40988000 4.19714000 -0.07756280
-8.63910000 -2.50333000 -0.10732200
-8.68593000 -2.44330000 -0.03294480
-8.76998000 -2.34514000 -0.04863660
-5.18617000 -1.03841000 2.37286000
-1.35941000 -2.60560000 -0.77643700
-7.73909000 -1.33550000 -1.35717000
6.33564000 -3.09510000 2.74737000
1.19318000 2.74788000 -3.37605000
1.05013000 2.61777000 -3.51706000
0.60239900 2.63385000 -3.45509000
0.80337200 2.57845000 -3.53563000
0.41439900 2.38501000 -3.62305000
6.75073000 -1.97638000 4.22726000
7.24919000 -2.25593000 4.18909000
6.53123000 -1.78384000 4.25020000
6.34093000 -1.85833000 4.21836000
1.64152000 3.17171000 -2.68679000
1.98057000 3.09366000 -2.62100000
1.66616000 2.96688000 -2.96226000
1.52360000 3.32854000 -2.49529000
2.07925000 3.17592000 -2.43552000
4.86221000 3.68869000 -1.15629000
4.96787000 3.82531000 -0.92426000
4.73740000 3.42394000 -1.51023000
-0.36527600 1.99441000 -3.68579000
-0.28460500 1.70694000 -3.82429000
9.26886000 3.39278000 0.79147000
9.19495000 3.53525000 0.92502300
-8.35428000 -2.51862000 1.35685000
-8.41372000 -2.60213000 1.35871000
-8.46550000 -2.41293000 1.37885000
-8.63936000 -2.35693000 1.40615000
-4.96898000 2.11681000 3.17401000
4.53390000 2.63601000 2.38991000
4.74348000 2.75233000 2.32044000
4.83051000 2.92232000 2.14050000
4.71107000 2.57817000 2.49724000
-3.06605000 -4.11710000 -3.01956000
-3.24101000 -4.05704000 -3.27567000
8.67764000 2.73652000 -0.94860500
8.98721000 2.58284000 -0.80719100
8.85429000 2.70159000 -0.80950700
-5.43366000 -0.69550400 2.18816000
-5.31552000 -0.75184800 2.21889000
-5.42476000 -0.77566400 2.34047000
-5.17169000 -0.95636700 2.26894000
-5.25647000 -0.84475000 2.27418000
-6.65797000 3.55241000 2.95142000
9.17500000 0.54789400 -0.91678300
9.17500000 0.54789400 -0.91678300
-2.53462000 1.21657000 -4.21305000
-2.29141000 1.48278000 -4.13193000
-1.83599000 2.35154000 -3.74611000
5.17481000 0.35628600 -3.91007000
5.08385000 0.17639700 -3.71354000
5.00694000 0.03946240 -3.61982000
4.94936000 0.48440100 -3.65641000
4.66688000 1.36883000 -2.74868000
4.67663000 1.17943000 -2.81471000
5.15453000 0.91362000 -2.81158000
-4.99959000 2.12494000 -3.36421000
-4.88556000 2.08769000 -3.38793000
-4.98267000 2.19872000 3.17762000
-4.89329000 2.18419000 3.25423000
-4.98132000 2.22004000 3.18710000
-4.96898000 2.11681000 3.17401000
-7.22110000 3.37432000 -1.41303000
-7.48177000 3.35011000 -1.38768000
-7.28604000 3.26403000 -1.64780000
-7.31992000 3.44211000 -1.14667000
3.44515000 1.24762000 -3.74301000
3.42104000 0.98645400 -3.85346000
2.84775000 1.37322000 -3.91611000
9.44356000 1.69729000 -0.15135300
9.42858000 1.61454000 -0.38700900
9.38435000 1.57596000 -0.65064600
-8.10606000 -1.95523000 1.57427000
-8.34953000 -1.83783000 1.57036000
4.85269000 0.48386600 -2.90937000
4.72551000 0.98040200 -2.86075000
8.48788000 -1.88334000 -3.09504000
8.50782000 -1.77299000 -2.92985000
8.51394000 -1.66489000 -3.26896000
8.67671000 -1.22785000 -3.22996000
8.63833000 -1.43324000 -3.12639000
0.10453100 -2.30950000 1.78167000
0.34451900 -2.54614000 1.53018000
0.53648500 -2.77727000 1.20857000
8.53121000 -1.41563000 -3.37359000
-5.29999000 3.77219000 -2.05075000
-4.91663000 3.75420000 -1.85108000
-4.76641000 3.71654000 -1.81230000
-4.65849000 3.62329000 -2.10704000
-9.14048000 -2.27707000 0.72251900
-9.16841000 -2.28839000 0.63510000
9.10003000 -0.83937700 1.18545000
9.01755000 -0.93006100 0.96477200
9.18310000 -0.76915800 1.10459000
9.20604000 -0.84516400 0.95112800
3.22554000 2.31979000 2.90690000
-6.29963000 1.67240000 2.22115000
-6.22220000 1.75245000 2.14409000
-4.03372000 -3.09089000 1.07635000
-4.38120000 -3.05494000 1.03072000
-2.21149000 -0.75782300 4.11288000
-2.33335000 -1.11686000 4.06199000
-2.35971000 -0.44279900 4.18206000
1.78812000 -3.88133000 -0.24498600
2.23722000 -3.89705000 -0.23099800
2.06132000 -3.87087000 -0.00708665
1.73159000 -3.79533000 0.31864800
-2.00643000 0.15598700 4.12543000
-1.55982000 0.30948600 4.00320000
-1.64088000 -0.07826100 4.01837000
-1.51604000 -3.26430000 -2.89238000
9.20615000 -0.99031200 0.62329700
9.20551000 -0.89588200 0.53340500
9.23808000 -0.89387700 0.64500900
9.24155000 -0.87710300 0.72546300
-4.92378000 3.68778000 1.46559000
-4.92285000 3.69220000 1.55793000
5.16430000 1.59389000 3.59908000
5.30137000 1.83259000 3.58884000
5.27212000 1.62923000 3.65678000
5.38741000 1.81698000 3.62040000
-2.83469000 -4.90586000 -3.93179000
-2.63991000 -4.82568000 -3.96166000
-8.66346000 -2.43464000 0.01629800
-8.76116000 -2.24342000 0.01533530
-8.70697000 -2.12456000 0.00619949
-2.56460000 -1.51987000 4.07422000
-2.25882000 -1.39218000 4.01407000
-2.28317000 -1.34423000 4.00131000
-1.86719000 -0.75605400 4.01257000
7.06154000 -2.10431000 -1.89264000
7.13864000 -2.15560000 -2.09875000
7.28420000 -2.05731000 -1.95682000
-3.47830000 -1.38844000 -2.11065000
0.65640500 3.19142000 1.48581000
0.56689300 3.32509000 1.22517000
-8.52327000 3.13166000 2.62078000
-8.67999000 3.24901000 2.39754000
-8.14752000 3.24097000 2.42321000
-6.68376000 0.80906300 1.31643000
-6.54060000 0.86687700 1.31135000
5.83101000 -5.87505000 -4.05907000
5.74366000 -5.79356000 -3.98963000
-0.45760000 0.92278500 3.81065000
-0.54302700 1.28103000 3.72109000
-0.67082800 0.87328400 3.78515000
0.19095800 2.89166000 2.87613000
0.09759890 3.05784000 2.67005000
0.41974100 2.98112000 2.80708000
8.78821000 -1.19918000 -2.34594000
-8.34092000 -2.41971000 -0.74449600
-8.16781000 -2.38522000 -0.84886600
-6.37157000 -2.75152000 1.91636000
-9.33736000 -1.71894000 -0.27247000
-9.21421000 -2.03958000 -0.28171600
-1.57171000 4.28785000 1.06677000
-5.84204000 2.23937000 -1.82145000
-5.72748000 2.27702000 -1.91668000
6.01932000 -5.45880000 3.10629000
5.67572000 -5.69198000 3.13290000
5.62141000 -5.89125000 3.23619000
5.62532000 -5.79070000 3.15715000
4.57783000 -0.78820400 -2.75567000
4.06371000 -0.86174900 -2.90231000
3.63057000 -1.17166000 -2.89358000
3.64942000 -0.93879200 -2.99790000
-9.55205000 -0.53069900 1.86286000
-7.27237000 3.86027000 -1.09765000
-7.48873000 3.84897000 -1.09395000
-7.13378000 3.94962000 -1.33263000
-7.40399000 3.90895000 -1.24511000
6.82353000 -0.11430100 -2.50208000
6.78982000 0.14663600 -2.57429000
6.56328000 -0.07813900 -2.58310000
6.53281000 -0.32370300 -2.51123000
-5.32110000 2.20177000 2.76949000
-5.45375000 2.10129000 2.62002000
1.18166000 -3.56114000 -1.52107000
0.76257100 -3.63096000 -1.14545000
-6.54494000 2.16483000 -1.42924000
-6.47221000 2.14451000 -1.59274000
-6.61420000 2.11499000 -1.55409000
8.07987000 2.88322000 -2.52145000
-5.82080000 2.62033000 -3.40650000
-5.66478000 2.47261000 -3.48424000
-5.48966000 -2.84643000 -0.89546000
-5.05568000 -3.07851000 -0.55455000
6.25133000 -3.03165000 -0.41180500
5.97306000 -3.13363000 -0.67887600
6.26605000 -2.99513000 -0.60635600
5.86164000 -3.09871000 -1.02077000
5.63295000 -3.13039000 -1.21173000
-1.28168000 5.42866000 -0.46154300
-1.53777000 -2.69022000 3.45070000
-1.45435000 -2.64002000 3.32429000
-1.25924000 -2.44064000 3.05086000
9.71276000 0.14483100 1.80374000
9.79918000 0.46508800 1.56561000
9.82990000 0.48747500 1.95995000
9.95426000 0.86030800 -1.00041000
5.82755000 -3.14594000 3.22928000
-5.87330000 -2.97915000 1.42523000
-6.02816000 -2.85572000 1.63583000
-3.73978000 2.59041000 2.10457000
-3.28500000 2.13960000 2.60911000
4.20090000 -1.16611000 3.34049000
4.33700000 -1.33956000 3.26773000
4.44688000 -1.21820000 3.25377000
4.57049000 -1.45361000 3.16783000
4.50532000 -1.22137000 3.25861000
-7.93542000 3.38574000 2.06719000
-8.22537000 3.31898000 2.25003000
8.43964000 -4.86832000 3.56849000
-1.36470000 -2.63846000 3.10630000
-1.36470000 -2.63846000 3.10630000
-1.53758000 -5.00561000 -3.37590000
-1.55078000 -5.00253000 -3.20330000
-1.68935000 -5.56345000 -3.30561000
-1.63434000 -5.38396000 -3.38347000
6.53329000 -2.86259000 -0.38442000
7.10082000 -2.57591000 -0.35825000
6.74065000 -2.76054000 -0.38545500
1.87154000 2.90980000 1.83915000
9.84389000 0.60879200 1.81628000
9.88225000 0.78158300 2.03273000
-1.31161000 4.76333000 0.34091400
-1.14053000 4.72627000 0.33666100
-1.34539000 4.94346000 0.22685800
-1.43977000 5.22360000 0.15375100
6.50734000 -2.83826000 -0.64942500
6.59882000 -2.78538000 -0.81162400
6.32820000 -2.83429000 -1.10969000
6.41992000 -2.84944000 -0.92833300
8.45467000 3.63941000 -0.64744300
8.29319000 3.63496000 -0.71821600
8.49597000 3.50872000 -0.62794500
-1.87548000 2.34868000 -3.02953000
-3.99467000 3.11636000 2.81705000
-4.21570000 3.30889000 2.60947000
8.32303000 -4.66218000 -3.54710000
8.47526000 -4.68905000 -3.37557000
8.43721000 -4.49327000 -3.43028000
-7.55488000 1.98896000 0.39585200
-7.62107000 1.60101000 0.42153300
8.58632000 1.98744000 3.19780000
8.17595000 1.86159000 3.50555000
2.72293000 1.71238000 3.62402000
2.69492000 1.24647000 3.84214000
2.62098000 1.48649000 3.77114000
-3.56432000 4.89203000 0.38049200
-3.38660000 4.86211000 0.39574800
-3.48996000 5.05245000 0.24127000
-4.06276000 -5.75862000 -2.79297000
-4.02482000 -5.92795000 -2.63595000
-4.15033000 -5.97719000 -2.73774000
-2.95339000 1.27744000 4.03206000
-2.67056000 1.21199000 4.08876000
5.14352000 -0.53774200 -3.56332000
5.26903000 -1.09456000 -3.29811000
-8.74487000 -2.06111000 1.71626000
-8.85089000 -2.21831000 1.63034000
-3.50464000 -2.91288000 1.83971000
-3.76389000 -2.82097000 2.11605000
-3.68603000 -2.83943000 1.97109000
6.56486000 -1.27292000 -1.84534000
6.89233000 -1.25191000 -1.66703000
6.54934000 -1.40759000 -1.66609000
-5.30639000 2.44413000 3.12878000
-5.56610000 2.52615000 3.17829000
-5.56130000 2.57675000 3.03940000
4.44779000 1.57310000 -3.30653000
4.50011000 1.24025000 -3.42975000
7.03234000 -1.77445000 -3.98867000
2.36779000 -3.83458000 0.45026400
2.63677000 -3.82520000 0.50871200
2.91215000 -3.74076000 0.74766700
2.25333000 -3.77241000 0.71790400
7.40040000 -2.48676000 -2.39580000
-2.48191000 -5.62542000 -4.10206000
-2.61308000 -5.63919000 -4.11911000
-2.79023000 -5.70424000 -4.14739000
6.72900000 -4.21119000 -3.24373000
6.71416000 -4.11304000 -3.24829000
8.55579000 0.15953500 3.84081000
8.89895000 0.37621200 3.60897000
8.99345000 0.60394000 3.50823000
8.75799000 0.58364600 3.68071000
3.33642000 -3.67513000 0.75474200
3.15887000 -3.39379000 1.42274000
3.14825000 -3.61272000 1.00264000
3.14120000 -3.71906000 0.71733300
7.06168000 4.06087000 1.42511000
7.23888000 4.14547000 1.32732000
7.11851000 4.12591000 1.22611000
7.84952000 -4.68541000 -2.53607000
7.79747000 -5.07022000 -2.53503000
7.71980000 -4.76990000 -2.51609000
-3.87637000 2.44780000 1.41032000
-5.62342000 2.51741000 -2.01891000
-5.55879000 2.33586000 -2.35177000
-1.73294000 -3.20278000 2.29264000
6.81228000 -1.73349000 0.63746300
-1.96874000 5.87242000 -0.14547900
-5.72707000 4.30828000 -0.35367800
-5.77835000 4.35513000 -0.34557800
-5.59808000 4.31013000 -0.32219200
-5.75144000 4.44610000 -0.29053600
4.92877000 -3.03214000 -1.95270000
4.77351000 -3.07081000 -1.80609000
4.77767000 -3.11164000 -1.71679000
-1.95922000 -4.91632000 -2.74833000
-2.20907000 -4.87166000 -2.67028000
-2.12255000 -4.89901000 -2.69738000
-2.94501000 0.40448400 2.95760000
-3.02919000 0.13543200 2.88904000
-0.44294100 -1.63388000 3.29696000
-2.59860000 -5.54746000 1.95003000
9.48276000 0.51161600 0.57306400
7.63699000 0.85366600 2.10699000
7.95727000 0.89196700 1.98840000
-2.65528000 1.52730000 2.97310000
-2.33211000 1.70587000 2.98321000
-2.47785000 1.93957000 2.88461000
8.33008000 -5.46007000 -3.14249000
8.46461000 -5.33382000 -3.16105000
8.58966000 -4.90435000 -3.06989000
8.59516000 -5.09066000 -3.00774000
3.60781000 -3.55720000 0.97075300
3.32680000 -3.35644000 1.42987000
8.12954000 -5.99516000 -3.47003000
-6.31122000 1.70207000 -1.77217000
-9.64427000 -0.62150400 0.17224500
-9.65383000 -0.65620400 0.03183340
-7.10950000 -2.13259000 -0.93422200
-6.27397000 1.45750000 2.28333000
4.98313000 -0.02997530 -2.86011000
4.77972000 0.22824400 -2.92591000
-2.29911000 -5.06109000 3.50673000
-2.26232000 -5.13772000 3.56909000
-2.33832000 -4.83878000 3.53849000
-8.24936000 -1.98181000 2.16980000
-8.30953000 -2.02752000 2.01360000
-3.11380000 -4.22474000 -3.66872000
-3.15612000 -4.00543000 -3.71557000
-3.22544000 -4.09599000 -3.54214000
-7.21951000 3.78948000 1.25622000
4.88435000 0.05260260 3.78218000
4.53067000 0.40419200 3.44277000
0.61653900 -0.25250900 -4.23082000
-0.33161800 -0.29875900 -4.03539000
2.12425000 0.10233100 3.15093000
2.55853000 0.26373700 3.13360000
2.06118000 0.36665000 3.15475000
8.38494000 2.08293000 -3.05648000
-3.78285000 2.83229000 1.83105000
-3.70771000 2.90570000 1.86795000
-7.73586000 2.33599000 -2.92277000
-7.62181000 2.27939000 -2.97225000
-7.91263000 2.35586000 -2.72799000
-7.65016000 2.51645000 -2.92102000
-7.89437000 2.54211000 -2.79557000
-7.75559000 2.68087000 -2.81360000
3.75010000 -2.06374000 -2.15693000
-5.95171000 3.14749000 -1.24574000
5.54455000 -1.41747000 -2.04669000
-3.07769000 -3.97301000 -3.79683000
-3.01413000 -4.28018000 -3.75552000
2.83648000 4.10862000 -0.42980100
6.00477000 2.47664000 -3.45349000
-2.18839000 -6.11606000 -2.86294000
-2.54477000 -6.11571000 -2.72850000
-2.60496000 -6.02396000 -2.49563000
-2.84243000 -6.05688000 -2.50402000
9.45278000 -0.48910100 2.96234000
9.53487000 -0.47787500 2.84924000
9.48521000 -0.40794900 2.91288000
9.39774000 -0.55174100 3.00335000
-6.06184000 -2.73706000 -0.90863200
-5.80003000 -2.85478000 -0.80739100
4.04817000 -0.83965200 3.46651000
3.93497000 -0.62725000 3.55043000
3.46995000 -0.50652600 3.71295000
9.24998000 -0.39516300 -0.39004300
9.14643000 -0.55782900 -0.30431700
-2.87554000 5.94816000 -0.45115400
-2.96481000 6.08776000 -0.41927700
5.51920000 -5.94141000 -3.34043000
9.10424000 1.54221000 -2.85856000
8.91860000 1.68494000 -2.96767000
-5.96770000 -1.75929000 -1.07104000
-7.18897000 -1.34751000 2.46401000
9.32049000 2.07721000 0.45745500
9.13708000 2.46737000 0.42329900
-6.18928000 3.23347000 -1.47570000
3.75591000 -2.42546000 1.48864000
-1.12740000 1.08054000 3.76445000
7.66004000 -2.03808000 1.85995000
7.63225000 -2.10050000 1.73544000
7.85216000 -1.92531000 1.93232000
7.46841000 -2.12214000 1.82925000
-2.91652000 4.14908000 1.60156000
8.10443000 -1.78462000 1.93371000
8.37976000 -1.62207000 2.07114000
8.35697000 -1.65232000 2.10342000
3.42503000 -3.21210000 1.59830000
3.13530000 -3.30034000 1.58076000
2.68934000 -3.70253000 -1.23558000
2.95317000 -3.69868000 -1.20855000
2.93688000 -3.59183000 -1.43153000
2.75201000 3.45218000 1.58659000
2.60097000 3.65868000 1.29844000
2.50592000 3.47783000 1.65454000
2.55444000 3.75327000 1.14932000
2.46090000 3.91411000 0.82641700
3.48016000 -3.32714000 1.44367000
3.44680000 -2.80544000 2.05013000
3.45015000 -3.02252000 1.79722000
8.55085000 -3.84469000 3.18174000
-1.89759000 -5.42102000 2.25450000
8.58082000 -1.98063000 -0.24866600
8.61219000 -1.84355000 -0.63757300
8.53024000 -1.91174000 -0.71442000
-1.99184000 5.21845000 -0.51208300
-1.96005000 1.42187000 -3.34986000
-1.75735000 1.66075000 -3.30402000
8.51197000 3.67775000 1.97596000
8.41890000 3.56891000 2.11584000
8.54338000 3.49972000 2.05825000
-6.15610000 -2.34457000 -1.38150000
-6.62564000 -1.70798000 1.82314000
-1.91568000 -6.11150000 -3.04099000
-1.99837000 -6.10910000 -3.05734000
-2.05568000 -6.09133000 -2.88485000
-0.38665700 2.73598000 2.91579000
-0.52809300 2.03653000 3.41083000
9.10629000 0.76020700 -1.37748000
9.07363000 0.92324000 -1.47514000
-6.90928000 1.24606000 1.13622000
-6.96057000 1.16220000 1.06156000
-7.17906000 1.36456000 0.85307700
-1.34292000 -2.98704000 1.67418000
-1.39772000 -3.04600000 1.49158000
-1.15329000 -2.97290000 1.66377000
-1.55402000 -4.84110000 3.17773000
-1.54972000 -4.92914000 3.08708000
-1.51653000 -4.77207000 3.09705000
-1.50780000 -4.58571000 3.22450000
-2.33030000 -2.88134000 3.72121000
-2.35225000 -2.57090000 3.77364000
-5.25469000 1.66317000 -2.85822000
8.44669000 -3.26130000 -3.14517000
8.47446000 -3.44604000 -3.24578000
8.39257000 -3.30214000 -3.35430000
8.46234000 -3.39415000 -3.07704000
4.34585000 -3.13874000 1.63102000
4.30578000 -3.10502000 1.57844000
4.47979000 -3.12989000 1.50237000
4.50761000 -3.02946000 1.83991000
4.30934000 -3.09663000 1.73624000
4.50871000 -3.13779000 1.63275000
-2.39049000 5.92816000 -0.02271740
-2.14779000 5.57768000 0.08042290
-2.45557000 5.91184000 -0.02179840
-7.25186000 -0.17783200 1.80005000
-7.50608000 -0.39452000 1.91723000
6.74649000 -2.52121000 -1.35469000
6.49860000 -2.59726000 -1.44278000
-0.63603100 1.60561000 3.59182000
-0.58276800 1.78645000 3.52734000
6.44197000 3.14424000 2.44554000
6.07232000 3.24386000 2.23334000
7.13088000 2.88822000 2.81646000
6.75997000 2.95535000 2.77212000
6.72965000 2.87429000 2.86123000
-4.37615000 -0.90114200 3.31120000
-4.16275000 -0.83240000 3.52680000
-4.28466000 -0.48786300 3.51507000
-6.76842000 -0.06213790 1.93817000
-7.64450000 -0.16424900 1.61796000
8.59923000 -4.64487000 -2.93952000
8.56480000 -4.97643000 -2.95044000
2.34994000 -1.64994000 -2.78479000
1.65587000 -1.57253000 -2.84190000
-7.50444000 -0.76670100 2.39888000
-7.77312000 -0.86770900 2.36587000
-3.46671000 -3.58367000 2.35743000
-3.32356000 -3.54074000 2.19645000
-3.13554000 -3.57087000 2.13304000
-1.36047000 5.83394000 -0.15536400
-1.45377000 5.74729000 -0.15824000
-1.48929000 5.73487000 -0.15749500
-4.87530000 -2.92610000 1.24704000
-5.16019000 -2.91543000 1.32428000
9.52342000 0.52539600 0.09708360
9.55039000 0.51479200 0.25066500
-5.89751000 4.69205000 -0.04566470
-5.68407000 4.61176000 0.03066440
-4.67723000 -1.64124000 2.77434000
8.15986000 -5.13183000 3.05146000
-9.64703000 0.17127900 1.15740000
9.25908000 2.54350000 -1.82796000
9.01204000 2.62504000 -2.06320000
9.11501000 2.71261000 -1.80268000
4.19746000 -1.77843000 3.04260000
4.75722000 -1.63555000 3.08227000
-6.32537000 0.90760900 -1.60483000
-6.28192000 0.97336200 -1.72826000
-0.12097900 3.14998000 -2.00388000
0.62048700 3.07790000 -1.92930000
-6.19558000 1.72210000 -2.07877000
-6.10557000 1.77000000 -2.07954000
-0.21700500 -3.51678000 0.71713900
-0.32081400 -3.41340000 0.95005700
-0.31654100 -3.61094000 0.18915200
-0.19134100 -3.57218000 0.54701000
4.66318000 -1.76839000 2.96673000
4.76354000 -1.85728000 2.88749000
4.53906000 -1.94721000 2.76157000
-1.96448000 0.84543500 -3.40458000
8.19786000 -2.37747000 -3.62103000
-4.00218000 -1.62079000 3.39366000
8.14506000 -5.11888000 3.24898000
8.11101000 -5.20282000 3.09196000
4.68290000 2.64311000 1.59960000
4.73418000 2.40594000 1.81843000
4.51444000 2.52875000 1.74374000
-8.79036000 -0.09668340 1.33810000
-8.96284000 -0.06359180 1.36111000
-8.82472000 -0.22478300 1.52448000
-8.89992000 0.03881780 1.05259000
-0.49476500 -3.59636000 0.10139600
-0.66885200 -3.52559000 0.46385200
-0.80070500 -3.54961000 0.03646410
-0.36426500 -3.61461000 -0.50831100
5.35296000 3.92920000 0.56096300
5.76310000 3.91991000 0.59716900
6.25810000 3.91584000 0.70969000
-4.07355000 5.85284000 -0.44642100
-6.19981000 2.07179000 3.83621000
-7.20083000 2.45773000 3.46044000
-6.32279000 2.11882000 3.75492000
-6.76002000 2.29040000 3.68629000
-4.36021000 -3.25644000 0.45668400
3.11400000 -0.87963400 -3.97676000
-4.78615000 1.35860000 -3.45339000
-4.52124000 1.15734000 -3.41084000
-4.62689000 1.01986000 -3.37271000
-4.20959000 -2.79680000 -1.51931000
-4.59257000 -2.73242000 -1.42222000
-4.23799000 -2.69093000 -1.68421000
7.31524000 1.78860000 -2.22590000
7.61810000 1.53513000 -2.25507000
-9.55940000 -0.60593500 1.11155000
7.01555000 -6.06040000 3.93462000
6.95833000 -6.06140000 3.93417000
-8.39418000 3.67662000 -0.98907700
8.03788000 -1.09307000 -0.61434100
7.87542000 -1.29382000 -0.36798400
9.01689000 -1.00070000 1.47305000
9.03104000 -1.03329000 1.58765000
8.86257000 -1.20400000 1.73620000
8.60461000 -0.69021400 0.10139800
8.58646000 -0.70902200 -0.02666570
-4.93760000 0.92511100 -3.21489000
-5.25319000 1.06762000 -2.99406000
-5.17531000 1.31248000 -3.09759000
-5.30960000 1.26283000 -2.89843000
7.98878000 -4.15748000 -2.57503000
1.67362000 -3.08426000 -2.29300000
-2.31899000 -3.10261000 1.32947000
-2.01574000 -3.22477000 1.08552000
8.53653000 4.24697000 0.42833900
8.58027000 4.25526000 0.57234400
8.62340000 4.11019000 0.41511500
-5.19745000 2.83474000 3.57110000
-5.29776000 3.11153000 3.38222000
7.62129000 -2.41812000 -0.16022400
7.52405000 -2.39419000 -0.24168300
-6.96808000 0.99920500 -0.70459800
-5.05687000 3.67448000 1.95209000
-4.92197000 3.67823000 1.81087000
-5.32755000 3.74482000 1.65970000
-3.32350000 5.10737000 0.28815700
-5.11996000 -1.37723000 1.84440000
-5.18178000 -1.48793000 1.80779000
-5.23483000 -1.55687000 1.78620000
-5.05778000 4.00021000 -0.59128100
-5.52394000 3.86689000 -0.47972500
-3.44968000 -3.26774000 -3.76663000
-3.51215000 -3.52243000 -3.62444000
-3.56839000 -3.27141000 -3.65335000
9.18998000 2.18518000 -0.90991200
9.15460000 2.37993000 -0.78412800
-8.57705000 -1.91251000 -1.03975000
-8.39532000 -1.97090000 -1.05590000
-8.12079000 -2.00791000 -1.16568000
-8.30091000 -2.06836000 -1.14001000
-8.21194000 -1.89028000 -1.03548000
-4.93530000 -1.67153000 -2.55362000
-3.49765000 4.63551000 0.57524300
-3.30529000 4.64228000 0.62000000
-3.34271000 4.74253000 0.52438400
-6.72698000 -2.10991000 1.79239000
-8.11279000 -2.38331000 -0.57058200
0.89009700 3.09317000 -2.98316000
0.45882400 3.22279000 -2.82125000
0.87281100 3.34028000 -2.64417000
-2.71965000 2.74700000 3.36068000
-8.79719000 -2.35488000 1.11042000
-8.88454000 -2.23720000 1.06428000
5.33803000 -2.17419000 -2.46640000
6.86836000 -3.01374000 0.17376700
6.80447000 -3.05663000 0.08504190
-6.94933000 -3.15300000 1.31950000
-6.76291000 -3.11102000 1.27365000
-6.71027000 -3.22058000 1.08693000
7.51587000 -2.79405000 2.72939000
7.71850000 -2.58977000 2.80622000
7.45446000 -2.98460000 2.70833000
-8.15429000 -1.77927000 -1.00852000
-8.12798000 -1.69418000 -0.99174700
-8.25679000 -1.77912000 -0.96035600
2.78569000 -3.19413000 -0.31274000
2.41848000 -3.22896000 -0.21823200
4.60671000 2.57614000 -1.94070000
4.67853000 2.07781000 -2.35065000
4.65232000 2.29541000 -2.18760000
-2.45158000 -2.58989000 -0.26190800
-2.18763000 -2.59952000 -0.45660700
-2.53242000 -2.49962000 -0.60341200
-0.38952200 -3.27993000 1.25181000
-0.60647200 -3.14818000 1.46099000
-5.79324000 0.12068800 -2.53136000
-5.75434000 -0.04109790 -2.59499000
-5.64574000 -0.07937080 -2.88953000
-5.95702000 3.27117000 0.43576200
-5.95774000 3.34224000 0.29548900
-5.69205000 2.46392000 -2.47419000
-5.53434000 2.25977000 -2.60178000
-5.63693000 2.44470000 -2.40459000
-9.53355000 -1.66631000 0.25071100
-9.57498000 -1.59084000 0.40759000
-1.68207000 0.10704800 3.08027000
-1.64997000 0.42078800 3.13541000
-4.54843000 -2.25672000 -2.21050000
-4.65163000 -2.23399000 -2.24901000
-4.47563000 -2.22490000 -2.32165000
-4.54843000 -2.25672000 -2.21050000
-4.74074000 -2.27781000 -2.05177000
-4.65163000 -2.23399000 -2.24901000
-8.50814000 -2.63418000 -0.27512100
-5.96607000 4.71901000 -0.20747300
-5.67762000 0.13080600 -2.85371000
-0.31011400 -3.33716000 1.15660000
-6.05840000 3.30648000 -0.31543200
4.68678000 1.60692000 -2.63707000
4.72333000 1.85586000 -2.49188000
4.39596000 1.71088000 -2.64960000
7.99294000 2.02037000 -3.30691000
7.81543000 1.98431000 -3.43328000
7.21535000 2.38143000 -3.33125000
4.51335000 2.76255000 1.49972000
4.94189000 2.82737000 1.37491000
1.89038000 3.46918000 -0.90394800
1.64244000 3.42443000 -1.11353000
6.88256000 -2.36981000 2.11706000
6.63411000 -2.42339000 2.09254000
6.88256000 -2.36981000 2.11706000
6.63411000 -2.42339000 2.09254000
6.96082000 -2.30706000 1.99701000
-9.30877000 -1.72428000 0.77925800
8.50286000 1.92616000 1.48856000
-0.98238800 -1.88417000 -3.49421000
-0.98546800 -1.98760000 -3.37250000
1.62354000 -2.11379000 3.07628000
2.11133000 -2.20580000 3.02164000
-1.51088000 5.03724000 0.24264200
-1.59772000 5.00600000 0.26893100
-1.50914000 5.08091000 0.17763500
-6.10150000 3.25592000 0.27419300
-2.24270000 -4.83172000 -4.03830000
-2.34271000 -4.69474000 -4.05312000
-0.99081700 -1.12791000 3.56680000
-0.95217400 -0.76212000 3.68074000
-1.18365000 -0.80973500 3.71747000
-4.39608000 -2.20566000 -2.56261000
-7.27252000 2.46142000 -0.24187000
-6.85782000 2.60467000 -0.47747300
9.53354000 -0.25451300 1.58902000
9.65683000 0.00224753 1.75377000
7.90965000 -4.93926000 2.62526000
8.06606000 -4.75421000 2.72947000
8.33404000 -1.61613000 -1.08154000
8.15743000 -1.81016000 -1.04395000
8.43608000 -1.50146000 -1.04588000
-5.91442000 3.54817000 -0.36661600
7.25350000 -5.87913000 -4.13683000
9.96054000 1.47590000 0.79885500
9.91182000 1.79951000 0.81199000
9.87471000 2.09758000 0.36366500
7.99454000 -6.10153000 3.41077000
7.80985000 -6.09296000 3.61389000
-1.74205000 3.77636000 2.06019000
-1.47879000 3.74184000 1.99149000
-2.18737000 3.71549000 2.29443000
-9.06628000 -1.81022000 -0.60543600
-9.04903000 -1.76027000 -0.70598100
-5.40672000 2.22759000 3.71308000
-8.51971000 -3.18662000 0.16952700
-8.29793000 -3.26963000 0.15573300
-8.11375000 -3.25299000 0.00285402
-8.21129000 -3.18336000 -0.11178600
7.89790000 3.86821000 0.48346400
8.55845000 -1.29884000 -1.28874000
3.04491000 -2.50781000 -1.79105000
9.68819000 -0.15803900 2.30065000
-6.08385000 2.70258000 3.00770000
9.92409000 1.00431000 0.25418100
6.36030000 -5.68645000 2.22518000
7.33750000 3.07236000 -1.07718000
7.21938000 3.17217000 -0.91484600
-3.30566000 -3.76007000 2.36463000
0.30369500 -2.84238000 1.02276000
-2.23088000 6.09670000 -0.04555610
-2.16131000 5.97243000 0.00510347
-7.04804000 3.52894000 -0.89795400
-3.14760000 2.57394000 -3.56579000
-3.24802000 2.79370000 -3.36922000
-2.99157000 2.81977000 -3.41824000
-2.84346000 2.45781000 -3.70093000
-2.80900000 2.66932000 -3.57555000
-2.55868000 2.58153000 -3.66082000
-3.17510000 -4.69424000 -3.34937000
-3.16031000 -4.44385000 -3.36399000
-2.36589000 6.12027000 -0.13966800
-2.46772000 6.00457000 -0.17080300
-8.53052000 -1.74681000 1.25357000
-8.57774000 -1.79705000 1.39143000
-8.64676000 -1.72186000 1.16625000
-8.56836000 -1.78840000 1.11799000
3.73332000 0.41642800 -3.21343000
-1.55572000 -5.13409000 -3.38035000
-1.63434000 -5.38396000 -3.38347000
-1.55572000 -5.13409000 -3.38035000
8.23241000 -3.11407000 3.25202000
-9.82716000 -0.48028400 0.01236170
-2.38255000 -0.38187200 2.85744000
-2.44803000 -0.61394600 2.73969000
-2.92507000 -0.45642300 2.71114000
6.46173000 1.80419000 2.10815000
6.33307000 2.04703000 1.97509000
6.50921000 2.28470000 1.77791000
9.29385000 -0.87827200 2.42720000
9.56708000 -0.58027200 2.37915000
9.49633000 -0.70062200 2.36638000
9.58794000 -0.64891200 2.28626000
-3.03486000 -4.86005000 -2.85148000
-2.96855000 -4.71223000 -2.88634000
-2.78261000 -4.92482000 -2.71364000
-2.86975000 -4.74553000 -2.80103000
7.34834000 -2.61606000 -0.10544000
0.79033700 -0.07075820 4.15938000
0.59301500 0.26010700 4.14963000
0.32318700 3.60991000 -0.57375000
0.17525800 3.59063000 -0.81874400
0.37147900 3.35373000 -1.46203000
0.40901500 3.47551000 -1.12742000
0.14371800 3.52094000 -1.11298000
8.19520000 -5.45483000 3.69801000
8.09540000 -5.51399000 3.78887000
7.93361000 -5.51665000 3.87390000
7.76430000 -2.96722000 -3.85915000
8.03347000 -5.64523000 3.70880000
8.11138000 -5.64224000 3.64882000
1.53606000 -3.63630000 1.03852000
1.76254000 -3.68332000 0.95001900
1.46402000 -3.71651000 0.82611200
-5.21884000 -2.19390000 2.24679000
-4.71436000 -2.21099000 2.32528000
5.83043000 1.48391000 -4.07500000
5.63461000 1.66715000 -3.98387000
6.22078000 -5.08051000 -3.08117000
6.22377000 -5.04033000 -3.21881000
6.37387000 -5.09501000 -2.93726000
6.29046000 -5.24919000 -2.75817000
6.44621000 -5.05855000 -2.79616000
3.45617000 1.17549000 -3.14391000
3.36060000 0.90226700 -3.22940000
3.49534000 0.67086100 -3.24345000
-5.84640000 1.18381000 2.24563000
-5.71234000 1.37279000 2.28939000
9.50928000 -0.22132300 -0.66805900
9.38776000 -0.29921200 -0.57472600
9.39857000 -0.30315700 -0.67164300
9.53714000 -0.52387600 2.21314000
9.49528000 -0.72951000 2.22167000
9.36429000 -0.76485700 2.26153000
-5.79720000 -2.45781000 -1.28847000
-6.01612000 -2.29148000 -1.44825000
-5.79720000 -2.45781000 -1.28847000
-6.92387000 -1.21577000 -1.09709000
-6.80555000 -1.23985000 -1.16659000
9.54048000 -0.49821200 1.93743000
9.42988000 -0.60562600 2.01485000
9.44619000 -0.54262000 1.89323000
9.45874000 -0.61362600 2.12690000
-2.28292000 -4.49409000 -2.62572000
-2.57538000 -4.70734000 -2.67963000
-2.43634000 -4.83465000 -2.66596000
1.49470000 1.95600000 -3.89335000
6.95328000 4.19250000 -0.01580440
7.82513000 4.23318000 1.31087000
8.49753000 -4.87972000 3.42725000
8.45818000 -4.90740000 3.49624000
4.78942000 0.04573030 3.69681000
4.87644000 -0.45698900 3.76288000
4.91486000 -0.69374000 3.75664000
8.62142000 -1.79143000 0.92183100
2.44077000 -1.39859000 -3.77468000
2.61947000 -1.23722000 -3.79580000
2.61230000 -1.59669000 -3.63030000
2.41382000 -1.07014000 -3.93630000
9.44850000 -0.40612100 1.61141000
9.50877000 -0.52932800 1.61022000
9.37923000 -0.53087800 1.62007000
9.51765000 -0.20982800 1.51101000
4.33237000 -2.71724000 -2.49119000
4.19378000 -2.75907000 -2.52362000
4.02915000 -2.59631000 -2.65757000
4.05490000 -2.77586000 -2.53214000
-3.48977000 -6.12290000 3.33949000
-2.73534000 -0.65881500 -4.39712000
-2.64007000 -0.68355800 -4.37810000
-6.13541000 3.90652000 -2.12910000
-5.68898000 3.80448000 -2.24407000
-6.41444000 3.96334000 -1.96318000
-6.78386000 3.95387000 -1.92104000
-8.86818000 -2.42679000 0.22445700
-8.67215000 -2.65796000 0.30648900
9.42962000 -0.65154100 1.68913000
9.38372000 -0.63093900 1.75485000
9.34358000 -0.62722800 1.68683000
9.49176000 -0.39568400 1.66435000
9.47644000 -0.43433400 1.77056000
5.55294000 -5.67303000 -3.11142000
5.65373000 -5.65868000 -2.95893000
2.24610000 -0.98549400 2.90134000
2.48740000 -0.38436000 3.07464000
2.25297000 -0.69262700 3.00754000
-6.03865000 2.31236000 1.90697000
-6.26281000 2.33172000 1.73091000
9.32125000 -0.68625300 1.79779000
9.42882000 -0.56303600 1.78460000
-1.13066000 -3.51981000 -0.64951700
-1.40941000 -3.47830000 -0.75095300
-1.38740000 -3.53111000 -0.48258400
-1.57350000 -3.48589000 -0.56191100
-2.01088000 1.64610000 -4.04324000
-1.80132000 1.13345000 -4.07063000
-1.66152000 -3.46752000 0.50552100
-1.65978000 -3.44377000 0.62431400
-8.78231000 -1.80211000 0.63311100
-8.77259000 -1.87333000 0.63290100
7.94493000 -1.12596000 0.53667200
7.95560000 -1.20155000 0.31612400
8.34609000 -4.11826000 -3.49718000
7.98520000 -4.42398000 -3.76913000
7.81872000 -4.77937000 -3.87521000
-3.48985000 -0.94932300 2.24442000
7.65663000 3.91497000 2.03152000
7.45050000 3.91198000 2.00063000
5.63838000 2.99800000 -2.81122000
5.65089000 3.31419000 -2.27580000
-7.23273000 -2.07376000 2.13599000
-7.15912000 -1.66145000 2.07526000
4.80117000 3.96512000 -0.58078800
5.17753000 3.82629000 -0.96562100
-9.19800000 -2.24115000 0.83685600
-9.21643000 -2.27097000 0.90284400
-9.23115000 -2.24669000 0.79323900
-9.30673000 -2.14410000 0.94267300
6.16945000 2.65314000 -3.25166000
6.08453000 2.82491000 -3.03877000
5.93190000 2.89790000 -2.95828000
5.94768000 2.97824000 -2.86130000
-3.08352000 -0.99595700 2.35435000
7.11659000 2.62664000 -1.65746000
6.86460000 2.76961000 -1.55573000
6.30874000 2.74989000 -1.64236000
9.11650000 -1.00225000 0.78974000
9.09253000 -1.04318000 0.66044900
7.77696000 -5.38300000 3.88088000
7.76535000 -5.05099000 3.81418000
8.55495000 -0.36543800 0.89922400
8.51561000 -0.26786400 1.07222000
-8.11160000 -1.66438000 2.23632000
-8.09223000 -1.55348000 2.20260000
-9.24717000 -1.28560000 -0.71320900
-9.29638000 -0.95554700 -0.58129700
-4.84590000 1.71821000 -3.38325000
-4.72250000 1.91999000 -3.40026000
-4.83649000 1.62494000 -3.40272000
-4.84590000 1.71821000 -3.38325000
8.48145000 -1.80479000 -2.84045000
8.48145000 -1.80479000 -2.84045000
-8.46882000 -1.10606000 -1.09953000
-1.34106000 4.42074000 0.74418700
-0.87132500 4.32106000 0.64133900
-1.47970000 4.47987000 0.73070500
-1.74185000 4.55007000 0.72493400
-7.33769000 2.52361000 3.45499000
8.95144000 -0.07460870 -0.49877000
8.98782000 -0.08710860 -0.47717700
-3.21363000 -4.39487000 2.76645000
-3.16874000 -4.52078000 2.59030000
-2.49719000 3.94793000 0.66139500
-2.75650000 3.85421000 0.82153500
9.26703000 3.35220000 0.53803600
9.28787000 3.16656000 0.62518200
-5.35422000 -2.26491000 2.18561000
7.70763000 -5.28827000 3.81402000
-3.29939000 3.84725000 0.21437300
-3.54233000 3.77344000 0.15160600
-3.67243000 3.73817000 -0.15001600
-5.28634000 2.35128000 2.93334000
-5.31586000 2.43672000 3.03765000
-5.30902000 2.27734000 2.82619000
-0.24044300 4.33111000 0.40058300
-0.48103600 4.21150000 0.65224700
-0.39580300 3.88746000 1.28221000
-0.54799000 4.02891000 0.99396600
-3.18015000 4.12491000 1.60596000
-3.71265000 3.99500000 1.54801000
-9.07222000 -2.33999000 0.56268900
-5.86280000 -1.74917000 1.03492000
-5.92590000 -1.70999000 0.99034300
-0.75147200 0.19618800 -3.95209000
-0.68897900 1.10994000 -3.85825000
-0.66767200 0.61219700 -3.94456000
-1.39942000 3.23888000 2.03503000
-0.97598600 3.24341000 1.93214000
-0.97009400 3.09766000 2.10030000
-8.22126000 2.98190000 3.01106000
-8.00681000 2.87886000 3.14679000
6.07468000 -5.37713000 3.14304000
6.17987000 -5.27378000 3.19439000
6.17987000 -5.27378000 3.19439000
6.07468000 -5.37713000 3.14304000
8.66971000 0.71509800 -3.48883000
-5.08915000 5.46126000 -0.40089100
9.35218000 -0.46168400 -2.27461000
9.30215000 -0.47404400 -2.60238000
9.42448000 -0.33288700 -2.29715000
9.35218000 -0.46168400 -2.27461000
8.53784000 -0.13626200 -3.60421000
8.64807000 -0.05961950 -3.54891000
8.72027000 -0.24326700 -3.48661000
-2.20699000 -5.96653000 3.36743000
-2.02403000 -5.94850000 3.22991000
-3.58500000 -1.98112000 3.59429000
-3.35453000 -1.84173000 3.79963000
-3.37370000 -1.63816000 3.85643000
1.06021000 -1.31528000 -3.93548000
0.88369000 -1.38968000 -3.88043000
0.55073200 -1.48052000 -3.78798000
0.44714500 -3.28900000 -1.93803000
0.10853700 -3.18040000 -1.92908000
0.33246200 -3.28613000 -1.95950000
8.43536000 -1.44233000 -1.98353000
2.40043000 -0.10732900 3.12152000
-9.27322000 -2.29258000 0.70541100
-3.95406000 3.72798000 1.93046000
-3.97516000 3.78980000 1.72983000
2.21750000 -1.72405000 -3.59351000
2.47154000 -1.65844000 -3.61432000
2.36952000 -1.76006000 -3.60994000
2.29274000 -1.80839000 -3.59148000
2.24871000 -1.80504000 -3.52109000
-3.92701000 -2.68026000 1.76330000
3.75940000 -3.67441000 -0.85842200
-3.40984000 -6.06024000 -2.44615000
-6.24346000 -0.66096900 -1.17029000
1.92433000 -1.11412000 -4.02819000
1.55933000 -0.93823100 -4.16466000
-8.04242000 -1.44083000 2.15838000
8.30037000 -5.52846000 -2.97018000
8.33394000 -5.47672000 -2.98856000
-8.49978000 -1.75325000 -0.10947500
-8.69885000 -1.81688000 -0.09714340
-6.34412000 -0.52849500 2.47086000
-5.89255000 -0.56011300 2.64233000
6.20635000 -5.83127000 3.72765000
6.40408000 -5.82108000 3.84215000
6.14791000 -5.47777000 3.51659000
-6.09787000 -1.37521000 1.66824000
6.74075000 0.95774400 -2.60571000
6.56627000 0.62921300 -2.66861000
6.77162000 0.38679600 -2.61351000
5.94887000 -6.03876000 3.49360000
6.02145000 -5.94084000 3.52069000
5.88262000 -5.87401000 3.49900000
6.13323000 -5.76341000 3.61266000
-0.78819900 -0.77247300 3.66223000
-6.51498000 -1.01957000 2.37156000
-6.48083000 -0.93572200 2.48790000
-6.56696000 -1.00274000 2.41735000
-6.65863000 -0.92952200 2.46102000
-1.74242000 -5.09605000 -3.88094000
-1.67419000 -4.86624000 -3.81056000
-1.82515000 -4.97520000 -3.94034000
8.04531000 -1.38030000 -3.77846000
-8.43005000 -1.27119000 2.13925000
-8.43005000 -1.27119000 2.13925000
6.40063000 0.36508300 -2.68944000
-9.74395000 -0.83159900 1.74213000
-9.75501000 -1.01020000 1.70893000
-1.57500000 -3.72719000 -3.75255000
-1.50808000 -3.80752000 -3.67926000
-1.68097000 -4.55665000 -3.80297000
7.30508000 2.92017000 -2.81587000
7.05704000 -3.90061000 -2.64643000
7.36260000 -2.55388000 2.61551000
7.55658000 -2.34799000 2.52980000
7.54726000 -2.49895000 2.68555000
1.77501000 3.55521000 1.73169000
9.54327000 -0.14384200 -2.40986000
9.39486000 -0.29396700 -2.57209000
9.34820000 -0.35104700 -2.56472000
9.51658000 -0.23618200 -2.28364000
-1.75149000 -2.99674000 -2.19347000
7.57834000 -0.76928400 4.26644000
5.41723000 1.61709000 -3.94795000
5.56813000 1.44046000 -4.04891000
4.09719000 -3.71204000 -0.13655300
4.13593000 -3.68647000 0.04439280
4.85900000 -3.45944000 -0.04495460
-2.70830000 4.33511000 -1.60623000
-2.86888000 4.46418000 -1.32431000
6.02236000 -3.11181000 -0.42843700
3.73104000 -0.67950300 2.81708000
2.22413000 -3.08860000 0.66849300
2.22413000 -3.08860000 0.66849300
-4.72415000 0.80015000 3.31097000
-1.46858000 -3.23790000 1.17200000
-1.30952000 -3.45495000 0.69292500
-2.81837000 -3.46013000 3.50901000
7.07258000 -4.77572000 -3.81557000
7.25806000 -4.79838000 -3.89691000
7.35347000 -5.04648000 -3.98344000
7.09541000 -4.99890000 -3.92628000
-0.04008340 -2.00676000 3.04915000
7.72184000 -2.27157000 0.52886700
7.71640000 -2.20132000 0.89565100
7.48568000 -2.35395000 0.60856100
9.29166000 -0.43825400 -2.71724000
-4.09418000 -5.59481000 -3.27561000
-3.67338000 -5.34574000 -3.28119000
7.73990000 -1.45557000 4.15971000
8.03036000 -2.02094000 4.02543000
7.91916000 -1.59553000 4.08150000
5.33838000 -0.49518700 -3.73056000
9.10963000 -0.95462100 0.37176900
-6.63449000 1.29726000 -1.51738000
-6.62590000 1.23332000 -1.32443000
-5.24213000 -2.19597000 -1.84820000
-4.98488000 -2.37596000 -1.77888000
-4.90426000 -2.24703000 -2.00702000
-3.23081000 -4.78298000 -3.34136000
-1.73504000 -3.38186000 3.56020000
-1.76299000 -2.94293000 3.62815000
-1.92366000 -2.88638000 3.68246000
0.16514500 3.65594000 0.13952500
0.35240100 3.58582000 0.44770200
0.40406900 3.51977000 0.72321600
0.13488300 3.49082000 0.95251200
0.19579800 3.56676000 0.65694700
7.13270000 -4.67674000 -3.83526000
7.06886000 -4.55911000 -3.76202000
9.26372000 2.05824000 2.46360000
0.27391800 3.36293000 1.21257000
0.34527600 3.44879000 0.97289200
7.69768000 -1.69862000 4.14388000
7.53395000 -1.73079000 4.16308000
7.36846000 -1.99069000 4.20078000
7.67150000 -1.96716000 4.14154000
8.71887000 -1.06548000 3.78021000
-4.13917000 2.33692000 -3.29043000
-4.02116000 2.48263000 -3.21559000
-7.56780000 -1.57147000 -1.02278000
-7.51717000 -1.57428000 -0.98286900
8.64053000 -0.83856100 3.90346000
8.85407000 -1.00877000 3.65653000
8.72788000 -0.68426600 3.85125000
8.36386000 -0.55424200 4.05081000
8.40228000 -0.75118700 4.04655000
-2.87138000 -0.50780100 -4.41335000
-2.86944000 -0.62480300 -4.40252000
0.42883200 3.17731000 1.53903000
0.21491700 3.65875000 -0.08260130
0.49014400 -2.39011000 -1.97223000
0.46727600 -2.57086000 -1.69092000
7.66076000 -5.36388000 3.78501000
-5.36829000 -0.61613600 2.07408000
-5.44593000 -0.58170500 1.95845000
-4.32740000 3.91095000 1.11081000
9.67803000 -0.20244900 2.38644000
9.66084000 -0.06657580 2.59079000
9.64841000 -0.09378450 2.68631000
6.01848000 -2.84126000 -3.33162000
5.90653000 -2.26634000 -3.06486000
6.03111000 -2.85375000 -3.19665000
8.16154000 2.18941000 -1.73897000
8.29531000 2.42285000 -1.49959000
0.24071500 3.64306000 -0.38015900
-5.71041000 -0.07175320 2.69118000
-5.76861000 0.55976100 2.54557000
-5.82727000 0.30731000 2.52318000
2.26937000 -2.61856000 1.54191000
2.56630000 -2.76228000 1.30328000
-3.85456000 0.75813200 -1.91613000
8.58130000 -0.65798900 3.93051000
8.51854000 -0.53302100 3.95222000
8.44716000 2.21904000 -1.59233000
-1.43655000 -3.24718000 -3.01064000
-1.36326000 -3.23207000 -3.15908000
-1.40045000 -3.13561000 -2.98378000
6.63160000 -4.02868000 3.58361000
8.84814000 -0.77920800 3.68514000
8.75441000 -0.58996100 3.77408000
5.17576000 2.59114000 -3.15637000
5.47553000 2.30895000 -3.55669000
8.47051000 2.45965000 1.11162000
-6.12189000 3.36120000 -1.08032000
-6.00663000 3.48160000 -0.97874100
-5.32015000 -1.32890000 -1.16526000
8.51896000 -4.22141000 3.14430000
8.52611000 -4.04002000 3.21403000
8.57761000 -4.27536000 3.26160000
8.54677000 -4.61843000 3.20638000
8.51377000 -4.65409000 3.02174000
8.51045000 -4.54262000 3.10543000
3.48191000 -2.71670000 2.13798000
7.98702000 -5.42806000 3.90479000
7.81704000 -5.32029000 3.92844000
-7.85205000 0.29934900 0.99559900
9.76454000 0.28841400 -0.91778800
9.73384000 0.15123300 -1.41427000
9.66176000 0.05754520 -1.16306000
-7.86854000 3.83889000 -1.59821000
-7.67841000 3.88952000 -1.58880000
-4.53598000 3.52094000 -2.27618000
8.01372000 0.05591450 1.78845000
8.54785000 0.29893300 1.50372000
8.25472000 0.21460600 1.69656000
6.01673000 -6.00833000 2.41838000
3.77247000 -3.00430000 -0.38318600
3.65167000 -2.95892000 -0.67324500
-4.11319000 3.15797000 -2.76356000
-4.06147000 3.51028000 -2.36626000
-4.01282000 3.43939000 -2.46599000
-4.10002000 3.44522000 -2.47176000
-4.76379000 2.06745000 -3.39034000
-8.47533000 -1.82679000 1.37594000
4.37864000 -1.64331000 -3.15875000
4.36590000 -1.22359000 -3.40036000
4.47491000 -1.45972000 -3.19709000
4.15870000 -1.38451000 -3.41368000
4.21592000 -1.54824000 -3.28166000
-2.02109000 -5.58113000 2.30066000
-1.95651000 -5.55426000 2.39156000
-4.05829000 3.30757000 -2.63256000
-6.17080000 1.02399000 -1.82771000
-1.57671000 -3.08155000 2.37895000
-3.81857000 0.83169400 2.44367000
-2.34494000 -2.07336000 -4.26195000
-2.40086000 -1.89812000 -4.24013000
-2.14063000 -1.68017000 -4.25707000
6.47718000 2.75491000 1.35154000
4.82907000 0.27651300 2.66120000
4.96633000 0.57246600 2.62895000
4.81468000 -0.14632900 2.62266000
-8.75529000 -2.33692000 1.35589000
-8.67922000 -2.45236000 1.35458000
5.22859000 0.09328010 2.57500000
4.85298000 0.10656500 2.64809000
-5.98884000 1.59784000 2.50339000
-5.70269000 1.42516000 2.75962000
-5.97666000 1.68866000 2.52516000
-5.70666000 1.38502000 2.68074000
7.17264000 -3.21127000 2.66054000
6.95561000 -3.82806000 2.68121000
3.13459000 -2.17307000 -3.21375000
3.03324000 -2.03723000 -3.28863000
3.21396000 -1.89764000 -3.33713000
3.02648000 -2.16165000 -3.23457000
-9.14795000 -0.25415500 -0.16301700
6.81802000 -3.58671000 -3.70050000
-6.58544000 3.24777000 -1.70245000
-2.20508000 -2.15669000 -4.20353000
-2.45631000 -2.15044000 -4.20027000
-2.14853000 -1.95384000 -4.19645000
4.95474000 -0.68835200 2.43187000
5.02061000 -0.44112800 2.50557000
2.97040000 -2.28483000 -3.12127000
-7.86353000 -1.05930000 -1.25252000
-7.85135000 -0.96782300 -1.24235000
-7.50487000 -0.94160100 -1.39679000
-2.00681000 -2.10100000 -4.18592000
-2.21436000 -2.09382000 -4.26564000
-2.02829000 -2.45571000 -4.10274000
-3.67717000 3.18034000 -1.83377000
-3.63959000 3.03804000 -2.04312000
-5.91857000 2.97860000 -0.80091500
-6.00960000 0.76829000 2.29232000
-5.67949000 0.88500600 2.63957000
-7.89368000 -0.90743600 -1.17453000
-7.95785000 -1.05015000 -1.24183000
-8.05606000 0.29222800 0.04856020
-7.94562000 0.22024100 -0.17783700
-3.73359000 -3.35742000 0.36218700
2.20717000 1.17691000 -3.27617000
2.00492000 1.40130000 -3.21112000
2.26985000 0.91579800 -3.33770000
-8.10606000 -1.95523000 1.57427000
-1.37213000 3.94277000 -0.94439800
-1.17829000 3.94630000 -0.77338900
-7.24071000 3.92040000 2.16161000
-7.33576000 3.85980000 2.37934000
-6.83809000 3.93247000 2.31057000
5.63610000 -3.07829000 0.92915200
5.29664000 -3.18206000 0.81182400
5.69584000 -3.13311000 0.69294200
-7.69325000 -1.67040000 2.17902000
-7.67192000 -1.69481000 2.22377000
-5.42854000 -1.78919000 -2.05609000
-5.28249000 -1.62427000 -2.25254000
-7.72087000 3.74520000 2.55907000
-3.67075000 -0.15392900 2.57399000
-6.38637000 1.80347000 2.03675000
-6.17382000 1.69487000 2.19508000
-4.31486000 1.49100000 3.41616000
-3.38961000 -3.83625000 -3.38291000
-3.35292000 -6.09980000 3.43330000
-3.18403000 -6.08841000 3.22355000
-2.94056000 -6.08844000 3.26320000
-3.11803000 -6.06819000 3.42730000
5.34037000 -3.26988000 0.54461600
4.94159000 -3.34394000 0.67778200
-3.87157000 4.00598000 -1.60298000
-3.84185000 3.93099000 -1.75176000
-3.90958000 3.90242000 -1.75542000
-3.99536000 4.11630000 -1.24959000
-4.02777000 4.37052000 -0.84437700
-1.88523000 -0.90484700 2.65480000
-3.65921000 -1.30243000 1.81766000
-3.64193000 -1.72671000 1.31849000
-3.63209000 -1.07489000 2.06132000
2.57718000 -2.31989000 -3.07376000
1.57840000 0.30772500 3.16393000
0.31143600 0.48122700 3.16169000
-4.80883000 3.49857000 2.44016000
-4.94576000 3.58101000 2.33088000
9.43887000 1.52989000 0.12964700
-7.14577000 2.49960000 -0.35377700
-3.60584000 -1.75059000 -1.51955000
-3.61345000 -2.00649000 -1.03862000
0.49761600 4.30783000 -0.60886200
0.76175100 4.26650000 -0.56415100
0.58602700 4.26643000 -0.71780400
0.96084000 4.21894000 -0.72576100
-7.50925000 3.26262000 2.28288000
-7.08180000 3.06804000 2.57017000
8.02349000 3.79672000 0.68022600
-2.64007000 -0.68355800 -4.37810000
-2.42409000 -0.74475700 -4.37589000
-3.01911000 -0.58539300 -4.37320000
1.38491000 2.89490000 2.90042000
6.01915000 3.18243000 0.80951300
-2.81596000 -6.03483000 3.48214000
-6.11876000 2.31966000 -2.89301000
-5.95182000 2.27007000 -2.90473000
-5.93137000 2.45998000 -2.71058000
3.93224000 2.73777000 -2.41064000
4.12024000 2.80289000 -2.30304000
-2.27244000 -6.01143000 -2.61740000
-2.70029000 -6.09774000 -2.51600000
-2.34312000 -6.10298000 -2.63999000
-2.47116000 -6.06179000 -2.52777000
8.29917000 4.25359000 0.05889520
6.56683000 -2.31493000 -1.71767000
-1.61069000 -1.31527000 3.77991000
-1.71135000 2.39916000 2.73830000
-1.52754000 2.54464000 2.64521000
-4.18248000 6.05428000 -0.07164550
-4.05512000 6.02818000 -0.02445380
-2.75191000 -1.66097000 4.04505000
-2.53214000 -1.66289000 4.04050000
5.68386000 -2.53740000 2.77241000
-3.86397000 6.03535000 -0.00885662
-8.86526000 -2.08491000 -0.34914400
-8.77464000 -2.03177000 -0.26017300
3.41033000 -1.96747000 -2.37423000
-9.72709000 -0.55657500 0.31061800
-9.84498000 -0.48934200 0.37956500
-1.18701000 3.95909000 0.45254800
-1.16580000 3.99668000 0.13856900
6.34448000 -1.34910000 1.57774000
6.72468000 -1.26472000 1.49398000
6.55422000 -1.11527000 1.73687000
7.15720000 -0.88994800 -4.12397000
-3.88008000 3.05687000 0.79669600
-1.43157000 -3.65540000 3.16208000
-1.42175000 -4.03632000 3.14102000
8.88466000 -1.10398000 -0.36126200
8.97394000 -0.99427600 -0.43999300
8.94180000 -0.99833100 -0.86268400
-1.52986000 2.84120000 -3.38590000
-1.66683000 2.44243000 -3.65477000
-1.46965000 2.58806000 -3.50795000
-5.79338000 3.69415000 0.14032400
1.97579000 1.74893000 3.80058000
0.22845300 1.03504000 4.01017000
0.66987200 0.81712500 4.15247000
-0.98385800 4.63679000 -0.89383100
7.54141000 -2.36336000 -0.30109000
-9.19800000 -2.24115000 0.83685600
-5.20910000 4.04667000 0.25328600
-5.41461000 3.96513000 0.15034600
-3.01511000 -6.09402000 -2.45048000
4.55430000 1.15726000 3.32205000
4.64507000 1.56226000 3.19730000
4.66144000 1.78396000 3.09146000
-4.78266000 -0.57387800 -3.24758000
-4.31678000 -1.14638000 -3.55917000
-1.13618000 2.86576000 -2.62396000
-1.26838000 3.23329000 -2.27946000
-1.38304000 3.43397000 -2.04903000
1.10239000 -1.25708000 -3.95132000
2.17013000 -1.24503000 -3.91509000
-1.04584000 -2.33848000 2.81233000
-2.13140000 1.09570000 4.08223000
-2.43807000 1.24648000 4.07157000
9.39561000 1.93548000 2.42763000
8.95653000 2.02519000 2.83958000
9.20280000 1.73215000 2.82376000
8.87234000 2.57584000 0.69261500
8.89661000 2.72007000 0.44307700
8.96271000 2.74933000 0.21407900
2.91773000 4.02307000 0.49792500
2.90296000 3.95421000 0.68416400
3.24783000 4.02605000 0.46984300
6.43030000 -0.12116900 -4.28109000
6.22484000 -0.21360300 -4.28463000
-2.69450000 -3.60364000 2.07486000
-2.28428000 -3.50515000 2.15620000
-6.59316000 -3.16995000 1.21214000
-6.83926000 -3.06184000 1.48313000
8.45715000 -3.81669000 -2.80044000
8.34898000 -4.10333000 -2.70398000
8.50807000 -4.22426000 -2.80120000
7.51924000 2.19424000 -3.41376000
7.57244000 2.43538000 -3.22308000
-9.78877000 -0.88246800 1.17939000
8.55605000 -4.79751000 -3.19624000
8.61592000 -4.46600000 -2.96659000
7.76264000 -5.55879000 -2.50297000
