132.16100000 57.93900000 9.70790000
132.15800000 67.62640000 13.61470000
130.62600000 64.38760000 14.88190000
133.38100000 65.61310000 13.33710000
132.22500000 14.72980000 6.26940000
130.57500000 19.55400000 6.05350000
130.13000000 17.95410000 7.32750000
135.46600000 6.39650000 4.96430000
135.12900000 1.55500000 6.22900000
130.29100000 -15.66680000 11.82160000
128.70200000 -20.18250000 11.86790000
129.86200000 -19.91900000 10.62730000
128.45100000 -13.60360000 14.45030000
126.48600000 -10.38840000 16.86900000
128.04700000 65.35130000 15.95170000
128.48100000 67.61390000 15.38250000
126.88600000 67.30510000 16.30600000
123.30500000 70.12890000 22.05870000
124.18800000 71.32080000 22.14270000
123.20300000 71.64250000 23.31520000
120.41700000 71.55710000 24.02420000
121.11900000 69.18820000 22.19100000
121.81300000 69.95860000 22.65260000
124.60600000 76.07840000 21.28090000
123.31000000 76.11260000 22.79070000
123.61800000 74.97070000 22.98480000
142.56600000 -9.61270000 -3.64100000
143.02800000 -5.00300000 -4.33390000
141.53900000 4.03530000 -2.81450000
140.71400000 4.02300000 -1.26790000
142.19100000 1.35880000 -3.17130000
139.43400000 54.66720000 -3.87910000
87.46170000 52.10980000 32.17360000
87.21460000 49.14610000 31.82410000
115.44800000 27.23430000 19.35620000
119.33600000 23.15610000 16.95340000
116.98600000 28.93470000 17.52100000
118.99600000 33.71490000 12.91510000
120.27900000 35.80950000 11.55340000
123.63500000 51.24210000 4.20450000
125.66800000 51.84830000 6.43210000
123.91400000 50.68320000 5.90510000
88.27590000 -63.52850000 12.88780000
94.24250000 -67.42660000 8.73450000
97.84760000 -65.52040000 8.30250000
98.47600000 -63.02750000 9.17320000
85.57620000 29.52430000 27.89170000
136.86400000 76.07420000 10.76280000
141.65000000 79.10780000 7.94970000
138.67600000 79.65800000 8.30140000
151.66800000 74.86810000 5.75840000
152.52800000 75.44810000 4.66790000
150.61900000 76.43440000 5.44460000
147.02100000 66.33260000 2.68270000
147.51800000 67.45400000 3.04890000
146.37200000 66.51620000 3.96400000
151.99300000 69.08350000 6.26710000
150.37500000 68.37320000 6.77090000
151.42900000 67.97440000 5.64150000
149.88400000 64.51750000 1.90030000
150.00300000 65.72490000 1.71590000
149.07400000 64.86340000 1.37640000
148.95700000 63.23210000 2.18810000
147.51800000 64.36670000 1.76250000
147.77400000 63.17890000 3.11180000
134.19100000 24.62860000 -2.35840000
134.32000000 24.28300000 -1.74900000
134.14500000 24.67070000 -2.62710000
132.74600000 27.00950000 -2.01360000
121.14900000 82.06230000 19.07930000
119.83900000 82.11380000 17.24280000
122.68300000 79.55300000 23.00230000
122.53900000 77.36990000 24.29680000
124.04500000 78.21740000 22.35450000
116.36200000 11.85710000 21.53270000
117.83400000 14.10760000 20.24950000
119.87400000 -3.16680000 22.01780000
114.78700000 -0.35440000 24.02600000
115.08500000 -4.34060000 24.08990000
112.21100000 41.81130000 23.77330000
114.78700000 43.26310000 23.14940000
113.18100000 44.18560000 24.35870000
123.76000000 54.35700000 19.16640000
123.96600000 56.71530000 18.70870000
122.17400000 53.90440000 20.71150000
78.41690000 3.05920000 14.68130000
78.63730000 4.96370000 14.06360000
77.19900000 3.54660000 12.79470000
63.79720000 -32.62370000 21.37080000
60.73130000 -33.48320000 21.49480000
64.42140000 -35.02930000 21.06230000
82.65340000 -39.67340000 20.63650000
78.25360000 -39.88930000 20.31200000
113.80000000 83.00370000 18.40450000
87.24390000 23.96870000 26.61210000
88.46590000 23.02050000 26.98570000
88.80410000 27.09030000 27.08550000
91.52450000 18.31510000 27.56290000
92.09080000 24.57050000 27.48270000
90.31290000 23.31870000 27.37680000
88.43270000 -82.37190000 3.26690000
86.69610000 -83.26640000 3.00290000
87.88840000 -83.77490000 2.93600000
90.81000000 -81.01700000 3.21090000
93.60160000 -79.42800000 2.24080000
91.91310000 -79.05700000 3.40490000
98.57490000 -14.69170000 24.63080000
97.10330000 -11.65470000 25.11920000
95.20250000 -14.97310000 24.15860000
88.22370000 -7.59360000 22.26760000
88.13710000 -5.84390000 22.37240000
84.40980000 -6.87660000 20.90080000
66.62910000 -46.23910000 17.03250000
64.88110000 -44.63880000 17.68980000
63.29720000 -45.41220000 18.19210000
120.05800000 85.74880000 9.41430000
118.22700000 86.13870000 9.48570000
117.58300000 85.28650000 11.70090000
75.82970000 -5.71850000 17.12920000
78.63820000 -6.40920000 18.54200000
79.29600000 -7.83730000 19.14810000
80.74540000 -5.00870000 19.17690000
70.99830000 -1.16790000 13.57810000
95.62210000 53.06680000 29.99400000
90.43230000 50.32500000 29.39220000
89.69240000 52.99190000 31.04140000
89.58530000 49.32530000 30.35770000
80.94820000 27.90550000 25.99650000
82.85180000 28.59000000 27.27760000
82.45030000 29.89680000 26.95600000
86.12300000 19.28440000 25.77420000
84.06660000 19.78500000 24.25700000
85.59640000 17.06210000 25.25120000
117.16700000 -40.76290000 10.25840000
114.21100000 -41.82520000 12.10200000
112.39700000 -44.81440000 10.84230000
101.89200000 -54.77260000 11.35980000
104.63600000 -55.60760000 9.89290000
105.16200000 -53.21960000 10.57870000
94.46860000 -47.11140000 16.78010000
96.77210000 -49.39010000 14.63410000
99.47400000 -46.84740000 15.90380000
89.84990000 -41.16970000 19.99060000
92.82530000 -39.75680000 20.32070000
89.40700000 -38.75390000 20.70860000
143.31400000 2.94750000 -7.56560000
142.75300000 4.67720000 -7.27320000
143.28700000 3.97350000 -6.49870000
119.44600000 -6.63250000 22.05060000
119.80300000 -4.70480000 22.02770000
126.36100000 -6.67930000 17.72200000
123.86000000 -6.19980000 19.68870000
124.62700000 -8.50890000 18.81380000
79.39720000 15.01370000 4.03030000
79.39600000 16.74340000 3.59370000
145.27000000 80.57970000 6.75590000
142.55900000 80.32710000 7.09380000
143.63700000 79.43360000 7.45330000
142.68700000 83.03000000 4.44360000
144.16200000 82.51900000 5.50260000
143.77900000 83.43840000 3.52900000
147.98300000 54.88860000 1.32660000
151.40200000 55.41580000 0.37260000
147.04500000 55.53260000 2.69360000
144.30300000 55.21110000 2.69110000
145.79200000 54.79250000 1.92000000
153.47400000 79.34320000 -1.61380000
154.96600000 78.21440000 -1.68700000
157.76700000 76.82280000 -3.24360000
156.70500000 78.22790000 -4.49740000
156.01600000 79.36210000 -3.40500000
78.57790000 15.55980000 8.80970000
127.03000000 54.14960000 12.46740000
128.63000000 55.02720000 10.98480000
128.22800000 56.99200000 12.07360000
125.60200000 51.37580000 10.12790000
124.03600000 50.16630000 8.19780000
65.31480000 -51.42590000 19.63100000
65.98460000 -49.14380000 18.44720000
64.91800000 -49.26880000 19.24290000
70.40180000 -50.69430000 17.08200000
72.14310000 -49.07380000 16.55680000
120.05700000 27.41910000 14.45820000
120.15700000 30.23060000 12.76220000
119.15600000 30.87860000 14.20610000
122.18800000 24.39890000 13.19570000
120.71100000 25.01370000 14.74760000
122.62200000 22.31500000 13.87840000
118.64500000 46.40840000 22.01950000
120.71500000 47.97230000 20.94460000
119.77300000 49.04570000 22.02940000
118.93700000 43.05890000 18.20610000
117.99700000 42.68270000 19.71620000
117.39500000 41.56750000 18.08650000
109.65500000 -68.16510000 0.94070000
107.96200000 -64.64730000 3.90180000
103.67400000 -68.54130000 4.21840000
108.91900000 -73.00910000 -2.15320000
109.85200000 -74.57900000 -4.87020000
111.47500000 -71.40130000 -3.24360000
90.18110000 -86.61780000 5.84720000
90.97090000 -87.00760000 8.29410000
91.88230000 -86.58360000 6.33190000
149.43200000 81.41950000 2.46620000
148.47400000 82.01540000 3.84120000
149.59700000 79.78330000 3.52350000
147.82500000 74.64030000 7.73470000
148.29300000 77.13830000 6.50240000
145.59400000 79.33680000 7.12780000
42.31980000 -13.40090000 25.19670000
42.52070000 -11.32040000 24.51800000
45.37900000 -14.43650000 24.01590000
136.43600000 86.34530000 4.34770000
43.17360000 -11.25230000 24.24700000
45.16380000 -12.14060000 23.70370000
49.49980000 -10.06290000 22.40700000
50.64990000 -10.75980000 22.29220000
82.31780000 -78.60900000 6.97760000
80.03290000 -80.87780000 6.26550000
82.99300000 -79.36100000 5.63760000
76.08800000 -83.64850000 7.50840000
77.09940000 -84.80030000 7.23510000
77.35550000 -82.88370000 6.92260000
107.55800000 -40.41170000 16.73300000
100.97300000 -41.33630000 18.50520000
102.55800000 -43.15690000 17.29090000
98.72320000 -41.48670000 19.01880000
96.60590000 -44.62550000 17.91840000
100.53900000 -44.05510000 17.37870000
125.91100000 37.25680000 -0.23530000
124.87500000 39.35320000 0.81940000
126.10900000 37.80900000 1.23050000
125.07400000 39.45530000 3.17550000
124.40800000 40.48660000 1.90650000
123.80700000 41.56730000 3.54600000
121.83200000 40.97130000 8.91900000
122.75700000 41.75250000 6.63980000
121.10100000 43.03910000 9.88480000
132.43800000 23.72590000 1.96990000
145.95800000 52.79420000 -6.03940000
146.12400000 52.82180000 -7.50870000
98.84130000 63.45590000 30.69030000
96.85860000 63.13520000 31.05580000
104.97600000 69.19070000 29.70900000
104.24100000 68.40770000 30.54320000
104.11900000 67.24150000 29.44200000
118.14600000 63.77240000 22.32030000
117.77300000 65.28990000 23.37590000
115.98300000 62.67530000 24.21510000
112.03300000 67.14470000 26.12590000
111.83200000 69.09660000 25.73760000
110.16400000 68.34580000 26.14610000
52.08490000 -26.57500000 22.61820000
63.09690000 -30.96790000 21.53390000
59.96590000 -28.29350000 21.61510000
59.34870000 -31.04040000 21.69110000
74.78920000 -68.06540000 16.24020000
74.08620000 -70.25710000 15.79140000
76.28110000 -68.15300000 15.42910000
72.41760000 -67.16440000 17.00870000
70.01510000 -66.23590000 17.38090000
71.10570000 -68.42900000 16.74730000
113.70300000 -72.34760000 -8.04940000
115.69300000 -70.19180000 -9.05160000
116.35000000 -69.54920000 -8.82160000
118.79300000 -64.74920000 -5.26480000
115.16300000 -67.03270000 -2.94950000
115.37800000 -68.44670000 -4.77110000
142.06900000 -23.89780000 -6.76640000
142.32800000 -21.04650000 -5.81070000
141.25000000 -23.67760000 -4.81670000
83.28260000 -34.11940000 21.76240000
78.08370000 -35.48490000 21.13020000
80.66360000 -37.18940000 21.06040000
92.54490000 -35.01540000 21.52870000
87.04370000 -36.71890000 21.36120000
93.72410000 -37.46590000 20.83770000
52.55350000 -18.57740000 22.92810000
54.77630000 -19.79680000 22.57540000
56.80450000 -17.45970000 22.56770000
144.33400000 76.61270000 8.37720000
143.97500000 74.55640000 9.20280000
144.95900000 72.43070000 9.16760000
123.20500000 -36.79070000 7.87660000
124.23000000 -39.41940000 6.20080000
125.29200000 -36.22330000 6.86100000
117.64000000 -43.40880000 8.44970000
119.56100000 -42.78720000 7.72330000
119.18000000 -41.35640000 8.64140000
118.21300000 -63.65540000 -3.57590000
120.46300000 -56.74220000 -1.55540000
117.14800000 -61.93670000 -1.31150000
115.61900000 -59.84420000 1.24490000
112.88900000 -60.94370000 3.02660000
114.33100000 -62.23080000 1.13290000
74.16890000 -14.19630000 19.94640000
78.08650000 -13.75380000 20.19210000
75.78310000 -10.96310000 19.32960000
74.53730000 -24.19950000 21.29790000
76.30770000 -27.48240000 21.49830000
77.30470000 -22.72960000 21.48660000
157.68700000 61.21870000 -9.19900000
157.27100000 62.51160000 -9.88110000
157.76800000 62.12670000 -7.70320000
158.02900000 61.42210000 -5.19580000
157.71400000 61.52250000 -3.78800000
157.97800000 60.33560000 -4.16160000
124.97100000 56.36460000 17.43550000
131.28600000 63.01110000 14.28860000
128.81800000 62.92350000 15.58290000
129.30000000 61.09520000 14.70590000
134.66300000 -35.34920000 -1.45130000
135.16500000 -37.82380000 -3.92760000
136.40200000 -34.39830000 -3.29470000
135.97500000 -39.74080000 -7.34950000
96.26360000 -2.78070000 25.85730000
94.99090000 0.34500000 26.15160000
87.08720000 -2.03820000 22.65560000
85.41450000 -4.22030000 21.48390000
108.42600000 15.17400000 25.02260000
109.21700000 17.01650000 24.58470000
104.64200000 17.23820000 26.14640000
93.75730000 34.15040000 27.41870000
91.01860000 35.64040000 27.53950000
93.98130000 31.28090000 27.32340000
101.97200000 35.86660000 25.41570000
103.97800000 33.94890000 24.73890000
103.39400000 38.44660000 24.65630000
96.28560000 30.62720000 27.02910000
99.81440000 28.06870000 26.40670000
97.55050000 26.20340000 27.06930000
99.80740000 24.21220000 26.80430000
95.78790000 12.91090000 27.49550000
98.60010000 14.24300000 27.31740000
96.11510000 16.69540000 27.55280000
158.04600000 63.65960000 -7.93270000
157.58300000 63.55120000 -8.86640000
157.84900000 63.97220000 -9.74630000
152.50700000 54.31490000 -2.89520000
149.28100000 53.63580000 -2.40500000
152.65800000 53.98310000 -3.88040000
156.53600000 57.17590000 -2.91970000
142.82100000 -22.08950000 -8.91670000
143.16200000 -20.70040000 -8.19950000
142.54300000 -24.55430000 -8.90230000
144.10800000 -8.14900000 -7.55560000
78.62770000 6.21450000 13.27110000
78.16250000 7.46610000 11.03280000
77.84930000 5.89490000 11.99820000
79.76410000 9.13300000 13.97870000
80.99650000 24.20690000 24.59140000
81.74230000 26.07370000 25.98210000
79.79150000 27.42510000 25.09740000
118.51500000 -38.72250000 10.88390000
114.60500000 -40.45360000 12.94620000
117.29300000 -27.89620000 16.95980000
100.05000000 65.13790000 31.72620000
98.09080000 63.96060000 30.98730000
99.89630000 64.29640000 30.88490000
76.12860000 -7.33500000 17.97410000
75.35100000 -9.47710000 18.79510000
77.30950000 -8.38410000 18.71830000
79.76360000 -11.17320000 20.09760000
103.66900000 45.43580000 27.93340000
108.03000000 43.37290000 26.27420000
104.28800000 47.32930000 28.34480000
97.28030000 50.52770000 29.74860000
97.44430000 53.62830000 30.48100000
101.33500000 56.23680000 30.18730000
103.55300000 59.30930000 29.47860000
100.75500000 50.61770000 29.72140000
98.21700000 54.56720000 30.70650000
99.16710000 50.23520000 29.85200000
105.07000000 -19.18090000 23.71870000
102.47700000 -21.50040000 23.41620000
104.54600000 -21.74520000 23.07940000
103.44800000 -0.55170000 27.02980000
106.09600000 -0.49740000 26.67970000
103.17300000 2.68930000 27.06120000
114.47900000 77.14210000 26.66140000
112.53000000 77.33150000 26.50510000
111.73800000 76.07500000 26.61680000
120.17900000 79.85780000 24.58250000
119.69200000 77.42910000 26.13880000
120.98400000 78.48520000 25.00550000
103.67300000 -14.34420000 24.94740000
106.82200000 -15.86250000 24.20670000
106.38900000 -12.60860000 25.10830000
100.50500000 -11.48020000 25.40320000
101.28100000 -12.98990000 25.23370000
102.66200000 -10.84270000 25.63250000
117.37200000 68.19790000 24.96720000
118.52200000 71.34630000 25.94300000
116.84400000 71.24260000 26.61960000
115.93100000 72.62150000 26.91980000
118.63700000 74.29370000 26.69050000
116.91500000 74.51580000 26.91520000
75.00440000 -56.69530000 16.58390000
73.69170000 -54.68890000 16.84610000
72.29330000 -56.80230000 16.91800000
83.27230000 -61.02340000 14.56200000
85.91020000 -64.88840000 12.88990000
85.40330000 -60.90560000 14.28950000
87.73090000 -52.84150000 15.20040000
86.61920000 -55.53240000 15.41630000
91.65560000 -53.35630000 14.54880000
91.64870000 -50.07590000 15.25480000
95.01110000 -48.50390000 15.63160000
92.57200000 -46.34860000 17.64730000
132.14200000 -39.16490000 -0.87060000
133.56700000 -34.59300000 0.46390000
130.54500000 -38.76880000 1.18880000
132.94300000 -30.45480000 2.76440000
128.70200000 -32.47180000 5.70350000
129.81800000 -34.72130000 3.91930000
77.69860000 7.10930000 10.04750000
76.30080000 5.36990000 9.66370000
76.85570000 4.69700000 11.40390000
72.35720000 3.85700000 8.59410000
71.47890000 2.85860000 9.66310000
73.35410000 2.90460000 10.17200000
104.52200000 38.40500000 24.09630000
106.92800000 33.64100000 23.50710000
117.58600000 24.25170000 18.21650000
115.13700000 20.82080000 20.88240000
126.51800000 78.29630000 16.99260000
126.43600000 77.61130000 18.81530000
127.54700000 76.69270000 14.57420000
124.66500000 78.87810000 20.84170000
123.49800000 79.80810000 21.82840000
103.47300000 -72.56810000 1.98310000
102.62800000 -74.44070000 1.31040000
108.86200000 -70.84310000 -0.35280000
106.01700000 -70.86800000 1.56980000
119.87000000 44.16470000 18.56980000
119.67400000 44.94940000 20.16380000
123.77500000 49.56760000 17.34340000
123.35500000 48.65010000 15.48960000
124.73500000 50.92710000 15.60130000
121.82900000 -62.59240000 -9.67920000
121.08900000 -63.78350000 -8.74610000
125.87800000 78.76200000 12.59330000
127.13100000 79.22490000 11.50070000
125.07700000 81.39840000 10.67820000
126.50700000 78.21170000 15.47040000
127.15600000 77.33470000 14.12670000
125.26300000 78.86110000 13.68570000
133.10400000 -7.42660000 9.30400000
133.73600000 -3.11420000 8.54330000
132.63300000 -6.65380000 10.71710000
138.88600000 -5.93760000 2.10670000
137.72900000 -3.38380000 3.59950000
136.80200000 -6.18020000 4.23700000
154.39200000 77.79580000 -6.62690000
155.22400000 78.53990000 -6.03740000
66.73760000 -53.60060000 19.80340000
66.26880000 -52.44550000 19.30600000
65.41530000 -52.74380000 20.44500000
61.92610000 -54.53680000 19.68140000
60.39430000 -54.61540000 18.90960000
61.73910000 -55.76790000 20.08590000
145.32200000 65.12370000 8.19620000
144.43600000 65.47140000 9.31010000
144.72300000 63.81680000 8.45970000
146.25300000 66.33180000 7.96600000
147.83200000 66.98150000 6.69270000
147.81400000 67.78000000 7.77400000
156.87600000 73.43400000 2.54430000
156.05500000 74.01520000 2.43910000
153.38900000 73.24440000 5.19960000
158.32500000 73.70700000 0.64790000
158.23200000 74.86630000 -1.09620000
157.19300000 74.43070000 0.96080000
110.30800000 81.76740000 23.46000000
108.81600000 79.79200000 24.88520000
110.35800000 80.79510000 23.38080000
113.56200000 84.07610000 18.28430000
111.64200000 82.88180000 21.80940000
112.72500000 82.53960000 20.31390000
115.45200000 65.30020000 25.02590000
114.19700000 62.51040000 25.31390000
115.42900000 61.02210000 24.47140000
114.04800000 60.28310000 25.35070000
114.63700000 57.03360000 25.11250000
116.06800000 57.88230000 24.26330000
117.48100000 53.56830000 23.86610000
116.42100000 47.03290000 23.68040000
111.94100000 71.96510000 25.57130000
114.58300000 73.08770000 26.76940000
112.36000000 73.38380000 26.21030000
115.18900000 76.38170000 26.85210000
113.58700000 75.90220000 26.68010000
116.74900000 -17.07050000 20.60960000
121.66300000 -15.44160000 18.51420000
119.48300000 -15.27040000 19.72820000
117.98400000 -9.13030000 22.28230000
115.18100000 -8.14960000 23.69310000
84.47760000 23.89960000 25.97850000
86.34690000 27.81570000 27.06160000
84.64430000 27.67340000 27.53880000
82.62120000 23.24210000 24.78760000
82.98740000 25.30500000 26.38680000
148.64300000 65.78070000 1.19320000
149.76200000 66.46360000 1.80160000
148.51700000 67.21940000 2.10200000
148.28500000 67.60590000 5.25490000
146.42300000 66.86080000 5.73380000
148.38900000 67.78390000 3.17890000
108.00900000 77.78820000 26.91990000
109.40200000 78.62860000 25.64810000
108.41500000 78.93850000 25.46040000
107.33300000 78.62600000 25.92200000
107.24300000 79.04450000 25.85210000
149.85800000 67.61830000 4.34430000
150.09000000 67.47920000 3.36070000
155.62600000 67.91800000 3.27170000
154.43000000 68.54310000 4.72560000
153.41700000 66.84710000 3.38310000
131.39500000 3.87470000 10.99070000
130.60000000 5.70070000 11.46980000
130.89900000 3.42070000 12.36610000
129.29400000 -0.69430000 15.38400000
127.63200000 2.73020000 16.28760000
128.27800000 0.47750000 16.13130000
43.42010000 -20.04760000 27.84520000
48.20790000 -23.35800000 25.65780000
48.46470000 -23.45740000 25.09930000
42.02670000 -18.96390000 28.13210000
42.36420000 -19.60260000 28.84260000
43.32340000 -20.14480000 28.22990000
158.95200000 67.80530000 1.92690000
157.14200000 68.01980000 2.56710000
157.01500000 69.96600000 3.67800000
108.15600000 34.40170000 22.72740000
108.66900000 37.21580000 21.95770000
109.88600000 40.51680000 23.42870000
111.03100000 41.22790000 23.94500000
108.33400000 41.29490000 24.45810000
109.11700000 70.92530000 25.96970000
110.47200000 73.78080000 26.40530000
109.02300000 74.00040000 26.86300000
105.36800000 68.78800000 28.90450000
105.02000000 67.22980000 28.63570000
106.94400000 69.22310000 27.28090000
87.69370000 -77.86780000 5.68640000
85.06550000 -77.54600000 6.52830000
86.35270000 -79.04410000 5.14130000
89.61330000 -76.28140000 5.91010000
86.86270000 -75.82610000 7.21030000
151.82100000 78.47380000 -1.22190000
151.17300000 78.89150000 -1.09770000
150.58900000 77.50920000 -0.63990000
152.04300000 77.19140000 0.21890000
153.55100000 77.31130000 1.75930000
152.87400000 77.60980000 -0.37160000
121.87900000 84.84420000 9.52520000
128.71500000 87.39470000 5.43110000
123.89200000 85.40680000 8.20200000
130.35700000 87.36020000 5.22180000
144.03700000 62.21830000 8.79510000
143.89200000 64.49770000 9.30630000
147.74700000 60.88470000 6.23170000
151.60800000 59.77910000 3.25360000
64.59210000 -61.96390000 19.32330000
65.80550000 -61.23850000 20.42460000
64.59480000 -60.49080000 19.96380000
69.18220000 -68.32570000 16.95900000
68.93770000 -64.46580000 18.11890000
67.24370000 -62.52510000 19.74840000
67.60040000 -64.52140000 18.88520000
67.81230000 -60.18020000 19.50870000
68.51900000 -59.74640000 18.78970000
67.09470000 -59.00230000 19.59330000
87.35310000 -21.97330000 22.88890000
90.20120000 -23.04000000 22.94920000
85.91770000 -33.50130000 21.94150000
126.49700000 56.10780000 14.19500000
130.30800000 60.09770000 13.17820000
129.95600000 58.88520000 11.74230000
133.58600000 61.24250000 11.63160000
125.92100000 8.18950000 16.18560000
111.48400000 -38.63440000 15.88540000
112.56900000 -40.55290000 14.22620000
114.37700000 -38.79600000 14.02940000
111.39000000 -41.30620000 14.47380000
108.95500000 -39.89300000 16.34950000
127.44100000 52.98070000 10.42560000
126.27600000 52.21310000 11.82340000
126.90300000 52.38800000 9.35360000
133.57700000 55.60780000 6.45200000
131.37900000 55.23610000 7.94990000
130.52500000 54.34820000 6.56420000
126.79500000 53.14940000 4.59660000
159.47800000 64.75050000 -8.47810000
159.00800000 64.08650000 -6.40590000
161.93900000 66.63960000 -10.24050000
163.18700000 66.86890000 -9.17430000
76.87340000 7.09560000 6.65090000
76.20060000 6.94040000 5.69200000
75.68720000 6.29800000 7.06100000
76.04660000 3.63300000 11.45460000
75.23460000 4.34450000 9.75250000
74.17570000 3.89230000 9.42620000
120.60000000 81.09880000 23.57910000
122.99400000 80.62630000 21.29260000
121.07400000 80.68050000 23.39160000
119.65700000 67.06090000 22.60950000
120.45400000 66.28110000 21.57130000
123.19900000 67.42950000 20.54030000
125.51000000 68.70160000 18.34200000
125.10900000 67.52880000 17.64540000
126.28500000 68.82450000 16.88110000
121.98300000 68.72300000 21.33640000
119.59000000 67.69860000 22.78630000
123.51500000 67.88690000 20.51410000
88.01730000 35.95050000 29.40840000
90.09760000 43.45560000 28.49060000
90.22500000 45.41300000 28.54620000
89.54350000 45.74780000 29.69710000
94.76710000 -83.00530000 -0.48050000
95.12050000 -83.54280000 -0.89930000
96.23220000 -83.29750000 -1.88750000
102.18000000 -78.54100000 -1.78110000
100.14800000 -78.82730000 -0.76010000
92.18040000 -82.84870000 0.91720000
89.24960000 -83.84480000 2.03670000
90.77930000 -84.37030000 1.80440000
89.10330000 -85.75330000 4.30940000
90.68270000 -85.38310000 3.42160000
88.77320000 -85.04380000 3.33230000
124.56500000 30.04550000 8.78880000
126.87800000 29.58890000 6.50350000
125.95400000 32.68550000 6.56070000
128.06900000 30.87900000 4.46070000
135.24100000 -26.54100000 2.03430000
132.77200000 -24.90310000 4.57540000
131.89500000 -27.34240000 4.76490000
127.15700000 -24.23650000 11.70980000
128.39400000 -24.31670000 9.98370000
128.52300000 -23.08500000 10.67460000
122.83400000 49.30790000 6.48920000
122.34200000 48.25820000 7.32470000
122.65400000 50.00850000 4.56190000
81.98120000 10.92840000 18.56770000
82.46410000 10.88540000 19.60640000
81.87450000 11.64340000 18.75860000
145.22300000 85.39650000 1.07730000
146.04500000 83.60020000 2.56130000
147.08200000 82.33330000 4.94640000
147.59400000 83.54240000 1.34140000
110.39700000 75.86830000 26.81320000
110.08300000 77.54970000 26.48320000
109.63300000 78.02770000 26.24830000
61.72630000 -52.38490000 19.69540000
62.22070000 -51.56520000 20.61830000
64.00290000 -51.17400000 20.78670000
157.96300000 63.48960000 -4.85620000
159.47200000 64.81580000 -4.53760000
156.10000000 63.68830000 -3.05110000
156.44900000 64.43290000 -2.35340000
155.10000000 64.34310000 -1.17840000
86.48060000 35.77090000 29.66280000
87.18980000 37.03330000 29.86500000
86.27550000 39.60770000 30.11790000
87.03200000 44.61930000 30.97820000
86.26080000 45.37510000 31.80140000
86.09180000 43.94930000 30.75960000
86.28970000 -86.66020000 5.96480000
85.87300000 -85.79780000 4.00340000
87.58130000 -86.90990000 6.34970000
87.13660000 -87.06300000 8.20930000
89.87220000 -87.01140000 8.34670000
76.28220000 -20.35150000 21.19660000
73.63570000 -17.74750000 20.65460000
73.52620000 -20.73290000 21.05800000
70.97130000 -19.23970000 20.89760000
68.04230000 -18.44040000 21.11280000
117.75900000 39.93720000 14.58740000
116.15200000 38.26470000 16.33020000
117.36100000 37.54320000 14.53140000
115.41100000 38.12960000 17.20690000
112.93800000 37.57280000 19.04790000
115.24500000 36.74510000 17.23690000
94.80680000 -11.15380000 24.62970000
97.06060000 -8.65030000 25.43950000
96.80300000 -5.18630000 25.66960000
117.73700000 83.09690000 14.49420000
115.49500000 82.90580000 16.67750000
117.29200000 82.62790000 16.03860000
120.34100000 82.02440000 13.31390000
120.10900000 81.75600000 14.45260000
144.12300000 -1.49290000 -7.48550000
143.70000000 0.22750000 -7.89810000
143.76000000 1.66770000 -6.93280000
143.33300000 1.64200000 -5.44750000
142.09800000 4.01600000 -3.71360000
72.48580000 1.45880000 11.40230000
70.75230000 1.10920000 11.54890000
79.46350000 -2.23740000 17.70850000
81.55300000 -3.16580000 19.07780000
80.82540000 -1.12550000 18.55050000
79.41570000 -0.97880000 17.30760000
77.58610000 -0.92310000 15.58020000
78.06640000 -3.06770000 16.94160000
162.96200000 68.21160000 -2.29750000
161.82100000 67.67760000 -0.64740000
162.26500000 66.95290000 -2.10820000
163.61600000 66.88320000 -4.39260000
163.62000000 66.70140000 -7.58960000
56.88710000 -31.08650000 22.15010000
49.89960000 -25.15290000 24.65810000
126.41900000 68.23100000 16.60280000
128.58400000 70.62210000 15.05820000
127.72400000 71.95940000 15.14290000
127.31600000 69.80620000 15.98690000
115.04800000 -70.42550000 -6.89570000
117.75500000 -67.44790000 -7.85280000
116.72300000 -67.58340000 -5.67030000
122.57700000 -60.13760000 -6.19860000
123.17300000 -60.56810000 -7.94490000
124.54500000 -57.73430000 -6.78490000
119.76500000 71.69570000 25.43270000
118.85200000 69.92670000 24.95440000
122.75400000 76.79420000 24.04900000
123.97200000 76.79740000 21.94040000
124.11200000 77.60780000 22.22500000
89.07220000 55.68340000 31.67190000
87.55340000 55.35300000 31.60860000
89.04920000 53.61630000 31.48590000
70.86930000 -85.53670000 10.62140000
70.35400000 -84.79160000 10.43430000
68.09880000 -84.51950000 10.58920000
108.78500000 24.15510000 24.07430000
108.67800000 29.10410000 23.23380000
106.78700000 27.93070000 24.24610000
106.92700000 23.29450000 24.81770000
107.89000000 22.81360000 24.60930000
105.48800000 26.76250000 24.87550000
59.86310000 -83.80910000 9.11590000
85.49360000 -73.63660000 9.12050000
84.00870000 -73.75740000 9.56390000
84.98220000 -75.84440000 7.95930000
83.21930000 -65.17220000 13.33320000
81.58510000 -65.94700000 13.68310000
84.13930000 -66.68170000 12.80750000
150.35500000 83.13270000 -5.11500000
148.36900000 85.50390000 -3.70710000
149.91600000 83.71700000 -4.19780000
89.24790000 30.17480000 27.19590000
89.78370000 32.59120000 27.43790000
89.22780000 34.33220000 28.06190000
126.17200000 -23.11160000 13.00640000
119.02600000 -27.37760000 16.23670000
122.12800000 -29.10680000 13.50310000
114.00100000 -35.73550000 15.76700000
94.67610000 9.81510000 27.23650000
91.53390000 10.40330000 26.51840000
92.45270000 6.70770000 26.35780000
95.47580000 14.98790000 27.60440000
94.14680000 17.13960000 27.63150000
66.99380000 -54.72810000 20.34850000
68.50690000 -55.78010000 18.62100000
68.80000000 -54.98190000 18.34240000
71.22650000 -57.90240000 16.97140000
70.19830000 -55.00360000 17.45750000
90.36490000 59.32250000 31.40740000
90.77450000 60.46320000 30.94850000
89.23310000 60.50130000 31.99410000
90.69800000 57.86450000 30.60130000
91.74210000 57.95970000 29.76590000
86.95310000 53.62770000 32.41440000
87.48490000 54.12330000 31.45230000
86.00320000 54.36420000 31.63270000
113.63200000 -47.26190000 9.02060000
115.40300000 -46.49480000 8.30890000
118.30600000 -51.68430000 3.55940000
105.92500000 71.80890000 29.38650000
106.71200000 69.63620000 27.54530000
107.10400000 72.68690000 27.58390000
106.32000000 70.59120000 28.66880000
131.19500000 -18.88320000 8.78080000
132.56800000 -19.88490000 6.40670000
132.52200000 -16.43020000 7.61740000
130.02100000 -23.46720000 8.12310000
129.89100000 -20.63860000 10.04140000
116.41000000 68.94100000 25.61480000
114.91800000 69.54410000 26.01420000
113.18900000 64.19020000 25.92510000
114.27300000 66.23550000 25.60810000
83.31260000 -0.86390000 20.35980000
81.77620000 -0.79070000 19.28370000
85.56770000 -1.25240000 21.89850000
85.33830000 -2.77050000 21.71780000
155.73500000 59.09080000 -0.80970000
154.86700000 61.68930000 -0.33720000
86.27750000 -80.43700000 4.47030000
84.08530000 -80.08790000 4.91040000
83.90970000 -81.76000000 3.97590000
81.69180000 -82.16770000 4.50900000
157.52000000 76.70610000 -5.05830000
159.91200000 71.77900000 -9.10140000
158.70700000 73.87430000 -8.22060000
161.42100000 71.34140000 -8.57050000
151.85800000 82.66620000 -4.49860000
152.68400000 82.00310000 -4.82720000
151.92900000 81.38330000 -5.68990000
155.76700000 78.39560000 -1.98820000
154.98800000 79.87560000 -2.29120000
154.14900000 79.89400000 -1.79330000
113.96500000 71.50020000 26.23240000
112.92300000 69.19940000 25.68960000
75.01940000 6.25930000 5.00500000
74.42870000 6.36750000 3.62730000
73.91430000 5.81820000 5.07740000
59.83270000 -77.55510000 13.20790000
61.85580000 -77.26540000 13.65780000
59.98770000 -76.51840000 13.82600000
59.97410000 -76.21450000 14.08410000
60.94390000 -76.46640000 14.22200000
105.48000000 -58.80180000 7.70280000
106.61200000 -54.59560000 9.40450000
101.91400000 -59.89570000 8.95630000
113.73000000 -53.59170000 5.98160000
113.36600000 -55.97970000 4.71400000
114.84000000 -53.15690000 5.09150000
124.90600000 65.53420000 17.37750000
125.66700000 63.66160000 17.25130000
127.66700000 60.54920000 15.73550000
141.14000000 88.97010000 0.62910000
138.30700000 88.99060000 1.97900000
139.79300000 88.71230000 1.78490000
143.92700000 87.81120000 0.27960000
108.01900000 -20.23030000 22.82410000
104.43700000 -30.52500000 20.79080000
107.79000000 -28.48940000 20.49450000
103.64600000 -29.90730000 21.04490000
93.30170000 -26.64110000 22.71440000
89.96760000 -26.32770000 22.81740000
93.81370000 -30.33380000 22.32990000
101.51000000 -28.97490000 21.63770000
98.72670000 -26.72930000 22.36950000
132.51000000 54.97680000 5.13380000
137.90300000 55.17510000 -0.56350000
138.04700000 55.05480000 -3.06870000
81.18780000 -55.93310000 16.37130000
77.67230000 -56.54370000 16.62600000
80.67130000 -57.05250000 16.43180000
78.03100000 -58.34820000 16.41260000
151.34300000 54.50340000 -1.15050000
147.60400000 54.24530000 0.24380000
147.15500000 52.88450000 -4.80360000
146.62600000 53.20270000 -2.69790000
145.11300000 53.18070000 -3.62180000
92.44140000 37.88670000 27.53030000
90.96020000 40.12570000 27.53510000
89.93990000 40.32580000 28.08000000
89.04520000 40.62920000 29.03290000
89.31400000 36.55220000 28.46960000
120.79700000 40.54170000 10.72040000
121.71300000 46.47950000 13.83970000
120.57200000 44.97880000 13.71760000
121.53800000 46.03330000 10.77150000
119.04600000 42.33950000 14.26940000
118.05300000 41.76260000 15.42140000
119.01000000 40.92480000 13.55740000
119.95500000 43.58140000 13.00940000
120.21300000 42.60530000 11.86960000
155.65100000 66.84180000 1.97700000
154.91500000 66.15050000 1.73450000
153.02300000 65.32600000 2.55480000
152.70000000 64.22260000 1.32830000
153.95100000 64.95170000 -0.11140000
155.37300000 66.14630000 0.33540000
141.52500000 75.24650000 9.82950000
142.69100000 78.11600000 8.21470000
143.70100000 84.44030000 2.53510000
139.57400000 84.33460000 4.37460000
140.75600000 82.94160000 5.02470000
134.45300000 80.90330000 8.25650000
135.12600000 78.11370000 10.00330000
111.33400000 43.46230000 24.88390000
108.66500000 42.98150000 25.49590000
78.61700000 -86.04990000 8.18770000
76.77910000 -86.17190000 9.56560000
137.10800000 58.98900000 8.34460000
136.23800000 59.08310000 8.47870000
136.53800000 57.48770000 7.21460000
143.36600000 60.03240000 8.16860000
139.19100000 62.44290000 10.76590000
140.36300000 59.74860000 8.71350000
137.82100000 58.83950000 7.79500000
136.96400000 56.79810000 6.44090000
137.56700000 55.78670000 3.42670000
138.87100000 55.57050000 2.87230000
137.27200000 56.32860000 5.26060000
123.41400000 39.34220000 7.00570000
124.33700000 38.91900000 5.86040000
124.18500000 40.58250000 4.61840000
91.44210000 61.68210000 30.91640000
144.44100000 52.95530000 -6.66820000
144.71700000 52.94730000 -4.43160000
151.29200000 76.51840000 4.70920000
149.02800000 78.54080000 5.28620000
148.74900000 80.39320000 4.61110000
147.61000000 80.78410000 5.79530000
87.10640000 -85.67310000 4.06520000
88.08200000 -86.12130000 4.79090000
88.07840000 -84.65640000 3.03280000
85.50770000 -83.69610000 3.20030000
86.51280000 -84.94490000 3.50370000
156.13700000 55.77690000 -3.80400000
155.54700000 55.97010000 -2.07470000
154.78500000 55.30110000 -2.75260000
156.23600000 56.33920000 -7.86630000
154.52900000 55.01500000 -7.79010000
116.93200000 -57.89570000 1.13020000
121.82500000 -51.50340000 0.71360000
126.48500000 -48.60340000 -1.48700000
123.89300000 -48.45510000 0.95270000
153.17200000 73.98250000 5.06650000
154.67800000 74.68810000 3.40350000
155.34800000 76.58860000 1.78430000
154.61600000 76.88980000 0.49970000
152.91800000 76.97530000 1.73840000
155.27700000 75.48500000 2.89420000
70.79530000 -29.49400000 21.15930000
73.35530000 -28.52110000 21.22050000
71.57060000 -25.61210000 21.15290000
70.31320000 -33.72620000 20.97310000
70.69410000 -37.11540000 20.53900000
72.96010000 -37.18930000 20.67810000
88.16270000 40.18470000 29.78580000
87.86770000 43.01200000 30.36570000
87.27820000 40.51990000 30.14450000
88.76440000 41.92980000 29.64100000
147.88600000 65.67190000 1.35080000
148.24400000 65.14850000 1.15670000
74.69400000 2.74550000 11.09740000
77.62690000 1.68870000 14.38740000
136.50800000 12.22700000 2.27910000
136.59200000 15.00330000 0.85170000
134.05200000 11.92790000 5.13800000
133.37100000 8.70960000 6.72940000
135.10700000 7.55090000 5.15380000
51.40480000 -24.94800000 22.72580000
53.67700000 -24.66670000 22.33820000
53.15740000 -23.51280000 22.58650000
56.54870000 -28.78860000 22.00270000
53.89230000 -22.54430000 22.52580000
52.04390000 -19.41440000 23.01410000
50.98700000 -20.77460000 23.32080000
45.30520000 -10.96480000 23.49650000
47.92800000 -13.93150000 23.17200000
148.10900000 61.80140000 5.50960000
145.78700000 63.12800000 7.36420000
146.40600000 64.20920000 3.63700000
147.92800000 62.20850000 4.53480000
60.70430000 -56.72790000 19.04270000
67.22700000 -61.10710000 20.05370000
68.89770000 -60.92600000 18.65190000
65.17340000 -59.17280000 20.12240000
136.72000000 55.46280000 -1.11730000
136.28800000 55.67980000 -2.00780000
83.18460000 21.76010000 24.33220000
82.07630000 22.69120000 23.96360000
129.12100000 -16.12700000 12.99590000
130.78800000 -3.25000000 14.15830000
130.51100000 -7.19980000 14.05120000
128.29100000 -7.87940000 16.03400000
129.30000000 -10.53450000 14.61880000
68.31740000 -62.83510000 18.87120000
74.35100000 -64.05560000 17.20450000
70.64180000 -61.72100000 18.09660000
70.62550000 -64.40350000 17.68130000
89.91700000 -76.98340000 5.26520000
88.30830000 -78.25840000 5.34160000
91.09000000 -77.70360000 4.37390000
90.76060000 -79.84080000 3.56430000
89.68100000 -80.17500000 4.01570000
100.45000000 40.16690000 25.76360000
100.66100000 41.95160000 26.01490000
99.41430000 41.64750000 26.24950000
96.46030000 45.05430000 27.54570000
79.77520000 5.62270000 15.76330000
79.66890000 2.92480000 16.53490000
80.52990000 5.24340000 17.38690000
79.85490000 7.30630000 15.20370000
80.45980000 8.16440000 16.21840000
78.69230000 9.38890000 10.97870000
78.76700000 8.10220000 11.42100000
79.16060000 9.36760000 11.80530000
78.81690000 11.34050000 6.67190000
129.08200000 -36.37510000 3.82740000
129.47900000 -38.72430000 2.19150000
132.20300000 -34.86160000 1.75580000
125.52800000 -40.21960000 4.80070000
127.34300000 -37.77850000 4.63720000
124.73800000 33.15380000 7.76320000
123.22800000 33.01710000 9.17800000
120.72700000 29.88100000 12.28600000
52.33270000 -16.15310000 22.84780000
63.88100000 -18.34580000 21.70730000
65.13090000 -15.91060000 21.25000000
59.59320000 -14.33970000 21.98840000
148.74900000 59.87080000 5.40640000
142.74500000 61.62670000 9.19140000
82.12560000 -58.22410000 15.69740000
80.52890000 -59.04950000 15.68970000
81.72490000 -59.96750000 14.92080000
80.24580000 -64.66850000 14.34740000
80.04480000 -63.69070000 14.76080000
113.93200000 77.92320000 26.45310000
115.12700000 79.04860000 26.15260000
117.60400000 78.40310000 26.38920000
117.34500000 77.02000000 26.75550000
84.48910000 -45.66390000 18.39630000
87.19960000 -47.43220000 17.25100000
90.01460000 -45.43470000 18.46390000
88.05210000 -43.95010000 19.26040000
87.70090000 -41.56970000 20.10000000
85.16370000 -44.82890000 18.81270000
96.79540000 45.99920000 27.95060000
99.08740000 47.55380000 29.06980000
69.01350000 -47.64490000 16.82820000
72.51620000 -47.93220000 16.56320000
70.01070000 -46.59710000 17.00550000
75.21180000 -49.54680000 16.20810000
116.16700000 51.47600000 24.51340000
111.42400000 53.35000000 26.57890000
113.52400000 50.44920000 25.60560000
108.05200000 50.46670000 27.71450000
111.20400000 50.21490000 26.47190000
104.81600000 15.81410000 25.98130000
103.68100000 14.03940000 26.38620000
106.98900000 13.83270000 25.48810000
101.85000000 12.82330000 26.80610000
100.01700000 13.43500000 27.21580000
99.54980000 10.56800000 27.22650000
159.18500000 65.19560000 -2.79440000
157.77600000 66.23150000 0.04510000
124.27300000 13.56100000 15.85720000
125.11400000 14.64640000 14.68520000
122.03400000 17.31710000 16.53180000
129.22900000 6.95490000 13.27710000
128.57200000 5.88870000 14.56660000
130.20300000 3.71470000 13.47200000
126.85800000 77.80920000 12.65610000
127.87600000 76.96120000 12.94600000
128.03100000 77.48420000 12.18230000
128.93400000 74.25730000 13.77530000
87.71340000 61.45160000 33.34200000
88.53740000 61.07100000 32.46100000
89.27620000 61.48100000 32.09600000
87.76440000 59.83030000 32.31460000
86.89310000 59.85060000 32.92340000
86.87240000 58.39010000 32.47140000
85.32470000 60.08830000 33.04620000
86.18830000 58.23050000 32.60370000
86.46670000 60.31840000 33.25760000
85.41720000 61.85160000 33.94260000
149.45200000 85.03220000 -2.23740000
150.11300000 83.74330000 -0.89530000
93.52270000 23.02960000 27.54620000
95.63900000 28.13180000 27.25080000
95.77900000 21.69980000 27.53390000
97.49260000 21.77450000 27.34210000
104.77200000 64.65690000 28.84970000
102.86300000 66.93730000 31.16770000
102.54800000 65.63410000 29.94720000
102.42100000 25.29200000 26.02860000
104.91800000 22.51430000 25.63300000
101.23400000 33.39870000 25.72390000
97.35300000 37.29510000 26.68490000
98.03760000 30.33920000 26.69500000
77.60710000 -31.27070000 21.54060000
81.04650000 -32.91620000 21.74550000
73.44720000 -32.82700000 21.14690000
72.09350000 -34.60630000 20.97160000
74.00530000 -36.04870000 20.80820000
73.54580000 -40.64040000 19.90810000
72.34170000 -38.83620000 20.34260000
71.68090000 -39.88660000 19.96220000
60.92400000 -36.74350000 21.14180000
64.24810000 -38.20690000 20.56670000
130.09600000 16.90140000 7.71260000
131.37600000 12.41700000 7.88940000
129.56400000 13.90290000 9.48220000
128.00100000 13.77810000 11.55590000
129.71400000 10.04250000 10.80140000
64.06800000 -58.65930000 19.79850000
65.55830000 -57.47500000 21.65590000
63.44480000 -54.09910000 20.57020000
62.37650000 -54.87130000 20.28410000
63.87210000 -55.02040000 21.19720000
122.35900000 14.01550000 17.31530000
120.71800000 14.48860000 18.20430000
120.01100000 10.78350000 19.62220000
120.09100000 7.33150000 20.30840000
121.01100000 2.34660000 20.83970000
121.72700000 6.72780000 19.50350000
129.56400000 59.33890000 13.23930000
128.30000000 58.47690000 13.85560000
128.50300000 58.61820000 13.32300000
132.72700000 70.69330000 13.54560000
137.56700000 61.20190000 10.42030000
135.57200000 62.39040000 11.84610000
135.41300000 61.18340000 11.10730000
132.49600000 61.82730000 13.01610000
72.89870000 -82.09990000 9.35070000
71.66200000 -82.70350000 10.10320000
73.29270000 -83.36120000 8.78940000
107.49000000 -50.82690000 10.50890000
110.41400000 -51.20180000 9.12520000
109.82400000 -50.41900000 9.54260000
108.94900000 -45.98530000 12.35920000
141.82900000 -2.61230000 -1.95780000
91.77900000 -85.93870000 4.27950000
93.23770000 -85.33400000 2.27760000
161.71800000 65.58060000 -7.62280000
162.96200000 66.25950000 -6.07000000
162.01500000 65.88140000 -8.61480000
108.63200000 -77.22950000 -7.71050000
108.30600000 -77.44390000 -7.18310000
107.00400000 38.64270000 22.79950000
107.18700000 39.58790000 23.20700000
105.03300000 39.60870000 23.99830000
111.43100000 37.34020000 20.01490000
110.88400000 38.48260000 20.66760000
111.65800000 -1.12780000 25.21230000
118.65300000 1.94110000 21.98910000
116.25700000 3.85200000 22.86700000
116.72100000 0.90630000 23.00700000
145.77200000 66.00650000 4.81160000
145.54700000 65.49530000 6.51810000
145.78600000 65.04860000 4.38900000
146.74500000 66.57310000 6.67110000
112.19700000 11.85080000 23.69620000
115.06000000 6.93500000 22.95310000
113.94100000 4.68160000 23.74590000
114.77300000 4.07240000 23.56520000
101.34100000 -8.48110000 25.94820000
102.55300000 -6.36580000 26.23940000
100.78400000 -6.65100000 26.30760000
105.75800000 -5.22350000 26.40500000
106.67500000 -2.91360000 26.59400000
102.64400000 -4.71110000 26.63240000
117.05000000 -10.61090000 22.41480000
113.31000000 -8.34210000 24.37780000
113.16600000 -11.86310000 23.60830000
109.14800000 -8.98650000 25.61010000
109.28700000 -4.89990000 26.12910000
108.32600000 -6.87810000 26.07400000
136.44400000 20.42770000 -2.11890000
139.42900000 14.36470000 -4.78910000
138.60500000 15.47320000 -3.05850000
139.45300000 13.24820000 -3.48440000
105.13100000 -75.41840000 -0.79630000
101.22100000 -78.16190000 -1.02230000
108.57200000 -74.46490000 -3.29780000
102.68300000 40.08060000 24.99730000
117.66000000 84.34280000 12.71200000
119.80300000 83.04420000 12.59990000
101.19000000 64.77830000 30.65870000
101.49500000 66.45400000 32.00050000
126.07700000 33.84180000 5.90050000
124.50200000 37.40830000 6.43960000
125.10400000 34.38470000 6.96840000
121.12800000 33.78330000 11.00460000
123.74100000 34.27660000 8.37880000
123.94200000 -51.89620000 -1.41740000
125.18100000 -52.46630000 -2.94790000
127.34500000 -50.34660000 -3.62320000
101.93700000 10.94560000 26.84430000
83.89600000 -86.79710000 7.58190000
85.14890000 -87.05410000 8.88590000
85.20670000 -86.92470000 7.10640000
66.46930000 -62.18110000 20.26930000
65.79920000 -63.21030000 19.27780000
62.59490000 -65.52460000 17.01600000
63.77980000 -66.76290000 17.80970000
63.53810000 -65.33620000 17.78600000
103.74400000 77.65050000 29.39660000
142.97200000 -15.32500000 -6.76060000
142.67200000 -15.57730000 -5.40910000
143.12600000 -19.42830000 -7.17130000
141.16800000 -18.50660000 -2.67690000
142.11700000 -17.47860000 -4.30110000
77.55540000 -70.70100000 14.06490000
74.38940000 -71.60180000 15.01540000
79.53950000 -71.55010000 12.78940000
82.44960000 -69.13220000 12.58090000
143.75200000 -18.55820000 -9.07010000
143.38800000 -16.89100000 -8.16730000
143.35200000 -18.67380000 -7.81930000
143.10200000 -13.62930000 -6.59250000
143.29100000 -14.37750000 -7.69830000
143.79600000 -11.68010000 -7.68700000
93.65890000 -65.44870000 10.15180000
91.24480000 -65.97000000 10.97250000
91.71160000 -68.75850000 9.39220000
92.86280000 -58.33260000 13.24880000
95.66510000 -58.12350000 12.51860000
95.46720000 -53.56390000 13.65300000
65.28180000 -55.67110000 22.05380000
64.67810000 -54.68780000 21.75140000
63.39660000 -56.00660000 20.98960000
66.46350000 -56.19910000 22.11560000
67.44930000 -56.46710000 20.80110000
106.77100000 76.94090000 27.24060000
107.08400000 77.94430000 26.55060000
106.07200000 76.25550000 27.83710000
128.47400000 73.08900000 14.44570000
127.77600000 75.23610000 14.94410000
127.26800000 72.69110000 15.51440000
125.70000000 74.53150000 19.60330000
125.43800000 74.07220000 20.53420000
126.96200000 70.19800000 16.37650000
126.96500000 71.62280000 16.32690000
126.53500000 70.60440000 17.62160000
126.16100000 69.62150000 18.09000000
133.14200000 55.16950000 2.63540000
134.75600000 55.76410000 6.10340000
133.05600000 55.06430000 4.02650000
135.48300000 55.49730000 3.18810000
140.26800000 66.38680000 11.18540000
142.90000000 66.21290000 10.24700000
141.88200000 68.09890000 10.66050000
148.52200000 71.11240000 8.20280000
145.76200000 69.32320000 9.58190000
114.93900000 -20.97750000 20.23140000
115.69100000 -15.07170000 21.66930000
71.82680000 -6.55090000 17.32010000
69.94850000 -7.26300000 18.02650000
73.52050000 -8.61590000 18.32580000
135.35200000 59.91450000 9.38020000
136.54800000 60.14080000 9.68850000
121.37100000 73.21140000 24.13640000
123.38900000 73.66700000 23.41420000
122.25600000 74.74840000 23.82990000
120.84800000 73.55740000 25.46500000
123.13500000 69.16720000 20.82570000
124.72800000 70.09360000 19.53410000
124.93000000 69.20030000 19.25050000
87.16690000 -12.66560000 22.18070000
89.27830000 -19.77470000 23.10930000
89.33580000 -9.09450000 22.78810000
90.59100000 -13.42630000 23.17640000
91.63210000 -9.25010000 23.67000000
76.81720000 -1.82880000 15.41500000
79.51970000 -3.12540000 17.95810000
78.34580000 -5.24030000 18.04810000
77.49580000 -4.25810000 17.17660000
76.04390000 -2.58260000 15.47970000
150.32700000 83.92580000 -2.72280000
149.09800000 85.27830000 -1.84210000
151.60400000 82.68860000 -1.89340000
151.44000000 82.34350000 -1.22100000
153.24800000 82.06540000 -2.00040000
125.45900000 75.37040000 18.93050000
125.51600000 76.02090000 19.50280000
125.05300000 76.83040000 20.63810000
92.77770000 -55.94420000 13.99730000
92.70870000 -51.56630000 14.57710000
88.79290000 -50.43270000 15.44510000
92.81560000 -52.81690000 14.43760000
139.09700000 -28.29220000 -3.53080000
138.09800000 -31.77020000 -4.09400000
137.00500000 -35.94730000 -5.64590000
139.17400000 -32.18010000 -6.61870000
86.35840000 -50.00730000 15.80910000
87.54130000 -50.92970000 15.38300000
152.29100000 61.39950000 1.97500000
152.04400000 62.13640000 1.28360000
151.74300000 64.20930000 2.15030000
151.79300000 65.28430000 2.90670000
151.00900000 64.04860000 2.22150000
78.69270000 -29.86300000 21.77910000
85.80250000 -28.55850000 22.46460000
88.51840000 -29.65780000 22.45130000
111.07400000 78.45670000 26.03940000
113.64300000 78.78860000 26.04690000
113.98100000 79.96420000 25.16380000
112.44800000 80.31590000 24.42130000
111.36300000 79.93190000 24.29200000
149.19500000 76.76310000 0.80980000
149.47300000 77.36330000 1.91120000
150.62100000 76.71900000 2.64350000
149.46500000 79.44990000 2.07870000
123.33200000 81.17910000 18.82310000
121.64500000 81.77330000 20.81930000
124.15900000 80.37400000 19.87020000
123.88900000 80.69920000 17.16690000
124.86800000 80.13640000 18.08620000
124.88700000 79.60970000 15.58460000
150.21000000 77.76560000 4.73720000
149.50100000 79.09340000 4.48220000
150.14500000 78.64700000 3.25580000
69.88060000 -58.88030000 17.97370000
67.85070000 -58.02960000 18.90240000
69.40830000 -56.51700000 17.81270000
104.96300000 79.94230000 28.38420000
104.10400000 78.56280000 29.08770000
104.67500000 78.05220000 27.89210000
143.67400000 -11.90750000 -8.88430000
143.52300000 -13.57770000 -8.95650000
123.13600000 48.76470000 17.87160000
121.98900000 47.61930000 19.11020000
122.73100000 47.63340000 17.23390000
