-2.10227323 -7.30517292 -0.39219031
-2.06305981 -7.25708389 -0.37464502
-2.13687253 -7.27574444 -0.23803982
-2.17624998 -7.32127619 -0.26199973
-2.09577131 -7.22693205 -0.21255013
-2.16076136 -7.23585844 -0.08073665
-2.20780635 -7.28393698 -0.10269963
-2.10785890 -7.18194723 -0.05923856
-2.15345478 -7.17952538 0.06894991
-2.21484900 -7.23182249 0.05274985
-2.08677292 -7.12231922 0.08596162
-2.17333674 -7.17027569 0.20209894
-2.10266066 -7.11266661 0.21272558
-2.03035021 -7.05555010 0.22338560
-2.09956336 -7.10397720 0.34385729
-2.02926230 -7.04799891 0.34983414
-1.95868230 -6.99679089 0.35775807
-2.01894593 -7.04019260 0.48210290
-1.94788873 -6.99366045 0.48678860
-1.88088393 -6.95403481 0.49161372
-1.93452787 -6.99643469 0.62311256
-1.87050939 -6.95789480 0.62392372
-1.80795574 -6.92528677 0.62410140
-1.85511577 -6.96882248 0.76004422
-1.79189456 -6.93518400 0.75628799
-1.73277473 -6.90759516 0.75227666
-1.77049291 -6.95008326 0.89064622
-1.71072018 -6.92275047 0.88117629
-1.65582216 -6.89982414 0.87365592
-1.68106234 -6.94049072 1.00502193
-1.62870133 -6.91628456 0.99368012
-1.58046818 -6.89394188 0.98391920
-1.55379903 -6.90151310 1.09696913
-1.60028172 -6.92342997 1.10931897
-1.50881910 -6.88034105 1.08488321
-1.52773726 -6.88623524 1.21084893
-1.48447585 -6.86624241 1.19779277
-1.44151711 -6.84696293 1.18449688
-1.44501424 -6.85814190 1.30977488
-1.40585852 -6.84088373 1.29436982
-1.36752760 -6.82397127 1.28015482
-1.36292982 -6.83481073 1.40302587
-1.32689345 -6.81937170 1.38624799
-1.29358959 -6.80149841 1.37172103
-1.25092995 -6.79819059 1.47194088
-1.28423882 -6.81451941 1.48850143
-1.22663295 -6.77276611 1.45996261
-1.26967752 -6.77536297 1.36057377
-1.22166979 -6.73694754 1.45619142
-1.26949358 -6.73866653 1.35943031
-1.23891819 -6.70384026 1.46384895
-1.28943861 -6.70679474 1.36789894
-1.26446044 -6.67440081 1.47640193
-1.31595457 -6.67766523 1.37939727
-1.29153168 -6.64405489 1.48997772
-1.34383726 -6.64810133 1.39170671
-1.37265706 -6.61327505 1.40345180
-1.21096468 -6.67183971 1.56737876
-1.18720591 -6.70119762 1.55398726
-1.13457036 -6.70258379 1.63844299
-1.17354751 -6.73616409 1.54775548
-1.12573624 -6.73874426 1.63409889
-1.06814539 -6.74448204 1.71225035
-1.13638866 -6.77179337 1.64250863
-1.08376408 -6.77501583 1.72574937
-1.02342534 -6.77879286 1.80513930
-1.11087632 -6.79469633 1.74745250
-1.04928601 -6.79752159 1.82930982
-0.97658813 -6.80036545 1.90785229
-1.07919705 -6.81164122 1.85796249
-1.00661349 -6.81232595 1.93863738
-0.92617363 -6.81655121 2.01648188
-1.03874910 -6.83131123 1.96971464
-0.95538288 -6.82940006 2.05005860
-0.86632961 -6.83828545 2.12730622
-0.99031937 -6.85005426 2.08736157
-0.89715415 -6.85632801 2.16402841
-0.80062062 -6.86108160 2.23883724
-0.93034756 -6.87929773 2.20573044
-0.83075702 -6.88485670 2.28377509
-0.73118114 -6.89341211 2.35211778
-0.86329597 -6.90922976 2.32794642
-0.75940192 -6.92350054 2.39890695
-0.66766769 -6.93634033 2.44982004
-0.78980267 -6.95519924 2.44787788
-0.69555783 -6.97148466 2.49718451
-0.62495589 -6.94597769 2.55525136
-0.65383118 -6.98957348 2.60424185
-0.72542906 -7.01237345 2.54778409
-0.55891097 -6.95940876 2.66990805
-0.58731037 -7.00935602 2.72078776
-0.68138003 -7.04488659 2.65523195
-0.46329051 -6.98402882 2.78827190
-0.48861876 -7.03485537 2.84529996
-0.61934805 -7.06208706 2.77583504
-0.35419571 -7.01786566 2.90980291
-0.37362829 -7.07300138 2.96959591
-0.51397127 -7.08910847 2.90388870
-0.22144108 -7.00695372 2.96882725
-0.23709804 -7.06344604 3.03188515
-0.09284078 -6.99988222 3.02146220
-0.10547705 -7.05968332 3.08818841
0.03001097 -6.99462128 3.06309867
0.01930509 -7.05559874 3.13452721
0.15054332 -6.98869562 3.09347773
0.14161474 -7.04907894 3.16846824
0.26422894 -7.03878880 3.18092537
0.27129713 -6.98015451 3.10504675
0.39270586 -7.02667713 3.16893530
0.39624789 -6.97009945 3.09742737
0.52711248 -7.01365900 3.14574170
0.52876103 -6.96021557 3.07693982
0.66906202 -7.00375366 3.11313510
0.66775078 -6.95236301 3.05022001
0.81802768 -6.99378681 3.08445573
0.81063992 -6.94864941 3.02171040
0.97045881 -6.99383783 3.05344915
0.95788020 -6.94792271 2.99268150
1.10279679 -6.95097923 2.95918679
0.95788020 -6.94792271 2.99268150
0.97045881 -6.99383783 3.05344915
1.11981905 -6.99901342 3.01998329
1.21702015 -6.99761391 2.90902615
1.24007559 -7.04355812 2.97338510
1.32561946 -6.97904301 2.88473487
1.35595155 -7.03828669 2.94900537
1.45868814 -6.99432421 2.93287468
1.43093252 -6.93937111 2.86734867
1.57961118 -6.96474314 2.88167834
1.55359674 -6.91355610 2.82008696
1.71169448 -6.94527960 2.81479287
1.73811579 -6.99670029 2.86968470
1.60406494 -7.02294636 2.94189858
1.88035488 -6.99008226 2.80153131
1.90731037 -7.04369068 2.85317397
1.76179862 -7.05137873 2.92418146
2.05597973 -7.05517960 2.79929900
1.93150640 -7.09643078 2.90379500
2.08047938 -7.11033106 2.85198641
2.22144008 -7.12598610 2.80446100
2.10107660 -7.16467190 2.90381742
2.24915433 -7.18056059 2.85451126
2.11880541 -7.21714926 2.94962311
2.27416801 -7.22950268 2.90112424
2.13482118 -7.26782084 2.98650479
2.29094100 -7.27691412 2.93846393
2.14706969 -7.31424618 3.01612329
2.30469370 -7.31613636 2.97234201
2.47024226 -7.30223703 2.90452218
2.31843257 -7.35240936 3.00226569
2.48836780 -7.34170771 2.92720413
2.62204838 -7.34113503 2.79765344
2.49528337 -7.39011240 2.93265915
2.62853551 -7.38830280 2.80455327
2.72292185 -7.38863420 2.64738631
2.61589551 -7.43494511 2.79425001
2.71211553 -7.43274641 2.64183235
2.77234364 -7.42153120 2.48984480
2.69092417 -7.47297812 2.62617874
2.75391626 -7.46089411 2.47923732
2.80086398 -7.44601440 2.34512830
2.73046613 -7.49521303 2.46425962
2.77812696 -7.47804165 2.33295393
2.82597756 -7.47518301 2.21520543
2.75137806 -7.50320959 2.31685019
2.80559969 -7.50207806 2.20401478
2.88560939 -7.53045034 2.11275148
2.88560939 -7.53045034 2.11275148
2.80559969 -7.50207806 2.20401478
2.78087234 -7.51928902 2.18781996
2.85782599 -7.53927803 2.09100270
2.94703126 -7.56011343 1.99363458
2.97652483 -7.54974699 2.01472521
2.91675591 -7.54631662 1.97063887
2.83339572 -7.52148628 2.06760287
3.00330257 -7.56554365 1.86726427
2.97453475 -7.53802538 1.84907985
2.89155221 -7.51743984 1.94928932
3.04780173 -7.55120850 1.73573327
3.08110571 -7.57268906 1.75482225
3.13997769 -7.56350374 1.63354695
3.10733056 -7.53697968 1.61937439
3.14699411 -7.51481295 1.49814224
3.08313870 -7.49748230 1.60903084
3.11562514 -7.48290920 1.48650491
3.14183021 -7.47040987 1.36364758
3.08176279 -7.45011473 1.47325897
3.10925579 -7.43944740 1.35231614
3.13640261 -7.42441702 1.22875631
3.07372952 -7.40504026 1.33929658
3.10208225 -7.38880634 1.21657670
3.13318753 -7.37232065 1.09319913
3.06041622 -7.34714460 1.20201468
3.09078932 -7.33296585 1.07815218
3.11114240 -7.34515095 0.95083916
3.03911972 -7.29462671 1.06196558
3.05621028 -7.29371309 0.93800652
3.12978506 -7.34695816 0.82729524
3.07414651 -7.29050016 0.81829429
3.14633393 -7.34222412 0.70848942
3.08738852 -7.28430510 0.70290434
3.15631056 -7.32807827 0.59023201
3.10011697 -7.26480103 0.58960772
3.16093206 -7.30637312 0.46751136
3.09891653 -7.24540186 0.46815223
3.15497303 -7.28546667 0.33679092
3.08692575 -7.23687267 0.34198678
3.13331819 -7.27871561 0.19793411
3.06337190 -7.23726845 0.20899072
3.09045362 -7.29611063 0.06145114
3.02982759 -7.24772692 0.07560197
2.98662925 -7.27155066 -0.05330432
3.04393172 -7.32517147 -0.07043282
2.94636869 -7.28923559 -0.17561850
3.00557828 -7.34398937 -0.19682419
2.90380025 -7.29059362 -0.29093853
2.96050954 -7.34821463 -0.31696671
2.89578366 -7.33961582 -0.42732307
2.84926534 -7.28306675 -0.40516561
2.83728886 -7.32300282 -0.55028075
2.78883934 -7.26907873 -0.52567399
2.76235271 -7.31885147 -0.67120820
2.71783590 -7.26493645 -0.64545310
2.64295554 -7.26636744 -0.76266819
2.68405247 -7.32511091 -0.78858030
2.71968889 -7.37723875 -0.80759430
2.61119008 -7.34032249 -0.90014726
2.64833426 -7.39818954 -0.92159712
2.68308759 -7.45283508 -0.94182360
2.57373714 -7.41734934 -1.02753294
2.60910368 -7.47118807 -1.05266511
2.64050150 -7.52147722 -1.07845354
2.54516459 -7.51884365 -1.17798066
2.51542830 -7.47291374 -1.14861798
2.43547821 -7.50453568 -1.26497173
2.40920806 -7.45858622 -1.23507464
2.32066250 -7.48907566 -1.34518766
2.29847050 -7.44296408 -1.31886065
2.19961071 -7.48941088 -1.41287971
2.17762446 -7.44412327 -1.38697314
2.08018804 -7.50136185 -1.47141254
2.05519128 -7.45270920 -1.44384027
1.96262383 -7.52012730 -1.52250838
1.93512011 -7.47215271 -1.48977983
1.84939432 -7.53010893 -1.58230972
1.82358408 -7.47952509 -1.54923081
1.73067594 -7.53532219 -1.63959861
1.70653296 -7.48634052 -1.60267854
1.61000979 -7.54782534 -1.68733704
1.58492076 -7.50038147 -1.64585352
1.49101412 -7.55827188 -1.73817110
1.46913826 -7.50532675 -1.69921315
1.37266719 -7.56373262 -1.79069841
1.35342789 -7.51043510 -1.75073946
1.23835421 -7.51068497 -1.80288076
1.25295401 -7.56958199 -1.83795893
1.12369323 -7.51077938 -1.85171795
1.13333762 -7.57215405 -1.88442147
1.00232661 -7.52027607 -1.88360381
1.00873756 -7.58006668 -1.91898620
0.87842590 -7.52574682 -1.91162491
0.88210344 -7.58725691 -1.94720376
0.75121850 -7.53024530 -1.93287826
0.75289369 -7.59023714 -1.97113264
0.62446404 -7.52929401 -1.95692945
0.62468296 -7.58543396 -1.99730825
0.49403334 -7.53305912 -1.96862543
0.49281350 -7.58386993 -2.01021600
0.36256102 -7.52754879 -1.97653103
0.35929990 -7.57685757 -2.01932216
0.22978115 -7.53142309 -1.96958113
0.22429995 -7.57485867 -2.01448083
0.09743292 -7.53726721 -1.95509648
0.08957352 -7.57700205 -1.99824774
-0.03708062 -7.53451252 -1.93822396
-0.04665506 -7.57289124 -1.98088896
-0.17120105 -7.52373219 -1.92281163
-0.18275549 -7.56168509 -1.96281028
-0.31239319 -7.55827188 -1.91802049
-0.29890162 -7.52226686 -1.87914407
-0.44042346 -7.55023718 -1.87135196
-0.42690396 -7.51243925 -1.83924985
-0.55618238 -7.50510883 -1.79727221
-0.56979555 -7.54587126 -1.82393348
-0.67546290 -7.51916027 -1.73165238
-0.69092363 -7.56204128 -1.76223564
-0.80252522 -7.52710724 -1.68359363
-0.82100105 -7.56507969 -1.72114539
-0.93005645 -7.53714895 -1.63763034
-0.95416576 -7.57495308 -1.67812848
-1.04596472 -7.54951811 -1.57522190
-1.07522833 -7.59157658 -1.61269271
-1.17585921 -7.58665895 -1.52671814
-1.14652956 -7.54040432 -1.49631584
-1.25961852 -7.57208300 -1.42553616
-1.23409915 -7.52133131 -1.40395534
-1.34493411 -7.54839849 -1.32114160
-1.31851017 -7.50917244 -1.29904687
-1.37088013 -7.58463764 -1.34267390
-1.44740438 -7.58003902 -1.23548663
-1.42208099 -7.55064964 -1.21337378
-1.47656369 -7.60601187 -1.25911272
-1.53766823 -7.58458757 -1.14279807
-1.56508040 -7.61241436 -1.16523123
-1.59315085 -7.63056612 -1.18995249
-1.65600479 -7.61594725 -1.07462382
-1.68451238 -7.63343906 -1.09740937
-1.62299001 -7.63490295 -1.21449614
-1.71451223 -7.63685751 -1.12129283
-1.77475679 -7.63993263 -1.00195515
-1.80663502 -7.64032030 -1.02620888
-1.71451223 -7.63685751 -1.12129283
-1.80663502 -7.64032030 -1.02620888
-1.83588123 -7.62556839 -1.04829836
-1.88689411 -7.64262772 -0.92186534
-1.91994166 -7.62732553 -0.94308227
-1.94049013 -7.59420872 -0.95835215
-1.98020554 -7.58470058 -0.82268423
-1.96106780 -7.61487722 -0.81004888
-1.98949623 -7.54783201 -0.83148396
-2.00058460 -7.53887463 -0.68178087
-2.00048375 -7.57243776 -0.67469221
-1.98718822 -7.50719070 -0.68041247
-2.04355192 -7.51887369 -0.53997588
-2.05404305 -7.48185015 -0.54683244
-2.06018114 -7.44227314 -0.55314898
-2.15125227 -7.48514891 -0.43987358
-2.16004229 -7.44108629 -0.44422582
-2.15515447 -7.39590406 -0.43144920
-2.25430608 -7.45381546 -0.31242371
-2.23378229 -7.41180849 -0.29623109
-2.20734310 -7.36744642 -0.28141862
-2.28190923 -7.37212515 -0.14187655
-2.31199145 -7.41390228 -0.15795016
-2.24917078 -7.32776403 -0.12287265
-2.35654020 -7.36336708 0.01192056
-2.31577420 -7.32035875 0.02359045
-2.26876712 -7.27892876 0.03684263
-2.34969950 -7.31618214 0.18095922
-2.29714131 -7.27327871 0.18684541
-2.23951912 -7.22564459 0.19287829
-2.28472924 -7.27299500 0.34195969
-2.22675896 -7.21888924 0.34030342
-2.16634226 -7.16170216 0.33975732
-2.20533276 -7.20463419 0.49167982
-2.14900327 -7.14970875 0.48098531
-2.08555508 -7.09395647 0.47995353
-2.12187886 -7.14002705 0.63405627
-2.06375647 -7.08882427 0.62671626
-2.00018740 -7.04029751 0.62397444
-2.04214382 -7.09625244 0.77845716
-1.98043656 -7.04936934 0.77094978
-1.91773343 -7.00661850 0.76570243
-1.89487231 -7.01902580 0.90873402
-1.95710123 -7.06484270 0.91787827
-1.83281481 -6.98205090 0.90004343
-1.85891485 -7.03820133 1.04280329
-1.79611719 -7.00021982 1.02976286
-1.73695028 -6.96903801 1.01647770
-1.75138605 -7.02185917 1.14633155
-1.70110548 -6.98060131 1.13483262
-1.64948237 -6.94989777 1.12217033
-1.62625217 -6.93465042 1.24237156
-1.67924476 -6.96642637 1.25807691
-1.57664871 -6.91017723 1.22656035
-1.53658164 -6.90002632 1.34703660
-1.58684373 -6.92527103 1.36872029
-1.48971713 -6.87786913 1.32762551
-1.44597864 -6.87168455 1.44177878
-1.49239278 -6.89347124 1.46521688
-1.40305066 -6.85244608 1.42088354
-1.35899580 -6.84904861 1.52927029
-1.40223634 -6.87031507 1.55418277
-1.31920457 -6.83082867 1.50712323
-1.27549386 -6.82715178 1.60968745
-1.31297433 -6.84535456 1.63263881
-1.24024642 -6.81049824 1.58882451
-1.19417989 -6.80893421 1.68174744
-1.22721159 -6.82491207 1.70579600
-1.16276228 -6.79319382 1.66156828
-1.20859241 -6.79423857 1.56886184
-1.18302274 -6.77072001 1.55383503
-1.14214802 -6.80954790 1.77247858
-1.17572725 -6.82478476 1.79925084
-1.11171174 -6.82623291 1.88671672
-1.21076095 -6.84042883 1.82722461
-1.14838552 -6.84315729 1.91836298
-1.07277381 -6.85214901 2.00283480
-1.18755555 -6.86233950 1.95201111
-1.10908437 -6.87625790 2.03624415
-1.02649307 -6.87102747 2.12451506
-1.06381810 -6.89419270 2.16309333
-1.14978993 -6.89878178 2.07263899
-0.96504962 -6.90245247 2.24810123
-1.10363781 -6.92200899 2.20304418
-1.00293124 -6.93180895 2.29222131
-0.89713871 -6.94010592 2.37454677
-1.04043949 -6.96328545 2.33713007
-0.93036759 -6.97552872 2.42366076
-0.82179290 -6.99173784 2.49996781
-0.96748352 -7.01660776 2.47617459
-0.85565090 -7.03448629 2.55653000
-0.75774914 -7.06324625 2.60161686
-0.89307898 -7.08102846 2.61808491
-0.78969258 -7.12304592 2.65773821
-0.70780498 -7.10679340 2.70782304
-0.73555893 -7.17513323 2.76172376
-0.82618737 -7.18711472 2.71582484
-0.65197140 -7.11596537 2.83453727
-0.67716640 -7.17472982 2.89242268
-0.75708908 -7.23548651 2.82017183
-0.53750354 -7.14553070 2.96139264
-0.55735302 -7.20224380 3.01706314
-0.68920434 -7.23976946 2.94707489
-0.41229039 -7.18566895 3.08252382
-0.39307106 -7.12917185 3.02753663
-0.25136802 -7.12197495 3.09367466
-0.26781160 -7.18177509 3.15194941
-0.11804736 -7.12197495 3.15476632
-0.13192013 -7.18602800 3.21931767
0.00883470 -7.11952019 3.20663023
-0.00210017 -7.18693733 3.27740312
0.13326652 -7.11270094 3.24544001
0.12557739 -7.17829752 3.32017541
0.25790995 -7.16767502 3.33112097
0.25933519 -7.10224485 3.25769043
0.39304501 -7.15207815 3.31285810
0.39054909 -7.08805704 3.24276876
0.53111595 -7.13146353 3.28014421
0.52724415 -7.07075930 3.21399426
0.67879373 -7.10938883 3.24045897
0.67179132 -7.05516386 3.18020058
0.83953977 -7.09492731 3.20444489
0.82732403 -7.04346371 3.14575076
0.98412925 -7.04204035 3.11336279
0.99840128 -7.09330177 3.17230105
0.98412925 -7.04204035 3.11336279
0.99840128 -7.09330177 3.17230105
1.13512528 -7.11860275 3.12574816
1.13251567 -7.05453300 3.07719660
1.24753523 -7.09326649 3.04083252
1.25268364 -7.13984966 3.10590696
1.38582873 -7.13337564 3.09582567
1.37589741 -7.08780718 3.02522659
1.50870919 -7.14059877 3.02968502
1.48582387 -7.06574965 2.98867393
1.62951624 -7.08787298 2.99803710
1.66189730 -7.14804363 3.05098748
1.52815247 -7.19503260 3.08643079
1.78606236 -7.10516644 2.97430038
1.81479764 -7.15956259 3.01631284
1.68762326 -7.21045494 3.07615495
1.95239365 -7.15055752 2.95347929
1.85088766 -7.22058201 3.05001211
1.97514164 -7.20725346 2.99805450
1.99444389 -7.26385212 3.02981448
1.86549425 -7.27498341 3.08507800
2.00541949 -7.30706024 3.06323981
1.86949193 -7.33130836 3.08687043
2.00907469 -7.35809612 3.07376361
1.87303853 -7.38428116 3.08230090
2.15358400 -7.35547018 3.04293609
2.01240182 -7.40593290 3.06505632
2.15600848 -7.40093994 3.04247880
2.32406926 -7.39808416 3.00534129
2.15640330 -7.44201946 3.02623105
2.32170391 -7.44006252 2.98845887
2.48831725 -7.43750620 2.91822624
2.47363091 -7.48095274 2.89473581
2.31530380 -7.47946501 2.96701026
2.59898019 -7.47868156 2.77512312
2.45672321 -7.52216959 2.86787033
2.57897019 -7.52039576 2.75297666
2.66775393 -7.51050377 2.60839105
2.55366683 -7.55599594 2.72571850
2.64117694 -7.54448605 2.58651686
2.70328355 -7.52512789 2.44454193
2.60927176 -7.56619930 2.55867052
2.67008853 -7.54127312 2.42148542
2.70328355 -7.52512789 2.44454193
2.64117694 -7.54448605 2.58651686
2.75137806 -7.50320959 2.31685019
2.72167945 -7.51827335 2.29786038
2.63183880 -7.54035807 2.39798903
2.69001603 -7.51372480 2.27747750
2.75329280 -7.50925922 2.16733980
2.66055584 -7.49578714 2.25677347
2.73167491 -7.48552704 2.14679646
2.80994511 -7.49284601 2.04630852
2.70953012 -7.45653200 2.12798452
2.78665471 -7.46220398 2.02506924
2.86899042 -7.48246527 1.92964649
2.84456897 -7.45112944 1.90700483
2.76461053 -7.42932558 2.00585794
2.92792797 -7.46396637 1.81171274
2.95350695 -7.50075340 1.83204210
3.00223088 -7.46730185 1.70942259
3.02522731 -7.51151419 1.72299361
3.05187607 -7.45989752 1.59541655
2.96955752 -7.42643833 1.68970168
3.01204205 -7.42716885 1.57774484
3.04389715 -7.41626644 1.45873809
2.96672249 -7.39413261 1.55573499
3.00100589 -7.37860394 1.44213021
3.03441095 -7.36479330 1.32465875
2.94960570 -7.33432484 1.42050600
2.98204994 -7.31149197 1.30500436
3.01323485 -7.30247355 1.18603647
2.92419624 -7.25268412 1.28338182
2.95041060 -7.24318743 1.16598749
2.97443080 -7.23577833 1.04673362
2.88301349 -7.18233871 1.14584494
2.90664983 -7.17328548 1.03201509
2.99274039 -7.23135996 0.92770749
2.91887450 -7.17473888 0.91764891
3.00531268 -7.22968674 0.81134814
2.93366838 -7.16513586 0.80663836
3.01924706 -7.21720076 0.69961524
2.94645429 -7.15220308 0.69684690
3.02977991 -7.19860888 0.58795786
2.95625353 -7.13488960 0.58756578
3.02795887 -7.18611717 0.47094306
2.95504975 -7.12410927 0.47295240
3.01418042 -7.18204594 0.34730852
2.93826532 -7.12757874 0.35407683
2.99030447 -7.18536568 0.22039798
2.91398835 -7.13340616 0.23284939
2.88594031 -7.13831472 0.11074411
2.95942211 -7.19470024 0.09241246
2.85073853 -7.14777803 -0.00967390
2.92184711 -7.20858192 -0.03266840
2.80697823 -7.16197538 -0.12314586
2.87931204 -7.22400570 -0.15043680
2.76169395 -7.16652250 -0.23341465
2.83616257 -7.22649193 -0.26303223
2.78291750 -7.22242737 -0.37581021
2.71151090 -7.16332912 -0.34325817
2.72306752 -7.21639490 -0.49187344
2.65294743 -7.16242743 -0.45392549
2.65595126 -7.21140766 -0.60758144
2.58929849 -7.15949297 -0.56464410
2.52294779 -7.15653706 -0.67443949
2.58673048 -7.20864630 -0.72227353
2.45805860 -7.15160894 -0.78039575
2.52209949 -7.20230818 -0.83474433
2.56977248 -7.27340364 -0.87149340
2.44705939 -7.20936918 -0.93165219
2.49227548 -7.28477430 -0.96827024
2.53602052 -7.35846376 -1.00116146
2.45232391 -7.35764360 -1.09161139
2.41178966 -7.28796101 -1.05845320
2.48591328 -7.41902065 -1.12011588
2.38541698 -7.40587473 -1.20878243
2.35737157 -7.35072184 -1.17986238
2.27517962 -7.39437437 -1.29180920
2.24768329 -7.34395361 -1.25954592
2.15378690 -7.39732742 -1.35878336
2.12858224 -7.34661627 -1.32788682
2.03010392 -7.40598392 -1.41612756
2.00421309 -7.35010958 -1.38461411
1.90683663 -7.41878319 -1.45874071
1.88037050 -7.35569239 -1.43050945
1.79532909 -7.42403460 -1.51480627
1.76769114 -7.35943127 -1.47633410
1.68366921 -7.42785883 -1.56956530
1.66014636 -7.36154985 -1.53295827
1.56440926 -7.43796635 -1.61366093
1.54701614 -7.36459208 -1.58452463
1.45037603 -7.44208908 -1.66852450
1.43484688 -7.36502457 -1.63919866
1.32273388 -7.36623716 -1.68667889
1.33730578 -7.44521666 -1.71948981
1.21345460 -7.36665773 -1.73569846
1.22672677 -7.44473600 -1.77240551
1.10215843 -7.37111568 -1.77519953
1.11373734 -7.44504356 -1.81681550
0.98579055 -7.38215494 -1.80075800
0.99408972 -7.45554638 -1.84320748
0.87139899 -7.38496208 -1.83898759
0.87586623 -7.46042728 -1.87851238
0.74954706 -7.39301538 -1.86093950
0.75140947 -7.46437788 -1.89886367
0.62433815 -7.39668608 -1.88079214
0.62469774 -7.46586275 -1.91928828
0.49755776 -7.40386295 -1.88684988
0.49589062 -7.47625303 -1.92883956
0.36949235 -7.41484833 -1.88601530
0.36594599 -7.47627783 -1.93447614
0.24096918 -7.42480993 -1.88071954
0.23577744 -7.48239040 -1.92407763
0.11354598 -7.44338894 -1.86220610
0.10547311 -7.49352789 -1.90889204
-0.01496725 -7.44972181 -1.84574258
-0.02615380 -7.49432564 -1.89416361
-0.14335671 -7.44623137 -1.83310938
-0.15788715 -7.48598719 -1.87940586
-0.26876161 -7.44398689 -1.80362225
-0.28385222 -7.48353100 -1.84128332
-0.39673340 -7.42034054 -1.77376807
-0.41259152 -7.47214603 -1.80735433
-0.52536327 -7.41121340 -1.73617136
-0.54240465 -7.45945597 -1.77119315
-0.64680630 -7.41835451 -1.67600560
-0.66244692 -7.46971464 -1.70616090
-0.76836985 -7.43062639 -1.61609447
-0.78544211 -7.48170948 -1.64784062
-0.88138050 -7.44611979 -1.55585623
-0.90593648 -7.49591351 -1.59539211
-0.98330778 -7.45540333 -1.49392509
-1.01665115 -7.50524569 -1.53511584
-1.11031115 -7.49488020 -1.45992267
-1.07263803 -7.44647455 -1.42093098
-1.19692779 -7.48028374 -1.37196219
-1.15950346 -7.43486357 -1.33604741
-1.28681588 -7.46597576 -1.27374470
-1.25173867 -7.42340374 -1.24648321
-1.34697938 -7.41824436 -1.15209150
-1.37453866 -7.46453810 -1.17462337
-1.39882696 -7.50809336 -1.19398606
-1.46163261 -7.46909332 -1.07986557
-1.48549843 -7.51581144 -1.09925056
-1.51052952 -7.55410719 -1.11983895
-1.57554340 -7.52067947 -1.01073122
-1.60333645 -7.55874634 -1.03160954
-1.63008273 -7.58952904 -1.05364192
-1.68914557 -7.56195068 -0.93983161
-1.71650422 -7.59559917 -0.95842308
-1.74346900 -7.62434864 -0.97824252
-1.79117799 -7.58762217 -0.86188632
-1.81666231 -7.62233400 -0.87653142
-1.85212505 -7.64155293 -0.89971274
-1.89805329 -7.62684059 -0.77711469
-1.86777520 -7.60333586 -0.76164216
-1.93249846 -7.63278580 -0.79374540
-1.88689411 -7.64262772 -0.92186534
-1.95942283 -7.61417294 -0.65210515
-1.93072295 -7.60351849 -0.64088148
-1.98622060 -7.60040951 -0.66429502
-1.93249846 -7.63278580 -0.79374540
-1.95942283 -7.61417294 -0.65210515
-2.01884246 -7.57389927 -0.52521098
-2.00584960 -7.59828949 -0.51762503
-2.03269339 -7.54854727 -0.53320867
-2.12160587 -7.55663729 -0.41921014
-2.10355425 -7.58835411 -0.40714294
-2.13731313 -7.52320004 -0.43083605
-2.23421884 -7.53991556 -0.30650592
-2.21250606 -7.57757092 -0.29544449
-2.25146580 -7.50021362 -0.31524706
-2.33585501 -7.50586462 -0.17024332
-2.31850004 -7.54954958 -0.16177282
-2.33506918 -7.45675659 -0.16950180
-2.41123128 -7.49726057 -0.00761540
-2.41296220 -7.44739056 -0.01042905
-2.39137316 -7.40116215 -0.00294836
-2.46030736 -7.43829489 0.16559842
-2.43923187 -7.38931084 0.16821834
-2.39682412 -7.35299301 0.17464770
-2.40710211 -7.40230703 0.34464413
-2.37060547 -7.36950731 0.34393963
-2.33689046 -7.32182121 0.34345427
-2.33635807 -7.36425972 0.50239044
-2.30531740 -7.31289148 0.50222403
-2.25711918 -7.25925779 0.49785867
-2.27292180 -7.30349112 0.65404767
-2.23162603 -7.24754143 0.65105116
-2.17792749 -7.19181824 0.64228576
-2.19742727 -7.25711441 0.79684484
-2.15421581 -7.19937992 0.79375196
-2.10002899 -7.14670181 0.78665119
-2.06846714 -7.17369413 0.93285751
-2.12605810 -7.21907616 0.94084370
-2.01396036 -7.11812973 0.92497063
-2.02017426 -7.20397186 1.05667889
-1.97717965 -7.13964558 1.05978024
-1.92173553 -7.08295774 1.05488777
-1.92477655 -7.16878796 1.18152988
-1.86595893 -7.11827183 1.16828203
-1.80496526 -7.07060575 1.15777302
-1.85634816 -7.08093548 1.30236590
-1.79513049 -7.03924084 1.28804100
-1.73515832 -7.00137091 1.27328217
-1.75841570 -7.02638292 1.42737663
-1.69983566 -6.98947763 1.40902638
-1.64301789 -6.95651722 1.38852680
-1.59864485 -6.95173264 1.51627481
-1.65471780 -6.98519182 1.54131746
-1.54400480 -6.92043209 1.49084795
-1.49660230 -6.92041636 1.60907948
-1.54898858 -6.95229864 1.63806188
-1.44697428 -6.89186954 1.58048809
-1.39983797 -6.88708973 1.68971467
-1.44876373 -6.91445398 1.72198021
-1.35450780 -6.86483908 1.65981412
-1.30520844 -6.86224461 1.76123273
-1.34983099 -6.88529587 1.79315281
-1.26452434 -6.84240818 1.73280942
-1.25151908 -6.86310291 1.85891628
-1.29412329 -6.88747597 1.89117599
-1.22941852 -6.88488579 1.98568594
-1.34416342 -6.91467571 1.92804468
-1.27671719 -6.91207361 2.02254367
-1.19449198 -6.91859245 2.11274815
-1.24244714 -6.94883728 2.15345311
-1.32655704 -6.94300079 2.06124139
-1.14362514 -6.95888567 2.24348354
-1.19063139 -6.99450970 2.28949189
-1.29159129 -6.98602390 2.19649720
-1.08077979 -7.00415468 2.38438821
-1.23812997 -7.04131889 2.33652449
-1.12299907 -7.04988861 2.43383551
-1.00620031 -7.06199217 2.53182530
-1.16528809 -7.10037756 2.48295760
-1.04609954 -7.11440277 2.58607483
-0.93057406 -7.13896132 2.67717767
-1.08470166 -7.16910744 2.63596559
-0.96961284 -7.20205832 2.72560859
-0.87013042 -7.24382782 2.78085589
-1.00576568 -7.27281094 2.75635028
-0.90407276 -7.28661680 2.84551263
-0.77699739 -7.28800583 2.89107919
-0.80012453 -7.33213806 2.94688177
-0.93353873 -7.32610416 2.89548683
-0.69190073 -7.30392981 2.99449587
-0.69217175 -7.36659861 3.02902532
-0.82763022 -7.37102365 2.99512172
-0.58144951 -7.31822157 3.11397481
-0.57197231 -7.25881720 3.06800604
-0.43097633 -7.24178267 3.13261557
-0.44522324 -7.29858351 3.18059993
-0.28619134 -7.24091005 3.20443583
-0.30861488 -7.29864836 3.24932289
-0.14926198 -7.24876785 3.27812171
-0.16985112 -7.31088448 3.32927489
-0.01633040 -7.25124645 3.34204364
-0.03187738 -7.31300163 3.39928126
0.11822585 -7.24199581 3.38963461
0.11124031 -7.29781485 3.45344687
0.26679268 -7.28782415 3.45520639
0.25944230 -7.23056984 3.39820004
0.41904980 -7.27160311 3.42553329
0.40266848 -7.21448135 3.37380743
0.56805575 -7.24683332 3.38815784
0.54591584 -7.19088125 3.33793569
0.71609241 -7.21870661 3.34439373
0.69224375 -7.16390610 3.29507184
0.85411608 -7.14614964 3.25782323
0.86807001 -7.20028973 3.30583620
1.00998795 -7.14958906 3.22354364
1.01795411 -7.20025539 3.27570486
1.13550019 -7.24154997 3.20759082
1.13464928 -7.18129396 3.16676426
1.00998795 -7.14958906 3.22354364
1.01795411 -7.20025539 3.27570486
1.26034725 -7.19017410 3.16443801
1.27389920 -7.23843288 3.21618629
1.40027833 -7.17905617 3.15827394
1.41646552 -7.22845268 3.21062636
1.55255377 -7.24088097 3.13551927
1.57567203 -7.28611851 3.18174577
1.43497634 -7.27787066 3.26047397
1.70428038 -7.27254534 3.08077002
1.72009909 -7.32834387 3.10221577
1.59698606 -7.33030462 3.22221398
1.73788929 -7.37264681 3.13695526
1.61669827 -7.37450504 3.25471878
1.75135088 -7.41517019 3.16190624
1.63370597 -7.42235756 3.27592826
1.76856506 -7.45402718 3.18921876
1.64919996 -7.46276379 3.30252075
1.87479115 -7.43121004 3.07987475
1.88192368 -7.47232628 3.09024334
1.78083348 -7.49820137 3.20235181
2.01137567 -7.44693041 3.04797578
2.00885320 -7.48378992 3.02889252
1.88638043 -7.50975180 3.09075451
2.15640521 -7.48049784 3.00632548
2.14996743 -7.51640177 2.98505020
2.00647855 -7.51839399 3.01331186
2.30635834 -7.51662922 2.94254208
2.29245710 -7.54969454 2.91227889
2.14089274 -7.54492521 2.95632052
2.43453979 -7.55942202 2.83716846
2.40558863 -7.58465338 2.79961848
2.43453979 -7.55942202 2.83716846
2.29245710 -7.54969454 2.91227889
2.26999378 -7.57038784 2.87377834
2.55366683 -7.55599594 2.72571850
2.52139139 -7.57833338 2.69146442
2.37315536 -7.58600807 2.75576973
2.48555636 -7.57910109 2.65258598
2.56975913 -7.56667233 2.52764893
2.45182967 -7.55980968 2.61874914
2.53495526 -7.54122162 2.49964666
2.59706044 -7.52065039 2.37502670
2.50679207 -7.50301552 2.47630692
2.57030797 -7.48443508 2.35378742
2.63631034 -7.46291924 2.23775387
2.54521155 -7.44349766 2.33398509
2.61176610 -7.43068171 2.21853709
2.68726921 -7.42363882 2.11086559
2.58931398 -7.39071846 2.20135546
2.66573524 -7.38606977 2.09394741
2.74248576 -7.39608431 1.98627031
2.71871734 -7.36224890 1.96626163
2.63895440 -7.34849977 2.07363105
2.79164743 -7.38259506 1.86047411
2.81844735 -7.41801834 1.88330650
2.86211872 -7.39349508 1.76010036
2.89705348 -7.42845154 1.78727138
2.92696595 -7.39160919 1.66336393
2.82326841 -7.35383940 1.73374510
2.87706447 -7.35686207 1.63497841
2.91449356 -7.35204124 1.53056133
2.80895782 -7.30547667 1.59941673
2.84968376 -7.29592514 1.49810731
2.88840103 -7.27474165 1.39350235
2.77964354 -7.23694897 1.46307349
2.82252908 -7.21248674 1.36523628
2.85728669 -7.19161177 1.25893211
2.75045991 -7.15098619 1.33520544
2.78381538 -7.13473177 1.23257458
2.81191373 -7.12099314 1.12621844
2.70276475 -7.08482647 1.20503986
2.72926712 -7.07235098 1.10317314
2.83424997 -7.11194515 1.01777315
2.75212121 -7.05926800 1.00179446
2.85083103 -7.10542822 0.90969491
2.77007890 -7.04797649 0.90004849
2.86498761 -7.09534550 0.80334944
2.78272462 -7.03960896 0.79694009
2.87518454 -7.08390141 0.69658881
2.79182577 -7.03021622 0.69347215
2.88018775 -7.07236147 0.58775538
2.79565382 -7.02224445 0.58752042
2.87359309 -7.07056618 0.47571170
2.78984046 -7.02152538 0.48003587
2.85844684 -7.07477283 0.36175534
2.77330327 -7.02817917 0.37146717
2.83377814 -7.08273983 0.24593496
2.74911070 -7.03806591 0.26264581
2.71884537 -7.04870176 0.15379648
2.80455875 -7.08963537 0.13112320
2.68580604 -7.05561972 0.04404571
2.76970792 -7.09891987 0.01741531
2.64574385 -7.06528330 -0.06119555
2.72774816 -7.11013937 -0.09324522
2.60360765 -7.06241417 -0.16611993
2.68202114 -7.11486006 -0.20025969
2.55271339 -7.06924963 -0.26773685
2.63298297 -7.11391926 -0.30694321
2.50039887 -7.06952429 -0.36917013
2.57703257 -7.11559868 -0.41273135
2.44523907 -7.06503487 -0.46977043
2.51889062 -7.11060190 -0.51855218
2.38695264 -7.06191492 -0.56727952
2.45636940 -7.10670280 -0.62319756
2.32351685 -7.06035900 -0.66145134
2.39240980 -7.10205984 -0.72174716
2.25692868 -7.05951262 -0.74800718
2.32427287 -7.10073900 -0.81367308
2.39024496 -7.14714718 -0.87720954
2.25059628 -7.10303354 -0.89742357
2.31338739 -7.15013456 -0.96305466
2.36733794 -7.21201372 -1.01890421
2.22749639 -7.15239763 -1.04119706
2.27362132 -7.21715736 -1.09512210
2.31813335 -7.28566933 -1.14142072
2.21217918 -7.28223133 -1.21828640
2.17727685 -7.20945740 -1.17507291
2.09968090 -7.27945566 -1.28903794
2.06780171 -7.20776081 -1.24180317
1.98014474 -7.28092480 -1.34541285
1.95700479 -7.20625973 -1.29937351
1.85909426 -7.28167009 -1.39002812
1.84390211 -7.20764637 -1.33972120
1.73139036 -7.21064949 -1.38630986
1.74554086 -7.28552723 -1.43265331
1.62266505 -7.21610594 -1.44441247
1.63964903 -7.28804636 -1.49034786
1.51793766 -7.21218681 -1.50450540
1.53177238 -7.28619480 -1.54933977
1.40504336 -7.21020889 -1.55402017
1.41941011 -7.28573895 -1.59872496
1.29451513 -7.20418596 -1.60249925
1.30792117 -7.28490925 -1.64539802
1.18473077 -7.20319796 -1.64323878
1.19862533 -7.28495407 -1.69097006
1.07476664 -7.20509815 -1.68152487
1.08938992 -7.28787565 -1.73173583
0.96318668 -7.21333313 -1.71225345
0.97721928 -7.29554415 -1.76280677
0.85017985 -7.22595453 -1.73998857
0.86266553 -7.30579758 -1.78996646
0.73422629 -7.23693991 -1.75943351
0.74398577 -7.31448030 -1.81300306
0.61571658 -7.24665976 -1.77260041
0.62199235 -7.31978846 -1.83202052
0.49579152 -7.25636625 -1.78049076
0.49725685 -7.32918215 -1.83884239
0.37526137 -7.27115107 -1.77431571
0.37262812 -7.34163666 -1.83553338
0.25261864 -7.28221035 -1.76939929
0.24681276 -7.35392714 -1.82906687
0.12956673 -7.28989697 -1.76314270
0.12182445 -7.36989355 -1.81260538
0.01054571 -7.30979633 -1.73613656
-0.00248416 -7.38519478 -1.79327047
-0.11043593 -7.31504536 -1.71425498
-0.12667911 -7.38560200 -1.77402508
-0.23223920 -7.30555820 -1.69513011
-0.25122231 -7.37930965 -1.74926233
-0.35621977 -7.29066706 -1.67426300
-0.37876353 -7.35995960 -1.73212373
-0.47882518 -7.28633547 -1.63510311
-0.50514615 -7.35316753 -1.69346225
-0.59540135 -7.29319048 -1.58009267
-0.62748802 -7.35719585 -1.63917017
-0.70719206 -7.30166817 -1.52103114
-0.74310851 -7.36916018 -1.57619357
-0.81028658 -7.31067944 -1.45916581
-0.84848279 -7.38318253 -1.51081634
-0.90533143 -7.31660557 -1.39458728
-0.94468957 -7.39129019 -1.44463193
-1.03403676 -7.38610268 -1.37571335
-0.99479109 -7.31563950 -1.32670772
-1.12180710 -7.37989855 -1.29593611
-1.08254981 -7.31052303 -1.25045526
-1.21317506 -7.37044954 -1.21066594
-1.16931951 -7.30857420 -1.16629851
-1.25943315 -7.30454111 -1.07957780
-1.30754733 -7.36307526 -1.12059343
-1.34884846 -7.30231857 -0.99215579
-1.40341556 -7.36195564 -1.03426421
-1.43787074 -7.42005396 -1.06029606
-1.47992146 -7.36959648 -0.94086510
-1.51849091 -7.42896938 -0.96803945
-1.54711390 -7.47690725 -0.98930466
-1.58466482 -7.43509340 -0.87281960
-1.62079120 -7.48277903 -0.89601409
-1.65500009 -7.52618074 -0.91785705
-1.72050273 -7.52076864 -0.82107353
-1.68002903 -7.48318386 -0.79632175
-1.76017416 -7.55327272 -0.84525645
-1.81047082 -7.54090500 -0.73291838
-1.77497399 -7.51236200 -0.71539956
-1.84389281 -7.57088184 -0.74906510
-1.88102758 -7.55469990 -0.61779773
-1.85236156 -7.52856731 -0.60291922
-1.90611005 -7.58205509 -0.63068920
-1.95749581 -7.57158756 -0.49604052
-1.93617988 -7.54685545 -0.48630187
-1.97961617 -7.59167004 -0.50600296
-2.02356744 -7.58074474 -0.36842313
-2.04855800 -7.60748100 -0.37977517
-2.00584960 -7.59828949 -0.51762503
-2.07964516 -7.61179304 -0.39493734
-2.11823225 -7.63095522 -0.25113669
-2.15599060 -7.63743305 -0.26953900
-2.07964516 -7.61179304 -0.39493734
-2.15599060 -7.63743305 -0.26953900
-2.18666887 -7.61074686 -0.28348213
-2.22762251 -7.64699650 -0.12663616
-2.26475525 -7.62289238 -0.14022437
-2.29451203 -7.58866549 -0.15166375
-2.33202386 -7.61859798 0.01333498
-2.36558270 -7.58323908 0.00493957
-2.39356971 -7.54278946 -0.00092133
-2.40227342 -7.57242346 0.17285030
-2.43527627 -7.53491068 0.16972792
-2.45457625 -7.48869562 0.16674905
-2.42019939 -7.52447367 0.34338659
-2.43526149 -7.48130608 0.34575149
-2.43502450 -7.43744850 0.34615743
-2.39696598 -7.47766161 0.51129282
-2.39419866 -7.43699121 0.51130688
-2.36564350 -7.40345430 0.50670534
-2.35345459 -7.42716360 0.65836275
-2.33353662 -7.38878250 0.65614265
-2.30053663 -7.35517597 0.65350884
-2.28953218 -7.39182329 0.80011171
-2.27385616 -7.34617472 0.80194944
-2.23663998 -7.30728626 0.79922247
-2.19915438 -7.37864733 0.93335444
-2.18748641 -7.32875919 0.94156027
-2.16830325 -7.27270985 0.94455171
-2.15301585 -7.34089184 1.07415235
-2.10546899 -7.30454254 1.06669700
-2.06105614 -7.26270723 1.05934310
-2.08099699 -7.30286121 1.21130538
-2.03461432 -7.26287174 1.20294857
-1.98184729 -7.21706772 1.19283438
-2.01280403 -7.24477243 1.34006822
-1.97311020 -7.18240309 1.32827377
-1.91698301 -7.12873125 1.31581903
-1.93718588 -7.16613340 1.47314119
-1.87825000 -7.11632681 1.46064770
-1.81820619 -7.06952524 1.44548154
-1.83280897 -7.11807442 1.60905981
-1.77420485 -7.06935215 1.59014010
-1.71151423 -7.02820301 1.56553888
-1.67137468 -7.02542496 1.70322144
-1.73281276 -7.07489920 1.73163414
-1.60856855 -6.98438215 1.67133474
-1.56592333 -6.98225069 1.79478717
-1.62873256 -7.02910566 1.83143032
-1.50517857 -6.94586849 1.75849473
-1.45584893 -6.94429922 1.86836588
-1.51859438 -6.98403549 1.91011715
-1.39929044 -6.91260719 1.82860672
-1.39818490 -6.94700527 1.96762717
-1.45899141 -6.98772955 2.01124620
-1.38387024 -6.98261356 2.10453200
-1.44398665 -7.03553867 2.14926624
-1.52379048 -7.03858280 2.05552816
-1.34607971 -7.03617096 2.24154091
-1.39838409 -7.09316015 2.28491998
-1.50360727 -7.09619045 2.19202828
-1.28550494 -7.09454393 2.38152814
-1.32860970 -7.14804888 2.42417908
-1.44870377 -7.15206242 2.32728696
-1.20541239 -7.15271044 2.52911448
-1.24253666 -7.20417166 2.57240796
-1.36809230 -7.20121479 2.46554136
-1.12100708 -7.22814798 2.67676830
-1.27933538 -7.25497341 2.60867715
-1.15953696 -7.28416967 2.71157670
-1.03442574 -7.33589268 2.77539778
-1.06653190 -7.37705040 2.81306601
-1.19835663 -7.32983017 2.74423981
-0.96347868 -7.36579180 2.93573999
-1.09743273 -7.41358948 2.84817934
-0.99367172 -7.40553856 2.97168326
-0.85616446 -7.41165352 3.03725815
-0.88136029 -7.45557928 3.07713366
-1.02239287 -7.44659805 3.00865650
-0.72433466 -7.45773983 3.10101795
-0.70731282 -7.41752815 3.06604218
-0.59676206 -7.42916632 3.17757320
-0.59338361 -7.37247181 3.15617895
-0.46758467 -7.41313982 3.25129318
-0.45862019 -7.35601807 3.22125721
-0.32469967 -7.35633469 3.29211855
-0.33807725 -7.41257620 3.32757974
-0.18641126 -7.36909294 3.37299848
-0.20154715 -7.42304611 3.40896463
-0.04264272 -7.36674881 3.45109057
-0.05312272 -7.41683149 3.49479961
0.10633004 -7.34586477 3.51044440
0.10363314 -7.39034510 3.56012368
0.27802491 -7.38445997 3.55555344
0.27354538 -7.33731174 3.50751901
0.44949636 -7.37658024 3.51440215
0.43539542 -7.32620573 3.47245193
0.60598487 -7.35483932 3.47368240
0.58795190 -7.30163383 3.43360877
0.75035459 -7.32403183 3.42758083
0.73474002 -7.27065849 3.38910937
0.89083564 -7.30979109 3.38351798
0.87981427 -7.25848770 3.34459639
1.02453279 -7.31668663 3.33413315
1.02382195 -7.25648355 3.31637859
1.14531684 -7.29372931 3.25158405
1.02382195 -7.25648355 3.31637859
1.02453279 -7.31668663 3.33413315
1.15660679 -7.33703327 3.29241824
1.29322720 -7.28504610 3.26657581
1.30731845 -7.33459139 3.31234360
1.45268524 -7.32652473 3.30273843
1.31353807 -7.38278055 3.34519076
1.46866131 -7.37661171 3.33791471
1.31703925 -7.43511868 3.36805892
1.48163712 -7.42535782 3.36662269
1.32219625 -7.47597551 3.39819050
1.49189281 -7.47392941 3.38142323
1.32516181 -7.52606249 3.39618206
1.49442089 -7.52369690 3.37787747
1.65092075 -7.51086521 3.30729914
1.64359236 -7.55631113 3.29229164
1.49101543 -7.57218695 3.36116648
1.77813017 -7.54028606 3.19269276
1.63435400 -7.59633780 3.26622152
1.76684892 -7.57369709 3.17125583
1.88467741 -7.54492378 3.07588506
1.75511861 -7.60245943 3.14243937
1.87637198 -7.57267189 3.05111122
2.00081229 -7.54690695 2.99054718
1.98876739 -7.56416082 2.96028447
2.00081229 -7.54690695 2.99054718
1.87637198 -7.57267189 3.05111122
1.86170304 -7.58417749 3.01940846
2.12566161 -7.56246710 2.91998219
2.14089274 -7.54492521 2.95632052
2.10705352 -7.56016445 2.88105583
1.97205079 -7.56063223 2.92417598
2.24510527 -7.56912613 2.83103132
2.21916366 -7.55041313 2.79023862
2.08803439 -7.53661919 2.84611535
2.34212422 -7.56926918 2.71465063
2.31316257 -7.53845263 2.67782497
2.19610596 -7.52243376 2.75440311
2.42256308 -7.52329350 2.58908558
2.28744960 -7.49727726 2.64566851
2.39237761 -7.48216677 2.56127882
2.47521305 -7.46350145 2.45100093
2.36116648 -7.43971157 2.53078198
2.44003177 -7.42238522 2.42575097
2.51288605 -7.40436888 2.31204700
2.40319133 -7.38199997 2.39936543
2.47743726 -7.36796284 2.28830481
2.55594182 -7.35528231 2.17864919
2.43965626 -7.32986307 2.26032948
2.51790524 -7.32323170 2.15234566
2.60346985 -7.31765413 2.04673624
2.47353625 -7.29422998 2.11748219
2.55451369 -7.29404593 2.00966001
2.63677168 -7.28688717 1.90686333
2.68583512 -7.32568264 1.94097173
2.70535803 -7.29529428 1.80156100
2.75816441 -7.34333229 1.83541071
2.75960660 -7.30563974 1.69860876
2.68889427 -7.25324774 1.66026175
2.63943601 -7.24079037 1.76350737
2.73706770 -7.24922657 1.56195199
2.61647725 -7.20062065 1.62153018
2.66283584 -7.19632578 1.52392542
2.70869708 -7.17469692 1.43089533
2.58700013 -7.14257002 1.48808777
2.63468099 -7.11517000 1.40014338
2.67382789 -7.09476471 1.30602002
2.55486107 -7.06842422 1.36448586
2.59100318 -7.05056286 1.27341545
2.61972451 -7.03628016 1.17869818
2.51511788 -6.99221373 1.24823880
2.53814697 -6.98362541 1.15549767
2.64225578 -7.02765608 1.08144903
2.55575085 -6.97952795 1.06161332
2.66348505 -7.01401758 0.98509526
2.57584310 -6.96612167 0.96947551
2.68138409 -7.00080729 0.88847846
2.59255409 -6.95377874 0.87736940
2.69413447 -6.99205065 0.79015779
2.60626054 -6.94376040 0.78411925
2.61382508 -6.93831682 0.68840474
2.70175862 -6.98689795 0.69066703
2.61761117 -6.93509865 0.59232974
2.70554519 -6.98064995 0.58994722
2.61173391 -6.93906736 0.49476570
2.70013380 -6.98103237 0.48673254
2.59396434 -6.95238161 0.39712030
2.68256402 -6.99165249 0.38394484
2.57462645 -6.95787621 0.29670772
2.66119862 -6.99870729 0.28023696
2.55022097 -6.96112347 0.19738938
2.63268328 -7.00844669 0.17597583
2.52081442 -6.96309757 0.09802575
2.60181355 -7.01201487 0.07188544
2.48427606 -6.96820450 0.00119315
2.56437111 -7.01775646 -0.02970912
2.44074535 -6.97598076 -0.09290606
2.52080226 -7.02134037 -0.12930486
2.39401340 -6.97950029 -0.18557486
2.47287703 -7.02465868 -0.22707103
2.34556580 -6.97901773 -0.27761090
2.42307806 -7.02402401 -0.32369953
2.29485655 -6.97699118 -0.36806592
2.36994648 -7.02139282 -0.41866928
2.24318361 -6.97365332 -0.45610285
2.31405687 -7.01952267 -0.51139575
2.18487525 -6.97357988 -0.54028040
2.25337696 -7.01953459 -0.59872812
2.12417746 -6.97222471 -0.62183011
2.18975353 -7.01743031 -0.68288058
2.06007671 -6.96861982 -0.69905621
2.12273216 -7.01637936 -0.76272684
2.18615341 -7.06004858 -0.82959330
2.05016780 -7.01840973 -0.83600873
2.11098409 -7.06234980 -0.90535903
2.17023158 -7.10494709 -0.97502935
2.02621150 -7.07049799 -0.96985352
2.08328629 -7.10149574 -1.04546845
2.13544464 -7.14634275 -1.11657286
2.03143740 -7.14959431 -1.17668903
1.99115264 -7.09532595 -1.10987175
1.92716086 -7.14164448 -1.23579717
1.89156950 -7.08813334 -1.16849351
1.81785905 -7.13853264 -1.28659117
1.78568077 -7.09296274 -1.22149158
1.67493403 -7.10571861 -1.27149785
1.70764053 -7.14236879 -1.33995795
1.56704092 -7.11436176 -1.32198381
1.59833956 -7.14593840 -1.39449143
1.46174347 -7.11771297 -1.36965001
1.49228895 -7.15096617 -1.45019901
1.35994351 -7.11625576 -1.41472268
1.38520157 -7.15027905 -1.49633372
1.25666869 -7.10146952 -1.45892107
1.27800155 -7.13941336 -1.53974986
1.14935410 -7.08932400 -1.50108421
1.16815698 -7.13470840 -1.57904792
1.03804147 -7.09132147 -1.53407037
1.05646515 -7.14194155 -1.61140168
0.92735147 -7.09705257 -1.56147528
0.94421250 -7.14934731 -1.64122081
0.81756848 -7.10501003 -1.58563519
0.83302158 -7.16132593 -1.66558492
0.70965552 -7.11698389 -1.60218585
0.72182995 -7.17244053 -1.68588161
0.60040098 -7.12917566 -1.61365223
0.60852855 -7.18467665 -1.69716561
0.48973700 -7.13638401 -1.62407351
0.49321967 -7.19269991 -1.70739412
0.37830997 -7.15030146 -1.62502587
0.37628093 -7.20212555 -1.70899546
0.26377356 -7.15909863 -1.62269783
0.25808981 -7.21110010 -1.70597208
0.14945006 -7.16280079 -1.61855853
0.13850641 -7.21709967 -1.70103395
0.03494078 -7.17208004 -1.60403788
0.02165381 -7.23388052 -1.67754483
-0.07842253 -7.18150187 -1.57980871
-0.09511763 -7.24011230 -1.65553188
-0.19344421 -7.16975403 -1.56532335
-0.21359876 -7.23186827 -1.63687623
-0.30775702 -7.17158747 -1.53223908
-0.33256400 -7.22837543 -1.60628736
-0.41880339 -7.17606735 -1.49003112
-0.44858330 -7.23271990 -1.56202316
-0.52999747 -7.16710711 -1.45105851
-0.56299996 -7.23090363 -1.51597524
-0.63536108 -7.16640139 -1.40216637
-0.67180496 -7.23224974 -1.46463656
-0.73384172 -7.17049265 -1.34541357
-0.77196240 -7.23990059 -1.40371037
-0.82645220 -7.17235231 -1.28465331
-0.86734271 -7.24237299 -1.34225750
-0.95618778 -7.24239922 -1.27534580
-0.91287392 -7.17550755 -1.21669936
-1.04025412 -7.24373150 -1.19842875
-0.99520147 -7.17952633 -1.14242363
-1.12284935 -7.24634933 -1.11600089
-1.07545400 -7.18392515 -1.06284606
-1.20667946 -7.24704361 -1.03016376
-1.15293586 -7.18936729 -0.97935104
-1.23055482 -7.18918848 -0.89490372
-1.28913558 -7.24544954 -0.94454336
-1.30201066 -7.19077492 -0.80766541
-1.36656487 -7.24368811 -0.85741359
-1.42832172 -7.30119753 -0.90371925
-1.43196869 -7.24948120 -0.76370955
-1.49489105 -7.30724287 -0.80906385
-1.54387748 -7.37974215 -0.84515673
-1.60344064 -7.37863159 -0.74611753
-1.55243278 -7.31311989 -0.70914203
-1.64466059 -7.43649721 -0.77413690
-1.69382477 -7.43783617 -0.66417068
-1.65901625 -7.37516594 -0.64035630
-1.73337328 -7.47982883 -0.68836612
-1.78428149 -7.47290945 -0.56774449
-1.75542688 -7.42251778 -0.55122626
-1.82050407 -7.50203085 -0.58724761
-1.88207328 -7.49056196 -0.46072361
-1.85790586 -7.44613266 -0.44958630
-1.91108954 -7.51846743 -0.47456527
-1.97015262 -7.51937580 -0.34368426
-1.94484961 -7.48089600 -0.33218721
-1.99770606 -7.55182457 -0.35621166
-2.01698303 -7.54407883 -0.20868279
-2.05183983 -7.57320690 -0.22299081
-2.08694649 -7.60145664 -0.23748893
-2.10813141 -7.59480953 -0.08564156
-2.14555240 -7.62397814 -0.09871206
-2.18437338 -7.64718294 -0.11203897
-2.20313382 -7.62371778 0.04479704
-2.24481487 -7.64689255 0.03629335
-2.22762251 -7.64699650 -0.12663616
-2.29147482 -7.64363050 0.02428808
-2.28304863 -7.63097382 0.18714008
-2.32860827 -7.63066626 0.18231186
-2.29147482 -7.64363050 0.02428808
-2.32860827 -7.63066626 0.18231186
-2.36665702 -7.60526371 0.17559530
-2.36261773 -7.59256601 0.34056231
-2.32533550 -7.61602974 0.34062532
-2.39433074 -7.55966139 0.34092274
-2.35967302 -7.54845905 0.50310874
-2.33273649 -7.57780123 0.49841300
-2.38291144 -7.51546860 0.50769371
-2.31619167 -7.53546810 0.64741349
-2.33830047 -7.50402308 0.65356481
-2.35377812 -7.46852827 0.65774411
-2.29851270 -7.47162056 0.79381800
-2.29142261 -7.50681210 0.78992683
-2.29529691 -7.43362141 0.79684234
-2.24641180 -7.45910406 0.93608665
-2.26838684 -7.49445581 0.93721831
-2.22590947 -7.42180824 0.93419242
-2.22961187 -7.41889477 1.08780205
-2.25516582 -7.46076775 1.09032464
-2.19276762 -7.37850142 1.08110595
-2.16568756 -7.38361120 1.22538865
-2.20403433 -7.42326593 1.23165941
-2.12449551 -7.34294605 1.21857822
-2.09694982 -7.40275621 1.35827017
-2.06235623 -7.36093855 1.35437000
-2.03423929 -7.30835104 1.34967053
-2.07042837 -7.33076572 1.50156283
-2.03063798 -7.28009701 1.49345315
-1.98842657 -7.22157574 1.48381793
-1.98990989 -7.27449179 1.63979447
-1.94159007 -7.22121668 1.63175416
-1.88853097 -7.16938066 1.62193215
-1.84923410 -7.18596888 1.77342963
-1.90422380 -7.24122047 1.78051329
-1.79167151 -7.12981415 1.75583589
-1.75505102 -7.14576864 1.89226186
-1.81652534 -7.20670414 1.91737533
-1.69248295 -7.08526039 1.86375237
-1.64843929 -7.09366322 1.98590124
-1.71214700 -7.15705490 2.02077270
-1.58346117 -7.03363180 1.94992054
-1.58773422 -7.10148144 2.09575868
-1.65244067 -7.16299915 2.13472080
-1.56122887 -7.15784597 2.23374343
-1.61657941 -7.21657896 2.27526450
-1.71775866 -7.22127867 2.17339277
-1.49580765 -7.20916700 2.36869693
-1.53234029 -7.26088858 2.40810227
-1.66388762 -7.27269411 2.31780148
-1.40113914 -7.25212431 2.50517035
-1.43168819 -7.30085707 2.53891945
-1.56351161 -7.30867147 2.44448256
-1.31379008 -7.30707598 2.64121652
-1.33925784 -7.36075592 2.66131568
-1.46139109 -7.34896994 2.56818604
-1.22511661 -7.38062525 2.76357031
-1.23677027 -7.42809153 2.76687646
-1.36632454 -7.40247488 2.68573189
-1.12421608 -7.45233965 2.87782550
-1.24499571 -7.47226572 2.77029634
-1.14750791 -7.49295521 2.89968967
-1.04183662 -7.49554396 3.03170657
-1.16850555 -7.53203392 2.91604233
-1.06466889 -7.53494787 3.05584788
-0.90990520 -7.54002047 3.13812613
-0.89564991 -7.49883223 3.10849690
-0.74891824 -7.53576660 3.16294217
-0.73807168 -7.49665070 3.13225102
-0.59610826 -7.52335119 3.19174480
-0.59504294 -7.47864628 3.18344641
-0.47614601 -7.46656227 3.27872276
-0.47858912 -7.51586676 3.28849554
-0.34813941 -7.46832180 3.35317016
-0.35960907 -7.51936245 3.37343740
-0.21409675 -7.47506762 3.43664360
-0.22354709 -7.52320814 3.45882750
-0.06318883 -7.46415329 3.52553463
-0.07511987 -7.50780010 3.55417633
0.10039102 -7.47823715 3.63633585
0.10094462 -7.43115997 3.60380554
0.29245630 -7.47491360 3.61926842
0.28503197 -7.43214321 3.58887386
0.46184596 -7.42610550 3.54679132
0.47255164 -7.47425270 3.57036734
0.63393438 -7.45410872 3.52877498
0.62094843 -7.40652418 3.50339365
0.78037959 -7.42317772 3.48197699
0.76239371 -7.37964630 3.45382833
0.90543443 -7.41116190 3.42147970
0.90186298 -7.35755825 3.41594172
1.02431560 -7.37073326 3.33831072
1.02894378 -7.42133665 3.35004473
1.16496086 -7.38040161 3.32781553
1.02431560 -7.37073326 3.33831072
1.02894378 -7.42133665 3.35004473
1.17079830 -7.42789030 3.35278058
1.03422868 -7.46553278 3.36663413
