1.74725497 -4.40863085 -3.65186191
1.80321801 -4.31263590 -3.58939791
1.85976934 -4.30718517 -3.51859283
-2.42030025 -8.08849335 -3.91300106
-2.49694777 -8.08881569 -3.86579108
1.85150337 -4.21730280 -3.52015615
1.90764606 -4.21298885 -3.44929528
1.89431393 -4.12402487 -3.44591665
1.94970429 -4.12226200 -3.37635970
3.28486085 -5.37820816 -2.00875306
3.41692448 -5.37630939 -1.99574220
3.54840350 -5.37556171 -1.98267496
3.67905211 -5.37882471 -1.96933258
3.88155389 -5.38022852 -2.01386285
4.00935507 -5.38006687 -2.00104332
2.37462449 -4.62060356 -2.83495235
2.33425593 -4.53243732 -2.92090797
2.43382764 -4.61933708 -2.76527524
2.47137809 -4.70654726 -2.67689610
2.23485565 -4.34727573 -3.07589984
2.29525924 -4.34526062 -3.00447202
2.50533271 -4.79187965 -2.58532786
2.53487086 -4.87484932 -2.49011493
2.56112027 -4.95616627 -2.39309382
2.58205676 -5.03352213 -2.29163790
2.60072565 -5.10800934 -2.18776011
2.61684251 -5.17753744 -2.08268189
2.59460568 -5.25584507 -2.06193233
2.53533316 -5.25586605 -2.12945509
2.65116763 -5.25618458 -1.99219823
2.74159455 -5.32788849 -1.94596267
2.10549712 -4.14052963 -3.19516563
2.86660647 -5.35620165 -1.92502666
3.00066066 -5.37017345 -1.90960824
3.13428164 -5.37558222 -1.89525330
3.20949578 -5.37881136 -1.95216334
2.05219388 -4.12370729 -3.25132775
1.98254299 -4.03844309 -3.29506779
4.28253698 -5.38148355 -2.10512471
4.33465862 -5.38030815 -2.03477669
4.46215582 -5.38267326 -2.02115726
4.59146976 -5.41522121 -2.00568676
4.60807419 -5.50462103 -2.02025199
4.66037464 -5.50595427 -1.94372642
4.73345613 -5.51227856 -1.99376214
4.97135401 -6.00183868 -1.46337712
5.02915907 -5.99712944 -1.37713552
5.10380316 -6.00147724 -1.47994232
5.20249605 -6.11165524 -1.41701770
4.90227509 -5.68970203 -1.87490749
4.83174467 -5.74425316 -1.82653248
4.88057566 -5.74362803 -1.75243390
4.86556482 -5.77039003 -1.63357651
4.99289274 -5.92522097 -1.37977815
4.91450596 -5.76648426 -1.55723965
5.27477646 -6.20823240 -1.34195769
5.26284790 -6.29605293 -1.32428646
5.31368160 -6.29580641 -1.25695288
5.33073092 -6.36682177 -1.17889905
5.39727068 -6.38429832 -1.21045268
5.47167444 -6.52903271 -1.25285709
5.52315331 -6.40969276 -1.28435385
5.49430132 -6.76931381 -1.11403322
5.54889631 -6.69959736 -1.05148625
5.50654030 -6.76479578 -0.93063688
5.48350477 -6.81874418 -0.81879532
5.45100069 -6.86857367 -0.70322508
5.37908936 -6.91584015 -0.61690891
5.37086916 -7.00514460 -0.57989472
5.40474749 -6.97094107 -0.50528598
5.42615557 -7.03181505 -0.38954651
5.44614363 -7.08362484 -0.27636164
5.42794991 -7.13012314 -0.16989708
5.42522430 -7.20304966 -0.12585871
5.47211409 -7.64248991 -0.18782225
5.52545071 -7.70668650 -0.21810903
5.45439577 -7.56791353 -0.10621447
5.44107389 -7.27256536 -0.08372238
5.43493366 -7.37276268 -0.09623214
5.61657906 -7.80489588 -0.16929877
5.83657789 -8.17567921 -0.14928155
5.89981413 -8.25540352 -0.39513698
5.91198206 -8.30435181 -0.50835168
5.88005352 -8.27122498 -0.58068603
5.69862843 -7.95900202 -0.02946530
5.63923073 -7.84183359 -0.08146220
6.18552303 -9.08860779 -1.13976109
6.20395041 -9.15806675 -1.24986863
6.17660999 -9.25841236 -1.33744144
6.16225290 -9.12845612 -1.01486778
6.14860535 -9.06407928 -0.90637964
6.13128042 -9.00592232 -0.79424876
6.14878464 -8.91522121 -0.69976950
5.95271587 -9.42506313 -1.42691672
5.99446249 -9.34229088 -1.34756076
6.10549688 -9.30773640 -1.30546105
5.84421921 -9.79388523 -1.67624700
5.89976597 -9.69294643 -1.60536563
5.69426823 -9.78236866 -1.69216228
5.56398487 -9.75491428 -1.72052920
5.53028440 -9.66634083 -1.70265746
5.47840977 -9.66802692 -1.78075707
5.45444155 -9.58352661 -1.76691771
5.40401745 -9.58335495 -1.84745455
5.36292410 -9.51497746 -1.81837654
5.24911690 -9.46678734 -1.84825742
5.18385696 -9.47571373 -1.91490674
5.15820217 -9.39445400 -1.89681399
4.98090219 -9.41778946 -1.98970783
4.91374350 -9.44444561 -1.93343604
5.93565083 -9.59963608 -1.52120388
4.66060066 -9.49627972 -1.95918000
5.96829224 -9.50961208 -1.43527663
4.53347349 -9.52406597 -1.97114289
4.40459919 -9.54867554 -1.98292398
4.13971472 -9.57334518 -2.00455666
4.27293777 -9.56694412 -1.99493217
4.07335711 -9.57392406 -1.94142020
4.33500576 -9.56170559 -1.92356443
3.94615531 -9.58198166 -1.94647324
3.75398636 -9.59440613 -2.01262832
3.56711459 -9.62056923 -1.94576979
3.44050264 -9.63490009 -1.94183981
6.00435114 -8.47043896 -0.53734225
6.02766848 -8.54641151 -0.50502068
6.01561308 -8.65503979 -0.57206732
6.10715628 -8.69095707 -0.47819486
6.08728027 -8.78950882 -0.47355372
3.18569374 -9.67410374 -1.93277609
3.31353116 -9.65359211 -1.93721843
3.12459731 -9.69141102 -1.86772132
2.99502969 -9.71181870 -1.86091328
2.55009699 -9.71324253 -1.75347555
2.67671013 -9.71349430 -1.76772189
2.29760265 -9.71693516 -1.72272909
2.22649050 -9.71608639 -1.77899432
2.17078280 -9.71352673 -1.70723569
2.04418540 -9.71563435 -1.69180393
1.84484053 -9.72079563 -1.73194206
2.80414081 -9.71479416 -1.78057933
1.78986347 -9.72768879 -1.66072428
1.59068418 -9.72568893 -1.69990695
1.33238840 -9.74428558 -1.66642392
1.25978720 -9.74114037 -1.59393680
1.21816516 -9.75972176 -1.66059327
2.92468309 -9.71465206 -1.92141664
2.93300605 -9.71707439 -1.79166865
1.18447375 -9.76172543 -1.60886347
1.06556344 -9.77761650 -1.57539070
0.67566162 -9.77836704 -2.72388482
0.69282746 -9.78425026 -2.59764004
0.70990509 -9.79220581 -2.46952486
0.72670794 -9.79696178 -2.34074330
0.81585902 -9.79043198 -2.15897369
0.74354064 -9.79701138 -2.21204638
0.90746731 -9.77922821 -1.98432803
0.83371586 -9.78420925 -2.03461838
0.58457714 -9.77554321 -2.89959121
0.54168743 -9.75558949 -3.14482284
0.46992034 -9.75711727 -3.19454527
0.51807612 -9.75471592 -3.26543760
0.44571066 -9.75402832 -3.31192708
0.41711444 -9.74557495 -3.42662621
0.43501377 -9.72075748 -3.62783957
0.35886189 -9.72013950 -3.67415309
0.32954696 -9.69973660 -3.79845142
0.56378847 -9.76950645 -3.02299333
0.49090731 -9.76358795 -3.07326269
0.29751766 -9.68380165 -3.92114949
0.60342586 -9.77886391 -2.77590537
0.22021240 -9.68013477 -3.96409535
0.17762189 -9.65840435 -4.07789326
0.12847881 -9.63196087 -4.19686127
0.07623419 -9.58496380 -4.31200027
0.02496931 -9.53382301 -4.42404461
-0.13082738 -9.47554302 -4.55237007
-0.06445467 -9.52562523 -4.45108557
-0.18536657 -9.42547417 -4.65435457
-0.28911141 -9.41246128 -4.67506027
0.95677304 -9.77735138 -1.74135077
0.87840605 -9.78577518 -1.78817725
-0.28535292 -9.39753723 -4.73807001
-0.36629602 -9.39423752 -4.69662952
-0.47714719 -9.50969219 -4.82437372
-0.57004005 -9.51165104 -4.81530523
-0.56965131 -9.57719898 -4.87124968
-0.66090250 -9.58462524 -4.85197973
-0.73722643 -9.75527287 -4.88876343
-0.92320001 -9.87481022 -4.95486069
-1.01426601 -9.87637520 -4.94264030
-1.03369582 -9.87677765 -5.05734539
-1.12180161 -9.87947369 -5.03468609
-1.22072494 -9.78460503 -5.02680111
-1.72613108 -9.35133934 -4.77484512
-1.71700871 -9.26457977 -4.75129128
-1.55975807 -9.43676376 -4.85257959
-1.64724803 -9.43767262 -4.82532930
-1.80281854 -9.26546192 -4.72096682
-1.79267764 -9.17956638 -4.69471836
-1.86775029 -9.09412861 -4.63739157
-1.95173705 -9.09494400 -4.60255384
-1.93978274 -9.01032066 -4.57288647
-2.02352285 -9.01041412 -4.53766298
-2.09311795 -8.92694473 -4.46766663
-2.16255307 -8.84241390 -4.39815474
-1.48406339 -9.61082840 -4.92017603
-1.30965793 -9.69596100 -4.98882532
-1.39974797 -9.69804764 -4.96546936
-2.23080754 -8.75743484 -4.32674646
-2.29667401 -8.67286491 -4.25215864
-2.36182737 -8.58800030 -4.17855263
-2.42600775 -8.50330639 -4.10415173
-2.48823977 -8.42004490 -4.02799082
-2.54948616 -8.33712196 -3.95156717
0.98706740 -9.77769852 -1.61966348
-2.60954070 -8.25409222 -3.87487507
-2.59018493 -8.17228508 -3.84467578
-1.38855076 -6.62463236 -4.28664732
-1.13725829 -6.36039925 -4.39895535
-1.05147040 -6.27130747 -4.43470049
-0.96346885 -6.18163061 -4.46672010
-0.87445945 -6.09240007 -4.49943829
-0.78482455 -6.00387621 -4.53240061
-0.69446141 -5.91554213 -4.56365347
-1.54581559 -6.88913107 -4.18734312
-0.60312659 -5.82723236 -4.59216309
-0.51104629 -5.73922205 -4.61783648
-1.62409842 -6.97731543 -4.14039326
-1.62970519 -6.88880777 -4.15537405
-0.41828278 -5.65076685 -4.64020348
-0.23676099 -5.64634275 -4.65581417
-0.32716027 -5.64901257 -4.64751148
-0.32707730 -5.55995989 -4.65803862
-1.70661342 -6.97698164 -4.10625744
-0.24595083 -5.44100237 -4.64508057
-0.11848892 -5.41549540 -4.55888605
-1.78162313 -7.06521559 -4.05424261
0.06099279 -5.42163706 -4.58280373
-1.85444629 -7.15316057 -4.00056553
-1.92657232 -7.24137592 -3.94741750
-1.99782896 -7.32944584 -3.89439321
0.00782296 -5.39542150 -4.39125395
0.02850916 -5.38562346 -4.29705191
0.11887973 -5.38933611 -4.32207918
-0.09956162 -5.40260315 -4.46663809
-0.08341610 -5.39243364 -4.37351608
0.05655444 -5.37585688 -4.20258999
0.14611669 -5.37901783 -4.23018599
0.17233546 -5.36868191 -4.13690424
0.11079805 -5.36237574 -4.01748419
0.17233546 -5.36868191 -4.13690424
0.02209168 -5.35845995 -3.99163413
0.16490202 -5.35603571 -3.83468914
0.16440578 -5.31905127 -3.72942758
-2.14809585 -7.50475454 -3.80549526
-2.23894572 -7.58744860 -3.78756428
0.19246976 -5.24390602 -3.76034904
0.27266940 -5.31016111 -3.72598720
0.29156411 -5.18318987 -3.81456876
0.38770446 -5.12597895 -3.87347960
0.48517075 -5.06084347 -3.92167902
0.58317715 -4.99542189 -3.96834350
0.68199331 -4.92511415 -4.00565767
0.78186315 -4.85354567 -4.03962278
0.95779169 -4.86435843 -4.01359367
0.88260388 -4.77943134 -4.06771564
1.04476953 -4.87011385 -3.99567556
-2.34915233 -7.75524330 -3.79826450
-2.33069062 -7.67197514 -3.76932716
1.14578807 -4.79212999 -4.00726414
1.37852108 -4.78098440 -3.86923933
1.32294405 -4.70432234 -3.95861745
-2.46194887 -7.92146587 -3.81028175
-2.44208431 -7.83908796 -3.77955818
1.39728260 -4.69964075 -3.90579867
1.48112142 -4.60847092 -3.87641621
1.54714489 -4.60226917 -3.81462765
1.56082439 -4.51595116 -3.83917832
1.62277448 -4.50945091 -3.77301359
1.63125873 -4.42101574 -3.79052234
1.68958271 -4.41454411 -3.72127128
1.74821115 -4.31886530 -3.66096473
-2.47948337 -8.00543022 -3.83781266
-2.57194614 -8.08962536 -3.81593084
1.83760393 -4.12703276 -3.51677537
1.92855239 -4.03613949 -3.36285043
3.34234023 -5.37927389 -1.93885851
3.47396374 -5.37886381 -1.92550147
3.60490012 -5.37854099 -1.91180313
3.73460054 -5.38220310 -1.89768898
3.80792236 -5.38017988 -1.95550025
3.86396551 -5.38137388 -1.88324714
3.93679667 -5.37995005 -1.94172215
4.08180904 -5.38219309 -2.05946279
3.99412537 -5.38146019 -1.86984885
4.06427002 -5.38048220 -1.92991817
2.34735727 -4.43912077 -2.93052411
2.40565658 -4.43796158 -2.86008143
2.39293814 -4.53042078 -2.85021901
2.49334526 -4.61914825 -2.69615602
2.53097415 -4.70687819 -2.60807347
2.23243141 -4.24851274 -3.06967187
2.29274535 -4.24840593 -2.99818945
2.56329060 -4.79209280 -2.51573753
2.59174991 -4.87483978 -2.42004895
2.16527081 -4.14839792 -3.12577534
2.61983562 -4.95721102 -2.32440710
2.64127517 -5.03474760 -2.22344327
2.65593767 -5.10564375 -2.11686563
2.67407608 -5.17766905 -2.01389360
2.65116763 -5.25618458 -1.99219823
2.70778298 -5.25606441 -1.92258501
2.79743481 -5.33027029 -1.87369132
2.09328461 -4.04948807 -3.16951299
2.15147734 -4.05472660 -3.10307574
2.92659616 -5.35044098 -1.85431755
3.05949759 -5.36995792 -1.83795142
3.19277406 -5.37421560 -1.82413995
3.26763296 -5.37634182 -1.88177490
2.03686118 -4.04187918 -3.23137021
1.90194523 -3.95077801 -3.34245539
1.95696270 -3.95453858 -3.27361107
4.13563776 -5.38400888 -1.98916292
4.20810032 -5.38242626 -2.04729748
4.26041842 -5.38122368 -1.97758555
4.38591814 -5.38086128 -1.96460068
4.51503181 -5.38168716 -1.94992244
4.66037464 -5.50595427 -1.94372642
4.78575897 -5.50943089 -1.91839850
4.84284163 -5.58555889 -1.95687222
4.91297197 -5.57920790 -1.88061285
5.09860420 -6.00099325 -1.33839262
5.18493652 -5.99498987 -1.41485906
5.20412874 -6.21092367 -1.40353656
5.28157949 -6.11036825 -1.35013032
4.93651724 -5.68112659 -1.79185355
4.93277884 -5.74331093 -1.67900026
4.96228266 -5.84482479 -1.47460043
5.00666237 -5.83954334 -1.39605808
5.03844213 -5.91748571 -1.30785894
5.04396677 -5.99011040 -1.30875492
4.98205376 -5.73938799 -1.60074639
5.34111691 -6.21053457 -1.27080393
5.34854412 -6.29816866 -1.17903161
5.36112690 -6.38101006 -1.10665023
5.50301552 -6.53316545 -1.16523123
5.51305246 -6.61982441 -1.16812086
5.52891588 -6.42879295 -1.16108930
5.57281303 -6.71531582 -1.10506499
5.50323439 -6.67217350 -0.95971614
5.48694372 -6.73099613 -0.85282868
5.46239948 -6.78144884 -0.73707938
5.43551016 -6.94485664 -0.42029616
5.45220470 -7.00482321 -0.30642855
5.42673445 -7.05483294 -0.20690359
5.48964405 -7.11453009 -0.12888944
5.51558638 -7.64990950 -0.09175457
5.56690454 -7.72841692 -0.13305244
5.44601822 -7.45450306 -0.05316621
5.48688507 -7.19019794 -0.09071390
5.48860502 -7.26421070 -0.05167617
5.45261288 -7.32190418 -0.02080032
5.46229601 -7.41652060 0.03118874
5.89233160 -8.26441097 -0.18291651
5.88153744 -8.22381115 -0.25918224
5.91462755 -8.28902912 -0.30253032
5.86346149 -8.17332077 -0.07052277
5.93895197 -8.32521057 -0.42615047
5.65255213 -7.87737131 0.00453031
5.76200628 -7.93509912 0.01174841
5.60031843 -7.76331568 -0.04714592
6.22980595 -9.08449745 -1.05509520
6.25203180 -9.15157032 -1.17632437
6.20423508 -9.24696350 -1.25003302
6.20215464 -9.11254597 -0.93591094
6.19189739 -9.05908966 -0.82877737
6.17095280 -9.00428963 -0.71173948
6.12451267 -8.83955669 -0.58885550
6.18793488 -8.91450882 -0.61416668
6.00180578 -9.42093182 -1.35048378
6.03896284 -9.33913898 -1.26679826
6.14588308 -9.30427837 -1.22012246
5.89341640 -9.78487968 -1.60888994
5.79642630 -9.80077744 -1.74827361
5.84421921 -9.79388523 -1.67624700
5.74394464 -9.77762318 -1.61554348
5.94806051 -9.68995571 -1.52895403
5.61672544 -9.75125599 -1.64531827
5.58382940 -9.66383362 -1.62659025
5.51123953 -9.58011246 -1.69185376
5.30035830 -9.46956158 -1.77211571
5.21577549 -9.39176273 -1.82240009
5.03842545 -9.41744614 -1.91767156
4.97133303 -9.44375610 -1.86186588
4.78761768 -9.47149467 -1.94699299
5.98334503 -9.59680462 -1.44380403
4.71960831 -9.49620724 -1.88942993
4.59313393 -9.52316284 -1.90187871
6.01528978 -9.50662041 -1.35742056
4.46489763 -9.54450226 -1.91279697
4.26571560 -9.56661892 -1.86338902
4.20383835 -9.57130337 -1.93357742
4.00935507 -9.57267570 -1.87938130
4.39531660 -9.55856037 -1.85356450
3.81898570 -9.59312439 -1.94850111
3.75781035 -9.60117531 -1.88432932
3.69296336 -9.60663700 -1.94797897
3.50621819 -9.63279915 -1.88101244
3.37981582 -9.65072632 -1.87719166
5.99149513 -8.46183395 -0.46784577
6.00051594 -8.51189423 -0.41880703
6.03187609 -8.62840939 -0.48727080
6.13546944 -8.71428013 -0.40376687
3.25288010 -9.67034340 -1.87266147
3.19219351 -9.68840218 -1.80758989
3.06370378 -9.70797348 -1.80084610
2.49355721 -9.71385193 -1.68198657
2.42373037 -9.71552849 -1.73834097
2.61911726 -9.71189690 -1.69699752
2.36770725 -9.71339703 -1.66656303
2.24166465 -9.71347618 -1.65116334
2.11569118 -9.71337986 -1.63606608
1.91682959 -9.71850300 -1.67627239
1.86185241 -9.72439289 -1.60493982
2.87303734 -9.71331024 -1.72283602
1.66183138 -9.73145485 -1.64463997
1.53544962 -9.73182964 -1.62684906
1.47949922 -9.73104095 -1.55301440
1.34779048 -9.75030231 -1.53432822
3.00233793 -9.71528912 -1.73273480
1.14429438 -9.76682663 -1.53355122
1.02039552 -9.77962875 -1.49795008
0.62147188 -9.78106403 -2.65086102
0.63883573 -9.78751945 -2.52375150
0.65502787 -9.79385948 -2.39543939
0.67112255 -9.79669476 -2.26656485
0.76135111 -9.79501534 -2.08525872
0.85369217 -9.77581406 -1.91042793
0.78148001 -9.79212952 -1.96011865
0.41894183 -9.76078987 -3.12401867
0.39988065 -9.75663567 -3.24476409
0.38737634 -9.73590183 -3.54877496
0.31019729 -9.72841167 -3.59527254
0.28301221 -9.71379089 -3.72196221
0.25432608 -9.69795036 -3.84593606
0.51097274 -9.77319717 -2.95009446
0.43869418 -9.76908493 -3.00072908
0.54834610 -9.77872849 -2.70302367
0.18037564 -9.69372082 -3.89310336
0.09434117 -9.65418053 -4.10709715
0.04364155 -9.62056160 -4.23140144
-0.00689329 -9.57479000 -4.34483433
0.80222142 -9.77890015 -1.83649325
-0.21741414 -9.46481514 -4.57536030
0.90865004 -9.78824234 -1.66621137
0.82935852 -9.78395271 -1.71258688
-0.47702950 -9.39834785 -4.70187664
-0.56204647 -9.49054337 -4.72750425
-0.73576975 -9.68376637 -4.83344889
-0.81616294 -9.69388866 -4.82371521
-0.82488340 -9.75752258 -4.87846613
-0.91269255 -9.75759888 -4.87449121
-0.91149372 -9.84996891 -4.85892868
-0.99683714 -9.85148430 -4.85599041
-1.12180161 -9.87947369 -5.03468609
-1.21253312 -9.88207626 -5.01337290
-1.73430097 -9.43839359 -4.79698563
-1.56665802 -9.52404499 -4.87406492
-1.65470028 -9.52460384 -4.84775162
-1.87799287 -9.18009090 -4.66348886
-1.96307504 -9.18046188 -4.63072920
-2.03586698 -9.09545898 -4.56798172
-2.10657191 -9.01090908 -4.49994850
-2.17530036 -8.92712784 -4.42839336
-2.24346924 -8.84237480 -4.35578251
-1.48932219 -9.69909286 -4.93958664
-1.31145823 -9.78705597 -5.00544596
-1.40261114 -9.79035378 -4.98079777
-2.31087446 -8.75662613 -4.28259897
-2.37618017 -8.67163849 -4.20708704
-1.30301070 -9.88235855 -4.98867798
-2.44123554 -8.58664036 -4.13254404
-2.50450802 -8.50292587 -4.05642128
-2.56616306 -8.42015362 -3.97971749
-2.62664676 -8.33749962 -3.90242577
0.94175559 -9.78144932 -1.54310548
-2.68463445 -8.25552082 -3.82329512
-2.66635513 -8.17247581 -3.79542208
-1.30588019 -6.53709841 -4.32685280
-1.30912554 -6.44774342 -4.33812523
-1.22195280 -6.44900513 -4.36366844
-1.47036028 -6.71237230 -4.24487686
-1.47429490 -6.62348557 -4.25777578
-1.55082786 -6.80046415 -4.20125437
-1.55507731 -6.71156406 -4.21417570
-1.22465992 -6.35951567 -4.37455606
-1.13931525 -6.27087212 -4.41065073
-1.05226231 -6.18168497 -4.44597578
-0.96367913 -6.09241724 -4.47930431
-0.87455875 -6.00357914 -4.51290607
-0.78461099 -5.91486979 -4.54568863
-0.69398808 -5.82648420 -4.57685709
-1.63454330 -6.79990292 -4.16879511
-0.60224968 -5.73837566 -4.60487747
-0.50951374 -5.65077972 -4.62971306
-1.71257091 -6.88846588 -4.12116957
-0.41644013 -5.56300449 -4.64886761
-0.32520369 -5.47070885 -4.65719795
-0.21155082 -5.41334105 -4.54296827
-1.86161339 -7.06486654 -4.01611567
-1.93366492 -7.15297794 -3.96194482
-2.00454807 -7.24137688 -3.90711832
-2.07523465 -7.32994843 -3.85372710
-0.16965878 -5.39148617 -4.36406422
-2.14561701 -7.41789865 -3.80117106
-0.07587029 -5.37476969 -4.27012634
-0.03255323 -5.37133503 -4.17497206
-0.00397315 -5.36395264 -4.08359146
-0.05210373 -5.35496569 -3.88099957
0.04436546 -5.35817719 -3.89535570
0.07862817 -5.35245275 -3.78492332
0.11060871 -5.28912592 -3.72770357
-2.22229958 -7.50510645 -3.76038098
-2.31285453 -7.58869219 -3.74097443
0.11256758 -5.24066210 -3.75854301
0.16440578 -5.31905127 -3.72942758
0.20213352 -5.18238020 -3.81251860
0.29818121 -5.11946487 -3.86821628
0.39560756 -5.05767488 -3.92489910
0.49357697 -4.98963451 -3.97069216
0.59243107 -4.91842985 -4.00945187
0.69230342 -4.84737015 -4.04652071
0.79308516 -4.77363110 -4.07812977
0.97107375 -4.78422308 -4.05225325
1.05903506 -4.78922749 -4.03403521
0.89444000 -4.69800711 -4.10492992
-2.42288160 -7.75636292 -3.75001764
-2.40430665 -7.67304564 -3.72144365
1.15979636 -4.70802259 -4.04145432
1.24381685 -4.70751143 -4.00450230
1.25608170 -4.62090874 -4.03298140
1.33643162 -4.61849737 -3.98814011
-2.40368867 -8.00483227 -3.88566732
-2.53573847 -7.92298651 -3.75996518
-2.51639962 -7.83977413 -3.73120046
1.57045949 -4.42720461 -3.85877204
1.69320655 -4.32534885 -3.73280430
1.79686368 -4.22251654 -3.59206319
1.78505635 -4.13159657 -3.59196901
-2.64751911 -8.08976650 -3.76699424
1.87298954 -4.03518772 -3.43370128
1.84497964 -3.94779873 -3.41426969
3.39940619 -5.37770176 -1.86849070
3.53052974 -5.37827826 -1.85471439
3.66082644 -5.38025665 -1.84028184
3.79002714 -5.38065767 -1.82540953
4.11996317 -5.38209820 -1.86088288
2.45179629 -4.52958775 -2.78054667
2.35307789 -4.34402943 -2.93293905
2.41192842 -4.34349871 -2.86293411
2.51015997 -4.52920246 -2.71020746
2.55129504 -4.61907768 -2.62593031
2.58826876 -4.70709944 -2.53771210
2.22566795 -4.15133905 -3.05559993
2.28490639 -4.15292692 -2.98636460
2.62224698 -4.79349136 -2.44687629
2.64987469 -4.87539530 -2.35064673
2.67656684 -4.95637512 -2.25381446
2.69770670 -5.03367424 -2.15269208
2.71325731 -5.10548449 -2.04836178
2.73125625 -5.17798901 -1.94546211
2.70778298 -5.25606441 -1.92258501
2.76273394 -5.25600147 -1.85183489
2.85525632 -5.32903910 -1.80290198
2.12839270 -3.96668172 -3.07754993
2.98559833 -5.35350847 -1.78205621
3.11860514 -5.36786270 -1.76652563
3.25059342 -5.37369823 -1.75325429
2.01268077 -3.95851994 -3.20780087
2.07093191 -3.96234131 -3.14381385
1.92716074 -3.87154150 -3.24778390
4.18799829 -5.38192797 -1.92004347
4.31098747 -5.38211870 -1.90884149
4.56633282 -5.38165951 -1.87635839
4.69538975 -5.42106104 -1.85525393
4.71007299 -5.51285744 -1.86576474
4.71007299 -5.51285744 -1.86576474
4.76532555 -5.50844669 -1.79262555
4.84344769 -5.49942160 -1.84132910
4.92880487 -5.58865976 -1.79004276
5.27851343 -6.00895786 -1.34482598
5.35640192 -6.11169529 -1.27719057
4.99837971 -5.68365526 -1.72865355
5.02723360 -5.73773289 -1.52316260
4.95948124 -5.76163673 -1.47978234
5.00319004 -5.75534725 -1.40125573
5.05059147 -5.83406830 -1.31982529
5.08220148 -5.98368597 -1.22537529
5.05301619 -5.68219900 -1.64347196
5.36735249 -6.21228218 -1.17914951
5.36708260 -6.30825090 -1.09763706
5.43499088 -6.39453936 -1.13145804
5.38771582 -6.40521431 -1.03201079
5.48767853 -6.54451275 -1.06976998
5.54841518 -6.61646175 -1.09060073
5.54399443 -6.75323772 -1.14169991
5.52846813 -6.68097639 -1.17274690
5.57606792 -6.67567587 -1.12625241
5.38228464 -6.83866024 -0.66123915
5.40691137 -6.80474567 -0.59302473
5.41280937 -6.86645794 -0.54206353
5.44525576 -6.85429382 -0.44474870
5.46140051 -6.92404509 -0.33222839
5.42563486 -6.98360300 -0.23265660
5.49017811 -7.04065847 -0.17100844
5.53170586 -7.08558273 -0.06077621
5.52721357 -7.16344500 -0.02486976
5.56491232 -7.68283606 -0.01335581
5.51737118 -7.62775517 -0.01966339
5.48755836 -7.50266552 0.06836829
5.46473742 -7.54323006 -0.02278944
5.51776791 -7.30726719 0.05602029
5.51473904 -7.38961267 0.10310299
5.90976763 -8.32250786 -0.24029721
5.92190170 -8.26785755 -0.07788360
5.94849014 -8.35371780 -0.34251696
5.91720915 -8.12914371 -0.01780494
5.81119680 -8.10040760 -0.06042383
5.97487020 -8.39777565 -0.45741323
5.95744514 -8.38558578 -0.53797066
5.61510086 -7.79294205 0.03182914
5.82196283 -7.93819189 0.11381098
5.87854195 -8.02500725 0.07250135
5.81961393 -8.01211166 0.00220016
6.27198505 -9.08471394 -0.97405255
6.30314445 -9.14661312 -1.09308517
6.25431299 -9.24904537 -1.17693102
6.23751688 -9.12317944 -0.85594648
6.23269796 -9.05727291 -0.74697363
6.20986891 -9.00656986 -0.62651706
6.16004944 -8.83935738 -0.50040883
6.22716522 -8.91431713 -0.52664000
6.12440062 -8.79380417 -0.39196759
6.19478750 -8.83736515 -0.41567460
6.04702187 -9.41772079 -1.27097595
6.19019747 -9.30442619 -1.14049065
5.79215956 -9.77631664 -1.54029930
5.94743395 -9.78129578 -1.52639866
5.66507101 -9.75018406 -1.56981444
5.99608660 -9.68763447 -1.45185781
5.64186478 -9.65996742 -1.55771387
5.56584406 -9.57878399 -1.61844003
5.47400284 -9.50925922 -1.66707242
5.42026186 -9.50932407 -1.74325395
5.35432673 -9.47174549 -1.69627988
5.27212906 -9.39394474 -1.74788523
5.09596968 -9.41487598 -1.84508455
5.02896118 -9.44126225 -1.78986013
4.90310383 -9.46799850 -1.80514264
4.84527111 -9.46941185 -1.87613738
4.77668333 -9.49052525 -1.81845689
6.02977324 -9.59455872 -1.36529267
4.52408838 -9.54174614 -1.84309566
6.06180716 -9.50370121 -1.27880073
4.32634068 -9.56236076 -1.79328120
4.13663960 -9.57056141 -1.87249517
3.88376927 -9.59078121 -1.88340473
4.45503664 -9.55546665 -1.78364110
3.82226110 -9.59815311 -1.82023025
3.63203716 -9.61514950 -1.88334250
3.57173681 -9.62883568 -1.81959128
3.44571090 -9.64711666 -1.81663108
3.31913233 -9.66494370 -1.81237447
6.04942989 -8.59129429 -0.40662301
5.98752451 -8.42699909 -0.38186762
6.16868210 -8.71036339 -0.32637873
6.15728807 -8.79205894 -0.30974996
6.10661077 -8.65314960 -0.40428677
3.13117456 -9.70199394 -1.74130738
3.25903845 -9.68266296 -1.74794030
2.74560142 -9.71185970 -1.71091664
2.68771243 -9.70959949 -1.64114118
2.31246948 -9.71383190 -1.59607649
2.81393790 -9.71125603 -1.65385544
2.06027079 -9.71924019 -1.56496203
1.98856449 -9.71762466 -1.62065661
1.73453975 -9.73192024 -1.58899093
2.94111896 -9.71326542 -1.66456389
1.67956257 -9.73819637 -1.51727152
1.60716271 -9.73464298 -1.57199538
1.55222332 -9.74189377 -1.50005198
1.40564430 -9.73105717 -1.60962152
1.42648423 -9.75073242 -1.48001218
1.21877229 -9.74129677 -1.49632561
3.07004499 -9.70814610 -1.67397141
1.10055780 -9.77402496 -1.45524406
0.89846271 -9.79313755 -1.46523547
0.56683272 -9.78696156 -2.57804084
0.58400255 -9.78718281 -2.45047069
0.60016984 -9.78796005 -2.32267928
0.61679971 -9.78924561 -2.19431472
0.68761086 -9.79737663 -2.13830256
0.70586091 -9.79910755 -2.01201272
0.72786772 -9.79887867 -1.88569272
0.52987242 -9.77626896 -2.82644463
0.47673693 -9.76895618 -2.75430179
0.34967747 -9.75199127 -3.17630315
0.33757326 -9.75241375 -3.29883862
0.37354088 -9.75218582 -3.35161090
0.29643840 -9.75094318 -3.36696100
0.33987737 -9.74355602 -3.46459842
0.26091084 -9.74036407 -3.51392150
0.23437923 -9.72699928 -3.64361405
0.20806895 -9.71063232 -3.76979828
0.45787132 -9.77312756 -2.87747955
0.49565595 -9.77589512 -2.63070011
0.13463080 -9.70455647 -3.81950927
0.11245524 -9.68411827 -3.94212556
0.14314228 -9.67595863 -3.99813485
0.00870783 -9.64753532 -4.14642000
-0.03938262 -9.61040306 -4.26775074
0.75309795 -9.80074978 -1.76246989
-0.09172185 -9.56304073 -4.37363291
-0.17476872 -9.55439663 -4.39377308
-0.15290585 -9.51541710 -4.47263527
-0.24048886 -9.50944614 -4.48801136
-0.12104324 -9.59542465 -4.30117083
-0.33429474 -9.49274635 -4.51159954
-0.39541554 -9.43633556 -4.61576414
0.86106771 -9.79130840 -1.58745551
0.77959114 -9.79433250 -1.63510025
-0.47133434 -9.48274422 -4.73292923
-0.56222433 -9.41890430 -4.68804932
-0.47894895 -9.42754745 -4.62349319
-0.66539299 -9.51766586 -4.80121946
-0.74858975 -9.59478855 -4.83421087
-0.82151628 -9.60963249 -4.81921291
-0.89839137 -9.69922543 -4.81237745
-0.98939711 -9.77208233 -4.83008862
-1.08382738 -9.85840893 -4.83986855
-1.21253312 -9.88207626 -5.01337290
-1.10063684 -9.87943649 -4.92728901
-1.81194341 -9.35243893 -4.74426079
-1.89773357 -9.35337448 -4.71363449
-1.88876939 -9.26575184 -4.69069719
-1.74200845 -9.52595901 -4.81848717
-1.57286441 -9.61147022 -4.89486456
-1.97362602 -9.26700401 -4.65721226
-2.11877441 -9.09657001 -4.53008032
-2.18819809 -9.01205826 -4.45926809
-2.25642991 -8.92708397 -4.38645124
-2.32389188 -8.84142685 -4.31248665
-1.39501226 -9.89562798 -4.96300459
-2.39084864 -8.75529766 -4.23770714
-2.45626044 -8.67031097 -4.16129303
-1.19105458 -9.88078785 -4.90866327
-1.27812433 -9.88246059 -4.88707256
-1.30301070 -9.88235855 -4.98867798
-2.52035904 -8.58621502 -4.08463573
-2.58248591 -8.50318813 -4.00692606
-2.64420819 -8.41996956 -3.93063378
-2.70253825 -8.33811569 -3.85106754
0.81302738 -9.78896427 -1.50727630
-2.75952125 -8.25604630 -3.77152967
-2.74056673 -8.17365074 -3.74333191
-1.39234066 -6.53562260 -4.29923153
-1.39555383 -6.44619513 -4.30969954
-1.55955720 -6.62254524 -4.22681856
-1.63931310 -6.71093702 -4.18143082
-1.22664022 -6.27006006 -4.38533735
-1.14029455 -6.18126392 -4.42187691
-1.05262291 -6.09229946 -4.45757914
-0.96362716 -6.00326204 -4.49145937
-0.87441987 -5.91449547 -4.52647161
-0.78424197 -5.82564974 -4.55869198
-0.69324154 -5.73730803 -4.58934784
-1.71776724 -6.79944468 -4.13451815
-0.60076576 -5.64972162 -4.61603308
-0.41828278 -5.65076685 -4.64020348
-0.50951374 -5.65077972 -4.62971306
-0.50710088 -5.56299782 -4.63785267
-1.79395974 -6.88779688 -4.08380604
-0.41357884 -5.47308779 -4.65044451
-1.86891091 -6.97642899 -4.03206444
-0.31687307 -5.42455149 -4.60174942
-0.18836577 -5.39914751 -4.45179272
-1.94087398 -7.06447220 -3.97658086
-2.01243973 -7.15310383 -3.92230248
-2.08213902 -7.24154758 -3.86633086
-2.06999588 -7.41763115 -3.84423923
-2.15053415 -7.33001757 -3.80955887
-0.15430556 -5.38398218 -4.28100681
-0.25450060 -5.38956547 -4.34998894
-0.13928683 -5.37713623 -4.22251987
0.08541328 -5.36775064 -4.11011028
-0.08911135 -5.36114645 -4.05890322
-0.07020504 -5.35839558 -3.97211862
-0.15725854 -5.35575914 -3.95801234
-0.14631988 -5.35332251 -3.87196279
-0.04226202 -5.35112715 -3.79012489
0.04594815 -5.31090069 -3.71932340
0.11060871 -5.28912592 -3.72770357
0.04594815 -5.31090069 -3.71932340
0.03894330 -5.24364901 -3.75090146
-2.29711413 -7.50535774 -3.71665025
-2.38566065 -7.59012699 -3.69305134
0.11929096 -5.17734146 -3.80735040
0.21106453 -5.11285973 -3.86127305
0.30584720 -5.05253124 -3.92154646
0.40348649 -4.98570490 -3.97299576
0.50237763 -4.91335678 -4.01258469
0.60202378 -4.84155512 -4.05103922
0.70278937 -4.76852942 -4.08662224
0.80403084 -4.69262934 -4.11546755
0.98397076 -4.70241642 -4.08914948
1.07258594 -4.70589399 -4.06870174
0.90575171 -4.61459351 -4.13934088
-2.49643278 -7.75708771 -3.70134187
-2.47647166 -7.67447281 -3.67155671
1.17200983 -4.62174749 -4.07034349
1.41190183 -4.61392784 -3.93576717
1.26764727 -4.53393459 -4.05932713
-2.55398345 -8.00644493 -3.78805065
-2.59031272 -7.84040070 -3.68188763
1.49507320 -4.52170181 -3.90287352
1.50477767 -4.43331814 -3.92306662
1.63742363 -4.33205986 -3.80485201
1.64340353 -4.24332428 -3.81742120
1.69609916 -4.23618126 -3.74228239
1.74697161 -4.22893429 -3.66738629
1.73861539 -4.13934278 -3.66816926
1.81630957 -4.03592587 -3.50851130
-2.62864375 -8.00678444 -3.73848152
-2.72179937 -8.09051228 -3.71568370
1.78717446 -3.94355369 -3.49150825
1.87148452 -3.86725760 -3.31629300
3.32480407 -5.37723017 -1.81098390
3.45615935 -5.37614012 -1.79746830
3.58648896 -5.37832355 -1.78318691
3.92011142 -5.38059425 -1.81050456
3.97912765 -5.38030958 -1.73719656
4.05461216 -5.38211918 -1.79834282
4.13000059 -5.38179302 -1.72712302
4.17362118 -5.38019419 -1.79659009
2.46392083 -4.43728828 -2.78950596
2.35114050 -4.24855947 -2.92774773
2.40932536 -4.24903536 -2.85794616
2.56892276 -4.52996206 -2.64075875
2.61070466 -4.62045145 -2.55716753
2.64731574 -4.70843697 -2.46875477
2.21060824 -4.05797434 -3.03620601
2.27044249 -4.05980253 -2.96892118
2.67918468 -4.79357910 -2.37590933
2.70686316 -4.87540960 -2.28046584
2.73473454 -4.95706367 -2.18466640
2.75400519 -5.03234720 -2.08307791
2.77059031 -5.10557842 -1.98042142
2.78638458 -5.17658043 -1.87597728
2.76273394 -5.25600147 -1.85183489
2.82041430 -5.25249100 -1.78367138
2.91555595 -5.32492018 -1.73101437
2.09985828 -3.88283300 -3.04946995
3.04682589 -5.35179234 -1.70781195
3.17719340 -5.36675501 -1.69504952
3.30739498 -5.37392664 -1.68199003
3.38152957 -5.37393188 -1.73990071
1.98379278 -3.87537217 -3.18132925
2.04228878 -3.87859750 -3.11613369
1.89196205 -3.79217839 -3.21605802
4.35979080 -5.38050079 -1.84087181
4.43624926 -5.37787485 -1.89411354
4.48701954 -5.37626886 -1.82249010
4.64594412 -5.41673851 -1.93134713
4.74613810 -5.41851711 -1.78147030
4.76532555 -5.50844669 -1.79262555
4.88315678 -5.51307344 -1.76157868
5.34932899 -6.00012302 -1.26418245
5.37843752 -6.11740685 -1.17406225
5.08323622 -5.67295599 -1.55930924
5.07433176 -5.73653078 -1.44584548
5.04960012 -5.75236320 -1.32374859
5.09431124 -5.82990217 -1.24252701
5.07750988 -5.91117764 -1.22910488
5.11733150 -5.90631151 -1.15117025
5.05402374 -5.57379007 -1.64517570
5.37977028 -6.22146940 -1.08828342
5.38004351 -6.32704544 -1.01530981
5.46998453 -6.48887205 -0.94582129
5.50645924 -6.44312429 -1.06551325
5.49452162 -6.44876432 -1.10656154
5.48517513 -6.57667065 -0.90313816
5.47679472 -6.64771986 -0.88717306
5.46478367 -6.69219637 -0.77507216
5.39362717 -6.67506981 -0.73399174
5.39113235 -6.75725746 -0.69665194
5.40999651 -6.72773695 -0.62624609
5.42620897 -6.78508854 -0.53760117
5.47113943 -6.83437777 -0.35340756
5.43962812 -6.90227985 -0.25501177
5.49178553 -6.98132515 -0.19114363
5.55162764 -7.14456320 0.03252717
5.52721357 -7.16344500 -0.02486976
5.53170586 -7.08558273 -0.06077621
5.59264708 -7.72131729 0.05082462
5.52660370 -7.23406267 0.01626325
5.56225157 -7.27234077 0.13298932
5.55768013 -7.35663080 0.18148091
5.51473904 -7.38961267 0.10310299
5.93720484 -8.39082527 -0.27809009
5.97902060 -8.20435333 -0.02445713
5.94889927 -8.32077980 -0.18690078
5.94585276 -8.10325623 0.06797855
5.86039305 -8.06103420 -0.00655312
5.71477365 -7.85564327 0.04787157
5.77308035 -7.86168575 0.14503881
5.82196283 -7.93819189 0.11381098
5.86238956 -7.93580627 0.20926568
5.93132448 -8.02440453 0.18953262
6.30670881 -9.08281136 -0.89233726
6.33287525 -9.14969540 -1.00509083
6.30394363 -9.24850655 -1.09391677
6.27708817 -9.12762451 -0.77138567
6.27245855 -9.05468369 -0.66510600
6.26003408 -9.01761913 -0.53516096
6.22905397 -8.83445263 -0.32935336
6.08391762 -9.33870792 -1.18748915
6.09044886 -9.41638565 -1.19068182
6.12508106 -9.33622169 -1.10644925
6.23288584 -9.30170727 -1.05869341
5.83989620 -9.77764225 -1.46429729
5.89341640 -9.78487968 -1.60888994
5.71221972 -9.74987030 -1.49343526
5.99116993 -9.77723312 -1.44665587
6.04219007 -9.68625164 -1.37257707
5.69139862 -9.65865421 -1.48444676
5.61210585 -9.58181572 -1.54150128
5.52351952 -9.51449394 -1.58944881
5.40647793 -9.47332191 -1.61836874
5.32838440 -9.39338779 -1.67396903
5.20988321 -9.41103172 -1.69794679
5.15349865 -9.41191196 -1.77197158
4.83496380 -9.49121284 -1.74827468
4.70917559 -9.51523113 -1.76141560
4.65168667 -9.52008343 -1.83161867
6.07599926 -9.59195805 -1.28654456
4.58317232 -9.53960991 -1.77318239
6.10564661 -9.50157452 -1.19881034
4.19876099 -9.56762791 -1.80300975
4.38545275 -9.55957699 -1.72320461
4.07219362 -9.57321358 -1.81178558
4.00980425 -9.58377361 -1.75089550
3.94760942 -9.58596802 -1.81762779
3.69700789 -9.61210155 -1.82090318
3.63699126 -9.62577724 -1.75733423
3.51148415 -9.64420223 -1.75554359
3.38541722 -9.66114521 -1.75231123
6.01533747 -8.50429440 -0.32451850
5.96215153 -8.44981861 -0.33117607
6.12651253 -8.63449478 -0.32222503
6.20713949 -8.69932461 -0.24531744
6.06306696 -8.57724094 -0.31930053
3.19847798 -9.69912243 -1.68219745
3.32572818 -9.67987537 -1.68813252
2.43769193 -9.71299553 -1.61143160
2.56240773 -9.70898628 -1.62665749
2.62981558 -9.70839977 -1.57062149
2.75509357 -9.70730114 -1.58463943
2.18655729 -9.71365643 -1.58046544
2.88150144 -9.70785809 -1.59649491
1.93355596 -9.72201538 -1.54925740
1.87828314 -9.72804165 -1.47809923
1.80642450 -9.72953320 -1.53339398
1.75113058 -9.73427868 -1.46184838
3.00906539 -9.71078968 -1.60643041
1.29795885 -9.75855350 -1.45161986
1.17760170 -9.76067257 -1.41411269
3.13689685 -9.70547867 -1.61527753
1.05590999 -9.78164482 -1.37780511
0.97673619 -9.77184296 -1.42034507
0.93508786 -9.78833389 -1.34317613
0.85442847 -9.80087852 -1.38393223
0.51450187 -9.78184795 -2.50530767
0.53175873 -9.77768612 -2.37834883
0.54811776 -9.78211594 -2.25069118
0.63417429 -9.79023838 -2.06641865
0.56421387 -9.78995705 -2.12250638
0.65333325 -9.79796600 -1.93929064
0.58239013 -9.80438423 -1.99481213
0.42390490 -9.78171730 -2.68314552
0.38526258 -9.77588654 -2.92855453
0.31262854 -9.77304935 -2.98004723
0.36708549 -9.76887226 -3.05246091
0.29661810 -9.76556587 -3.10567927
0.28459275 -9.74972153 -3.23066497
0.20921400 -9.74952126 -3.42970037
0.18375897 -9.73127937 -3.56425500
0.15944447 -9.71877098 -3.69289637
0.40455860 -9.77982426 -2.80552340
0.33035102 -9.77773285 -2.85638118
0.44339821 -9.78912544 -2.55968547
0.08605011 -9.71625233 -3.74320078
0.06458616 -9.69616795 -3.86969733
0.06345072 -9.67377567 -4.00609493
-0.03153005 -9.66646481 -4.05866766
-0.07578269 -9.64075565 -4.18724155
0.70063049 -9.80441189 -1.68483496
-0.19721933 -9.57869148 -4.33799648
-0.15672374 -9.62320137 -4.22535896
-0.30910423 -9.45277977 -4.59400129
-0.41863582 -9.47651386 -4.53304815
-0.25865963 -9.55496883 -4.39070702
-0.36464927 -9.53584290 -4.42395306
-0.54159707 -9.42319107 -4.62740231
-0.65159744 -9.41738701 -4.67166567
-0.65612310 -9.49580288 -4.71062708
-0.49766475 -9.46196079 -4.55392265
-0.74951190 -9.50261402 -4.69130754
-0.77377808 -9.51855278 -4.79393864
-0.82859778 -9.55197334 -4.82043648
-0.89564210 -9.61467743 -4.80487823
-1.07176840 -9.77817726 -4.80124044
-1.16843009 -9.85896587 -4.82182455
-1.81999302 -9.44009304 -4.76529551
-1.66129196 -9.61272335 -4.86710930
-1.57870424 -9.69992924 -4.91328573
-1.66772532 -9.70031261 -4.88588572
-2.04626203 -9.18229008 -4.59412813
-2.12913322 -9.18364239 -4.55727959
-2.20015097 -9.09832096 -4.48936558
-2.26891017 -9.01295376 -4.41727781
-2.33675933 -8.92675877 -4.34308863
-2.40463281 -8.84005451 -4.26880836
-1.49408913 -9.79131985 -4.95563459
-1.58385599 -9.79176807 -4.92895699
-1.48698723 -9.88651371 -4.93554640
-1.39501226 -9.89562798 -4.96300459
-2.47144890 -8.75407410 -4.19217205
-2.53592300 -8.66980076 -4.11321402
-1.25544024 -9.86348629 -4.79883051
-2.59952331 -8.58571720 -4.03601408
-2.66098094 -8.50291157 -3.95799184
-2.72088265 -8.42046833 -3.87951517
-2.77865887 -8.33842087 -3.80014396
0.76839739 -9.80051327 -1.42522120
-2.83373451 -8.25699139 -3.71899104
-2.81423640 -8.17449760 -3.69061375
-1.56279027 -6.53296614 -4.23717737
-1.47826552 -6.53430939 -4.26949978
-1.48113465 -6.44464111 -4.27928019
-1.31185365 -6.35835218 -4.34843826
-1.31445253 -6.26888657 -4.35958099
-1.64344990 -6.62168407 -4.19369936
-1.72223508 -6.71032906 -4.14671230
-1.22843575 -6.18063784 -4.39703846
-1.14071262 -6.09182358 -4.43241453
-1.05254436 -6.00314283 -4.46906328
-0.96376562 -5.91423607 -4.50497580
-0.87426656 -5.82527256 -4.53888226
-0.78367579 -5.73642111 -4.57061338
-0.69188881 -5.64829922 -4.60032797
-0.60076576 -5.64972162 -4.61603308
-0.59814733 -5.56128407 -4.62529945
-0.50261790 -5.47198296 -4.63524818
-1.87499785 -6.88749170 -4.04608631
-1.78835225 -6.97680044 -4.07047129
-0.40027443 -5.42278767 -4.57919121
-0.38087651 -5.40651321 -4.49776936
-0.29568410 -5.40910578 -4.51809502
-0.27466407 -5.39693737 -4.43426418
-2.01965690 -7.06425953 -3.93622518
-2.15852833 -7.24175835 -3.82297587
-2.21908450 -7.41825342 -3.75489807
-2.22511816 -7.33037376 -3.76425600
-0.23558198 -5.37926817 -4.27020502
-0.36101085 -5.39618587 -4.41516256
-0.34029374 -5.38507318 -4.33366585
-2.29291677 -7.41860056 -3.70913124
-0.11305831 -5.36816168 -4.14228201
-0.21587056 -5.37187243 -4.19431496
-0.17307767 -5.35937214 -4.03518105
-0.23547281 -5.35034990 -3.86907887
-0.13599220 -5.34687614 -3.78493190
-0.04448035 -5.30966806 -3.72450018
0.03894330 -5.24364901 -3.75090146
0.04594815 -5.31090069 -3.71932340
-0.04448035 -5.30966806 -3.72450018
0.03505017 -5.17673159 -3.79410672
-2.37079763 -7.50628328 -3.67027926
-2.45699239 -7.59221554 -3.64264035
0.12336250 -5.10941362 -3.85335946
0.21656324 -5.04672241 -3.91440248
0.31288204 -4.98043919 -3.97012544
0.41161841 -4.90841293 -4.01379156
0.51112092 -4.83536720 -4.05237770
0.61171162 -4.76182890 -4.08941269
0.71304655 -4.68687201 -4.12285662
0.81455821 -4.60954666 -4.15045595
0.99589831 -4.61801434 -4.12198925
1.08477712 -4.62074423 -4.09945440
0.91601872 -4.52886438 -4.16963339
1.00636399 -4.53176880 -4.15071535
-2.54818010 -7.67585754 -3.62095070
1.42363453 -4.52688503 -3.96068072
1.27831721 -4.44607592 -4.08402491
1.35927892 -4.44335985 -4.03773355
-2.56957793 -7.75767469 -3.65192914
-2.60936618 -7.92396069 -3.70969176
-2.68247032 -7.92492819 -3.65861559
-2.66320491 -7.84143209 -3.63081241
1.51315200 -4.34446049 -3.94101572
1.57735419 -4.33839655 -3.87435055
1.58473229 -4.24984884 -3.88930202
1.64781022 -4.15470648 -3.82681990
1.69482934 -4.14733982 -3.74745774
1.72646654 -4.05174255 -3.66716623
1.76343048 -4.03919935 -3.58735180
1.73971844 -3.93608809 -3.59170699
-2.70212102 -8.00781631 -3.68696237
1.76372337 -3.85106015 -3.46250796
1.83727932 -3.78668332 -3.28485441
1.81505036 -3.86183882 -3.38619137
3.51228690 -5.37699938 -1.72574198
3.64219189 -5.37659931 -1.71079969
3.71635437 -5.38047695 -1.76803899
3.77148080 -5.37938929 -1.69493580
3.84619045 -5.38018608 -1.75225544
3.90209293 -5.37947655 -1.67842901
4.03907681 -5.37720537 -1.66182256
4.23902416 -5.38232088 -1.85374534
2.46681762 -4.25003529 -2.78766441
2.46935129 -4.34373093 -2.79228354
2.52217031 -4.43759394 -2.71965003
2.34326863 -4.15413332 -2.91702390
2.40129328 -4.15537500 -2.84769368
2.62792897 -4.53132963 -2.57149863
2.66941690 -4.62196875 -2.48763394
2.70477843 -4.70945501 -2.39819479
2.18814039 -3.96928024 -3.01192260
2.24627733 -3.97216511 -2.94414759
2.73535824 -4.79351854 -2.30492735
2.76705718 -4.87718630 -2.21212959
2.15990472 -3.88521600 -2.98417687
2.79087329 -4.95527315 -2.11376286
2.82787347 -5.10632038 -1.91360581
2.84262109 -5.17518187 -1.81000543
2.82041430 -5.25249100 -1.78367138
2.87568784 -5.24321461 -1.72024333
2.98109102 -5.32510328 -1.64999008
2.00718117 -3.79962683 -3.08383894
2.06725860 -3.80260777 -3.01876926
3.36366367 -5.37371969 -1.61097813
3.43782234 -5.37545538 -1.66833222
1.94851613 -3.79651213 -3.14940333
1.79738140 -3.71052098 -3.24831462
1.85273588 -3.71632242 -3.18068790
4.40867233 -5.37767792 -1.77032495
4.53690815 -5.37762070 -1.74926031
4.66639137 -5.38345194 -1.72875023
4.80821943 -5.50862980 -1.71486449
4.80821943 -5.50862980 -1.71486449
4.85684395 -5.51388884 -1.63649988
4.93355656 -5.50097322 -1.68976057
5.22764158 -5.98466778 -1.26869690
5.37763786 -6.01455832 -1.16404605
5.39084625 -6.12816095 -1.07931161
5.07889605 -5.58077145 -1.55965757
5.12015438 -5.73442602 -1.36640620
5.13501263 -5.82570887 -1.16483128
5.16658497 -5.97407389 -1.07831335
5.12382746 -5.97769547 -1.15009701
5.14564514 -5.99051666 -1.25343955
4.98638773 -5.50226307 -1.60850561
5.39282370 -6.24108505 -0.99928319
5.39261150 -6.35351658 -0.93145686
5.38671398 -6.43388176 -0.95032644
5.38688660 -6.46868086 -0.87404889
5.48380756 -6.56766319 -0.97462559
5.45869255 -6.60482550 -0.81983101
5.38929415 -6.59250975 -0.79055482
5.43309307 -6.70137548 -0.55599356
5.46053219 -6.68131781 -0.47995329
5.45461178 -6.76522398 -0.45987600
5.47992277 -6.74314356 -0.37033612
5.50102711 -6.90322733 -0.20466739
5.59768009 -7.72932768 0.12565774
5.50569630 -7.46933079 0.15162784
5.50569630 -7.46933079 0.15162784
5.54625940 -7.54760504 0.17687877
5.53777742 -7.58348370 0.10320683
5.51776791 -7.30726719 0.05602029
5.55685139 -7.20164347 0.08770780
5.58450699 -7.31520844 0.25623453
6.00626707 -8.17896080 0.05793678
6.03826571 -8.27419376 -0.01457679
5.98328352 -8.31645679 -0.05123257
5.96508646 -8.32940769 -0.10298724
6.03099060 -8.39999676 -0.11137757
5.98685598 -8.39927769 -0.20161042
5.87854195 -8.02500725 0.07250135
5.97297525 -8.09340477 0.15497723
5.68099880 -7.77883959 0.10094506
5.77308035 -7.86168575 0.14503881
5.95382357 -7.99000502 0.29268953
6.34510517 -9.07843590 -0.80630833
6.37623453 -9.14238071 -0.92934626
6.33881330 -9.24310493 -1.00762784
6.31404448 -9.12149334 -0.68757850
6.30886841 -9.05372810 -0.58777702
6.29038858 -9.00001621 -0.43832919
6.26341867 -8.90813637 -0.43590879
6.18985605 -8.78657341 -0.22558306
6.25959110 -8.83396816 -0.24376388
6.13331985 -9.41416645 -1.11039770
6.16788006 -9.33448315 -1.02606201
6.27601099 -9.30347347 -0.97752684
5.88838100 -9.77508450 -1.38870323
5.94743395 -9.78129578 -1.52639866
5.76042175 -9.74932671 -1.41774929
6.03935909 -9.77503777 -1.37030447
6.08821774 -9.68358707 -1.29309011
5.73363304 -9.65819931 -1.40588486
5.66280937 -9.58004189 -1.46904266
5.45935154 -9.47316647 -1.54239583
5.38534784 -9.39086056 -1.59986782
5.26635218 -9.40913963 -1.62406743
5.08613873 -9.43930149 -1.71712673
4.96050501 -9.46634388 -1.73340845
4.89170170 -9.48686695 -1.67666543
4.76717854 -9.51604271 -1.69123840
6.12096691 -9.58973789 -1.20706022
6.14907646 -9.49999046 -1.11872184
4.25842047 -9.56275463 -1.73319519
4.19173241 -9.56765079 -1.67304647
4.13307285 -9.57222748 -1.74303389
4.51397657 -9.55378437 -1.71334004
4.44429636 -9.55605793 -1.65291524
4.06916523 -9.57879543 -1.68312466
3.94810200 -9.58902931 -1.69033992
3.88629436 -9.59366417 -1.75567615
3.76166415 -9.60977936 -1.75768209
4.64070320 -9.53464890 -1.70279193
4.57166815 -9.54635906 -1.64310145
3.57672668 -9.63801003 -1.69378901
3.45080566 -9.65570927 -1.69152510
6.10076094 -8.54986954 -0.23568334
6.14948034 -8.62512112 -0.23673703
6.23796034 -8.69002533 -0.15700619
6.22045946 -8.78012562 -0.14041130
3.26510859 -9.69457626 -1.62254083
3.39152479 -9.67378521 -1.62764418
2.57363129 -9.69985580 -1.50256431
2.50641322 -9.70975876 -1.55584800
2.38218856 -9.71621704 -1.54061759
2.25712419 -9.71942425 -1.52507555
2.69724584 -9.70120049 -1.51657653
2.82242346 -9.70310307 -1.52873647
2.13159490 -9.71926785 -1.50905418
2.94858050 -9.70493412 -1.53909659
2.00500751 -9.72066879 -1.49336839
1.82260239 -9.73573875 -1.40697598
1.69601917 -9.74188232 -1.39023101
1.62460685 -9.74543095 -1.44470453
3.07621455 -9.70545769 -1.54796135
1.49934566 -9.75211430 -1.42545927
1.37570775 -9.75989628 -1.40102184
1.25364995 -9.76504421 -1.36804080
1.21165109 -9.76390076 -1.28808773
1.13622594 -9.77653027 -1.33269155
3.20342135 -9.70173836 -1.55598950
0.89307797 -9.79856491 -1.26506853
0.81457758 -9.80026913 -1.30603766
0.46357217 -9.79707718 -2.43389225
0.48167005 -9.80075741 -2.30813980
0.49764717 -9.80713558 -2.18098330
0.51307154 -9.81638241 -2.05281401
0.60202503 -9.81209373 -1.86646366
0.52999240 -9.82441711 -1.92303443
0.67538577 -9.80078030 -1.81281972
0.36886227 -9.78805637 -2.61136532
0.22894655 -9.75600815 -3.16004419
0.22306527 -9.75183105 -3.29119182
0.13188602 -9.74154091 -3.48445082
0.10959815 -9.72805691 -3.61487746
0.34923658 -9.78375912 -2.73384452
0.27447420 -9.77758503 -2.78470659
0.03548908 -9.72491264 -3.66658258
0.01365648 -9.70662212 -3.79439735
-0.00311310 -9.69145775 -3.92564797
-0.11555640 -9.65685844 -4.10359955
-0.08206373 -9.68182278 -3.97616267
0.72834218 -9.80513859 -1.55351269
0.64606243 -9.80099678 -1.60737479
-0.23546822 -9.60856438 -4.26386452
-0.19582304 -9.64578819 -4.14591122
-0.44835797 -9.51470566 -4.45985889
-0.31591979 -9.59113026 -4.30442762
-0.41970292 -9.57610416 -4.33416700
0.66806310 -9.81357193 -1.45992076
-0.58304405 -9.44944382 -4.57085466
-0.73338199 -9.45375538 -4.63278770
-0.50578755 -9.49717617 -4.48268175
-0.84302205 -9.50336552 -4.67048788
-0.86460453 -9.52010441 -4.75549650
-0.97545421 -9.70002460 -4.78430986
-1.06231821 -9.70468330 -4.75980902
-1.16013801 -9.78354454 -4.78090334
-1.74883819 -9.61351299 -4.83812284
-1.83577228 -9.61443901 -4.80757713
-1.82833302 -9.52711296 -4.78752041
-1.90625644 -9.44108295 -4.73530912
-1.98297548 -9.35453987 -4.68105602
-2.06676459 -9.35641861 -4.64568043
-2.05671453 -9.26892090 -4.62049580
-2.13935423 -9.27095509 -4.58393955
-2.21097350 -9.18545914 -4.51797152
-2.28099513 -9.09973335 -4.44733286
-2.35002112 -9.01234245 -4.37486315
-2.41710210 -8.92561531 -4.29868555
-2.48553467 -8.83883953 -4.22302485
-1.57902718 -9.88901234 -4.91065931
-1.48698723 -9.88651371 -4.93554640
-1.36859977 -9.88443661 -4.86102295
-1.34054542 -9.86824417 -4.77169800
-2.55215549 -8.75333023 -4.14424038
-2.61586380 -8.66905308 -4.06415987
-1.24462771 -9.78532982 -4.75549746
-2.67860627 -8.58517551 -3.98636341
-2.73862481 -8.50289059 -3.90718436
-2.79667401 -8.42109489 -3.82721972
-2.85248065 -8.33971786 -3.74584651
0.73708439 -9.81175804 -1.34414816
-2.90801978 -8.25738144 -3.66598082
-1.56616008 -6.44352818 -4.24737310
-1.48395848 -6.35512352 -4.28879404
-1.39817250 -6.35660887 -4.31906319
-1.40082788 -6.26728201 -4.32956314
-1.31586921 -6.17932606 -4.36970425
-1.72708511 -6.62124920 -4.15942574
-1.80494380 -6.70999146 -4.11086321
-1.22890294 -6.09115696 -4.40764999
-1.14102757 -6.00288534 -4.44476891
-1.05287576 -5.91424084 -4.48281527
-0.96341658 -5.82494402 -4.51650858
-0.87392718 -5.73598051 -4.55144930
-0.78298360 -5.64714336 -4.58268595
-0.69188881 -5.64829922 -4.60032797
-0.68964660 -5.55894041 -4.61000395
-1.79962707 -6.79902363 -4.09770250
-0.59207511 -5.46843910 -4.62172031
-0.48684612 -5.42263794 -4.56085634
-1.94819367 -6.97592020 -3.99154878
-1.95504808 -6.88717985 -4.00601625
-2.02689075 -6.97553110 -3.95015883
-0.46797302 -5.40573406 -4.47839832
-2.09763932 -7.06427908 -3.89431047
-2.09002399 -7.15300894 -3.88030529
-2.23353171 -7.24201155 -3.77779245
-2.29892850 -7.33096313 -3.71828389
-0.31961235 -5.37708998 -4.25138330
-0.42689770 -5.38225555 -4.31477451
-2.36604977 -7.41953707 -3.66282248
