-2.10012698 -3.43915749 -0.95348108
-2.16597843 -3.38412237 -0.94126087
-2.11058187 -3.37527585 -0.94406205
-2.05596256 -3.36803079 -0.93640143
-2.12109160 -3.31137371 -0.93467027
-2.06593370 -3.30387664 -0.92811376
-2.02097869 -3.30100727 -0.89695334
-2.01265001 -3.36534572 -0.90515238
-2.07666802 -3.23988605 -0.91882426
-2.03161764 -3.23690081 -0.88842034
-2.03161764 -3.23690081 -0.88842034
-2.02097869 -3.30100727 -0.89695334
-2.01556730 -3.24053359 -0.83911705
-2.04157519 -3.17257619 -0.88086873
-2.03014541 -3.17721748 -0.82997751
-2.07301497 -3.18832660 -0.79834670
-2.08235908 -3.12473154 -0.78770095
-2.04284286 -3.11394238 -0.81935215
-2.13116479 -3.13619494 -0.76209515
-2.14309859 -3.07282448 -0.75463217
-2.09143043 -3.06115651 -0.77527624
-2.19356060 -3.08531737 -0.72978967
-2.20609426 -3.02179027 -0.72283787
-2.15348554 -3.00946784 -0.74286866
-2.24847317 -3.03548241 -0.68466431
-2.26007986 -2.97258234 -0.67549062
-2.21751714 -2.95852184 -0.71348697
-2.30494618 -2.98638368 -0.64055437
-2.31646419 -2.92395377 -0.63156474
-2.26992130 -2.90983200 -0.66393834
-2.37237215 -2.93602395 -0.61678195
-2.38479662 -2.87422085 -0.60878736
-2.32873893 -2.86170077 -0.62138921
-2.44063568 -2.88188863 -0.62467426
-2.39724183 -2.81239080 -0.60147434
-2.45259070 -2.81930852 -0.61575276
-2.50012827 -2.82282543 -0.64799011
-2.46496725 -2.75650382 -0.60496390
-2.51046753 -2.75970030 -0.64214921
-2.56907415 -2.76903749 -0.64160395
-2.52117467 -2.69650698 -0.63205546
-2.57886124 -2.70583057 -0.63264161
-2.63574314 -2.71615601 -0.62318850
-2.64620495 -2.65341258 -0.61374217
-2.58862090 -2.64281464 -0.62361103
-2.69899106 -2.66440606 -0.60445946
-2.70989609 -2.60168290 -0.59578341
-2.65706229 -2.59017849 -0.60489571
-2.75956035 -2.61260128 -0.58821821
-2.77193689 -2.55033517 -0.57875824
-2.72174788 -2.53960061 -0.58553290
-2.82153392 -2.56025171 -0.57742923
-2.78536391 -2.48776197 -0.57192916
-2.83521914 -2.49754906 -0.57054561
-2.88320732 -2.50731564 -0.57134300
-2.84844804 -2.43571877 -0.55795056
-2.89613605 -2.44520617 -0.55872071
-2.94161558 -2.45556545 -0.55142814
-2.95474267 -2.39349008 -0.54144341
-2.90914035 -2.38393474 -0.54247940
-2.99878454 -2.40367246 -0.53586841
-3.01153588 -2.34163094 -0.52435017
-2.96746707 -2.33199382 -0.52627212
-3.05010509 -2.34708333 -0.54152519
-3.02456045 -2.27965069 -0.51233447
-3.06175947 -2.28460550 -0.53170413
-3.06511950 -2.27874422 -0.57131577
-3.07701921 -2.21638918 -0.56137198
-3.07509065 -2.22242785 -0.52094924
-3.05039787 -2.20538902 -0.59348661
-3.09193850 -2.15439558 -0.55211651
-3.06549430 -2.14325905 -0.58530802
-3.02609396 -2.13105249 -0.60694039
-3.08004546 -2.08119702 -0.57585490
-3.04008603 -2.06856799 -0.59767127
-2.99370694 -2.05602765 -0.61194295
-3.05520296 -2.00611091 -0.58966309
-3.00838757 -1.99352264 -0.60326678
-2.96006560 -1.98069584 -0.61442375
-3.02273369 -1.93065643 -0.59321392
-2.97411180 -1.91792512 -0.60343039
-2.92404556 -1.90497565 -0.61299932
-2.98801565 -1.85498405 -0.59141463
-2.93887591 -1.84204149 -0.60130394
-2.88709211 -1.82882607 -0.61227006
-2.95329762 -1.77914810 -0.59016740
-2.90187454 -1.76575553 -0.60280335
-2.84914327 -1.75228810 -0.61498946
-2.91783643 -1.70300531 -0.59326845
-2.86485291 -1.68943560 -0.60607481
-2.80664825 -1.67530704 -0.62019652
-2.87866783 -1.62672627 -0.59790981
-2.82010913 -1.61258411 -0.61186796
-2.75989413 -1.59891903 -0.62304538
-2.83325624 -1.55026317 -0.60326678
-2.77278256 -1.53652990 -0.61441010
-2.71209025 -1.52299440 -0.62525362
-2.78505707 -1.47433853 -0.60609519
-2.72396302 -1.46100056 -0.61622310
-2.66304612 -1.44780588 -0.62609869
-2.67496634 -1.38563490 -0.61813825
-2.73571301 -1.39883649 -0.60847390
-2.61580133 -1.37338746 -0.62657577
-2.68735003 -1.32350492 -0.61033452
-2.62815762 -1.31078720 -0.61896968
-2.56970811 -1.29857373 -0.62607831
-2.64110708 -1.24827540 -0.61087972
-2.58263016 -1.23577571 -0.61780429
-2.52499795 -1.22426438 -0.62022376
-2.59638357 -1.17304587 -0.61140448
-2.53860855 -1.16155505 -0.61497587
-2.48253798 -1.15068436 -0.60676312
-2.55218530 -1.09895468 -0.60916901
-2.49761367 -1.08869731 -0.60019302
-2.45971966 -1.08430135 -0.56187630
-2.44315100 -1.14637005 -0.56842595
-2.51465249 -1.02767134 -0.58825910
-2.47923231 -1.02413416 -0.55345917
-2.47732401 -1.02887774 -0.50782937
-2.47923231 -1.02413416 -0.55345917
-2.45971966 -1.08430135 -0.56187630
-2.49342895 -0.96336722 -0.54573721
-2.48833776 -0.96755195 -0.49863529
-2.53664613 -0.97850442 -0.48009717
-2.54817104 -0.91625166 -0.47358838
-2.49806356 -0.90563995 -0.49198335
-2.60109305 -0.92720419 -0.45978698
-2.61059427 -0.86418808 -0.45201048
-2.55785561 -0.85402614 -0.46694323
-2.66470909 -0.87511337 -0.43699598
-2.67185831 -0.81174284 -0.42672500
-2.61995840 -0.80128789 -0.44533813
-2.70487976 -0.82129818 -0.38482335
-2.68161154 -0.74821562 -0.42093185
-2.71590686 -0.75770962 -0.37958223
-2.75291514 -0.76689690 -0.33132851
-2.76514244 -0.70369679 -0.32676214
-2.72998118 -0.69440728 -0.37568375
-2.82749701 -0.71555579 -0.31363547
-2.77967954 -0.64120549 -0.32437670
-2.83969688 -0.65271002 -0.30860564
-2.90003443 -0.66133171 -0.33290970
-2.85144687 -0.58955765 -0.30246487
-2.91127992 -0.59750456 -0.32937247
-2.97361469 -0.60712123 -0.34446195
-2.92261410 -0.53346616 -0.32574660
-2.98380375 -0.54343724 -0.34552518
-3.04648590 -0.55289030 -0.33095366
-3.05591846 -0.48780915 -0.32633275
-2.99370003 -0.47839692 -0.34178346
-3.11466122 -0.49832547 -0.31217694
-3.06505132 -0.42246896 -0.32187542
-3.12293506 -0.43288308 -0.30774009
-3.17849517 -0.44326308 -0.29485196
-3.13217735 -0.36727712 -0.30356216
-3.18749189 -0.37748671 -0.29086491
-3.24004579 -0.38774404 -0.27976248
-3.24999666 -0.32195401 -0.27792910
-3.19663835 -0.31188759 -0.28803647
-3.30164433 -0.33186376 -0.26673806
-3.31300592 -0.26627824 -0.27401701
-3.25989246 -0.25645715 -0.27775189
-3.36252737 -0.27518612 -0.26257378
-3.37354112 -0.20942339 -0.26955965
-3.32314038 -0.20033833 -0.27778599
-3.42156291 -0.21795639 -0.25707367
-3.42966008 -0.15209825 -0.25751671
-3.38308263 -0.14354481 -0.26931432
-3.47425365 -0.15964299 -0.26279870
-3.48205757 -0.09368945 -0.26093125
-3.43843150 -0.08621968 -0.25545841
-3.51792741 -0.09912140 -0.28280216
-3.49359584 -0.02887408 -0.25288898
-3.52709413 -0.03380850 -0.27805859
-3.51610732 -0.03015539 -0.31999433
-3.53628159 0.03104094 -0.26839423
-3.52592206 0.03583224 -0.31301525
-3.49052238 0.04166630 -0.34332380
-3.53475499 0.10101563 -0.30759695
-3.49983931 0.10667250 -0.33857337
-3.45645833 0.11331080 -0.36061469
-3.50989890 0.17138563 -0.33612663
-3.46879435 0.17751276 -0.36154163
-3.42201257 0.18545964 -0.38085672
-3.48305273 0.24159887 -0.36783230
-3.43727994 0.24930038 -0.38959417
-3.38912797 0.25732905 -0.40976125
-3.40132785 0.32176957 -0.41749680
-3.45260119 0.31321609 -0.40043083
-3.34946847 0.33023441 -0.43300205
-3.35976005 0.39564952 -0.43549654
-3.41251206 0.38727328 -0.42303100
-3.30334830 0.40397805 -0.44820061
-3.36958814 0.46140543 -0.43656659
-3.31258321 0.46969306 -0.44936609
-3.25140738 0.47756499 -0.46329015
-3.32112336 0.53550351 -0.45036113
-3.25965428 0.54332089 -0.46444198
-3.19674706 0.55058622 -0.47983816
-3.20358324 0.61546296 -0.48195779
-3.26763487 0.60892004 -0.46577781
-3.13968801 0.62163776 -0.49706772
-3.14526987 0.68621457 -0.49961674
-3.20936275 0.68081671 -0.48420009
-3.08125186 0.69155794 -0.51531285
-3.08578396 0.75537819 -0.51790953
-3.15029287 0.75115263 -0.50282687
-3.02162313 0.75936532 -0.53170413
-3.02506495 0.82285166 -0.53358513
-3.08977795 0.81943709 -0.52021319
-2.96039271 0.82568687 -0.54521239
-2.96191931 0.88857347 -0.54746151
-3.02687073 0.88604492 -0.53603876
-2.89662695 0.89031142 -0.55668288
-2.89598632 0.95178717 -0.55859125
-2.96223974 0.95089436 -0.54963565
-2.83029127 0.95249605 -0.56650400
-2.82837629 1.01382875 -0.56792849
-2.89505243 1.01364458 -0.56191719
-2.76790237 1.01432621 -0.55275035
-2.76561928 1.07579505 -0.55466551
-2.82635188 1.07527721 -0.57027984
-2.73259830 1.07781255 -0.50149101
-2.73710346 1.01620722 -0.49935091
-2.72996736 1.14006531 -0.50416952
-2.76212955 1.13751638 -0.55860484
-2.72996736 1.14006531 -0.50416952
-2.73063540 1.14298916 -0.44466338
-2.73259830 1.07781255 -0.50149101
-2.72793627 1.20606649 -0.44485423
-2.72733665 1.20253611 -0.50750905
-2.79042745 1.20823395 -0.42630926
-2.72506690 1.26967549 -0.44531086
-2.78922796 1.27128410 -0.42799270
-2.85494304 1.27224505 -0.41689026
-2.78851247 1.33436835 -0.43004414
-2.72338367 1.33316195 -0.44696021
-2.72543502 1.39625299 -0.45235127
-2.72951746 1.39121628 -0.51819581
-2.72670293 1.32845926 -0.51437908
-2.73711014 1.45344174 -0.52138543
-2.73711014 1.45344174 -0.52138543
-2.76249790 1.44824839 -0.58044851
-2.72951746 1.39121628 -0.51819581
-2.76277018 1.50884497 -0.58818406
-2.73795509 1.51406562 -0.52816683
-2.82699251 1.50820434 -0.60082000
-2.82932377 1.56867135 -0.60529101
-2.89655876 1.57015038 -0.59974319
-2.89799666 1.63149667 -0.60203999
-2.96493840 1.63404560 -0.59180999
-2.96452975 1.69615531 -0.59634227
-3.03187346 1.70006049 -0.58522618
-3.02965832 1.76313794 -0.59095120
-3.09713173 1.76849496 -0.57845843
-3.09426904 1.83208358 -0.58424479
-3.16303778 1.83883083 -0.56850100
-3.15932345 1.90246713 -0.57503700
-3.22721219 1.91042769 -0.55771202
-3.22123504 1.97518170 -0.56483418
-3.28759766 1.98435533 -0.54588032
-3.28134799 2.05026793 -0.55472678
-3.34614277 2.06014371 -0.53757906
-3.33750057 2.12693548 -0.54507607
-3.39546657 2.13655877 -0.53189498
-3.38518190 2.20410728 -0.53916025
-3.44010806 2.21387410 -0.52628577
-3.43105721 2.28190637 -0.53103614
-3.48096704 2.29177499 -0.51641011
-3.46865129 2.36070704 -0.52437747
-3.51836371 2.37103248 -0.51228672
-3.50416040 2.43971896 -0.51641011
-3.54862452 2.45056248 -0.49555472
-3.53585887 2.52076888 -0.50699109
-3.57730389 2.53172135 -0.48285744
-3.56218028 2.60292292 -0.49092695
-3.58174777 2.61151719 -0.45132896
-3.56559515 2.68299150 -0.45619521
-3.53913736 2.68037438 -0.41999811
-3.52367258 2.75235939 -0.41968459
-3.47712278 2.74437189 -0.40637392
-3.45917106 2.81545067 -0.40966582
-3.40800023 2.80276704 -0.40935230
-3.39020491 2.87200546 -0.42463264
-3.34169912 2.85576415 -0.44373649
-3.32614636 2.92433500 -0.46800646
-3.27383733 2.90713263 -0.48102403
-3.25123692 2.97504210 -0.48396838
-3.19327831 2.95714474 -0.47653264
-3.16943073 3.02228713 -0.47955874
-3.10806370 2.99770379 -0.49032038
-3.08286691 3.05988145 -0.50023693
-3.02075744 3.03253770 -0.51540822
-2.99622154 3.09271860 -0.52577460
-2.93186283 3.06383443 -0.54231584
-2.90637970 3.12353826 -0.55285257
-2.84141421 3.09628987 -0.55601501
-2.81569290 3.15537333 -0.56098348
-2.76193881 3.14006567 -0.51746655
-2.73379064 3.19795680 -0.52858263
-2.67240381 3.17198968 -0.51842070
-2.64265418 3.22614551 -0.53207213
-2.59463239 3.19196582 -0.56741047
-2.56442618 3.24317741 -0.58006001
-2.54109669 3.21390486 -0.63929355
-2.51200771 3.26437354 -0.65315622
-2.46376085 3.22911048 -0.68180853
-2.43239617 3.27683234 -0.69250208
-2.38117743 3.24154854 -0.70885926
-2.34920597 3.28897095 -0.71977091
-2.30136824 3.25440931 -0.73775011
-2.27080727 3.30209756 -0.74798709
-2.26498723 3.28949547 -0.79912370
-2.29552054 3.24105096 -0.79039985
-2.23157740 3.33637929 -0.80844730
-2.23157740 3.33637929 -0.80844730
-2.26287413 3.35030341 -0.85597175
-2.26498723 3.28949547 -0.79912370
-2.22774720 3.39656019 -0.86709464
-2.19907427 3.38367891 -0.81658500
-2.27765036 3.42977881 -0.88354039
-2.24147367 3.47812128 -0.89213479
-2.29370761 3.51645851 -0.88880879
-2.25622916 3.56595922 -0.89578110
-2.30927396 3.60555077 -0.89183491
-2.26956725 3.65539217 -0.89445883
-2.32183504 3.69532442 -0.88946313
-2.28139210 3.74572492 -0.89310259
-2.33419156 3.78578615 -0.88678467
-2.29404163 3.83729792 -0.89074445
-2.34748173 3.87773418 -0.88357455
-2.25504303 3.88946366 -0.89385915
-2.30671835 3.93022704 -0.88767743
-2.35991335 3.97079968 -0.87976462
-2.31812763 4.02361965 -0.88662785
-2.30671835 3.93022704 -0.88767743
-2.35991335 3.97079968 -0.87976462
-2.37026620 4.06364059 -0.88008499
-2.41288328 4.01107264 -0.87102038
-2.32709694 4.11669254 -0.89081258
-2.37815857 4.15519285 -0.88459682
-2.33296490 4.20772696 -0.89379776
-2.37990308 4.24202251 -0.88673693
-2.33501625 4.29584455 -0.89449298
-2.37937832 4.32577848 -0.88837260
-2.33481860 4.38047266 -0.89408404
-2.38100743 4.40678024 -0.88709813
-2.34804749 4.46101809 -0.89018559
-2.39143515 4.48661661 -0.88142765
-2.36494994 4.53933525 -0.88289982
-2.40856218 4.55644846 -0.87211084
-2.39021468 4.61543703 -0.86999804
-2.43330240 4.62510777 -0.85631937
-2.42009377 4.68043613 -0.85586274
-2.45873785 4.68522024 -0.82941860
-2.45215440 4.73946476 -0.83202893
-2.47683311 4.74189138 -0.79418248
-2.47824383 4.79811907 -0.80191123
-2.47761679 4.80132914 -0.75826484
-2.46742105 4.74396324 -0.74953413
-2.48586369 4.86096478 -0.76938766
-2.47761679 4.80132914 -0.75826484
-2.44770384 4.86605644 -0.75337809
-2.48586369 4.86096478 -0.76938766
-2.43594027 4.80524826 -0.74664444
-2.45914030 4.92814541 -0.75815576
-2.49534392 4.92430830 -0.77830237
-2.41385770 4.93244600 -0.75919169
-2.40201926 4.86917114 -0.75121075
-2.42415595 4.99748611 -0.76528478
-2.38395834 5.00128937 -0.78697169
-2.36983657 4.93332529 -0.77083260
-2.38628268 5.07062292 -0.78276652
-2.33881927 5.00727987 -0.79873520
-2.33749700 5.07686615 -0.77595782
-2.33248067 5.14162016 -0.75413460
-2.28344345 5.08636713 -0.76184976
-2.27747297 5.15506697 -0.76415342
-2.23023486 5.10251999 -0.77819330
-2.21295738 5.17284870 -0.76784062
-2.15762925 5.12675571 -0.77445847
-2.14581800 5.19659424 -0.79081565
-2.09318209 5.14644575 -0.79255354
-2.08611441 5.21261024 -0.80694795
-2.07315803 5.27882290 -0.80604148
-2.02837348 5.22246552 -0.81706887
-2.02048802 5.28471184 -0.81937939
-2.01713467 5.33900404 -0.82717627
-1.96574581 5.28853512 -0.83274460
-1.96206546 5.34206438 -0.83921927
-1.96077728 5.39719486 -0.84371072
-2.01440167 5.39065170 -0.83789706
-1.95997989 5.45379734 -0.84694123
-2.01134825 5.44379234 -0.83933514
-1.96004820 5.51579094 -0.84544861
-2.01138926 5.50220776 -0.83696336
-2.05853891 5.49045134 -0.84183645
-2.01369286 5.56542826 -0.83491188
-2.06698322 5.54672670 -0.82567686
-2.09601045 5.48641634 -0.86681521
-2.11060238 5.53925657 -0.84989911
-2.11060238 5.53925657 -0.84989911
-2.08465576 5.49752569 -0.89835054
-2.09601045 5.48641634 -0.86681521
-2.09760523 5.55091810 -0.88690048
-2.05154610 5.56797743 -0.91076839
-2.04684329 5.50655603 -0.91459185
-2.03649068 5.44948959 -0.91925365
-2.03880811 5.39701033 -0.92214340
-1.99640203 5.52142096 -0.92813426
-1.99171972 5.45990372 -0.93109214
-1.99422109 5.39876175 -0.93074459
-1.99884188 5.34284782 -0.93094903
-2.04424667 5.34074879 -0.92257965
-1.94271624 5.47088385 -0.93937981
-1.94542205 5.40672255 -0.93848693
-1.94923866 5.34672594 -0.93812579
-1.95686519 5.28263283 -0.93591070
-2.00603914 5.28032923 -0.92925876
-1.89771366 5.41525555 -0.94580680
-1.90089643 5.34916544 -0.94430745
-1.90728259 5.28283739 -0.94195604
-1.91413212 5.21440983 -0.93799627
-1.96464860 5.21600485 -0.93220311
-1.85448968 5.34865427 -0.94876474
-1.85862672 5.28199911 -0.94722444
-1.86396325 5.21256304 -0.94321698
-1.86965418 5.14065933 -0.93691260
-1.91993892 5.14260817 -0.93103766
-1.81184506 5.27915668 -0.95124561
-1.81586623 5.20947504 -0.94762653
-1.82110739 5.13744211 -0.94143128
-1.87466359 5.06628180 -0.92780715
-1.82546926 5.06303072 -0.93212813
-1.77172232 5.20430231 -0.94873065
-1.77642500 5.13212633 -0.94267851
-1.77930117 5.05978680 -0.93610156
-1.82670295 4.98808765 -0.92289996
-1.77941704 4.98561335 -0.92765033
-1.73290122 5.12554264 -0.94218099
-1.73475504 5.05498838 -0.93729424
-1.73416209 4.98388243 -0.93330723
-1.77600932 4.91202021 -0.92258644
-1.73159266 4.91139317 -0.92916340
-1.69080198 5.04860258 -0.93698078
-1.68998408 4.98206949 -0.93734878
-1.68539727 4.91388035 -0.93423408
-1.72660375 4.84065485 -0.92391545
-1.67917466 4.84498262 -0.92800474
-1.64490640 4.98023605 -0.93903220
-1.63937891 4.91454124 -0.93629920
-1.63216138 4.84916735 -0.93047881
-1.67083931 4.77534199 -0.92107338
-1.62189043 4.78405905 -0.92386091
-1.59297907 4.91652441 -0.93832344
-1.58486187 4.85460567 -0.93241435
-1.57514966 4.79036999 -0.92589200
-1.56356347 4.72801495 -0.91909689
-1.61117649 4.71717167 -0.91653425
-1.53850961 4.86016750 -0.93292558
-1.52834773 4.79877329 -0.92756176
-1.51720440 4.73827267 -0.91827226
-1.50312364 4.68053865 -0.90740836
-1.54812634 4.66640282 -0.91362405
-1.47960329 4.75041771 -0.89660573
-1.48764563 4.80746984 -0.90831476
-1.46946192 4.69540977 -0.88157082
-1.45818901 4.64063358 -0.86678118
-1.48548508 4.62363577 -0.89790750
-1.47781765 4.75944805 -0.85372263
-1.46600652 4.70650530 -0.84025526
-1.45582402 4.65279245 -0.82657653
-1.43835592 4.60329866 -0.81270695
-1.44210446 4.58795643 -0.85273439
-1.45582402 4.65279245 -0.82657653
-1.46600652 4.70650530 -0.84025526
-1.49740541 4.70694160 -0.80689341
-1.48418331 4.65445518 -0.79469365
-1.43835592 4.60329866 -0.81270695
-1.46539986 4.60567665 -0.77853405
-1.41929984 4.55415869 -0.79888517
-1.44768631 4.55617619 -0.76687962
-1.52763891 4.64622259 -0.78171015
-1.51034796 4.59513330 -0.76966035
-1.49016738 4.54635477 -0.75695622
-1.46975505 4.49783516 -0.74466109
-1.42578816 4.51057339 -0.75264883
-1.55770886 4.58080721 -0.77314305
-1.53736460 4.53085613 -0.76011860
-1.51531649 4.48164845 -0.74727142
-1.49082839 4.43481922 -0.73385173
-1.44545078 4.45309830 -0.73232502
-1.58302176 4.52301836 -0.73471731
-1.56174374 4.47202492 -0.72210860
-1.53620601 4.42393494 -0.71050185
-1.46434343 4.39007568 -0.72028202
-1.60648739 4.46454811 -0.68967366
-1.62826288 4.51681614 -0.70147806
-1.68138981 4.49940968 -0.68375099
-1.70164537 4.55330658 -0.69359940
-1.64869583 4.56951380 -0.71161956
-1.75212097 4.53030443 -0.72030252
-1.73019552 4.47593021 -0.71207619
-1.78360856 4.45381355 -0.71228069
-1.80426621 4.50957870 -0.72352624
-1.84211278 4.43094826 -0.69717753
-1.86197305 4.48792553 -0.70678061
-1.90242302 4.40729809 -0.68336934
-1.92002070 4.46580267 -0.69352442
-1.96500981 4.38133812 -0.67547017
-1.98088300 4.44158030 -0.68333524
-2.02781463 4.35359192 -0.67301661
-2.04757261 4.41283941 -0.68308312
-2.06038570 4.47408295 -0.68969417
-1.99316454 4.50176144 -0.69849974
-1.93305194 4.52712870 -0.70936364
-1.94166672 4.59089422 -0.73722535
-1.87719893 4.54885578 -0.72019345
-1.88918054 4.61491823 -0.74085122
-1.90005803 4.68231010 -0.75731748
-1.83406365 4.62814760 -0.74789840
-1.84455264 4.69123888 -0.76395577
-1.85727727 4.75753307 -0.77376324
-1.79788697 4.70511484 -0.74623543
-1.81192017 4.76826048 -0.75365072
-1.82317245 4.83067703 -0.76268131
-1.76193523 4.78226662 -0.73749799
-1.77251291 4.84121370 -0.74427259
-1.78226590 4.90018129 -0.74925470
-1.72992980 4.90424299 -0.77243423
-1.72098780 4.84728622 -0.76678419
-1.73604321 4.95982361 -0.77803659
-1.68408179 4.95975542 -0.80730909
-1.68034697 4.90527248 -0.80465108
-1.68477023 5.01211214 -0.80857682
-1.62562537 4.96261787 -0.80651855
-1.62440526 5.01380968 -0.80370367
-1.62222433 5.06356907 -0.80084801
-1.57189882 5.01691675 -0.81828892
-1.56744134 5.06686115 -0.81790721
-1.53360939 5.02182436 -0.85142583
-1.52558064 5.07166624 -0.85334778
-1.50218987 5.02609777 -0.88728899
-1.49732363 5.07649851 -0.88756841
-1.49732363 5.07649851 -0.88756841
-1.52125287 5.03268862 -0.92019421
-1.52018964 5.09239912 -0.91525298
-1.50218987 5.02609777 -0.88728899
-1.56204355 5.03565264 -0.93053335
-1.55931056 5.10002565 -0.92730957
-1.55447149 5.16334152 -0.92180949
-1.60112369 5.10483694 -0.93410462
-1.59600520 5.17048407 -0.93173963
-1.54557741 5.22585297 -0.91470772
-1.58792198 5.23362923 -0.92582381
-1.58080661 5.29542542 -0.92324752
-1.53965461 5.28471184 -0.90953475
-1.53139436 5.34279299 -0.91042078
-1.57225311 5.35479546 -0.92436522
-1.49213016 5.33188868 -0.89263231
-1.48204339 5.39110136 -0.89501095
-1.52132773 5.40470505 -0.91351497
-1.44314039 5.37939262 -0.87310588
-1.45298195 5.32118797 -0.87243122
-1.40586650 5.36774492 -0.84520328
-1.41313183 5.31467247 -0.84328133
-1.45298195 5.32118797 -0.87243122
-1.44314039 5.37939262 -0.87310588
-1.36421704 5.35666275 -0.81087363
-1.36992836 5.30814981 -0.81068283
-1.37462425 5.26046181 -0.80537355
-1.37994707 5.21340799 -0.79909647
-1.32153153 5.29586172 -0.78221446
-1.33049393 5.25527573 -0.77709597
-1.33795011 5.21092033 -0.76927185
-1.35269880 5.16855526 -0.74825287
-1.39383042 5.16815281 -0.77926338
-1.29327452 5.20533133 -0.74225521
-1.28208339 5.24096251 -0.75051564
-1.30777097 5.16996622 -0.72395563
-1.37910879 5.15410614 -0.71249193
-1.32801306 5.15210247 -0.69059378
-1.24226737 5.19264746 -0.71979135
-1.25570059 5.16437721 -0.70593542
-1.27227592 5.15040541 -0.67800558
-1.21065021 5.14616585 -0.66479713
-1.19964993 5.15017366 -0.68913519
-1.27227592 5.15040541 -0.67800558
-1.22177994 5.15015984 -0.63803267
-1.28718817 5.16154194 -0.64366221
-1.21065021 5.14616585 -0.66479713
-1.32801306 5.15210247 -0.69059378
-1.15566289 5.11927223 -0.63532686
-1.14978790 5.11680508 -0.65762043
-1.12391627 5.05455208 -0.63566762
-1.10774994 5.05738068 -0.66413605
-1.12391627 5.05455208 -0.63566762
-1.08776689 4.99957180 -0.67269629
-1.10988307 4.99394226 -0.64326018
-1.10774994 5.05738068 -0.66413605
-1.14978790 5.11680508 -0.65762043
-1.09140623 5.07015324 -0.68402362
-1.14161611 5.11949730 -0.68166542
-1.04951143 5.00562382 -0.69216812
-1.06991017 4.94090414 -0.66731203
-1.02886057 4.94565439 -0.67936176
-1.02540505 5.01982021 -0.71162635
-1.07502186 5.08530378 -0.70220053
-0.98920792 4.95225143 -0.70145082
-1.01538622 4.88593006 -0.65946740
-0.97286439 4.89138937 -0.67887795
-0.96119630 4.96075726 -0.73397434
-1.00399077 5.03855658 -0.73905194
-0.93918222 4.89346123 -0.71369147
-0.93552911 4.82782793 -0.69424683
-0.97314382 4.82375240 -0.65954238
-0.90564996 4.83035660 -0.74016970
-0.89653766 4.76744986 -0.72302186
-0.93341631 4.76379633 -0.68142688
-0.86205125 4.83525658 -0.77888852
-0.85131001 4.77207708 -0.76453507
-0.83916479 4.70951748 -0.74879813
-0.81174606 4.84229755 -0.81148022
-0.80141377 4.77735901 -0.80089575
-0.78971833 4.71475220 -0.78952754
-0.77734143 4.65408754 -0.77848637
-0.74788481 4.78224564 -0.83693606
-0.73672110 4.71995258 -0.82748979
-0.72506654 4.65878296 -0.81787312
-0.71406639 4.59886837 -0.81150746
-0.68079990 4.72403479 -0.86345518
-0.66932946 4.66330147 -0.85452008
-0.66106910 4.60379601 -0.85195744
-0.65276784 4.54525089 -0.85024673
-0.61545974 4.66585779 -0.89439076
-0.60528421 4.60670567 -0.88785464
-0.59685344 4.54816818 -0.88464451
-0.58648705 4.49161291 -0.87977827
-0.55140769 4.60796022 -0.92629403
-0.54244536 4.54935360 -0.92109382
-0.53192908 4.49251223 -0.91353548
-0.52087432 4.43603945 -0.90408915
-0.48772374 4.54943514 -0.95567566
-0.47653270 4.49238968 -0.94431424
-0.46533483 4.43518734 -0.93034923
-0.45664507 4.37739182 -0.92073941
-0.42117041 4.49097204 -0.97345048
-0.40987036 4.43349695 -0.95717508
-0.40325248 4.37332296 -0.94558871
-0.40092161 4.31174517 -0.94067478
-0.36145985 4.42739058 -0.99330401
-0.35329491 4.36751604 -0.97597903
-0.35208172 4.30420685 -0.96980417
-0.34854448 4.23980045 -0.95681381
-0.30148348 4.36281347 -1.00105321
-0.29680806 4.30050611 -0.98415762
-0.29291639 4.23603821 -0.96856374
-0.28586918 4.17651176 -0.93805760
-0.23988505 4.30119467 -0.98875809
-0.23649092 4.23672009 -0.97015178
-0.23157012 4.17299509 -0.94437551
-0.22880986 4.10732794 -0.92195940
-0.18229410 4.23458004 -0.98327160
-0.17795944 4.17120934 -0.95294946
-0.17494018 4.10357904 -0.92960638
-0.17387696 4.04009295 -0.90019071
-0.12364676 4.17125702 -0.96142793
-0.12123407 4.10229778 -0.93903220
-0.11929166 4.03584003 -0.91020262
-0.11960517 3.98563027 -0.86577922
-0.06700999 4.10436964 -0.94710857
-0.06332280 4.03569031 -0.91831315
-0.06158485 3.98070955 -0.87640458
-0.06164619 3.96845531 -0.80946964
-0.00639978 4.04191971 -0.92379957
-0.00191518 3.98518062 -0.88158441
-0.00980753 3.97933960 -0.80893117
-0.01446933 3.95147800 -0.75078821
0.04097474 3.99239802 -0.80621183
0.05369245 4.00912333 -0.87388968
0.03623115 3.95780945 -0.74971139
0.03585630 3.88874793 -0.73275441
0.08416453 3.96385479 -0.74605829
0.09293608 4.00472021 -0.80351967
0.08329897 3.89497066 -0.72680449
0.08534362 3.82488680 -0.71813518
0.13136865 3.97065663 -0.74183261
0.13046220 3.90154076 -0.72037071
0.13359733 3.83140230 -0.71159232
0.13701871 3.76396990 -0.70580596
0.17469476 3.90881968 -0.70894104
0.17992227 3.83945179 -0.70139629
0.18576993 3.77298689 -0.69662547
0.19043855 3.70787859 -0.69426733
0.22550429 3.84787560 -0.69014394
0.23341028 3.78260350 -0.68670893
0.24041660 3.71916509 -0.68514138
0.24871105 3.65971327 -0.68686569
0.28903833 3.73136449 -0.67388898
0.27850839 3.79363084 -0.67263490
0.29982728 3.67190623 -0.67781472
0.30913040 3.61655760 -0.68167907
0.34844223 3.68625283 -0.66670543
0.33348903 3.74429369 -0.65739542
0.36224359 3.63181758 -0.67345279
0.37427977 3.58480430 -0.68942147
0.31961265 3.56732249 -0.69456041
0.41123337 3.64716601 -0.66282058
0.39313823 3.70025873 -0.65048456
0.42716122 3.60163832 -0.68349880
0.42886505 3.59474111 -0.73037583
0.37427977 3.58480430 -0.68942147
0.42716122 3.60163832 -0.68349880
0.45758557 3.66303253 -0.65090030
0.47549671 3.61863637 -0.67478180
0.48018578 3.60925817 -0.72419417
0.47549671 3.61863637 -0.67478180
0.47867951 3.61332703 -0.77600557
0.52570647 3.63061118 -0.71478873
0.51890457 3.64033008 -0.66307962
0.52597225 3.63013411 -0.76934677
0.54205000 3.59005880 -0.79490489
0.56816018 3.65096903 -0.76262677
0.56460249 3.65464926 -0.70338643
0.58947903 3.60807920 -0.78457946
0.61156809 3.55732393 -0.78991598
0.60721982 3.67229462 -0.75528646
0.63189185 3.62827325 -0.77494228
0.65762717 3.57941294 -0.77790707
0.68341023 3.52884197 -0.77610779
0.67196703 3.64844060 -0.76676375
0.70142353 3.60168624 -0.76685232
0.72825617 3.55273724 -0.76568007
0.75643146 3.50126672 -0.76045257
0.74275959 3.62484503 -0.75832617
0.77375644 3.57782507 -0.75451630
0.80225205 3.52803111 -0.74905026
0.83262867 3.47616506 -0.74834144
0.84610289 3.55870080 -0.74232340
0.81495607 3.60844016 -0.75114262
0.87843561 3.50742793 -0.73751158
0.91271758 3.45100236 -0.74175090
0.92407215 3.54132128 -0.73310876
0.88963348 3.59177637 -0.73884070
0.96015346 3.48617029 -0.73873842
0.99614608 3.42765236 -0.74049681
1.00568104 3.52263308 -0.73861569
0.96812755 3.57740259 -0.73851353
1.04414761 3.46410179 -0.73886788
1.08416140 3.40201950 -0.73799551
1.08908892 3.50513124 -0.74168950
1.05054724 3.56170630 -0.74162138
1.13159037 3.44149470 -0.74083078
1.17692029 3.37639308 -0.73488766
1.17647719 3.48270798 -0.74431348
1.13408482 3.54610586 -0.74449748
1.22130966 3.41746330 -0.74021739
1.22057354 3.31400394 -0.69816577
1.26948154 3.35259342 -0.70007414
1.26419270 3.46133471 -0.74587429
1.21963978 3.52630687 -0.74875039
1.31231010 3.39510155 -0.70909101
1.31231010 3.39510155 -0.70909101
1.26948154 3.35259342 -0.70007414
1.35227621 3.44569993 -0.71991402
1.30602622 3.51025629 -0.75108129
1.39257622 3.49993753 -0.73351777
1.34685791 3.56278324 -0.75853741
1.43246734 3.55630159 -0.75146979
1.38688529 3.61803651 -0.76770431
1.47296500 3.50892043 -0.70128727
1.51106358 3.56767678 -0.73157531
1.46989119 3.61695290 -0.76839262
1.54668140 3.53533053 -0.68162453
1.58146083 3.60053444 -0.71954602
1.54800355 3.62696481 -0.76227230
1.61758983 3.58391809 -0.68282408
1.61820328 3.66252136 -0.76073885
1.64789152 3.64692068 -0.72062963
1.68293691 3.63236260 -0.70406115
1.67914057 3.70674706 -0.76329464
1.71235240 3.68983769 -0.74318892
1.74735689 3.67147684 -0.73242044
1.77249920 3.71648622 -0.78492022
1.74174082 3.74174452 -0.78894818
1.80853271 3.77311635 -0.85080558
1.77322173 3.80031681 -0.84317911
1.85260177 3.83991504 -0.89440429
1.81258798 3.86782455 -0.88394940
1.89164782 3.81278944 -0.90781039
1.93722975 3.78494120 -0.91802007
1.93324280 3.87316108 -0.93610156
1.88654971 3.90458035 -0.92659396
1.97856569 3.83965611 -0.94226956
1.98150325 3.75261545 -0.92003745
1.97856569 3.83965611 -0.94226956
1.93722975 3.78494120 -0.91802007
2.01746869 3.89262605 -0.96474028
1.96917391 3.92996812 -0.96069866
1.92272639 3.96474767 -0.95232242
2.01072812 3.98434901 -0.97905284
1.96447814 4.02120733 -0.97356629
2.05882502 3.94341516 -0.98096114
2.01083708 4.07483816 -0.98717004
2.05695772 4.03164148 -0.98982811
2.10413456 3.98986936 -0.99241805
2.05954742 4.12466669 -0.99664360
2.10592699 4.07997036 -0.99799305
2.15257215 4.03460646 -0.99941069
2.11006379 4.17068434 -1.00084198
2.15638208 4.12509584 -1.00306380
2.20231843 4.07941818 -1.00512886
2.16145968 4.21560574 -1.00551057
2.20798206 4.16957378 -1.00614440
2.25401402 4.12196732 -1.00946355
2.21402073 4.25832510 -1.01284409
2.26040721 4.21152353 -1.01482737
2.30602980 4.16385555 -1.01318479
2.26716805 4.29989243 -1.02073634
2.31321335 4.25283194 -1.01828289
2.35874748 4.20511675 -1.01655161
2.31942248 4.33955860 -1.02253568
2.36504507 4.29266167 -1.01985729
2.41094732 4.24558020 -1.01880074
2.37040234 4.37867355 -1.02263105
2.41535068 4.33139420 -1.01980948
2.45993066 4.28335142 -1.01689243
2.41911268 4.41572189 -1.02116573
2.46387672 4.36865425 -1.01745129
2.50757766 4.32020998 -1.01266003
2.46635771 4.45298958 -1.01764214
2.51114202 4.40582609 -1.01215565
2.55475450 4.35727930 -1.00771201
2.51027679 4.48937035 -1.00748706
2.55548406 4.44251394 -1.00133264
2.59933496 4.39336729 -0.99847013
2.54864097 4.52307987 -0.98361915
2.59452319 4.47575998 -0.97792143
2.63872147 4.42620420 -0.97606081
2.61355853 4.49246454 -0.93180782
2.56858325 4.54176140 -0.93802351
2.65552831 4.43990374 -0.92831147
2.61355853 4.49246454 -0.93180782
2.65552831 4.43990374 -0.92831147
2.63465929 4.42120218 -0.88134587
2.46404004 4.53529978 -1.01434338
2.42001891 4.49840784 -1.02358520
2.37304664 4.54172039 -1.02821290
2.32548118 4.50465059 -1.03041446
2.37277412 4.46109295 -1.02658415
2.27765036 4.54916286 -1.03252029
2.22842884 4.51402187 -1.02984869
2.27635503 4.46859694 -1.02776313
2.18132019 4.56113768 -1.02986920
2.13020372 4.52833462 -1.02208591
2.17780304 4.47877216 -1.02394652
2.08243394 4.57898045 -1.02068865
2.02878237 4.54501200 -1.01105833
2.07745171 4.49252605 -1.01257825
1.97885883 4.60391808 -1.01120150
1.92543900 4.56764650 -0.99379474
1.97527385 4.50707674 -0.99789083
1.92459381 4.46205378 -0.98385769
1.87508607 4.52468824 -0.97803050
1.87614930 4.41088963 -0.96938843
1.82619858 4.46728134 -0.96684629
1.82985842 4.35062695 -0.95845640
1.78180242 4.39807701 -0.95292902
1.72839618 4.44603729 -0.95543027
1.73821044 4.32969666 -0.94348955
1.68784392 4.36967659 -0.94289660
1.63554192 4.40926123 -0.94644064
1.67233181 4.48828030 -0.96053511
1.58006370 4.44197512 -0.94874430
1.61067212 4.52048302 -0.96373838
1.52192760 4.46789503 -0.94796050
1.54722655 4.54257250 -0.96443355
1.56879091 4.62122345 -0.97779191
1.48307908 4.56209183 -0.96161878
1.50201273 4.63686466 -0.97393441
1.58426893 4.70112085 -0.98971909
1.51223588 4.70908165 -0.98344880
1.44733870 4.71691942 -0.97582227
1.43461418 4.64785814 -0.96730286
1.45675766 4.78726196 -0.98344880
1.38425457 4.72591591 -0.96756190
1.37199342 4.65911722 -0.95839500
1.31150591 4.66957903 -0.94980752
1.35727191 4.59346342 -0.94630432
1.29723430 4.60860729 -0.93747151
1.23750997 4.62161160 -0.92740500
1.22393358 4.56288910 -0.91320831
1.28144956 4.54718637 -0.92349970
1.16973674 4.57682657 -0.89711696
1.15600348 4.52133560 -0.87977827
1.20701063 4.50542736 -0.89760083
1.12551773 4.53731060 -0.84350622
1.11003971 4.48626280 -0.82548600
1.14048469 4.46859694 -0.86258280
1.10351741 4.50493717 -0.78286874
1.11292279 4.55336094 -0.79935545
1.09086108 4.43706131 -0.80671620
1.08714652 4.45656061 -0.75984603
1.10351741 4.50493717 -0.78286874
1.08714652 4.45656061 -0.75984603
1.09482086 4.47834301 -0.72132486
1.09086108 4.43706131 -0.80671620
1.06838357 4.39094782 -0.78361845
1.08714652 4.45656061 -0.75984603
1.06265843 4.40723038 -0.73082560
1.04716694 4.34422112 -0.76267445
1.04202116 4.35640001 -0.70656246
1.02512550 4.30002928 -0.74676704
1.02035475 4.31029987 -0.68747908
1.00729620 4.32128668 -0.63042659
0.99856555 4.26669455 -0.67106056
0.98268545 4.27939177 -0.61162943
0.97610176 4.33971596 -0.58859307
0.94199014 4.30083990 -0.57614112
0.92684609 4.37342501 -0.57744974
0.88883609 4.33357477 -0.56281680
0.97184879 4.40484476 -0.58047575
0.90681535 4.25979042 -0.56628591
0.85281616 4.29773951 -0.55305701
0.79943717 4.33438587 -0.56818742
0.72606164 4.30578136 -0.60642236
0.74769402 4.36036015 -0.59296179
0.77237970 4.28471470 -0.58357686
0.81961793 4.25559902 -0.56163776
0.87370569 4.21776628 -0.56137878
0.84347212 4.17664146 -0.56837142
0.79157895 4.20919228 -0.58484453
0.74487239 4.23432779 -0.60171288
0.71301675 4.18832302 -0.60660642
0.69736153 4.25640297 -0.60963243
0.66826618 4.21020126 -0.60026801
0.76201332 4.16532087 -0.59784168
0.81601250 4.13593912 -0.57801539
0.78402060 4.09939480 -0.58923376
0.72572082 4.12401867 -0.60632694
0.67790329 4.14360666 -0.60217631
0.64663380 4.10092831 -0.58740032
0.63750786 4.16472816 -0.58500129
0.60918266 4.12391663 -0.56337571
0.69050509 4.08151722 -0.60232627
0.66373390 4.03971815 -0.59503365
0.62350881 4.06153440 -0.56341660
0.75455719 4.06394005 -0.59339118
0.73164350 4.02457428 -0.59735096
0.78205091 3.99874330 -0.60749239
0.76377177 3.96159220 -0.60433686
0.71243060 3.98439002 -0.59845507
0.65087306 4.00168085 -0.58117777
0.80893117 4.03207779 -0.60120851
0.84373796 4.01307631 -0.64332145
0.81502426 3.97610903 -0.64482772
0.83934194 4.06774998 -0.59454298
0.87233573 4.05174732 -0.64225143
0.88523751 4.04056311 -0.69554859
0.85805732 3.99784374 -0.69084591
0.90079731 4.09233379 -0.64132452
0.87261522 4.10501051 -0.58808869
0.91194743 4.08371925 -0.70070118
0.92279088 4.06547403 -0.75270337
0.88523751 4.04056311 -0.69554859
0.91194743 4.08371925 -0.70070118
0.89513361 4.02319717 -0.74566978
0.93784636 4.12716770 -0.70637846
0.92886347 4.13311052 -0.64527756
0.94918734 4.10852718 -0.75960064
0.93784636 4.12716770 -0.70637846
0.98945332 4.07577229 -0.78300506
0.96070546 4.03350925 -0.77675527
0.97503853 4.15119886 -0.76723397
0.96272963 4.16986704 -0.71168089
1.01651073 4.11858034 -0.79094511
1.06475079 4.08388948 -0.79668373
1.03637123 4.04024982 -0.78726476
1.04365695 4.16189289 -0.79981208
1.00009227 4.19350290 -0.77580106
1.09224463 4.12804031 -0.80681837
1.14246106 4.09379911 -0.80756128
1.11451757 4.04839420 -0.79617262
1.11931574 4.17503977 -0.81965882
1.06880605 4.20686817 -0.81268656
1.17004347 4.14163017 -0.82152623
1.22114611 4.10698032 -0.82119912
1.19322300 4.05786753 -0.80668890
1.19710100 4.19120598 -0.83623409
1.14531684 4.22218227 -0.83260828
1.24807405 4.15630388 -0.83737910
1.29941523 4.12217855 -0.83979177
1.27175796 4.07056522 -0.82218730
1.27528834 4.20961523 -0.85485405
1.22321117 4.24076843 -0.85086697
1.32714748 4.17628717 -0.85763478
1.37848186 4.13968754 -0.85727352
1.35138345 4.08468008 -0.83623409
1.35420489 4.23340797 -0.87437361
1.30169845 4.26469088 -0.87041384
1.40625489 4.19967747 -0.87791085
1.45658052 4.16242409 -0.88136631
1.42946172 4.10242081 -0.85743713
1.43408263 4.26179409 -0.89561749
1.38128972 4.29379320 -0.89186221
1.48551226 4.22793484 -0.89869130
1.53499961 4.19127417 -0.90183324
1.50629282 4.12551832 -0.88127774
1.51515281 4.29549646 -0.91556644
1.46311653 4.32769346 -0.91262901
1.56684160 4.26219654 -0.91719538
1.61570871 4.22490215 -0.91716814
1.58266723 4.15262365 -0.90440947
1.59949470 4.33443403 -0.93283015
1.54785371 4.36781597 -0.93130344
1.65012693 4.29640341 -0.93333447
1.69904184 4.25593948 -0.93651736
1.66236758 4.18516779 -0.92257965
1.70843363 4.14593744 -0.92509449
1.67474461 4.07572412 -0.90419823
1.62962592 4.11403418 -0.90564311
1.74620509 4.21572161 -0.94004774
1.79060113 4.17613029 -0.94361222
1.75410414 4.10661221 -0.92551023
1.78654599 4.28381538 -0.95102066
1.83275497 4.24016857 -0.95770669
1.87838471 4.19744921 -0.96382016
1.83555627 4.13422155 -0.95018917
1.87736917 4.30307579 -0.96498567
1.92435527 4.25490379 -0.97349817
1.96898997 4.21111393 -0.98234469
1.92149270 4.15639925 -0.97443873
1.97196162 4.30798292 -0.98297173
1.92475057 4.35725212 -0.97637433
2.01761174 4.26260519 -0.99136162
2.06373215 4.21637583 -0.99794537
2.01406074 4.16771317 -0.99085039
2.02097869 4.35710859 -0.99488521
2.06782150 4.30928469 -1.00144851
2.11454177 4.26217556 -1.00579679
2.11992574 4.35243368 -1.01011097
2.16710305 4.30484056 -1.01340294
2.17299151 4.39298582 -1.01856220
2.22011375 4.34629250 -1.02267873
2.22631574 4.43215466 -1.02545273
2.27301574 4.38588381 -1.02503705
2.32372260 4.42379856 -1.02535045
2.12531710 4.44182539 -1.01516807
2.07163119 4.40204334 -1.00658739
2.02358890 4.45327568 -1.00234139
1.97339964 4.40761185 -0.98900342
1.96569812 4.11550665 -0.98214704
1.92016375 4.05794287 -0.96812755
1.87715793 4.09572077 -0.96061689
1.87922978 3.99787092 -0.94496852
1.83698058 4.03272533 -0.93875277
1.79625797 4.06895638 -0.93089449
1.80115831 3.96532011 -0.91050255
1.76042902 4.00116968 -0.90613377
1.71983588 4.03739405 -0.90278059
1.73106790 3.93062925 -0.88023490
1.68967044 3.96604252 -0.88035762
1.64540386 4.00598145 -0.88112777
1.66273570 3.89565206 -0.85101008
1.61798513 3.93746519 -0.85374993
1.57285976 3.97936010 -0.85660559
1.60069418 4.04524517 -0.88146853
1.52623498 4.02020550 -0.85731441
1.55379677 4.08611107 -0.88127774
1.47856045 4.06133699 -0.85753250
1.49875486 3.96112847 -0.83562750
1.45037162 4.00315285 -0.83828557
1.40126598 4.04564095 -0.83892626
1.42277563 3.94699335 -0.81462210
1.37303615 3.98832250 -0.81885457
1.32286739 4.03104877 -0.82034719
1.34392035 3.93595886 -0.80086166
1.29379237 3.97807860 -0.80388093
1.24396431 4.01978254 -0.80508047
1.26409054 3.92815518 -0.78887999
1.21390116 3.97150874 -0.79209012
1.16460466 4.01106548 -0.79482311
1.18357229 3.92447472 -0.78029931
1.13450742 3.96408653 -0.78324360
1.08578348 4.00362301 -0.78645372
1.10430110 3.91953373 -0.77305442
1.05574071 3.95916557 -0.77633268
1.00790966 3.99720311 -0.77883399
1.02572536 3.91648030 -0.76998067
0.97829634 3.95537615 -0.77467650
0.93195772 3.99165511 -0.77143234
0.94875795 3.91326332 -0.76951724
0.90319633 3.94997168 -0.76627982
0.87014800 3.97916937 -0.73736846
0.87406689 3.90903091 -0.76120228
0.84262019 3.93670869 -0.72973514
0.82990932 3.95615339 -0.68681800
0.85805732 3.99784374 -0.69084591
0.80512816 3.91235685 -0.67696953
0.81502426 3.89437747 -0.72135210
0.82990932 3.95615339 -0.68681800
0.80512816 3.91235685 -0.67696953
0.79595447 3.93505263 -0.63499975
0.78686947 3.86933756 -0.65988308
0.77963817 3.89611554 -0.61855394
0.74599010 3.92378640 -0.59203488
0.72623199 3.88606286 -0.57287651
0.76184976 3.85492277 -0.59320712
0.69472390 3.94460106 -0.58930868
0.63707846 3.96768498 -0.56674254
0.60542732 3.98849273 -0.52015865
0.61367404 4.02471018 -0.54300416
0.56907350 3.99812317 -0.49644071
0.57664543 4.04337835 -0.51305008
0.58907014 4.08444834 -0.53689069
0.54485118 4.10002136 -0.53164959
0.52884841 4.05211544 -0.51153708
0.56935972 4.14350414 -0.55645114
0.53345567 4.14520168 -0.58262271
0.50387645 4.10379744 -0.55664194
0.56626546 4.18410444 -0.60753328
0.59867996 4.18531036 -0.57980782
0.58600998 4.23451185 -0.62383598
0.62496734 4.23065376 -0.59782124
0.60434365 4.28613901 -0.63609028
0.65066856 4.27719021 -0.61342871
0.62576473 4.33658743 -0.64688599
0.67645156 4.32464027 -0.62310672
0.64443237 4.38843966 -0.65282226
0.69882005 4.37729645 -0.62152553
0.66059875 4.44377518 -0.65402865
0.60572720 4.44278669 -0.70291615
0.59480196 4.38843966 -0.69705486
0.66613293 4.50170660 -0.65950143
0.61057305 4.49959373 -0.71069264
0.57017761 4.43644142 -0.76242226
0.57060695 4.49555874 -0.76698869
0.56749231 4.55795431 -0.77023286
0.51881599 4.55483294 -0.81647599
0.52914149 4.49226665 -0.82160127
0.52135134 4.61901474 -0.82454550
0.46878341 4.61583900 -0.86673349
0.46834040 4.55098248 -0.86122656
0.47762311 4.68008852 -0.88078701
0.42384204 4.67666054 -0.92202753
0.41652220 4.61200857 -0.90941888
0.43125731 4.74231386 -0.93369567
0.37538385 4.73811531 -0.97272122
0.36874557 4.67265987 -0.96104628
0.38264918 4.80355072 -0.98431438
0.31833136 4.80039549 -1.01148093
0.31455559 4.73401260 -1.00432467
0.32366788 4.86672401 -1.01767623
0.26353475 4.86287355 -1.05247617
0.25784382 4.79634047 -1.04277778
0.26155147 4.92808390 -1.04887748
0.19683832 4.92077065 -1.08032429
0.19733584 4.85705948 -1.07726407
0.19310343 4.98353481 -1.07585335
0.12750427 4.97579956 -1.10418534
0.12828124 4.91303539 -1.10229063
0.13018958 5.03691387 -1.11776865
0.05862005 5.02989388 -1.13256514
0.05722288 4.96909285 -1.11282742
0.05962875 5.09267139 -1.14236569
-0.01324254 5.08577394 -1.15265715
-0.01366509 5.02513695 -1.12952530
-0.01333114 5.14931488 -1.16104019
-0.08721112 5.14350128 -1.16417527
-0.08557540 5.07946301 -1.15305245
-0.08901722 5.20830297 -1.15887284
-0.16203164 5.20328712 -1.15671909
-0.15946220 5.13761282 -1.15988147
-0.16367418 5.26502180 -1.13689291
-0.23467121 5.26136827 -1.12943673
-0.23377153 5.19876814 -1.14887452
-0.23221761 5.31519032 -1.09163117
-0.29521325 5.30646658 -1.06764734
-0.30297607 5.25794029 -1.11329758
-0.29504287 5.36411190 -1.03692317
-0.35718656 5.35934114 -1.01414585
-0.35598701 5.29856730 -1.04089653
-0.36107135 5.42197609 -0.99267697
-0.41904399 5.41760683 -0.96359527
-0.41554084 5.35490465 -0.98540485
-0.41225576 5.46745539 -0.92205483
-0.47100532 5.47262812 -0.90077001
-0.47344527 5.41430807 -0.93139207
-0.46385589 5.52643681 -0.86254871
-0.51718712 5.52751398 -0.83297628
-0.52572018 5.47352123 -0.87265611
-0.50964236 5.58453846 -0.79495943
-0.56125617 5.58417082 -0.76146126
-0.56640190 5.52402449 -0.79793102
-0.55162585 5.64361572 -0.72104537
-0.60282379 5.64315939 -0.68416673
-0.61096150 5.58034039 -0.72666132
-0.57737476 5.69300032 -0.62833422
-0.62553310 5.68954515 -0.58196151
-0.64469826 5.63099337 -0.63889140
-0.65569848 5.57051277 -0.68872631
-0.69705486 5.55706549 -0.65134335
-0.65640724 5.50820541 -0.72336262
-0.70191437 5.49877977 -0.69079143
-0.74713516 5.55087709 -0.62938380
-0.75232857 5.49563074 -0.66795272
-0.79911697 5.54871655 -0.62122566
-0.80328119 5.49511957 -0.65507138
-0.85204607 5.60249758 -0.57528239
-0.76045263 5.44745874 -0.70479041
-0.81188238 5.45334721 -0.69021893
-0.86314851 5.46464109 -0.68612963
-0.87472123 5.42838192 -0.71283269
-0.91453731 5.48135185 -0.68844688
-0.92869997 5.44849491 -0.71212393
-0.82324380 5.41248846 -0.72189051
-0.83750862 5.37295866 -0.75543636
-0.88889062 5.38797998 -0.73693234
-0.77319765 5.40567970 -0.74410903
-0.78802812 5.36465073 -0.78154653
-0.85400891 5.33113194 -0.78909129
-0.80476701 5.32153606 -0.82027221
-0.72381932 5.40486860 -0.77074397
-0.73838407 5.35936165 -0.81053287
-0.75500709 5.31439304 -0.85070336
-0.76753396 5.25960350 -0.88365632
-0.81982237 5.27015400 -0.85372263
-0.70273221 5.30849123 -0.87968969
-0.68996680 5.35914326 -0.84253842
-0.71365744 5.25539112 -0.91644567
-0.72167927 5.19300222 -0.94020444
-0.77698702 5.19861126 -0.90849197
-0.65906531 5.25190163 -0.94879198
-0.65108436 5.30783653 -0.91187924
-0.66387701 5.18943787 -0.97045171
-0.72165203 5.12427473 -0.94568413
-0.66480398 5.12128258 -0.97677642
-0.60569322 5.18825150 -1.00086915
-0.60360080 5.25200415 -0.98011607
-0.60832393 5.11981726 -1.00781417
-0.65719783 5.05407524 -0.96031016
-0.60127676 5.05157423 -0.99346077
-0.55062395 5.11934757 -1.03667784
-0.54818404 5.18801355 -1.03331101
-0.54465359 5.05008125 -1.02565038
-0.59188497 4.98592710 -0.96877509
-0.53598428 4.98444128 -1.00417471
-0.49497542 5.11799765 -1.07164812
-0.48768967 5.05005407 -1.05716527
-0.47912261 4.98438692 -1.03884518
-0.52966630 4.91854906 -0.99000531
-0.47198677 4.91978264 -1.02461445
-0.42748839 5.05148506 -1.08722830
-0.41931662 4.98684692 -1.06906509
-0.41267830 4.92276096 -1.05522954
-0.46735224 4.85531521 -1.01992536
-0.40714413 4.85807514 -1.04905486
-0.35652542 4.99180889 -1.09328735
-0.34997573 4.92813826 -1.07746851
-0.34575015 4.86344624 -1.07312703
-0.34032503 4.79896402 -1.06941950
-0.40238690 4.79407072 -1.04678524
-0.28520811 4.93426514 -1.09584999
-0.28109154 4.86991358 -1.08860505
-0.27650470 4.80541849 -1.08559263
-0.21572410 4.87585688 -1.10268593
-0.21128723 4.81155920 -1.09728801
-0.20681626 4.74734354 -1.09373724
-0.20217490 4.68246031 -1.08841431
-0.27137944 4.74104595 -1.08236206
-0.26566127 4.67666054 -1.07776165
-0.14080818 4.75348473 -1.09841931
-0.13697787 4.68856049 -1.09428239
-0.13360420 4.62404442 -1.08433175
-0.19793567 4.61789703 -1.08024931
-0.07415944 4.76033449 -1.09738338
-0.07107202 4.69548464 -1.09206057
-0.06865252 4.63053989 -1.08402514
-0.06689412 4.56507015 -1.07750261
-0.13119833 4.55893612 -1.07694376
-0.00413022 4.70260715 -1.09281707
-0.00286254 4.63736200 -1.08275068
-0.00194245 4.57177687 -1.07421076
-0.00207194 4.50591183 -1.06495535
-0.06603537 4.50048685 -1.06432152
0.06360900 4.64470911 -1.08206904
0.06344543 4.57800627 -1.07317483
0.06262075 4.51153421 -1.06308103
0.06027623 4.44643927 -1.04872084
-0.00340778 4.44038725 -1.05270779
0.12788594 4.58463049 -1.06553459
0.12787230 4.51713657 -1.05944848
0.12537101 4.45148325 -1.04374552
0.12032074 4.38882828 -1.02081144
0.05705249 4.38174677 -1.03141630
0.19145408 4.52365923 -1.04396355
0.19030908 4.45695591 -1.03243852
0.18443410 4.39479828 -1.00755525
0.17440169 4.33722830 -0.97648335
0.11452758 4.32696390 -0.99797940
0.25083748 4.46558475 -1.00722802
0.24143209 4.40639877 -0.97711718
0.23460978 4.34642887 -0.95356965
0.23361473 4.28326988 -0.94075656
0.17616692 4.27250147 -0.97065610
0.29894808 4.41478205 -0.94701314
0.29731917 4.35088682 -0.93765551
0.29545856 4.28884506 -0.92352694
0.29069450 4.22759390 -0.90346211
0.23273554 4.22122145 -0.92812741
0.35873362 4.35550022 -0.91620028
0.35619825 4.29254580 -0.90539092
0.34806734 4.23228312 -0.88240910
0.34560013 4.16703844 -0.87143612
0.28673470 4.16266966 -0.89068991
0.40843904 4.30167150 -0.86799431
0.39847475 4.24230194 -0.84939480
0.39854974 4.17801809 -0.83988714
0.38770628 4.11768723 -0.81714392
0.33637196 4.10501766 -0.85032171
0.43431062 4.19557524 -0.79194015
0.43876114 4.25572872 -0.80324024
0.42884457 4.13666153 -0.77375644
0.35921749 4.07213259 -0.77612144
0.39916995 4.09001637 -0.74183947
0.45746291 4.15705395 -0.72811306
0.47377920 4.20915127 -0.74750316
0.43322015 4.10977459 -0.70237094
0.36246169 4.05956507 -0.69520783
0.40275490 4.07277298 -0.66527420
0.49844444 4.16610479 -0.68903983
0.47005114 4.12401867 -0.66319543
0.44143280 4.08611107 -0.63230085
0.38362381 4.02570534 -0.63358212
0.41831464 4.03752327 -0.60189688
0.50674576 4.13259983 -0.62374055
0.47122338 4.09623194 -0.59378642
0.45038837 4.04810810 -0.56711060
0.44546077 3.99141669 -0.55061024
0.40944770 3.98021889 -0.58102101
0.48606753 4.05390787 -0.53393960
0.48051971 3.99802780 -0.51882285
0.48841888 3.93954396 -0.51736426
0.45477760 3.93165159 -0.54928809
0.52182162 4.00080156 -0.49726540
0.52443874 3.94291759 -0.49023864
0.50038010 3.88042617 -0.52461600
0.53336710 3.88421583 -0.49456641
0.56792164 3.94695234 -0.48366848
0.57211316 3.89207411 -0.48634014
0.54947209 3.82443690 -0.51181650
0.58990157 3.83515763 -0.50658900
0.54192734 3.76335669 -0.55949771
0.51792312 3.82056570 -0.53955549
0.57956249 3.77362752 -0.53669304
0.61963075 3.79198146 -0.53113836
0.61263806 3.73480654 -0.56810564
0.65186131 3.75666356 -0.56620413
0.65888125 3.81766248 -0.53967142
0.69120717 3.78150630 -0.56399590
0.67014724 3.73161674 -0.62262964
0.70244586 3.75921273 -0.62031233
0.69735467 3.84934092 -0.55300254
0.73205239 3.81473851 -0.57169741
0.73503077 3.79271770 -0.62814337
0.73503077 3.79271770 -0.62814337
0.73227054 3.78308725 -0.69105721
0.70220733 3.75254726 -0.68674982
0.70244586 3.75921273 -0.62031233
0.76516211 3.82776308 -0.63843477
0.76516211 3.82776308 -0.63843477
0.76128411 3.81601977 -0.70023769
0.78322315 3.79606414 -0.74447024
0.75114942 3.76552391 -0.74048996
0.78686947 3.86933756 -0.65988308
0.78852558 3.85443211 -0.71183085
0.81312954 3.83248591 -0.75232852
0.85596490 3.79379439 -0.75919169
0.82130820 3.75838113 -0.75530010
0.84493750 3.86808348 -0.75612479
0.88765013 3.83274531 -0.76199973
0.89513361 3.75589347 -0.75671089
0.93088084 3.79363775 -0.75902134
