-3.96356654 -8.14271736 0.83295339
-4.14243364 -7.91627884 0.63195699
-4.10493708 -7.25032854 0.05860594
-4.07421494 -7.24034834 -0.01417204
-4.16305971 -7.33532524 0.11822046
-4.17765713 -7.43050098 0.18752393
-3.96120024 -7.13608980 0.03936793
-4.15414000 -7.51019430 0.26068667
-4.19254589 -7.58186436 0.32854438
-4.21621418 -7.66232538 0.40451705
-4.20815754 -7.74968910 0.48518845
-4.18474579 -7.83516502 0.56068307
-4.42930126 -8.42764759 0.64453745
-4.36663198 -8.37557793 0.63600278
-3.72017694 -6.66066599 -0.04483626
-3.76954246 -6.63430405 -0.10173415
-4.54504490 -8.54925537 0.65834218
-4.48843813 -8.48536301 0.65162635
-4.64221382 -8.69729614 0.67263663
-4.59615946 -8.62019253 0.66557103
-4.67094231 -8.77372265 0.68507719
-4.66809797 -8.85552502 0.77283752
-4.65592527 -8.94039440 0.85554928
-4.63054323 -9.02604485 0.93232644
-4.87680101 -9.26384926 0.80546057
-4.78146172 -9.24704742 0.87201238
-4.68902588 -9.23042202 0.93967193
-4.59605455 -9.11233521 1.00602555
-4.59966898 -9.19431210 1.00417173
4.17223501 -6.56177092 0.30421123
4.18093300 -6.57091188 0.38271397
4.18982840 -6.81284475 0.55797809
4.16855049 -6.71222353 0.51111895
4.23224545 -6.90306520 0.59313118
4.29408741 -6.94254398 0.66600245
4.31903791 -7.00367403 0.75842649
4.29967165 -7.04354906 0.85572422
4.16389847 -6.59777546 0.46310553
4.24023247 -7.08088207 0.94743705
4.18682098 -7.14693308 0.96187133
3.91716170 -6.87813711 0.78589600
3.91325593 -6.77987146 0.71419072
3.90699530 -6.69112015 0.64027017
3.88905144 -6.60119152 0.57104826
3.86630392 -6.51147223 0.50406504
3.93137479 -6.98087978 0.84755093
3.83785462 -6.42261600 0.43534452
3.80261993 -6.33557844 0.36614594
3.94320941 -7.15058231 0.89213651
3.94499278 -7.07572889 0.90707225
3.74832225 -6.25579309 0.30577359
3.67348075 -6.18266582 0.25638434
3.59392858 -6.18014717 0.10716734
3.61490369 -6.10439587 0.19376171
3.57858491 -6.10122442 0.11974784
3.57456231 -6.08796787 0.03854011
4.11083651 -6.26901484 0.10688752
4.15016413 -6.33733940 0.20378880
4.17068386 -6.40910244 0.29751873
4.17421722 -6.48519230 0.30816376
4.09871101 -6.18060207 0.08852396
4.00186729 -6.11985636 0.02163398
3.89661860 -6.06397295 -0.02277668
3.78462982 -6.01514339 -0.02615791
3.60944724 -5.99564886 0.01079073
3.67882061 -5.96838903 -0.01142042
4.19332695 -7.32470369 0.89210153
3.91428232 -7.86694860 1.11829388
3.84780073 -7.95390463 1.15187299
3.77963948 -8.04272556 1.18333006
3.71030116 -8.13287544 1.20826948
3.63470149 -8.21881771 1.22648156
3.69390798 -8.43185711 1.14305854
3.72795343 -8.48346138 1.18453097
3.83382058 -8.51976871 1.18458927
3.94056296 -8.55953979 1.17811823
3.62574697 -8.44210625 1.18384302
3.55650187 -8.30190182 1.24285126
3.54934287 -8.37604427 1.22022033
3.98411059 -8.61369705 1.22130477
4.02739000 -8.67342854 1.26445615
4.11968565 -8.72767925 1.25133932
4.09260082 -8.79921150 1.33624303
3.17173004 -5.27741766 -0.21024819
3.07840824 -5.23465109 -0.26809046
3.17932034 -5.34872723 -0.17110759
3.21405363 -5.31675673 -0.10921948
3.25215673 -5.35227156 -0.00623199
3.02109075 -5.27126169 -0.31380698
2.96415782 -5.30664825 -0.36546978
3.06191015 -5.36431551 0.18576337
2.99617434 -5.31616211 0.17090929
3.21836758 -5.44118595 0.13022964
3.20676637 -5.43154335 0.20870906
3.13130689 -5.37169600 0.27081868
3.06550121 -5.32572317 0.25601128
3.06191015 -5.36431551 0.18576337
3.13520098 -5.40528679 0.19644338
2.93292212 -5.26663303 0.15266232
4.06054974 -8.87983608 1.41085160
4.08496428 -8.95660114 1.42881882
4.04331636 -9.04296207 1.49562716
3.99095464 -9.13124657 1.55465865
3.99311185 -9.21522999 1.55388916
4.00220537 -9.29724216 1.56140947
4.44029570 -9.49779510 1.47923398
4.54416943 -9.54397869 1.46829748
4.28063202 -9.46081161 1.54600739
4.38619661 -9.49687386 1.53666818
4.02711010 -9.37147617 1.58987010
4.80535221 -9.74188519 1.38130665
4.83728695 -9.83148670 1.31276107
4.86150360 -9.91779041 1.24002969
4.74565601 -9.65238667 1.43180358
4.64727354 -9.59181595 1.45358324
-2.38013840 -4.92107201 -1.83931136
-2.34449577 -4.81954193 -1.86672258
-2.37518334 -5.16324902 -1.41552711
-2.44045281 -5.12139177 -1.44450068
-2.46960115 -5.08720684 -1.54734838
-2.49117112 -5.03833055 -1.64475095
-2.44716859 -5.02860641 -1.71165252
-2.43498445 -4.94162750 -1.78448880
-2.31461287 -4.71702051 -1.88915527
-2.04066348 -4.56371117 -1.93974555
-2.11418772 -4.60539341 -1.94543529
-2.29050112 -4.61235428 -1.91859531
-2.22270155 -4.57430935 -1.93698215
-1.92226219 -4.57692099 -1.94144762
-1.67055905 -4.56589127 -1.82266176
-1.74809408 -4.54239750 -1.88842070
-1.61368454 -4.57528877 -1.72050202
-1.85543048 -4.52608585 -1.90609634
-1.57926595 -4.62898016 -1.58711851
-1.59349048 -4.58325243 -1.61796927
3.79359555 -9.59341335 1.42648685
3.78689194 -9.51703262 1.43809962
3.81220388 -9.67251205 1.43456674
3.84045482 -9.74504471 1.45767570
4.81199789 -9.91109753 1.30698955
4.72077465 -9.97993374 1.35784793
4.54702663 -9.97941113 1.43525469
4.42800713 -9.98527431 1.45230079
4.66709423 -9.96808815 1.41859341
4.15759087 -9.96395016 1.51441038
4.32285070 -9.97995853 1.45518064
4.26745701 -9.97753239 1.50968838
4.01562595 -9.92452908 1.52989411
3.90821934 -9.87370682 1.53069854
3.87233162 -9.81263447 1.49041533
3.92225718 -8.90413284 1.36459875
3.80485892 -8.85588741 1.38833725
3.66176295 -8.81406498 1.36388755
3.54938960 -8.78988361 1.34165299
3.43146658 -8.76441956 1.34293556
3.31371832 -8.71599674 1.30047202
3.21391368 -8.65769958 1.27758467
4.09379005 -7.49207401 1.04205310
4.04245377 -7.52631807 1.10044336
4.00197268 -7.62567997 1.14328003
3.94509792 -7.71889687 1.18245554
3.92971945 -7.79405403 1.15070701
3.90924573 -7.31658888 0.91279697
3.93720484 -7.23088074 0.86785001
3.57824659 -7.66076326 1.06582665
3.65321660 -7.57855177 1.05290806
3.72629762 -7.49645948 1.03485918
3.50223899 -7.74336958 1.08103049
3.85672021 -7.40044355 0.94915098
3.79691887 -7.41249895 1.00778615
3.87770700 -7.31730032 0.97792631
3.42688441 -7.90898085 1.08446991
3.42375970 -7.82697964 1.10194743
3.36047244 -7.99956131 1.11239421
3.29436374 -8.09191513 1.13413906
3.22842979 -8.18368721 1.15953314
3.15897465 -8.27326584 1.18162787
3.09388018 -8.44284153 1.21137083
3.08920479 -8.36125946 1.20858431
3.11795688 -8.59810925 1.25950086
3.01843214 -8.44869423 1.23664856
3.02845931 -8.52872467 1.25315821
3.88520408 -8.97792530 1.44202876
3.81694961 -9.14151955 1.48437583
3.82592726 -9.06095219 1.49422801
3.78981805 -9.38406849 1.44925773
3.74341393 -9.30234814 1.51896918
3.75433826 -9.22328568 1.53593361
-2.50039363 -5.69371653 -0.29621294
-2.56059122 -5.66385698 -0.27747631
-2.44447517 -5.66509295 -0.30526063
-2.41892934 -5.72941780 -0.33233377
-2.46236062 -5.71087933 -0.45868671
-2.55344391 -5.34212732 -0.56031001
-2.57574821 -5.45450115 -0.55236995
-2.51040888 -5.41074324 -0.54781121
-2.60692549 -5.55591440 -0.51155043
-2.52857447 -5.23276234 -0.52951753
-2.48820949 -5.13265467 -0.48951417
-2.55309415 -5.70369720 -0.51208675
-2.61683631 -5.66318083 -0.49535552
-2.43161488 -5.00478601 -0.62083399
-2.47052240 -4.99342966 -0.67004836
-2.51173806 -4.95783377 -0.77969331
-2.47088385 -4.93336105 -0.85019773
-2.14896774 -4.95396280 -0.94103616
-2.30235863 -4.94634914 -0.95031697
-2.42789555 -4.92674971 -0.92205459
-1.60098743 -4.34818697 -1.05054116
-1.58157456 -4.26651287 -0.97445202
-1.54559374 -4.19044685 -0.90517175
-1.52175021 -4.17053270 -0.84069532
-1.44740987 -4.11410141 -0.75962752
-1.32205963 -4.09141207 -0.70579600
-1.21714830 -4.13270998 -0.68658137
-2.48503804 -4.94841290 0.03577683
-2.53309822 -5.07565212 -0.06960084
-2.51511955 -5.12796783 -0.11816224
-2.57831359 -5.16856575 -0.09857444
-2.62145305 -5.26793909 -0.11853534
-2.66889524 -5.36558676 -0.14150436
-2.64251018 -5.43373585 -0.17415068
-2.71765494 -5.46406126 -0.16415858
-2.44369411 -4.86310148 0.09533305
-2.39456129 -4.78655720 0.15858530
-2.34083486 -4.71240330 0.22387795
-2.28407693 -4.63816786 0.28880915
-1.85447454 -4.21736813 -0.07944137
-1.95987535 -4.22806025 -0.03373652
-2.05867720 -4.25455046 0.02675246
-2.13013768 -4.30789232 0.10355293
-2.17654228 -4.38067007 0.18425931
-2.18793344 -4.48643255 0.34602183
-2.22257352 -4.56509876 0.35518613
-2.77078676 -5.56662941 -0.17750859
-2.75431228 -5.63996696 -0.20924547
2.86307073 -5.04056883 -0.11032712
2.37195349 -4.28143692 0.23276240
2.52440023 -4.34668255 0.30162284
2.47400808 -4.28625202 0.28205836
1.66453087 -4.14913797 0.00524086
1.55206430 -4.13914537 -0.00233775
1.43780220 -4.12685680 -0.00662841
1.77763879 -4.15616846 0.02009494
1.89281046 -4.16331577 0.03455259
2.00636125 -4.16514587 0.07392639
2.13566399 -4.16753626 0.12260439
2.23209906 -4.21617937 0.16413517
2.32676148 -4.22418928 0.20505966
0.68879062 -4.28902721 -1.15141833
0.83651525 -4.08603668 -1.03394985
0.90822059 -4.04653502 -1.01068938
0.75561064 -4.22997236 -1.12562776
0.82289708 -4.18350983 -1.10101473
1.05495405 -3.93528080 -0.12900548
1.00197375 -3.88084316 -0.16506802
1.16906464 -3.94112253 -0.10677100
1.28021371 -3.95376110 -0.09136894
1.44357359 -4.02302980 -0.05218169
1.38969553 -3.96517563 -0.07637495
0.77712226 -3.78948021 -0.25342295
0.94641680 -3.82867908 -0.19936997
0.88948387 -3.77765775 -0.23043060
0.15713359 -3.68911600 -0.14420934
0.04838637 -3.70276904 -0.16990666
-0.04851492 -3.70898366 -0.18001536
-0.14724673 -3.70103216 -0.21727881
0.33299235 -3.72218204 -0.18343157
0.27632764 -3.67025137 -0.16222312
-0.25996980 -3.69960952 -0.26734427
-0.37408036 -3.70137000 -0.30924818
0.44339520 -3.70833087 -0.20845264
0.55185097 -3.69822192 -0.24628741
0.66038829 -3.69220591 -0.27822247
0.71972299 -3.74202657 -0.27622876
-0.49239996 -3.71030116 -0.32583949
-0.60786301 -3.72699738 -0.31616220
-0.72002643 -3.74480152 -0.29111779
-0.82663995 -3.76408601 -0.24852599
-0.92506868 -3.78384876 -0.19368018
-1.02136362 -3.80066156 -0.14166759
-1.11413753 -3.81509566 -0.08719487
-1.20791411 -3.82867908 -0.03524058
-1.30994558 -3.84193587 0.00455296
-1.41568458 -3.85465646 0.03423779
-1.51991963 -3.86825132 0.06740879
-1.57626951 -3.92478728 0.06085620
0.36158118 -4.49642467 -1.22856855
0.48100844 -4.51151180 -1.24727035
0.54841149 -4.46841860 -1.23135519
-1.14404392 -4.12908363 -0.72424120
-0.95867109 -4.16513443 -0.87280530
-1.10938048 -4.07833052 -0.82029140
-1.06125045 -4.10957718 -0.87462419
-0.76667571 -4.26974297 -1.03272569
-0.66390979 -4.30528021 -1.05958891
-0.90510780 -4.19261551 -0.94470882
-0.87165701 -4.22869015 -1.01043284
-0.79128867 -4.22836351 -0.96896040
-0.81479406 -4.20223475 -0.89708018
-0.56226307 -4.33849812 -1.08757150
-0.46112946 -4.37414074 -1.11590385
-0.36040387 -4.41252375 -1.14558864
-0.25949177 -4.45756388 -1.17313981
-0.15972227 -4.50349045 -1.21296823
-0.05226925 -4.55029106 -1.24219835
0.05855336 -4.58496618 -1.26571548
0.29324543 -4.53712749 -1.24849451
0.16481715 -4.61244726 -1.28694725
0.23191699 -4.57669973 -1.26875854
0.61531305 -4.42379808 -1.21919441
0.67929983 -4.37923622 -1.20655572
-1.82953513 -4.13082075 -0.01485995
-1.63491642 -3.97790766 0.04480121
-1.80327809 -4.04231405 0.06654599
-1.73748410 -3.99622464 0.08616877
-1.57237530 -4.54921865 -1.55924082
-1.54692280 -4.41171885 -1.43926573
-1.54406631 -4.43576050 -1.52517200
-1.55144668 -4.38477421 -1.36254680
-1.56266296 -4.36790323 -1.28181708
-1.56215000 -4.27697134 -1.21225703
-1.57582641 -4.27251768 -1.13397586
-2.33966875 -5.01777506 -1.04365051
-2.30522680 -5.13511515 -1.15489292
-2.26573658 -5.17068815 -1.15765607
-2.26209879 -4.99435091 -1.00730813
-2.19682956 -4.97764301 -0.96489120
-2.43077540 -5.11176109 -1.25588655
-2.40264130 -5.14655304 -1.33736241
-2.47641015 -5.10522032 -1.36915767
2.62485743 -4.57999945 0.31266430
2.62701464 -4.46727610 0.33154085
2.57591128 -4.40663576 0.31665179
2.38243532 -4.43599415 -0.15596201
2.46293163 -4.51622248 -0.14975920
2.30847979 -4.37099266 -0.21779181
2.54398775 -4.59344244 -0.15501761
2.54614472 -4.66883230 -0.18226562
2.62544060 -4.67300606 -0.16157018
2.23791695 -4.30642319 -0.28442529
2.70499253 -4.75788689 -0.16398369
2.78217769 -4.85205984 -0.16108049
2.84455562 -4.96250916 -0.10141934
2.83042431 -5.07572174 0.24955194
2.78706312 -4.98487186 0.28205836
2.75768137 -4.89297247 0.30958620
2.67576241 -4.73750591 0.31892538
2.73521376 -4.76984930 0.34594020
2.86856222 -5.21912098 0.13504496
2.88313651 -5.17143393 0.20008111
2.67338395 -4.63898373 0.32441697
1.13694298 -3.80274844 -0.93886745
1.19191706 -3.79691887 -0.92415333
1.19191706 -3.79691887 -0.92415333
1.18532956 -3.81784749 -0.98760378
1.28636992 -3.81560898 -1.06124461
1.36827719 -3.80200219 -1.05199862
1.44795752 -3.76735044 -1.04194820
1.89318359 -3.98237324 -0.61380339
1.96285999 -4.04306030 -0.54385865
2.03139400 -4.10180044 -0.47167525
2.09949660 -4.16727972 -0.40614945
2.16909146 -4.23943949 -0.34955472
1.82350683 -3.92457747 -0.68743247
1.67310059 -3.87191224 -0.77994984
1.75373697 -3.87029147 -0.76241410
1.68839777 -3.81443119 -0.83907467
1.60393691 -3.81106162 -0.86034137
1.62093639 -3.72803521 -0.91459256
1.53337431 -3.72438574 -1.03363514
0.97479570 -3.89320254 -0.91226071
1.06898034 -3.83616447 -0.96404016
0.97799039 -3.98313117 -0.98888630
3.02218652 -5.17412758 -0.24394386
2.95435214 -5.02952766 -0.11593530
3.02299094 -5.08053732 -0.16891561
-3.10293984 -6.03200293 -0.38920832
-3.10360456 -5.95676470 -0.47588429
-3.05650043 -5.95170403 -0.53945136
-2.97523427 -5.87985897 -0.55677724
-2.90791321 -5.89080763 -0.57002234
-2.83013320 -5.83227682 -0.53546387
-2.70067883 -5.80520439 -0.52498204
-2.64449215 -5.80994940 -0.59299135
-2.52705884 -5.79454756 -0.57132816
-2.42783737 -5.75159407 -0.43723339
-2.42332506 -5.79742765 -0.37522870
-3.74702811 -6.47402239 -0.31086880
-3.71140885 -6.38351059 -0.28934556
-3.72523713 -6.27689648 -0.34070522
-3.72632146 -6.31930208 -0.27887541
-3.69252062 -6.22641182 -0.39626229
-3.66184497 -6.10890818 -0.39302096
-3.58788919 -6.06833315 -0.41158271
-3.50661159 -6.12980175 -0.43506476
-3.42227912 -6.05954218 -0.39387211
-3.25254154 -6.00819397 -0.36987704
-3.33028650 -5.99600983 -0.38522083
-3.17461014 -6.01839638 -0.36492181
-2.49512362 -5.74985695 -0.31297916
-2.41892934 -5.72941780 -0.33233377
-3.78873420 -6.52477551 -0.27028245
-3.80291176 -6.52709579 -0.13478854
-3.80266714 -6.49394846 -0.21295317
-3.04039884 -5.92199612 -0.20588757
-2.95205545 -5.81151199 -0.20535125
-2.81871867 -5.73818588 -0.22561528
-2.89036560 -5.76602840 -0.21141413
-3.25914097 -6.12538290 -0.15481940
-3.18830991 -6.03460264 -0.16552272
-3.11658144 -5.94001007 -0.17127082
-3.57823539 -6.51600790 0.02647263
-3.49879980 -6.41080523 -0.02155244
-3.64713049 -6.60021210 0.02686905
-3.72017694 -6.66066599 -0.04483626
-3.44984198 -6.32045603 -0.06014505
-3.39359713 -6.22840548 -0.09419052
-3.32718515 -6.13881445 -0.11437293
-3.96120024 -7.13608980 0.03936793
-3.89225817 -7.13230038 0.09667388
-3.85900545 -7.21242380 0.11166786
-3.88183451 -7.21082640 0.19162805
-3.88694143 -7.28660059 0.19040380
-3.86047482 -7.29406309 0.10406594
-3.89969659 -7.35420179 0.20156185
-3.91698742 -7.36221218 0.25436729
-3.94743013 -7.44762850 0.30002549
-3.97887564 -7.53957558 0.34901831
-4.00069046 -7.63609123 0.40192866
-4.02546692 -7.73301744 0.45564353
-4.02913904 -7.83161926 0.51391721
-3.99665666 -7.92664385 0.57124650
-3.94077301 -8.01291180 0.62231463
-3.87909484 -8.10021782 0.66515130
-3.82413173 -8.19179153 0.71937913
-3.84431458 -8.27395439 0.73557407
-3.89385486 -8.27558613 0.66807777
-3.92891526 -8.34563541 0.70320755
-4.00067902 -8.42523575 0.66683024
-4.10902977 -8.55422211 0.67366266
-4.19853878 -8.60943127 0.67356938
-4.29596519 -8.66415882 0.68296689
-4.02962923 -8.49302197 0.69726133
-4.38595200 -8.71297741 0.67866457
-4.43300962 -8.74481964 0.70389545
-4.52444220 -8.82026672 0.73008251
-4.50890017 -8.95908356 0.76924640
-4.51327324 -8.88883591 0.77886540
-4.47809601 -9.04001236 0.83277845
-4.44591618 -9.12485790 0.89779133
-4.41103172 -9.21061230 0.96090364
-4.37879324 -9.29718399 1.02757215
-4.34006071 -9.38233280 1.09047461
-4.32934523 -9.45992565 1.07763767
-4.28246260 -9.46250153 1.14209068
-4.21584129 -9.54055023 1.18680453
-4.20209455 -9.69609833 1.26238072
-4.17028809 -9.62496376 1.24501991
-5.18636990 -9.50393963 0.84521908
-5.07445097 -9.66021156 1.03389156
-5.16433382 -9.58267498 0.91344988
-5.14085197 -9.58691978 0.98570317
-4.47319937 -9.77223492 1.26508570
-4.51997662 -9.77445984 1.19816089
-4.58662176 -9.77307415 1.24849451
-4.70362425 -9.76169395 1.23299909
-4.36257505 -9.76101780 1.28196859
-4.83605146 -9.73629856 1.17789674
-4.93709183 -9.70675564 1.14341986
-4.25378132 -9.74252605 1.29895639
-5.04314566 -9.67260456 1.10824358
-5.18869066 -9.40850830 0.76500243
-5.14148092 -9.33947277 0.67530662
-5.05297470 -9.30577660 0.74803793
-4.95658588 -9.28752899 0.81737643
-4.28603077 -8.33893204 0.70476991
-4.17277145 -8.29714489 0.79531682
-4.06135368 -8.26484776 0.84780747
-4.00253296 -8.21245193 0.82853448
-3.97016597 -8.06269741 0.83195072
-4.04794598 -7.99079418 0.77451646
-4.11861372 -7.91587162 0.70735830
-3.90964246 -8.18168259 0.85390532
-3.95225692 -8.23336887 0.88285559
-4.17050934 -7.83826590 0.63938397
-4.13592768 -7.25710249 0.13933563
-4.05863714 -7.19017744 0.07455600
-4.02417278 -7.18621349 -0.00800422
-4.19030714 -7.34646034 0.20312423
-4.18739223 -7.44555330 0.26655138
-4.00423479 -7.13916779 0.10116275
-3.96120024 -7.13608980 0.03936793
-4.17301607 -7.51208162 0.33270681
-4.19893503 -7.57841301 0.40603277
-4.21768379 -7.66489077 0.48721716
-4.20385551 -7.75326872 0.56583655
-4.34948158 -8.38358688 0.71294314
-4.41041374 -8.43361855 0.72313350
-3.71325111 -6.58182526 -0.01571108
-3.77130365 -6.55658245 -0.06640616
-4.52501345 -8.55236912 0.74228990
-4.47016764 -8.48870945 0.73363864
-4.61943197 -8.69509220 0.75994217
-4.57373762 -8.62272263 0.75009000
-4.65308046 -8.77295399 0.76861686
-4.64514065 -8.85729790 0.85381210
-4.62639236 -8.94326210 0.93380719
-4.60106802 -9.02965736 1.01054943
-4.85760927 -9.27026272 0.88629514
-4.76152468 -9.24985886 0.95199585
-4.67192173 -9.23950386 1.03101158
-4.56641626 -9.19228363 1.08122873
-4.56006193 -9.11486530 1.08128691
4.16787481 -6.47891903 0.39862904
4.20428610 -6.75939798 0.58433998
4.21825457 -6.82627630 0.62945020
4.14399576 -6.62566471 0.53696781
4.29671049 -6.95097351 0.73172647
4.29025173 -6.97201872 0.81661856
4.27122355 -7.00462961 0.92205453
4.13873768 -6.51778030 0.48427901
4.19814205 -7.03768444 1.00073218
4.14246845 -7.09914112 1.00713325
4.13435316 -7.21023178 0.98023492
4.17207146 -7.26229095 0.93625563
3.91479564 -6.90235376 0.86915582
3.90088582 -6.78472233 0.80779243
3.90354371 -6.70308256 0.72011369
3.89351678 -6.61374855 0.65105504
3.87566638 -6.52319002 0.58317405
3.85031891 -6.43306303 0.51524639
3.93466258 -7.00085258 0.92543572
3.81868696 -6.34417152 0.44681734
3.78331256 -6.25708723 0.37921616
3.97289419 -7.16533136 0.97804296
3.96286726 -7.09433746 0.98256683
3.72904921 -6.17723227 0.31744462
3.65889478 -6.10307837 0.26430109
3.57858491 -6.10122442 0.11974784
3.59687829 -6.02774715 0.20554937
3.56296110 -6.02449417 0.12960003
3.56128216 -6.01164532 0.04961654
4.14980173 -6.25258684 0.18935446
4.16491270 -6.32890940 0.28889075
4.16254616 -6.40840340 0.37653449
4.06621599 -6.09275961 0.08163325
4.13870192 -6.16022110 0.17668068
3.96715760 -6.03801918 0.02143577
3.86040449 -5.98728895 -0.01007959
3.75047946 -5.94207382 -0.01166527
3.65108299 -5.89919043 0.01007951
3.56975865 -5.93768978 0.04021906
4.13558960 -7.32392263 0.96864551
3.85483074 -7.87659121 1.17467868
3.78277612 -7.96085215 1.20635736
3.71418381 -8.05170250 1.23380351
3.64371419 -8.14143467 1.25116444
3.56536293 -8.22499561 1.26617014
3.66138983 -8.49086571 1.23060894
3.62574697 -8.44210625 1.18384302
3.76899433 -8.52557564 1.23615885
3.87759042 -8.56415653 1.23510945
3.56004643 -8.44942951 1.22782230
3.48581100 -8.30813980 1.27952015
3.47945666 -8.38333130 1.25734389
4.06141233 -8.73240089 1.30501926
3.91825771 -8.62105560 1.27886724
3.95911264 -8.67974758 1.32110918
4.03316164 -8.80667305 1.39047098
3.13068891 -5.20401001 -0.21892278
3.17173004 -5.27741766 -0.21024819
3.21802950 -5.25049639 -0.15439966
3.07840824 -5.23465109 -0.26809046
3.27503228 -5.29806662 -0.06387607
3.30759692 -5.39698505 0.08488622
3.32824588 -5.34700155 0.02271830
3.00525713 -5.27247429 0.23771764
2.99617434 -5.31616211 0.17090929
3.29729009 -5.44452047 0.14420927
3.28187656 -5.45572519 0.21935411
3.20676637 -5.43154335 0.20870906
3.20189285 -5.41027689 0.28476334
3.13098049 -5.34161472 0.34440115
3.07030487 -5.28795815 0.32638738
2.94599247 -5.22057819 0.21815318
2.93292212 -5.26663303 0.15266232
3.99951291 -8.88790417 1.46363366
4.02182865 -8.96380711 1.48024833
3.98112512 -9.04710197 1.54967999
3.92528868 -9.13517666 1.60513222
3.92982435 -9.21845913 1.60612321
3.94017768 -9.29985428 1.61723459
4.49184227 -9.54085255 1.52722406
4.59517956 -9.58982372 1.51495838
4.19708109 -9.43590736 1.56681943
4.23291016 -9.46536922 1.60254383
4.33179426 -9.50011539 1.59371769
4.43762636 -9.53988647 1.58574259
3.96370625 -9.37383175 1.64429617
4.13129854 -9.42566967 1.59638762
4.06816339 -9.42308235 1.64344501
4.75556660 -9.73722076 1.44982898
4.79204845 -9.82651997 1.38367355
4.69443607 -9.64892483 1.49724782
-2.39690471 -4.85045052 -1.82471371
-2.36576271 -4.75245333 -1.84398675
-2.50838041 -5.07847357 -1.47550309
-2.53160596 -5.03871489 -1.57580888
-2.53392601 -4.96974993 -1.66293955
-2.48741674 -4.95788002 -1.72633183
-2.45205379 -4.86477995 -1.77607071
-2.35678482 -4.64906979 -1.88986647
-2.15276861 -4.53479576 -1.93880105
-2.08426952 -4.49220371 -1.92858732
-1.97309732 -4.51336575 -1.91887510
-2.33030629 -4.54427481 -1.92793441
-2.26107287 -4.50540257 -1.94341826
-1.71515632 -4.50920343 -1.85084248
-1.62125146 -4.51319075 -1.77387881
-1.78136992 -4.48005486 -1.86499703
-1.59134519 -4.52396393 -1.65815926
-1.90900564 -4.46691465 -1.88676512
3.78499103 -9.46086979 1.44376612
3.73019195 -9.60445499 1.46989477
3.72559810 -9.52729416 1.47979367
3.74610734 -9.68347073 1.47540963
3.77436948 -9.75529289 1.50220299
4.76400805 -9.90625858 1.37427604
4.49565458 -9.97776699 1.50174832
4.61616611 -9.96216583 1.48219550
4.37857151 -9.98447037 1.50980484
4.71478176 -9.90095329 1.44148088
4.21252966 -9.97672749 1.56636477
4.32216311 -9.98177719 1.56727421
3.94804764 -9.92724609 1.58179009
3.80639791 -9.82078362 1.53641164
3.84201694 -9.88078403 1.57920170
3.86834455 -8.89824581 1.43101072
3.59169006 -8.80767441 1.40636277
3.48515821 -8.79007053 1.38464129
3.34402084 -8.75820541 1.37192082
3.23879480 -8.71301270 1.33653462
3.13859391 -8.66466141 1.30622017
4.01086855 -7.46019793 1.10761380
4.05283117 -7.42289925 1.05688381
3.98870397 -7.54674530 1.15654838
3.94465494 -7.63785219 1.19952500
3.88268495 -7.72786331 1.23755789
3.87039590 -7.80415010 1.20673048
3.92991781 -7.25740576 0.95225239
3.50499058 -7.66700077 1.10263526
3.58166289 -7.58453321 1.09116244
3.65951276 -7.50234652 1.08020258
3.73661637 -7.42324924 1.06582665
3.42510056 -7.74757910 1.11720955
3.81914139 -7.34159851 1.04518950
3.87770700 -7.31730032 0.97792631
3.35010719 -7.91477537 1.12574422
3.34102464 -7.83023167 1.14922631
3.28490782 -8.00785160 1.14647472
3.22059464 -8.10191917 1.16357899
3.15344810 -8.19192982 1.18242061
3.08269882 -8.28030968 1.20305777
3.01219440 -8.36724091 1.22979271
3.01843214 -8.44869423 1.23664856
3.04370975 -8.60294819 1.28722703
2.94252944 -8.45329857 1.26052690
2.95158863 -8.53447151 1.27545106
3.82513428 -8.98133087 1.49471772
3.76377106 -9.14283562 1.54697502
3.77193260 -9.06293392 1.55477524
3.73223233 -9.37989521 1.50317073
3.68732047 -9.30294228 1.57726622
3.70262933 -9.22610760 1.59883606
-2.50039363 -5.69371653 -0.29621294
-2.44447517 -5.66509295 -0.30526063
-2.49049473 -5.75234032 -0.51666892
-2.61823511 -5.38473129 -0.56224549
-2.55344391 -5.34212732 -0.56031001
-2.59340072 -5.27622843 -0.53190774
-2.63980508 -5.49667311 -0.54926860
-2.67857265 -5.60440588 -0.52051651
-2.56994200 -5.17978239 -0.46800256
-2.53902125 -5.08448982 -0.52527356
-2.48045611 -5.04763460 -0.56927609
-2.59721327 -5.75239897 -0.55586785
-2.65961456 -5.72884655 -0.51305449
-2.54698467 -4.99241590 -0.71371275
-2.54830217 -4.94230366 -0.88633025
-2.58802581 -4.95706415 -0.81225801
-2.38198066 -4.96738291 -0.98401266
-2.50505757 -4.93938828 -0.96007591
-1.58353329 -4.26904297 -1.05307126
-1.55804586 -4.19280243 -0.97733182
-1.48288941 -4.09180880 -0.82774174
-1.24755609 -4.07698917 -0.73887378
-2.47968674 -4.93121529 0.11160957
-2.53369284 -5.00765467 0.06006336
-2.53749394 -5.03448248 -0.01215497
-2.59438014 -5.11910629 -0.04770448
-2.57831359 -5.16856575 -0.09857444
-2.64390922 -5.20849943 -0.07949967
-2.69913960 -5.29936123 -0.11346351
-2.66889524 -5.36558676 -0.14150436
-2.74571896 -5.39043236 -0.14115457
-2.79124904 -5.49435234 -0.15268572
-2.42386127 -4.85919523 0.17051287
-2.37013483 -4.78663921 0.23446468
-2.31372666 -4.71398926 0.29939589
-2.25488162 -4.64184093 0.36509660
-1.89706624 -4.17516136 -0.02655433
-1.99800181 -4.19568205 0.03113639
-2.08101678 -4.23976612 0.10501035
-2.13203812 -4.31104040 0.18530865
-2.16675997 -4.39685345 0.26147950
-2.15972924 -4.49685621 0.42933992
-2.19370484 -4.57217598 0.43518129
-2.14498019 -4.41134596 0.34525231
-2.84689951 -5.59471703 -0.16333075
-2.83190536 -5.66582775 -0.19669996
2.42696238 -4.22780371 0.25371435
2.57870960 -4.29159212 0.32720357
2.53005505 -4.23118496 0.30204257
1.72493815 -4.09939861 -0.01227156
1.61186528 -4.09124851 -0.02257847
1.49773145 -4.08102322 -0.02793014
1.83774304 -4.10303640 0.01126877
1.94868207 -4.10342121 0.04861383
2.06491470 -4.10132265 0.09100741
2.20001221 -4.16858530 0.14745057
2.28140640 -4.16993809 0.17847624
2.37904239 -4.17090559 0.22513716
0.74406785 -4.33452225 -1.18877506
0.88803816 -4.13808489 -1.07852387
0.95161682 -4.09615755 -1.06380963
0.87742805 -4.24285603 -1.13357949
0.80975693 -4.28879404 -1.16201675
1.11899924 -3.88196254 -0.14073484
1.06428158 -3.82513475 -0.17717047
1.23314476 -3.89426327 -0.12325740
1.33856905 -3.90840602 -0.10455572
1.50143921 -3.97618198 -0.07042865
1.44606864 -3.92007732 -0.09377077
0.83140844 -3.72836161 -0.25823829
1.00555325 -3.76871467 -0.20750822
0.94544894 -3.71627092 -0.23716974
0.09180597 -3.64219856 -0.14750895
0.20823675 -3.62206268 -0.14065322
-0.01664978 -3.66794276 -0.15487769
-0.08401780 -3.64386582 -0.17329954
-0.21065053 -3.64051962 -0.22249056
0.38364080 -3.66073728 -0.18439929
0.34258804 -3.60095930 -0.16595413
-0.32515752 -3.64430881 -0.26333344
-0.43936136 -3.65090823 -0.29210883
0.49550107 -3.63760495 -0.21536666
0.60344380 -3.64329457 -0.26029032
0.77189881 -3.68011498 -0.28041446
0.71121168 -3.63171673 -0.28636077
-0.55531406 -3.66350031 -0.29834661
-0.66863179 -3.68052292 -0.28300285
-0.77557182 -3.70039082 -0.24921392
-0.88064641 -3.71948862 -0.20722839
-0.97866696 -3.73936820 -0.15684813
-1.07035649 -3.75553966 -0.10489384
-1.15945768 -3.76716423 -0.05177361
-1.25783968 -3.77986097 -0.00492614
-1.36151505 -3.79547286 0.03526382
-1.46235716 -3.81374311 0.07674797
-1.56134546 -3.83327317 0.12080884
-1.61938596 -3.88767576 0.11127145
0.41143680 -4.55298424 -1.26745272
0.53230983 -4.56420040 -1.28965223
0.59982938 -4.51770306 -1.27496135
-1.17481303 -4.07113600 -0.77511114
-1.01752770 -4.14188528 -0.93383062
-1.15337145 -4.04168463 -0.87906641
-1.11293662 -4.07929802 -0.93264133
-0.76667571 -4.26974297 -1.03272569
-0.84218204 -4.26879787 -1.07431471
-0.73947436 -4.31182098 -1.09485865
-0.63725638 -4.34935284 -1.11811912
-0.97880685 -4.18017530 -0.99441290
-0.94699997 -4.22478390 -1.05652249
-0.53611106 -4.39005613 -1.14043510
-0.43490744 -4.42937136 -1.16622579
-0.33431014 -4.47435331 -1.19004583
-0.23489043 -4.51928854 -1.21914780
-0.14012283 -4.58392859 -1.25683105
-0.01293042 -4.61791563 -1.27806270
0.09744912 -4.64810181 -1.30169642
0.34418535 -4.59441042 -1.28700554
0.20845829 -4.67452192 -1.32156396
0.27548817 -4.63390064 -1.30578887
0.66564673 -4.47259283 -1.26184464
0.73117250 -4.42789078 -1.24757349
-1.86923528 -4.09093428 0.04955824
-1.67826593 -3.94160008 0.09991519
-1.83155215 -4.02420759 0.13896254
-1.77086496 -3.97294092 0.15584534
-1.56593931 -4.48544168 -1.59573483
-1.52686858 -4.36649227 -1.52582502
-1.52816284 -4.33812475 -1.45534396
-1.53057635 -4.29553318 -1.39147377
-1.54654980 -4.28351259 -1.29630971
-1.55738139 -4.19331503 -1.13368440
-1.54397297 -4.19521570 -1.21433246
-2.33966875 -5.01777506 -1.04365051
-2.38013840 -5.08302116 -1.14379311
-2.41985059 -5.03264046 -1.07738113
-2.43077540 -5.11176109 -1.25588655
-2.50634003 -5.08123684 -1.29451418
-2.46117163 -5.06989241 -1.18409967
-2.54462934 -5.06563663 -1.40425241
2.67838573 -4.52810287 0.34286213
2.68317771 -4.41340971 0.35769290
2.63135171 -4.35223246 0.34258229
2.39031696 -4.37246180 -0.20224984
2.46580005 -4.43852377 -0.14989913
2.54216886 -4.51614046 -0.13514999
2.31510210 -4.30944300 -0.26532719
2.62313199 -4.59464359 -0.13433383
2.62544060 -4.67300606 -0.16157018
2.70522571 -4.67818308 -0.13947561
2.24684811 -4.24465132 -0.33270690
2.78557062 -4.76597834 -0.14292681
2.86600876 -4.86773014 -0.13657244
2.89605498 -5.12527466 0.26840520
2.84586143 -5.01140881 0.31497285
2.80419087 -4.95146799 0.32646900
2.79883909 -4.83944464 0.35450989
2.71348071 -4.69958973 0.33973742
2.72739029 -4.58964157 0.35476637
1.21476948 -3.85689497 -1.06961596
1.29784274 -3.81768441 -1.14205587
1.37385035 -3.78675199 -1.13573647
1.44651175 -3.75184369 -1.12457836
1.90567052 -3.92680454 -0.67437398
1.97520733 -3.98510146 -0.60090810
2.04375291 -4.04597521 -0.52863145
2.11133075 -4.10666275 -0.45815036
2.17904878 -4.17575598 -0.39620399
1.83541107 -3.87146926 -0.74946052
1.68839777 -3.81443119 -0.83907467
1.76511657 -3.81627345 -0.82387078
1.71004915 -3.74982643 -0.88905853
1.68839777 -3.81443119 -0.83907467
1.60003114 -3.67303777 -0.98438573
1.52101529 -3.72559834 -1.11328042
1.02087367 -3.90929198 -0.97508156
1.12327826 -3.86966205 -1.00867236
1.18532956 -3.81784749 -0.98760378
3.07974911 -5.13857794 -0.20173682
3.04450274 -5.01032448 -0.07557044
3.09045219 -5.05440855 -0.12485474
-3.11118293 -5.96795750 -0.40551981
-3.11222053 -5.86172867 -0.48078129
-3.05213976 -5.86949396 -0.54146844
-2.96096349 -5.80715084 -0.55413055
-2.89071536 -5.82657576 -0.55590278
-2.77433133 -5.75976753 -0.51226163
-3.76828361 -6.42090178 -0.26578191
-3.76346850 -6.24383068 -0.24787307
-3.75601768 -6.21112633 -0.29933769
-3.72500372 -6.15821600 -0.35638714
-3.51825929 -6.04209995 -0.39788294
-3.67709517 -6.04436159 -0.34229088
-3.59254146 -6.00642204 -0.36000153
-3.40892911 -5.98081779 -0.37969425
-3.31999135 -5.91489601 -0.39890894
-3.24064898 -5.92693996 -0.39302096
-3.16629696 -5.93893766 -0.37927452
-3.78510833 -6.45881844 -0.10629297
-3.80622339 -6.44794035 -0.15547232
-3.04282403 -5.83716249 -0.17383587
-2.90626907 -5.69540787 -0.18090148
-3.25860453 -6.04946852 -0.12803775
-3.18960404 -5.95809364 -0.13563968
-3.12084866 -5.86115742 -0.13979042
-3.53422093 -6.42991447 0.02236852
-3.60877132 -6.45737267 0.06219703
-3.63984346 -6.52202415 0.04750619
-3.50091004 -6.33653450 -0.00777103
-3.71325111 -6.58182526 -0.01571108
-3.44932890 -6.24415684 -0.04081377
-3.38924813 -6.15384388 -0.06752545
-3.32540131 -6.06412458 -0.08719487
-3.95483398 -7.11172152 0.12128688
-3.89225817 -7.13230038 0.09667388
-3.89225817 -7.13230038 0.09667388
-3.88551903 -7.12692547 0.18926118
-3.89747000 -7.21024323 0.27528423
-3.90514135 -7.29001713 0.26503563
-3.93453455 -7.37468767 0.32182857
-3.96902394 -7.46430254 0.37346804
-3.99586320 -7.55896425 0.42615688
-4.01568460 -7.65547037 0.48054799
-4.02091980 -7.75252295 0.53463596
-4.00651979 -7.84866667 0.59253657
-3.96490788 -7.93987846 0.64667112
-3.90062976 -8.02374458 0.69185132
-3.83476543 -8.10847282 0.73625028
-3.77342510 -8.19512558 0.78755170
-3.79139209 -8.27672958 0.79677427
-3.84431458 -8.27395439 0.73557407
-3.87833691 -8.34441185 0.76466429
-3.96058202 -8.41442776 0.73386019
-4.06620455 -8.55340767 0.73320717
-4.14134932 -8.58738327 0.70670539
-4.24265766 -8.65212727 0.74191678
-4.33916283 -8.70635509 0.73221618
-3.98557997 -8.48706532 0.76073503
-4.51054382 -8.82623768 0.78208345
-4.48920727 -8.96456432 0.84416974
-4.49521160 -8.88994408 0.85230798
-4.45438099 -9.04602909 0.90858793
-4.41721058 -9.13082695 0.97257477
-4.38096189 -9.21710682 1.03656149
-4.34781361 -9.30339813 1.10174918
-4.34006071 -9.38233280 1.09047461
-4.29559135 -9.38600445 1.15666497
-4.23542929 -9.46578884 1.20701039
-4.16895914 -9.54448032 1.25187576
-4.12591219 -9.62895107 1.30914664
-4.15433741 -9.70086670 1.32238007
-5.16412401 -9.50465202 0.92102855
-5.16664219 -9.41824341 0.84593028
-5.12014437 -9.59849644 1.05936730
-5.13833332 -9.51052761 0.99557871
-4.58662176 -9.77307415 1.24849451
-4.53706932 -9.77458858 1.31498802
-4.42492914 -9.77408886 1.33001697
-4.65046883 -9.76565742 1.30067027
-4.75962448 -9.74741077 1.28884757
-4.80595875 -9.73965740 1.22679627
-4.31430483 -9.76382828 1.34447467
-4.89940882 -9.71427536 1.21390092
-5.00660467 -9.68418217 1.18333006
-4.20630360 -9.74552155 1.35879242
-5.10101080 -9.61410999 1.14071488
-5.12997341 -9.34250450 0.75797182
-5.03927517 -9.31144333 0.82884926
-4.93872404 -9.29269505 0.90161562
-4.14038181 -8.31184769 0.87055498
-4.00253296 -8.21245193 0.82853448
-4.06135368 -8.26484776 0.84780747
-4.00847864 -8.27651978 0.92500436
-3.95225692 -8.23336887 0.88285559
-3.90384722 -8.12529659 0.86369926
-3.92743421 -8.06387520 0.89403701
-4.00194931 -7.99248409 0.85880232
-4.09198332 -7.90929413 0.78119731
-4.14930105 -7.83933878 0.71784014
-3.85360670 -8.20001030 0.90369099
-3.90115452 -8.24377918 0.94200373
-4.19205618 -7.75654554 0.64635634
-4.17225838 -7.25901461 0.23440638
-4.08946514 -7.19507456 0.15137979
-4.20600033 -7.36789036 0.28057760
-4.18931627 -7.46261072 0.33973742
-4.02526855 -7.14018202 0.17383580
-4.17481232 -7.49442959 0.40125242
-4.19851589 -7.58226109 0.49088985
-4.21384811 -7.66754866 0.57033706
-4.33129215 -8.39365005 0.78652567
-4.38785219 -8.43771076 0.80041200
-3.69881678 -6.50313616 0.00170806
-3.75080585 -6.48088932 -0.04796099
-4.50047064 -8.55678844 0.82523489
-4.44780540 -8.49155426 0.81488127
-4.59358263 -8.69818211 0.84203607
-4.54910183 -8.62649918 0.83291841
-4.62446833 -8.77624130 0.84918332
-4.61786890 -8.86036396 0.93258297
-4.59659100 -8.94641113 1.01040947
-4.56691790 -9.03319073 1.08638215
-4.83582973 -9.27274418 0.97046441
-4.74088717 -9.25534821 1.02747881
-4.62376833 -9.23781395 1.11000407
-4.52472210 -9.19624710 1.15198958
-4.52017498 -9.11807060 1.15256095
4.23825073 -6.88357019 0.70668203
4.12026930 -6.54717302 0.57027870
4.26730585 -6.92064714 0.77041239
4.26271152 -6.93499994 0.88009238
4.23299170 -6.96755314 0.97917390
4.13640547 -6.41924667 0.42854708
4.11069679 -6.44722891 0.50306231
4.15879154 -6.99380970 1.04072392
4.09694958 -7.05138397 1.04801095
4.08366966 -7.15960646 1.01663566
4.08657312 -7.26912355 0.99990433
3.91168213 -6.92695522 0.94735545
3.89632702 -6.82237005 0.89267284
3.89497399 -6.71361113 0.79509532
3.89265394 -6.62642241 0.72933632
3.88290644 -6.53559542 0.66272610
3.86038065 -6.44488525 0.59569621
3.83253789 -6.35405874 0.52833992
3.94274330 -7.02130270 1.00121021
3.80261993 -6.26371002 0.45933953
3.76701260 -6.17676592 0.39039749
3.71027780 -6.09816980 0.32891750
3.64250159 -6.02512407 0.27403668
3.56296110 -6.02449417 0.12960003
3.58081174 -5.95102835 0.21522667
3.54654479 -5.94941902 0.13475350
4.15415096 -6.24220991 0.28149870
4.15099096 -6.32995892 0.37297836
4.02238846 -6.01379061 0.08382522
4.09978294 -6.07513094 0.16893886
4.13444662 -6.15270090 0.27622867
3.92786574 -5.96248960 0.02963233
3.82491279 -5.91425467 0.00646510
3.71207333 -5.87513733 0.01024274
3.56228495 -5.84626865 0.06680249
3.65542006 -5.82387066 0.03561360
4.09640169 -7.37412786 1.01128387
4.14237499 -7.43030310 0.97550124
3.78666997 -7.88081121 1.21899617
3.70524096 -7.96359348 1.25888300
3.64997530 -8.06429482 1.27373707
3.57495856 -8.14799690 1.28959382
3.49425220 -8.23052406 1.30268729
3.56004643 -8.44942951 1.22782230
3.59391689 -8.49839878 1.27529931
3.70147491 -8.53300381 1.28467357
3.81074691 -8.57255268 1.28751838
3.49279499 -8.45640182 1.26787233
3.41457200 -8.31455135 1.31483650
3.40961671 -8.39151669 1.29295170
3.99763513 -8.74048233 1.36041307
3.85162473 -8.62763119 1.33339822
3.89353991 -8.68483257 1.37962770
3.97347689 -8.81414700 1.44720566
3.13068891 -5.20401001 -0.21892278
3.18052125 -5.17240143 -0.17156230
3.28811407 -5.22855330 -0.10520865
3.34754229 -5.29023170 -0.03373652
3.39091516 -5.39725351 0.10258520
3.40337896 -5.33913088 0.05237982
3.01566887 -5.23179436 0.30594847
3.37899899 -5.44689894 0.16342396
3.35728931 -5.48003483 0.22871660
3.28187656 -5.45572519 0.21935411
3.27421618 -5.44624615 0.29646936
3.20082021 -5.38241100 0.35980323
3.12399650 -5.31836557 0.41946438
3.07325459 -5.25631428 0.39803442
2.95641589 -5.17855787 0.28685036
3.94032907 -8.89456081 1.51455021
3.95778370 -8.97111702 1.52605820
3.91434026 -9.05210304 1.59604955
3.86834455 -9.22030067 1.66089916
3.86089373 -9.13775349 1.65426493
3.88056326 -9.30087852 1.67399263
4.54207087 -9.58646488 1.57632184
4.64164209 -9.64616203 1.56095481
4.17497492 -9.46245575 1.64988101
4.27852201 -9.50100136 1.64851677
4.38271046 -9.54035282 1.64265215
4.48499823 -9.58896065 1.63414085
3.90282154 -9.37517357 1.69820917
4.00710249 -9.42302418 1.69476962
4.11637449 -9.45983315 1.69955003
4.70330858 -9.73375797 1.51355934
4.74188948 -9.82149601 1.44965410
-2.40768981 -4.79663086 -1.80954480
-2.41945410 -4.68206596 -1.84410334
-2.57180762 -5.03525209 -1.50935030
-2.57893157 -4.97795820 -1.59901118
-2.50341344 -4.87910938 -1.72042048
-2.55688357 -4.89314747 -1.66419876
-2.45895600 -4.79234028 -1.76357186
-2.39936495 -4.58051205 -1.89995182
-2.19158268 -4.46485090 -1.94531870
-2.12415648 -4.42246914 -1.93305278
-2.01909351 -4.44776964 -1.90714586
-2.37022805 -4.47544909 -1.93965209
-2.29993367 -4.43598223 -1.95001733
-1.67071068 -4.45368147 -1.81118882
-1.57821667 -4.45265532 -1.70839965
-1.84904122 -4.42207289 -1.84722805
-1.95698392 -4.40246153 -1.88044572
3.72704411 -9.45618248 1.49033368
3.66294050 -9.61283779 1.51196194
3.66290569 -9.53381062 1.52602315
3.67550945 -9.69586563 1.51164711
3.70262933 -9.77117252 1.53806734
4.44317627 -9.97794151 1.56650460
4.56752348 -9.96055603 1.55058944
4.66301394 -9.89548588 1.50550258
4.26525354 -9.98050690 1.62223649
4.16113567 -9.98035336 1.62178183
4.12492132 -9.97000122 1.57934153
4.38101959 -9.98275566 1.62511635
4.05731964 -9.96485996 1.60256708
3.99087286 -9.96510315 1.64515889
3.88133287 -9.93211937 1.63032806
3.77582693 -9.88744068 1.62559438
3.73786402 -9.83498478 1.57709134
3.77724934 -8.86549473 1.44754374
3.81320691 -8.90674400 1.48432922
3.69451427 -8.83551693 1.43727171
3.62712288 -8.82999134 1.47060597
3.52494001 -8.80986786 1.44361448
3.43610692 -8.78899765 1.41153955
3.36703658 -8.78530025 1.44367278
3.26628780 -8.75517368 1.40502191
3.16347504 -8.71597290 1.36801493
3.06308770 -8.66848564 1.33522880
4.05283117 -7.42289925 1.05688381
4.09379005 -7.49207401 1.04205310
4.00243855 -7.37156296 1.05871439
3.97789621 -7.41862011 1.10072327
3.95997548 -7.47821140 1.15335369
3.93612051 -7.55909395 1.20818782
3.88588023 -7.64652729 1.25309992
3.81550407 -7.73464870 1.28660893
3.80470729 -7.81287146 1.25908124
3.43108177 -7.67179346 1.13852298
3.50806880 -7.59097004 1.12674701
3.58633828 -7.50876045 1.11792088
3.66395497 -7.42384386 1.10903633
3.74955845 -7.35115862 1.10021019
3.35161114 -7.74986506 1.16867423
3.93488407 -7.32421398 1.04490960
3.87993360 -7.36574507 1.10066485
3.27957940 -7.91927481 1.17564654
3.29951692 -7.83748484 1.25142097
3.21750474 -8.02193642 1.18526554
3.14814305 -8.11109543 1.19093204
3.07742882 -8.19899654 1.20400214
3.00687766 -8.28591728 1.22708774
2.94252944 -8.45329857 1.26052690
2.93570876 -8.37209034 1.25244701
2.96583652 -8.61107540 1.30809736
2.87287641 -8.53939247 1.29611135
2.86497116 -8.45775318 1.28142059
3.76408601 -8.98416328 1.54589081
3.70850563 -9.14499378 1.60653126
3.70775914 -9.06441593 1.60481739
3.67471647 -9.38027954 1.55785334
3.61934614 -9.30163670 1.62118721
3.63312769 -9.22397423 1.64174271
-2.68299174 -5.43140364 -0.56315494
-2.66095519 -5.32109404 -0.53597689
-2.59340072 -5.27622843 -0.53190774
-2.62748122 -5.22462416 -0.48354453
-2.69920969 -5.54202795 -0.55333775
-2.72657418 -5.68309498 -0.51283294
-2.59991813 -5.10405397 -0.47781977
-2.58931994 -5.06549644 -0.57778746
-2.53292322 -5.02871132 -0.61781424
-2.58919168 -5.02546978 -0.65826070
-2.61525035 -4.99830389 -0.74619591
-2.65315509 -4.99494553 -0.84871697
-2.61618328 -4.97756147 -0.92201966
-2.46204591 -4.97661686 -1.02073979
-2.57831359 -4.96744108 -0.99226755
-1.56069255 -4.19357157 -1.05520499
-1.53900611 -4.12400007 -0.97672558
-1.52851260 -4.13732672 -0.90397090
-1.50494897 -4.06661224 -0.89660215
-1.44752645 -4.02273846 -0.82139903
-1.42098963 -4.04750299 -0.77335060
-1.35181439 -4.02774000 -0.76750922
-1.27789378 -4.02028942 -0.79466403
-2.45342970 -4.93226433 0.18220724
-2.52318764 -4.99323177 0.13204850
-2.59105706 -5.05693865 0.08394182
-2.59670019 -5.08192444 0.01562939
-2.64390922 -5.20849943 -0.07949967
-2.66364861 -5.15512228 -0.02793014
-2.72068644 -5.23250580 -0.08149342
-2.69913960 -5.29936123 -0.11346351
-2.78278446 -5.30671787 -0.15246420
-2.81714463 -5.42108488 -0.14369632
-2.86346745 -5.51952505 -0.13862449
-2.39713812 -4.86162043 0.24457337
-2.34158087 -4.78987980 0.30936468
-2.28474140 -4.71790695 0.37568334
-2.22577977 -4.64721584 0.44268993
-1.93307066 -4.14369297 0.04027736
-2.02297616 -4.17837954 0.10777363
-2.08350015 -4.24294949 0.18741900
-2.12100840 -4.32414532 0.26649305
-2.13135028 -4.50677824 0.50801754
-2.16502261 -4.57973099 0.51271629
-2.12028551 -4.42382145 0.42635512
-2.10188699 -4.33850956 0.34576532
-2.92231226 -5.61986589 -0.14790538
2.48177338 -4.17250299 0.27334881
2.63333392 -4.23703766 0.35157171
2.58548355 -4.17611742 0.32299450
1.78188276 -4.04452944 -0.01221326
1.67102516 -4.04331684 -0.04246941
1.55686796 -4.03332472 -0.04586229
1.89159775 -4.04356146 0.02467708
2.00387764 -4.04079866 0.06350289
2.17691493 -4.08530235 0.13224672
2.11461878 -4.03256702 0.10797185
2.23448920 -4.12254286 0.15750097
2.33105230 -4.11706257 0.19660661
2.43280387 -4.11554670 0.24445678
0.79601043 -4.38624334 -1.22730935
0.94286060 -4.19411993 -1.10698438
0.99869746 -4.14407778 -1.08563602
0.86432290 -4.34655476 -1.19870889
0.93425608 -4.30389309 -1.16833615
1.18797624 -3.83157063 -0.15450460
1.13069355 -3.76288509 -0.18437597
1.29408848 -3.85124016 -0.13447374
1.39044178 -3.86573243 -0.11587700
1.50089121 -3.87092113 -0.10284179
1.55832541 -3.92759752 -0.08494461
0.88513494 -3.66601872 -0.26441777
1.06482971 -3.70567226 -0.21451552
1.00116932 -3.65226078 -0.24392053
0.13937633 -3.57871318 -0.12413184
0.02492765 -3.60387421 -0.13310958
0.26024932 -3.55099893 -0.14022182
-0.15951242 -3.58098698 -0.17956065
-0.27503374 -3.58455467 -0.22421616
-0.38816491 -3.59101367 -0.25866970
-0.50299835 -3.60390925 -0.27062058
0.41782612 -3.61035681 -0.18431768
0.55141956 -3.59788132 -0.23205127
0.65265810 -3.58415818 -0.27008423
0.82352662 -3.61692095 -0.28351587
0.76103228 -3.56865120 -0.29353127
-0.61591965 -3.61889148 -0.26757744
-0.72738355 -3.63528466 -0.24938880
-0.83199167 -3.65634155 -0.20967688
-0.93480426 -3.67660546 -0.16717835
-1.03204370 -3.69847870 -0.11909498
-1.11428905 -3.71000981 -0.07042865
-1.20559382 -3.71725011 -0.02155244
-1.30774188 -3.73549747 0.03227901
-1.40840912 -3.75502682 0.07910316
-1.50391138 -3.77850842 0.12922694
-1.65192735 -3.86242151 0.17622598
-1.59422505 -3.80680609 0.18365301
0.46413729 -4.61040688 -1.30698967
0.58550000 -4.61279726 -1.33665121
0.65093255 -4.56431723 -1.32263660
-1.20820558 -4.01884413 -0.82956058
-1.07801664 -4.12129498 -0.98837334
-1.19339812 -4.00527239 -0.93781811
-1.15915442 -4.04570723 -0.98934102
-0.91571778 -4.26531172 -1.11877203
-0.73947436 -4.31182098 -1.09485865
-0.81367475 -4.31312704 -1.13486195
-0.71278596 -4.36019611 -1.14989102
-0.61026484 -4.40054941 -1.17063308
-1.04600000 -4.16589212 -1.04655373
-1.01542914 -4.21025658 -1.10652959
-0.50903797 -4.44184685 -1.19170153
-0.40917516 -4.48910236 -1.20951724
-0.30925408 -4.53421307 -1.23340726
-0.21286583 -4.58359051 -1.25378788
-0.08934614 -4.65327835 -1.29301012
0.02485769 -4.68248510 -1.31435847
0.13503903 -4.71487522 -1.33670950
0.39198893 -4.65548229 -1.32660091
0.25222766 -4.73857880 -1.35608757
0.32340831 -4.69344521 -1.34148991
0.71634173 -4.51804113 -1.30857539
0.77981555 -4.47272110 -1.29500389
-1.89454794 -4.07475090 0.12638204
-1.71135533 -3.91783881 0.16711998
-1.79095411 -3.96894169 0.23432477
-1.84822500 -4.02054596 0.21759354
-1.52985346 -4.39456797 -1.57728958
-1.54744756 -4.43412828 -1.64176607
-1.51393831 -4.29545164 -1.54746485
-1.51590884 -4.27625990 -1.46898544
-1.51377511 -4.19307041 -1.38335872
-1.52958524 -4.19583321 -1.29514384
-1.52381396 -4.11721420 -1.20969212
-1.53661585 -4.11733103 -1.13257670
-2.41985059 -5.03264046 -1.07738113
-2.50023031 -5.02636766 -1.11630023
-2.46117163 -5.06989241 -1.18409967
-2.54081678 -5.04819393 -1.22132802
-2.58212614 -5.04861403 -1.33058834
-2.61423612 -5.02300978 -1.44481552
2.73471236 -4.47544909 0.37266356
2.73882818 -4.35974169 0.38721451
2.68662906 -4.29803991 0.36837289
2.39337182 -4.31568050 -0.25081122
2.47899842 -4.36754179 -0.18880655
2.54278708 -4.44178867 -0.13250330
2.61771011 -4.51378536 -0.11070023
2.32476783 -4.25141430 -0.31696668
2.70235729 -4.59955168 -0.10998899
2.70522571 -4.67818308 -0.13947561
2.78453302 -4.68412971 -0.11634337
2.25797105 -4.18378925 -0.38271406
2.86725640 -4.77292728 -0.12031923
2.93538213 -4.95467377 -0.06415589
2.95122743 -4.86946726 -0.10432253
2.91704202 -5.07337809 0.33190230
2.84888124 -4.90365219 0.36916575
2.85068846 -4.79413557 0.40261656
2.80662751 -4.72379446 0.38510415
2.76970220 -4.65498114 0.37192902
2.78539562 -4.53956413 0.38738936
1.17068541 -3.89857697 -1.05546141
1.21476948 -3.85689497 -1.06961596
1.22487819 -3.84173751 -1.15008914
1.29814589 -3.80020666 -1.22372997
1.37002611 -3.75854754 -1.21577823
1.44012237 -3.71856761 -1.20359421
1.91839099 -3.87239027 -0.73500282
1.98812592 -3.92786574 -0.65894860
2.05676484 -3.98840117 -0.58552933
2.12420297 -4.04858732 -0.51245987
2.19101119 -4.11460257 -0.44590798
1.84690726 -3.81607509 -0.80978620
1.71004915 -3.74982643 -0.88905853
1.77057314 -3.75389576 -0.87379634
1.66421604 -3.64876294 -0.88536245
1.74646151 -3.68011498 -0.87249053
1.57542968 -3.69885159 -1.09619951
1.63319039 -3.64592957 -1.05575299
1.63547564 -3.60757017 -0.94396263
1.51609504 -3.69446778 -1.19409180
1.07900739 -3.93276262 -1.02127612
1.04176724 -4.00275373 -1.03286552
3.13618040 -5.11352158 -0.15607861
3.02296782 -4.94296789 -0.04469635
3.11604476 -4.99641466 -0.03646481
3.15390277 -5.04052210 -0.08198312
-3.10703230 -5.77365351 -0.48872131
-3.03834677 -5.78418207 -0.54275095
-2.93706155 -5.73574877 -0.55817634
-2.87169909 -5.77771139 -0.55160046
-2.83079767 -5.71337461 -0.54816097
-3.77698159 -6.34252739 -0.22397129
-3.76405120 -6.26955128 -0.17614444
-3.74260974 -6.09568644 -0.30130813
-3.61858845 -5.95388508 -0.31112534
-3.69128466 -5.98405886 -0.28878590
-3.48424888 -5.96388865 -0.35441667
-3.39625525 -5.89934206 -0.37867990
-3.22870994 -5.84176779 -0.40656918
-3.30968451 -5.82977009 -0.40159062
-3.77403188 -6.38658810 -0.09302457
-3.80681777 -6.38072395 -0.15382835
-2.97748470 -5.72778559 -0.16419356
-3.05557919 -5.75748205 -0.13874108
-3.25995708 -5.97399712 -0.09928567
-3.19325376 -5.88115311 -0.10392611
-3.12931347 -5.78253841 -0.10574498
-3.53889632 -6.35607576 0.05166859
-3.61408806 -6.36677885 0.08152832
-3.69881678 -6.50313616 0.00170806
-3.49645638 -6.26126146 0.01648052
-3.44564462 -6.16891909 -0.01648060
-3.38745260 -6.07904816 -0.04147836
-3.32612395 -5.98983097 -0.05949213
-3.96177149 -7.10761738 0.18483062
-3.88551903 -7.12692547 0.18926118
-3.90051317 -7.11744642 0.28474003
-3.91101766 -7.22227621 0.35646865
-3.92622185 -7.29927444 0.34013385
-3.95293379 -7.38992643 0.39620391
-3.98187232 -7.48398304 0.45066494
-4.00860691 -7.57921743 0.50469458
-4.01679230 -7.67497635 0.55831617
-4.00439835 -7.77054882 0.61171627
