2.05778646 -6.86672544 -5.04270029
2.06369162 -6.88469505 -4.94100809
2.01558805 -6.87103081 -4.94010592
2.07377434 -6.88103724 -4.83518839
2.02139139 -6.87891674 -4.83711815
1.98271060 -6.84338522 -4.84908056
2.03397584 -6.85895395 -4.72981215
1.98612666 -6.82323217 -4.75283527
1.94682348 -6.78389072 -4.87460470
2.04586220 -6.81114292 -4.63298368
2.09366083 -6.85894156 -4.72468233
2.11456323 -6.80702782 -4.62221479
2.12713504 -6.72459984 -4.53987551
2.12713504 -6.72459984 -4.53987551
2.11456323 -6.80702782 -4.62221479
2.17742276 -6.78533840 -4.62573195
2.19055367 -6.69899893 -4.53817320
2.19508696 -6.62425327 -4.44818926
2.13138938 -6.64824152 -4.46059513
2.13138938 -6.64824152 -4.46059513
2.18101668 -6.60196638 -4.34843969
2.11639214 -6.62652588 -4.35980511
2.11639214 -6.62652588 -4.35980511
2.16573977 -6.60473490 -4.24046040
2.10803604 -6.64520597 -4.24578142
2.10803604 -6.64520597 -4.24578142
2.15888238 -6.61857653 -4.11124897
2.11082983 -6.66764498 -4.11491871
2.11082983 -6.66764498 -4.11491871
2.14658976 -6.64933348 -3.97584081
2.09510851 -6.70059919 -3.99227309
2.09510851 -6.70059919 -3.99227309
2.12073493 -6.68640137 -3.83360028
2.06030083 -6.74353361 -3.83899736
2.18720078 -6.59136248 -3.97436762
2.15231705 -6.60915422 -3.83888316
2.10140729 -6.61479235 -3.71638942
2.06498694 -6.68744230 -3.69839525
2.10580111 -6.63320589 -3.59503889
2.04394460 -6.68858576 -3.56937432
2.13778949 -6.68483925 -3.49798107
2.07054877 -6.72392654 -3.46218324
2.00991178 -6.76416969 -3.43100739
2.11597276 -6.76185846 -3.36849070
2.05214810 -6.79690742 -3.33761978
1.98640597 -6.81749201 -3.29978943
1.95215714 -6.80253315 -3.39744425
1.91985106 -6.84095955 -3.27079797
1.89136744 -6.83391142 -3.36490941
1.86510599 -6.88417387 -3.24964166
1.83611453 -6.87525940 -3.34068012
1.80072272 -6.86798334 -3.42644835
1.79803061 -6.93505859 -3.32333326
1.75806713 -6.92517853 -3.40513945
1.71438289 -6.91720390 -3.48773313
1.76223230 -6.86330986 -3.51522636
1.76223230 -6.86330986 -3.51522636
1.71438289 -6.91720390 -3.48773313
1.73320270 -6.99288893 -3.39453602
1.68828666 -6.98501587 -3.47320580
1.68828666 -6.98501587 -3.47320580
1.77162957 -7.00137234 -3.31209493
1.77162957 -7.00137234 -3.31209493
1.77418196 -7.06988239 -3.31669188
1.73320270 -6.99288893 -3.39453602
1.80690706 -7.00924587 -3.22818041
1.81455171 -7.07557154 -3.23422503
1.86219800 -7.11771965 -3.26133728
1.85554385 -7.08088017 -3.14891410
1.90164089 -7.11905241 -3.17451501
1.95619524 -7.14178371 -3.20885277
1.94091845 -7.12081766 -3.08633375
1.99307299 -7.14089489 -3.12365580
2.05235147 -7.16164494 -3.15071702
2.04800820 -7.14696503 -2.99947309
2.10655022 -7.16428614 -3.02918887
2.14820266 -7.18066788 -3.09067678
1.99022830 -7.12384033 -2.97972655
2.04729724 -7.13198042 -2.84661674
1.94051218 -7.09219456 -2.95384622
1.99130785 -7.10046196 -2.83573389
2.04362702 -7.11147118 -2.71103072
2.09663248 -7.14420938 -2.71541166
2.07719040 -7.12370062 -2.59788346
2.12627172 -7.16798210 -2.59769297
2.17909908 -7.21910763 -2.59336257
2.15010762 -7.18522692 -2.48830462
2.20910645 -7.23778725 -2.48624754
2.27738857 -7.28233528 -2.48702216
2.23666310 -7.27100801 -2.59106421
2.34561968 -7.32506704 -2.50078750
2.33528256 -7.25400400 -2.40162182
2.40719676 -7.29305315 -2.41204762
2.47481823 -7.33663559 -2.42832780
2.45635414 -7.26502657 -2.31661558
2.53122687 -7.30763149 -2.33072400
2.60231543 -7.36876392 -2.35698533
2.57823801 -7.28829098 -2.22992015
2.65754271 -7.36053467 -2.25210500
2.72125316 -7.44386482 -2.27789640
2.69619823 -7.34920740 -2.14283085
2.76512766 -7.43680477 -2.16208267
2.81720614 -7.53327799 -2.17549253
2.79977036 -7.43430281 -2.04272556
2.85567093 -7.53353214 -2.05042124
2.89736128 -7.63575840 -2.05655479
2.88199592 -7.53830671 -1.92581952
2.92538786 -7.64544773 -1.92623866
2.95403671 -7.75521708 -1.92601001
2.94180751 -7.65926456 -1.79913545
2.96767521 -7.77295685 -1.79719245
2.98127580 -7.88917732 -1.79521143
2.96832275 -7.79336452 -1.67594337
2.97656441 -7.91250515 -1.67521966
2.97257710 -8.03050327 -1.67956257
2.96182108 -7.93852568 -1.56207240
2.95371914 -8.05901241 -1.56969178
2.94121075 -8.17085171 -1.58665752
2.93068337 -8.08880424 -1.46636081
2.91411138 -8.20312023 -1.48540914
2.89280248 -8.31400681 -1.51066732
2.84904194 -8.22228241 -1.41209841
2.81459022 -8.32427883 -1.44354093
2.79823375 -8.41715908 -1.48289478
2.75239086 -8.33714294 -1.37529707
2.74369216 -8.43648720 -1.40790772
2.74103808 -8.52963448 -1.44340122
2.77905869 -8.47090054 -1.33388591
2.79569387 -8.56622028 -1.36493468
2.83647013 -8.50156879 -1.27629638
2.86646509 -8.59121037 -1.29286849
2.89106297 -8.51872540 -1.20553815
2.82548571 -8.39230728 -1.24385071
2.87043977 -8.41006088 -1.17955625
2.86735392 -8.39291763 -1.09037185
2.86196947 -8.28557301 -1.15817130
2.85977268 -8.26972485 -1.07995880
2.82111740 -8.24535656 -1.00718129
2.82493949 -8.36590672 -1.00959408
2.78732538 -8.21410370 -0.93079746
2.77632833 -8.33127594 -0.93468332
2.84369588 -8.19736767 -0.85040075
2.81424713 -8.10008144 -0.92241621
2.88473868 -8.09214401 -0.86624897
2.96265912 -8.08460045 -0.81244379
2.91916537 -7.98148632 -0.88129723
2.98690152 -7.96881247 -0.82128221
3.03506827 -7.94742727 -0.73145020
2.99341607 -7.84840107 -0.81537724
3.03694773 -7.83345461 -0.72145611
3.06781864 -7.81811380 -0.61266470
3.02335978 -7.71639633 -0.70744926
3.05365944 -7.70396423 -0.60155314
3.07170463 -7.69253492 -0.48040569
3.01947403 -7.59127426 -0.58507001
3.04228139 -7.58145809 -0.46793535
3.05409122 -7.57484198 -0.34330839
2.99372077 -7.47502804 -0.45400468
3.00551796 -7.46986008 -0.33120632
3.01048326 -7.46776485 -0.20572852
2.93225789 -7.37840223 -0.31664068
2.93497539 -7.37863111 -0.19589958
2.93272781 -7.37873268 -0.07433303
2.83342242 -7.31120014 -0.18844533
2.82954931 -7.31446362 -0.07773633
2.82159972 -7.31629181 0.03704900
2.71346855 -7.26917934 -0.07792681
2.70762730 -7.26971245 0.02796929
2.69739199 -7.27574444 0.13131292
2.59680414 -7.23853683 0.02483266
2.59106421 -7.24133062 0.12467140
2.58246684 -7.24738789 0.22230053
2.48736477 -7.22014856 0.12298243
2.47875500 -7.22539330 0.21668762
2.46898961 -7.23195887 0.30932605
2.38111305 -7.20408440 0.21861784
2.37191916 -7.21161509 0.30876732
2.35996938 -7.22138071 0.39744371
2.27934432 -7.18766499 0.30806887
2.26984549 -7.19367123 0.39515790
2.25802279 -7.20135450 0.47790390
2.20205855 -7.14310455 0.39461184
2.19305515 -7.14342213 0.47761187
2.18290877 -7.14392996 0.55597681
2.16069841 -7.06861305 0.47879288
2.15700293 -7.06630182 0.55936736
2.15309191 -7.06372356 0.63830370
2.15309191 -7.06372356 0.63830370
2.15700293 -7.06630182 0.55936736
2.15658379 -6.98622227 0.56335479
2.15205050 -6.98373365 0.64224041
2.14980268 -6.98201895 0.72150689
2.14656448 -7.05967283 0.71542412
2.17766404 -6.91011810 0.64886916
2.17269897 -6.90941954 0.72825003
2.16942239 -6.90978765 0.80581486
2.22589445 -6.85134745 0.73529792
2.22923446 -6.86588764 0.81616443
2.22947550 -6.87569141 0.89549452
2.29088759 -6.82845116 0.82799983
2.29883695 -6.85245180 0.91079664
2.30314183 -6.86413527 0.99012661
2.36203933 -6.81650162 0.92660683
2.35408998 -6.78970671 0.84001297
2.42309570 -6.75322294 0.85685176
2.42431474 -6.76926184 0.93771833
2.49726987 -6.71361494 0.87292856
2.49616504 -6.72693634 0.95150930
2.57557130 -6.65699053 0.88877678
2.57682848 -6.66153669 0.96229076
2.58367324 -6.65903521 1.04018569
2.65537119 -6.57852411 0.97915477
2.65294576 -6.56842852 1.05699909
2.67780995 -6.57235241 1.13340843
2.63253856 -6.67292786 1.11409330
2.73522210 -6.58371782 1.20228708
2.69301081 -6.69193792 1.19236934
2.77580762 -6.59781361 1.29013813
2.72055459 -6.70646572 1.28653169
2.63460851 -6.77923012 1.29208100
2.72466922 -6.70743084 1.38883388
2.78027749 -6.60737610 1.39279604
2.77791572 -6.61418295 1.49991119
2.80812621 -6.49072409 1.39962792
2.80688167 -6.50614023 1.50579083
2.79607487 -6.51891565 1.61328709
2.81138992 -6.39512682 1.51304197
2.80068469 -6.41478443 1.62020791
2.78743958 -6.42312765 1.73330426
2.79993534 -6.29062748 1.54735434
2.79395413 -6.25809336 1.45792866
2.77316618 -6.15132046 1.52756941
2.77782679 -6.19194460 1.61422670
2.80810094 -6.36990643 1.41465080
2.78453159 -6.33831215 1.33007610
2.76562309 -6.21970415 1.38377976
2.79392910 -6.47217083 1.30191004
2.74981284 -6.45863390 1.23075807
2.74172378 -6.32129574 1.26531184
2.70878267 -6.32661581 1.20157599
2.67698479 -6.20898628 1.24415541
2.71073818 -6.20386887 1.31923127
2.70701766 -6.45178938 1.16480005
2.70350003 -6.45632267 1.08731139
2.72201514 -6.32805157 1.12818909
2.75727987 -6.33895969 1.05089092
2.75537515 -6.19624901 1.09509575
2.70567179 -6.20065594 1.17203844
2.72364044 -6.47272968 1.00502241
2.70159531 -6.46972036 0.92835921
2.75367332 -6.34726477 0.95298243
2.64302778 -6.57609892 0.90531069
2.64565659 -6.57782602 0.83258414
2.67994332 -6.47833014 0.85318178
2.58627653 -6.65766382 0.81538987
2.62370038 -6.68585539 0.74168545
2.68986154 -6.60116673 0.76794678
2.51108646 -6.70419264 0.79317951
2.54817986 -6.74035931 0.71626228
2.58143806 -6.78259563 0.63605601
2.66434932 -6.72085333 0.66669846
2.44042969 -6.74049854 0.77295011
2.47525001 -6.76979494 0.69508052
2.50189233 -6.80839968 0.61302018
2.51501036 -6.82178450 0.52190566
2.60489297 -6.80438709 0.54196990
2.41683507 -6.82424784 0.59670210
2.39358330 -6.79119253 0.67731470
2.42399716 -6.84008312 0.51032418
2.42519093 -6.84181070 0.42253673
2.51771522 -6.82643223 0.43019414
2.32922530 -6.83968973 0.58584458
2.33488894 -6.85226154 0.50283188
2.33755612 -6.85572863 0.41744447
2.33742881 -6.85553789 0.32819664
2.42333698 -6.84079456 0.33298412
2.25124145 -6.86912584 0.49474269
2.25397182 -6.87247801 0.40931720
2.25583839 -6.87362146 0.32192338
2.25769258 -6.87490368 0.23031351
2.33688283 -6.85456038 0.23668836
2.18990588 -6.91651821 0.40209153
2.19620442 -6.92035341 0.31529456
2.19888401 -6.92228317 0.22406568
2.20043325 -6.92412472 0.13077956
2.25903869 -6.87604666 0.13667187
2.17551804 -6.99321938 0.31119281
2.18043256 -6.99537802 0.22035760
2.18381047 -6.99782944 0.12741436
2.18468666 -7.00007677 0.03163928
2.20114422 -6.92563581 0.03591881
2.18502951 -7.07115269 0.21922740
2.18955040 -7.07328606 0.12458251
2.19094706 -7.07578754 0.02852805
2.19248366 -7.07750225 -0.06902489
2.18732810 -7.00134659 -0.06521522
2.19094706 -7.07578754 0.02852805
2.18955040 -7.07328606 0.12458251
2.22411656 -7.14238071 0.12313484
2.23177409 -7.14160585 0.02643273
2.23759031 -7.14104748 -0.07192024
2.19248366 -7.07750225 -0.06902489
2.24001575 -7.14074278 -0.17041288
2.19549322 -7.07766724 -0.16688259
2.30795479 -7.17838192 0.02602636
2.31382155 -7.17792463 -0.07378698
2.31592965 -7.17486477 -0.17304157
2.31738997 -7.17156267 -0.27214375
2.24075222 -7.14053917 -0.26799121
2.40328550 -7.19586849 -0.07485368
2.40709519 -7.19369698 -0.17503528
2.40695548 -7.19095373 -0.27237234
2.40414882 -7.18915081 -0.36675054
2.31632328 -7.16987371 -0.36525208
2.50218439 -7.21310091 -0.17663534
2.50222254 -7.21094227 -0.27317238
2.50093985 -7.20920229 -0.36737281
2.49730802 -7.20849085 -0.45912233
2.40218067 -7.18809652 -0.45782706
2.60700130 -7.23354578 -0.27756619
2.60441041 -7.23042250 -0.37224916
2.60013103 -7.23190784 -0.46615753
2.58782578 -7.23298740 -0.55866897
2.49241877 -7.20916414 -0.54782414
2.71433234 -7.26450586 -0.38823709
2.70635724 -7.26439142 -0.48411375
2.69099164 -7.26679182 -0.57831419
2.66559386 -7.27502060 -0.67787355
2.57948256 -7.23501921 -0.64874226
2.81189775 -7.31285048 -0.51751184
2.78937006 -7.32127047 -0.61887449
2.75693679 -7.33450222 -0.71727824
2.71699905 -7.36304951 -0.80253863
2.63893890 -7.30250120 -0.76848018
2.87101102 -7.40043497 -0.64904702
2.83551788 -7.41699457 -0.74590153
2.79362416 -7.44069052 -0.83376521
2.73806667 -7.48483181 -0.88758314
2.67237496 -7.41033983 -0.86066145
2.90122175 -7.51233768 -0.76858175
2.85488367 -7.53574181 -0.85370243
2.79749727 -7.57010508 -0.91097450
2.75006676 -7.59909678 -0.96268439
2.69729018 -7.52027416 -0.93900096
2.90216160 -7.63743448 -0.87055391
2.84198141 -7.66443205 -0.92567980
2.79561758 -7.68476343 -0.98235500
2.78194118 -7.68856049 -1.04385579
2.73772359 -7.60050583 -1.02643287
2.86297274 -7.76814461 -0.93383253
2.82152367 -7.78276062 -0.99154902
2.81563115 -7.78524971 -1.05661821
2.81043744 -7.78278589 -1.11824584
2.77126122 -7.68482637 -1.10458183
2.83062863 -7.89236450 -0.99838102
2.83125091 -7.89936161 -1.06642175
2.83612728 -7.89830732 -1.12995434
2.81748533 -7.89025640 -1.18928361
2.79941487 -7.77603006 -1.17768955
2.84601974 -8.02426815 -1.07512045
2.84422922 -8.02542400 -1.13974512
2.82257771 -8.01591206 -1.20111895
2.81663442 -7.99854088 -1.26317847
2.82600617 -7.87716436 -1.25130498
2.85101032 -8.15704823 -1.14702165
2.82285690 -8.14669895 -1.20609689
2.78995419 -8.12319279 -1.26846123
2.81950450 -8.11591625 -1.33486366
2.85981083 -7.99164438 -1.32239342
2.82200623 -8.27386570 -1.22026885
2.77523613 -8.24841595 -1.27793455
2.78328705 -8.23004055 -1.35172784
2.88735461 -8.11087513 -1.38572288
2.77338219 -8.36345577 -1.30325615
2.90895557 -7.98072386 -1.38291633
2.94137573 -7.96030426 -1.46537030
2.94209957 -7.83336544 -1.46241140
2.91181278 -7.84808350 -1.37609708
2.95790958 -7.81403828 -1.56525981
2.94225192 -7.69207859 -1.56715190
2.92592120 -7.70765924 -1.46408772
2.94725537 -7.67431259 -1.68046427
2.91099977 -7.55813026 -1.68221664
2.90933633 -7.57119703 -1.56971717
2.89952016 -7.54652309 -1.80279267
2.84613395 -7.44058895 -1.80305934
2.85702968 -7.44734478 -1.68527710
2.82700944 -7.43585205 -1.92278457
2.75206065 -7.34351826 -1.91793358
2.77180719 -7.34515667 -1.80338955
2.72835207 -7.34354401 -2.03108072
2.63797379 -7.27091885 -2.02019787
2.65929532 -7.27022076 -1.91414928
2.61277914 -7.27519846 -2.12586546
2.51875639 -7.22900009 -2.11789036
2.53990006 -7.22442865 -2.01674366
2.49170756 -7.24056864 -2.21757674
2.40635848 -7.21144962 -2.21440196
2.42948341 -7.20521498 -2.11570621
2.37525892 -7.23062515 -2.30898356
2.29415107 -7.19934797 -2.30658340
2.32159328 -7.18700457 -2.21238303
2.25887346 -7.22070742 -2.39668202
2.18511820 -7.18738556 -2.39256763
2.22167826 -7.16974688 -2.30452609
2.15396786 -7.13930750 -2.30175781
2.17641950 -7.13473606 -2.20995736
2.24673319 -7.16103506 -2.21110034
2.12355399 -7.14723158 -2.39258027
2.07833314 -7.09568691 -2.39673281
2.09932446 -7.09938192 -2.30079269
2.10079765 -7.13846922 -2.49168253
2.05995798 -7.08804226 -2.49531436
2.05995798 -7.08804226 -2.49531436
2.04483366 -7.02896643 -2.50215912
2.06182480 -7.03583670 -2.40232038
2.07833314 -7.09568691 -2.39673281
2.03137279 -7.07802296 -2.59967399
2.03137279 -7.07802296 -2.59967399
2.01872468 -7.01741076 -2.60777569
1.98931408 -7.00227404 -2.72069430
2.00301623 -6.93806839 -2.73297429
2.02636933 -6.95323086 -2.62249374
2.05024338 -6.96773291 -2.51329613
1.99698424 -7.06658125 -2.71002746
1.95303333 -7.05068207 -2.82835555
1.95923030 -6.98614645 -2.83387971
1.99698424 -7.06658125 -2.71002746
1.95303333 -7.05068207 -2.82835555
1.92630219 -6.97178364 -2.94448709
1.94965529 -6.90994024 -2.95243645
1.97852004 -6.92261362 -2.84542298
1.91875899 -7.03510046 -2.94208717
1.88148773 -7.02586842 -3.04440212
1.89479613 -6.96175194 -3.04728460
1.91875899 -7.03510046 -2.94208717
1.89830101 -7.08490562 -3.05558968
1.88148773 -7.02586842 -3.04440212
1.84627366 -7.01777935 -3.14119315
1.80690706 -7.00924587 -3.22818041
1.83191121 -6.94495106 -3.23665071
1.86598241 -6.95422125 -3.14726305
1.84627366 -7.01777935 -3.14119315
1.89361513 -6.89292383 -3.15587306
1.92147660 -6.89990807 -3.05677080
1.94689965 -6.84889650 -3.17321968
1.96927524 -6.85141087 -3.07291102
1.99179029 -6.85565233 -2.96936440
2.04206538 -6.83214617 -3.10073447
2.06225634 -6.83619785 -2.99768281
2.08233333 -6.83815336 -2.89080882
2.01773405 -6.86785555 -2.86322689
2.10158515 -6.84220409 -2.78397298
2.03717613 -6.87953901 -2.75327969
2.11486793 -6.84832525 -2.67209578
2.05515790 -6.89162827 -2.64232945
2.12418914 -6.85257912 -2.56007886
2.07227588 -6.90487289 -2.53132844
2.12492561 -6.86315727 -2.44237256
2.08538103 -6.92294359 -2.41747022
2.06878376 -6.97564411 -2.41211104
2.09914684 -6.92778206 -2.31810141
2.08459401 -6.98215866 -2.31229782
2.07893014 -7.04162741 -2.30481815
2.09696245 -6.97984743 -2.21709418
2.09195924 -7.04045963 -2.21124005
2.11809349 -7.09699488 -2.20840812
2.09932446 -7.09938192 -2.30079269
2.10404849 -7.03560877 -2.11869073
2.13302732 -7.09412527 -2.11640453
2.13302732 -7.09412527 -2.11640453
2.19052815 -7.13243723 -2.11583328
2.11809349 -7.09699488 -2.20840812
2.14002466 -7.09183931 -2.02150583
2.20163965 -7.13048172 -2.02090883
2.27437878 -7.15778446 -2.01960111
2.26261973 -7.15924501 -2.11604905
2.35557556 -7.17949963 -2.01615953
2.34396887 -7.18131590 -2.11382675
2.44646168 -7.19896698 -2.01513100
2.36565852 -7.17809010 -1.91731143
2.45860195 -7.19903040 -1.91472077
2.55515146 -7.22647285 -1.91484773
2.46812582 -7.19967842 -1.81536460
2.56988215 -7.22519016 -1.81132627
2.67462277 -7.27296352 -1.80727541
2.57878423 -7.22313309 -1.71064949
2.68934083 -7.27475405 -1.69730294
2.78486204 -7.34919500 -1.68812168
2.69797611 -7.27592230 -1.58566701
2.78989053 -7.35597610 -1.57313311
2.85986161 -7.45708513 -1.57019961
2.78752875 -7.36693573 -1.45770013
2.85423589 -7.47222233 -1.46120501
2.89870763 -7.58563566 -1.46476078
2.84102917 -7.49346733 -1.35720110
2.87714481 -7.60296965 -1.36628079
2.90514588 -7.71899986 -1.37080157
2.84130859 -7.62382078 -1.28234100
2.86274433 -7.73833990 -1.29483676
2.86933494 -7.86285257 -1.30831027
2.81718040 -7.76011848 -1.23742509
2.79709077 -7.65071726 -1.22191978
2.76505136 -7.67495966 -1.16581607
2.76862001 -7.55346918 -1.20576680
2.73391390 -7.58108997 -1.15029800
2.72774196 -7.59562922 -1.08912742
2.69520760 -7.50160742 -1.13444972
2.67690849 -7.51941109 -1.07079005
2.68511200 -7.52379227 -1.00467968
2.61609340 -7.44846201 -1.04937971
2.61856985 -7.45722437 -0.97951049
2.63304663 -7.45145941 -0.91115230
2.54021740 -7.39983797 -0.95023948
2.55860567 -7.39322186 -0.88101780
2.59922934 -7.34933424 -0.82897770
2.48227262 -7.34491539 -0.85688990
2.52133441 -7.30389786 -0.80233544
2.55946922 -7.25523615 -0.73628849
2.44008684 -7.26638556 -0.78078544
2.47159266 -7.22468233 -0.71703690
2.48495197 -7.20940542 -0.63773233
2.37824321 -7.20204020 -0.70863026
2.39271998 -7.18923950 -0.63271630
2.39919639 -7.18720770 -0.54731619
2.30441165 -7.16695309 -0.62782717
2.31010079 -7.16775322 -0.54290968
2.31491375 -7.16862917 -0.45658255
2.23439002 -7.13595533 -0.53798246
2.23731065 -7.13773298 -0.45161727
2.23968530 -7.13923120 -0.36145511
2.19428706 -7.07672739 -0.44522974
2.19509959 -7.07783175 -0.35612160
2.19753790 -7.07787037 -0.26294973
2.19753790 -7.07787037 -0.26294973
2.19509959 -7.07783175 -0.35612160
2.19088364 -7.00354338 -0.35034356
2.18972802 -7.00374699 -0.25790828
2.18880081 -7.00269270 -0.16153637
2.19549322 -7.07766724 -0.16688259
2.20317626 -6.93025827 -0.25135565
2.20243955 -6.92882347 -0.15613933
2.20169044 -6.92733765 -0.06019915
2.25252414 -6.87376070 -0.15024705
2.25597835 -6.87548780 -0.05452275
2.25806069 -6.87632608 0.04151901
2.33292079 -6.85242701 -0.04831299
2.33463526 -6.85222340 0.04780496
2.33601952 -6.85273170 0.14308479
2.41755891 -6.83792448 0.05442110
2.41885400 -6.83843279 0.14962474
2.42102575 -6.83972740 0.24292354
2.51014662 -6.82742262 0.15508527
2.51455307 -6.82795620 0.24762212
2.51728344 -6.82661009 0.33979073
2.61780763 -6.80778980 0.25849238
2.61834097 -6.80107260 0.35410237
2.61809993 -6.80246925 0.44671544
2.72277689 -6.75117826 0.37538573
2.71238923 -6.75031519 0.47794205
2.69552517 -6.74405432 0.57775539
2.79127479 -6.66207027 0.50826705
2.77046132 -6.65137815 0.60627705
2.73729181 -6.63193560 0.69496620
2.82034278 -6.53378582 0.63253838
2.77234054 -6.51735401 0.72287834
2.71197009 -6.49294662 0.78591573
2.76163554 -6.39132977 0.73769796
2.70174766 -6.37408495 0.79690021
2.70624280 -6.35464287 0.88071299
2.69436955 -6.24351454 0.82633626
2.74338722 -6.21970415 0.89814860
2.78460789 -6.20244646 0.99247599
2.75702596 -6.06569195 0.91892397
2.69572830 -6.10580778 0.83497149
2.66040015 -6.14843798 0.74874604
2.71014142 -6.27451277 0.73362160
2.79356050 -6.27825880 0.67083824
2.72926617 -6.16834974 0.65241218
2.83205104 -6.40642881 0.65756792
2.86345553 -6.41854334 0.55256075
2.85424852 -6.29177046 0.57338697
2.84351802 -6.54588795 0.53263617
2.85146737 -6.55599642 0.42305744
2.87800813 -6.43383312 0.44028980
2.79949117 -6.66402578 0.40323442
2.79993534 -6.66925764 0.29536998
2.85384202 -6.56366682 0.31110394
2.72126579 -6.75462008 0.27635974
2.71522117 -6.75853109 0.17266051
2.79620194 -6.67452765 0.18703569
2.61363006 -6.81405067 0.16181567
2.60635352 -6.81194258 0.06574851
2.70859218 -6.76013136 0.07231385
2.50436854 -6.82803202 0.06088483
2.49968266 -6.83005142 -0.03443309
2.60225201 -6.81011438 -0.03034405
2.41415572 -6.83792448 -0.04162067
2.41062546 -6.83610868 -0.13808149
2.49813366 -6.82752419 -0.12977642
2.33006334 -6.85226154 -0.14430396
2.32630491 -6.84898567 -0.23879646
2.40967274 -6.83421612 -0.23136759
2.25042892 -6.87406540 -0.24490462
2.24692392 -6.87167835 -0.33689544
2.32196164 -6.84553099 -0.33087617
2.20317626 -6.93060112 -0.34319413
2.20457315 -6.93124914 -0.43378803
2.24491739 -6.87189436 -0.42756557
2.19101071 -7.00309944 -0.43896917
2.18904209 -7.00200701 -0.52533442
2.20218563 -6.93070269 -0.51899761
2.19428706 -7.07672739 -0.44522974
2.19224215 -7.07508898 -0.53090918
2.19200110 -7.07251167 -0.61346477
2.18722630 -7.00067377 -0.60794067
2.19224215 -7.07508898 -0.53090918
2.23153281 -7.13356733 -0.62116021
2.19200110 -7.07251167 -0.61346477
2.22407866 -7.13603115 -0.69856006
2.18951201 -7.07036495 -0.69486469
2.29369378 -7.17382288 -0.70370305
2.27249956 -7.19673204 -0.76888657
2.21399570 -7.13946009 -0.76889920
2.35665488 -7.23239040 -0.77138817
2.32550454 -7.25827074 -0.83342230
2.25425100 -7.20310688 -0.83887017
2.40376782 -7.30473614 -0.84146076
2.38483405 -7.29735804 -0.91166025
2.31808853 -7.24314690 -0.90872675
2.46093845 -7.34795046 -0.92736876
2.46343994 -7.31059027 -0.98959339
2.39324069 -7.25560427 -0.97905332
2.54336691 -7.37823725 -1.01666749
2.55819941 -7.32603216 -1.07895553
2.47518659 -7.25418186 -1.05740547
2.64525008 -7.41660070 -1.10968685
2.38008475 -7.18115044 -1.14313579
2.39673281 -7.20617962 -1.05392611
2.30839920 -7.15732765 -1.14293253
2.32456493 -7.17222309 -1.05558956
2.32536507 -7.20638323 -0.97686911
2.25567341 -7.14465380 -1.06376767
2.26129889 -7.16252089 -0.98175812
2.25524163 -7.18808413 -0.90896809
2.20501757 -7.11563683 -0.99083787
2.20539856 -7.12869120 -0.91273963
2.20458579 -7.13792324 -0.84005117
2.17818475 -7.06152678 -0.91738743
2.18044496 -7.06541300 -0.84203219
2.18476272 -7.06865072 -0.76832777
2.18044496 -7.06541300 -0.84203219
2.18081355 -6.99422264 -0.84367031
2.18393731 -6.99674988 -0.76647377
2.18476272 -7.06865072 -0.76832777
2.18572807 -6.99888325 -0.68871844
2.18951201 -7.07036495 -0.69486469
2.19615364 -6.92638540 -0.76605469
2.19767761 -6.92817593 -0.68513733
2.20033169 -6.92994118 -0.60319132
2.23249793 -6.86602736 -0.68273723
2.23577404 -6.86767817 -0.59859431
2.23812366 -6.86746216 -0.51339746
2.29907823 -6.82923841 -0.59463227
2.30890727 -6.83721352 -0.50874966
2.31690741 -6.84313107 -0.42124152
2.38742447 -6.81874895 -0.50416529
2.39650416 -6.82487011 -0.41491747
2.40524101 -6.82916212 -0.32399336
2.48303461 -6.81041908 -0.41048554
2.49104738 -6.81667900 -0.31787249
2.49672389 -6.82408285 -0.22348158
2.58274627 -6.79684353 -0.31507871
2.58917189 -6.80165672 -0.22097990
2.59615636 -6.80754900 -0.12608103
2.69224882 -6.75827694 -0.22128467
2.69883943 -6.76117229 -0.12520482
2.70402074 -6.76201057 -0.02742330
2.78562379 -6.68147421 -0.12183961
2.78938270 -6.68081379 -0.02141673
2.79268456 -6.67829943 0.08117768
2.84986734 -6.57628918 -0.01549903
2.85224199 -6.57388926 0.08905099
2.85388041 -6.56945705 0.19937901
2.88795137 -6.46061516 0.09655604
2.88675785 -6.45501471 0.21054134
2.88344336 -6.44734478 0.32634258
2.89399600 -6.33951807 0.21597646
2.88919592 -6.32781029 0.33326349
2.87750053 -6.30961227 0.45246804
2.87761474 -6.21509457 0.32739660
2.86009026 -6.18798256 0.45844924
2.82314897 -6.16941643 0.57421243
2.83310485 -6.07284164 0.44642335
2.76966119 -6.05482197 0.55115122
2.66563201 -6.05959654 0.62380153
2.73379946 -5.94756699 0.48874879
2.63778329 -5.94237280 0.56345642
2.71555138 -5.85588074 0.39806595
2.62448740 -5.84540415 0.46658921
2.61618257 -5.76207399 0.35850888
2.54951310 -5.71554565 0.41735557
2.70921445 -5.78090668 0.30072892
2.70219207 -5.73210478 0.19926472
2.60305166 -5.70228767 0.25362870
2.77195978 -5.80605030 0.13027161
2.76497531 -5.78495741 0.04565886
2.69071221 -5.70213509 0.10345154
2.81427240 -5.90164804 0.08193960
2.81241846 -5.89320278 -0.00067942
2.81119943 -5.88851690 -0.09388933
2.75321627 -5.76524878 -0.03939836
2.84745479 -6.01212788 0.06715809
2.84891510 -6.00748014 -0.02151831
2.84648943 -6.00044537 -0.11560445
2.84021616 -5.99192429 -0.20793813
2.79643059 -5.86877012 -0.17160660
2.87427473 -6.11948442 -0.01800072
2.87327147 -6.11365557 -0.11780136
2.86706185 -6.10493183 -0.21520190
2.86025524 -6.09614372 -0.31199291
2.82148552 -5.97187233 -0.29986545
2.89097381 -6.22756481 -0.11763627
2.88725305 -6.22181225 -0.21690355
2.88266873 -6.21476412 -0.31464699
2.86910629 -6.21018028 -0.40762830
2.84194350 -6.08696270 -0.40394560
2.89511371 -6.34160089 -0.21769090
2.89035177 -6.33868027 -0.31725025
2.87837648 -6.33639479 -0.41138718
2.85489631 -6.33622932 -0.49991119
2.84847093 -6.21094179 -0.49591103
2.87591290 -6.46169424 -0.31954876
2.86572838 -6.46133900 -0.41738105
2.84047031 -6.45891333 -0.51042587
2.79865289 -6.45201778 -0.59374338
2.81875515 -6.33531475 -0.58198422
2.82096481 -6.57693720 -0.41856205
2.79546547 -6.57306337 -0.51351172
2.75277185 -6.55503130 -0.60002929
2.69617271 -6.52510023 -0.66834933
2.74775553 -6.43009996 -0.66611433
2.72731042 -6.66591787 -0.51247036
2.68846440 -6.64372015 -0.60095632
2.63305926 -6.60592842 -0.67143518
2.60221362 -6.58921671 -0.75409228
2.67513061 -6.51627445 -0.75418121
2.61083603 -6.70971632 -0.59736252
2.56368518 -6.66911840 -0.67259079
2.52853465 -6.64968872 -0.75679719
2.54285908 -6.67824841 -0.84086388
2.60380101 -6.59632826 -0.84101629
2.49217749 -6.71513891 -0.67280668
2.46620846 -6.70218611 -0.76180059
2.49201274 -6.74119711 -0.84246391
2.52120733 -6.77323627 -0.94837272
2.59285450 -6.70831966 -0.91408575
2.40992689 -6.75051785 -0.76467049
2.43260717 -6.78516054 -0.85515016
2.44431543 -6.79881239 -0.95862073
2.45380139 -6.80123758 -1.05326569
2.54671931 -6.77294445 -1.04057944
2.36666179 -6.80978394 -0.85785502
2.36963320 -6.81500292 -0.95013791
2.37246513 -6.81646347 -1.04492259
2.38841510 -6.81370783 -1.13448775
2.47674870 -6.79779625 -1.14286911
2.29693222 -6.83074999 -0.94187093
2.29803705 -6.82880688 -1.03124583
2.29929423 -6.82789278 -1.12114131
2.30014491 -6.82466698 -1.20958912
2.38416076 -6.80894566 -1.22199595
2.22877717 -6.85778570 -1.01988018
2.22711349 -6.85425568 -1.10779476
2.22699928 -6.85273170 -1.19722044
2.22339272 -6.84940434 -1.28669679
2.29824018 -6.82202578 -1.29810035
2.18914390 -6.91415596 -1.09890544
2.18709946 -6.91015625 -1.18701041
2.18389916 -6.90844202 -1.27754092
2.17939115 -6.90941954 -1.36923969
2.21405911 -6.84593725 -1.37819231
2.16943502 -6.97696495 -1.17864192
2.16700959 -6.97498369 -1.26861358
2.16290784 -6.97793007 -1.36085844
2.15886974 -6.98153639 -1.45342064
2.17346072 -6.91263199 -1.46213210
2.16340327 -7.04035807 -1.25955927
2.15996170 -7.04368496 -1.35205793
2.15913653 -7.04812956 -1.44524252
2.15476799 -7.05880928 -1.54033184
2.15114880 -6.98937178 -1.54814172
2.15996170 -7.04368496 -1.35205793
2.18949938 -7.09610605 -1.34396887
2.19149303 -7.10498238 -1.43862641
2.15913653 -7.04812956 -1.44524252
2.15476799 -7.05880928 -1.54033184
2.20057297 -7.11213207 -1.53456664
2.25150824 -7.13629818 -1.43340719
2.26773739 -7.14213943 -1.53074419
2.27911568 -7.14622831 -1.62850022
2.20516992 -7.11863375 -1.63178945
2.15377760 -7.06833315 -1.63648796
2.15191078 -7.07648611 -1.73308849
2.13599920 -7.00783587 -1.73936164
2.14507866 -6.99889612 -1.64344692
2.15377760 -7.06833315 -1.63648796
2.15191078 -7.07648611 -1.73308849
2.20941114 -7.12314177 -1.72958350
2.28289986 -7.15149832 -1.72593904
2.28410602 -7.15509224 -1.82393634
2.21195102 -7.12499619 -1.82765710
2.15248227 -7.08183241 -1.83012080
2.15248227 -7.08183241 -1.83012080
2.12840509 -7.01671267 -1.83553052
2.20896673 -7.12804365 -1.92468941
2.14667869 -7.08777523 -1.92634034
2.14667869 -7.08777523 -1.92634034
2.12255073 -7.02430630 -1.93115318
2.13447523 -6.95471668 -1.93849313
2.14210725 -6.94643688 -1.84323859
2.14002466 -7.09183931 -2.02150583
2.11494398 -7.03021097 -2.02572179
2.12319851 -6.96500254 -2.03162694
2.14102769 -6.89964104 -2.03793812
2.15488219 -6.88741255 -1.94505847
2.11006784 -6.97136450 -2.12435412
2.12765598 -6.90911484 -2.13072896
2.15489507 -6.85123301 -2.13780212
2.18457246 -6.83953714 -2.04430056
2.11240458 -6.92037868 -2.22336745
2.13662124 -6.86929131 -2.22964072
2.21060514 -6.80244398 -2.14766932
2.12250018 -6.87494183 -2.32466650
2.28385234 -6.75168657 -2.16247630
2.32414579 -6.74660683 -2.06117725
2.24854946 -6.79038000 -2.05051017
2.37355733 -6.76829624 -1.97394848
2.28830957 -6.79752922 -1.95844316
2.20652866 -6.82903528 -1.95100152
2.31145954 -6.80516148 -1.86617291
2.22440886 -6.82687664 -1.85785520
2.16556215 -6.87675810 -1.85087073
2.24099350 -6.82451487 -1.76370549
2.17592454 -6.86795759 -1.75567973
2.15141535 -6.93756008 -1.74765408
2.15969515 -6.92850590 -1.65184093
2.18553734 -6.85939884 -1.66057777
2.19581079 -6.85345507 -1.56567883
2.16657805 -6.91936255 -1.55643415
2.20608425 -6.84887123 -1.47124994
2.26975656 -6.82353687 -1.57562208
2.28183317 -6.82257175 -1.48199308
2.29081130 -6.82180977 -1.38932920
2.36432505 -6.80583429 -1.49230468
2.37276983 -6.80450106 -1.40051699
2.37960196 -6.80532694 -1.31025326
2.47321820 -6.79219580 -1.31775832
2.46624660 -6.79081202 -1.40786970
2.47690082 -6.79641199 -1.23012328
2.57191420 -6.77163649 -1.32072985
2.57378078 -6.77050638 -1.22614837
2.56950140 -6.77196646 -1.13180828
2.66864157 -6.72054863 -1.20953834
2.66012073 -6.72265673 -1.10561049
2.63411331 -6.72151423 -1.00278759
2.74011087 -6.65301609 -1.08779383
2.70766544 -6.64299631 -0.99151093
2.65382171 -6.62453222 -0.91036499
2.76999164 -6.55067539 -0.99510467
2.70893526 -6.52939224 -0.91867000
2.66687655 -6.51379824 -0.84176552
2.73692346 -6.42880440 -0.93042922
2.72017360 -6.42367363 -0.84430528
2.73583150 -6.42937565 -0.75536221
2.76360393 -6.32773352 -0.84515613
2.78308415 -6.33325815 -0.75460029
2.77863955 -6.33047676 -0.66348565
2.80594206 -6.22503757 -0.75040966
2.78523016 -6.22372961 -0.66020936
2.80904055 -6.21910715 -0.57578707
2.77098203 -6.11636066 -0.65436786
2.76745176 -6.11341429 -0.56551367
2.81128836 -6.09370565 -0.48817739
2.70769072 -6.01706791 -0.54802734
2.75164175 -5.99293995 -0.46770677
2.79528785 -5.97152948 -0.38591316
2.68396902 -5.90332413 -0.43256891
2.72901225 -5.87030649 -0.34779108
2.76780725 -5.85186768 -0.25924167
2.65535831 -5.79631042 -0.30117345
2.69965219 -5.76390266 -0.21334787
2.73212314 -5.75695658 -0.12421430
2.61627126 -5.69840193 -0.16737786
2.64966941 -5.68005180 -0.07655533
2.67510557 -5.68102980 0.01381002
2.55869436 -5.62523079 -0.03624903
2.57999063 -5.63070393 0.06044037
2.59404826 -5.65641928 0.15536463
2.48173928 -5.59339428 0.09673382
2.49855256 -5.62238646 0.19677575
2.51484513 -5.66833067 0.29992887
2.41463828 -5.56263781 0.22972938
2.44157267 -5.60411215 0.34432423
2.49045062 -5.63979673 0.46761781
2.37172866 -5.51645184 0.37632546
2.39885354 -5.56176138 0.49599990
2.29342723 -5.42546415 0.38381779
2.30979609 -5.46417046 0.51010835
2.34009576 -5.49882603 0.62936372
2.27192783 -5.33866739 0.50312394
2.27943301 -5.36577940 0.62371266
2.27983928 -5.38391352 0.73625028
2.35510588 -5.52376652 0.75226361
2.27892518 -5.39465666 0.84341633
2.36262345 -5.53492880 0.86426789
2.27832842 -5.39958382 0.94716626
2.35914397 -5.53480196 0.96127480
2.48095202 -5.66049528 0.99100298
2.34788013 -5.52750015 1.05736732
2.43602300 -5.66607046 1.07698715
2.33563852 -5.52010918 1.15478063
2.41847324 -5.63018322 1.17113686
2.32010746 -5.50705433 1.25675273
2.40049148 -5.59905815 1.26730549
2.30756092 -5.49946070 1.35982966
2.37194443 -5.59132433 1.36732209
2.30014491 -5.49869871 1.46040499
2.35299778 -5.59943914 1.46557343
2.30165601 -5.49741650 1.55873251
2.35420418 -5.60788393 1.56045961
2.41593361 -5.70411634 1.55720866
2.37590647 -5.60675383 1.65083754
2.46218300 -5.69840193 1.64345956
2.51989913 -5.80136442 1.63225913
2.46948481 -5.79727507 1.54230022
2.57112670 -5.88691711 1.58562887
2.51520085 -5.88009787 1.50228584
2.61017585 -5.96266603 1.52492797
2.55240846 -5.95577002 1.43769932
2.64541531 -6.03703022 1.44966161
2.58204770 -6.02819204 1.35817885
2.67425442 -6.11303329 1.37628746
2.61350298 -6.10604906 1.29310966
2.72112632 -6.03049088 1.52862346
2.74553347 -6.11434174 1.45345867
2.74432683 -6.06443501 1.61649990
2.68087053 -5.94643688 1.60424542
2.70544314 -5.98476219 1.70449054
2.71336722 -6.04017973 1.79419553
2.74917793 -6.11060762 1.69872510
2.71993232 -6.11110306 1.86621094
2.65986657 -5.97269773 1.89577401
2.67264175 -6.05846643 1.97105312
2.72538018 -6.19516993 1.92298770
2.65406322 -5.90799713 1.78870952
2.62787795 -5.87160206 1.67627347
2.39308810 -5.60209322 1.75381303
2.30587220 -5.49910498 1.65377116
2.31072307 -5.50126410 1.74722230
2.30651999 -5.50614023 1.83945429
2.28973174 -5.37517691 1.75618768
2.28070307 -5.37739897 1.84897852
2.26547718 -5.38024330 1.93748999
2.29130650 -5.51064825 1.92687356
2.26071501 -5.38256741 2.02211523
2.23761559 -5.26009941 1.94957924
2.24272060 -5.26399803 2.03626204
2.24635243 -5.27344561 2.12216997
2.22925949 -5.14955568 2.04809713
2.22966599 -5.16291428 2.13447523
2.22128463 -5.17816591 2.21823692
2.21860528 -5.05157042 2.14592957
2.19534087 -5.06880283 2.22321510
2.17894673 -5.08277178 2.29756713
2.21643400 -4.95804310 2.24259353
2.22075129 -4.97968245 2.32367611
2.20661759 -4.99267340 2.40658712
2.22363400 -4.85642672 2.34197521
2.20670652 -4.86888409 2.42026377
2.16815257 -4.87574196 2.49455237
2.18161345 -4.74952745 2.42623234
2.14573908 -4.75688028 2.49285078
2.08418751 -4.75448036 2.53469348
2.09893107 -4.87164021 2.54528451
2.01149893 -4.74225092 2.55687857
2.01543570 -4.85274410 2.54477668
1.93898833 -4.72776127 2.55619287
1.93185151 -4.62917995 2.58425736
1.86481404 -4.62043047 2.57372999
1.91224444 -4.52998877 2.61655068
1.84841979 -4.52700472 2.59731197
1.78586495 -4.52923965 2.58739400
1.81213903 -4.45251274 2.64018321
1.74842858 -4.46789122 2.63587856
1.68814695 -4.48860312 2.63716102
1.70648408 -4.43463278 2.70234442
1.64603746 -4.44929981 2.69906831
1.59718478 -4.42974377 2.67622280
1.59955943 -4.40542507 2.76315951
1.55800867 -4.36976671 2.73562837
1.53545535 -4.32242537 2.70371580
1.51956904 -4.30817699 2.79876709
1.50427961 -4.25433350 2.76540732
1.50172710 -4.19477606 2.72869468
1.47277367 -4.18333435 2.82567620
1.47733259 -4.11770678 2.78586507
1.48363113 -4.04858637 2.74195242
1.44807434 -4.04212284 2.84251475
1.45358562 -3.96312284 2.79491949
1.45565557 -3.88313222 2.73791409
1.45565557 -3.88313222 2.73791409
1.45358562 -3.96312284 2.79491949
1.41028237 -3.88229418 2.84408951
1.39909458 -3.79693246 2.77917266
1.38049078 -3.71574807 2.70336032
1.44121695 -3.81039310 2.66555572
1.44121695 -3.81039310 2.66555572
1.33033013 -3.71943069 2.82013941
1.31237388 -3.63678646 2.74003482
1.29681766 -3.55946302 2.65143466
1.23144376 -3.56992674 2.76943278
1.21911311 -3.48013282 2.67869925
1.18231177 -3.44277239 2.56499314
1.11976981 -3.42954040 2.69397593
1.07626319 -3.40090442 2.57136822
1.05012894 -3.38801503 2.45159197
0.96944010 -3.38019252 2.57282853
0.93394673 -3.36839509 2.44274092
0.92311454 -3.36216021 2.32530165
0.82500291 -3.35761380 2.43672156
0.80627203 -3.35461688 2.31001186
0.79593515 -3.35983610 2.18419147
0.69392484 -3.35225487 2.30051327
0.67501622 -3.35606456 2.17257166
0.66064107 -3.35921383 2.05621171
0.56259286 -3.35343599 2.17901015
0.53869349 -3.35846472 2.05983114
0.51993728 -3.36283326 1.94400454
0.42126682 -3.35739803 2.07139969
0.39754528 -3.36282039 1.95568740
0.37570319 -3.36795068 1.84241319
0.27533114 -3.36768413 1.97600555
0.25108898 -3.37264943 1.86214733
0.22985640 -3.37625599 1.74945736
0.10238481 -3.38256717 1.77452481
0.12672859 -3.37906241 1.88823080
0.08249834 -3.38647842 1.66170788
-0.02451527 -3.39000869 1.80469739
-0.04668750 -3.39186287 1.69158828
-0.06518985 -3.39677739 1.57828879
-0.17660992 -3.38998342 1.72916436
-0.19678849 -3.39628196 1.61469662
-0.21230654 -3.40100622 1.50010169
-0.32705376 -3.40009189 1.65920627
-0.34412113 -3.40468907 1.54104304
-0.35725182 -3.40849853 1.42220664
-0.47380218 -3.41130471 1.58763516
-0.48733941 -3.41774321 1.46603060
-0.49714294 -3.42432117 1.34396887
-0.61493778 -3.42715311 1.51559436
-0.62563026 -3.43354082 1.38850379
-0.63356704 -3.44024563 1.26245463
-0.75070161 -3.44340754 1.43815649
-0.75797820 -3.44916010 1.30606258
-0.76508951 -3.45169997 1.17547977
-0.87821138 -3.45797324 1.35181677
-0.88562745 -3.45785904 1.21602738
-0.89209133 -3.45681787 1.08230805
-1.00019693 -3.46316719 1.25868297
-1.00823522 -3.46163058 1.12044275
-1.01562607 -3.46574497 0.98531377
-1.11863947 -3.46831036 1.16200626
-1.12811291 -3.47115493 1.02206433
-1.13813245 -3.47432947 0.88871324
-1.23350108 -3.48371410 1.06403434
-1.24584448 -3.48268509 0.92680991
-1.25552118 -3.48676157 0.79387790
-1.34743559 -3.49815249 0.96559244
-1.35939801 -3.49808884 0.83117461
-1.36556959 -3.49454641 0.69866157
-1.45875418 -3.51292157 0.86645210
-1.47206247 -3.50975919 0.73489153
-1.55261171 -3.53448415 0.90303767
-1.56764722 -3.53052211 0.77295011
-1.63851976 -3.57048559 0.93685484
-1.65425360 -3.56461883 0.80968803
-1.69478858 -3.64253902 0.96433526
-1.71387517 -3.62953568 0.84030509
-1.71948791 -3.73007250 0.97746581
-1.74454284 -3.71118927 0.85643268
-1.73095500 -3.82168245 0.98084372
-1.75581956 -3.79780865 0.86055982
-1.73028207 -3.91212416 0.97321171
-1.75183201 -3.88379264 0.85614061
-1.77729332 -3.84942937 0.73160255
-1.74277782 -3.97570729 0.84232426
-1.76266420 -3.93649316 0.72127831
-1.78881121 -3.90111423 0.59543228
-1.81102157 -3.81576490 0.60286111
-1.81813300 -3.88656116 0.47317991
-1.84422910 -3.80183434 0.47865319
-1.86464906 -3.79953575 0.35782316
-1.89811075 -3.73616815 0.35749298
-1.83653355 -3.88083363 0.35177848
-1.84615934 -3.88323402 0.22967859
-1.87539244 -3.80674863 0.23845351
-1.78611910 -3.97455192 0.45813176
-1.80393565 -3.96965003 0.33779699
-1.81753612 -3.97022176 0.21728447
-1.82264102 -3.97062755 0.09507027
-1.84760702 -3.88482141 0.10685484
-1.76407385 -4.06221247 0.31984076
-1.78096330 -4.06437111 0.20232517
-1.78937006 -4.06365967 0.08235867
-1.78454447 -4.05795813 -0.03862372
-1.81747270 -3.96741486 -0.02794396
-1.72193885 -4.15365744 0.18662933
-1.72601533 -4.15166330 0.06988835
-1.72431350 -4.14738369 -0.04579860
-1.71289730 -4.13891363 -0.16336501
-1.77176940 -4.04884052 -0.15936485
-1.66130149 -4.24599075 0.05980543
-1.65948558 -4.24197817 -0.05298619
-1.65139651 -4.23451090 -0.16575240
-1.63608158 -4.22487259 -0.27989009
-1.69312501 -4.12815762 -0.27983928
-1.65139651 -4.23451090 -0.16575240
-1.65948558 -4.24197817 -0.05298619
-1.59332442 -4.34177876 -0.05851020
-1.58679724 -4.33514977 -0.16830488
-1.63608158 -4.22487259 -0.27989009
-1.57482207 -4.32594299 -0.27962339
-1.55651033 -4.31439924 -0.39397696
-1.61269021 -4.21346855 -0.39659294
-1.52807748 -4.44508410 -0.17033671
-1.51708031 -4.43276596 -0.27844241
-1.50002563 -4.41823864 -0.38922760
-1.48890138 -4.41164780 -0.50638759
-1.54113197 -4.30611992 -0.51175922
-1.47743428 -4.55084038 -0.28190920
-1.46299553 -4.53687191 -0.39181817
-1.45448732 -4.52635717 -0.50507963
-1.44614410 -4.52026129 -0.62157935
-1.48195493 -4.40800333 -0.62560487
-1.44175041 -4.65950489 -0.40041533
-1.43512154 -4.64897728 -0.51276249
-1.42869592 -4.64228487 -0.62477946
-1.42216873 -4.64079952 -0.73637736
-1.43899477 -4.52235651 -0.73901868
-1.42317200 -4.77204275 -0.51786739
-1.41733027 -4.76738167 -0.62921137
-1.41200960 -4.76775074 -0.73825681
-1.40778089 -4.77695704 -0.84669268
-1.41560328 -4.65227938 -0.84883875
-1.40385675 -4.89180565 -0.73670751
-1.40886009 -4.89087868 -0.62822086
-1.39825654 -4.90216827 -0.84260362
-1.39843440 -4.92036533 -0.94848704
-1.40365350 -4.79629755 -0.95415080
-1.39759636 -5.01592493 -0.73188192
-1.38651025 -5.02708721 -0.83730817
-1.38979924 -5.04379892 -0.94279796
-1.38803399 -5.06538725 -1.04837644
-1.39372313 -4.94349051 -1.05456090
-1.39312625 -5.14785385 -0.83133972
-1.39311373 -5.16300344 -0.93671519
-1.38719594 -5.18370247 -1.04210329
-1.38059247 -5.20743704 -1.14779627
-1.38010979 -5.09160995 -1.15391707
-1.39995837 -5.28109026 -0.93059433
-1.39303744 -5.29983425 -1.03585541
-1.38469410 -5.31932688 -1.14120555
-1.37373495 -5.34198189 -1.24689853
-1.37091589 -5.23311377 -1.25374317
-1.40375531 -5.41126680 -1.02901077
-1.39669454 -5.42815638 -1.13385284
-1.38300514 -5.45012522 -1.23887277
-1.36165833 -5.46824694 -1.33927023
-1.36170912 -5.36710024 -1.35275650
-1.41193330 -5.53699875 -1.12714779
-1.39336753 -5.55393887 -1.22735488
-1.36873162 -5.57179403 -1.32508564
-1.32941592 -5.58930540 -1.41330481
-1.33147311 -5.49368286 -1.44086146
-1.41546357 -5.66106701 -1.22115779
-1.38971031 -5.67771530 -1.31554878
-1.34546733 -5.69469357 -1.39821851
-1.29755437 -5.71107531 -1.48360586
-1.28159189 -5.61838579 -1.49979699
-1.41584456 -5.78314161 -1.31337714
-1.37275720 -5.79615831 -1.39950109
-1.32582200 -5.80192327 -1.48686957
-1.28573179 -5.80593634 -1.58233976
-1.25469565 -5.72720289 -1.57672691
-1.40032649 -5.89487886 -1.41388893
-1.36644590 -5.89345646 -1.50440669
-1.32941592 -5.88144350 -1.59991515
-1.30686259 -5.87336731 -1.68285155
-1.25478458 -5.80503416 -1.67548633
-1.41725421 -5.97894621 -1.53159499
-1.39031971 -5.96837997 -1.62142706
-1.36763954 -5.95626593 -1.70176029
-1.35820436 -5.94545889 -1.76790881
-1.29261446 -5.87078953 -1.76002288
-1.44469643 -6.05964708 -1.73415518
-1.46029079 -6.06536198 -1.64396763
-1.43375015 -6.05266285 -1.82128239
-1.52071202 -6.16004467 -1.74673986
-1.51492155 -6.15422869 -1.84154963
-1.50943542 -6.14273643 -1.93882334
-1.56873941 -6.26884890 -1.84708643
-1.56164062 -6.27138853 -1.94645536
-1.59933102 -6.38928556 -1.84855950
-1.59249890 -6.39851713 -1.95242381
-1.58611131 -6.40518427 -2.05024338
-1.57564747 -6.41341305 -2.14864731
-1.58814323 -6.52113819 -1.95142055
-1.58363521 -6.53340530 -2.05654216
-1.57138073 -6.54254818 -2.16196847
-1.55753899 -6.54141808 -2.26399136
-1.55981195 -6.41397190 -2.24675894
-1.53897321 -6.64783478 -2.05858660
-1.53616667 -6.65729523 -2.16606998
-1.52092791 -6.65517521 -2.27298212
-1.50397491 -6.64935827 -2.37922120
-1.54142416 -6.53777313 -2.36535382
-1.47589767 -6.75859499 -2.17088294
-1.46135747 -6.75581360 -2.27874732
-1.44670296 -6.74988317 -2.38651037
-1.42520368 -6.73242235 -2.49266028
-1.47579598 -6.62985325 -2.48177743
-1.40106308 -6.85594416 -2.28452539
-1.38711965 -6.84903622 -2.39208508
-1.36757600 -6.83256578 -2.49732065
-1.33887649 -6.80239296 -2.59783244
-1.38974833 -6.69318247 -2.58995938
-1.33736539 -6.95604944 -2.39832044
-1.31562495 -6.93758583 -2.50250196
-1.29288113 -6.91357183 -2.60469007
-1.26339424 -6.88018656 -2.70145559
-1.30123699 -6.76107073 -2.69030595
-1.27623296 -7.05103731 -2.51036263
-1.25687969 -7.02944946 -2.61384583
-1.23743784 -7.00273132 -2.71463704
-1.21093524 -6.97126293 -2.81070423
-1.23648548 -6.84616613 -2.79618931
-1.24110782 -7.15191746 -2.62731934
-1.21997678 -7.12832308 -2.72977424
-1.19236934 -7.10042381 -2.82816529
-1.16491437 -7.06890488 -2.92376256
-1.18240070 -6.93736982 -2.90405369
-1.21328437 -7.25523615 -2.74742579
-1.17928946 -7.23192072 -2.84725142
-1.15229177 -7.20444012 -2.94665861
-1.12599230 -7.16995001 -3.04234481
-1.13639271 -7.03258610 -3.01676941
-1.19631863 -7.36377335 -2.87642097
-1.16501582 -7.34190559 -2.97783446
-1.13684976 -7.31197453 -3.07658100
-1.10975027 -7.27286196 -3.17309260
-1.09918499 -7.13034201 -3.13542771
-1.23676467 -7.46046305 -3.02339792
-1.19310594 -7.45058298 -3.12427807
-1.15747285 -7.42241669 -3.22600889
-1.19310594 -7.45058298 -3.12427807
-1.23676467 -7.46046305 -3.02339792
-1.29272878 -7.58742619 -3.05302453
-1.26160383 -7.58553410 -3.16689563
-1.32127595 -7.71710777 -3.06886005
-1.29827809 -7.71727228 -3.18269300
-1.33540976 -7.84515047 -3.07068872
-1.31388509 -7.84661055 -3.18326426
-1.29672897 -7.85449696 -3.29109073
-1.27896321 -7.87285995 -3.39505672
-1.33273041 -7.97800589 -3.17928958
-1.31864727 -7.98751831 -3.28615093
-1.30903411 -8.00797558 -3.39190745
-1.29836702 -8.03281498 -3.49742270
-1.27216935 -7.90209198 -3.50166392
-1.34065437 -8.11952305 -3.28522372
-1.33259070 -8.13793659 -3.39256763
-1.32334590 -8.16290188 -3.50228620
-1.30189729 -8.19250393 -3.61253810
-1.28211236 -8.06721592 -3.60504580
-1.34834993 -8.26305962 -3.39608526
-1.32695246 -8.28722477 -3.50586724
-1.30342126 -8.31752396 -3.61585259
-1.30342126 -8.31752396 -3.61585259
-1.26747072 -8.35289097 -3.72271371
-1.26223862 -8.22957230 -3.71857381
-1.30189729 -8.19250393 -3.61253810
-1.32919991 -8.40980721 -3.50946093
-1.29981470 -8.43983936 -3.61802387
-1.29981470 -8.43983936 -3.61802387
-1.26880407 -8.47415257 -3.72759008
-1.23362803 -8.51273155 -3.83544159
-1.21865618 -8.39290428 -3.82361913
-1.26880407 -8.47415257 -3.72759008
-1.30759919 -8.55567932 -3.62709093
-1.27977598 -8.59160423 -3.73871422
-1.27977598 -8.59160423 -3.73871422
-1.25312078 -8.62872219 -3.85033751
-1.21513855 -8.66685772 -3.95822740
-1.18844557 -8.55293751 -3.93938231
-1.30455148 -8.69931698 -3.75465131
-1.27938223 -8.73668861 -3.86741757
-1.24590802 -8.77073383 -3.97885036
-1.19846487 -8.80612659 -4.08661318
-1.15966976 -8.70579243 -4.05880260
-1.24590802 -8.77073383 -3.97885036
-1.27938223 -8.73668861 -3.86741757
-1.31844401 -8.82746029 -3.88702464
-1.29012549 -8.85444641 -4.00578451
-1.24893034 -8.88400841 -4.11803007
-1.19846487 -8.80612659 -4.08661318
-1.19349957 -8.92208004 -4.22338057
-1.13811970 -8.84229374 -4.18556356
-1.34870553 -8.91535091 -4.03828144
-1.31138349 -8.93664551 -4.15455246
-1.25930524 -8.96436882 -4.26269627
-1.19347405 -8.99490833 -4.36902380
-1.12608123 -8.94778347 -4.32354975
-1.38140512 -8.95659637 -4.19082022
-1.32696497 -8.98200703 -4.29972553
-1.26501977 -9.00778484 -4.41142511
-1.19117570 -9.01890850 -4.52467394
-1.11808097 -9.00175285 -4.47959375
-1.39771068 -8.98552418 -4.32365036
-1.33709872 -9.00997066 -4.43613768
-1.27416301 -9.02890396 -4.54740524
-1.22146249 -9.04200840 -4.63768148
-1.12650025 -9.03009701 -4.61749077
-1.41207314 -9.00997066 -4.44798565
-1.35989332 -9.03259850 -4.55789471
-1.32056487 -9.04739285 -4.65055847
-1.27328670 -9.05781937 -4.74039030
-1.16628575 -9.04820728 -4.73112011
-1.45439851 -9.02779865 -4.56202221
-1.42540681 -9.04232597 -4.66304111
-1.38148141 -9.05560875 -4.75235271
-1.33416522 -9.06227684 -4.83423567
-1.22411656 -9.06118393 -4.82543468
-1.52076292 -9.04674625 -4.67461014
-1.48890138 -9.05498695 -4.77079153
-1.43997252 -9.06365967 -4.85228062
-1.39367223 -9.06915951 -4.92601013
-1.28766203 -9.06613636 -4.90895557
-1.56981862 -9.10347176 -4.78388500
-1.53871906 -9.10429764 -4.87517643
-1.49467933 -9.10020733 -4.95392275
-1.44516635 -9.10444832 -5.02211618
-1.34627998 -9.07356548 -4.99173975
-1.58989561 -9.21021748 -4.87273884
-1.55892301 -9.19837093 -4.96216440
-1.52447093 -9.18266201 -5.04949474
-1.46921802 -9.16708088 -5.12060833
-1.39018023 -9.10664558 -5.07805443
-1.59666431 -9.29607487 -4.97237444
-1.56147563 -9.27484417 -5.06248522
-1.51984859 -9.25095558 -5.15122604
-1.45493186 -9.24686718 -5.22033262
-1.59148312 -9.35855484 -5.09052467
-1.54924655 -9.33504772 -5.17634439
-1.48542202 -9.32857227 -5.24757195
-1.40075839 -9.33827400 -5.28673506
-1.37354457 -9.25213814 -5.26229000
-1.58047307 -9.41973686 -5.21376705
-1.51206410 -9.41826439 -5.27043009
-1.43010557 -9.42622662 -5.31431723
-1.33924496 -9.43454552 -5.34121323
-1.30846262 -9.34962749 -5.31212044
-1.45707786 -9.50287819 -5.35542345
-1.54652894 -9.48815918 -5.32431173
