-0.96936351 4.19140530 -0.35134035
-0.96857423 4.26751566 -0.33125931
-0.97838765 4.26537848 -0.30507278
-0.95968407 4.19451714 -0.37662598
-0.95704824 4.11972523 -0.39608160
-0.94770396 4.19715309 -0.39993846
-0.94438320 4.12312794 -0.41835171
-0.94821024 4.27161026 -0.38187519
-0.95949787 4.26975584 -0.35749054
-0.96387601 4.34305859 -0.31185579
-0.95535070 4.34464455 -0.33898050
-0.94471073 4.34584332 -0.36430332
-0.94730186 4.41813374 -0.32160226
-0.93693000 4.41881180 -0.34750584
-0.97364479 4.34184504 -0.28480557
-0.92861313 4.34585142 -0.38591823
-0.93176270 4.27257824 -0.40249237
-0.91096687 4.27241421 -0.41803899
-0.90802580 4.34452534 -0.40249237
-0.92116004 4.41803026 -0.36982059
-0.90096724 4.41567755 -0.38726589
-0.92459249 4.48949385 -0.33176562
-0.90925431 4.48835421 -0.35443780
-0.88984340 4.48545837 -0.37258297
-0.89380449 4.55685425 -0.34003779
-0.87531680 4.55365276 -0.35865203
-0.93542600 4.48915863 -0.30586204
-0.86676913 4.48052168 -0.38490561
-0.87729740 4.41163397 -0.39857590
-0.84146118 4.47437859 -0.39286506
-0.85149056 4.40650415 -0.40567166
-0.85292017 4.54809856 -0.37168202
-0.82821530 4.54116678 -0.38030416
-0.83634603 4.61410475 -0.35894987
-0.85807252 4.62003899 -0.34570399
-0.81232613 4.60670424 -0.36784750
-0.81777644 4.67903900 -0.34711868
-0.79435968 4.67128038 -0.35596415
-0.87574118 4.62354612 -0.32687381
-0.78777772 4.59878206 -0.37364024
-0.80278826 4.53385496 -0.38566506
-0.76262611 4.59074736 -0.37823424
-0.77676547 4.52642441 -0.38984954
-0.77057815 4.66287422 -0.36203986
-0.74626791 4.65433407 -0.36700612
-0.75147241 4.72638559 -0.35111701
-0.77488917 4.73521709 -0.34512320
-0.72773552 4.71739244 -0.35611308
-0.73034900 4.78904200 -0.34081960
-0.70705879 4.77954865 -0.34568167
-0.79796344 4.74338436 -0.33662766
-0.70370823 4.70873260 -0.36161545
-0.72126526 4.64618111 -0.37250108
-0.67971075 4.70026636 -0.36785492
-0.69610620 4.63820648 -0.37873310
-0.68402928 4.77028561 -0.35110956
-0.66123796 4.76124001 -0.35731927
-0.66213149 4.83049917 -0.34118444
-0.68428242 4.84042406 -0.33583096
-0.64043468 4.82082033 -0.34734201
-0.63813400 4.88918686 -0.33178794
-0.61736047 4.87882185 -0.33790088
-0.70709604 4.85055828 -0.33111039
-0.61898363 4.81140852 -0.35446757
-0.63866258 4.75239372 -0.36450440
-0.59809840 4.80224228 -0.36272487
-0.61666799 4.74384689 -0.37295523
-0.59692198 4.86873293 -0.34492961
-0.57701963 4.85885239 -0.35291886
-0.57241815 4.92422581 -0.33586821
-0.59209716 4.93507481 -0.32895115
-0.55323058 4.91355658 -0.34355962
-0.54597104 4.97819948 -0.32732800
-0.52734935 4.96684551 -0.33479601
-0.61217821 4.94617558 -0.32283822
-0.53464615 4.90300512 -0.35198814
-0.55783945 4.84909153 -0.36195049
-0.51804221 4.89372873 -0.36231533
-0.54148871 4.84099007 -0.37327540
-0.50928611 4.95564651 -0.34282994
-0.49248856 4.94532728 -0.35233065
-0.48251879 5.00758791 -0.33490771
-0.49998638 5.01918888 -0.32679188
-0.46599677 4.99665833 -0.34409571
-0.45423996 5.05872488 -0.32797575
-0.43832105 5.04746008 -0.33705950
-0.51810920 5.03096676 -0.31933129
-0.45070326 4.98688889 -0.35478774
-0.47767907 4.93664503 -0.36420655
-0.43844765 4.97944355 -0.36816764
-0.46654031 4.93057013 -0.37901607
-0.42322120 5.03705788 -0.34687296
-0.41048905 5.02862215 -0.35899454
-0.39453289 5.08662462 -0.33992612
-0.40922326 5.09750175 -0.33070090
-0.38163692 5.07736158 -0.35110211
-0.36454904 5.13545275 -0.33394718
-0.35186157 5.12549829 -0.34443820
-0.42433804 5.10896063 -0.32181072
-0.37191284 5.07073498 -0.36584458
-0.40168080 5.02323914 -0.37500280
-0.36680511 5.06766033 -0.38304415
-0.39748138 5.02123594 -0.39336392
-0.34156415 5.11771679 -0.35791495
-0.33577141 5.11360741 -0.37382638
-0.31047836 5.16393995 -0.35118401
-0.32113317 5.17287588 -0.33896559
-0.30402294 5.15871382 -0.36570314
-0.27794808 5.20867395 -0.34522000
-0.27113527 5.20244217 -0.35849568
-0.33319518 5.18342590 -0.32894370
-0.30402294 5.15871382 -0.36570314
-0.33577141 5.11360741 -0.37382638
-0.30457392 5.15931606 -0.38262719
-0.33659044 5.11464930 -0.39162907
-0.30893710 5.16309118 -0.40078729
-0.34105784 5.11850643 -0.41032523
-0.27134374 5.20255375 -0.37452629
-0.27535698 5.20614243 -0.39207581
-0.27113527 5.20244217 -0.35849568
-0.23671378 5.24423456 -0.35202539
-0.23652765 5.24386978 -0.36728162
-0.23990053 5.24715328 -0.38413870
-0.20233697 5.28514862 -0.37627602
-0.19932890 5.28183556 -0.35991037
-0.19958951 5.28235722 -0.34520513
-0.24328832 5.25122643 -0.33960596
-0.23671378 5.24423456 -0.35202539
-0.27995843 5.21032000 -0.40987104
-0.24400313 5.25112963 -0.40135315
-0.28444818 5.21449661 -0.42801622
-0.24804613 5.25507545 -0.41909626
-0.20963377 5.29277325 -0.41057095
-0.20600025 5.28900576 -0.39311075
-0.16593494 5.32313728 -0.38477156
-0.16243546 5.31912327 -0.36778793
-0.16920359 5.32684422 -0.40236577
-0.12750021 5.35787058 -0.39490518
-0.12449215 5.35414791 -0.37706527
-0.15893596 5.31502867 -0.35142973
-0.15857112 5.31505156 -0.33691806
-0.21253014 5.29581928 -0.42883524
-0.17200318 5.33000946 -0.42054072
-0.17453472 5.33277941 -0.43908799
-0.21503933 5.29844713 -0.44754630
-0.13297281 5.36432648 -0.43138912
-0.13030724 5.36126661 -0.41302803
-0.08809011 5.38996172 -0.40669173
-0.08526074 5.38643312 -0.38862845
-0.09085246 5.39327574 -0.42488903
-0.04835984 5.41982698 -0.41951326
-0.04559004 5.41628218 -0.40144995
-0.08234946 5.38266563 -0.37072155
-0.13554157 5.36705875 -0.44992891
-0.09355526 5.39638090 -0.44319803
-0.09654843 5.39993238 -0.46148464
-0.13846773 5.37023067 -0.46849105
-0.05410792 5.42738438 -0.45561001
-0.05111475 5.42335606 -0.43759140
-0.00830196 5.44811296 -0.43308672
-0.00568852 5.44416714 -0.41517982
-0.01113877 5.45256567 -0.45094153
0.03222500 5.47555733 -0.44759840
0.03483844 5.47073317 -0.42989996
0.03723596 5.46641493 -0.41215688
-0.00303040 5.44039202 -0.39722079
0.03968560 5.46234894 -0.39434674
0.07829901 5.49129820 -0.42820981
0.08048804 5.48665142 -0.41068262
0.07586427 5.49645758 -0.44571465
0.12015875 5.51531029 -0.44490308
0.12237757 5.50980139 -0.42768863
0.08266219 5.48224449 -0.39317033
0.02912014 5.48111200 -0.46528941
0.07298278 5.50239944 -0.46318227
0.06958009 5.50930119 -0.48041907
0.02536006 5.48776817 -0.48266023
0.11445534 5.52883911 -0.47918308
0.11751553 5.52166128 -0.46210262
0.16306832 5.53883934 -0.46173036
0.16550308 5.53215218 -0.44476902
0.16023898 5.54629230 -0.47870654
0.20763832 5.56156301 -0.47931710
0.21024430 5.55383396 -0.46241534
0.21242589 5.54687977 -0.44566998
0.16739428 5.52622604 -0.42800879
0.21401183 5.54057407 -0.42939368
0.25732350 5.57454920 -0.48134235
0.25960931 5.56654406 -0.46452996
0.30938384 5.58619308 -0.48475993
0.31148353 5.57818890 -0.46803686
0.26147819 5.55935907 -0.44797817
0.31319603 5.57109404 -0.45156696
0.26287052 5.55282974 -0.43208900
0.31460327 5.56473494 -0.43577465
0.36387897 5.59744406 -0.48954010
0.36618710 5.58997631 -0.47288403
0.41961002 5.60850096 -0.49462545
0.42224580 5.60162163 -0.47805879
0.36811551 5.58360958 -0.45630243
0.36983550 5.57801867 -0.44014525
0.36101979 5.60634899 -0.50591320
0.41646793 5.61696625 -0.51080501
0.30678529 5.59529209 -0.50133407
0.35771388 5.61704922 -0.52142256
0.30365810 5.60600710 -0.51709664
0.41299826 5.62736845 -0.52602404
0.47222134 5.62743568 -0.51506400
0.47536343 5.61954308 -0.49898121
0.46884844 5.63716650 -0.53018612
0.52458698 5.64540243 -0.53399831
0.52774400 5.63622141 -0.51900274
0.53074461 5.62870789 -0.50308383
0.47818536 5.61282730 -0.48253366
0.53360373 5.62195492 -0.48682234
0.58251458 5.64178371 -0.52296388
0.58537370 5.63412142 -0.50742465
0.57952881 5.65105343 -0.53755736
0.63254964 5.65341282 -0.54158551
0.63540137 5.64375591 -0.52746099
0.63824558 5.63575220 -0.51232392
0.58810627 5.62735367 -0.49145362
0.64095592 5.62897635 -0.49656880
0.68530250 5.64176893 -0.53305280
0.68834776 5.63357067 -0.51808691
0.68249542 5.65179729 -0.54681987
0.72942573 5.64730740 -0.55323803
0.73214340 5.63684702 -0.53970176
0.73538977 5.62840366 -0.52478808
0.69144517 5.62678003 -0.50234663
0.73888177 5.62150860 -0.50895846
0.77587199 5.62999630 -0.54740065
0.77910346 5.62111425 -0.53245705
0.77338517 5.64106131 -0.56079537
0.81722540 5.62190390 -0.55609721
0.81516296 5.63354111 -0.56945479
0.82020378 5.61255121 -0.54104203
0.78259552 5.61389160 -0.51659030
0.82350212 5.60500860 -0.52507842
0.85940534 5.60358715 -0.55048317
0.85695571 5.61322927 -0.56573939
0.85557824 5.62523127 -0.57916397
0.89571804 5.60387707 -0.57611126
0.89515960 5.61615515 -0.58963263
0.89748269 5.59401178 -0.56060934
0.90031201 5.58634329 -0.54395324
0.86252511 5.59591055 -0.53423661
0.93416762 5.59372091 -0.58698946
0.93444318 5.60632658 -0.60056293
0.97277367 5.58226204 -0.59850049
0.97383833 5.59509897 -0.61220801
0.97321290 5.57203150 -0.58242518
0.93523240 5.58362436 -0.57126409
0.93754053 5.57603741 -0.55411667
0.97495520 5.56451130 -0.56477892
1.01199019 5.56897974 -0.61077100
1.01373982 5.58182240 -0.62482101
1.05440831 5.56673002 -0.63799244
1.05195868 5.55393839 -0.62353295
1.05157149 5.54394627 -0.60607278
1.01201248 5.55883884 -0.59407032
1.01330054 5.55126619 -0.57597727
1.05244267 5.53627729 -0.58750319
1.05408812 5.53003120 -0.56815922
1.01543748 5.54516077 -0.55715454
1.09223998 5.51954699 -0.59913331
1.09184527 5.52724648 -0.61832833
1.13301253 5.50096226 -0.61121774
1.13322103 5.50872898 -0.63092649
1.13377202 5.49478292 -0.59068251
1.09345365 5.51332188 -0.57917887
1.09495020 5.50777531 -0.55868828
1.05603147 5.52426767 -0.54838341
1.13491869 5.48951101 -0.56957394
1.13637066 5.48476791 -0.54817498
1.09669983 5.50282431 -0.53784782
1.01801372 5.53944159 -0.53822005
1.17608595 5.46901989 -0.58147961
1.17528188 5.47414303 -0.60312426
1.21851909 5.44587135 -0.59499359
1.21790850 5.45094204 -0.61704773
1.21961355 5.44121790 -0.57253730
1.17729962 5.46436644 -0.55950731
1.17870688 5.45949697 -0.53756481
1.13802350 5.48018122 -0.52677602
1.22090161 5.43616247 -0.55008101
1.22231638 5.43085432 -0.52736425
1.18037462 5.45481396 -0.51534688
1.09867299 5.49841595 -0.51686579
1.26477182 5.40993929 -0.56521076
1.26345384 5.41492796 -0.58798707
1.30893219 5.38055801 -0.58261138
1.30739832 5.38533068 -0.60552919
1.31035435 5.37536812 -0.55949992
1.26603746 5.40448809 -0.54220355
1.26706505 5.39836121 -0.51877189
1.22382033 5.42547035 -0.50411129
1.31142640 5.36932278 -0.53609055
1.31578219 5.36908436 -0.51624036
1.27127182 5.39818954 -0.49891418
1.22830260 5.42595434 -0.48425362
1.18711305 5.45224524 -0.47281703
1.18237019 5.45068884 -0.49254814
1.23865211 5.43826294 -0.47172993
1.28203082 5.41059399 -0.48660648
1.32703269 5.38132477 -0.50379860
1.29627454 5.42956591 -0.47832683
1.34188688 5.40004349 -0.49523607
1.25223315 5.45688391 -0.46326417
1.20993412 5.48284674 -0.45062882
1.19706047 5.46460533 -0.45977959
1.34188688 5.40004349 -0.49523607
1.31091273 5.44908810 -0.47053865
1.29627454 5.42956591 -0.47832683
1.35703146 5.41924667 -0.48703834
1.37266004 5.43850851 -0.47928733
1.32604992 5.46873045 -0.46318972
1.28104055 5.49604034 -0.44846210
1.26640224 5.47630262 -0.45561001
1.25223315 5.45688391 -0.46326417
1.23744607 5.52169895 -0.43513432
1.22349274 5.50205755 -0.44256514
1.20993412 5.48284674 -0.45062882
1.38895118 5.45736790 -0.47207245
1.34178269 5.48804426 -0.45622799
1.40565932 5.47607183 -0.46531177
1.35780573 5.50723934 -0.44954175
1.31121802 5.53524256 -0.43470991
1.29605114 5.51563072 -0.44153762
1.25153327 5.54125166 -0.42788219
1.26575458 5.56101990 -0.42071199
1.42253125 5.49483490 -0.45890844
1.37379909 5.52653885 -0.44299698
1.43967128 5.51394033 -0.45277318
1.38988197 5.54617310 -0.43657878
1.34147000 5.57527828 -0.42106193
1.32634771 5.55507803 -0.42786729
1.28013217 5.58133173 -0.41352686
1.29459178 5.60210466 -0.40635669
1.45720589 5.53365660 -0.44683152
1.40616560 5.56639481 -0.43027228
1.47499371 5.55317163 -0.43972087
1.42279184 5.58655882 -0.42283398
1.37213123 5.61676598 -0.40658748
1.35660696 5.59600687 -0.41436082
1.30904388 5.62325811 -0.39923859
1.32385337 5.64441156 -0.39102596
1.27763796 5.67010736 -0.37629834
1.26324546 5.64857435 -0.38498750
1.23314977 5.69446135 -0.36256850
1.21896589 5.67240000 -0.37168202
1.38844490 5.63705492 -0.39658791
1.33940744 5.66520023 -0.38057965
1.40472114 5.65449333 -0.38264212
1.35496163 5.68312931 -0.36625412
1.30755472 5.70942736 -0.35058835
1.29264104 5.69121504 -0.36536810
1.26259756 5.73425865 -0.33609903
1.24801147 5.71583843 -0.35131058
1.22003794 5.75733328 -0.32245851
1.20568275 5.73862219 -0.33819127
1.16579604 5.75909090 -0.32580161
1.17985344 5.77834463 -0.30933917
1.23259139 5.77084732 -0.30053833
1.27593279 5.74743748 -0.31511703
1.32167923 5.72229385 -0.33035094
1.28816617 5.75650597 -0.29033029
1.33482838 5.73089314 -0.30627152
1.24375987 5.78041458 -0.27481344
1.20175123 5.80230570 -0.25975075
1.19166231 5.79223156 -0.28641382
1.15298939 5.81170940 -0.27283287
1.16199124 5.82242393 -0.24506785
1.12434578 5.84097815 -0.23072742
1.11640871 5.82939291 -0.25986993
1.21061921 5.81012297 -0.23205277
1.16957843 5.83118010 -0.21669972
1.25398290 5.78726435 -0.24768876
1.21980715 5.81796360 -0.20524082
1.26429522 5.79407787 -0.22075018
1.17764950 5.83993626 -0.18995476
1.13835120 5.85978556 -0.17470597
1.13109159 5.85045671 -0.20156261
1.18809593 5.85064983 -0.16705923
1.23083425 5.82810450 -0.18119861
1.27576911 5.80351114 -0.19558372
1.24335790 5.84078503 -0.16016451
1.28862035 5.81587887 -0.17335086
1.20008349 5.86353827 -0.14729089
1.15868533 5.88413382 -0.13376948
1.14784443 5.87094688 -0.15248054
1.30306506 5.83150721 -0.15520568
1.25706542 5.85624170 -0.14233950
1.31827652 5.84892273 -0.13992710
1.27126431 5.87329960 -0.12710558
1.22570419 5.89563704 -0.11490209
1.21277833 5.87883949 -0.12992750
1.18134260 5.91629839 -0.10318254
1.16995811 5.89953852 -0.11743362
1.33342111 5.86665106 -0.12631634
1.28526974 5.89078236 -0.11382990
1.34826040 5.88525724 -0.11531904
1.29888785 5.90915775 -0.10316766
1.25067699 5.93127966 -0.09190232
1.23837662 5.91302299 -0.10214014
1.19251859 5.93356514 -0.09074077
1.20341909 5.95159101 -0.08051782
1.15703249 5.96943855 -0.06992260
1.14747214 5.95168877 -0.08007108
1.11145723 5.98417377 -0.06101753
1.10302866 5.96666861 -0.07057036
1.26248586 5.95070505 -0.08442684
1.21396971 5.97063017 -0.07294556
1.27363217 5.97112083 -0.08028701
1.22397673 5.99056244 -0.06864937
1.17532659 6.00761318 -0.05797968
1.16638422 5.98810482 -0.06238754
1.11972940 6.00252819 -0.05381754
1.12763679 6.02172279 -0.04933523
1.08074379 6.03341913 -0.04166614
1.07381928 6.01447105 -0.04625271
1.03448355 6.04323292 -0.03393752
1.02846742 6.02450752 -0.03870276
1.13497078 6.04176617 -0.04791309
1.18363595 6.02787256 -0.05726489
1.19129002 6.04830360 -0.05995281
1.14169431 6.06201887 -0.04972985
1.09302914 6.07341766 -0.04058652
1.08716190 6.05328417 -0.03961114
1.04014981 6.06279278 -0.03171869
1.04537666 6.08269501 -0.03224734
0.99843895 6.08991098 -0.02430278
0.99383754 6.07021618 -0.02426554
0.94812089 6.07550240 -0.01725914
0.95191079 6.09512234 -0.01635076
1.05005991 6.10247850 -0.03570215
1.09831560 6.09314871 -0.04510606
1.10281289 6.11145830 -0.05392922
1.05392432 6.12089157 -0.04339355
1.00561655 6.12844944 -0.03309615
1.00248945 6.10979748 -0.02662583
0.95504540 6.11508369 -0.01772822
0.95730138 6.13399553 -0.02326782
0.90719932 6.11838293 -0.00947838
0.90858418 6.13754845 -0.01422129
0.85842252 6.11976004 -0.00233795
0.85909265 6.13915586 -0.00626928
1.00746310 6.14443541 -0.04556770
0.95843321 6.15047407 -0.03482355
1.00927246 6.15976524 -0.06094308
0.95952773 6.16584110 -0.04969261
0.90911287 6.15467310 -0.02467506
0.90952981 6.17022657 -0.03884422
0.85902560 6.15687752 -0.01539771
0.85868317 6.17269897 -0.02862873
0.80775452 6.15780783 -0.00656711
0.80668229 6.17403936 -0.01869616
0.75322223 6.17504406 -0.00869658
0.75488257 6.15816450 0.00227094
0.85854906 6.18638468 -0.04484546
0.91059458 6.18470907 -0.05476313
0.85907775 6.20228815 -0.05964009
0.91242623 6.20159626 -0.06899188
0.80543888 6.18734455 -0.03498736
0.80472416 6.20264626 -0.05044464
0.75117463 6.18852854 -0.02473463
0.74953657 6.20362902 -0.04069820
0.69543612 6.18912411 -0.01502543
0.69311303 6.20438766 -0.03138363
0.63788074 6.18832064 -0.00678303
0.63502163 6.20405245 -0.02348375
0.80525273 6.22486401 -0.06007938
0.74909723 6.22534800 -0.05145726
0.69181746 6.22570467 -0.04328187
0.63292193 6.22541523 -0.03609677
0.57262665 6.22396326 -0.02983493
0.86074555 6.22476625 -0.06858981
0.91515136 6.22438002 -0.07810542
0.86239856 6.25068474 -0.07673541
0.91753393 6.25020885 -0.08714452
0.96801585 6.22303152 -0.08975050
0.97084516 6.24927044 -0.10064355
0.96458334 6.19960785 -0.07921483
1.01588428 6.19622707 -0.09043551
1.01947308 6.22069454 -0.10325701
1.02213120 6.24789333 -0.11649546
0.97196949 6.27593422 -0.11578812
1.02291298 6.27585888 -0.13207187
0.91836786 6.27621698 -0.10114987
0.86287498 6.27689409 -0.08909527
1.07118344 6.24613571 -0.13395563
1.06965709 6.21735907 -0.11837923
1.06665647 6.19138002 -0.10278791
1.11800945 6.21376181 -0.13444704
1.11654270 6.18625069 -0.11612317
1.11719048 6.24413300 -0.15200403
1.11349738 6.27594900 -0.16609873
1.07043147 6.27581453 -0.14908531
1.15934050 6.24206257 -0.16963544
1.16395688 6.21063519 -0.15079036
1.16517806 6.18201399 -0.13031469
1.15106845 6.27641821 -0.18239738
1.01228046 6.17648125 -0.07611742
1.06295598 6.17009258 -0.08759125
1.05935967 6.15226030 -0.07234245
1.10960329 6.14356422 -0.08403965
1.11337090 6.16302729 -0.09972774
1.16321981 6.15610266 -0.11266094
1.15980959 6.13391399 -0.09616125
1.21364951 6.14758492 -0.12624934
1.21052229 6.12249231 -0.10904231
1.10633457 6.12731743 -0.06784525
1.15663779 6.11648369 -0.07914782
1.15290749 6.10029697 -0.06446489
1.20763338 6.10372257 -0.09126197
1.20390308 6.08707380 -0.07586426
1.26231468 6.10844994 -0.12300301
1.25935125 6.08859301 -0.10490994
1.25550926 6.07146692 -0.08897616
1.31220829 6.07141447 -0.11948863
1.30818760 6.05374670 -0.10309321
1.31553650 6.09201050 -0.13755934
1.31998158 6.12023640 -0.15443133
1.26579928 6.13576126 -0.14033660
1.37056029 6.07338142 -0.15221995
1.36664379 6.05253363 -0.13439491
1.36242211 6.03417158 -0.11749320
1.42282915 6.03153563 -0.15009047
1.41783297 6.01242256 -0.13278666
1.42792940 6.05249596 -0.16759533
1.37650192 6.10061741 -0.16804206
1.43556869 6.07813835 -0.18256862
1.44187522 6.10616398 -0.19993944
1.38076842 6.13114405 -0.18669355
1.50460529 6.08044672 -0.21681142
1.49738300 6.05404425 -0.19941080
1.48821735 6.02930212 -0.18432581
1.55913758 6.02919054 -0.21818887
1.54990482 6.00422525 -0.20224762
1.56522071 6.05554867 -0.23644574
1.50604224 6.10672331 -0.24106951
1.44295478 6.13427162 -0.22466661
1.56518340 6.08189869 -0.26038367
1.56514621 6.11260462 -0.27794808
1.50788891 6.13617849 -0.25969118
1.37963665 6.16188765 -0.21299177
1.61667049 6.06246519 -0.28077745
1.61999130 6.03301048 -0.25798616
1.66353369 6.04410458 -0.30236998
1.67139637 6.01004791 -0.28091148
1.65736127 6.08236790 -0.31701568
1.61400497 6.09628344 -0.29691970
1.61792147 6.13791990 -0.29642832
1.57122946 6.15200806 -0.27712160
1.65889513 6.12640190 -0.31739542
1.62489057 6.18470097 -0.29232571
1.66391349 6.17480659 -0.31589139
1.58052909 6.19677782 -0.27069598
1.52837193 6.21237707 -0.25422609
1.51632488 6.17212534 -0.26016772
1.63139069 6.23392487 -0.29767174
1.66817987 6.22620344 -0.32485601
1.67004883 6.27748251 -0.33732009
1.63500178 6.28200197 -0.30867648
1.59011912 6.24360466 -0.27149269
1.59674585 6.28839731 -0.27970526
1.54106677 6.25476599 -0.25357085
1.55105150 6.29533005 -0.26042089
1.50137389 6.30386209 -0.24677293
1.48783016 6.26767683 -0.24161305
1.45116746 6.31504631 -0.23468113
1.40413284 6.32698917 -0.23269312
1.43403482 6.28260517 -0.23334086
1.38386571 6.29809189 -0.23491190
1.59714055 6.32708597 -0.29552740
1.55500519 6.33013058 -0.27701735
1.59730422 6.36389732 -0.30943596
1.55837071 6.36368132 -0.29289162
1.51750124 6.36709070 -0.27932554
1.50996614 6.33577490 -0.26257268
1.46506107 6.34529781 -0.24872369
1.47751033 6.37500620 -0.26645193
1.43836093 6.38359070 -0.26033899
1.42206216 6.35551405 -0.24374995
1.40004528 6.38901138 -0.26708481
1.38274133 6.36325645 -0.25591624
1.36397827 6.33781528 -0.24933425
1.49030209 6.40581703 -0.27884156
1.52788794 6.40146780 -0.28735197
1.53846836 6.43647766 -0.28620535
1.50232685 6.43726683 -0.28251976
1.46771920 6.43944168 -0.28154436
1.45373619 6.41114092 -0.27473155
1.41811597 6.41504908 -0.27768001
1.43521881 6.44241238 -0.28294417
1.51248276 6.46888876 -0.27409121
1.54661393 6.46967030 -0.27545378
1.55174398 6.50115108 -0.26010072
1.51954138 6.49987793 -0.25945297
1.48855984 6.50054789 -0.26214832
1.47983336 6.46977520 -0.27541652
1.44961143 6.47214270 -0.27809697
1.45984912 6.50270796 -0.26715183
1.43462300 6.50639343 -0.27625048
1.42313445 6.47541904 -0.28521508
1.46449530 6.53258657 -0.25409207
1.49237192 6.53018951 -0.24755472
1.49285591 6.55925703 -0.23334086
1.46566427 6.56199741 -0.24051107
1.43999887 6.53677893 -0.26479155
1.44181573 6.56654644 -0.25208172
1.41410279 6.51163435 -0.29123122
1.42026782 6.54293680 -0.28030092
1.42280686 6.57297230 -0.26806018
1.40780365 6.58073092 -0.28759775
1.40461683 6.55048656 -0.29968208
1.39786363 6.51814985 -0.31056026
1.38514638 6.48342323 -0.31930152
1.40173542 6.47902966 -0.29980865
1.38551128 6.52565527 -0.33269632
1.39237618 6.55885506 -0.32199687
1.39596498 6.58929396 -0.30986038
1.38879478 6.59797525 -0.33379829
1.38511658 6.56735897 -0.34628475
1.37825906 6.53345108 -0.35687256
1.36602592 6.49523211 -0.36453414
1.37310672 6.48905182 -0.34110254
1.34357703 6.45654345 -0.36956745
1.35178971 6.45229244 -0.34713355
1.38443899 6.57530260 -0.37160012
1.37825906 6.53345108 -0.35687256
1.38511658 6.56735897 -0.34628475
1.37733591 6.54084396 -0.38233685
1.38879478 6.59797525 -0.33379829
1.38779712 6.60609865 -0.35839888
1.39469922 6.61222696 -0.38092217
1.39230907 6.58093882 -0.39458501
1.38572717 6.54587698 -0.40560466
1.36432087 6.50128555 -0.38894117
1.36602592 6.49523211 -0.36453414
1.37287581 6.50535822 -0.41198561
1.35253429 6.46086216 -0.41600633
1.34188688 6.45947838 -0.39276829
1.34357703 6.45654345 -0.36956745
1.40640390 6.54659271 -0.42321375
1.39230907 6.58093882 -0.39458501
1.41071486 6.58252525 -0.41185904
1.38572717 6.54587698 -0.40560466
1.39469922 6.61222696 -0.38092217
1.41124356 6.61490679 -0.39865038
1.43442214 6.61584520 -0.41134530
1.43624628 6.58227158 -0.42376474
1.43502510 6.54535675 -0.43538004
1.39655328 6.50558090 -0.43135932
1.37287581 6.50535822 -0.41198561
1.42947078 6.50386906 -0.44575936
1.42052090 6.45871162 -0.45674175
1.38134170 6.46048260 -0.43853700
1.35253429 6.46086216 -0.41600633
1.46228385 6.45593357 -0.46698704
1.46570897 6.50211143 -0.45389006
1.46722043 6.54453754 -0.44234174
1.50272143 6.54445601 -0.44741225
1.50581145 6.50074911 -0.46031567
1.50801539 6.45290375 -0.47498372
1.45826328 6.40683699 -0.48332292
1.51036835 6.40160179 -0.49260771
1.45520306 6.35394239 -0.50171381
1.51254237 6.34601259 -0.51154953
1.40912902 6.41082048 -0.47018123
1.39962089 6.35992861 -0.48688200
1.36094785 6.41229391 -0.44697297
1.34371114 6.36243057 -0.46143252
1.32348120 6.41389465 -0.41990042
1.45465946 6.29635000 -0.52096844
1.51421762 6.28532314 -0.53014892
1.45570934 6.23521328 -0.53975385
1.51613116 6.22126722 -0.54789954
1.39640427 6.24817610 -0.52890551
1.39630008 6.30577660 -0.50766289
1.33797801 6.31231403 -0.48669583
1.33823860 6.25936699 -0.51406616
1.45745158 6.17167854 -0.55676734
1.51902759 6.15560389 -0.56428003
1.45882905 6.10676765 -0.57250011
1.52179742 6.08921099 -0.58008724
1.39711905 6.12348986 -0.56263447
1.39717865 6.18695736 -0.54699856
1.33899796 6.20103741 -0.53485459
1.33805978 6.13914108 -0.55104899
1.28104055 6.15256596 -0.53866678
1.28391469 6.21312904 -0.52115452
1.22544360 6.16262484 -0.52636647
1.17929506 6.22875071 -0.49427554
1.23292649 6.22243643 -0.50670236
1.16764259 6.16951990 -0.51518303
1.33325732 6.07551718 -0.56464487
1.39474392 6.05918217 -0.57650584
1.32348120 6.01345062 -0.57701212
1.38726842 5.99678707 -0.58978897
1.26092231 6.02828979 -0.56538945
1.27325976 6.08973932 -0.55292529
1.21368682 6.10104942 -0.54239714
1.19867623 6.04082775 -0.55582911
1.15290749 6.10957479 -0.53292614
1.13633335 6.05100632 -0.54763138
1.08931375 6.11544180 -0.52437109
1.07348418 6.05877972 -0.54007405
1.02422345 6.11888885 -0.51562238
1.01049352 6.06423759 -0.53197312
1.10400414 6.17348862 -0.50610679
1.03714907 6.17505980 -0.49738789
1.18144691 5.98504543 -0.56769764
1.11916363 5.99588633 -0.55940306
1.24437058 5.97187328 -0.57747382
1.22630715 5.92253828 -0.58857530
1.16410577 5.93601465 -0.57824069
1.10291708 5.94702721 -0.56943989
1.05784822 6.00455284 -0.55183077
1.04334402 5.95594025 -0.56155491
0.99715829 6.01152945 -0.54403514
0.98473144 5.96364641 -0.55395281
0.93675137 6.01728535 -0.53508544
0.92640173 5.97106981 -0.54601568
0.87611347 6.02158070 -0.52596444
0.86787856 5.97738314 -0.53789240
0.94771141 6.06746912 -0.52215964
0.88469839 6.06905508 -0.51230901
1.03094685 5.91608286 -0.57115245
0.97371918 5.92346859 -0.56389290
1.08912754 5.90723801 -0.57891089
1.07739317 5.87451315 -0.58745104
1.02035165 5.88311338 -0.57994574
0.96418130 5.89004517 -0.57292449
0.91697556 5.93031168 -0.55659604
0.90877783 5.89604712 -0.56588084
0.86006802 5.93621588 -0.54909825
0.85325515 5.90116882 -0.55864364
0.80239362 5.94081736 -0.54123557
0.79673481 5.90543604 -0.55101180
0.74335659 5.94419050 -0.53355908
0.73886687 5.90930700 -0.54343206
0.74816650 5.98411369 -0.52212989
0.80869269 5.98173141 -0.52976173
0.90211391 5.86933899 -0.57294679
0.84799105 5.87530279 -0.56561285
0.95615476 5.86239958 -0.58013195
0.94930470 5.83863306 -0.58620018
0.89649981 5.84693480 -0.57877684
0.84360558 5.85417175 -0.57124925
0.79259509 5.87961435 -0.55804056
0.78938597 5.85878801 -0.56362474
0.73577690 5.88350773 -0.55063951
0.73366970 5.86263800 -0.55641735
0.67738026 5.88821363 -0.54383409
0.61717427 5.87182617 -0.54422134
0.61724877 5.89252520 -0.53723729
0.67627829 5.86755180 -0.55014807
0.67930865 5.91319370 -0.53634369
0.61791140 5.91672325 -0.52945650
0.78650445 5.83840942 -0.56906766
0.73210615 5.84251165 -0.56198674
0.83942109 5.83330917 -0.57678133
0.83567590 5.81315327 -0.58184445
0.78395808 5.81867027 -0.57410091
0.73081058 5.82305670 -0.56717640
0.67569005 5.84727669 -0.55633545
0.67533267 5.82742739 -0.56212819
0.61784446 5.83056211 -0.55779481
0.61742002 5.85109615 -0.55119801
0.55746722 5.85238457 -0.54565829
0.49822176 5.82921362 -0.54869616
0.49626353 5.85091114 -0.54072928
0.55866599 5.83123112 -0.55300725
0.55631310 5.87375402 -0.53803390
0.49422342 5.87293482 -0.53253901
0.72948533 5.80418110 -0.57180017
0.67490828 5.80806780 -0.56725085
0.67458069 5.78889561 -0.57180762
0.72827166 5.78550768 -0.57594001
0.61882722 5.79059315 -0.56873256
0.61829114 5.81046534 -0.56361735
0.55985725 5.81037664 -0.55973071
0.56113791 5.78981829 -0.56557560
0.50207859 5.78670645 -0.56247073
0.50011295 5.80777025 -0.55610460
0.43954960 5.80262470 -0.55324548
0.38230705 5.77400351 -0.55562818
0.37896395 5.79517174 -0.54967159
0.44221517 5.78139067 -0.55952966
0.43695107 5.82429171 -0.54579985
0.37569529 5.81679440 -0.54251629
0.61949736 5.77073479 -0.57319999
0.56258237 5.76955080 -0.57028872
0.56425023 5.74955988 -0.57355732
0.62039083 5.75101852 -0.57640904
0.50668007 5.74591827 -0.57060140
0.50427508 5.76614141 -0.56731790
0.44512644 5.76056433 -0.56439173
0.44822386 5.74003696 -0.56767523
0.38964853 5.73225546 -0.56387800
0.38591078 5.75301456 -0.56049758
0.32738012 5.74369955 -0.55463034
0.27495492 5.71188498 -0.55212122
0.26989183 5.73257589 -0.54814523
0.33175072 5.72290421 -0.55833089
0.26493299 5.75340223 -0.54308206
0.32311371 5.76464510 -0.54964179
0.50930095 5.72588301 -0.57228416
0.45143297 5.71971703 -0.56922400
0.45476863 5.69997931 -0.56806988
0.51207078 5.70644951 -0.57131618
0.39730269 5.69178915 -0.56411618
0.39340860 5.71175051 -0.56536716
0.33602455 5.70238352 -0.56021470
0.34044731 5.68233299 -0.55939567
0.28482792 5.67142534 -0.55421340
0.27982441 5.69145393 -0.55445915
0.22535908 5.67877340 -0.54879296
0.17866708 5.64477634 -0.54442978
0.17210743 5.66445494 -0.54399049
0.23104015 5.65890026 -0.54888982
0.16554776 5.68454409 -0.54147381
0.21971525 5.69906235 -0.54635823
0.40142760 5.67265320 -0.55927652
0.34524977 5.66294384 -0.55498034
0.34994802 5.64515543 -0.54699105
0.40553018 5.65514803 -0.55106390
0.29552740 5.63406944 -0.54292572
0.29027072 5.65194607 -0.55045336
0.23707861 5.63959455 -0.54581469
0.24281925 5.62188101 -0.53899443
0.19169706 5.60812140 -0.53607571
0.18538311 5.62567806 -0.54208440
0.13489379 5.60997581 -0.54031235
0.09349569 5.57473421 -0.53486210
0.08540221 5.59251451 -0.53958267
0.14204167 5.59230661 -0.53503335
0.07676519 5.61163568 -0.54049098
0.12725450 5.62909555 -0.54184610
0.29995015 5.61884308 -0.53137743
0.24759196 5.60677385 -0.52787805
0.25151584 5.59405613 -0.51377583
0.20136903 5.58047485 -0.51172078
0.19701329 5.59308147 -0.52551019
0.14822905 5.57712460 -0.52484757
0.15331446 5.56451941 -0.51119959
0.10660013 5.54666376 -0.51165378
0.10065845 5.55937386 -0.52507842
0.00739358 5.51931620 -0.52632183
0.05372074 5.54027557 -0.52537620
0.01497331 5.50615215 -0.51434171
0.06045910 5.52736473 -0.51254731
-0.00154871 5.53482533 -0.53469080
0.04567939 5.55570316 -0.53457165
0.15715644 5.55454969 -0.49550405
0.20479405 5.57020760 -0.49603277
0.11100054 5.53682852 -0.49602523
0.06557430 5.51733589 -0.49721661
0.02080329 5.49587679 -0.49939817
-0.10700220 5.50342751 -0.54037184
-0.05927524 5.52883244 -0.53921783
-0.09503695 5.48648119 -0.53790730
-0.04837473 5.51170635 -0.53576303
-0.11953331 5.52117062 -0.53982091
-0.07075651 5.54691029 -0.53939646
-0.02195738 5.57061005 -0.53941876
-0.01146638 5.55215931 -0.53881574
0.03668498 5.57331991 -0.53900933
0.02711725 5.59216452 -0.53973150
-0.03833792 5.49598932 -0.52848858
-0.02979026 5.48255682 -0.51749867
-0.08384605 5.47056198 -0.53182423
-0.07428578 5.45686150 -0.52183211
-0.17511550 5.41412354 -0.54171956
-0.12951055 5.44328785 -0.53626931
-0.16344807 5.40004349 -0.53357399
-0.11895999 5.42937946 -0.52716321
-0.18848798 5.43002033 -0.54547960
-0.14177363 5.45926666 -0.54122812
-0.02337951 5.47227383 -0.50291258
-0.01848023 5.46431541 -0.48617461
-0.06721235 5.44656467 -0.50764799
-0.06190357 5.43873119 -0.49097708
-0.11093353 5.41879892 -0.51353008
-0.10486528 5.41079473 -0.49709746
-0.15426750 5.38904619 -0.52061844
-0.14727601 5.38070679 -0.50450599
-0.23934211 5.32374048 -0.53770638
-0.19694629 5.35739470 -0.52896500
-0.23043704 5.31460381 -0.52235329
-0.18901661 5.34865332 -0.51318759
-0.25105420 5.33548927 -0.54894191
-0.20740749 5.36881638 -0.54112387
-0.10019682 5.40462208 -0.47960004
-0.05761485 5.43242455 -0.47352436
-0.14219058 5.37460136 -0.48691174
-0.18358125 5.34251833 -0.49537751
-0.17984350 5.33829641 -0.47656965
-0.22447304 5.30830526 -0.50443894
-0.22048959 5.30402422 -0.48532578
-0.26021242 5.26731586 -0.49437231
-0.30473027 5.23356533 -0.52259898
-0.26495534 5.27191067 -0.51353759
-0.29899707 5.22853899 -0.50361240
-0.31276420 5.24053431 -0.53982836
-0.27186495 5.27853775 -0.53124344
-0.17698435 5.33529615 -0.45778415
-0.21751876 5.30096340 -0.46636903
-0.25677994 5.26393604 -0.47530389
-0.25401014 5.26113653 -0.45633969
-0.29142481 5.22135401 -0.46550533
-0.29480517 5.22465229 -0.48454398
-0.32727587 5.17962885 -0.47508797
-0.36139208 5.13602686 -0.48548216
-0.33162415 5.18357468 -0.49406704
-0.36678275 5.14058352 -0.50439423
-0.37311161 5.14565420 -0.52299356
-0.33682126 5.18804979 -0.51294935
-0.25124034 5.25829983 -0.43751693
-0.28812635 5.21807051 -0.44660813
-0.32315838 5.17576361 -0.45616099
-0.31883988 5.17176580 -0.43742758
-0.35151163 5.12732983 -0.44758353
-0.35643321 5.13167095 -0.46648818
-0.38276869 5.08165741 -0.45873719
-0.41313970 5.03516722 -0.47091836
-0.38804770 5.08607340 -0.47790989
-0.41856018 5.03950739 -0.49038893
-0.39359474 5.09064531 -0.49706763
-0.42448694 5.04413128 -0.50973284
-0.31389591 5.16738844 -0.41900691
-0.34620285 5.12283945 -0.42891717
-0.37728122 5.07718325 -0.43972829
-0.37210643 5.07290125 -0.42072687
-0.40272316 5.02670860 -0.43208900
-0.40771925 5.03084087 -0.45151484
-0.43353349 4.98035145 -0.44447869
-0.46469373 4.93406153 -0.45779157
-0.43811259 4.98421526 -0.46433637
-0.46861020 4.93751621 -0.47801411
-0.44316077 4.98828173 -0.48414192
-0.47301805 4.94120169 -0.49816966
-0.36774325 5.06905222 -0.40158397
-0.36680511 5.06766033 -0.38304415
-0.39748138 5.02123594 -0.39336392
-0.39856848 5.02294827 -0.41255149
-0.42961705 4.97675562 -0.42456141
-0.42817256 4.97470713 -0.40480796
-0.45933282 4.92843294 -0.41742843
-0.46111980 4.93072557 -0.43759140
-0.49141636 4.88276052 -0.43126255
-0.52180231 4.83578539 -0.44584122
-0.49333739 4.88509893 -0.45156696
-0.52371585 4.83812380 -0.46630949
-0.49637523 4.88804722 -0.47191608
-0.52613568 4.84072971 -0.48684472
-0.43103173 4.97549677 -0.38542679
-0.42817256 4.97470713 -0.40480796
-0.46078476 4.92810583 -0.39733249
-0.45933282 4.92843294 -0.41742843
-0.49176633 4.88167334 -0.41093579
-0.49141636 4.88276052 -0.43126255
-0.49577954 4.88274574 -0.39194924
-0.52336586 4.83393240 -0.40582803
-0.52114707 4.83411074 -0.42536557
-0.52180231 4.83578539 -0.44584122
-0.54651457 4.78209448 -0.41950577
-0.56631267 4.72774935 -0.43336225
-0.54607528 4.78330898 -0.43975064
-0.56733274 4.72978163 -0.45436653
-0.54788458 4.78557873 -0.46068797
-0.57005787 4.73257303 -0.47584742
-0.50481123 4.88687134 -0.37568784
-0.53007448 4.83608437 -0.38818917
-0.55142128 4.78281021 -0.40064582
-0.56165910 4.78627205 -0.38446629
-0.57889593 4.72962475 -0.39594012
-0.56964093 4.72733879 -0.41331097
-0.59352672 4.67113161 -0.40774158
-0.60706306 4.61150646 -0.41985571
-0.58550769 4.66997051 -0.42642283
-0.60090548 4.61152124 -0.43980277
-0.58383244 4.67140770 -0.44775477
-0.60115862 4.61397886 -0.46239302
-0.57810670 4.79330778 -0.37227768
-0.59565622 4.73569298 -0.38296229
-0.61073381 4.67629862 -0.39398935
-0.63295174 4.68377447 -0.38360259
-0.64721769 4.62257814 -0.39460734
-0.62415093 4.61576605 -0.40535149
-0.67137158 4.49855518 -0.41779327
-0.63674903 4.55473995 -0.41705611
-0.65974134 4.56078672 -0.40591738
-0.64979392 4.49361086 -0.42987764
-0.63627249 4.49158621 -0.44616884
-0.62098652 4.55148649 -0.43224540
-0.65603340 4.69186020 -0.37503260
-0.67131197 4.63020277 -0.38591823
-0.68469936 4.56783724 -0.39701229
-0.71069980 4.57540178 -0.38974530
-0.72349894 4.51194239 -0.40106276
-0.69656783 4.50487661 -0.40843400
-0.74355024 4.38348198 -0.42556658
-0.70727473 4.44142437 -0.42032480
-0.73450369 4.44796133 -0.41286421
-0.71657437 4.37762165 -0.43316865
-0.68297195 4.43601179 -0.43047330
-0.69364166 4.37324429 -0.44421810
-0.73680443 4.58298969 -0.38354301
-0.75028861 4.51912022 -0.39492753
-0.76166558 4.45453644 -0.40681830
-0.78864884 4.46115541 -0.40191901
-0.79784429 4.39504528 -0.41456929
-0.77068239 4.38926697 -0.41948345
-0.80391252 4.32817554 -0.42794177
-0.80680144 4.26062012 -0.44199181
-0.77705592 4.32334232 -0.43317610
-0.78040648 4.25687456 -0.44765052
-0.75045979 4.31851816 -0.43957940
-0.75451773 4.25322628 -0.45456761
-0.81533426 4.46784925 -0.39789835
-0.82489455 4.40088272 -0.41048905
-0.83093297 4.33309698 -0.42357859
-0.85773009 4.33772802 -0.41888776
-0.86029887 4.26814842 -0.43269211
-0.83356875 4.26455927 -0.43731591
-0.85931593 4.19784594 -0.44730061
-0.85533255 4.12732697 -0.46246004
-0.83289123 4.19532156 -0.45187226
-0.82921302 4.12589073 -0.46696466
-0.80647385 4.19247007 -0.45669705
-0.80305624 4.12420702 -0.47184163
-0.88391662 4.34167385 -0.41267061
-0.88661939 4.27085114 -0.42718229
-0.88542807 4.19935703 -0.44214073
-0.90974575 4.19975138 -0.43369728
-0.90549421 4.12725973 -0.44966832
-0.88119894 4.12779617 -0.45752355
-0.89935154 4.05564785 -0.46611589
-0.89143676 3.98503304 -0.48254111
-0.87483287 4.05680180 -0.47332332
-0.86668718 3.98673725 -0.48930180
-0.84891433 4.05709982 -0.47793221
-0.84068686 3.98773479 -0.49372458
-0.93077987 4.19895506 -0.41929731
-0.92687827 4.12567377 -0.43640751
-0.92126429 4.05340624 -0.45391980
-0.93943173 4.05020428 -0.43698829
-0.91384089 3.98219609 -0.47117895
-0.93266362 3.97841287 -0.45520791
-0.92390746 3.90777540 -0.47236282
-0.89434797 3.84313226 -0.50447613
-0.90450394 3.91209388 -0.48752972
-0.91434717 3.83831501 -0.49008361
-0.87139297 3.84715295 -0.51487780
-0.88186157 3.91554189 -0.49843764
-0.95272976 4.04618359 -0.41558191
-0.94669127 3.97384906 -0.43465036
-0.93888825 3.90269804 -0.45282528
-0.95122576 3.89702439 -0.43079346
-0.93018419 3.83273101 -0.47136509
-0.94319928 3.82661080 -0.44990659
-0.93451756 3.75740933 -0.46992061
-0.91177094 3.69606447 -0.51241326
-0.92143548 3.76398420 -0.49153554
-0.92459249 3.68905783 -0.49021766
-0.89546490 3.70263243 -0.53096795
-0.90519643 3.77006006 -0.51000082
-0.96266234 3.89094138 -0.40815854
-0.97485840 3.88462687 -0.38588846
-0.95470285 3.82017684 -0.42733866
-0.96663839 3.81352019 -0.40482283
-0.94579780 3.75062680 -0.44692832
-0.95742804 3.74364972 -0.42394343
-0.93554515 3.68194008 -0.46665940
-0.94690722 3.67468023 -0.44323522
-0.93472606 3.60624003 -0.46269831
-0.90989465 3.54601192 -0.50593549
-0.92352772 3.61378980 -0.48626393
-0.92107064 3.53813410 -0.48253366
-0.89920264 3.55374789 -0.52989578
-0.91282082 3.62119031 -0.51021677
-0.98093414 3.80671501 -0.38355047
-0.97156000 3.73651719 -0.40232110
-0.99833471 3.80017090 -0.36518937
-0.98879677 3.72955513 -0.38356540
-0.96094984 3.66722727 -0.42143422
-0.97806746 3.65985608 -0.40246999
-0.94870913 3.59839177 -0.44104621
-0.96573740 3.59055924 -0.42232770
-0.93495691 3.52988458 -0.46119428
-0.95176929 3.52161145 -0.44287038
-0.90282118 3.39394069 -0.50297958
-0.93614072 3.45297694 -0.46381515
-0.91844982 3.38510942 -0.48487902
-0.91978997 3.46155477 -0.48192310
-0.88954550 3.40280795 -0.52379024
-0.90609735 3.47014713 -0.50292748
-0.99867719 3.65284967 -0.38754135
-0.98607165 3.58305407 -0.40759265
-1.00895977 3.57621932 -0.39721334
-0.97171634 3.51368237 -0.42851508
-0.99403852 3.50637031 -0.41832191
-0.95537299 3.44470477 -0.44956407
-0.97680914 3.43691683 -0.43935603
-0.93672895 3.37648749 -0.47046417
-0.95714504 3.36817789 -0.46006995
-0.89203990 3.24365640 -0.51111770
-0.93491971 3.30051136 -0.48023292
-0.91069132 3.23425245 -0.50003105
-0.91549385 3.30938005 -0.49097708
-0.87575608 3.25315714 -0.52630693
-0.89827186 3.31844854 -0.50577915
-1.01797652 3.49996710 -0.41247705
-0.99979407 3.42977619 -0.43339202
-1.02360535 3.42354465 -0.43179864
-1.00211716 3.35318208 -0.45219243
-0.97916198 3.36030793 -0.45403150
-0.95617712 3.29202342 -0.47406045
-0.97843975 3.28421259 -0.47211710
-0.93133080 3.22522807 -0.49364263
-0.95302016 3.21685171 -0.49157277
-0.87761009 3.09664106 -0.53186142
-0.92631990 3.15129232 -0.51051468
-0.89843571 3.08728170 -0.52919585
-0.90513682 3.16021228 -0.51293445
-0.85781193 3.10663295 -0.53880090
-0.88498133 3.16976523 -0.51965052
-1.00090349 3.27736282 -0.47407532
-1.02533281 3.34709930 -0.45439634
-1.02266729 3.27183104 -0.48029992
-1.04780400 3.34239340 -0.46099323
-0.97481376 3.20939875 -0.49342671
-0.99590743 3.20326352 -0.49955454
-0.94761461 3.14337015 -0.51216012
-0.96822435 3.13682556 -0.51816136
-0.91941768 3.07898712 -0.53065521
-0.93974447 3.07214451 -0.53650010
-0.89034969 3.01597428 -0.54930675
-0.91060942 3.00885606 -0.55493569
-0.86948681 3.02452922 -0.54786968
-0.98735976 3.13205266 -0.52880865
-1.01551199 3.19881845 -0.51029128
-1.00408280 3.12926054 -0.54335761
-1.03259242 3.19659209 -0.52509326
-0.95860445 3.06714106 -0.54697621
-0.97527540 3.06393933 -0.56130177
-0.92951411 3.00356245 -0.56500971
-0.94634885 3.00007033 -0.57897037
-1.04609883 3.19708347 -0.54341716
-1.01746273 3.12864995 -0.56107092
-1.05980647 3.19788766 -0.56216538
-1.03077567 3.12835217 -0.57918632
-0.98903507 3.06249523 -0.57870233
-0.96040630 2.99838758 -0.59623700
-1.09078062 3.26991796 -0.54585934
-1.07537532 3.26804900 -0.52580065
-1.06061804 3.26649928 -0.50646418
-1.10392964 3.34118819 -0.50865316
-1.08731830 3.33878970 -0.48825940
-1.12187386 3.34415913 -0.53023827
-1.14466512 3.34525323 -0.54976094
-1.11052656 3.26938844 -0.56325990
-1.13141918 3.26652193 -0.58054143
-1.07746756 3.19658470 -0.57823324
-1.04733491 3.12649846 -0.59494883
-1.15123963 3.42035103 -0.51527983
-1.13038421 3.41616535 -0.49237686
-1.11184442 3.41326141 -0.47126833
-1.17805171 3.42452049 -0.53746808
-1.04280794 3.26798201 -0.49120039
-1.06854022 3.33940768 -0.47232559
-1.09200168 3.41295695 -0.45447823
-1.07063997 3.41482592 -0.44222263
-1.04753590 3.41845918 -0.43470249
-0.82916832 3.04443169 -0.55717683
-0.81152207 3.05498958 -0.56868792
-0.83987522 3.11683369 -0.55015552
-0.86677659 3.17960119 -0.53090096
-0.85105866 3.18941450 -0.54628384
-0.84879524 3.03414917 -0.55036402
-0.83836377 3.19892263 -0.56536716
-0.86219007 3.26247907 -0.54502541
-0.88364851 3.32753181 -0.52412534
-0.87116957 3.33664584 -0.54502541
-1.03362739 3.57040334 -0.39159185
-0.86035842 3.34579611 -0.56749654
-0.87830251 3.41156411 -0.54632103
-0.89482450 3.47845697 -0.52587503
-0.88376021 3.48667669 -0.54924709
-1.01959968 3.79425836 -0.35141483
-1.00974894 3.72310758 -0.36915049
-1.00712061 3.87220788 -0.34691021
-0.98945940 3.87827587 -0.36494368
-1.02851212 3.86675000 -0.33335900
-0.87070048 3.49500799 -0.57150984
-0.88676089 3.56156540 -0.55291039
-0.90033436 3.62858438 -0.53303790
-0.88415486 3.63562036 -0.55183828
-0.86238366 3.64192700 -0.56373650
-0.87405854 3.70842433 -0.54363310
-0.88445270 3.77536917 -0.52352965
-0.86079770 3.77985120 -0.53294855
-0.83581734 3.78345513 -0.53909123
-0.84668809 3.85032511 -0.52163845
-0.85714185 3.91799831 -0.50522071
-0.83128297 3.91983771 -0.50984448
-0.80522299 3.92142367 -0.51426727
-0.81453753 3.98844242 -0.49807280
-0.82281721 4.05676460 -0.48234007
-0.79669017 4.05631018 -0.48721701
-0.77068239 4.05626583 -0.49324799
-0.77706337 4.12299347 -0.47790989
-0.78035432 4.18998289 -0.46263129
-0.75502402 4.18777895 -0.47015145
-0.73097444 4.18577576 -0.47974151
-0.72930658 4.24956369 -0.46301845
-0.72421372 4.31358862 -0.44744951
-0.70247227 4.31033468 -0.45928070
-0.68939757 4.31050634 -0.47758970
-0.67860883 4.37188911 -0.46064329
-0.66458112 4.43279409 -0.44456801
-0.65392631 4.43235588 -0.46288446
-0.65283918 4.43524504 -0.48566833
-0.63524503 4.49399853 -0.46814111
-0.61771035 4.55281210 -0.45328695
-0.62035364 4.55636358 -0.47699407
-0.62233418 4.55975819 -0.50017995
-0.62373394 4.56306458 -0.52307552
-0.60591638 4.62035227 -0.50712681
-0.60329551 4.61703825 -0.48481205
-0.58568639 4.67403555 -0.46946645
-0.58870941 4.67717791 -0.49135676
-0.58870941 4.67717791 -0.49135676
-0.59057081 4.68014097 -0.51322490
-0.57183743 4.73524618 -0.49731338
-0.57005787 4.73257303 -0.47584742
-0.54788458 4.78557873 -0.46068797
-0.54971623 4.78804445 -0.48161784
-0.55151808 4.79054594 -0.50254029
-0.55323809 4.79294348 -0.52344781
-0.52828753 4.84319401 -0.50749165
-0.49937585 4.89095116 -0.49236947
-0.50287533 4.89410830 -0.51277065
-0.50740975 4.89780092 -0.53294855
-0.47807369 4.94521570 -0.51816881
-0.44850680 4.99250364 -0.50389540
-0.45467928 4.99714136 -0.52336591
-0.46221432 5.00246525 -0.54231519
-0.43143383 5.04929161 -0.52874917
-0.39983422 5.09557390 -0.51603186
-0.40729484 5.10115099 -0.53437811
-0.41646793 5.10765076 -0.55168933
-0.38087004 5.15153599 -0.54104942
-0.34350005 5.19347715 -0.53155619
-0.35258383 5.20066977 -0.54807073
-0.36499581 5.21047592 -0.56065392
-0.32387319 5.25023556 -0.55363268
-0.28181985 5.28800821 -0.54595619
-0.29460415 5.29988432 -0.55615675
-0.31000927 5.31371069 -0.56032628
-0.26541695 5.34964418 -0.55449635
-0.22043747 5.38300753 -0.54804099
-0.23506828 5.39870310 -0.55044585
-0.01446700 5.45785189 -0.46874419
-0.25034687 5.41461468 -0.54904616
-0.20277628 5.44647503 -0.54530090
-0.15491529 5.47602654 -0.54240453
-0.16857070 5.49349451 -0.54082602
-0.13242182 5.53947210 -0.53688729
-0.08254306 5.56547928 -0.53685004
-0.09448597 5.58443642 -0.53263587
-0.04348290 5.60864305 -0.53326869
-0.03264196 5.58945513 -0.53722239
0.01736338 5.61128569 -0.53778076
0.00757973 5.63064384 -0.53411001
0.05922312 5.65053988 -0.53553963
0.06794204 5.63099384 -0.53886038
-0.05444298 5.62810564 -0.52859282
-0.00205501 5.65019655 -0.52967983
-0.01157807 5.67017317 -0.52484018
0.04265643 5.69030619 -0.52669412
0.05086904 5.67022514 -0.53137004
0.10447811 5.68843079 -0.53396857
0.11196103 5.66843939 -0.53792965
0.09717386 5.70875692 -0.52930009
0.15221995 5.72545815 -0.53282189
0.15878706 5.70487833 -0.53760952
0.11958542 5.64862537 -0.54080373
0.09009301 5.72957516 -0.52427423
0.03436936 5.71104288 -0.52180970
0.08289301 5.75106382 -0.51874954
0.14026216 5.76769018 -0.52174270
0.14623360 5.74629927 -0.52758014
0.20285816 5.76112986 -0.53201777
0.20805527 5.74034262 -0.53744578
0.19778764 5.78237343 -0.52585274
0.26036879 5.77419758 -0.53749037
0.25596836 5.79538774 -0.53099030
0.21381079 5.71962070 -0.54239714
0.19238207 5.80444241 -0.51870483
0.13373227 5.78993750 -0.51517558
0.18657441 5.82707739 -0.51125920
0.24675058 5.84003258 -0.51501185
0.25152329 5.81737518 -0.52322447
0.31532553 5.80700350 -0.53706604
0.31146121 5.82919168 -0.52883101
0.30742562 5.85199738 -0.52001536
0.37232980 5.83913183 -0.53405792
0.36888245 5.86198950 -0.52500391
0.31915259 5.78561926 -0.54389369
0.30306989 5.87525034 -0.51144528
0.24141201 5.86321068 -0.50716406
0.29866204 5.89953136 -0.50283808
0.36201751 5.90947151 -0.50714171
0.36540529 5.88516092 -0.51606911
0.42861933 5.89193678 -0.52002275
0.43145615 5.86899614 -0.52868211
0.42594630 5.91641760 -0.51135594
0.49208650 5.89536905 -0.52445298
0.49020275 5.91991043 -0.51622546
0.43424082 5.84642792 -0.53744578
0.35884565 5.93576956 -0.49812493
0.42366794 5.94360161 -0.50257003
0.42137465 5.97432375 -0.49292043
0.48782754 5.98013830 -0.49807280
0.48892209 5.94827032 -0.50761825
0.55457085 5.94914961 -0.51359707
0.55453360 5.91948509 -0.52250218
0.55481654 5.98281860 -0.50364965
0.62115026 5.98380136 -0.50951684
0.61944520 5.94795752 -0.52008235
0.55522603 5.89523458 -0.53048402
0.55474955 6.01909399 -0.49254069
0.62231928 6.02181959 -0.49818450
0.48649475 6.01517105 -0.48701599
0.55441451 6.06052923 -0.47937667
0.62322766 6.06421518 -0.48513961
0.69047725 6.06708956 -0.49093240
0.68810952 6.02400064 -0.50391775
0.75634193 6.06893539 -0.49713466
0.75221699 6.02500629 -0.51023912
0.68562263 5.98452377 -0.51553303
0.68237627 5.94643879 -0.52661961
0.69337362 6.11598492 -0.47570595
0.76137525 6.11801052 -0.48206457
0.62412119 6.11322308 -0.46942922
0.69641149 6.16927338 -0.45779902
0.76639366 6.17094135 -0.46441081
0.83458138 6.17233419 -0.47055352
0.82788026 6.11934328 -0.48846042
0.90200222 6.17357731 -0.47769395
0.89353645 6.12004280 -0.49595082
0.82099295 6.06956863 -0.50411129
0.81474602 6.02417231 -0.51763266
0.84028476 6.22738075 -0.45025656
0.90948516 6.22869873 -0.45832023
0.77046645 6.22647190 -0.44355541
0.84484154 6.28399038 -0.42898417
0.77390635 6.28396082 -0.42131510
0.91506195 6.28486872 -0.43852210
0.98478353 6.28728867 -0.45118725
0.97892374 6.23082781 -0.46918353
1.05370843 6.28938103 -0.46260896
1.04803479 6.23235464 -0.47968194
0.96966875 6.17479181 -0.48727658
0.95897669 6.12015438 -0.50557810
0.91781688 6.34157467 -0.41898459
0.98528236 6.34320641 -0.43316865
0.91829342 6.39862394 -0.39938748
0.98244560 6.39881706 -0.41468096
1.04380560 6.39919758 -0.42936391
1.05099821 6.34475470 -0.44629541
1.11541092 6.34438229 -0.45394218
1.12153876 6.28925371 -0.46846128
1.10338616 6.39846039 -0.43970597
1.11623740 6.23185492 -0.48665860
0.97832060 6.45434093 -0.39525512
0.91704249 6.45582199 -0.37943304
0.91509920 6.51324320 -0.35955298
0.97394258 6.51037645 -0.37547934
1.02888441 6.50820208 -0.39028141
1.03603983 6.45342398 -0.41047412
1.09098911 6.45270920 -0.42232770
1.08023000 6.50716686 -0.40237322
1.12863457 6.50466537 -0.40869460
1.14389825 6.44909048 -0.42727166
1.07312679 6.56186342 -0.38036373
1.02349377 6.56427526 -0.36947069
1.02065694 6.61946392 -0.34567419
1.06966460 6.61562967 -0.35490689
1.11520982 6.61148167 -0.36093041
1.11941671 6.55871439 -0.38684893
