3.68600000 1.67970000 -0.56520000
0.38920000 0.72670000 1.71370000
-0.01340000 4.35480000 -1.87960000
3.62080000 1.19720000 0.28570000
-0.37410000 7.13490000 -0.26340000
-0.08460000 4.46970000 -1.75760000
-0.36180000 7.22950000 -0.26810000
0.42420000 0.72140000 1.76240000
-0.31040000 7.33220000 -0.44670000
0.31410000 0.56770000 1.25290000
-0.27730000 7.22410000 -0.20730000
0.66160000 0.76020000 1.59150000
-1.68710000 0.04320000 -0.08120000
0.09080000 4.45280000 -1.85300000
3.47730000 1.20270000 0.28340000
-1.78270000 0.05040000 -0.14680000
3.48750000 2.74080000 -0.28750000
-0.83480000 0.04060000 -0.35270000
-0.93930000 0.07700000 -0.42130000
-0.83110000 -0.04260000 -0.20860000
0.31830000 0.70000000 1.28790000
0.90750000 0.76770000 1.70530000
-0.65530000 -0.09050000 -0.09400000
-0.03300000 4.70380000 -1.59480000
0.68930000 0.97660000 1.62110000
0.16310000 4.53190000 -1.78870000
3.79480000 0.98810000 -0.55580000
-1.65720000 0.25370000 -0.10280000
-1.89010000 0.18220000 -0.29840000
0.95850000 1.10940000 1.55200000
-0.20100000 4.58490000 -1.48990000
0.39200000 0.67930000 1.35920000
-0.83630000 0.15620000 -0.36240000
-0.05500000 7.59290000 -0.90670000
0.34540000 0.73760000 1.32020000
3.41100000 3.02920000 -1.04400000
-0.09110000 7.60360000 -0.74660000
0.40680000 0.79870000 1.30580000
0.55300000 0.81900000 1.34450000
0.86520000 0.30120000 0.91370000
0.90290000 0.18680000 0.85950000
0.59580000 0.82580000 1.38600000
-1.46810000 0.42020000 -0.15000000
0.40330000 0.93800000 1.33430000
-1.64020000 0.36950000 -0.16070000
0.50120000 0.95880000 1.37490000
3.55120000 2.90260000 -0.71060000
0.56890000 0.87310000 1.44740000
-1.04210000 0.22510000 -0.32980000
-1.40950000 0.46460000 -0.25620000
-0.19690000 7.41270000 -0.60140000
-1.03090000 0.22470000 -0.47120000
0.85890000 0.35740000 1.02180000
0.69980000 0.50300000 0.94330000
-0.95790000 0.21780000 -0.53600000
-0.90660000 0.24420000 -0.51020000
-0.26840000 7.44650000 -0.56230000
3.43780000 3.17610000 -0.84070000
-1.67830000 0.40180000 -0.25300000
0.34240000 0.89060000 1.29110000
3.62480000 1.59180000 -0.18050000
-1.64220000 0.49890000 -0.25750000
-1.56120000 0.56430000 -0.25410000
-1.15500000 0.40860000 -0.44450000
0.33760000 0.98780000 1.26010000
-1.63100000 0.78020000 -0.37870000
-0.98870000 0.37890000 -0.53530000
-0.15060000 7.64920000 -0.63400000
-0.92270000 0.54330000 -0.47270000
0.39760000 1.16460000 1.37020000
0.39040000 1.10150000 1.29900000
3.19870000 3.46740000 -1.06320000
0.28730000 0.63310000 0.81480000
-1.75720000 0.69080000 -0.31040000
-1.73530000 0.80970000 -0.34170000
0.08260000 7.86200000 -0.99830000
0.04040000 7.37940000 -1.22140000
0.47070000 0.77770000 0.89900000
-1.53570000 1.17830000 -0.42330000
-1.42590000 0.70030000 -0.32830000
-1.45100000 1.02950000 -0.36750000
-1.32640000 0.66380000 -0.34430000
3.25410000 3.50640000 -0.88140000
0.12970000 8.05430000 -0.84170000
-1.26040000 0.73620000 -0.44050000
0.58040000 0.95830000 1.62130000
0.51070000 1.05370000 1.70590000
0.28350000 0.81600000 0.81560000
0.42640000 0.97980000 0.83810000
0.70470000 0.32980000 1.25550000
0.38270000 0.96800000 1.66760000
3.38990000 3.30140000 -0.69310000
0.43590000 1.07420000 1.54180000
3.45460000 3.06240000 -0.46550000
0.65690000 0.44110000 1.12410000
0.69260000 0.52480000 1.01500000
0.77590000 0.39390000 1.10220000
-2.49370000 0.91870000 -0.37860000
-2.60070000 1.11030000 -0.29170000
-2.63090000 0.82390000 -0.40040000
3.67590000 1.25430000 0.01060000
0.59140000 0.73700000 1.03110000
0.65890000 0.28720000 1.34760000
0.60470000 -0.02210000 1.45120000
-2.39560000 1.06100000 -0.32100000
-2.27290000 0.93440000 -0.51080000
3.75580000 1.12290000 0.09480000
0.02840000 7.98580000 -0.66540000
-2.21600000 1.03360000 -0.30050000
0.07870000 -2.08340000 0.90370000
-0.23450000 -2.11610000 0.89760000
0.73380000 0.37110000 1.35340000
-0.30010000 7.33480000 -0.36430000
0.42130000 1.11000000 1.64570000
-2.45620000 1.16090000 -0.21370000
-2.29900000 1.08560000 -0.16320000
-2.10350000 1.08760000 -0.14450000
-0.21440000 7.35970000 -0.31750000
-2.15710000 1.15120000 -0.09490000
3.55880000 1.63420000 0.00440000
-2.29950000 1.12580000 -0.07920000
0.87150000 0.34320000 1.27000000
-2.41260000 1.19540000 -0.09160000
0.72140000 1.15270000 1.52530000
-2.37050000 1.24430000 -0.07870000
-2.64950000 0.94050000 -0.41320000
-2.72870000 1.12030000 -0.34560000
3.86100000 1.19420000 0.12280000
-0.07720000 7.36360000 -0.31550000
-0.02900000 7.50960000 -0.35180000
-0.12700000 -2.16120000 1.06020000
3.75140000 1.29720000 0.08050000
0.83520000 1.23650000 1.46360000
0.46470000 0.80540000 1.11000000
-2.73600000 1.14500000 -0.41870000
0.58590000 0.74180000 0.97320000
-2.55140000 1.11570000 -0.44600000
-0.15450000 7.50750000 -0.39200000
-0.25460000 7.52840000 -0.47760000
0.59430000 1.20440000 1.61860000
3.90470000 1.26190000 0.22880000
3.83280000 1.21330000 0.24950000
0.65370000 1.33270000 1.34030000
0.60260000 1.32700000 1.47600000
3.91090000 1.30810000 0.17430000
1.26980000 3.51710000 -2.35440000
0.75150000 1.26840000 1.39800000
0.86220000 1.39740000 1.31880000
-0.13450000 7.64260000 -0.39540000
-0.50940000 -2.08130000 0.96610000
-0.64570000 -1.99160000 0.96260000
-0.79870000 -1.95510000 0.85340000
-2.60780000 1.28330000 -0.43010000
3.79040000 1.40470000 0.14100000
0.55480000 0.93530000 1.00390000
1.00070000 0.76670000 1.83150000
-2.77950000 1.27720000 -0.39810000
-2.73750000 1.26700000 -0.44570000
1.02850000 1.02630000 1.71350000
0.33730000 0.69650000 1.19140000
0.08120000 7.45650000 -0.40950000
0.16080000 7.49220000 -0.42890000
-2.67680000 1.30140000 -0.27440000
3.21690000 3.53200000 -0.58080000
3.31510000 3.25950000 -0.36610000
0.35520000 0.87150000 1.19010000
-2.37460000 1.31700000 -0.36140000
-2.41010000 1.22000000 -0.46530000
0.09540000 7.60150000 -0.35200000
1.05330000 1.09670000 1.87900000
-2.54500000 1.36420000 -0.36640000
3.35010000 2.99310000 -0.20020000
0.20730000 7.58220000 -0.33230000
-2.44460000 1.35870000 -0.26010000
-0.38720000 -2.06910000 0.86870000
3.61490000 1.54810000 0.06150000
0.39100000 1.14720000 1.17780000
0.55220000 1.08820000 1.10790000
0.18130000 7.69770000 -0.25350000
3.78300000 1.45770000 0.20800000
3.63800000 1.56920000 0.16110000
-0.40220000 -2.16390000 1.18580000
1.08410000 1.10770000 2.09350000
0.57180000 1.03940000 0.95950000
1.13690000 1.05640000 2.16920000
-2.55090000 1.31040000 -0.13750000
0.28370000 7.68680000 -0.13410000
0.64300000 1.09030000 1.05920000
0.13030000 7.74340000 -0.21270000
3.15210000 3.30220000 -0.19770000
-0.27360000 -2.31370000 1.24410000
0.66080000 1.16470000 0.94140000
3.48430000 2.04930000 -0.04470000
1.02050000 3.75200000 -2.32860000
3.54470000 1.72460000 0.10500000
0.44280000 0.86250000 1.78460000
0.08830000 7.79660000 -0.18990000
-0.00890000 0.85580000 0.65760000
-2.59220000 1.42210000 -0.31640000
3.11090000 3.55600000 -0.40910000
0.40260000 0.84880000 1.75800000
-0.01950000 7.75730000 -0.34570000
-2.57800000 1.39540000 -0.20400000
0.37320000 0.97370000 1.82160000
3.74850000 1.13790000 0.31820000
0.47920000 1.03210000 1.79860000
-2.31850000 1.28070000 -0.13600000
3.15990000 2.95280000 0.00910000
0.05320000 7.94500000 -0.31410000
-0.07380000 7.79250000 -0.52920000
0.34800000 0.98130000 1.76220000
-0.07540000 0.95900000 0.51100000
-0.04680000 0.87010000 0.54800000
0.36900000 1.11780000 1.78650000
3.00790000 0.89800000 0.42060000
3.19720000 1.06000000 0.37670000
-2.12040000 1.01190000 -0.47140000
-1.99030000 1.09220000 -0.26100000
0.42520000 1.08150000 1.84250000
0.01140000 0.98230000 0.59890000
-0.53400000 -2.18480000 1.23720000
-1.97880000 1.07160000 -0.42920000
-1.82140000 1.20820000 -0.32660000
-1.80890000 1.16090000 -0.48670000
-1.76780000 1.25440000 -0.43420000
-0.53600000 -2.28920000 1.45080000
-0.42970000 -2.26720000 1.36780000
-1.84990000 1.21570000 -0.21110000
-0.26860000 1.24890000 0.56220000
0.62160000 3.86170000 -2.30890000
0.07290000 8.10980000 -0.56240000
0.01140000 7.94560000 -0.46790000
-0.35340000 1.06560000 0.50040000
-0.32530000 -2.20530000 1.18800000
3.03000000 1.11110000 0.38030000
0.00600000 8.07370000 -0.45790000
2.90090000 3.60760000 -1.32580000
-1.91120000 1.25060000 -0.16620000
-2.03050000 1.28730000 -0.18850000
0.37480000 1.22520000 1.89550000
0.41610000 1.29410000 1.88500000
0.48140000 1.43560000 1.78760000
-0.47540000 1.18800000 0.47620000
-2.20700000 1.30180000 -0.22580000
0.04250000 8.06530000 -0.28650000
-0.03040000 8.09610000 -0.38490000
3.18460000 1.21890000 0.37730000
3.54780000 1.24280000 0.39260000
-0.00670000 8.25080000 -0.35810000
3.30280000 1.25260000 0.41970000
-1.75280000 1.46930000 -0.19890000
-0.00210000 8.20800000 -0.45800000
0.85540000 4.00220000 -2.14790000
0.27310000 7.86960000 -0.14030000
0.36850000 1.10710000 1.22030000
-1.67760000 1.21470000 -0.51010000
-1.50630000 1.34540000 -0.42930000
3.40850000 1.29470000 0.53690000
3.63860000 1.30970000 0.47150000
0.34750000 1.28880000 1.27180000
0.31170000 1.15960000 0.57840000
0.24270000 1.18680000 0.51050000
0.15240000 1.08800000 0.54660000
3.53280000 1.37150000 0.51630000
-1.68860000 1.30360000 -0.48300000
2.76730000 1.00990000 0.25310000
2.64360000 0.86720000 0.26470000
0.33020000 1.22670000 1.45250000
2.97890000 1.25330000 0.47710000
2.85300000 1.23670000 0.41610000
-1.62260000 1.38580000 -0.37920000
0.17860000 7.95370000 -0.11310000
0.11750000 7.97220000 -0.13060000
0.27170000 1.02970000 0.75800000
0.22590000 1.34570000 1.52680000
0.36030000 1.21380000 1.58700000
2.53450000 3.93210000 -1.39230000
-1.39410000 1.44390000 -0.29390000
-0.58340000 -2.07730000 1.13100000
0.27860000 1.39690000 1.39290000
-1.72860000 1.35860000 -0.24660000
0.09920000 8.07600000 -0.19190000
0.14570000 8.05350000 -0.12690000
0.07600000 1.00290000 0.70650000
3.09640000 1.32490000 0.48340000
2.80330000 1.33010000 0.36240000
-0.67930000 -2.08360000 1.22630000
0.17980000 1.10920000 0.67830000
0.03220000 8.25230000 -0.33920000
0.10440000 8.16160000 -0.30530000
-1.86540000 1.49440000 -0.24350000
2.65700000 1.32440000 0.31730000
-0.73290000 -1.98260000 1.08710000
0.23050000 1.09260000 0.74050000
0.61420000 1.35110000 1.17650000
0.73290000 1.29030000 1.09390000
0.45390000 1.30380000 1.15800000
0.73230000 1.32320000 1.20630000
0.82280000 1.39100000 1.19690000
-1.57510000 1.49980000 -0.26130000
1.11800000 7.03860000 0.84770000
0.41450000 1.20950000 0.63300000
0.42910000 1.16390000 0.72700000
-1.52670000 1.60560000 -0.24410000
-2.25380000 1.36700000 -0.45670000
0.56530000 1.59060000 1.30280000
2.94990000 1.38150000 0.52520000
-2.09540000 1.40810000 -0.33020000
2.87380000 1.51610000 0.48950000
0.50680000 1.50150000 1.19910000
3.08300000 1.42800000 0.56830000
-2.00650000 1.57890000 -0.42110000
0.39310000 1.30220000 0.60280000
0.30240000 1.48810000 1.34900000
1.35340000 4.04380000 -1.99510000
0.42620000 1.54060000 1.24200000
0.68640000 1.28110000 0.62500000
0.53110000 1.31390000 0.58540000
3.21480000 1.33570000 0.56140000
0.73340000 1.24650000 0.68780000
1.20440000 6.38680000 -1.84300000
1.49970000 5.93250000 -1.76650000
0.31560000 -2.07090000 0.68760000
0.70870000 1.45740000 0.70600000
3.25200000 1.38690000 0.56710000
0.45920000 1.54980000 0.69330000
0.02790000 1.06970000 0.51520000
-0.07530000 1.11790000 0.50450000
0.60240000 1.57430000 1.39150000
0.51560000 1.40750000 1.60320000
2.81710000 3.80250000 -1.22470000
-0.02100000 1.18870000 0.42560000
3.01090000 3.74530000 -1.02060000
0.93330000 5.88920000 -1.92450000
0.11980000 1.16470000 0.45480000
3.33030000 1.49370000 0.42320000
3.55890000 1.43800000 0.38930000
1.23830000 4.13910000 -1.89160000
0.60920000 1.59950000 1.49860000
-0.05690000 1.30240000 0.40140000
3.08520000 1.67360000 0.46700000
-0.02360000 1.44540000 0.53090000
0.09970000 1.64720000 0.81210000
2.64570000 3.93630000 -1.16590000
2.91670000 1.75800000 0.45110000
-0.11280000 1.27250000 0.40130000
0.83690000 6.22380000 -1.92630000
1.01870000 4.23980000 -1.87310000
1.14790000 4.27530000 -1.87370000
0.17290000 1.53460000 1.49440000
-0.19270000 1.29150000 0.49890000
0.19310000 -2.02640000 0.93170000
0.27440000 1.68220000 1.45860000
3.22640000 2.31160000 0.20810000
-0.19080000 1.40580000 0.42820000
0.35940000 1.59820000 1.36400000
0.37910000 1.78940000 1.42120000
0.49040000 1.77890000 1.39130000
-1.69220000 1.68050000 -0.20880000
-1.83950000 1.86490000 -0.41370000
3.76060000 1.28190000 0.30410000
1.86130000 5.96010000 -1.50010000
1.77840000 5.85740000 -1.59680000
1.65940000 6.09440000 -1.68560000
3.00780000 3.77590000 -0.83130000
1.79710000 6.67830000 -1.44880000
1.55930000 6.52710000 -1.67930000
0.37050000 1.40870000 1.69010000
3.79670000 1.36310000 0.38910000
3.90630000 1.38970000 0.23880000
0.18900000 -2.03820000 1.11010000
3.88970000 1.39720000 0.30390000
0.29700000 1.39560000 1.60430000
0.26490000 1.48680000 0.72790000
0.36120000 1.27500000 1.77720000
-1.64650000 2.08940000 -0.32990000
0.32110000 1.52390000 1.61920000
0.18010000 1.50550000 1.55380000
3.74730000 1.44420000 0.33460000
2.78530000 3.88230000 -0.85610000
0.36110000 1.39250000 1.84510000
0.42790000 1.44070000 1.87440000
2.95300000 3.72660000 -0.52580000
0.73300000 1.24450000 0.81260000
-0.93650000 1.20060000 -0.31160000
2.68210000 3.83020000 -0.56290000
0.36260000 1.54930000 1.77760000
1.61620000 4.17570000 -1.76350000
0.39540000 1.52620000 1.84290000
3.58050000 1.59840000 0.22270000
3.43180000 1.74070000 0.26980000
2.54500000 3.95710000 -0.97970000
0.58780000 1.69730000 1.62320000
0.28470000 1.65680000 1.64390000
-0.91000000 1.28360000 -0.08810000
0.61250000 1.76890000 1.47460000
3.46950000 1.93370000 0.11270000
1.30150000 4.51700000 -1.86780000
1.58800000 4.39090000 -1.78470000
0.83650000 1.29930000 0.93050000
0.83490000 1.28490000 1.01440000
-1.05890000 -1.57840000 0.72060000
-0.85200000 -1.42090000 0.53370000
-0.09830000 1.76650000 0.75530000
-1.14140000 -1.53420000 0.87700000
0.45110000 1.60280000 1.75620000
-0.99370000 1.35110000 -0.35870000
0.36610000 1.76530000 1.70750000
1.34820000 7.06000000 -1.64520000
0.49210000 1.75780000 1.71220000
-0.99980000 -1.49810000 0.91930000
-0.88230000 -1.41700000 0.75900000
2.32190000 1.15170000 0.31860000
2.47440000 1.03020000 0.13220000
2.29570000 1.05840000 0.24950000
2.35810000 4.20910000 -1.04550000
2.29660000 4.14130000 -1.21690000
2.23280000 4.28300000 -1.29310000
2.21190000 4.40670000 -1.17370000
-1.19730000 1.33480000 -0.38460000
0.35150000 1.68320000 0.81510000
1.27180000 0.96160000 0.73230000
1.16670000 0.92310000 0.81300000
1.25240000 0.88420000 0.84600000
-0.83740000 -1.12480000 0.86870000
-0.70890000 -1.18640000 0.57680000
1.49300000 0.88030000 0.77350000
-0.69740000 -0.92920000 0.74230000
1.47440000 0.99850000 0.66710000
0.70850000 6.50100000 -1.86790000
0.90670000 6.81760000 -1.83050000
-0.59970000 -0.85080000 0.55230000
1.09870000 6.89880000 -1.79530000
0.23920000 1.63030000 1.52730000
1.73350000 0.87010000 0.66460000
1.86180000 0.92950000 0.57640000
1.72560000 1.00040000 0.63380000
0.27740000 1.79650000 1.56450000
0.91230000 4.54890000 -1.93390000
-1.04570000 1.43780000 -0.33700000
-1.06190000 -1.45540000 0.98960000
-1.22880000 1.41370000 -0.33770000
-1.03330000 1.51110000 -0.21510000
0.58270000 1.86080000 1.47660000
-0.98640000 1.43820000 -0.27300000
1.86900000 1.13970000 0.59060000
2.23120000 4.45570000 -0.92610000
-0.96260000 -1.39710000 1.03250000
0.39600000 1.91440000 0.86890000
2.42450000 4.13820000 -0.71620000
-0.79830000 1.01250000 0.08140000
0.69820000 7.11140000 -1.74140000
2.28650000 4.30230000 -0.56680000
0.33710000 1.94650000 1.59890000
-0.67710000 1.06730000 0.20350000
2.14410000 4.57450000 -1.00970000
0.30020000 1.92160000 0.98660000
0.53060000 2.00580000 1.53550000
-1.01040000 -1.25450000 1.13420000
1.58220000 1.07450000 0.59270000
1.74250000 1.11390000 0.56820000
-0.83950000 1.25750000 0.05620000
2.95600000 3.57580000 -0.29460000
0.32040000 1.84440000 1.64230000
1.77940000 1.28680000 0.57250000
1.12710000 0.98580000 0.82270000
1.21120000 1.07010000 0.69220000
3.05800000 -0.54930000 -1.54680000
1.36690000 1.06820000 0.58040000
-0.81410000 1.48920000 0.04910000
1.29710000 1.13850000 0.52960000
0.51720000 1.89020000 1.66940000
0.58550000 1.87790000 1.58270000
2.68970000 3.65310000 -0.28710000
-0.97570000 -1.10140000 1.21130000
0.39060000 1.92460000 1.70050000
0.63590000 1.98660000 1.73800000
3.12740000 -0.54820000 -1.40810000
1.21600000 1.25330000 0.54670000
-0.74840000 1.38920000 0.19210000
1.21400000 1.21260000 0.64670000
1.14920000 1.20110000 0.83510000
1.09600000 1.29680000 0.61950000
1.16600000 1.27380000 0.75090000
1.07080000 1.31340000 0.79500000
1.37120000 1.20680000 0.49930000
0.35030000 2.03580000 1.63940000
1.31100000 1.23920000 0.47780000
0.33000000 1.98370000 1.70930000
1.35860000 1.34910000 0.49230000
3.35510000 -0.29820000 -1.30180000
0.45930000 2.00530000 1.75070000
1.42690000 1.15120000 0.57820000
0.60970000 2.14630000 1.72680000
0.60280000 2.16640000 1.64470000
1.55790000 1.44780000 0.66760000
0.60120000 4.49290000 -1.93010000
-0.91920000 1.55540000 -0.06110000
1.45340000 1.46810000 0.57780000
1.22040000 1.13700000 2.21690000
1.48570000 1.37360000 0.63450000
-0.98660000 1.62290000 -0.05990000
0.51840000 6.78140000 -1.80850000
1.71070000 1.58470000 0.66680000
0.36930000 4.46510000 -1.88850000
1.20840000 1.35500000 0.52670000
2.09930000 4.77610000 -1.04970000
3.13360000 -0.11510000 -1.59420000
2.00530000 0.04020000 1.64780000
-0.78210000 1.80040000 0.14200000
-0.84150000 1.71550000 0.00190000
-0.82840000 1.81600000 0.09030000
1.46900000 0.87230000 0.99920000
1.59130000 0.92230000 0.97510000
2.96410000 0.04320000 -1.70060000
-1.38080000 1.31780000 -0.43610000
1.37650000 0.90400000 1.01590000
1.15920000 0.94370000 0.91320000
0.47930000 7.25520000 -1.67640000
1.92360000 0.07680000 1.60480000
0.95410000 7.37950000 -1.64150000
1.53820000 0.95660000 1.27850000
0.83620000 7.47360000 -1.63710000
2.02890000 0.36710000 1.74970000
-1.21470000 1.49990000 -0.16170000
0.72100000 4.77990000 -1.91470000
3.31060000 -0.59120000 -1.09540000
1.40310000 1.01530000 1.17730000
1.27580000 1.03440000 1.06240000
1.93510000 0.20720000 1.70250000
-1.36150000 1.60810000 -0.27640000
-1.45980000 1.49160000 -0.29170000
-1.15910000 1.69280000 0.01180000
2.08330000 5.25680000 -1.00130000
3.45910000 -0.38980000 -0.95350000
-1.22350000 1.71530000 -0.12140000
-1.38140000 1.78750000 -0.33330000
-1.46150000 2.06900000 -0.30430000
1.67610000 0.91370000 1.24710000
1.67760000 0.97620000 1.08880000
-1.24870000 1.86630000 -0.28340000
2.83930000 0.09150000 -1.80030000
1.82620000 0.90700000 1.38550000
1.85100000 0.28240000 1.66150000
1.84080000 1.06910000 1.04460000
2.01850000 5.62800000 -1.12460000
1.86480000 1.09220000 1.14220000
1.95270000 0.99330000 1.42280000
2.60510000 0.20400000 -1.87280000
0.40950000 5.38980000 -1.84790000
1.12000000 1.09550000 0.90950000
-1.22140000 2.00360000 -0.37780000
-1.31210000 1.98290000 -0.39970000
1.94750000 0.35430000 1.76330000
1.15160000 1.06150000 0.99090000
2.88010000 0.24490000 -1.80660000
-1.36910000 2.20680000 -0.36530000
-0.12310000 -0.85630000 0.76250000
-0.22440000 -1.00540000 1.25060000
1.87730000 0.40420000 1.72780000
-1.14690000 2.39480000 -0.33300000
1.76780000 0.45680000 1.75220000
1.89410000 0.52060000 1.73020000
1.61510000 7.28000000 -1.44210000
1.97170000 0.53630000 1.78170000
0.44750000 -1.66640000 1.57570000
0.34960000 -1.62980000 1.57710000
1.06220000 1.24710000 0.93460000
-1.08000000 1.66820000 0.05780000
0.65610000 5.09140000 -1.87620000
0.23560000 -1.74540000 1.68020000
0.20660000 -1.79750000 1.82770000
1.81080000 0.55540000 1.72520000
-1.55850000 1.78720000 -0.21800000
1.08660000 1.26530000 1.02780000
3.49590000 -0.34490000 -0.60950000
1.75460000 0.72110000 1.67880000
1.92730000 6.64420000 -1.23490000
1.83180000 7.22850000 -1.23080000
1.22040000 1.60670000 1.19130000
0.95000000 1.31400000 0.97580000
2.17720000 0.59060000 1.64590000
0.99190000 1.38300000 1.05770000
0.22970000 -1.58170000 1.70810000
2.34440000 0.64590000 1.47240000
1.07970000 1.48450000 1.10440000
-1.11270000 2.07820000 -0.27800000
-1.04310000 2.04630000 -0.01770000
0.51670000 -1.65950000 1.76970000
-0.97570000 1.73930000 0.09170000
-0.90120000 1.75920000 0.03050000
0.47050000 -1.51110000 1.68750000
2.15670000 0.89000000 0.33290000
2.06950000 1.13790000 0.48200000
0.39130000 -1.43600000 1.59650000
3.28020000 -0.11880000 -1.46600000
1.89670000 0.68920000 1.67180000
-1.05630000 1.91950000 0.12720000
2.01370000 0.75320000 1.72560000
-0.91030000 1.86040000 0.15700000
0.24850000 -1.40610000 1.65970000
0.31260000 -1.35170000 1.55470000
1.94610000 7.15360000 -0.78330000
2.01850000 6.42750000 -0.89500000
2.16220000 1.31440000 0.44750000
0.42160000 -1.29120000 1.50300000
0.46620000 -1.33650000 1.64470000
0.14160000 -1.27470000 1.65270000
2.20960000 0.78340000 1.55440000
2.15320000 0.81450000 1.69910000
0.37250000 -1.22530000 1.34930000
1.61500000 0.63450000 1.84540000
0.60320000 -1.20040000 1.60600000
0.18650000 -1.25590000 1.50910000
0.17600000 -1.17570000 1.25370000
-1.04910000 2.09060000 0.05660000
-0.92870000 2.37910000 0.05570000
1.86290000 7.37870000 -1.02950000
1.96120000 1.43080000 0.60490000
-0.00870000 2.21110000 0.48240000
0.27920000 2.10560000 0.61770000
0.38270000 2.46000000 0.58750000
-1.55770000 2.10640000 -0.27760000
1.70450000 0.89190000 1.47800000
0.28960000 -1.73760000 1.90010000
3.54080000 -0.20550000 -1.03790000
0.67020000 2.11460000 0.76170000
0.78740000 2.02170000 0.70800000
0.69830000 2.12610000 0.67510000
0.21070000 -1.69060000 1.89500000
0.49820000 2.19660000 0.65650000
0.41930000 2.17170000 0.72230000
0.35870000 -1.73500000 1.82070000
2.29130000 1.26120000 0.44330000
0.45680000 -1.72140000 1.81910000
3.54340000 0.12510000 -1.22340000
0.40200000 -1.61840000 1.83340000
0.24570000 2.09300000 0.72240000
0.18180000 1.94880000 0.67710000
1.85740000 0.80160000 1.56710000
0.28840000 -1.63180000 1.89390000
0.16520000 -1.55920000 1.83370000
0.20580000 2.16280000 0.80890000
0.37860000 2.28460000 0.82940000
0.16840000 -1.58500000 1.93530000
2.43850000 1.30350000 0.42440000
2.54200000 1.44370000 0.37410000
2.12090000 0.93830000 1.61120000
2.47830000 1.39170000 0.46660000
-1.04370000 2.32620000 -0.30380000
0.63730000 2.49860000 0.64130000
0.39720000 -1.49240000 1.92250000
1.66220000 0.84010000 1.63310000
2.37730000 1.42820000 0.50790000
0.23820000 -1.53690000 1.97080000
0.65150000 2.24730000 0.85430000
1.59920000 0.92870000 1.54950000
0.28170000 -1.45050000 1.93260000
0.18170000 -1.45110000 1.97400000
2.23100000 1.47400000 0.48630000
0.77840000 2.47230000 0.66750000
0.91720000 2.04120000 0.83990000
2.07460000 0.65450000 1.78830000
2.40330000 1.59390000 0.58430000
0.46200000 -1.45780000 1.91260000
0.49580000 -1.37010000 1.78020000
2.18080000 1.63350000 0.64940000
0.49290000 -1.44480000 1.85100000
0.85420000 2.54340000 0.65640000
1.18800000 2.49460000 0.61120000
0.60600000 -1.24160000 1.83340000
-0.92060000 2.46520000 -0.15760000
0.72160000 2.83510000 0.68950000
2.11350000 1.54000000 0.55630000
2.11570000 5.11160000 -0.85590000
2.09700000 4.96960000 -0.64640000
1.54840000 0.80010000 1.86330000
-0.84440000 2.55430000 -0.00350000
0.03980000 2.72070000 0.42910000
1.54480000 0.95230000 1.77120000
0.61890000 -1.20380000 1.91630000
1.87230000 1.68180000 0.63790000
1.99870000 1.61970000 0.65590000
0.13100000 -1.28690000 1.81460000
1.45210000 1.03680000 2.01600000
-0.52510000 1.25090000 0.35910000
-0.48840000 1.56260000 0.49110000
1.62490000 1.99060000 0.76040000
1.10580000 7.52550000 -1.58460000
-0.59590000 1.63930000 0.32610000
0.52740000 2.87030000 0.56130000
1.77130000 1.91680000 0.69570000
-0.51300000 1.48200000 0.55790000
-0.48110000 1.40290000 0.58480000
2.16550000 5.42050000 -0.79490000
-0.71010000 1.70920000 0.27110000
2.18080000 5.60280000 -0.56060000
2.39100000 0.72690000 1.33050000
3.04490000 0.23590000 -1.81050000
3.25070000 0.21830000 -1.75700000
0.01010000 -1.09470000 1.83140000
-0.16550000 -1.06580000 1.67250000
1.94970000 1.76560000 0.69980000
2.33280000 0.82140000 1.39910000
0.57280000 2.94820000 0.61920000
2.30170000 1.92890000 0.58270000
3.07710000 0.14950000 -1.67410000
2.11540000 5.88000000 -0.82240000
2.20270000 5.79730000 -0.72230000
2.14210000 2.07010000 0.60670000
3.28460000 0.19050000 -1.54610000
3.22430000 0.20850000 -1.64520000
0.96530000 7.76360000 -1.46820000
-0.41400000 1.61150000 0.66710000
1.89280000 1.98650000 0.71950000
2.28310000 0.92560000 1.35160000
3.39110000 0.24070000 -1.69750000
3.32870000 0.24540000 -1.81970000
2.19520000 0.93320000 1.45380000
0.97190000 2.84330000 0.58050000
0.81100000 2.79540000 0.61310000
2.14480000 1.04320000 1.39070000
3.34940000 0.31320000 -1.83150000
3.45000000 0.27300000 -1.74180000
0.85600000 1.34560000 0.66670000
0.93190000 1.30930000 0.66640000
1.02500000 1.36720000 0.58920000
0.91240000 1.47300000 0.70650000
2.06750000 1.08670000 1.33900000
0.95110000 1.32490000 0.79320000
-0.48850000 2.06960000 0.50370000
3.45560000 0.74860000 -1.52360000
0.99820000 1.46970000 0.62850000
3.55190000 0.33630000 -1.55700000
2.17670000 0.96330000 1.53730000
1.56650000 2.95150000 0.46750000
1.50480000 2.42360000 0.55350000
1.57090000 2.53690000 0.56530000
3.41130000 0.31080000 -1.53250000
1.29170000 1.82970000 0.69830000
3.53590000 0.37320000 -1.67160000
1.93360000 5.31560000 -0.34200000
-0.42170000 1.81770000 0.70750000
1.33630000 7.67630000 -1.39660000
2.06250000 5.38020000 -0.28130000
1.45550000 3.06130000 0.44940000
-0.22030000 1.63970000 0.53620000
1.45310000 1.71440000 0.61900000
3.65010000 0.40260000 -1.54290000
1.57930000 2.65000000 0.67110000
1.99880000 5.45500000 -0.34260000
1.50940000 1.03240000 1.38640000
-0.30100000 1.56160000 0.59090000
1.39810000 1.36150000 1.32430000
2.13100000 5.48050000 -0.29840000
1.50910000 1.15980000 1.59340000
2.85330000 0.29760000 -1.87120000
0.85830000 3.16200000 0.48780000
2.00720000 5.70000000 -0.33040000
1.70500000 7.65460000 -1.12930000
1.13690000 1.74110000 0.72160000
-0.66330000 2.04750000 0.27120000
1.48160000 7.90510000 -1.19840000
1.03340000 1.69660000 0.83140000
0.84880000 1.78420000 0.88020000
0.98860000 1.42370000 1.40470000
-0.07160000 3.07660000 0.27420000
-0.16840000 2.51420000 0.36690000
-0.14620000 1.96080000 0.41690000
-0.12340000 1.90440000 0.53690000
0.03420000 1.92000000 0.53600000
-0.22700000 1.97060000 0.45560000
-0.15190000 2.10810000 0.40360000
-0.23510000 2.13980000 0.42830000
-0.18350000 3.10070000 0.34290000
-0.24830000 2.30430000 0.55300000
-0.22040000 2.65350000 0.40690000
-0.01430000 -0.57250000 1.43070000
0.28170000 -0.57740000 1.22010000
3.56190000 0.44770000 -1.33600000
3.49640000 0.38070000 -1.31170000
1.39410000 1.57910000 1.55110000
1.18120000 1.84050000 0.89130000
0.26590000 3.25440000 0.34790000
-0.32810000 1.79540000 0.67860000
3.72690000 0.49430000 -1.34040000
1.27930000 1.84930000 1.31780000
1.31570000 1.66650000 1.38160000
-0.37450000 -0.90570000 1.64100000
0.50370000 3.20470000 0.43440000
1.25090000 1.95000000 0.80800000
1.23960000 1.94320000 0.89700000
1.49610000 1.14810000 1.87120000
-0.19840000 1.88460000 0.70800000
3.65600000 0.24310000 -1.05020000
-0.07130000 1.85310000 0.91480000
-0.31030000 -0.87140000 1.79550000
3.60000000 0.47260000 -1.19990000
-0.13150000 1.91710000 0.84520000
3.71090000 0.34100000 -1.05890000
-0.14060000 1.94740000 0.75030000
-0.13810000 3.22260000 0.21090000
3.73690000 0.51560000 -1.20430000
0.11000000 1.86910000 0.64280000
0.13540000 1.91000000 0.87010000
-0.02090000 1.89940000 0.68720000
0.25350000 -0.67940000 1.42770000
0.25190000 -0.67710000 1.36720000
0.12480000 -0.68210000 1.46060000
0.26930000 -0.61430000 1.47410000
0.29990000 7.54940000 -1.46260000
0.16260000 7.08860000 -1.52630000
0.16010000 -0.64960000 1.55080000
0.58350000 7.69040000 -1.52140000
1.44600000 1.48400000 1.81450000
0.20480000 -0.57770000 1.57550000
0.46590000 1.95600000 0.86730000
-0.17980000 1.94570000 0.62350000
0.18400000 -0.63710000 1.68710000
0.21490000 -0.40380000 1.59480000
0.66190000 2.05990000 0.95280000
0.24280000 -0.54990000 1.72830000
3.77240000 0.58960000 -1.42740000
3.73740000 0.87910000 -1.30070000
-0.24800000 2.85450000 0.51250000
-0.20700000 3.35320000 0.28910000
2.16680000 6.34610000 -0.58550000
3.89240000 0.68770000 -1.25260000
1.08230000 2.00070000 0.90090000
0.96640000 1.98080000 0.75350000
1.09840000 2.08790000 0.71960000
1.04180000 2.05230000 0.69310000
1.24890000 2.05110000 0.81860000
-0.30200000 3.28900000 0.33670000
0.05930000 1.82330000 0.97860000
1.08950000 1.42500000 1.83850000
-0.37890000 3.09800000 0.48360000
-0.35340000 2.76410000 0.54060000
1.16180000 2.10190000 0.77570000
0.16510000 2.01470000 0.80750000
-0.40750000 3.27380000 0.40990000
-0.82110000 2.69910000 0.33100000
-0.46730000 2.83870000 0.57230000
0.87960000 2.00020000 0.67630000
1.11570000 2.14200000 0.63930000
0.00380000 1.91280000 0.88470000
0.98860000 1.62690000 1.49590000
1.05180000 1.62850000 1.71470000
3.84610000 0.65120000 -1.21000000
2.21080000 5.94560000 -0.42090000
2.19490000 6.16780000 -0.53280000
2.04430000 6.57030000 -0.68740000
1.27570000 2.08930000 0.66710000
0.17660000 2.04140000 0.93070000
-0.05340000 3.52060000 0.09010000
-0.43040000 1.92030000 0.67590000
1.18910000 1.62640000 1.93570000
1.11860000 1.70720000 1.83090000
-0.24400000 2.00210000 0.57220000
-0.26180000 1.95080000 0.66890000
-0.33240000 2.01130000 0.72390000
1.26310000 1.76120000 1.50190000
1.49190000 2.00530000 0.73740000
-0.27490000 2.22630000 0.66890000
3.49830000 1.32790000 -1.29290000
0.60060000 3.27220000 0.44170000
1.28620000 1.75880000 1.69600000
0.51240000 3.48340000 0.32020000
1.24370000 1.94500000 1.85890000
1.30790000 2.01960000 0.76110000
1.38540000 2.06250000 0.74320000
2.08820000 5.52580000 -0.27820000
-0.35230000 2.22130000 0.68980000
3.66000000 -0.04860000 -0.72230000
0.81870000 8.01990000 -1.37600000
1.55480000 2.18120000 0.68500000
1.54680000 2.11440000 0.60800000
1.47540000 2.07070000 0.68390000
1.47230000 2.05220000 0.62890000
0.93010000 1.47780000 1.14390000
1.87110000 5.61260000 -0.26130000
0.92070000 1.48950000 1.22630000
1.40170000 3.44710000 0.30130000
1.05250000 3.46700000 0.33750000
1.06450000 3.20230000 0.47310000
1.58840000 2.30650000 0.76150000
0.79360000 3.36170000 0.45730000
0.83540000 3.44990000 0.37040000
2.03920000 5.63420000 -0.32510000
0.85180000 3.53450000 0.38410000
2.10640000 5.68800000 -0.28080000
0.41530000 8.07580000 -1.22380000
0.23200000 7.87310000 -1.19920000
0.95790000 1.68550000 1.27390000
1.02210000 1.78030000 1.19870000
1.26820000 3.61520000 0.25520000
1.81170000 2.16450000 0.68190000
1.97650000 -0.87180000 0.32960000
2.00410000 2.12120000 0.66940000
2.16940000 5.78210000 -0.29350000
1.70790000 -0.97260000 0.33530000
1.44690000 -0.98300000 0.32980000
3.67050000 0.04540000 -0.49530000
1.88520000 2.17000000 0.73280000
0.63790000 3.48340000 0.40460000
0.62490000 3.59590000 0.38440000
0.41160000 3.63730000 0.31900000
3.66510000 0.01520000 -0.89480000
1.79860000 5.64880000 -0.16860000
2.00510000 2.23580000 0.75720000
1.91580000 5.75210000 -0.19750000
0.11720000 3.58220000 0.10300000
0.24930000 3.63640000 0.15020000
0.94410000 1.83340000 1.42790000
3.75670000 0.09160000 -0.83750000
1.75210000 -0.74200000 0.49300000
3.85240000 0.09770000 -0.84820000
3.93590000 0.20150000 -1.02250000
4.02730000 0.08300000 -0.84800000
2.00550000 5.84130000 -0.29040000
1.75750000 2.37470000 0.69460000
1.89280000 5.93860000 -0.01370000
1.66660000 -0.85190000 0.47450000
1.83300000 5.75360000 -0.03070000
0.60810000 8.10360000 -1.27420000
3.93140000 0.05560000 -0.68290000
1.75790000 5.78070000 0.10900000
1.14330000 1.90380000 0.97110000
1.94530000 2.36590000 0.73720000
-0.98080000 1.87170000 0.20630000
1.86440000 2.41130000 0.65290000
1.18810000 1.98160000 0.92370000
3.78230000 0.05570000 -0.69310000
0.81600000 3.79660000 0.28940000
0.68910000 3.82070000 0.17390000
0.58400000 3.82330000 0.22080000
0.92040000 3.83050000 0.17560000
0.74960000 3.91060000 0.13030000
1.45060000 2.08530000 0.58060000
1.09170000 3.85400000 0.19280000
1.30230000 2.11600000 0.61280000
-1.07010000 2.00080000 0.22410000
-1.01130000 1.99210000 0.26480000
-0.82110000 2.01810000 0.18230000
2.51050000 3.92860000 -0.72890000
1.27670000 1.88180000 1.40520000
1.54550000 2.19620000 0.57440000
0.79570000 8.28750000 -1.13040000
2.11710000 5.89680000 -0.28770000
2.35950000 4.03870000 -1.16440000
-0.95400000 2.05160000 0.25530000
2.24450000 6.01660000 -0.32600000
1.27680000 2.11070000 0.73390000
2.07220000 5.91230000 -0.31930000
2.03200000 5.98030000 -0.30310000
1.05890000 1.99820000 1.22550000
1.19390000 2.08780000 1.29100000
-1.08760000 2.02190000 0.13480000
-1.07100000 2.10840000 0.24330000
1.47790000 -0.89790000 0.49180000
-1.12920000 2.13790000 0.17690000
2.21020000 4.10350000 -1.36500000
3.73820000 0.44880000 -1.14170000
-0.88730000 2.18940000 0.26480000
2.25590000 6.21680000 -0.42490000
2.12170000 6.13850000 -0.28810000
1.41090000 -0.75030000 0.58330000
2.04170000 6.16600000 -0.28190000
1.09000000 8.00870000 -1.33800000
0.94820000 8.10110000 -1.25680000
-0.99090000 2.23240000 0.33800000
1.94220000 6.08540000 -0.09300000
-0.76650000 2.30770000 0.45350000
2.21040000 6.07130000 -0.27970000
-1.05310000 2.25790000 0.12010000
0.85260000 2.11350000 1.00710000
1.01980000 2.02950000 0.96970000
-1.08280000 2.30170000 0.22820000
-1.08250000 2.26860000 0.29060000
1.33250000 8.23320000 -1.07950000
-0.88170000 2.38070000 0.46190000
2.25030000 6.20930000 -0.26740000
2.08540000 6.50120000 -0.08450000
1.93390000 -0.70120000 0.44100000
2.44360000 4.02410000 -0.85190000
1.81190000 2.48920000 0.63690000
0.74120000 2.27550000 0.94400000
1.95200000 -0.64130000 0.53570000
2.06640000 6.37700000 -0.16370000
0.78950000 2.23460000 0.99390000
1.05670000 -0.58760000 0.59590000
-0.77300000 2.19920000 0.24130000
1.98550000 6.48240000 -0.07550000
1.13640000 8.26190000 -1.14330000
-0.61070000 2.21500000 0.30220000
3.77500000 0.11650000 -0.46930000
2.47640000 3.94600000 -0.53930000
0.96340000 2.03270000 1.31080000
1.38850000 -0.59500000 0.69130000
0.98070000 2.21750000 1.29760000
1.77590000 2.65250000 0.65870000
-0.53810000 2.27690000 0.40910000
-0.57450000 2.34750000 0.42990000
1.83770000 6.77630000 0.19370000
1.94630000 6.73860000 0.02480000
1.83530000 6.94000000 -0.00310000
0.99680000 1.73560000 1.64790000
1.92820000 6.84470000 0.01340000
1.77660000 -0.61150000 0.63780000
0.92990000 1.78030000 1.53860000
1.60610000 3.24960000 0.47650000
3.98490000 0.33050000 -1.09430000
4.04710000 0.19190000 -0.95750000
1.63700000 7.16110000 -0.03050000
1.64640000 7.19730000 -0.29250000
1.51900000 7.21890000 -0.14570000
4.03590000 0.40610000 -1.04930000
0.81340000 1.90730000 1.53710000
1.45160000 7.35600000 -0.11230000
1.50460000 7.31680000 -0.28090000
0.90610000 2.01020000 1.41120000
4.05080000 0.31740000 -0.91160000
1.26250000 7.26910000 0.14010000
0.86350000 1.85540000 1.64600000
1.74280000 6.19300000 0.27520000
1.08320000 1.82790000 1.74600000
1.02450000 1.92270000 1.74220000
4.27430000 0.20510000 -0.57040000
4.11200000 0.27350000 -0.72670000
1.32670000 -0.28950000 0.78190000
1.84620000 6.18380000 0.17140000
-0.76470000 3.11170000 -0.22230000
0.88380000 1.92950000 1.72810000
2.22410000 2.77660000 0.49550000
2.19220000 3.01530000 0.26520000
2.18330000 3.01400000 0.46760000
-0.95890000 2.49610000 0.18660000
2.15200000 3.42590000 0.13420000
1.93800000 6.23750000 0.00870000
-0.79530000 2.81860000 0.06010000
3.85890000 0.46420000 -1.15290000
1.19040000 2.03530000 1.47630000
3.94070000 0.54020000 -1.11110000
2.10850000 3.47560000 0.25700000
2.08320000 3.11290000 0.53220000
-0.81570000 2.84520000 0.17040000
3.68210000 1.72460000 -0.75500000
1.87760000 6.33740000 0.09630000
2.17740000 6.69630000 -0.44970000
2.04880000 7.16920000 -0.50790000
1.81180000 6.39670000 0.26920000
4.05120000 0.48410000 -0.97460000
1.12360000 2.03930000 1.51610000
2.21890000 6.57570000 -0.33790000
2.09390000 6.99490000 -0.39140000
4.02040000 0.67070000 -0.99160000
1.23230000 2.17370000 1.36600000
1.54760000 3.33560000 0.32680000
1.24610000 2.11470000 1.45340000
3.92390000 0.68440000 -1.09120000
0.65210000 -0.72690000 0.41230000
3.97010000 0.47360000 -0.70790000
3.96760000 0.52290000 -0.83400000
-0.41360000 2.46170000 0.54620000
1.65300000 3.54670000 0.32220000
3.88420000 0.67580000 -0.74020000
4.02100000 0.60280000 -0.86000000
1.61220000 3.59550000 0.18560000
1.06730000 2.09540000 1.71330000
1.90220000 7.43090000 -0.69650000
1.90390000 6.57860000 0.14310000
-0.68220000 2.41840000 0.58400000
1.93390000 3.47980000 0.44040000
1.96940000 3.60320000 0.36450000
0.61890000 1.94190000 1.54110000
4.05790000 0.71600000 -0.90820000
1.85610000 7.58990000 -0.52880000
-0.58390000 2.42620000 0.56130000
4.00540000 0.76630000 -0.83540000
0.71500000 1.95380000 1.55560000
4.03630000 0.86980000 -0.98460000
0.70810000 2.02080000 1.51970000
0.80690000 2.09170000 1.46190000
0.73960000 2.21180000 1.40910000
-0.57920000 2.56730000 0.61160000
2.62660000 3.32940000 -0.03940000
2.35230000 3.55030000 -0.11980000
2.44710000 3.07190000 0.08180000
-0.49020000 2.59460000 0.58870000
-0.66100000 2.67530000 0.50250000
2.27580000 6.26150000 -0.34170000
0.76160000 2.18530000 1.49510000
2.94990000 3.13400000 0.01480000
2.85070000 3.45660000 -0.14410000
2.11620000 6.78030000 -0.23620000
2.06660000 6.92220000 -0.15810000
0.73140000 1.94510000 1.66370000
0.61900000 1.92270000 1.61920000
2.11980000 7.09300000 -0.32660000
2.09860000 6.63560000 -0.08610000
0.26370000 -0.77070000 0.35810000
0.08440000 -0.80360000 0.28230000
-0.07670000 -0.78520000 0.23470000
0.08900000 -0.65710000 0.24480000
2.02920000 6.78710000 0.02910000
0.13250000 -0.63790000 0.35180000
-0.44900000 2.54780000 0.53530000
3.40170000 2.48610000 -0.02380000
-0.28360000 2.50160000 0.64620000
2.74230000 1.64730000 0.33370000
2.57760000 1.61470000 0.34520000
3.87390000 0.92600000 -0.79720000
2.47560000 3.83660000 -0.43120000
0.49700000 -0.45490000 0.52240000
2.40110000 3.70120000 -0.25000000
1.99560000 6.88950000 0.04220000
2.50510000 1.53390000 0.49640000
2.07770000 6.96430000 -0.06070000
2.02300000 6.97480000 0.01570000
1.87330000 7.00900000 -0.07240000
0.24530000 -0.74270000 0.76790000
0.37230000 -0.64770000 0.85800000
0.68000000 -0.85030000 0.91910000
0.57170000 -0.73680000 0.91360000
0.66070000 -0.71980000 0.99870000
0.54140000 -0.69570000 1.03090000
2.49260000 1.74240000 0.42170000
2.03900000 7.15000000 -0.15140000
1.94160000 7.15810000 -0.11830000
2.29440000 3.72050000 -0.14230000
3.97400000 0.87090000 -1.11880000
2.42440000 1.97560000 0.49530000
1.74940000 7.10780000 -0.14530000
3.83790000 1.02580000 -1.13030000
1.76280000 7.06330000 0.09430000
2.44460000 3.90180000 -0.28980000
2.11760000 7.14890000 -0.23990000
2.39310000 3.85990000 -0.10510000
0.85510000 -0.76910000 1.00750000
2.59760000 1.88430000 0.32470000
2.09690000 7.24750000 -0.38340000
1.75670000 7.19490000 -0.26230000
1.61600000 7.28350000 -0.39650000
3.84650000 1.16340000 -1.00570000
1.68290000 6.54190000 0.44060000
1.78090000 7.27390000 -0.24720000
2.76100000 2.00500000 0.33320000
1.55550000 7.39780000 -0.35730000
1.64320000 7.38570000 -0.36030000
2.17960000 3.53320000 0.00680000
3.63990000 1.35580000 -1.18770000
0.74330000 2.15140000 1.54030000
2.15600000 3.62920000 0.08850000
0.81880000 2.24100000 1.54280000
2.78490000 2.44580000 0.27320000
0.64090000 2.28300000 1.47140000
0.68480000 2.29880000 1.52020000
2.46560000 2.09280000 0.31990000
1.91130000 7.29450000 -0.22020000
2.22510000 3.72900000 0.03810000
2.00550000 7.35220000 -0.29200000
0.83120000 2.22170000 1.64070000
0.77210000 2.33800000 1.50780000
1.77010000 7.41400000 -0.15350000
1.87630000 7.42600000 -0.16040000
0.83130000 2.20940000 1.32760000
1.63490000 7.48050000 -0.24720000
2.49520000 2.22930000 0.26230000
2.62570000 2.29360000 0.26950000
2.06600000 3.73080000 0.31180000
1.81990000 7.67280000 -0.31860000
-2.70590000 1.37370000 -0.40450000
1.17720000 2.23790000 1.44990000
1.81670000 6.60600000 0.31910000
1.10310000 2.28740000 1.38540000
-2.69040000 1.40030000 -0.33590000
3.59850000 1.75450000 -1.12740000
2.29920000 3.84570000 0.12360000
2.14360000 3.85670000 0.25200000
1.95020000 7.47630000 -0.40890000
2.07500000 3.98140000 0.06390000
2.18810000 3.92510000 0.11120000
2.29100000 3.92870000 0.16640000
3.93990000 0.98670000 -0.88400000
2.25260000 3.97230000 0.13460000
0.84540000 2.33910000 1.36670000
3.77500000 1.00900000 -0.73730000
1.76050000 6.68440000 0.38000000
2.38780000 3.94070000 -0.01340000
2.40140000 4.04080000 -0.20100000
3.81580000 1.24280000 -0.86380000
1.01670000 2.20810000 1.52650000
1.70750000 6.76110000 0.51390000
1.50200000 6.76880000 0.67440000
2.28750000 4.07780000 0.02600000
0.94620000 2.18440000 1.61130000
0.92490000 2.20930000 1.68950000
1.38230000 7.53650000 -0.06230000
-1.74080000 2.49870000 -0.59640000
1.08840000 -0.41960000 0.71750000
0.97990000 2.31390000 1.47700000
3.71460000 1.29770000 -0.74290000
0.78930000 2.37370000 1.43240000
1.70810000 7.94950000 -0.73470000
1.52960000 3.66790000 0.12460000
-0.20310000 5.09720000 -1.24890000
-0.15530000 4.78500000 -1.41080000
1.11720000 3.68990000 0.33070000
1.35070000 3.74020000 0.23120000
1.63920000 2.66330000 0.72210000
1.04850000 -0.09700000 0.79760000
1.34930000 3.82790000 0.17530000
-0.27410000 5.06960000 -1.06030000
-0.23460000 4.75390000 -1.22960000
1.70830000 3.86480000 0.08710000
1.78310000 4.19180000 -0.30360000
1.61470000 3.97190000 -0.05690000
-0.32870000 4.95440000 -0.90110000
1.53570000 8.19350000 -0.92820000
1.61060000 3.79840000 0.05580000
1.34120000 -0.18780000 0.75960000
1.50630000 -0.14640000 0.68580000
1.67700000 2.87340000 0.66580000
1.78210000 3.71010000 0.28610000
1.78780000 3.91230000 0.03840000
1.41050000 -0.10140000 0.65340000
1.23950000 -0.11110000 0.72500000
1.20790000 -0.00170000 0.72030000
1.17490000 0.12440000 0.79200000
1.48260000 3.88250000 0.04860000
1.17780000 1.45560000 2.18350000
1.10860000 1.42350000 2.05580000
1.40990000 1.56470000 2.09690000
1.51390000 7.56560000 -0.21410000
1.37840000 1.45470000 2.18230000
2.77550000 1.03180000 -2.03640000
-1.73440000 2.90180000 -0.84920000
1.29120000 3.96670000 0.00640000
-0.35170000 5.53370000 -0.91750000
1.29190000 1.43680000 2.23070000
1.00110000 3.75410000 0.28660000
0.80880000 -1.05970000 1.39420000
0.60690000 -1.14880000 1.26720000
0.95410000 -0.96880000 1.18500000
-0.34590000 4.72500000 -0.60790000
-0.33120000 4.81510000 -0.76070000
-0.35870000 5.06180000 -0.62960000
1.47390000 4.01060000 -0.06310000
0.68710000 -1.04740000 1.05720000
0.84760000 -0.94440000 1.02950000
1.05900000 3.97440000 0.08150000
1.76540000 7.89780000 -0.44700000
-0.40010000 5.57060000 -0.65320000
2.83770000 2.75430000 0.18490000
1.27550000 4.10560000 -0.06660000
1.71470000 7.76000000 -0.19490000
1.68580000 7.96240000 -0.17790000
1.09460000 1.86910000 1.92050000
1.19570000 1.61230000 2.05280000
1.75500000 8.05730000 -0.29070000
1.76160000 8.12470000 -0.36890000
2.55880000 1.23070000 -1.98790000
1.15550000 1.92750000 2.00940000
1.22270000 1.77660000 2.02920000
1.67600000 8.17150000 -0.47810000
-0.25170000 5.13490000 -0.56360000
1.56900000 8.33100000 -0.49230000
1.08360000 -0.83100000 1.15180000
-0.19340000 5.36380000 -0.55660000
-1.41760000 2.63090000 -0.34460000
1.27630000 1.70200000 2.18800000
1.51090000 8.35170000 -0.74790000
1.57800000 4.19250000 -0.33570000
1.12970000 -0.59850000 1.20540000
0.86390000 -0.72010000 1.08660000
-1.27030000 2.64710000 -0.33580000
1.36190000 1.70940000 2.18180000
1.22560000 -0.64740000 1.21550000
1.07950000 -0.59030000 1.24980000
1.71650000 8.29880000 -0.36250000
2.75720000 1.93900000 -1.83120000
-0.34710000 5.21500000 -0.58160000
1.21940000 1.76880000 2.11290000
-0.28040000 5.50170000 -0.59640000
2.71900000 1.30090000 -1.93590000
-1.54720000 2.84860000 -0.50950000
1.34540000 1.71830000 2.00240000
1.81550000 6.92210000 0.25670000
-0.37640000 5.52540000 -0.58790000
1.17030000 -0.86280000 1.38920000
2.87980000 1.56600000 -1.84400000
-0.40810000 5.73790000 -0.58880000
1.78570000 6.82640000 0.41400000
1.27310000 -0.69650000 1.27350000
0.22320000 5.61210000 -1.77920000
1.33450000 1.89690000 2.09100000
1.75580000 6.98460000 0.39830000
0.90300000 -0.79250000 1.39820000
0.91950000 -0.70050000 1.22220000
0.76650000 -0.79560000 1.30620000
1.53340000 7.06160000 0.48140000
1.67640000 7.06710000 0.34430000
1.54630000 7.13520000 0.24640000
1.29470000 1.87370000 2.17880000
1.17060000 1.94810000 2.11560000
1.29430000 1.97030000 2.14450000
1.11840000 -0.63020000 1.40310000
1.03980000 1.97750000 1.82780000
1.40140000 7.21620000 0.14870000
2.52370000 2.74600000 0.15450000
0.90930000 2.11250000 1.82850000
2.74560000 1.67320000 -1.83210000
0.96060000 2.13890000 1.95440000
0.70750000 -1.09430000 1.65310000
-0.85860000 3.02490000 -0.29950000
-0.98680000 2.98350000 -0.32990000
1.40750000 7.35690000 -0.02570000
1.17400000 7.31230000 0.15560000
2.01570000 4.26500000 -0.29100000
1.86680000 4.40340000 -0.47810000
1.13290000 2.13280000 1.85760000
1.39070000 7.21760000 0.36810000
0.82410000 -0.85740000 1.58880000
0.66320000 -0.85000000 1.50440000
1.44890000 7.15370000 0.48020000
0.62060000 -0.77760000 1.33870000
1.22900000 2.01090000 2.00160000
0.69090000 -0.82590000 1.68070000
0.49630000 -0.73790000 1.45080000
0.58760000 -0.78080000 1.60020000
1.12310000 7.26760000 0.37920000
0.84850000 -0.94730000 1.78650000
1.17730000 2.11690000 2.05710000
-1.47670000 3.18710000 -0.66940000
0.93530000 -0.79540000 1.73930000
2.26910000 2.39230000 0.53170000
2.20110000 4.27390000 -0.26840000
2.09890000 4.47520000 -0.38100000
-1.33750000 3.08250000 -0.43330000
1.04370000 2.12640000 1.99040000
0.89300000 -0.88300000 1.80450000
1.10550000 2.14270000 1.98560000
2.37090000 2.58850000 0.32130000
0.95990000 2.29290000 1.90070000
0.62570000 -0.71690000 1.73760000
-1.24820000 2.94340000 -0.34300000
1.09510000 2.08270000 2.10320000
2.22090000 2.32850000 0.61920000
1.10730000 2.16530000 2.07620000
2.17450000 2.37740000 0.68990000
1.59250000 6.91940000 0.62210000
1.43240000 6.90720000 0.73440000
0.76330000 2.12600000 1.78290000
-1.01590000 3.24950000 -0.38380000
2.27920000 2.46480000 0.61520000
0.93820000 -0.82360000 1.59670000
1.87060000 3.94670000 0.15600000
1.92250000 4.11940000 -0.07080000
1.21820000 6.96890000 0.83030000
2.22150000 2.50450000 0.69070000
2.05690000 2.50270000 0.71010000
-1.14850000 3.38300000 -0.49770000
0.07000000 6.14410000 -1.66280000
2.07750000 4.12390000 -0.15360000
1.40020000 7.02510000 0.68630000
2.26910000 2.57330000 0.67740000
0.80190000 2.24470000 1.79920000
1.13550000 -0.63400000 1.54940000
2.20700000 4.01690000 0.03380000
0.79090000 2.24040000 1.72260000
0.79670000 2.30250000 1.75840000
0.74420000 2.30830000 1.85920000
0.69620000 2.40040000 1.79650000
1.87100000 2.58230000 0.61690000
0.76910000 2.39470000 1.77770000
1.94240000 2.58710000 0.67640000
0.83480000 2.33170000 1.92600000
1.84340000 2.66010000 0.66000000
0.70460000 2.41570000 1.86830000
1.96420000 3.89910000 0.25430000
0.74810000 2.45000000 1.84140000
-0.88440000 3.54990000 -0.49290000
0.90880000 2.31850000 1.79120000
-0.18570000 5.84350000 -1.21180000
-0.07690000 5.92010000 -1.44970000
2.21360000 4.11990000 -0.00730000
-0.29010000 5.73830000 -1.09410000
2.02370000 4.35760000 -0.21040000
2.08350000 4.36980000 -0.17630000
-1.51600000 3.41670000 -1.05300000
1.16390000 7.22840000 0.55750000
1.32710000 7.12310000 0.68210000
-0.14010000 6.30520000 -1.21190000
1.15990000 2.08980000 2.13660000
1.39530000 -0.60020000 1.55790000
1.32900000 -0.47020000 1.34350000
2.00540000 2.68170000 0.76560000
2.14780000 2.62790000 0.74580000
1.40320000 -0.49060000 1.41970000
1.85970000 2.69330000 0.76900000
0.74180000 5.63270000 -1.90700000
2.30140000 2.05320000 -2.08750000
-1.36290000 3.51660000 -0.88050000
1.95300000 3.08870000 0.62410000
1.78190000 2.74940000 0.73850000
1.73310000 2.91480000 0.65630000
1.77620000 2.88480000 0.75120000
1.74600000 7.52880000 -0.06120000
1.77600000 3.26160000 0.64340000
1.35380000 -0.46100000 1.58000000
1.29330000 -0.44070000 1.47070000
1.63040000 7.70000000 -0.01940000
1.33580000 -0.41450000 1.42480000
1.94810000 2.43140000 -2.25110000
-1.17620000 3.77960000 -1.19300000
-1.13230000 3.75550000 -0.97910000
0.18670000 1.83620000 1.00080000
0.95880000 7.39070000 0.23260000
0.18190000 1.91720000 1.01460000
-0.69180000 3.97970000 -1.11470000
-0.84700000 3.93410000 -1.15450000
-0.80140000 3.86790000 -0.87340000
0.04990000 1.88070000 0.97710000
0.81830000 7.50520000 0.30130000
