-5.12080000 -4.14970000 -3.40690000
-16.73530000 -9.71500000 -1.60770000
-17.10530000 -9.51840000 -1.25020000
-16.41260000 -9.51230000 -1.83780000
-17.67580000 -8.54390000 -1.04480000
-17.17530000 -9.11840000 -1.46810000
-16.14020000 -8.90280000 -1.86500000
-17.13380000 -8.58220000 -1.38880000
-16.26220000 -8.46990000 -1.73770000
-16.89290000 -7.84120000 -0.69710000
-16.31550000 -7.86040000 -0.61440000
-15.98230000 -7.82770000 -1.02430000
-16.02350000 -7.90900000 0.33930000
-15.22030000 -8.36090000 -2.07480000
-14.84490000 -8.09230000 -2.16160000
-16.56300000 -8.07980000 -1.44650000
-15.83720000 -8.20520000 -1.74050000
-16.01130000 -7.93830000 -1.53950000
-15.28200000 -8.08340000 -1.65610000
-14.97580000 -8.02450000 -1.99240000
-14.62120000 -7.69050000 -1.54560000
-14.91890000 -7.92840000 -1.74280000
-14.78420000 -7.70560000 -1.11320000
-15.68200000 -7.95970000 -1.44540000
-16.81680000 -7.90390000 -1.14200000
-15.49670000 -7.74130000 -0.99810000
-15.03310000 -7.71440000 -0.92230000
-14.65890000 -7.61460000 -1.97090000
-14.71100000 -7.66290000 -1.74420000
-17.40260000 -8.09570000 -1.03340000
-17.62390000 -7.74450000 -0.56410000
-14.14090000 -7.27840000 -2.35200000
-14.53530000 -7.58860000 -2.20140000
-14.24950000 -7.39050000 -1.68880000
-14.43420000 -7.34210000 -1.85810000
-14.58550000 -7.38250000 -1.98690000
-14.65870000 -7.13040000 -2.00640000
-14.75830000 -6.90460000 -2.04670000
-14.39930000 -6.60690000 -2.22450000
-15.60610000 -7.84930000 0.03890000
-15.32250000 -7.74800000 -0.00070000
-15.26610000 -7.61250000 -0.58510000
-15.04590000 -7.55280000 -0.11730000
-14.68610000 -7.45210000 -0.52960000
-14.56500000 -7.59590000 -1.28870000
-13.98650000 -7.33790000 -0.88210000
-14.96610000 -6.66250000 -1.70460000
-15.24260000 -6.43460000 -1.68390000
-15.14560000 -6.54550000 -1.89930000
-14.94520000 -6.81200000 -1.85340000
-15.07260000 -6.31130000 -1.57170000
-15.38360000 -6.11780000 -1.69630000
-15.32770000 -5.91720000 -1.79200000
-15.34620000 -6.04580000 -1.58110000
-15.17810000 -5.91390000 -1.51540000
-15.36090000 -5.56830000 -1.67640000
-15.29960000 -5.56380000 -1.55220000
-15.28230000 -5.21000000 -1.17700000
-14.60250000 -5.78900000 -1.36120000
-15.49270000 -5.11370000 -1.43920000
-15.88700000 -4.55540000 -1.05800000
-15.43210000 -5.10800000 -1.64910000
-15.90370000 -4.37990000 -1.13470000
-14.99280000 -5.01600000 -0.55060000
-14.37910000 -5.41620000 -0.74210000
-15.49110000 -4.74860000 -0.82630000
-14.76370000 -4.82950000 -0.23850000
-14.58500000 -4.21150000 0.08240000
-14.26990000 -5.17370000 -0.52380000
-14.33970000 -4.53090000 -0.23290000
-14.93920000 -3.53440000 0.49860000
-15.36450000 -4.30770000 -0.10790000
-15.90510000 -4.42140000 -0.61900000
-13.64370000 -7.01840000 -1.31770000
-14.13350000 -7.15010000 -1.89380000
-14.45840000 -7.10740000 -1.88440000
-14.13310000 -6.90310000 -1.95860000
-14.57950000 -6.64070000 -1.77530000
-13.73850000 -6.82460000 -1.53160000
-13.83130000 -6.58180000 -1.55870000
-14.47020000 -6.36590000 -1.77660000
-14.27530000 -6.38130000 -1.72880000
-13.18550000 -6.68360000 -1.00660000
-13.41820000 -6.39820000 -1.19360000
-13.13260000 -6.38120000 -1.14930000
-13.22970000 -6.04980000 -1.67660000
-12.86200000 -6.40500000 -2.01620000
-12.94230000 -6.42480000 -1.28610000
-13.94500000 -6.03400000 -1.17340000
-13.82780000 -5.80930000 -1.02390000
-12.64330000 -6.90840000 -2.65220000
-12.82000000 -6.61490000 -2.53770000
-13.29680000 -6.31630000 -2.49970000
-12.40210000 -6.71530000 -2.57870000
-11.86050000 -6.68120000 -2.74280000
-12.63770000 -6.58060000 -2.38780000
-12.24130000 -6.56120000 -2.30140000
-13.09110000 -6.23290000 -2.35150000
-12.52630000 -6.55900000 -1.88730000
-11.80550000 -6.42570000 -2.62200000
-11.39750000 -6.20710000 -2.74620000
-11.40350000 -6.05550000 -2.52200000
-13.72900000 -5.66160000 -2.30130000
-13.60370000 -5.62850000 -2.01090000
-15.14720000 -5.79480000 -1.89520000
-15.04380000 -5.70030000 -1.53130000
-14.10940000 -5.47630000 -2.28050000
-14.88590000 -5.28310000 -1.94330000
-14.11540000 -5.11930000 -2.15600000
-15.36100000 -4.44890000 -1.49760000
-14.52730000 -5.07740000 -2.03350000
-14.30270000 -5.06530000 -2.13280000
-13.53150000 -6.01720000 -1.15720000
-13.29240000 -6.01310000 -1.35740000
-13.75260000 -5.50270000 -1.06030000
-14.06970000 -5.14560000 -0.67430000
-13.57220000 -5.67470000 -1.49730000
-13.73020000 -5.28840000 -1.22660000
-11.45140000 -5.57620000 -2.29080000
-11.28470000 -5.78500000 -2.40400000
-11.62750000 -5.32340000 -1.84600000
-11.91100000 -5.26780000 -2.34550000
-11.85190000 -5.31120000 -2.56100000
-12.24470000 -4.58180000 -1.85070000
-12.19040000 -4.99340000 -2.50590000
-12.07170000 -4.93090000 -2.63890000
-12.39640000 -4.40470000 -2.51400000
-12.41040000 -4.35750000 -2.22620000
-11.71580000 -4.77500000 -2.71340000
-12.35140000 -3.68890000 -2.55790000
-11.63210000 -5.09790000 -1.60170000
-11.74860000 -4.71620000 -1.51760000
-11.99220000 -4.51610000 -1.46450000
-11.26690000 -4.54710000 -1.64360000
-12.06450000 -4.76320000 -1.69750000
-14.03550000 -4.95460000 -0.89070000
-13.77320000 -5.27460000 -1.47900000
-13.92200000 -5.24240000 -1.69550000
-13.82670000 -5.03650000 -1.22100000
-13.99090000 -4.86460000 -1.27900000
-14.23170000 -4.84190000 -1.50230000
-14.30470000 -4.83140000 -1.84100000
-14.45560000 -4.69020000 -1.85790000
-14.62830000 -4.44940000 -1.82560000
-14.91170000 -4.35960000 -1.75340000
-14.41120000 -4.57630000 -1.38970000
-14.49940000 -4.38810000 -1.67120000
-14.43340000 -4.12140000 -1.35650000
-14.46330000 -3.89250000 -1.59990000
-14.27610000 -4.30880000 -0.50650000
-14.16190000 -4.64610000 -1.06660000
-14.22750000 -4.25860000 -0.78060000
-14.32830000 -4.19420000 -1.03990000
-14.40140000 -3.68870000 -0.49810000
-14.36420000 -3.49270000 -1.10700000
-12.49310000 -3.69830000 -2.38190000
-12.33530000 -4.02450000 -1.64180000
-12.40380000 -3.56230000 -1.92890000
-15.83700000 -3.95570000 -0.04080000
-16.06300000 -3.95570000 -0.25070000
-16.25600000 -3.91740000 -0.58320000
-16.27790000 -3.50120000 -0.27600000
-15.44750000 -2.58040000 -0.93810000
-16.24940000 -3.59850000 -0.69670000
-16.32700000 -3.32270000 -0.38490000
-16.13560000 -3.00410000 -0.63360000
-14.67460000 -3.84320000 -1.67360000
-14.85850000 -3.14780000 -1.43860000
-14.45380000 -3.30990000 -1.58810000
-14.31650000 -3.39620000 -1.47330000
-14.59040000 -3.05810000 -1.54930000
-11.27720000 -5.92820000 -2.68560000
-11.39880000 -5.66090000 -2.68810000
-11.24730000 -5.50220000 -2.81740000
-10.37130000 -5.06530000 -2.92980000
-10.98510000 -4.58370000 -1.96840000
-10.49420000 -4.76790000 -2.45790000
-10.90510000 -4.64750000 -2.58830000
-10.34290000 -4.76920000 -1.96780000
-9.89070000 -4.88420000 -2.90360000
-10.19130000 -4.84650000 -2.77890000
-10.77770000 -4.80140000 -2.76060000
-9.83630000 -4.77410000 -2.66370000
-9.86850000 -4.76320000 -2.15560000
-9.57590000 -4.60290000 -2.28600000
-9.48600000 -4.51770000 -2.68360000
-11.31950000 -4.51590000 -2.73960000
-11.13810000 -4.46440000 -2.52260000
-11.47330000 -4.06640000 -2.65690000
-11.27410000 -4.29900000 -2.01660000
-11.34500000 -4.16450000 -2.47740000
-11.45240000 -3.91130000 -2.14600000
-9.31410000 -4.67440000 -3.05670000
-9.21440000 -4.36510000 -2.87480000
-11.81070000 -3.56950000 -2.66870000
-11.47260000 -3.80440000 -2.49250000
-11.56490000 -3.47100000 -2.69090000
-8.69330000 -9.00170000 2.78100000
-8.52700000 -8.53580000 2.79440000
-8.81820000 -8.41750000 2.26430000
-8.01930000 -7.91320000 2.92670000
-7.71450000 -8.21280000 3.18640000
-9.63700000 -7.46900000 1.28540000
-9.24890000 -6.71880000 1.46700000
-8.59290000 -6.67930000 1.15770000
-8.02500000 -7.10820000 1.70080000
-7.96380000 -7.32730000 2.28120000
-7.83400000 -6.61070000 1.40730000
-8.36970000 -6.11890000 1.25900000
-8.04130000 -6.92550000 1.48560000
-7.14070000 -7.58330000 3.28250000
-7.38710000 -7.32760000 3.01050000
-7.76170000 -7.42330000 2.79510000
-6.67180000 -7.62850000 3.40920000
-7.48550000 -6.96870000 2.34570000
-6.36250000 -7.12560000 3.32220000
-6.84430000 -6.95420000 3.01800000
-6.52770000 -6.47370000 2.14910000
-7.10500000 -6.62960000 1.90410000
-6.30860000 -6.68640000 2.90680000
-5.79140000 -6.39440000 2.36940000
-7.30600000 -6.56380000 1.58420000
-7.72230000 -6.24280000 1.45220000
-7.75440000 -5.85990000 1.35500000
-6.93350000 -6.15900000 1.54180000
-7.07300000 -5.79780000 1.79740000
-7.05010000 -5.48160000 1.87280000
-7.69330000 -5.37820000 1.33360000
-9.75280000 -6.91170000 1.56770000
-10.22490000 -7.10750000 1.53190000
-9.89880000 -6.68870000 1.35940000
-10.06880000 -5.91220000 -0.38130000
-9.63270000 -6.18720000 0.78880000
-8.62680000 -5.72900000 1.42250000
-9.09300000 -5.98330000 1.28660000
-9.10410000 -4.97830000 -0.29400000
-8.40620000 -5.27880000 1.31220000
-8.17960000 -4.71140000 0.96440000
-8.24960000 -5.62670000 1.38280000
-7.81570000 -5.00220000 1.42500000
-5.70690000 -6.66640000 2.97620000
-6.36050000 -6.19110000 1.60880000
-4.98080000 -5.85270000 1.36640000
-5.38130000 -6.03330000 1.57560000
-5.85340000 -5.89200000 1.43690000
-6.00160000 -5.79680000 1.49520000
-6.84930000 -5.86160000 1.71390000
-6.59640000 -5.54020000 2.00710000
-6.36310000 -5.73880000 1.64230000
-6.02710000 -5.55070000 1.82470000
-7.21710000 -5.35820000 1.67580000
-7.16840000 -4.59270000 1.55280000
-9.69500000 -4.95320000 -1.20460000
-10.41380000 -4.87350000 -1.49490000
-10.05550000 -5.00470000 -1.35000000
-9.80660000 -4.77340000 -1.57040000
-9.44830000 -4.49240000 -1.57270000
-9.15190000 -4.13050000 -1.98710000
-8.89390000 -3.89660000 -1.47720000
-8.73870000 -4.09690000 -0.83060000
-9.09550000 -4.19500000 -2.39880000
-8.22900000 -3.39350000 -3.18500000
-8.57250000 -3.50620000 -2.66840000
-8.61850000 -3.46220000 -1.74050000
-8.01760000 -3.88140000 0.06170000
-7.41080000 -4.27160000 1.49410000
-7.37190000 -3.90320000 1.30300000
-8.49000000 -3.91120000 -0.53770000
-8.09620000 -2.90340000 -0.99690000
-8.06410000 -2.55630000 -1.48040000
-7.56510000 -2.73490000 -0.37140000
-3.13370000 -3.32990000 -3.45630000
-6.75770000 -2.14960000 -3.34930000
-4.84430000 -6.19170000 1.87960000
-5.24470000 -5.68070000 1.45390000
-5.77040000 -5.31890000 1.93590000
-4.25190000 -5.90280000 1.28660000
-4.55810000 -5.67470000 1.26760000
-3.98450000 -5.53050000 1.20750000
-3.91360000 -5.09780000 1.29990000
-4.78360000 -5.31380000 1.49070000
-5.55260000 -5.07740000 1.84990000
-4.99160000 -4.66630000 1.68060000
-5.27320000 -4.81770000 1.69120000
-3.32190000 -4.49350000 1.90710000
-3.52960000 -4.74570000 1.47580000
-4.52030000 -4.20720000 1.44910000
-3.56710000 -4.91360000 1.33470000
-5.27760000 -3.97020000 1.79800000
-4.38830000 -3.87210000 1.47080000
-4.02370000 -4.05620000 1.67700000
-6.51240000 -5.21240000 2.16410000
-6.05380000 -5.08970000 2.08760000
-6.47040000 -4.92530000 2.13950000
-6.38330000 -4.38540000 1.90070000
-6.70440000 -4.91260000 2.07480000
-6.72860000 -4.25900000 1.81440000
-5.93470000 -4.57430000 1.82820000
-5.66680000 -4.49370000 1.83020000
-5.68790000 -4.18790000 1.94790000
-5.94010000 -4.10630000 1.85080000
-6.23460000 -3.73960000 1.73920000
-5.72620000 -3.76790000 1.94810000
-5.88060000 -3.59660000 1.84370000
-5.97440000 -3.38570000 1.62720000
-3.53170000 -4.05950000 2.22090000
-2.90800000 -4.18640000 2.66630000
-2.49460000 -4.01530000 2.80210000
-3.47120000 -3.63440000 2.61720000
-3.89770000 -3.44980000 2.37540000
-3.02770000 -3.69830000 2.78250000
-3.59370000 -3.33220000 2.75800000
-5.66980000 -3.29770000 1.83420000
-4.32420000 -3.49910000 1.60510000
-4.66730000 -3.02960000 1.44930000
-4.16610000 -3.39830000 1.93250000
-5.20300000 -2.91070000 1.65320000
-4.31310000 -2.98740000 1.70000000
-4.37270000 -2.53310000 1.44780000
-4.06140000 -3.04080000 2.28510000
-3.58440000 -3.10100000 2.79710000
-4.03220000 -2.75540000 2.25220000
-4.62540000 -2.24460000 1.34210000
-4.15520000 -2.52660000 1.81280000
-4.04350000 -1.86830000 1.46600000
-7.38550000 -3.36560000 0.35700000
-6.93830000 -3.16980000 0.94850000
-6.71480000 -2.85440000 0.60670000
-6.71790000 -3.39370000 1.63590000
-5.96650000 -2.96900000 1.40320000
-6.48630000 -3.04600000 1.51420000
-6.56310000 -2.85450000 1.18630000
-6.35250000 -2.53920000 0.56000000
-5.85170000 -2.45920000 1.06030000
-6.93510000 -2.58230000 0.19500000
-6.89660000 -1.65330000 -0.18720000
-7.75520000 -1.81680000 -1.44460000
-7.48750000 -1.87090000 -0.81160000
-6.76880000 -1.96280000 0.00060000
-5.49830000 -1.57900000 0.56460000
-6.22370000 -1.61360000 0.21070000
-6.85690000 -0.54460000 -0.56180000
-7.38200000 -0.85170000 -1.12570000
-5.72510000 -3.08970000 1.64650000
-5.38200000 -2.49890000 1.25980000
-6.21290000 -2.71300000 1.28010000
-5.37230000 -2.75030000 1.55130000
-5.44470000 -2.10490000 0.88540000
-4.36500000 -1.87300000 1.24970000
-4.64480000 -1.74370000 1.11710000
-6.16790000 -1.00640000 0.26540000
-5.61300000 -0.92430000 0.40290000
-5.93970000 -0.69500000 0.31910000
-6.19140000 -0.24730000 0.00380000
-2.84010000 -0.64320000 -3.48480000
-4.10290000 0.89470000 -3.45710000
-5.17370000 -1.05330000 0.52360000
-4.90970000 -0.89360000 0.60010000
-5.73020000 -0.35310000 0.09770000
-5.00610000 -0.41470000 0.49780000
-5.60210000 -0.17250000 0.16340000
-6.40030000 0.26990000 -0.31620000
-14.48840000 -3.77230000 0.12740000
-14.68340000 -3.06810000 0.75230000
-14.53300000 -3.05550000 0.65500000
-15.40460000 -3.19450000 0.58450000
-14.42350000 -3.25220000 -0.25650000
-14.37960000 -2.86910000 0.19780000
-14.38040000 -2.43550000 0.80350000
-12.17090000 -3.96980000 -1.24800000
-11.60140000 -4.39460000 -1.53840000
-11.46520000 -4.22200000 -1.63290000
-11.41960000 -4.06010000 -1.82830000
-11.75850000 -3.98790000 -1.35290000
-11.96150000 -3.58160000 -1.00040000
-11.61800000 -3.31310000 -1.09360000
-11.50380000 -3.77010000 -1.65170000
-11.53100000 -3.39780000 -1.33900000
-11.43150000 -3.43410000 -1.97440000
-11.74720000 -3.17180000 -0.87550000
-13.59130000 -3.08930000 -0.61320000
-13.72760000 -2.95930000 -0.76580000
-13.51880000 -2.98320000 -1.58980000
-13.42310000 -2.98020000 0.38540000
-13.36120000 -3.19610000 0.01960000
-13.20130000 -2.99630000 0.29820000
-13.21430000 -3.10350000 -1.15650000
-13.01970000 -3.01950000 -0.01820000
-12.93990000 -2.98080000 -0.63290000
-13.50690000 -3.14110000 0.06440000
-13.55720000 -2.67360000 0.56180000
-13.61240000 -3.01960000 -0.05040000
-13.68830000 -2.68700000 0.01910000
-13.43210000 -3.14910000 -0.85110000
-12.15660000 -3.33100000 -0.98570000
-12.33190000 -3.16370000 -1.54320000
-12.84760000 -2.97500000 -2.02450000
-12.63280000 -2.85690000 -1.24640000
-12.49140000 -3.15100000 -2.40990000
-12.56260000 -3.03430000 -2.25250000
-13.14050000 -2.98980000 -2.20470000
-12.46130000 -2.86730000 -1.26390000
-12.74310000 -2.89980000 -2.38870000
-12.85360000 -2.70990000 -2.40190000
-12.45570000 -2.95610000 -2.53360000
-12.19440000 -2.89210000 -0.76050000
-11.10590000 -2.52620000 -1.20550000
-12.01760000 -2.78600000 -0.56080000
-11.08420000 -2.76740000 -1.47580000
-12.76840000 -2.82620000 -0.70420000
-12.44630000 -2.72080000 -0.48990000
-12.64340000 -2.59900000 0.13520000
-13.06370000 -2.53040000 0.56490000
-12.63870000 -2.70580000 -0.13900000
-12.72030000 -2.30850000 0.39930000
-13.36650000 -2.58300000 0.70190000
-13.65430000 -2.31940000 0.32850000
-13.53970000 -2.26690000 0.82180000
-13.77340000 -2.07530000 0.37020000
-13.74430000 -2.21670000 0.00460000
-13.13190000 -1.82880000 0.97990000
-13.48300000 -1.96460000 1.03530000
-13.82950000 -1.82440000 1.06630000
-13.68910000 -2.00060000 0.91930000
-13.83060000 -1.98480000 0.63940000
-13.73800000 -1.51140000 1.24990000
-12.91900000 -2.10170000 0.63660000
-12.73880000 -2.07030000 0.25580000
-12.86480000 -1.89290000 0.30940000
-12.91500000 -1.57230000 0.77270000
-12.47890000 -2.06010000 0.09550000
-12.84720000 -1.63360000 0.09090000
-12.82820000 -1.02920000 0.67790000
-12.25190000 -2.62060000 -0.28740000
-11.95940000 -2.55920000 -0.45820000
-12.21000000 -2.28130000 -0.11770000
-11.84570000 -2.46500000 -0.60670000
-12.17130000 -2.15600000 -0.46100000
-12.22310000 -2.12080000 -0.14050000
-10.92780000 -1.92440000 -1.21200000
-11.42900000 -2.11130000 -0.93010000
-11.91580000 -2.28150000 -0.80640000
-11.93550000 -2.20840000 -1.03470000
-11.69530000 -2.03570000 -1.08600000
-12.36010000 -2.05800000 -0.81850000
-12.51370000 -1.94080000 -0.19960000
-12.76170000 -1.80260000 -0.27230000
-12.64740000 -1.80600000 -1.02030000
-12.88890000 -1.65000000 -0.54210000
-12.36740000 -2.01260000 -1.13760000
-12.09120000 -2.00780000 -1.29410000
-11.66530000 -1.82340000 -1.36010000
-12.51020000 -2.15930000 -1.53660000
-12.12510000 -2.08010000 -1.59430000
-15.60210000 -2.71590000 0.67250000
-16.12310000 -3.27070000 0.13830000
-16.19450000 -2.89570000 0.10380000
-16.25300000 -2.92050000 -0.39980000
-15.77240000 -2.13330000 0.67680000
-16.08540000 -2.44050000 0.14280000
-15.89670000 -2.36980000 -0.56130000
-16.06980000 -2.40030000 -0.29860000
-16.02040000 -1.87290000 0.40890000
-16.06560000 -2.06960000 0.09920000
-16.03790000 -1.89690000 -0.15440000
-16.16670000 -1.80880000 0.17960000
-16.16670000 -1.50060000 0.14570000
-16.20090000 -1.65680000 0.31820000
-16.11020000 -1.26680000 0.28030000
-15.90400000 -1.31500000 -0.23790000
-15.34500000 -1.28500000 -0.63290000
-14.94130000 -2.28260000 1.09360000
-14.24960000 -2.16810000 0.69760000
-14.51490000 -1.99370000 1.16040000
-14.57430000 -1.22760000 1.34470000
-15.27690000 -1.66880000 1.10110000
-15.79270000 -1.48640000 0.64060000
-15.45780000 -1.19590000 0.96550000
-14.12200000 -1.79570000 1.16300000
-15.10180000 -0.86790000 1.19280000
-15.94920000 -1.14610000 0.44400000
-15.85020000 -1.29640000 0.49380000
-15.96770000 -0.71130000 0.15910000
-15.99020000 -1.00230000 -0.03760000
-15.67210000 -1.15260000 0.58750000
-15.96190000 -0.73910000 0.39230000
-15.73230000 -0.43670000 -0.00830000
-14.87270000 -0.62510000 -0.70270000
-15.56630000 -0.78590000 0.76450000
-15.42700000 -0.39190000 0.67590000
-14.99950000 -0.05530000 0.86360000
-15.63300000 -0.20610000 0.39990000
-15.41430000 0.00550000 0.68810000
-15.73390000 -0.18330000 0.21200000
-15.73490000 0.14080000 0.32700000
-15.75880000 0.00590000 0.50130000
-15.53430000 0.13670000 1.03010000
-15.80030000 0.14760000 0.88200000
-15.92870000 0.36540000 0.89120000
-14.46160000 -2.62640000 -1.35040000
-13.65410000 -2.70110000 -1.28080000
-13.76790000 -2.65070000 -1.06230000
-14.82410000 -2.52460000 -1.27070000
-14.55250000 -2.38710000 -1.35780000
-14.53020000 -1.16180000 -1.17450000
-14.49950000 -1.91190000 -1.34330000
-13.46600000 -2.88190000 -2.01370000
-13.60480000 -2.54280000 -1.70450000
-13.53380000 -2.45910000 -1.94740000
-13.23130000 -2.87290000 -2.25090000
-13.66460000 -2.39710000 -1.43040000
-13.28600000 -2.56650000 -2.19500000
-12.66460000 -2.39940000 -2.36260000
-13.48470000 -1.93630000 -1.91360000
-13.79180000 -2.25070000 -1.41610000
-13.77580000 -2.04730000 -1.69170000
-13.22870000 -2.01320000 -1.98760000
-12.55170000 -2.21080000 -2.09050000
-12.20210000 -2.33980000 -2.45210000
-12.91750000 -2.05710000 -1.78040000
-13.00410000 -1.88800000 -1.60150000
-13.26050000 -1.67890000 -1.83040000
-12.67030000 -2.08820000 -1.45030000
-12.41530000 -2.14420000 -1.90300000
-12.07440000 -2.16270000 -1.99170000
-12.93340000 -1.69480000 -1.40840000
-13.06610000 -1.27140000 -1.33080000
-13.77880000 -1.68240000 -1.70250000
-13.75400000 -1.18200000 -1.62610000
-13.78640000 -1.67200000 -1.45300000
-13.83460000 -1.26140000 -1.45750000
-13.13490000 -1.20910000 -1.67490000
-13.24330000 -1.04850000 -1.73840000
-14.11560000 -2.00060000 0.58390000
-14.00650000 -1.92730000 0.34360000
-13.84860000 -1.68700000 -0.56550000
-13.77380000 -2.57670000 -0.58600000
-12.90550000 -1.40260000 -0.30680000
-12.84380000 -1.09050000 0.04940000
-12.93770000 -1.35340000 -0.91890000
-12.95200000 -1.61060000 -1.09490000
-12.81740000 -1.21800000 -0.63100000
-12.91800000 -1.12710000 -1.13660000
-12.46840000 -0.99020000 -0.99480000
-12.84940000 -0.93810000 -1.38850000
-13.05650000 -1.02190000 -1.42810000
-12.95910000 -0.84040000 -1.62170000
-13.40810000 -0.70200000 -1.71550000
-12.76360000 -0.74940000 -1.58530000
-12.29930000 -0.82750000 -1.44460000
-12.28860000 -0.81240000 -1.81400000
-12.45640000 -0.72750000 -1.97560000
-12.78890000 -0.54060000 -1.86400000
-12.98990000 -0.53610000 -1.77240000
-13.01380000 -0.27550000 -1.85270000
-12.73880000 -0.98380000 -0.14080000
-12.43130000 -0.93370000 -0.26950000
-12.57990000 -0.84000000 0.21480000
-12.05040000 -0.84730000 -0.58640000
-15.15860000 0.07170000 -0.29400000
-14.42320000 -0.12140000 -0.93350000
-15.49930000 1.00830000 0.45320000
-14.57530000 0.97060000 -0.40570000
-14.13890000 -1.28920000 -1.05690000
-14.21340000 -1.05050000 -1.35350000
-13.45090000 0.31380000 -1.44980000
-12.73300000 0.46790000 -1.88390000
-12.78370000 1.57820000 -1.58710000
-13.13860000 -0.88240000 1.29960000
-12.94790000 -0.97900000 1.13930000
-12.53640000 -0.71000000 0.84460000
-12.22440000 -0.68240000 0.65790000
-12.34750000 -0.49210000 0.93420000
-12.23140000 -0.82580000 0.44870000
-11.89850000 -0.71580000 0.02690000
-11.68680000 -0.71760000 -0.56420000
-11.51480000 -0.57070000 -0.24950000
-11.51200000 -0.77670000 -0.86270000
-11.32450000 -0.79940000 -0.66400000
-11.79560000 -0.41620000 0.27900000
-11.16220000 -0.63470000 -0.60470000
-13.59210000 -0.46380000 1.48230000
-14.15180000 -0.32840000 1.49580000
-14.48740000 -0.30070000 1.34640000
-14.43390000 -0.00890000 1.23310000
-16.48270000 0.73810000 1.96460000
-16.87420000 0.66330000 1.71020000
-16.50110000 0.51700000 1.65230000
-15.05470000 0.26680000 1.25560000
-15.59820000 0.54890000 1.63190000
-14.48610000 0.27440000 1.27470000
-16.75180000 0.53580000 1.54890000
-16.61750000 0.59750000 1.41350000
-16.20440000 0.54630000 1.31970000
-16.28880000 0.92050000 1.11330000
-16.00550000 0.72520000 0.99910000
-16.01600000 0.50960000 1.46110000
-14.83780000 0.54810000 1.61970000
-15.41470000 0.81960000 2.06300000
-14.58690000 1.07070000 2.02330000
-14.31860000 0.72040000 1.74340000
-15.93420000 0.79070000 2.07630000
-15.04080000 1.18130000 2.21730000
-16.10430000 1.00680000 2.23810000
-16.70650000 1.00570000 1.95850000
-16.32900000 1.42130000 2.02680000
-15.99860000 1.24230000 2.25020000
-13.86490000 1.25280000 1.96310000
-15.55930000 1.25430000 2.29350000
-15.77350000 1.74420000 2.13290000
-15.39600000 1.78640000 2.21880000
-14.83830000 1.65650000 2.26600000
-14.69350000 2.10340000 2.11930000
-13.76850000 2.33630000 1.93030000
-15.14900000 2.29600000 1.96300000
-12.71470000 -0.75670000 0.79150000
-12.79890000 -0.64690000 1.20610000
-12.71690000 0.21290000 1.44690000
-12.18880000 -0.05090000 0.92690000
-13.29720000 0.24070000 1.60920000
-13.88660000 0.25840000 1.47540000
-13.65950000 0.64360000 1.69800000
-11.57400000 -0.02330000 0.09540000
-11.92620000 1.27470000 0.88010000
-11.65900000 1.12710000 0.42090000
-11.55090000 0.16750000 -0.04850000
-11.55300000 0.30560000 -0.35290000
-11.57740000 0.66360000 -0.38150000
-13.23310000 1.86840000 -1.16900000
-13.12240000 0.92440000 1.77170000
-12.27950000 1.09680000 1.23910000
-12.75670000 1.52610000 1.70420000
-13.37860000 1.52170000 1.92860000
-12.40940000 1.95640000 1.42660000
-13.05480000 2.14350000 1.74720000
-11.60250000 1.56660000 -0.18110000
-11.69250000 1.99900000 0.42560000
-11.68260000 2.28060000 0.61230000
-11.53410000 2.37630000 0.09200000
-12.37550000 2.69830000 1.34380000
-13.84960000 2.83870000 1.73370000
-11.80830000 2.63600000 0.80560000
-10.92250000 -4.66790000 -1.67010000
-8.75120000 -3.85120000 -3.02340000
-7.78850000 -2.89870000 -3.25880000
-8.34410000 -3.17960000 -2.36870000
-8.16100000 -3.04040000 -2.90340000
-11.38010000 -3.41490000 -2.51370000
-11.23610000 -3.13540000 -2.70330000
-11.30620000 -3.11030000 -1.83720000
-11.03020000 -2.93870000 -2.39820000
-10.83090000 -2.62100000 -2.86990000
-10.68550000 -2.68080000 -2.77590000
-11.65940000 -2.36040000 -2.70650000
-10.98230000 -1.66940000 -2.82860000
-10.46310000 -2.43220000 -1.83760000
-10.70000000 -2.68060000 -2.26030000
-10.04090000 -2.39340000 -2.58160000
-11.98610000 -2.11730000 -2.25750000
-11.65760000 -2.02170000 -2.58780000
-11.65670000 -1.87200000 -2.37620000
-11.69850000 -1.86630000 -2.06090000
-11.42760000 -1.59680000 -2.64430000
-10.02000000 -2.25980000 -2.95860000
-10.04760000 -2.40770000 -2.82760000
-9.74820000 -1.66070000 -3.04160000
-9.24670000 -1.85140000 -3.02910000
-10.14650000 -1.35990000 -2.93800000
-8.16290000 -2.81700000 -2.31730000
-7.81700000 -2.07470000 -2.12390000
-11.29780000 -1.68240000 -1.31940000
-11.05350000 -1.72320000 -1.29390000
-10.24940000 -1.99040000 -1.72380000
-9.49350000 -1.93650000 -2.16600000
-10.63540000 -1.50750000 -1.34910000
-11.72400000 -1.94720000 -1.72120000
-11.50790000 -1.49880000 -2.00030000
-11.52590000 -1.55900000 -2.35050000
-11.48520000 -1.61120000 -1.66730000
-11.36330000 -1.34150000 -1.57960000
-11.56550000 -1.12310000 -2.00620000
-11.33320000 -1.18420000 -1.40540000
-10.93920000 -1.48080000 -1.31760000
-10.68110000 -1.14470000 -1.33870000
-10.31460000 -1.37690000 -1.63370000
-10.00630000 -1.67630000 -1.83330000
-10.94570000 -1.30060000 -1.20870000
-11.26260000 -1.14580000 -1.06570000
-11.07960000 -1.10320000 -0.95760000
-10.85860000 -1.09150000 -1.08410000
-10.94130000 -0.53380000 -0.85060000
-10.44740000 -1.21150000 -1.69860000
-10.58250000 -1.06970000 -2.18990000
-10.29070000 -1.21660000 -2.31680000
-10.66940000 -0.92900000 -1.90140000
-10.71660000 -0.71150000 -1.63250000
-10.74250000 -0.63610000 -1.18860000
-10.80330000 -0.58360000 -2.22990000
-9.33140000 -1.93630000 -2.54880000
-9.37230000 -1.71430000 -2.09690000
-9.33960000 -2.04070000 -2.86590000
-8.83660000 -1.29640000 -3.11390000
-8.84830000 -1.56080000 -2.95120000
-8.66320000 -1.35300000 -2.56920000
-10.66510000 -1.33580000 -2.88750000
-10.65730000 -1.07810000 -2.71660000
-10.31230000 -1.19400000 -2.71240000
-9.82410000 -1.17810000 -2.90960000
-9.90310000 -1.14610000 -2.73310000
-9.77250000 -1.16440000 -2.36810000
-10.75410000 -0.85410000 -2.48110000
-9.47300000 -0.86550000 -2.80640000
-9.44270000 -1.01180000 -3.03530000
-9.15960000 -0.48590000 -3.07780000
-9.22470000 -1.28190000 -2.13130000
-9.71110000 -1.37970000 -2.02820000
-10.04060000 -1.32020000 -1.99010000
-9.36120000 -1.09720000 -2.20770000
-8.56720000 -1.00850000 -2.36060000
-9.48290000 -0.94600000 -2.54920000
-8.66970000 -0.70770000 -2.31080000
-9.00940000 -0.73750000 -2.26790000
-9.02570000 -0.51120000 -2.33820000
-9.18590000 -0.59160000 -2.55680000
-9.22000000 -0.48340000 -2.86240000
-7.69490000 -2.22820000 -3.09480000
-7.32950000 -1.91030000 -3.28920000
-7.46370000 -1.66930000 -3.19320000
-7.50820000 -1.42540000 -2.73570000
-7.59310000 -1.30140000 -1.95300000
-7.46840000 -0.80090000 -3.08000000
-7.30730000 -0.94350000 -3.25720000
-7.50980000 -0.51880000 -2.57940000
-8.89800000 -0.58720000 -3.16780000
-8.35350000 -0.87710000 -2.87440000
-8.33120000 -0.92100000 -3.05700000
-8.36680000 -0.47650000 -3.21780000
-8.36890000 -0.85860000 -2.56510000
-8.20580000 -0.46820000 -3.14180000
-8.08690000 -0.25830000 -2.90360000
-9.12450000 0.14310000 -3.01900000
-8.28970000 0.83700000 -3.23940000
-11.66280000 -0.90530000 -1.83480000
-11.76000000 -0.78890000 -1.37820000
-11.87690000 -0.81090000 -2.21510000
-11.62280000 -1.11160000 -2.40310000
-11.55410000 -0.96120000 -2.60980000
-11.87270000 -0.75610000 -2.42670000
-11.87940000 -0.47930000 -2.48360000
-11.03160000 -0.89900000 -2.76260000
-11.40670000 -0.36440000 -2.59360000
-12.55150000 -0.47370000 -2.12810000
-12.32070000 0.37520000 -2.12870000
-10.73440000 -0.52690000 -1.58020000
-11.03410000 -0.29910000 -1.88290000
-11.70380000 0.04620000 -2.18680000
-11.14560000 -0.37840000 -2.52560000
-12.03650000 0.22150000 -2.22390000
-11.55630000 0.10840000 -1.83020000
-11.90880000 0.48670000 -2.01790000
-11.86310000 0.49200000 -1.81440000
-10.94330000 -0.69370000 -2.67900000
-12.08540000 0.74900000 -1.98480000
-7.47600000 -0.69560000 -1.49760000
-11.12960000 -0.13250000 -0.73770000
-8.66850000 -0.01110000 -2.32670000
-9.00410000 -0.09720000 -2.47140000
-8.88670000 0.41530000 -2.21980000
-9.02190000 0.35770000 -2.33520000
-9.25320000 0.91610000 -2.04530000
-9.42500000 1.00100000 -2.19370000
-9.34310000 1.21670000 -1.87430000
-7.49190000 -0.43640000 -1.90610000
-7.38870000 0.41250000 -1.55860000
-6.90350000 0.61510000 -3.35570000
-8.27060000 -0.21560000 -2.42580000
-7.93190000 -0.00710000 -2.83440000
-8.01810000 0.17120000 -2.57080000
-7.52670000 -0.13870000 -2.77270000
-7.48690000 -0.25570000 -3.23480000
-7.47070000 -0.07970000 -3.29870000
-7.60540000 0.03140000 -2.80880000
-7.71600000 0.06300000 -3.11260000
-7.86410000 0.09210000 -3.23190000
-7.77120000 0.06590000 -2.83430000
-7.49930000 0.27170000 -2.09260000
-7.80380000 0.22370000 -2.68900000
-9.09750000 0.29600000 -2.77640000
-9.04210000 0.91200000 -3.14680000
-8.49650000 0.88360000 -2.26440000
-9.21970000 0.65670000 -2.70690000
-7.89150000 0.40190000 -2.43330000
-8.09620000 0.48940000 -2.33940000
-7.91730000 0.68760000 -2.23480000
-7.67100000 0.40840000 -2.34790000
-7.64850000 0.73920000 -1.99320000
-7.82300000 1.08600000 -2.12260000
-8.23710000 1.19010000 -2.26070000
-7.40650000 1.80600000 -3.29320000
-8.16440000 1.85790000 -3.21960000
-7.08650000 0.58750000 -1.14810000
-6.05610000 0.43640000 -0.02580000
-6.71930000 1.58550000 -0.83680000
-7.28700000 1.67270000 -1.51890000
-6.18770000 1.63320000 -0.28000000
-7.58200000 1.33980000 -1.93870000
-7.94570000 1.36950000 -2.37020000
-7.78380000 1.36550000 -2.24450000
-8.14490000 1.46430000 -2.37790000
-7.91200000 1.77360000 -2.67980000
-7.63590000 1.64110000 -2.30740000
-7.68160000 1.98780000 -2.77580000
-7.39120000 2.45380000 -1.90530000
-7.46570000 2.36350000 -2.48750000
-6.92350000 2.04220000 -3.31840000
-6.64220000 2.98130000 -3.35980000
-5.65040000 2.19120000 -3.38730000
-11.25450000 -0.00260000 -1.23170000
-11.56040000 0.21370000 -1.37080000
-11.63860000 0.48530000 -1.10390000
-11.75900000 0.68440000 -1.54490000
-11.72170000 1.49550000 -1.55290000
-11.65180000 1.40960000 -0.95170000
-11.93790000 0.68280000 -1.74290000
-10.45180000 1.15600000 -1.27050000
-10.65500000 1.42990000 -1.02610000
-10.69600000 1.19480000 -1.60860000
-10.47470000 1.40140000 -0.99970000
-10.83340000 1.81730000 -1.09870000
-10.78540000 1.38950000 -1.57760000
-10.54480000 1.07020000 -2.24260000
-10.21340000 1.05320000 -2.78320000
-10.25480000 1.10020000 -2.20140000
-9.88180000 1.15140000 -2.83720000
-10.24090000 1.17450000 -2.89320000
-9.96260000 1.32580000 -2.97070000
-9.56150000 1.05380000 -2.69010000
-9.77460000 1.30940000 -2.21230000
-9.94990000 1.24260000 -2.40440000
-10.76810000 1.26570000 -2.31680000
-10.55290000 1.15740000 -2.70110000
-10.80100000 1.40260000 -2.58220000
-10.59430000 1.36090000 -2.78200000
-10.41220000 2.23240000 -2.82620000
-9.84230000 2.29510000 -2.98360000
-10.32260000 1.21750000 -1.34270000
-10.15730000 1.34470000 -1.70370000
-10.15730000 1.54460000 -1.32350000
-9.70530000 1.53030000 -1.74390000
-10.53250000 1.09840000 -1.56020000
-10.93170000 1.94200000 -1.78040000
-9.96010000 1.53070000 -1.75770000
-12.20400000 1.46150000 -1.92670000
-11.87480000 1.14890000 -1.79890000
-12.01490000 1.40470000 -1.93270000
-11.77440000 1.86690000 -1.82660000
-11.69530000 2.00810000 -0.86920000
-11.61000000 2.32440000 -1.84910000
-11.54980000 2.39220000 -0.98040000
-11.81840000 2.14130000 -1.96500000
-11.72990000 3.13880000 -1.84570000
-11.65950000 2.51650000 -1.99760000
-10.99670000 1.92310000 -2.39350000
-10.99680000 2.21850000 -2.49440000
-11.21500000 2.39330000 -2.15040000
-11.22730000 2.49630000 -1.49290000
-11.05500000 2.32340000 -1.58290000
-11.16630000 2.73550000 -2.32900000
-10.43520000 3.40480000 -2.62280000
-11.34000000 2.57270000 -2.16630000
-11.42100000 2.43120000 -1.83360000
-10.59110000 1.76970000 -0.76550000
-10.36560000 1.70550000 -0.93380000
-10.71610000 1.98860000 -0.71490000
-10.59580000 2.44850000 -0.58820000
-10.96590000 2.54710000 -0.81600000
-10.83440000 2.60310000 -0.52080000
-9.60970000 1.76630000 -1.64920000
-9.04220000 1.62630000 -1.98150000
-9.97910000 1.86790000 -1.35510000
-10.32540000 2.50550000 -0.82660000
-9.61730000 2.37730000 -1.60080000
-10.04030000 2.90460000 -1.24670000
-10.28960000 2.89720000 -0.97600000
-10.46120000 3.43350000 -0.75680000
-9.53850000 2.88630000 -1.78200000
-11.40130000 2.47730000 -1.27530000
-11.07480000 2.42690000 -1.21350000
-11.34090000 2.68520000 -0.59920000
-11.15370000 2.80530000 -0.45640000
-14.17560000 2.20310000 -0.28080000
-11.33760000 2.78960000 0.03710000
-11.39590000 2.90420000 0.22100000
-11.13030000 3.03860000 -0.01020000
-11.00960000 2.87940000 -0.29810000
-10.83940000 2.94580000 -0.28020000
-10.67990000 3.24810000 -0.41280000
-10.39200000 3.62500000 -1.20120000
-10.23920000 3.46550000 -1.42490000
-9.92930000 3.29780000 -1.44530000
-10.05460000 3.72230000 -1.73840000
-9.30760000 2.69470000 -2.16440000
-10.23570000 4.14570000 -2.09140000
-10.47010000 3.94170000 -1.65000000
-10.51970000 4.05640000 -1.41110000
-10.35730000 4.10090000 -1.84610000
-10.51290000 4.20810000 -1.62820000
-10.44690000 4.48540000 -1.67710000
-9.21330000 0.78700000 -3.06400000
-9.60900000 1.09040000 -2.92010000
-9.51870000 1.15490000 -3.02980000
-9.08670000 2.09930000 -3.10580000
-9.27860000 2.45530000 -2.97000000
-9.62480000 2.66970000 -2.98480000
-8.38890000 2.23180000 -3.13010000
-8.92370000 2.37950000 -3.00710000
-7.91520000 1.95560000 -3.14410000
-8.83650000 1.88740000 -2.11560000
-8.52680000 1.83590000 -2.24420000
-8.18840000 1.79070000 -2.48430000
-8.73640000 2.03240000 -2.27120000
-8.30240000 2.07740000 -2.46040000
-8.57050000 2.31960000 -2.63180000
-7.92980000 2.00340000 -2.77230000
-7.70090000 2.06420000 -2.96870000
-8.09620000 2.14720000 -2.87910000
-8.41970000 2.39560000 -2.92410000
-8.32090000 2.24780000 -2.61820000
-8.78540000 2.27480000 -2.64080000
-8.93700000 2.24880000 -2.43980000
-8.88230000 2.44100000 -2.73470000
-9.16480000 2.49150000 -2.76190000
-9.57230000 2.91910000 -2.84680000
-9.58120000 3.11760000 -2.53400000
-8.66850000 2.43530000 -3.05620000
-8.74580000 2.51780000 -2.88910000
-7.32550000 2.71240000 -2.23290000
-7.30760000 2.05220000 -3.15770000
-7.45790000 2.29760000 -2.77900000
-7.13640000 2.28780000 -3.04440000
-6.97630000 2.53160000 -3.09900000
-7.18810000 2.53890000 -2.68970000
-6.78580000 2.60040000 -3.31980000
-7.18940000 2.91890000 -2.44230000
-7.06880000 3.13350000 -2.81890000
-6.88860000 3.24660000 -3.23540000
-6.02160000 4.21610000 -3.37490000
-7.04310000 4.05370000 -3.20270000
-9.93740000 3.30820000 -2.85160000
-9.86910000 3.50010000 -2.70480000
-10.11350000 3.77880000 -2.63330000
-10.22100000 4.12680000 -2.31660000
-10.44020000 4.09980000 -2.45160000
-10.50100000 4.48450000 -2.20290000
-16.97230000 0.78000000 1.53000000
-16.84770000 0.80920000 1.36370000
-16.97510000 0.87660000 1.70810000
-16.76430000 1.31470000 1.70470000
-16.41320000 1.12860000 1.09880000
-15.58730000 1.47380000 0.61010000
-16.19970000 1.77800000 1.84170000
-15.87510000 2.16020000 1.20730000
-16.39110000 1.61640000 1.27770000
-15.83840000 2.19370000 1.45980000
-15.87050000 1.75020000 0.86250000
-15.17170000 2.45590000 0.61670000
-15.06420000 2.67350000 0.88620000
-15.61920000 2.27850000 1.69820000
-14.84890000 2.72760000 1.44360000
-14.54110000 2.76020000 1.68490000
-14.58560000 2.94890000 0.34970000
-14.24330000 3.23410000 0.34400000
-14.34950000 3.13950000 0.72950000
-14.00590000 3.15210000 1.16520000
-14.14940000 3.38250000 0.51030000
-13.49520000 3.36830000 1.36280000
-14.00670000 3.39960000 0.91490000
-14.44350000 3.82440000 1.09530000
-14.17930000 3.57150000 0.74970000
-14.65800000 3.92530000 0.86090000
-14.32940000 3.77960000 0.49680000
-14.87740000 4.18230000 0.81290000
-14.65570000 4.18660000 0.57730000
-13.93800000 3.14130000 -0.14470000
-12.90890000 3.43760000 -0.89150000
-13.91360000 3.45810000 0.03420000
-14.13990000 3.53510000 0.51430000
-12.87370000 4.12000000 -0.69590000
-14.00680000 3.69860000 0.14990000
-13.88100000 4.51590000 0.07350000
-14.76640000 4.64250000 0.57080000
-11.02850000 4.11100000 -2.09850000
-11.33930000 4.49790000 -1.73260000
-10.83350000 4.50130000 -2.06460000
-10.92480000 4.75910000 -1.77480000
-2.68900000 -3.35920000 3.09620000
-3.08730000 -3.40380000 3.06100000
-3.12790000 -3.19000000 3.04450000
-3.31830000 -2.91010000 2.81200000
-2.56750000 -2.84510000 2.63200000
-3.33890000 -2.32680000 2.11230000
-3.87570000 -2.40980000 2.13840000
-3.75640000 -2.17990000 1.96780000
-2.34860000 -2.75820000 2.58730000
-2.13830000 -2.71350000 2.66090000
-1.39680000 -2.50330000 2.93710000
-2.03740000 -2.55660000 2.77410000
-2.78760000 -2.21250000 2.46100000
-2.51400000 -2.19910000 2.82430000
-2.03820000 -2.08690000 3.20850000
-2.39440000 -2.02610000 3.10960000
-1.56740000 -2.26280000 3.09220000
-2.95690000 -2.30740000 2.25710000
-3.36140000 -1.99040000 1.82590000
-3.27270000 -1.80410000 1.89180000
-2.88480000 -1.81600000 2.61510000
-3.84480000 -1.45270000 1.26370000
-3.73290000 -1.00830000 1.10630000
-3.56430000 -0.78760000 1.27100000
-3.20860000 -1.28770000 2.11080000
-2.80730000 -1.41910000 2.89170000
-3.03760000 -0.94620000 2.55870000
-3.26660000 -0.69600000 1.79040000
-0.70620000 -2.24140000 3.08870000
-0.87210000 -2.07620000 3.10570000
-1.08390000 -1.85630000 3.33550000
-0.13120000 -1.79130000 3.04000000
-1.61110000 -1.90420000 3.40220000
-2.32220000 -1.69890000 3.30920000
-1.70840000 -1.64550000 3.46390000
-2.27380000 -1.25590000 3.28930000
-1.62840000 -1.33530000 3.36150000
-0.93020000 -1.56890000 3.38490000
-0.36340000 -1.69550000 3.15530000
-0.27980000 -1.41500000 3.13920000
-0.62740000 -1.31710000 3.19830000
-1.16890000 -1.08200000 3.00930000
-1.93660000 -0.86390000 2.86080000
1.63140000 -0.76250000 2.49210000
0.16090000 -0.95610000 2.75270000
0.91140000 -0.68170000 2.57780000
-0.45280000 -0.44720000 2.54310000
-1.02900000 -0.86390000 2.71200000
-2.54030000 -1.24680000 3.15710000
-2.23610000 -0.97320000 3.06790000
-2.80200000 -0.74370000 2.63000000
-2.18820000 -0.58860000 2.48630000
-3.04440000 -0.70240000 2.37690000
-2.71740000 -0.51600000 2.32120000
-2.94340000 -0.42510000 2.11580000
-2.43800000 -0.25640000 2.39260000
-2.72710000 0.00890000 2.22810000
-1.82070000 -0.19010000 2.41090000
-0.74340000 -0.06480000 2.38840000
-1.87220000 0.25410000 2.13610000
-1.54030000 0.37320000 2.22640000
-0.71780000 0.13610000 2.44920000
-2.29700000 0.81670000 1.77540000
-1.84710000 0.85480000 2.31850000
-1.24970000 0.64340000 2.72830000
-2.00180000 0.78980000 1.95280000
-4.59960000 -0.74020000 0.71790000
-4.08590000 -0.58540000 0.68750000
-4.57340000 -0.25360000 0.46820000
-4.06680000 0.65650000 0.11210000
-3.11180000 0.38240000 1.25980000
-3.12310000 -0.29620000 1.81990000
-3.00480000 1.27530000 0.82450000
-3.66020000 0.96910000 0.35430000
-5.45350000 -0.01440000 0.37500000
-5.25900000 0.10830000 0.41260000
-5.28860000 0.87270000 0.19360000
-4.68030000 0.34060000 0.15170000
-4.37280000 0.72750000 -0.07970000
-5.72970000 0.48040000 0.23860000
-5.68010000 1.62190000 0.01760000
-5.19720000 2.19660000 -0.23150000
-4.88420000 1.86690000 -0.38820000
-4.59290000 1.54880000 -0.43380000
-4.31390000 1.80020000 -0.47450000
-3.65070000 2.29580000 -0.10870000
-4.04880000 2.21240000 -0.47400000
-2.93560000 0.01670000 2.05620000
-2.80090000 0.78060000 1.65090000
-2.60040000 0.60230000 1.91410000
-2.68170000 1.32330000 1.35980000
-2.28610000 1.34580000 2.14600000
-2.38760000 1.22780000 1.68150000
-2.56450000 1.71500000 1.50420000
-2.81970000 2.49090000 0.53880000
-2.54560000 2.48860000 0.81310000
-2.46480000 2.52670000 1.44760000
-2.63910000 3.91510000 0.37620000
1.44240000 0.11980000 2.21640000
0.84570000 0.07890000 2.33220000
-0.06900000 -0.08180000 2.45140000
0.09390000 0.08200000 2.52250000
0.59400000 0.17300000 2.50550000
0.22120000 0.36400000 2.96400000
0.44060000 0.69230000 3.42440000
0.02190000 0.64660000 3.46480000
-0.02130000 0.87770000 3.63030000
-0.56390000 0.43330000 2.93920000
-0.92810000 0.84430000 3.10210000
-1.46050000 1.13340000 2.94700000
-0.32460000 0.84560000 3.56030000
-0.55150000 0.90450000 3.45920000
-0.86160000 1.22640000 3.19120000
-0.65360000 1.21960000 3.46450000
-0.51240000 1.31260000 3.59930000
-1.20510000 1.36790000 3.10170000
-1.62410000 1.58460000 2.90460000
-0.71180000 1.52400000 3.28690000
-0.90540000 1.74610000 3.04510000
-0.40970000 1.86810000 3.10470000
-0.57460000 2.04120000 2.74990000
0.40000000 1.09280000 3.63990000
0.85470000 0.89000000 3.35370000
1.23740000 1.23740000 3.25630000
-0.12930000 1.39060000 3.65430000
-0.47720000 1.61870000 3.46930000
0.01820000 1.72560000 3.45540000
0.43450000 1.37900000 3.62840000
1.02380000 1.70050000 3.28310000
0.89920000 1.87850000 3.14540000
0.34340000 1.91260000 3.16800000
0.36550000 2.04770000 2.79230000
-2.14660000 1.52450000 2.52200000
-2.46390000 1.80060000 2.05150000
-2.50420000 2.22120000 1.88090000
-2.30460000 2.21760000 2.27490000
-2.04520000 1.91090000 2.62270000
-2.38480000 2.61640000 1.95650000
-1.63580000 2.30200000 2.58600000
-1.48560000 1.90850000 2.79250000
-0.54910000 2.45290000 2.60140000
-1.62050000 2.89840000 2.16360000
-2.15290000 2.96630000 1.94070000
-2.21590000 3.45270000 1.05420000
-2.19360000 3.43540000 1.52930000
-1.96850000 3.61450000 1.69130000
-1.90750000 4.23640000 1.15080000
0.61000000 2.33120000 2.59370000
-0.44530000 2.79760000 2.42350000
-1.15920000 3.38910000 2.05170000
-0.58950000 3.62710000 2.67720000
-1.01670000 3.86340000 2.73860000
-1.10670000 3.71230000 2.18230000
-0.20670000 3.63890000 2.83130000
-0.42650000 3.95590000 3.23100000
-0.84250000 4.00800000 3.12840000
-1.14140000 4.30450000 3.04310000
-1.54010000 3.90040000 1.79390000
-1.32150000 3.99510000 2.29380000
-1.43480000 4.35690000 2.45160000
-1.55260000 4.23510000 1.86190000
-1.56990000 4.87840000 2.13340000
-1.42900000 4.72690000 2.61780000
-13.01490000 3.34710000 1.48140000
-13.48160000 3.18470000 1.50000000
-12.54200000 3.47840000 1.28620000
-12.16190000 3.32990000 1.00870000
-11.81090000 3.26790000 0.56040000
-13.23420000 3.82140000 1.35250000
-13.75490000 3.71850000 1.30040000
-13.04610000 4.29820000 1.22650000
-12.34660000 4.09260000 0.89740000
-12.18500000 4.38470000 0.31590000
-12.96270000 4.86760000 1.00400000
-12.55420000 4.68080000 0.68430000
-6.03740000 2.92240000 -0.42050000
-5.54660000 2.61920000 -0.21370000
-4.59310000 2.37110000 -0.71260000
-4.80030000 2.72550000 -0.77660000
-4.41810000 2.56220000 -0.64810000
-6.47610000 3.86780000 -0.99450000
-5.90770000 4.50870000 -0.60820000
-3.98040000 3.23460000 -0.61080000
-3.70910000 3.88700000 -0.41670000
-5.23150000 4.19410000 -0.79450000
-4.43000000 3.30990000 -0.56260000
-4.55040000 3.23480000 -0.66910000
-4.18180000 3.42150000 -0.66970000
-4.72820000 3.26750000 -0.90840000
-4.70270000 3.84240000 -0.87930000
-4.60680000 4.02010000 -0.53380000
-3.31520000 4.03980000 -0.15400000
-4.48380000 4.36350000 -0.52170000
-5.74010000 4.79800000 -0.61110000
-5.57460000 4.80770000 -0.65520000
-5.00860000 3.95710000 -0.97640000
-4.85850000 3.97730000 -1.01770000
-4.97770000 4.85560000 -1.00960000
-4.18910000 4.74390000 -0.77970000
-4.81010000 4.73360000 -0.63840000
-4.83040000 5.21530000 -0.47580000
-4.43070000 5.74710000 -0.67680000
-5.12340000 4.88890000 -1.01210000
-4.96990000 5.21620000 -0.86530000
-11.65120000 3.39020000 0.24410000
-11.27950000 3.41480000 0.12580000
-11.54280000 3.54700000 0.17830000
-10.95920000 3.67580000 -0.17920000
-11.68700000 3.92600000 0.03780000
-11.46500000 4.14000000 0.00570000
-12.12920000 4.54200000 -0.04280000
-11.79730000 4.42640000 -0.11910000
-11.16800000 4.23560000 -0.22590000
-10.83540000 4.23240000 -0.50840000
-11.00590000 4.74260000 -0.76280000
-11.50740000 4.79450000 -0.28320000
-11.39560000 4.97370000 -0.56530000
-10.54440000 4.12620000 -0.92700000
-10.51460000 4.36790000 -1.45600000
-10.68470000 4.54630000 -1.18430000
-7.29130000 3.53320000 -2.01990000
-7.09930000 4.26040000 -1.81620000
-6.71260000 5.03720000 -1.42410000
-7.22930000 3.91680000 -2.66160000
-7.24950000 4.33010000 -2.39730000
-7.02300000 5.42340000 -2.11180000
-6.78410000 4.79330000 -3.30500000
-6.99990000 5.11400000 -3.12840000
-7.14510000 4.95420000 -2.85210000
-6.91120000 6.23740000 -2.56180000
-6.73170000 6.28660000 -3.11940000
-5.88150000 6.33850000 -0.88470000
-5.54710000 5.94670000 -0.87650000
-5.26790000 5.89320000 -0.93200000
-6.16630000 6.34840000 -1.02060000
-6.71460000 6.78050000 -2.90530000
-6.64340000 6.68100000 -1.74730000
-6.41150000 6.76600000 -1.35170000
-6.79390000 6.71690000 -2.18270000
-6.57110000 7.50740000 -2.32360000
-4.80470000 6.16940000 -0.43950000
-5.46230000 6.59740000 -0.88320000
-5.83400000 7.33650000 -1.12420000
-5.28140000 7.07820000 -0.58010000
-5.17690000 7.35090000 -0.43920000
-5.53340000 7.23670000 -0.90230000
-5.64460000 7.83510000 -1.02760000
-6.15050000 7.73470000 -1.34990000
-6.42450000 7.65010000 -1.68780000
-6.26390000 8.13270000 -1.61850000
-5.54670000 8.11790000 -0.58140000
-5.62730000 8.82730000 -0.46170000
-5.90060000 9.19020000 -0.55270000
-5.88950000 8.76860000 -0.69560000
-6.06130000 9.34140000 -0.49460000
-6.24810000 9.39760000 -0.59610000
-0.00060000 3.85010000 3.14060000
-0.75870000 4.26620000 3.36090000
-0.20760000 4.39870000 3.56890000
-1.11550000 4.83710000 3.21130000
-0.58450000 4.69410000 3.53990000
-0.07390000 4.91320000 3.69480000
-0.45830000 5.22040000 3.65000000
-1.45310000 5.37160000 2.59260000
-1.37000000 5.22120000 2.93150000
-1.19330000 5.42030000 3.18630000
-1.17800000 5.71220000 2.92960000
-0.91990000 5.43930000 3.39550000
-0.58940000 5.59400000 3.51330000
-13.80200000 3.46670000 1.20180000
-14.22600000 3.93330000 1.23790000
-13.92260000 4.12950000 1.30780000
-14.88810000 4.44420000 1.61760000
-15.39910000 4.54020000 1.59150000
-14.98170000 4.29200000 1.31090000
-14.61570000 4.18740000 1.29980000
-14.38200000 4.38290000 1.49580000
-13.58990000 4.49150000 1.38390000
-14.67330000 4.70930000 1.72250000
-14.41650000 4.88290000 1.62050000
-14.01520000 5.47990000 1.30080000
-13.52530000 5.06080000 1.25850000
-12.90380000 5.21830000 0.62720000
-13.40520000 5.65640000 0.84470000
-13.17730000 5.53870000 0.34530000
-15.24630000 4.49620000 1.10050000
-15.51030000 4.60760000 1.39530000
-15.67200000 4.71220000 1.68790000
-15.36040000 4.73590000 1.90270000
-15.72190000 4.89900000 1.42300000
-15.75150000 4.86620000 1.68320000
-15.70180000 5.10930000 1.54740000
-15.33380000 4.81830000 0.96630000
-15.45890000 5.26300000 1.13150000
-14.98760000 5.28060000 0.75870000
-15.60740000 4.85300000 1.92110000
-15.41770000 4.92980000 2.02740000
-15.14510000 4.90850000 1.88720000
-15.31500000 5.17150000 1.73020000
-15.01670000 5.28140000 1.50770000
-15.60630000 5.04530000 1.83790000
-15.41850000 5.34430000 1.45130000
-14.61150000 5.51890000 1.46730000
-14.27210000 5.82200000 1.11790000
-14.99900000 5.62280000 1.45400000
-14.77540000 5.85280000 1.34880000
-15.48630000 5.38730000 1.28090000
-15.03760000 5.72540000 0.83310000
-15.28350000 5.64000000 1.31040000
-15.09670000 5.80890000 1.29860000
-15.33300000 5.72860000 1.18280000
-14.95090000 5.98740000 1.05940000
-14.59910000 5.97220000 1.17430000
-14.39420000 6.02190000 0.87770000
-14.48780000 5.98880000 0.67150000
-15.05370000 5.92100000 0.95530000
-14.10080000 5.06480000 0.18760000
-14.01430000 5.64970000 0.23970000
-13.26120000 5.18810000 -0.26580000
-13.86420000 5.85800000 0.94880000
-13.83660000 5.95720000 0.63820000
-14.07460000 5.96080000 0.50800000
-13.46830000 5.58740000 -0.10990000
-13.61560000 5.75750000 0.17870000
-13.17140000 5.50820000 -0.10490000
-13.64190000 5.69610000 1.06010000
-12.24230000 4.88050000 -0.40230000
-12.12770000 5.00760000 -0.52700000
-12.72760000 4.86940000 -0.64770000
-12.65770000 5.18330000 -0.20510000
-12.54220000 5.21360000 -0.43520000
-12.87450000 5.25400000 -0.34780000
-12.46300000 5.19380000 -0.66320000
-12.25260000 5.14650000 -0.92520000
-12.11740000 5.52370000 -0.80740000
-11.90170000 5.55780000 -1.13010000
-11.72830000 5.17160000 -1.32510000
-11.69070000 4.73580000 -0.22750000
-11.87190000 5.37550000 -0.65680000
-11.74650000 5.65650000 -1.05180000
-11.01570000 4.79520000 -1.60650000
-11.31430000 4.77540000 -1.65500000
-11.19600000 4.98870000 -1.48400000
-10.81360000 4.77180000 -1.46540000
-10.95660000 4.86890000 -1.26600000
-11.21540000 5.25370000 -1.19270000
-11.32420000 5.33700000 -1.37250000
-10.55570000 4.78710000 -1.85420000
