3.75330000 -19.93320000 -4.44560000
4.48540000 -20.74770000 -3.76350000
4.39040000 -20.52430000 -4.18510000
4.13150000 -19.68770000 -4.16790000
0.35090000 -28.86040000 -10.90610000
0.43130000 -27.91950000 -10.00740000
-8.31460000 -34.24210000 -7.63820000
5.04100000 -26.81090000 -6.83140000
4.63720000 -25.85880000 -6.30260000
-9.09980000 -33.45050000 -8.22920000
5.48700000 -25.52720000 -7.34870000
0.99110000 -29.51290000 -11.27780000
3.56380000 -19.22440000 -4.20420000
-9.09580000 -33.58890000 -10.43130000
2.77130000 -18.54190000 -4.19090000
4.86950000 -25.38910000 -7.50770000
3.96600000 -24.56390000 -6.88610000
4.74400000 -26.05940000 -8.52910000
3.58130000 -18.45410000 -4.15130000
2.84200000 -17.87340000 -4.07550000
4.21030000 -18.66670000 -3.54690000
-1.83960000 -25.52410000 -6.66490000
3.96000000 -18.34410000 -4.02460000
-1.27980000 -25.68900000 -7.18070000
-9.03470000 -33.94290000 -11.16660000
3.62040000 -17.58470000 -4.28160000
4.08670000 -17.36340000 -3.81500000
-8.86980000 -32.84050000 -12.11310000
-0.77920000 -25.02480000 -6.35220000
-7.61810000 -35.66770000 -9.12990000
-6.64810000 -36.89740000 -11.77690000
2.81720000 -17.31860000 -4.29410000
-6.82240000 -35.21930000 -11.26740000
-5.91380000 -34.97660000 -11.78780000
3.00280000 -16.67310000 -4.97300000
-4.76850000 -34.96490000 -12.00630000
3.89470000 -16.89370000 -4.61300000
-6.26920000 -34.10440000 -11.44920000
-7.77020000 -34.90340000 -7.94180000
-7.84040000 -33.67360000 -7.61230000
4.17830000 -15.94980000 -2.10510000
-7.24540000 -33.89160000 -9.14440000
-4.18460000 -35.38020000 -12.21170000
-4.01870000 -36.14180000 -12.37070000
-3.92860000 -35.45630000 -12.57760000
-7.26540000 -34.21100000 -9.85910000
-4.35300000 -33.75910000 -13.17780000
-3.75450000 -33.51270000 -12.38760000
4.09550000 -15.70520000 -4.85860000
-4.70540000 -32.87580000 -13.03040000
-6.14200000 -33.96020000 -13.15600000
-6.55630000 -32.67950000 -12.84840000
-5.18100000 -32.03910000 -12.88200000
8.79940000 -32.29580000 -4.93720000
-3.97830000 -33.54420000 -12.11890000
-4.04670000 -32.95160000 -12.97330000
-3.80750000 -32.73200000 -12.65640000
-6.72990000 -33.64010000 -10.83320000
7.55230000 -27.99970000 -3.78010000
8.67460000 -29.77290000 -5.23240000
-3.97230000 -31.78610000 -12.86610000
-3.31040000 -32.47080000 -11.96040000
-3.45260000 -32.30820000 -12.40070000
-3.27460000 -32.15650000 -11.74270000
-3.08120000 -31.22740000 -12.83950000
-2.79720000 -32.07930000 -12.18340000
-2.77440000 -31.90100000 -12.56930000
-2.72030000 -31.62740000 -12.81360000
8.71630000 -30.70900000 -6.23370000
-1.50300000 -31.83500000 -11.98020000
-2.03790000 -31.92590000 -12.04320000
-1.21170000 -31.90760000 -12.33100000
-1.30080000 -31.84030000 -12.56750000
-2.46960000 -31.98300000 -11.84380000
-8.05390000 -31.80810000 -4.19100000
-1.23030000 -30.99850000 -11.86830000
-8.37910000 -31.59170000 -5.15790000
-1.24960000 -31.64910000 -12.85670000
-1.34420000 -31.22390000 -12.97010000
-8.30350000 -31.81050000 -6.06460000
2.19500000 -15.94760000 -5.79250000
-8.61370000 -31.26030000 -5.72330000
-8.59190000 -31.66160000 -6.95850000
-8.78290000 -32.26590000 -7.47180000
-8.51320000 -32.40430000 -7.35070000
-8.05080000 -32.00600000 -7.02860000
-7.71560000 -32.35700000 -12.67180000
-6.02860000 -29.79040000 -12.19310000
6.05350000 -27.06050000 -2.08950000
3.54010000 -16.19600000 -5.43550000
5.79040000 -26.63460000 -2.79070000
-4.13740000 -30.26950000 -12.58070000
2.69520000 -14.10220000 -7.46250000
1.92170000 -15.02620000 -6.66220000
3.56350000 -14.79820000 -6.76410000
-8.74630000 -31.25500000 -7.33190000
-8.03860000 -30.60320000 -12.18100000
6.57420000 -26.90540000 -5.39080000
-2.60960000 -29.08460000 -12.24420000
-8.93150000 -32.22730000 -9.30540000
-1.04540000 -30.39660000 -12.77390000
1.35070000 -13.20730000 -8.08510000
6.04370000 -27.33310000 -3.88670000
2.67990000 -12.56450000 -8.61050000
3.93870000 -15.72580000 -5.62260000
-8.09240000 -32.44510000 -7.41830000
-2.78590000 -27.90550000 -11.67120000
7.36000000 -28.15210000 -7.71000000
3.97720000 -14.30700000 -6.99310000
4.18490000 -14.06820000 -6.56060000
1.58310000 -31.97100000 -11.99520000
0.68380000 -32.01380000 -12.03140000
1.70390000 -32.14840000 -12.11510000
1.23220000 -32.13970000 -12.44790000
-0.72470000 -31.53290000 -12.02380000
-0.22130000 -31.74150000 -12.21520000
-0.12070000 -31.82470000 -12.53520000
-0.13130000 -31.48460000 -12.93740000
8.46940000 -30.19280000 -8.73730000
8.27010000 -29.54790000 -9.14900000
0.70300000 -30.78250000 -12.84910000
0.29340000 -31.88340000 -12.10150000
0.36210000 -31.49330000 -12.05310000
-0.05580000 -30.34960000 -11.71340000
1.21650000 -31.24560000 -11.95320000
0.64640000 -31.90590000 -12.81620000
1.31690000 -31.69370000 -12.94150000
4.42740000 -10.04130000 -7.18010000
-8.44470000 -30.43330000 -11.79950000
8.31420000 -30.27010000 -10.26500000
3.34480000 -12.84920000 -8.33810000
3.89120000 -12.87640000 -8.10300000
7.81330000 -29.20290000 -10.19030000
8.03700000 -30.05640000 -10.87040000
3.08560000 -32.26470000 -12.04160000
4.18590000 -12.77770000 -7.76090000
3.15240000 -31.59040000 -11.66710000
2.09700000 -32.16080000 -12.70520000
4.35250000 -10.16120000 -8.39280000
2.87100000 -31.95750000 -12.83010000
3.81600000 -11.80920000 -8.77900000
4.15430000 -12.05310000 -8.44340000
3.72370000 -32.58650000 -12.06980000
4.04220000 -32.90480000 -12.32340000
4.07620000 -32.89740000 -11.69680000
3.59420000 -32.19700000 -11.63270000
-2.46110000 -14.40720000 -4.65040000
-2.52440000 -15.05140000 -2.84960000
-2.40100000 -14.49400000 -2.82790000
3.98750000 -32.30320000 -12.67290000
3.31700000 -32.26810000 -12.58890000
3.42770000 -31.14810000 -11.62290000
2.51040000 -30.59560000 -11.63590000
-8.84720000 -37.14370000 -13.38630000
1.78260000 -29.96880000 -11.47060000
-9.03630000 -35.47400000 -12.90950000
0.29010000 -29.49180000 -12.46970000
-0.67990000 -12.49370000 -1.89500000
-1.47790000 -13.31520000 -2.67220000
-2.05420000 -13.59260000 -4.26650000
2.74130000 -30.03320000 -12.50260000
5.47780000 -26.24730000 -1.74460000
-2.01680000 -13.56820000 -5.16400000
3.11580000 -29.57700000 -11.04490000
-1.45770000 -12.95920000 -3.52090000
-8.34570000 -34.67730000 -13.08500000
-1.72200000 -12.93330000 -4.05980000
-1.87640000 -12.97720000 -5.13790000
1.17830000 -28.48760000 -12.00680000
5.04800000 -25.43720000 -2.38260000
3.65840000 -29.01250000 -11.98280000
-0.83240000 -29.76370000 -11.46010000
-8.50460000 -33.27240000 -12.77300000
-8.60590000 -32.43770000 -12.45820000
-1.48230000 -12.43420000 -4.67470000
-0.59460000 -11.72960000 -4.26040000
-2.14440000 -14.73630000 -5.96850000
-2.31680000 -14.30990000 -5.64820000
-1.99270000 -14.27980000 -6.25460000
-1.73500000 -13.34460000 -5.92630000
-1.45640000 -13.49520000 -6.63590000
-1.17220000 -13.89730000 -7.05540000
-1.06660000 -13.46940000 -7.14560000
5.99520000 -25.66850000 -4.94250000
-0.11250000 -12.70880000 -7.57960000
-1.38100000 -12.22390000 -5.56560000
-1.19700000 -12.12530000 -6.07050000
1.07600000 -27.57050000 -11.40080000
-0.69520000 -11.63730000 -6.03980000
-1.10900000 -12.83230000 -6.48090000
-0.14100000 -12.37590000 -7.04970000
-0.86050000 -12.20600000 -6.52960000
-0.03230000 -13.19220000 -7.77640000
7.61210000 -38.74600000 -8.75950000
6.74890000 -39.98970000 -8.89600000
6.93680000 -41.05130000 -9.13980000
7.26500000 -41.22010000 -9.44680000
0.30840000 -11.81230000 -1.03190000
7.80270000 -38.80680000 -9.21810000
0.89570000 -11.05930000 -0.23470000
0.89570000 -10.78670000 -1.63670000
-0.25790000 -11.82820000 -2.98050000
7.15040000 -38.34790000 -8.54740000
0.67890000 -10.94340000 -2.78950000
7.14710000 -37.12210000 -8.49840000
6.64690000 -37.83700000 -8.80820000
6.81140000 -38.35540000 -8.60640000
5.22680000 -23.71930000 -4.54340000
5.24570000 -24.38290000 -6.12040000
4.63170000 -42.31690000 -12.16440000
7.74220000 -36.99740000 -8.29700000
5.06360000 -42.08380000 -11.72540000
4.61060000 -41.66880000 -12.05220000
8.08570000 -36.77870000 -8.47310000
5.44570000 -42.10260000 -11.18240000
5.74610000 -25.54600000 -6.52710000
0.11010000 -11.10400000 -4.94050000
1.07850000 -10.31950000 -4.72940000
5.39780000 -40.75480000 -11.36940000
5.61650000 -40.70840000 -10.58280000
6.36670000 -37.65050000 -9.56940000
6.00510000 -38.49860000 -9.58910000
6.24740000 -38.39750000 -9.06420000
6.63740000 -36.69760000 -9.04120000
1.16200000 -10.23680000 -0.82580000
1.32900000 -10.42770000 -0.09060000
6.25590000 -40.30810000 -8.93460000
6.04420000 -41.22300000 -9.13580000
6.42250000 -41.29040000 -9.11970000
5.79370000 -40.75650000 -9.38710000
6.14890000 -39.56370000 -8.89790000
8.20950000 -35.69250000 -9.26410000
5.65810000 -41.79900000 -10.38790000
5.83160000 -41.96370000 -9.53210000
1.25000000 -9.92310000 -2.26140000
1.43760000 -8.75340000 -2.39490000
4.84610000 -23.76240000 -6.11150000
8.14130000 -34.84900000 -10.91630000
4.19050000 -32.78210000 -11.38890000
4.43080000 -33.10860000 -11.19980000
5.81690000 -39.23550000 -10.29410000
4.18280000 -31.46680000 -11.50450000
8.43410000 -33.72640000 -2.39370000
4.81910000 -31.47960000 -11.20960000
7.95040000 -33.80930000 -4.03910000
7.64050000 -33.67240000 -4.05990000
1.41010000 -9.78000000 -3.94460000
8.50230000 -33.70700000 -3.22060000
3.79490000 -30.60580000 -11.25230000
1.60000000 -8.62460000 -3.70590000
7.63320000 -33.59790000 -6.07090000
7.79450000 -33.84390000 -5.72200000
7.41760000 -33.26100000 -5.76760000
8.12920000 -33.84110000 -4.74760000
7.46090000 -33.35040000 -4.41890000
8.71700000 -33.49800000 -3.31100000
8.51170000 -33.65510000 -5.27520000
0.36700000 -11.86370000 -7.01980000
-0.21620000 -11.40830000 -6.63650000
8.08590000 -33.88950000 -6.23880000
0.54060000 -11.28910000 -6.98100000
8.65460000 -33.47200000 -6.14030000
1.77640000 -12.56200000 -8.41700000
1.23820000 -12.23120000 -8.14940000
5.41240000 -39.41410000 -11.35670000
1.00590000 -11.92880000 -7.65400000
6.97850000 -36.19690000 -8.22550000
7.38720000 -35.72120000 -7.84210000
6.76600000 -35.85520000 -8.62470000
8.00880000 -35.56930000 -7.83640000
2.14360000 -11.71330000 -8.43780000
1.53660000 -11.33850000 -7.39300000
6.80390000 -35.52650000 -8.00420000
7.03010000 -35.17290000 -7.70800000
6.94840000 -34.29930000 -8.38460000
6.84850000 -34.67740000 -7.79190000
1.83030000 -11.47520000 -7.94200000
7.09540000 -34.29270000 -7.32520000
4.50960000 -28.53660000 -11.52820000
5.49140000 -29.36230000 -11.72190000
1.42250000 -10.82830000 -7.23370000
6.09890000 -37.57130000 -10.50870000
6.48040000 -36.43590000 -9.94410000
5.48880000 -37.32870000 -11.46250000
5.15030000 -38.42260000 -11.58330000
2.69990000 -28.01190000 -11.65220000
6.04220000 -36.25280000 -11.03610000
2.87550000 -41.30840000 -14.00590000
3.25500000 -41.75480000 -14.01270000
2.96170000 -41.56650000 -13.68480000
2.74920000 -41.13530000 -13.56670000
0.63580000 -10.72780000 -6.14160000
6.50230000 -34.46690000 -10.50310000
6.77130000 -34.61510000 -9.49550000
1.07370000 -10.52300000 -6.81470000
3.98100000 -42.27120000 -12.56350000
4.63320000 -42.54350000 -12.69740000
3.82830000 -42.28080000 -13.37110000
5.13240000 -42.40410000 -13.28380000
4.10910000 -41.90710000 -14.03760000
2.79310000 -11.45110000 -8.79320000
3.56090000 -41.53170000 -12.38710000
3.24870000 -41.85040000 -12.58750000
7.35230000 -29.70620000 -11.27050000
3.27410000 -42.23770000 -12.98800000
3.35650000 -11.89010000 -8.87610000
3.10020000 -41.58870000 -12.67020000
3.06650000 -41.52910000 -13.24680000
2.83210000 -40.63440000 -13.06980000
1.86900000 -10.80040000 -7.89360000
7.05370000 -33.60400000 -7.41710000
3.42450000 -41.97420000 -13.55290000
2.53690000 -10.56950000 -8.79900000
3.29030000 -41.43020000 -14.19030000
2.28530000 -10.01200000 -8.45110000
4.48800000 -41.66020000 -14.16740000
3.74780000 -39.77770000 -13.99890000
3.30350000 -10.35490000 -9.06990000
3.74070000 -10.98740000 -8.88170000
8.36630000 -35.04930000 -7.87910000
4.17640000 -11.18050000 -8.61010000
7.35160000 -34.02250000 -7.04000000
7.70610000 -34.17890000 -7.02830000
3.02720000 -9.87720000 -9.21000000
4.19480000 -10.19860000 -8.80210000
3.84140000 -9.78220000 -9.26770000
8.49320000 -34.56770000 -7.94460000
5.41210000 -42.07850000 -13.90950000
8.18200000 -34.13480000 -7.03930000
1.77050000 -9.68820000 -5.72240000
8.48370000 -33.80980000 -6.84390000
8.56370000 -33.42900000 -8.05900000
1.65900000 -9.50020000 -4.97220000
6.12800000 -42.39070000 -13.50940000
5.96270000 -41.86050000 -13.99870000
5.24170000 -41.19960000 -14.07210000
1.81740000 -9.89810000 -6.97040000
4.04870000 -40.90210000 -12.27900000
1.93830000 -9.65610000 -6.44740000
2.08080000 -8.86290000 -5.82840000
5.10730000 -41.03190000 -11.86040000
4.75780000 -39.42360000 -11.93780000
2.47020000 -8.46700000 -6.36670000
1.96230000 -7.53250000 -4.67240000
4.79870000 -39.73770000 -13.86580000
3.13950000 -40.91390000 -12.36310000
2.30120000 -7.78380000 -5.72750000
2.88030000 -39.99800000 -12.79140000
3.31390000 -40.58850000 -12.43560000
3.55880000 -40.31120000 -12.48630000
3.11980000 -39.74950000 -12.52520000
2.91610000 -40.78040000 -14.02970000
7.69550000 -33.78320000 -6.65650000
2.82690000 -7.85220000 -7.15300000
2.76320000 -39.75610000 -13.42520000
1.68920000 -10.21990000 -7.53620000
7.32200000 -33.39500000 -6.61000000
3.24200000 -38.75050000 -13.74830000
2.29720000 -9.59120000 -7.79140000
3.12490000 -38.61000000 -12.69160000
2.70250000 -8.72130000 -7.68810000
3.15600000 -37.79100000 -13.37040000
2.76000000 -9.37200000 -8.64880000
2.90480000 -9.59880000 -9.12210000
-7.81380000 -26.89570000 -6.64910000
3.24510000 -9.28400000 -8.91960000
3.02600000 -8.95770000 -8.32630000
4.06830000 -40.11130000 -12.28280000
3.78990000 -39.36040000 -12.19900000
3.15170000 -8.17250000 -8.07840000
3.31330000 -8.75620000 -9.11880000
3.41660000 -38.83280000 -12.24490000
-7.33100000 -26.25400000 -5.74600000
-6.39790000 -25.59680000 -4.83140000
5.46490000 -39.06380000 -13.74890000
6.71360000 -41.74180000 -13.58860000
6.40790000 -41.04270000 -13.83870000
1.78200000 -7.44770000 -4.01190000
-6.00820000 -25.48840000 -6.35310000
7.15440000 -39.81540000 -13.20000000
2.15200000 -6.60080000 -5.22180000
2.52110000 -7.04490000 -6.57870000
-4.57040000 -24.58090000 -4.97200000
3.48080000 -9.49640000 -9.34870000
3.60090000 -9.00910000 -9.83350000
3.33120000 -8.15600000 -10.32240000
3.11390000 -7.32600000 -10.51740000
6.91810000 -39.49880000 -13.49810000
4.01910000 -37.88310000 -12.11690000
5.42050000 -37.18630000 -13.41360000
-7.87010000 -27.16270000 -8.80090000
-7.59570000 -26.76590000 -8.51920000
-6.68530000 -26.06050000 -7.85150000
-6.70230000 -26.48690000 -9.30340000
-7.66300000 -27.35430000 -10.12040000
3.52130000 -37.66240000 -12.38230000
3.21170000 -37.04800000 -12.66590000
3.14780000 -37.26850000 -13.03130000
3.83270000 -36.68670000 -13.45490000
3.61740000 -36.15880000 -12.32650000
4.77610000 -36.98630000 -11.91630000
-5.19500000 -25.22850000 -7.34750000
-4.08410000 -24.97370000 -7.68970000
4.01840000 -36.66650000 -12.16560000
4.45200000 -36.21120000 -12.00290000
3.97560000 -36.25640000 -12.00970000
4.14090000 -35.51760000 -12.03850000
3.65760000 -35.50830000 -12.96950000
7.44230000 -36.90240000 -12.95800000
4.73570000 -36.00230000 -13.31970000
5.43920000 -35.65190000 -11.57790000
-4.52170000 -24.37120000 -2.58040000
4.69750000 -35.11000000 -11.75830000
3.91450000 -35.20350000 -12.02500000
3.81800000 -34.28390000 -12.40140000
4.24970000 -34.75160000 -11.66470000
3.96150000 -34.48030000 -12.00990000
-2.46710000 -25.52610000 -5.91720000
4.48410000 -34.01880000 -11.53790000
-3.47690000 -24.05920000 -5.52880000
4.22970000 -33.74020000 -11.80580000
4.73040000 -33.52220000 -11.42360000
-2.21390000 -24.88390000 -3.38790000
-1.47430000 -23.92750000 -3.68990000
-1.83050000 -24.40430000 -4.09290000
-2.15540000 -25.24370000 -4.76320000
-2.13090000 -25.43170000 -5.68790000
-1.52250000 -25.07160000 -6.04090000
-1.76920000 -24.71960000 -5.32110000
-2.95620000 -23.44060000 -4.40050000
-2.46680000 -23.25000000 -5.49700000
-2.28110000 -23.62180000 -6.08110000
-3.34700000 -24.16520000 -6.44260000
-1.59470000 -24.25260000 -4.66870000
-1.22980000 -24.41660000 -5.31830000
-5.08860000 -33.51430000 -11.64760000
-7.11710000 -32.16270000 -3.02560000
4.61390000 -4.17710000 12.55510000
4.51360000 -6.02570000 11.50680000
4.73940000 -2.62600000 12.07730000
3.94950000 -12.09090000 7.93980000
4.22040000 -12.81880000 7.61770000
4.31800000 -13.67960000 7.13410000
2.22530000 -5.70630000 2.35360000
1.99480000 -6.96640000 3.37760000
2.21230000 -6.59130000 3.65940000
2.18650000 -3.91480000 2.90050000
2.13350000 -4.21680000 1.73040000
1.83540000 -6.28260000 2.30400000
3.79820000 -3.01780000 14.05360000
3.41930000 -4.53200000 13.06620000
3.75140000 -4.50480000 13.22110000
4.11560000 -4.55720000 13.14690000
2.15510000 -5.36800000 0.86780000
1.91740000 -5.89030000 0.83210000
3.34140000 -2.74030000 14.00560000
2.15910000 -4.00670000 4.94620000
2.29130000 -6.17210000 5.42260000
2.31980000 -4.64680000 5.89720000
3.24850000 -4.08110000 13.14840000
3.22050000 -3.09640000 13.32010000
4.42770000 -3.52020000 13.57070000
2.17960000 -6.63570000 4.61910000
4.22550000 -1.57610000 14.61110000
4.72010000 -0.53930000 14.27410000
4.57480000 -1.41130000 14.43960000
4.61030000 -3.18020000 13.55610000
2.10360000 -3.41880000 3.92160000
4.43960000 -11.75750000 7.60860000
4.47840000 -4.74960000 12.70850000
3.52020000 -2.26450000 11.86650000
3.57240000 -3.49150000 11.00800000
3.41260000 -3.04880000 12.53940000
4.81310000 -2.64000000 8.86980000
4.61780000 -8.60440000 3.80000000
4.57580000 -5.30820000 -1.74640000
3.15290000 -10.72750000 8.33700000
3.19650000 -7.77270000 7.86250000
2.98850000 -6.90540000 7.57160000
2.94820000 -8.45560000 7.70490000
3.40500000 -6.91560000 8.31780000
4.33870000 -10.95400000 8.11340000
2.66960000 -6.84870000 6.80210000
4.06720000 -10.53540000 8.31870000
2.56520000 -7.69340000 6.39220000
2.32700000 -7.64440000 5.85370000
2.59500000 -8.61160000 7.02840000
3.61640000 -10.01120000 8.35640000
4.61170000 -8.71020000 8.43530000
3.88500000 -7.30840000 10.63130000
3.34940000 -6.53550000 11.36890000
3.49330000 -7.24730000 10.44500000
3.23630000 -6.64840000 10.67490000
3.13050000 -5.38120000 11.97930000
3.20350000 -5.97290000 11.63310000
3.42300000 -5.77090000 12.21600000
2.58220000 -5.00720000 6.80260000
3.23610000 -5.82500000 11.19000000
3.33170000 -6.27570000 10.36060000
3.52670000 -6.12070000 9.92810000
3.40800000 -5.26650000 11.16730000
3.50590000 -7.20480000 10.01410000
3.63170000 -7.30980000 9.27650000
3.90880000 -6.06780000 11.98010000
4.15890000 -6.83480000 11.13960000
4.39850000 -7.33840000 10.39160000
2.88770000 -10.00970000 8.21080000
2.95110000 -9.36700000 7.89540000
3.87140000 -5.37820000 12.61100000
4.30720000 -5.53570000 12.40810000
3.48230000 -9.17830000 8.44040000
3.89620000 -9.41170000 8.48760000
4.28470000 -9.50650000 8.46990000
3.41490000 -5.59350000 8.61000000
3.83290000 -8.86300000 8.91860000
3.61190000 -4.95900000 8.83300000
3.19650000 -8.52480000 8.33160000
3.54810000 -8.31950000 8.72190000
4.55720000 -8.40240000 9.10600000
2.18800000 -2.02000000 5.53350000
2.39200000 -3.20080000 6.31490000
3.20820000 -5.02240000 12.48550000
2.22780000 -8.78010000 6.47600000
3.17660000 -4.54600000 12.32060000
4.87760000 1.40340000 4.67230000
2.24110000 -8.67460000 5.94570000
3.62060000 -2.33930000 9.89340000
2.24500000 -7.98570000 5.35690000
2.91560000 -5.09120000 7.38500000
4.27510000 -8.95540000 9.00240000
4.00670000 -8.80440000 9.27570000
3.83630000 -8.14380000 9.42770000
4.13630000 -8.43980000 9.51140000
4.45000000 -8.31610000 9.47300000
3.58930000 -2.08820000 10.71980000
3.42710000 -2.66620000 7.51690000
3.55460000 -1.62730000 8.22710000
3.63640000 -0.78550000 8.96560000
3.22490000 -4.22890000 7.61770000
2.86260000 -3.27550000 6.97440000
2.53620000 -2.69570000 6.60940000
2.08130000 -7.83960000 4.45590000
4.63050000 -1.95300000 -0.86090000
3.07040000 -5.39030000 -7.38720000
2.70300000 -5.19850000 -6.84790000
2.31520000 -6.20750000 -6.07040000
3.21710000 -7.07360000 -9.09040000
3.22890000 -6.45440000 -8.05050000
3.13720000 -4.89110000 -8.57530000
3.38060000 -6.17190000 -12.21020000
3.68230000 -7.03500000 -11.65380000
3.49480000 -7.91520000 -10.75790000
3.04480000 -5.95910000 -11.96190000
2.16590000 -4.27910000 -6.02870000
4.44130000 -3.17960000 -9.35040000
4.32790000 -4.67100000 -11.09990000
4.50180000 -8.66200000 -4.27490000
2.88960000 -5.68010000 -11.57180000
2.97380000 -4.27570000 -11.08310000
3.11000000 -4.60660000 -9.63280000
1.93550000 -6.16300000 -0.68980000
3.30350000 -4.16320000 -7.85050000
2.08740000 -5.32530000 -4.85780000
2.09790000 -4.86600000 -3.78780000
1.98100000 -4.42800000 -5.38380000
2.01060000 -5.25900000 -1.00960000
1.95220000 -2.94640000 -4.05030000
1.98380000 -6.35040000 -3.03760000
2.11540000 -5.63960000 -3.11520000
2.47510000 -3.14530000 -6.44360000
1.99530000 -2.69460000 -5.65410000
3.05900000 -2.88420000 -10.93480000
4.07680000 -6.42700000 -11.93260000
3.88280000 -5.59580000 -12.79680000
2.68210000 -2.10070000 -6.62190000
2.07030000 -3.60460000 -0.67200000
3.32290000 -0.69000000 -8.34340000
2.70610000 -2.90090000 -12.38290000
3.48610000 -0.18880000 -7.49570000
3.02290000 -4.41890000 -13.32820000
3.50700000 -4.09260000 -13.77270000
2.72580000 -3.95530000 -13.05900000
2.05540000 -3.60880000 -2.04230000
2.17820000 -3.67910000 -3.33120000
4.17970000 -5.64220000 -12.15510000
2.12150000 -2.73340000 -2.91920000
3.96040000 -4.44380000 -13.51700000
1.96900000 -1.71800000 -1.36990000
4.56850000 -1.63110000 -5.97400000
4.19280000 -3.61320000 -13.18750000
3.19110000 -2.60240000 -9.22080000
3.09070000 -3.40230000 -10.23510000
3.18460000 -0.86810000 -9.69360000
2.95970000 -1.57300000 -10.69380000
2.62660000 -2.85040000 -13.38830000
2.88290000 -1.17570000 -11.70420000
3.10030000 -1.01180000 -6.93080000
3.34570000 -1.34290000 -7.31590000
3.97050000 -8.71000000 -10.08440000
4.24200000 -8.62460000 -9.79810000
4.71980000 1.00350000 -2.78130000
4.19560000 -1.30200000 -13.87910000
4.05640000 -3.75400000 -13.81470000
3.09170000 -3.60080000 -13.87260000
2.85090000 -2.86440000 -14.13570000
3.80640000 -3.27190000 -14.26550000
3.96720000 -2.40160000 -14.58720000
2.69370000 -2.18300000 -14.29890000
2.91770000 -1.62150000 -14.94900000
3.46090000 -1.85820000 -15.04210000
4.05790000 -1.00230000 -14.82790000
3.65330000 -0.88770000 -15.33270000
3.48840000 -0.52490000 14.98920000
3.41450000 -1.73300000 14.60090000
3.96100000 -0.07150000 15.26730000
3.52220000 8.57790000 15.95990000
3.65750000 8.93470000 14.80990000
3.47670000 6.43590000 15.77130000
3.60000000 2.77120000 6.37650000
2.76660000 2.37420000 5.46050000
2.90160000 1.13310000 5.94470000
3.46570000 3.42220000 5.85210000
4.07990000 9.15170000 16.34280000
3.76270000 7.83430000 16.34150000
4.32800000 7.41620000 16.36180000
3.20200000 -1.85310000 14.13800000
3.61250000 9.80440000 16.08360000
3.64480000 11.06590000 15.09610000
5.10650000 20.63020000 3.55720000
5.14600000 14.34200000 6.22010000
5.02150000 16.88800000 1.50170000
3.27750000 -0.32050000 14.78330000
3.26500000 0.24780000 14.63890000
3.36380000 -0.39020000 13.94230000
3.52180000 -0.91640000 13.23580000
3.75290000 10.96220000 13.64320000
3.62130000 8.60850000 13.77800000
4.56160000 9.30920000 16.31330000
4.69740000 7.58720000 16.19430000
4.71560000 10.30670000 16.09540000
4.82840000 9.83770000 15.64360000
3.80550000 10.88820000 16.14530000
3.57920000 11.65080000 15.46930000
4.41460000 0.44860000 15.35730000
4.37150000 10.54970000 16.26560000
3.63820000 6.03880000 12.06630000
3.66890000 8.54180000 12.38950000
3.97830000 17.36170000 4.07000000
4.06970000 14.79640000 4.65130000
4.06930000 16.89420000 5.09350000
3.65110000 -1.49940000 12.08030000
3.69660000 -1.82590000 11.28380000
3.81180000 9.52010000 12.29990000
3.61090000 -0.75930000 11.04360000
3.49880000 -0.41120000 12.59360000
3.65580000 4.52060000 11.25090000
3.65980000 6.45590000 10.52670000
3.57310000 1.83780000 10.84240000
3.94110000 17.80090000 2.43410000
4.05890000 20.58090000 1.94190000
3.74030000 5.48850000 10.09530000
3.49380000 -0.28060000 11.92760000
3.66050000 0.84470000 11.43240000
5.22390000 22.74430000 4.92820000
3.61900000 11.64900000 15.82230000
4.01950000 12.10690000 16.02700000
3.66780000 0.95420000 15.63030000
3.43600000 1.35240000 15.59630000
3.68240000 13.48680000 15.54130000
3.53460000 2.36740000 14.16780000
3.83120000 13.15450000 14.30090000
3.65540000 3.00140000 9.19560000
3.78390000 7.25130000 8.74840000
3.73490000 5.07500000 7.68520000
3.74600000 5.13140000 6.53220000
3.61510000 0.76600000 7.35470000
3.32760000 3.08550000 15.53030000
3.89250000 13.53270000 12.51100000
3.52610000 1.07740000 12.58540000
3.80510000 13.81360000 13.56210000
4.54790000 11.65190000 16.11810000
3.53060000 3.24230000 12.39060000
4.74190000 12.25220000 15.85060000
4.64800000 1.13710000 15.40740000
5.15310000 13.00470000 9.00660000
5.27050000 24.10330000 7.63540000
5.09370000 16.15620000 12.70410000
5.01100000 9.87010000 12.70210000
4.90710000 14.25220000 14.95930000
4.38490000 13.05140000 15.94130000
4.01600000 13.82390000 15.75260000
4.71740000 13.90020000 15.70380000
3.85980000 9.14460000 10.85280000
4.00560000 1.78650000 15.88430000
3.85970000 7.63870000 7.11290000
4.90110000 3.32630000 14.62610000
4.01630000 10.14830000 7.61190000
3.73520000 15.20630000 14.73730000
3.54040000 2.90580000 15.94780000
4.50100000 14.81160000 15.60010000
4.39530000 2.59940000 15.95480000
4.27160000 18.85610000 14.38500000
3.84160000 18.47340000 14.04710000
3.93930000 18.37400000 14.42610000
4.25460000 15.83680000 15.35360000
3.91170000 19.54560000 13.84890000
3.87220000 15.31960000 15.36220000
4.13590000 20.33260000 13.72850000
3.03110000 3.45300000 5.41270000
2.43890000 2.83060000 4.58440000
4.09130000 3.36160000 16.09720000
4.52920000 20.16000000 13.90330000
4.76470000 18.82780000 14.40740000
4.92160000 19.17460000 14.04730000
3.50350000 4.65630000 14.79410000
3.87690000 19.65020000 13.43490000
4.83220000 14.58510000 15.34440000
3.31500000 4.58680000 5.15130000
4.70870000 3.15010000 15.80500000
2.63790000 3.98770000 4.00840000
2.90970000 4.06310000 4.96040000
3.99790000 21.03880000 12.61380000
4.18820000 20.81170000 12.03810000
3.89090000 17.83860000 13.52170000
3.01630000 4.89410000 4.38610000
4.73820000 15.70110000 15.34400000
4.80950000 16.73160000 15.00280000
3.97880000 21.28040000 13.02170000
2.12190000 1.37100000 4.15750000
2.13060000 2.29840000 2.96140000
2.30110000 3.57600000 3.08170000
4.86010000 20.43350000 13.68610000
5.05220000 20.75850000 12.50120000
5.07170000 4.96860000 9.28580000
2.16520000 2.89140000 1.85600000
4.96660000 21.20930000 13.04340000
2.16140000 -0.12850000 2.30640000
4.29900000 21.82530000 13.01730000
4.76110000 21.66060000 13.15000000
2.08220000 3.99790000 1.12810000
2.31470000 4.70260000 1.88720000
4.14610000 20.52060000 11.20710000
4.10990000 17.65020000 10.06890000
3.98560000 17.83690000 11.91880000
5.04970000 6.11040000 11.88710000
2.85950000 5.36970000 3.28480000
4.13400000 18.83380000 5.84700000
2.92200000 6.17070000 2.25190000
3.35630000 6.35410000 3.39780000
1.95680000 7.81740000 2.07160000
2.26810000 7.37830000 1.78470000
2.73340000 7.59730000 2.46280000
3.57170000 5.30040000 16.11210000
3.88560000 5.00670000 16.23140000
4.08100000 22.99140000 2.75210000
3.85320000 16.84110000 14.82620000
3.73210000 4.84700000 5.67420000
4.54740000 16.93510000 15.10370000
4.07520000 17.41570000 14.86750000
3.89740000 6.67430000 6.40220000
3.79340000 6.72420000 4.95120000
3.55310000 6.10530000 4.41880000
4.34770000 18.05590000 14.72100000
3.51000000 4.68320000 13.67090000
4.50490000 4.58080000 16.12890000
4.10410000 18.94140000 9.81860000
4.75700000 5.59380000 15.84260000
4.83380000 2.52790000 1.44050000
5.07130000 8.08750000 5.55490000
4.93090000 17.40820000 14.58250000
5.01430000 17.77890000 13.89130000
4.69700000 18.00730000 14.72610000
4.31690000 23.52530000 10.25420000
4.84640000 5.58270000 1.74120000
4.96050000 8.34230000 3.05350000
3.86880000 10.45040000 10.18680000
4.17820000 21.49280000 9.63840000
4.20550000 18.49930000 9.02230000
3.85280000 7.89220000 5.78040000
4.20020000 18.01090000 8.20940000
3.36460000 7.26120000 3.22730000
2.68160000 6.78840000 1.83140000
3.71230000 8.34360000 3.84900000
4.10510000 22.20050000 12.35490000
3.96540000 11.23410000 8.44550000
4.21910000 22.68310000 11.78610000
4.48810000 23.11610000 12.08540000
4.71350000 22.62470000 12.59070000
4.97750000 22.32610000 12.57070000
3.21100000 8.18380000 3.27870000
5.08360000 23.21290000 11.51860000
4.92630000 8.71170000 1.72750000
4.46070000 24.41910000 10.92440000
4.23500000 22.92210000 7.23770000
3.99620000 12.24640000 6.72780000
3.92500000 11.18940000 4.67380000
2.13030000 8.46310000 2.42500000
2.88490000 -1.80420000 6.69240000
2.80140000 9.86610000 3.06900000
1.81360000 10.12450000 2.31160000
3.90610000 14.03790000 11.16250000
4.01780000 11.97770000 9.62500000
4.36010000 25.98500000 8.42850000
3.46940000 8.99790000 3.41770000
3.75810000 9.80410000 4.08210000
4.02300000 14.56010000 10.91980000
4.95860000 23.30850000 11.96660000
4.09240000 13.71060000 8.71620000
3.31400000 10.48360000 3.34800000
4.95350000 23.85610000 11.66060000
2.05430000 -0.32550000 4.06040000
3.56190000 11.66460000 3.51890000
4.70730000 24.52040000 11.23740000
4.99820000 24.56610000 11.13500000
2.46440000 11.53660000 2.83750000
5.17030000 24.40830000 10.24580000
1.72810000 11.80770000 2.25150000
2.71110000 -0.52710000 6.22550000
3.02350000 12.39010000 3.09660000
2.16910000 -0.08950000 5.20920000
2.34090000 12.58430000 2.85620000
2.03640000 13.31260000 2.44870000
2.90310000 13.88970000 2.78410000
4.26970000 18.97740000 7.05250000
2.06630000 0.29060000 2.71660000
2.12910000 -0.21840000 1.64380000
2.31260000 0.93350000 5.18360000
3.92140000 11.77350000 5.24650000
2.04860000 2.01660000 1.63220000
1.98050000 0.15290000 1.15760000
5.02630000 10.42130000 1.93430000
4.27080000 25.49420000 5.23440000
3.74890000 12.31440000 3.95220000
5.03210000 12.06370000 2.69740000
3.38320000 -0.06550000 6.94470000
4.22370000 24.99490000 2.99810000
4.18180000 14.83870000 7.59420000
5.27430000 27.52640000 7.77730000
3.40350000 13.55200000 3.00350000
3.67120000 14.65380000 2.98010000
3.88400000 14.57840000 3.73530000
4.38980000 25.49110000 9.79110000
4.53980000 25.57210000 10.33880000
4.99620000 25.32600000 10.55080000
5.10620000 25.73280000 10.10190000
4.71670000 25.89850000 10.34260000
4.47850000 26.45880000 9.75910000
4.88330000 26.28920000 10.04500000
4.44190000 27.22850000 8.73730000
4.70490000 26.78140000 9.69690000
4.56310000 27.50110000 8.93690000
5.12700000 26.57470000 9.47720000
4.96150000 27.04810000 9.54480000
4.13670000 15.61380000 9.72830000
5.13170000 27.80220000 8.81390000
4.72690000 27.65450000 9.01210000
4.92550000 28.08750000 8.86610000
4.10250000 16.67860000 8.58540000
4.33880000 29.21730000 6.89310000
5.27030000 27.23200000 4.05260000
4.29070000 26.76490000 3.79520000
4.42780000 29.22630000 7.92390000
4.65000000 28.64010000 8.44560000
5.18740000 29.18610000 7.57060000
5.00230000 28.73180000 8.34280000
4.97440000 29.23750000 7.90910000
4.63860000 29.60970000 7.93450000
4.83390000 29.99610000 7.59820000
3.44610000 15.31090000 2.64420000
2.86760000 15.22390000 2.53930000
4.25950000 30.63560000 5.25360000
4.19240000 30.46050000 3.58260000
5.37430000 29.78860000 4.12880000
4.37110000 30.50890000 7.16390000
4.54620000 30.81740000 7.11820000
4.29890000 31.34080000 6.49090000
5.06890000 30.39440000 7.07720000
5.31270000 31.28860000 5.94440000
4.78180000 31.11020000 6.88740000
4.50270000 31.77280000 6.49030000
5.12010000 31.60820000 6.26280000
5.52760000 33.81790000 3.35710000
4.74840000 32.02160000 6.37870000
4.30090000 32.22320000 6.01340000
4.59580000 32.45510000 6.19190000
5.02680000 32.16790000 6.20790000
4.92960000 32.93540000 5.71640000
5.28770000 32.76150000 5.49070000
5.44480000 33.63400000 4.70200000
4.20620000 33.17550000 5.12600000
4.37050000 32.95790000 5.69640000
4.71470000 33.37590000 5.61420000
4.47760000 34.06080000 5.17500000
4.78640000 33.83360000 5.43200000
4.17000000 34.63170000 4.46920000
4.17330000 35.74930000 4.38240000
5.08550000 33.80140000 5.16180000
5.25870000 35.07340000 4.53680000
4.75690000 34.43620000 5.15790000
4.85960000 35.13640000 4.81490000
4.47860000 35.64600000 4.68990000
3.94750000 24.87030000 -1.98360000
3.90160000 23.83080000 -1.51390000
3.94510000 25.21700000 0.48520000
1.77480000 14.16420000 1.72270000
2.15160000 13.91930000 2.19710000
2.36200000 14.68420000 2.38470000
1.96100000 -1.50400000 0.19820000
4.30640000 6.49560000 -15.03400000
4.18240000 0.98880000 -14.62320000
4.14130000 4.04760000 -15.68410000
1.59240000 14.73100000 1.61570000
2.07590000 15.18380000 2.23240000
3.87070000 3.38260000 -16.04290000
4.00560000 5.17830000 -16.10630000
3.64990000 5.11420000 -16.25180000
2.19550000 15.69220000 2.12290000
1.72780000 15.61680000 1.58590000
3.82820000 27.36280000 -1.55970000
3.95040000 24.14340000 -3.07590000
3.56590000 6.10180000 -8.42430000
3.42000000 2.18760000 -8.23170000
3.56720000 2.37950000 -7.75530000
3.54150000 4.77910000 -7.61040000
3.43480000 4.10610000 -8.87950000
2.78450000 16.35000000 1.98340000
3.44680000 16.53540000 2.24020000
2.01460000 -0.96930000 -3.74970000
2.19980000 16.18120000 1.68600000
3.45270000 8.37840000 -8.70630000
3.25380000 3.99580000 -9.68350000
2.56150000 16.84410000 1.62420000
3.26410000 8.80050000 -10.62240000
1.84350000 16.25320000 0.74980000
2.34190000 17.02510000 1.23870000
2.41550000 17.38990000 0.75540000
2.24460000 17.26930000 -0.10550000
3.82300000 26.97560000 -4.28440000
3.77820000 24.42900000 -4.65190000
2.01280000 0.18270000 0.35990000
3.35230000 17.18720000 1.78250000
3.11890000 17.76310000 0.98820000
1.97360000 0.89980000 -0.25060000
3.61560000 7.59520000 -7.92010000
2.05160000 0.29840000 -1.82040000
3.17330000 18.21520000 0.42190000
1.77080000 16.00910000 -0.86680000
1.57300000 15.91720000 0.03300000
2.29610000 16.96530000 -0.98840000
2.83070000 2.14460000 -13.37240000
3.13980000 6.15870000 -11.65170000
2.95700000 6.93800000 -13.00650000
3.13800000 1.73350000 -10.57470000
2.15120000 0.45320000 -3.43180000
1.98480000 15.97070000 -1.44720000
2.91360000 15.50780000 -2.41030000
2.14870000 15.64300000 -1.98980000
2.82860000 16.81810000 -1.49830000
3.06020000 3.92700000 -11.19280000
3.40880000 16.34110000 -2.34490000
2.70440000 17.87360000 -0.10550000
3.58950000 17.75450000 -1.25800000
3.53940000 16.97200000 -1.76900000
3.83930000 17.08420000 -2.04600000
2.74470000 17.73480000 -0.71860000
3.38040000 18.30490000 -0.38540000
2.01950000 2.81000000 0.19870000
4.96320000 14.25250000 0.13120000
4.73640000 8.48280000 -10.55050000
4.64710000 3.85960000 -9.47640000
4.45980000 2.76860000 -12.53580000
1.96890000 2.38980000 -1.03220000
3.79320000 30.69530000 -2.99280000
3.38280000 12.99340000 -10.09000000
2.08320000 2.29470000 -3.31560000
3.54770000 8.33980000 -7.49440000
3.82070000 28.85400000 -6.01880000
4.90520000 15.77030000 -0.85950000
4.98220000 15.25340000 -2.51230000
1.90550000 -1.30090000 -4.43010000
5.04720000 18.76450000 -1.68280000
2.08070000 -0.86880000 -5.35210000
2.00660000 -0.34320000 -4.62760000
3.87210000 17.23300000 2.35280000
3.60090000 18.21490000 1.17670000
3.73650000 18.72680000 1.37540000
2.33540000 -0.00270000 -5.87190000
3.62380000 18.70240000 0.26050000
5.26060000 29.26260000 -1.70860000
5.23970000 26.43320000 -1.99310000
5.22000000 29.22380000 -3.02100000
3.71480000 9.50520000 -8.00370000
3.90070000 17.77910000 -1.90100000
5.07860000 29.88400000 -2.32390000
5.32250000 30.25390000 -1.38250000
2.84240000 0.62050000 -6.41310000
3.80050000 18.66040000 -0.77950000
3.82390000 19.26450000 -0.57150000
5.21390000 30.00220000 -3.62910000
5.26930000 30.57970000 -2.57680000
5.02400000 20.49550000 -5.66870000
5.03900000 28.28810000 -7.11530000
2.03490000 1.37120000 -4.11670000
3.43850000 14.58030000 -3.16320000
3.49090000 13.71520000 -3.31060000
2.78560000 13.85920000 -3.03810000
2.84420000 14.71040000 -2.94190000
2.31580000 14.03860000 -2.74100000
2.88620000 7.30130000 -14.54020000
5.19430000 31.93290000 -5.36950000
3.83850000 14.86760000 -3.46620000
3.56240000 15.54500000 -2.81160000
2.17220000 1.82090000 -4.89380000
2.56640000 1.59890000 -5.82460000
4.07640000 13.29100000 -4.25670000
4.01270000 15.95190000 -4.17440000
2.41010000 15.14870000 -2.58980000
3.26030000 17.98510000 -11.70240000
3.41940000 18.93080000 -10.48820000
3.37640000 21.07310000 -11.53830000
2.08650000 2.92790000 -3.74970000
2.29930000 2.54660000 -4.95690000
3.88260000 16.66790000 -3.14870000
3.55380000 22.04320000 -7.14220000
3.60390000 18.45430000 -7.85230000
3.72320000 22.58640000 -5.54500000
2.61690000 2.50070000 -5.67320000
2.93750000 3.86780000 -4.87230000
2.42120000 3.55090000 -4.09830000
3.33100000 3.41760000 -5.77800000
2.61160000 0.77980000 -6.26870000
3.83070000 16.53970000 -2.71310000
3.33470000 1.34920000 -6.74120000
2.94780000 5.45400000 -15.96570000
3.32130000 6.74410000 -16.23530000
3.21840000 4.93720000 -16.13810000
3.60890000 23.80360000 -7.82670000
3.19920000 2.21710000 -6.38790000
3.80540000 6.90260000 -16.36180000
4.16600000 7.80360000 -15.95510000
3.54680000 2.41970000 -7.10400000
4.95870000 12.14670000 -4.88940000
2.15810000 3.52070000 -1.12210000
4.51420000 12.43640000 -13.37990000
2.20190000 3.40810000 -2.59710000
3.94510000 19.77800000 -4.07030000
3.90500000 17.27910000 -5.81010000
3.41510000 19.26390000 -9.61790000
3.58730000 24.31380000 -9.16310000
2.91130000 7.47860000 -15.83020000
2.80250000 4.94160000 -15.55020000
3.14480000 8.65220000 -16.00800000
2.97030000 9.49850000 -15.31500000
4.82890000 24.22740000 -9.21210000
4.90770000 18.22580000 -8.13200000
4.55490000 18.08350000 -12.20680000
4.01640000 8.73410000 -16.18300000
3.62570000 8.75370000 -16.26240000
4.62120000 22.32500000 -11.15370000
4.71500000 12.67850000 -11.17380000
3.86950000 19.13100000 -2.25810000
4.78900000 2.99730000 -0.76130000
4.17300000 10.18080000 -15.81750000
1.01070000 8.44050000 0.53340000
1.07440000 7.30270000 0.13250000
1.18930000 7.48280000 1.08130000
1.09930000 7.70630000 -0.95530000
3.52440000 22.79170000 -11.22450000
0.93520000 11.16140000 0.00760000
1.01100000 9.30040000 -0.93480000
1.45250000 7.57020000 1.68080000
1.20130000 9.60570000 1.57510000
4.46450000 23.53570000 -11.25730000
3.77170000 24.60550000 -10.57990000
3.70190000 25.28090000 -9.73470000
1.07070000 11.16820000 -0.87210000
1.60280000 7.75810000 -1.92010000
1.38410000 7.13170000 -1.12280000
1.29840000 8.38370000 -1.79330000
3.28720000 17.10500000 -12.53820000
3.39540000 20.21880000 -12.66880000
3.53720000 21.20600000 -12.49130000
3.33630000 18.66150000 -13.18650000
3.44320000 19.42950000 -13.31630000
1.73930000 8.93870000 -2.48300000
3.69670000 19.95190000 -13.30420000
3.92480000 20.59770000 -13.02200000
4.16930000 19.49180000 -13.52480000
2.17100000 8.19170000 -2.77260000
1.21690000 10.47700000 -1.62680000
1.81450000 11.16100000 -2.39580000
2.08490000 10.13530000 -2.84840000
4.32000000 20.42100000 -12.87220000
1.03910000 10.84850000 1.06820000
4.19660000 21.87860000 -12.34590000
4.50910000 20.39180000 -12.36080000
4.48720000 22.01990000 -11.95220000
4.81770000 6.05020000 -1.46750000
4.62420000 1.92750000 -6.47920000
3.84050000 22.47220000 -12.08320000
5.22650000 23.76400000 1.80020000
4.86510000 12.94950000 -8.34120000
1.33290000 11.38280000 1.66280000
3.74480000 23.42760000 -11.41850000
4.14320000 23.72170000 -11.41470000
1.28950000 12.48650000 1.66590000
1.11600000 12.96500000 0.96960000
3.99650000 24.73900000 -10.73110000
4.57680000 24.19080000 -10.79440000
4.29570000 24.70100000 -10.80430000
3.70170000 12.15270000 -7.87110000
3.86430000 11.53310000 -6.80500000
3.85790000 14.58190000 -6.95310000
1.19310000 13.04810000 -1.23870000
1.79940000 13.69880000 -2.22150000
4.82650000 6.42290000 -6.11480000
2.51660000 9.52380000 -3.10980000
2.80720000 8.72450000 -3.05870000
3.99040000 8.99160000 -3.77950000
3.55660000 8.56310000 -3.24470000
3.62050000 9.88160000 -3.41460000
2.59240000 10.92770000 -3.11330000
3.22920000 11.52850000 -3.35360000
4.03150000 10.61560000 -4.00320000
4.10340000 8.96930000 -4.20800000
4.21490000 10.85090000 -4.42040000
4.15220000 10.97160000 -4.92820000
3.95400000 9.91720000 -5.36140000
3.69360000 11.85960000 -3.55370000
3.65200000 3.77400000 -6.60030000
3.83500000 7.71700000 -4.74830000
3.93480000 8.60730000 -5.59490000
4.66230000 25.02010000 -10.28650000
4.46000000 25.07150000 -10.51850000
3.56680000 15.17080000 -8.77370000
3.79730000 10.21300000 -7.42320000
3.72110000 8.75980000 -6.96660000
4.77860000 26.11820000 -9.33610000
3.94820000 9.40320000 -6.33220000
4.94920000 10.04190000 -6.78940000
3.84860000 27.37080000 -8.03170000
2.04270000 4.09100000 -0.72490000
2.56810000 12.34840000 -3.14530000
2.19190000 4.84490000 -0.48410000
2.50690000 5.40780000 1.30120000
3.85510000 13.06930000 -3.95030000
2.45170000 4.06690000 -2.82600000
2.28760000 4.47730000 -2.28290000
3.50480000 14.42150000 -9.87260000
3.30260000 13.21930000 -11.35730000
4.16030000 25.55500000 -10.23970000
4.45220000 25.67350000 -10.13830000
3.96400000 26.10880000 -9.69470000
4.23200000 26.33490000 -9.68260000
3.02130000 5.11280000 -3.90990000
4.60830000 26.25010000 -9.62990000
2.68460000 5.15650000 -3.39090000
2.50880000 5.38450000 -2.55350000
4.01760000 27.06860000 -8.84010000
2.81730000 5.95540000 -2.84430000
2.41320000 5.55770000 -0.17570000
1.12360000 13.88960000 0.29970000
4.38790000 27.26310000 -9.01460000
1.47090000 7.11980000 1.15410000
1.62920000 6.72990000 0.24610000
2.11640000 6.67770000 1.02410000
1.34080000 6.94650000 -0.55520000
1.97410000 6.39720000 -0.24510000
1.49390000 13.58300000 1.65860000
1.31090000 14.11910000 0.96920000
2.55990000 6.12110000 1.44760000
4.83880000 27.89170000 -8.28030000
4.61330000 27.08890000 -9.07910000
2.39260000 6.08140000 0.52910000
4.55690000 28.34260000 -8.26470000
2.33800000 6.09990000 -0.57900000
1.25770000 15.09010000 0.58920000
1.99100000 6.71760000 -1.17400000
1.90850000 7.13890000 1.50150000
1.18530000 14.13710000 -0.56920000
4.11460000 28.29990000 -8.06300000
1.41980000 14.32190000 -1.48970000
4.08450000 29.25240000 -7.18770000
3.93720000 30.56950000 -6.07030000
4.40060000 29.06920000 -7.73840000
4.74310000 28.71380000 -7.96830000
1.25760000 15.08280000 -0.61010000
2.62290000 6.02370000 -1.60730000
1.63300000 15.21100000 -1.75500000
4.23020000 30.21120000 -6.84720000
2.70720000 6.48600000 -1.66600000
2.62750000 6.98520000 -1.94020000
3.18320000 6.91640000 -2.53690000
3.13470000 6.46920000 -3.05350000
4.98940000 28.81170000 -7.53910000
4.96190000 30.33000000 -6.74930000
4.78280000 29.21370000 -7.65990000
2.25660000 7.56100000 -2.35000000
2.96300000 7.76810000 -2.77500000
3.46650000 7.63970000 -2.94440000
4.63520000 30.17720000 -6.99610000
3.14570000 11.49990000 -11.90760000
4.90550000 7.54100000 0.13520000
3.76060000 30.97610000 0.43980000
3.73660000 33.26070000 -0.66910000
4.31990000 13.60720000 -14.84970000
3.11430000 13.25620000 -13.51000000
4.15990000 13.20890000 -15.30260000
4.20190000 15.40340000 -15.01590000
3.99920000 14.20630000 -15.30810000
3.84110000 15.56770000 -15.03410000
4.01970000 16.40410000 -14.80850000
4.29300000 16.60290000 -14.48740000
3.59980000 16.35650000 -14.72960000
3.94910000 17.53000000 -14.41780000
4.35250000 17.75530000 -14.02930000
4.93740000 10.80720000 -1.39190000
3.03120000 4.62050000 -4.20490000
5.44680000 32.07930000 1.10720000
5.31320000 31.58020000 -3.46590000
3.29730000 15.73220000 -14.56580000
5.45420000 34.75650000 -0.28900000
3.40860000 18.35120000 -13.87600000
3.94160000 32.64970000 -4.01030000
2.75590000 5.61430000 -3.60360000
4.35860000 18.96130000 -13.57160000
3.54150000 5.50760000 -4.45290000
3.69930000 5.06180000 -5.33680000
3.74390000 19.07230000 -13.75880000
3.98160000 32.22690000 -5.30580000
3.81140000 6.53000000 -4.02910000
3.73210000 5.96280000 -5.83380000
3.88910000 6.58120000 -4.94240000
3.92600000 34.34800000 -3.92670000
3.56100000 17.92500000 -14.17420000
2.99790000 11.50810000 -14.44800000
4.20560000 18.09210000 -14.16910000
3.66180000 5.04030000 -7.01020000
3.99630000 18.54250000 -14.04800000
3.14210000 10.14970000 -15.60630000
4.16370000 33.49370000 -4.81220000
3.40820000 10.35790000 -15.86340000
3.81380000 10.31960000 -16.02930000
3.93090000 20.63970000 0.80120000
3.84640000 20.48170000 -0.34890000
3.77360000 36.42800000 -1.48160000
3.87300000 7.23590000 -6.08910000
3.23090000 6.14520000 -3.65210000
3.68030000 6.81340000 -3.35500000
4.44340000 34.43450000 -4.32380000
4.78060000 32.96710000 -5.21770000
3.95270000 22.84880000 0.55340000
3.85100000 21.54580000 -1.68760000
4.00120000 34.76590000 -3.93790000
3.22030000 11.51830000 -15.26590000
3.76920000 12.22710000 -15.60340000
4.97770000 9.49770000 -3.75430000
3.27500000 12.52850000 -15.32330000
4.07030000 31.55460000 -5.90620000
4.44080000 31.93270000 -5.83730000
5.13980000 32.59330000 -5.25800000
5.31820000 29.84150000 2.94710000
3.69540000 7.54720000 -3.13530000
3.86400000 7.90910000 -4.12600000
3.10260000 12.77130000 -15.00680000
3.57090000 13.43330000 -15.37130000
3.43060000 14.44870000 -15.13160000
3.99390000 36.00170000 3.07350000
3.94040000 31.16030000 1.74710000
5.50930000 35.54270000 3.90440000
5.53860000 37.81370000 2.82330000
3.78660000 36.88860000 0.82720000
5.52210000 37.85770000 0.30180000
3.19810000 -0.03010000 -8.85550000
5.43070000 35.75320000 -1.91130000
5.29270000 34.70040000 -3.78280000
5.05710000 34.31360000 -4.37020000
4.63130000 35.71580000 -3.64540000
4.09430000 35.89870000 -3.47220000
5.12860000 35.99290000 -3.37840000
5.36580000 35.86960000 -2.95100000
4.87490000 36.77980000 4.04730000
4.17570000 36.81120000 4.17430000
3.99390000 37.67110000 3.46760000
4.45010000 36.94850000 4.20750000
4.66680000 37.71350000 3.66800000
4.12650000 37.73280000 3.78960000
3.96730000 38.22810000 1.93600000
3.95630000 38.68890000 1.05030000
4.23480000 38.54290000 3.47530000
4.03350000 39.13680000 3.13180000
3.98670000 39.45820000 2.58920000
3.77710000 38.79900000 0.17040000
3.92870000 40.48940000 0.08980000
2.69050000 1.31290000 -14.61230000
2.68500000 -1.10540000 -14.53440000
5.41190000 37.24900000 3.50650000
3.06590000 -0.43650000 -15.41240000
5.27360000 38.61900000 3.11720000
2.81260000 1.61530000 -15.40770000
3.90490000 -0.25990000 -15.34830000
3.37820000 -0.03770000 -15.55450000
4.03610000 0.43620000 -15.30010000
5.49770000 39.46880000 1.99330000
4.13950000 26.87860000 1.90350000
4.68650000 39.33480000 3.06630000
4.85700000 39.78050000 2.91910000
4.09430000 40.05460000 2.88170000
4.24420000 39.99970000 2.93950000
4.12620000 41.00160000 2.15890000
3.24820000 1.02630000 -15.73000000
4.36710000 40.44720000 2.94100000
3.76610000 0.59440000 -15.67820000
4.58350000 40.75820000 2.62800000
3.59610000 1.61760000 -15.87800000
5.27970000 40.04290000 2.52930000
3.98980000 1.94090000 -15.73590000
4.16220000 41.24310000 1.49230000
4.93870000 41.17500000 2.38150000
5.36570000 41.84230000 1.47280000
5.43470000 40.97420000 -0.61640000
5.35000000 28.62100000 2.02180000
2.98060000 1.89190000 -15.70700000
3.09700000 2.78290000 -15.88340000
3.94810000 36.64680000 -2.85690000
3.45200000 3.20000000 -16.01340000
3.85990000 37.91920000 -2.11590000
2.89600000 4.04840000 -15.82730000
5.38970000 37.78500000 -1.98070000
4.22470000 37.30180000 -2.82970000
4.98290000 37.21450000 -2.86120000
5.28040000 36.96410000 -2.74180000
4.58160000 38.13360000 -2.45280000
5.24900000 38.14660000 -2.28750000
3.83880000 39.02470000 -1.00090000
3.95310000 38.85030000 -1.92420000
4.55110000 39.05310000 -1.96240000
4.21640000 39.70100000 -1.65040000
3.97270000 39.64190000 -0.53110000
4.00220000 40.34800000 -1.08220000
5.17240000 38.87160000 -2.01050000
5.05970000 39.45090000 -1.84110000
5.41460000 39.52360000 -1.45540000
5.24210000 40.19280000 -1.41540000
4.60700000 40.78290000 -1.20540000
4.11940000 41.09520000 -1.00620000
5.21630000 41.34830000 -0.93880000
4.14940000 40.86720000 2.54540000
4.37840000 41.55720000 2.42710000
4.22070000 41.94130000 2.01340000
3.93340000 41.38460000 0.73500000
3.98400000 42.48450000 0.78350000
3.92730000 43.01020000 0.24530000
4.87030000 42.02460000 2.07650000
5.26340000 41.71420000 2.00580000
5.22870000 42.93250000 0.15220000
4.47610000 42.34230000 2.05050000
4.23250000 42.43640000 1.34580000
4.47620000 43.16370000 1.27340000
4.85250000 42.89690000 1.82850000
5.16700000 42.83590000 1.54730000
4.79140000 43.49160000 1.45090000
