-4.66974000 -0.93864700 -4.16304000
-4.69855000 -1.09711000 -4.10947000
-4.43785000 -2.96407000 -1.84133000
-4.41281000 -3.03446000 -2.16971000
-4.35970000 -2.72831000 -2.07420000
-4.36415000 -2.60718000 -1.90291000
-4.40054000 -2.53806000 -1.75168000
-2.89686000 -6.07474000 0.55709700
-3.02988000 -6.00153000 0.40160100
-2.68239000 -6.11305000 0.64890500
-2.63449000 -5.97705000 0.74443000
-3.72431000 -5.35111000 1.71553000
-3.82671000 -5.22086000 1.68948000
-3.28701000 0.85002600 -1.79154000
-5.11451000 -0.78228100 -4.09132000
-5.25061000 -0.64384900 -4.02966000
-4.96677000 -0.70603000 -4.09320000
-5.36604000 -0.72077200 -4.00851000
-5.36619000 -0.94304100 -4.03059000
-5.68570000 -0.31328800 -3.91728000
-5.50751000 -0.48994500 -4.00592000
-5.17302000 -0.59938300 -4.13871000
-6.05551000 -0.05140400 -3.16492000
-4.29182000 -0.61766800 -1.34239000
-4.46935000 -0.52681100 -1.35937000
-4.54871000 -0.58528800 -1.38170000
-4.61089000 -0.53704700 -1.29100000
-4.73234000 -0.52458500 -1.35233000
-0.78334400 -4.17754000 3.26374000
-0.27660900 -4.10134000 3.34737000
-5.65659000 0.60956600 -1.84348000
-5.47462000 0.74154700 -1.62359000
-5.38224000 0.80463200 -1.65059000
-5.54006000 0.83314000 -1.71554000
-1.65955000 -4.30157000 2.98977000
-2.02195000 -4.42907000 2.57701000
-4.86166000 2.06771000 -2.25041000
-4.69519000 0.68983400 -1.27500000
-4.74160000 0.53034700 -1.25006000
-4.65621000 1.69060000 -1.58558000
-2.27539000 -5.34044000 1.03132000
-2.33541000 -5.06901000 1.08967000
-5.52886000 -5.47298000 -1.38316000
-5.60964000 -5.41203000 -1.11419000
-4.36370000 1.74556000 -1.48852000
-4.57510000 1.87332000 -1.60174000
-4.76360000 1.71273000 -1.65800000
-5.55786000 0.09800400 -3.75367000
-5.65582000 -0.17368500 -3.76428000
-4.09671000 -0.80765800 -4.11308000
-4.07234000 -0.66037700 -4.12194000
-4.23797000 -2.22690000 -3.02618000
-4.02727000 -1.69870000 -3.07013000
-4.20214000 -2.24376000 -2.76612000
-4.35697000 -2.69095000 -2.79099000
-2.64459000 -6.25643000 0.38363700
-4.74030000 -0.31537200 -1.23520000
-2.30151000 -6.32326000 0.27855300
-2.47251000 -6.30055000 0.16355500
-2.61923000 -6.26327000 0.05915200
-4.67795000 -3.96205000 -2.49156000
-4.76427000 1.35763000 -1.18479000
-4.94450000 1.40381000 -1.30989000
-4.86939000 1.19314000 -1.21583000
-4.72443000 1.16237000 -1.18819000
-4.54222000 -1.64057000 -1.39523000
-4.02108000 -3.88941000 -0.14579200
-4.54688000 -3.70214000 -0.69028000
-4.18395000 -3.81840000 -0.13141500
-3.36671000 -0.46263500 -2.50167000
-3.41382000 -0.27835600 -2.27034000
-3.41719000 -0.34232200 -2.16015000
-3.55471000 -0.18369700 -1.98121000
-6.58271000 -4.67913000 -2.24324000
-6.45951000 -4.84410000 -1.90746000
-6.63098000 -4.22981000 -2.31256000
-6.63423000 -4.52356000 -2.24091000
-4.84460000 -0.63706500 -4.21071000
-3.05937000 -5.32018000 2.31209000
-2.97824000 -5.38996000 2.45320000
-5.84372000 -0.66849400 -3.82527000
-5.95850000 -0.59227000 -3.68596000
-5.91355000 -0.43258600 -3.74335000
-5.93907000 -0.72255100 -3.63864000
-5.73380000 -0.87730800 -3.67240000
-5.59423000 1.26851000 -3.28303000
-5.56878000 1.51575000 -3.29974000
-5.56781000 1.56658000 -3.19114000
-5.74181000 1.64901000 -3.28281000
-0.74992800 -4.63909000 3.04940000
-0.74772700 -4.66945000 3.07813000
-0.83912200 -4.73394000 3.07007000
-0.40849600 -4.56492000 3.13120000
-4.27095000 1.86277000 -1.54843000
-4.13143000 1.62515000 -1.41549000
-3.99592000 1.54879000 -1.47545000
-0.64048800 -4.66900000 3.14906000
-0.43613700 -4.61568000 3.22170000
-0.22362200 -4.57497000 3.31382000
-3.02957000 -5.42663000 2.31445000
-3.02990000 -5.35037000 2.18437000
-3.10652000 -5.41064000 2.11446000
-4.38778000 -0.32957700 -1.31423000
-4.87542000 -0.76097600 -1.38163000
-4.83740000 -0.55195300 -1.38029000
-5.07357000 -0.68661400 -1.42126000
-4.65701000 -0.76156100 -1.38822000
-6.07255000 -2.79648000 -1.35934000
-6.07240000 -1.95502000 -1.69635000
-3.75613000 -0.07870700 -1.71705000
-3.85353000 1.57855000 -1.64816000
-3.77067000 1.67804000 -1.68186000
-5.29374000 -1.04457000 -3.97384000
-5.20438000 -1.10296000 -3.88601000
-5.32700000 -1.09209000 -3.83845000
-5.38721000 -1.10596000 -3.79239000
-5.26585000 -1.35379000 -3.81606000
-5.48140000 -1.60104000 -3.67370000
-3.27354000 -4.66198000 1.93422000
-3.39217000 -4.79070000 1.98610000
-3.47021000 -4.94243000 1.99060000
-5.37864000 -0.13650800 -1.27890000
-5.24445000 -0.24623700 -1.25354000
-5.48097000 0.14259900 -1.25475000
-5.41572000 0.32632200 -1.22283000
-5.47081000 0.20661900 -1.37214000
-5.83391000 0.11167500 -3.22672000
-5.83206000 0.25332500 -3.05864000
-4.72204000 1.20924000 -4.31179000
-4.52120000 1.07910000 -4.39003000
-4.53966000 -5.48656000 0.65151900
-4.68058000 -5.37431000 0.67956900
-5.08440000 -5.28823000 0.20371000
-5.46987000 -0.61553800 -1.63039000
-5.50664000 -1.29789000 -1.43165000
-5.31916000 -0.68908500 -1.51419000
-2.11486000 -4.58355000 1.51464000
-2.26514000 -4.55323000 1.48157000
-2.16253000 -4.54286000 1.34549000
-2.37655000 -4.56476000 1.38259000
-2.28097000 -4.43799000 1.53638000
-2.27738000 -4.42936000 1.76546000
-6.01599000 -0.01662100 -2.52237000
-6.03246000 -0.16718600 -2.30904000
-5.98653000 -0.01756900 -2.39860000
-1.38754000 -5.38696000 2.87265000
-1.32799000 -5.08704000 3.18123000
-1.24566000 -5.07771000 3.17163000
-0.94396000 -4.87484000 3.08457000
-4.64407000 -5.05568000 -2.04926000
-4.26860000 0.12674400 -1.37006000
-4.39230000 0.30811700 -1.27208000
-4.36084000 0.14372300 -1.22838000
-4.17551000 0.30096200 -1.26920000
-4.27620000 0.28740400 -1.34034000
-5.98779000 -0.09087400 -3.40918000
-5.81919000 -0.25226600 -3.76323000
-2.66936000 -4.47792000 1.69483000
-2.61036000 -4.48601000 1.55080000
-5.62564000 0.99077900 -2.58782000
-5.56693000 1.34202000 -2.84003000
-5.39350000 1.11960000 -2.14026000
-5.42440000 1.21513000 -2.09379000
-5.27543000 1.45019000 -2.26656000
-5.81148000 -3.69720000 -0.87263600
-5.99632000 -3.86609000 -0.88616300
-5.23838000 1.54840000 -3.88013000
-5.11182000 1.25725000 -4.06591000
-5.93674000 -2.77214000 -1.24864000
-6.07313000 -3.61800000 -1.09481000
-5.98758000 -3.68717000 -0.99676100
-4.59025000 -3.75871000 -1.31536000
-4.49254000 -3.88744000 -1.45359000
-4.26798000 -4.02565000 -1.11383000
-4.44543000 -3.88369000 -1.19939000
-1.13079000 -4.37968000 2.84076000
-1.02641000 -4.56440000 2.70173000
-0.89771900 -4.55844000 2.61071000
-4.97702000 1.54102000 -1.59679000
-5.25340000 1.55931000 -1.72786000
-5.08559000 1.45177000 -1.72184000
-5.22010000 1.41850000 -1.71593000
-5.33624000 1.52149000 -1.85188000
-5.66328000 -0.69997300 -3.85073000
-5.70592000 -0.85285700 -3.76457000
-5.79184000 -0.80153500 -3.79595000
-5.21791000 -1.23724000 -1.33523000
-5.08916000 -1.34899000 -1.28943000
-4.81084000 -1.08700000 -1.32754000
-5.00468000 -3.33496000 -1.13011000
-4.89495000 -3.42343000 -1.19816000
-4.94464000 -3.52311000 -1.11412000
-4.77158000 -3.51676000 -1.29759000
-2.54307000 -4.36646000 1.66483000
-3.13760000 -4.28064000 1.11844000
-3.32303000 -0.19522200 -2.34531000
-3.36090000 -0.36438900 -2.45843000
-3.46813000 -0.05800000 -1.99842000
-4.82244000 0.04264400 -1.09802000
-4.69834000 0.11181400 -1.08245000
-4.87035000 0.23166300 -1.11550000
-4.91488000 0.12210200 -0.99398100
-5.01192000 0.35854400 -1.15530000
-5.18879000 0.39851800 -1.23234000
-5.06363000 0.33406700 -1.01512000
-4.81186000 0.86461000 -1.35176000
-3.24295000 0.43863500 -2.02301000
-1.18751000 -4.93436000 1.47314000
-1.26996000 -5.04533000 1.41774000
-1.05438000 -6.33647000 0.01002400
-1.02816000 -6.57664000 1.20214000
-0.84958800 -6.56731000 1.10321000
-1.09416000 -6.57796000 1.00367000
-5.65303000 -0.83775400 -3.88098000
-5.59804000 -0.59087200 -3.86957000
-5.45411000 -0.58131900 -3.95744000
-5.56667000 -0.70422000 -3.99024000
-5.53719000 -0.54754600 -3.89823000
-5.51702000 -0.87104700 -3.97821000
-1.12517000 -5.61842000 2.87571000
-1.32688000 -5.63181000 2.72930000
-4.93835000 1.24338000 -1.36526000
-4.93552000 1.46046000 -1.40469000
-5.41257000 -3.56482000 -3.21718000
-5.09491000 -3.69724000 -3.06094000
-4.62751000 -2.62257000 -3.33974000
-2.29896000 -4.58960000 2.21466000
-2.43723000 -4.44356000 2.09318000
-2.47126000 -4.56194000 2.13867000
-5.94614000 -0.67330500 -3.17248000
-5.95936000 -0.65793900 -3.06381000
-5.41373000 -5.50350000 -1.62548000
-4.54596000 2.33684000 -1.86560000
-4.62251000 2.31196000 -1.89980000
-4.43219000 2.32328000 -1.82317000
-4.74882000 -5.22131000 -2.02123000
-4.93221000 -5.20236000 -2.21242000
-5.06484000 -5.46154000 -1.88537000
-0.99311800 -5.45949000 2.77675000
-1.01549000 -5.50216000 2.77997000
-2.03046000 -6.20227000 0.92753400
-1.93640000 -6.11989000 1.05526000
-1.84958000 -6.21838000 0.93240900
-1.38404000 -6.42450000 1.09757000
-5.39581000 0.46832200 -1.38403000
-5.41822000 0.31294400 -1.35343000
-5.31056000 0.39006000 -1.28405000
-5.25179000 0.52681800 -1.29594000
-2.56298000 -4.46962000 2.12936000
-2.69850000 -4.43618000 2.19473000
-2.56385000 -4.49534000 2.22427000
-2.47949000 -4.63422000 1.16798000
-2.48268000 -4.79701000 1.02912000
-2.60706000 -4.66175000 0.98987400
-2.78539000 -4.72867000 0.62369100
-3.38786000 -0.55452600 -2.55901000
-1.27432000 -4.70268000 3.50051000
-3.07819000 -5.20299000 2.41014000
-3.05591000 -5.24991000 2.31422000
-3.01803000 -5.18497000 2.48314000
-2.87283000 -5.76294000 2.10094000
-2.97825000 -5.57176000 2.03379000
-2.90018000 -5.81335000 2.07476000
-3.05398000 -5.83287000 1.87073000
-6.58021000 -3.93975000 -1.71444000
-6.59743000 -3.78658000 -1.87832000
-6.63618000 -4.10086000 -1.91015000
-6.32849000 -2.34944000 -2.02250000
-3.42791000 -0.19529000 -3.71977000
-3.29188000 -0.45282800 -3.25350000
-3.22674000 -5.94998000 0.19877100
-3.10182000 -6.03670000 0.28141000
-1.97096000 -6.25065000 0.83213100
-1.67695000 -6.23680000 0.96676300
-1.72777000 -6.31595000 0.86952500
-1.77796000 -6.36218000 0.71392000
-2.45444000 -5.87715000 0.85654500
-2.34839000 -5.65248000 0.94816200
-2.18515000 -5.63163000 1.04847000
-2.12601000 -5.45813000 1.07845000
-1.03868000 -4.24468000 3.09608000
-0.79205900 -4.28231000 3.12413000
-1.00022000 -4.35232000 2.98809000
-1.16026000 -4.22723000 3.11020000
-0.99936000 -6.47972000 1.29268000
-0.81481300 -6.46412000 1.27764000
-4.98787000 -1.41057000 -3.87314000
-2.38806000 -4.39290000 1.93155000
-3.62272000 0.12884300 -1.72401000
-3.51548000 -1.09525000 -3.20690000
-3.69931000 -1.08044000 -2.99498000
-3.68223000 -1.12484000 -3.08423000
-6.17325000 -2.74155000 -3.00060000
-6.44859000 -3.77275000 -2.69883000
-5.61802000 -0.98082000 -3.63127000
-6.06842000 -2.04866000 -3.10982000
-5.88206000 -1.65819000 -3.34753000
-5.92119000 -2.13495000 -3.28059000
-3.46364000 -0.82832900 -2.35739000
-3.47248000 -0.74794100 -2.45696000
-3.57512000 -0.88480200 -2.09979000
-3.53599000 -0.94884300 -2.34178000
-4.10492000 -5.85477000 0.09498600
-5.28069000 0.76684000 -1.44096000
-5.56446000 -0.09854500 -1.36983000
-4.38776000 -0.83016300 -1.45915000
-4.38834000 -0.66184900 -1.44589000
-4.48017000 -0.48470800 -1.24573000
-6.13736000 -0.24601000 -2.50354000
-6.06706000 -0.15175900 -2.60772000
-6.11111000 -0.33887100 -2.58447000
-6.15307000 -0.16911600 -2.73936000
-6.14700000 -0.44517700 -2.67659000
-5.13687000 1.66736000 -2.10449000
-5.06643000 1.87938000 -1.97732000
-2.95111000 -4.63115000 2.27386000
-2.74344000 -4.60022000 2.33197000
-1.53958000 -4.69500000 3.38572000
-2.19273000 -4.95348000 2.92523000
-2.40543000 -5.02752000 2.78209000
-2.58882000 -4.92240000 2.59260000
-3.76001000 -4.65582000 -0.76273400
-3.28607000 -4.77714000 -0.10347300
-3.44679000 -4.88956000 -0.41648800
-3.58517000 -4.72144000 -0.54443400
-1.52606000 -5.62306000 1.33584000
-4.89517000 -5.06362000 -2.30287000
-4.84882000 -4.92744000 -2.34741000
-0.93074000 -5.79783000 2.84752000
-0.96088900 -5.70064000 2.91880000
-1.64880000 -6.42746000 0.53426300
-1.40757000 -6.45388000 0.37472900
-5.33260000 -3.36225000 -0.98385500
-5.99347000 -3.22078000 -3.15844000
-6.06897000 -4.39170000 -2.95584000
-3.43499000 -0.73828900 -3.25745000
-3.46015000 -0.85807600 -3.13116000
-4.23164000 -1.48773000 -3.65184000
-3.95327000 -1.26595000 -3.55830000
-3.93620000 -1.53188000 -2.65714000
-3.81922000 -1.30341000 -2.62465000
-0.74164900 -4.30089000 3.72529000
-0.67659900 -4.17346000 3.65025000
-3.58683000 -1.10751000 -3.44919000
-3.49967000 -0.93266600 -3.40772000
-3.63471000 -1.17987000 -3.28686000
-3.77096000 -1.18770000 -3.30228000
-6.01655000 -0.57495000 -2.72297000
-5.09688000 0.03436800 -0.97769500
-3.74743000 -1.10606000 -2.43149000
-4.22783000 -0.70496800 -1.52037000
-3.96829000 -0.67648800 -1.47672000
-4.19342000 -0.64907900 -1.47980000
-4.08627000 -0.50636500 -1.43676000
-4.17871000 -0.61130300 -1.39046000
-4.11030000 -0.39542200 -1.36187000
-4.10856000 -0.27339700 -1.40982000
-4.16648000 1.49906000 -1.40868000
-4.27560000 1.39675000 -1.39211000
-3.95301000 1.45627000 -1.38733000
-3.84186000 1.42439000 -1.61831000
-4.24396000 1.02989000 -1.33213000
-3.97817000 1.30535000 -1.33567000
-4.00879000 1.16708000 -1.36527000
-2.12653000 -6.33575000 0.32486000
-4.75560000 1.06640000 -4.30377000
-4.90006000 0.51456500 -4.22176000
-6.00448000 -0.05278300 -2.61412000
-6.17765000 -0.28326000 -3.01312000
-6.11305000 -0.18408100 -2.99027000
-5.31349000 -0.78811000 -4.08176000
-5.19568000 -0.77487400 -4.09229000
-5.27929000 -0.97119400 -4.05982000
-5.15990000 -0.97223800 -4.02639000
-5.00366000 -0.84527900 -4.14734000
-5.09786000 -1.07159000 -4.02769000
-5.94940000 -5.20057000 -2.38813000
-4.74333000 0.40609400 -1.24214000
-4.40903000 -3.00203000 -2.44500000
-4.52446000 -3.64794000 -2.35545000
-4.45336000 -3.19704000 -2.46303000
-5.00476000 1.54359000 -1.71096000
-0.11356700 -4.59568000 3.47802000
-3.46522000 -4.40181000 1.52397000
-4.72768000 -5.63284000 0.02876800
-5.35326000 1.61635000 -1.95766000
-5.36724000 1.40544000 -1.88068000
-3.57279000 1.20832000 -1.63297000
-1.37909000 -5.61379000 2.70699000
-5.73243000 0.59295900 -2.51076000
-5.84697000 0.19616500 -2.65515000
-5.79858000 0.22091200 -2.38612000
-3.97224000 -1.08491000 -3.87778000
-3.92771000 -1.12399000 -3.77705000
-3.95790000 -1.22961000 -3.68612000
-3.58057000 -0.83421900 -3.61988000
-3.57612000 -0.92111900 -3.51303000
-3.60964000 -1.04350000 -3.54010000
-3.71073000 -0.90419700 -3.56012000
-3.82657000 -1.02683000 -3.78451000
-3.79654000 -1.11213000 -3.75159000
-4.19372000 -1.20026000 -3.94693000
-4.33664000 -1.25789000 -3.84200000
-4.27807000 -1.16602000 -3.93522000
-4.36133000 -1.13944000 -4.04735000
-4.08363000 -0.88907000 -3.95228000
-4.57472000 -0.89321100 -4.09854000
-4.48904000 -0.95551000 -4.13940000
-5.78582000 -0.82077900 -3.45442000
-3.86026000 -0.57901900 -1.48079000
-5.58090000 -0.45072500 -1.79777000
-0.79723700 -6.53161000 1.20356000
-0.67350500 -6.43694000 1.02782000
-1.84693000 -4.42492000 3.13707000
-2.68812000 -4.90780000 2.44672000
-1.10392000 -4.67646000 1.79848000
-1.70410000 -4.71535000 1.63660000
-1.10990000 -4.55418000 2.10162000
-6.27585000 -4.99686000 -1.62814000
-2.72104000 -5.00832000 2.44080000
-2.82741000 -4.94775000 2.49625000
-2.88767000 -4.99971000 2.53740000
-4.35207000 -2.17559000 -1.67936000
-4.46601000 -2.54245000 -1.61418000
-4.22179000 -2.04150000 -1.86929000
-5.59354000 0.88524500 -1.82378000
-6.03820000 -0.60678100 -3.46095000
-5.97850000 -0.69100100 -3.35313000
-5.86364000 -0.74153500 -3.26152000
-6.46976000 -4.29848000 -2.66868000
-6.55514000 -4.06769000 -2.52346000
-6.05985000 -4.86512000 -2.79106000
-4.41674000 -4.03051000 0.57540400
-3.90723000 -5.38423000 -0.84934900
-3.48319000 -0.85475400 -2.17338000
-3.50046000 -0.81474300 -2.08348000
-3.48925000 -0.63049900 -2.08227000
-4.95288000 0.23316100 -0.99585500
-5.05560000 -2.12959000 -1.16926000
-3.56115000 -0.48429900 -3.76033000
-1.31455000 -6.45015000 0.07861100
-1.25365000 -6.45978000 0.36118800
-5.52221000 1.51520000 -3.45501000
-4.44744000 0.07728700 -1.18693000
-4.25524000 -0.00678700 -1.24187000
-4.62983000 -0.08401100 -1.24624000
-3.50970000 -5.64026000 1.54449000
-3.66627000 -5.79604000 1.32513000
-2.85748000 -4.47063000 2.09185000
-2.83451000 -4.47674000 2.19128000
-6.07165000 -0.09759000 -2.41971000
-6.08143000 -0.37737100 -2.35816000
-6.00577000 -0.38826800 -2.29516000
-6.01308000 -0.10296200 -2.20379000
-5.98971000 -0.40721400 -2.18940000
-5.89733000 -0.49217100 -2.22811000
-5.47852000 0.08145700 -1.35986000
-6.00412000 -0.31392100 -2.08564000
-5.97624000 -0.12498500 -2.07583000
-5.84233000 -0.37256500 -1.90471000
-5.65300000 -0.38014800 -1.77946000
-5.70651000 -0.27261800 -1.74673000
-5.71730000 -0.46442900 -1.89984000
-5.66625000 -0.52287300 -1.84471000
-4.33139000 1.42275000 -1.39750000
-5.70691000 -0.16788900 -1.74515000
-1.61091000 -6.37913000 0.88054200
-1.54487000 -6.32973000 0.98152400
-5.08518000 1.99000000 -2.43951000
-4.26555000 -4.74938000 -1.60524000
-4.33400000 -4.87241000 -1.70434000
-4.25758000 -4.31225000 -1.43490000
-6.16205000 -0.32405600 -2.67585000
-0.56491500 -4.21336000 3.56788000
-0.35926600 -4.17385000 3.45923000
-4.91618000 -3.62122000 -2.98386000
-4.91183000 -3.88000000 -2.83419000
-3.07577000 -4.85570000 2.28734000
-3.06242000 -4.87334000 2.22713000
-5.38684000 -5.48112000 -0.82532400
-5.01055000 -5.58383000 -0.44950100
-5.26180000 -5.54835000 -0.90558200
-3.92104000 -1.37701000 -3.26602000
-4.13721000 -1.85951000 -3.21146000
-3.77984000 -1.18622000 -3.17117000
-3.89453000 -1.38764000 -3.05512000
-4.67765000 -0.03371600 -1.10452000
-5.55489000 0.32093800 -1.72692000
-5.47643000 0.38444300 -1.75167000
-6.57385000 -3.75555000 -2.39620000
-3.74899000 -0.87168200 -2.03410000
-6.05584000 -5.00963000 -1.10340000
-6.00746000 -5.13418000 -1.20336000
-2.11108000 -4.70001000 1.31853000
-2.07957000 -4.59363000 1.40251000
-2.04295000 -4.76036000 1.50524000
-2.24439000 -4.59855000 1.26933000
-2.06446000 -4.90324000 1.07772000
-2.08067000 -4.72102000 1.19284000
-2.12374000 -5.82688000 2.34132000
-2.67327000 -5.31421000 2.38954000
-6.28584000 -4.40200000 -2.83503000
-6.17841000 -4.23326000 -2.94130000
-5.56705000 1.43762000 -2.99804000
-5.53013000 1.68501000 -3.02135000
-2.83527000 -6.12374000 0.55191400
-3.01592000 -5.04431000 0.14329300
-2.68304000 -5.35765000 0.62439800
-2.63435000 -4.77308000 0.83362500
-2.45588000 -4.98961000 1.00744000
-3.79571000 0.44205400 -4.36520000
-0.13061100 -4.15886000 3.38575000
-0.03811100 -4.23201000 3.46025000
-4.41288000 1.88338000 -1.57868000
-1.29182000 -5.52380000 1.31328000
-1.15643000 -5.98761000 1.28053000
-3.29718000 -5.46559000 -0.10561400
-3.41149000 -5.64704000 -0.14070400
-5.76555000 -5.20710000 -2.48926000
-1.91471000 -4.46418000 2.26395000
-1.75818000 -4.52121000 2.12898000
-1.72720000 -4.56909000 2.00711000
-1.55219000 -4.58056000 2.16888000
-4.62799000 -0.63208400 -4.23217000
-4.17964000 -0.66740500 -4.18308000
-4.27846000 -0.71563500 -4.19947000
-2.69674000 -5.76795000 2.23793000
-2.38396000 -5.81961000 2.28109000
-0.30467900 -4.63869000 3.46312000
-5.73163000 -0.61311500 -3.88810000
-4.37772000 1.43037000 -1.35793000
-3.68716000 -0.40989100 -1.73433000
-3.79632000 -0.38950300 -1.68015000
-3.49238000 -0.44992600 -2.00570000
-1.39719000 -5.86163000 2.75175000
-2.06896000 -5.04241000 1.04402000
-2.09831000 -5.18909000 1.10837000
-1.88437000 -5.06552000 1.36994000
-1.91943000 -4.98279000 1.25971000
-6.05113000 -2.33871000 -1.51873000
-5.81259000 -2.04191000 -1.40738000
-5.14154000 -2.88819000 -1.08688000
-1.52357000 -4.38524000 3.39936000
-1.88867000 -4.36573000 2.90520000
-3.46041000 -4.16574000 0.39046200
-3.59834000 -5.07904000 1.91375000
-4.93842000 1.07789000 -1.30765000
-4.80337000 0.93360900 -1.35314000
-4.15440000 0.63429200 -1.18237000
-4.32354000 0.81126100 -1.16693000
-3.92521000 -5.71439000 -0.54934400
-3.33299000 -5.75555000 0.01405200
-4.75047000 -0.65750000 -4.21374000
-5.17740000 -0.52734200 -4.16413000
-6.05045000 -0.27809200 -2.19893000
-2.98452000 -4.50599000 1.86293000
-2.90150000 -4.45322000 1.74463000
-3.73604000 -1.01669000 -3.72399000
-5.89960000 -4.84174000 -2.83323000
-5.13483000 1.48157000 -4.00353000
-5.05973000 0.99999500 -1.59935000
-3.66058000 1.39273000 -1.62741000
-3.79163000 1.16493000 -1.56820000
-5.46072000 1.81322000 -3.06616000
-6.10473000 -0.21136300 -2.38305000
-2.67688000 -4.54122000 2.32607000
-5.34958000 1.61036000 -3.71631000
-5.42361000 1.65665000 -3.57513000
-3.93611000 -0.74614100 -4.06039000
-5.60971000 -0.08697200 -3.74805000
-5.43526000 -0.14262900 -3.88523000
-5.20178000 -0.28835500 -4.03140000
-6.24221000 -2.66286000 -1.63292000
-5.70475000 -2.18038000 -1.28843000
-4.99984000 -0.37817300 -4.09765000
-3.44470000 -5.74836000 1.50294000
-3.75091000 -5.69168000 1.26633000
-3.76800000 -5.78086000 1.17698000
-4.28625000 -2.48611000 -2.15081000
-4.29227000 -2.42073000 -1.99945000
-5.87365000 -0.72625000 -3.43106000
-5.34567000 0.65606000 -1.60309000
-6.63176000 -4.40967000 -1.93144000
-5.11685000 -0.21363800 -1.09110000
-3.60353000 -5.92057000 0.08756400
-3.84513000 -5.82649000 -0.24749100
-3.56994000 -5.89349000 0.01109500
-3.54507000 -5.81766000 -0.11633700
-3.74817000 -5.76882000 -0.31098500
-4.13062000 1.94970000 -1.64218000
-5.58861000 1.36303000 -3.15746000
-4.65690000 2.28346000 -1.95241000
-2.16189000 -6.11777000 1.01086000
-2.38699000 -4.36296000 1.70392000
-2.41195000 -4.38069000 1.57276000
-6.51829000 -4.49012000 -1.61348000
-3.88269000 0.58346900 -1.50964000
-4.19499000 0.53090500 -1.22760000
-4.17295000 0.37971200 -1.21066000
-4.73269000 -1.18111000 -4.02983000
-1.91790000 -4.76747000 1.55394000
-1.90610000 -4.87868000 1.45522000
-2.06542000 -4.71385000 1.58601000
-1.50019000 -6.18347000 1.07771000
-1.40490000 -5.92587000 1.17828000
-0.21296000 -4.60595000 3.52561000
-0.32374200 -4.47908000 3.61422000
-4.27253000 -5.12495000 1.28082000
-3.49648000 -0.75926900 -2.60412000
-3.56577000 -0.62792700 -2.01391000
-1.96442000 -6.44843000 -0.28982300
-1.85285000 -6.40081000 -0.32720500
-1.79509000 -6.29961000 -0.34403600
-1.66403000 -6.49340000 -0.12653100
-1.60389000 -6.46338000 -0.18406100
-5.28608000 1.91156000 -2.66950000
-2.99928000 -5.06291000 2.50716000
-3.08193000 -5.04549000 2.42891000
-0.95545900 -6.47195000 0.53034400
-4.24221000 0.65145900 -1.24079000
-4.26681000 0.70223900 -1.17213000
-4.35698000 0.65548200 -1.23427000
-2.91282000 -4.68062000 2.43400000
-2.90248000 -4.81393000 2.50209000
-1.00477000 -5.65655000 1.28981000
-1.23557000 -5.77469000 1.25126000
-2.63427000 -4.44088000 2.09741000
-2.75161000 -4.44139000 2.01851000
-2.87464000 -4.54901000 1.96618000
-4.46509000 -1.46576000 -3.80278000
-0.79762700 -4.60962000 2.74118000
-2.17073000 -5.25295000 1.05926000
-5.08116000 -3.98002000 -2.91952000
-4.40233000 -3.81359000 0.08288100
-4.63226000 -3.78387000 -0.02453600
-3.55457000 -0.89787000 -2.51302000
-6.10078000 -0.12493600 -2.51570000
-3.03211000 -4.32486000 1.02257000
-2.78348000 -4.41709000 1.54834000
-5.30385000 -2.81696000 -3.47534000
-5.03840000 -2.52885000 -3.56164000
-5.11413000 -2.84124000 -3.45440000
-2.02611000 -6.03411000 1.09590000
-1.79386000 -5.71562000 1.28500000
-1.68593000 -5.55561000 1.31702000
-4.61706000 0.80709400 -1.30296000
-4.93306000 -3.58195000 -1.01872000
-4.84658000 -3.61909000 -0.94676100
-5.84515000 0.09930500 -1.97951000
-5.88766000 -0.00177100 -2.11669000
-4.87234000 1.53091000 -1.31528000
-2.17706000 -4.67986000 1.25224000
-5.46569000 -0.44499100 -4.04740000
-2.60448000 -6.28444000 -0.08956400
-5.81195000 -0.58281400 -2.00253000
-5.52719000 -3.56233000 -0.86158700
-5.36201000 -3.60316000 -0.78253000
-4.85620000 -4.95070000 0.72927100
-4.42250000 -4.30050000 -1.89105000
-3.07364000 -5.16280000 2.24752000
-6.04842000 0.11995800 -2.72023000
-4.40315000 -5.56168000 -1.09633000
-4.18374000 -5.48993000 -1.01543000
-4.91502000 1.63864000 -1.71449000
-5.08097000 -0.95762300 -4.11489000
-3.05866000 -4.42143000 0.63368900
-2.57756000 -5.71953000 2.28945000
-2.51142000 -5.65545000 2.28250000
-4.39456000 0.44056100 -1.24267000
-4.81819000 1.12637000 -1.25112000
-4.89159000 -5.35062000 -1.99078000
-3.59435000 -0.46459400 -1.86263000
-3.56991000 -0.49784700 -2.02050000
-0.58230900 -4.28286000 3.16731000
-2.19310000 -5.74335000 1.00572000
-5.73995000 1.72353000 -3.19527000
-5.77103000 1.72781000 -3.23502000
-5.76613000 1.71041000 -3.30512000
-5.08776000 -3.54602000 -0.97902900
-3.29171000 -4.63121000 -0.01509500
-4.80296000 -4.03560000 -2.63243000
-0.50047300 -5.18865000 2.93406000
-2.53405000 -4.39219000 1.76647000
-2.39142000 -4.43212000 1.83878000
-0.42033200 -4.11052000 3.45751000
-3.01519000 -4.68348000 2.29286000
-3.03569000 -4.73711000 2.11909000
-3.12055000 -4.88130000 2.16083000
-2.84610000 -4.49860000 1.83047000
-5.65846000 0.05636600 -3.64908000
-3.52979000 -4.09851000 0.62831000
-3.55136000 -0.91355400 -2.69477000
-5.24647000 -0.56132400 -1.49085000
-5.90895000 -3.97265000 -3.09186000
-2.99821000 -4.61844000 1.99839000
-4.04963000 -1.05354000 -3.96357000
-4.09094000 -1.20113000 -3.90525000
-3.63149000 -5.83883000 1.42220000
-4.30893000 -5.80736000 -0.26717300
-4.80195000 -4.21329000 0.54369900
-1.33069000 -6.34109000 -0.11166500
-1.65235000 -6.38962000 -0.25520000
-2.83153000 -5.68743000 2.17503000
-1.36384000 -6.41305000 -0.05696000
-0.78218500 -6.24822000 0.11532400
-4.00108000 -4.16938000 -0.76314200
-4.43769000 -1.04285000 -4.12032000
-0.88487100 -4.60259000 2.84989000
-2.05971000 -5.24530000 1.12138000
-6.05159000 0.04544900 -3.07351000
-5.01671000 -5.40994000 0.12218400
-0.44621900 -4.35944000 3.65614000
-0.45609900 -4.21003000 3.57337000
-0.63404400 -4.31308000 3.64483000
-0.66514700 -4.35824000 3.71037000
-0.49114400 -4.41432000 3.63928000
-3.98475000 0.41984400 -1.27001000
-4.30453000 -3.92456000 0.40649500
-5.27180000 -4.27735000 0.16854800
-3.90830000 0.43552700 -1.47886000
-3.34494000 0.88550200 -1.75370000
-5.76578000 0.21922100 -1.84281000
-6.04972000 -0.06817500 -2.82401000
-3.60491000 -0.71890800 -1.82033000
-3.58636000 -0.74507800 -1.97927000
-4.86019000 -0.74320800 -4.08788000
-4.79342000 -0.76237500 -4.11462000
-2.40132000 -4.79468000 1.11616000
-0.89047500 -4.74456000 3.23732000
-1.16735000 -5.69507000 2.87077000
-0.59268700 -5.59783000 2.93760000
-3.91768000 -0.96249100 -1.84350000
-4.04398000 -0.90167300 -1.69140000
-2.13552000 -6.38372000 -0.47501800
-3.46328000 -5.35020000 1.93849000
-3.96450000 1.88742000 -1.77152000
-4.07839000 1.97391000 -1.79346000
-4.81466000 2.07358000 -1.89457000
-3.31914000 -5.86289000 0.10864800
-3.87440000 -5.81742000 1.06860000
-4.06051000 -5.87027000 0.79929600
-6.19556000 -2.04437000 -2.88252000
-5.48224000 1.68609000 -3.49044000
-3.54276000 -0.59898000 -3.63652000
-3.47273000 -0.55494200 -3.46568000
-3.44523000 -0.64594700 -3.38632000
-1.03841000 -5.12770000 3.07055000
-0.89774900 -5.16006000 3.03506000
-2.73506000 -5.23986000 2.44447000
-4.69977000 -0.43014800 -1.25414000
-4.80178000 -0.52481200 -1.31639000
-3.59757000 -1.13825000 -3.12321000
-1.30168000 -5.70608000 1.25206000
-5.53312000 0.37166300 -1.87367000
-0.79786700 -5.64424000 2.93923000
-0.59811300 -5.69222000 2.90894000
-0.72806200 -4.76081000 1.74517000
-6.02529000 -0.93708700 -2.97482000
-5.69383000 -2.56455000 -3.40977000
-3.68878000 -4.85770000 1.81197000
-1.59630000 -5.37115000 1.37085000
-3.81192000 -1.25102000 -2.89230000
-4.16187000 -2.11180000 -2.63802000
-2.39607000 -6.36228000 0.01916500
-5.99452000 0.16152100 -2.66354000
-4.92390000 2.03207000 -1.91200000
-2.48275000 -4.75967000 2.60262000
-3.23914000 -0.19953300 -2.47196000
-5.22539000 -0.72189800 -1.46410000
-4.93332000 -1.34442000 -1.28865000
-0.65743800 -6.24968000 1.20255000
-4.60978000 -4.01795000 -2.35702000
-1.74578000 -6.14616000 1.01888000
-1.66689000 -4.80424000 1.53517000
-3.33033000 -4.90759000 -0.20821500
-4.61454000 0.48772700 -1.16138000
-5.96747000 -0.72385500 -3.08975000
-6.17235000 -2.84099000 -1.45707000
-4.09841000 -1.94025000 -2.83333000
-5.48332000 -2.01527000 -3.60351000
-4.00307000 0.11943600 -4.28703000
-4.58603000 1.49577000 -1.24755000
-2.76920000 -5.85167000 2.24245000
-3.23013000 -5.88009000 2.04541000
-0.54602500 -4.26566000 3.63873000
-4.43169000 -0.45545700 -1.32254000
-3.86972000 -5.06613000 1.68020000
-3.68599000 -4.17561000 -0.13397300
-5.97667000 -0.55337500 -2.59132000
-1.96412000 -4.98633000 1.13614000
-3.18020000 -4.29569000 0.67099400
-4.65944000 1.14375000 -1.21895000
-4.00334000 -0.54067400 -4.03394000
-6.04506000 -1.35833000 -3.06302000
-4.19644000 -0.49412100 -4.09861000
-4.22813000 -0.87780200 -1.55055000
-2.74090000 -5.68964000 2.25663000
-5.46348000 1.87039000 -2.90613000
-5.46771000 1.84810000 -3.05372000
-5.70638000 1.69962000 -3.37570000
-3.92004000 1.14916000 -1.33988000
-4.30283000 1.93760000 -1.64713000
-3.72376000 1.74588000 -1.70124000
-4.65706000 -0.41194000 -1.26841000
-6.25367000 -1.80685000 -2.26613000
-3.46362000 -5.83060000 -0.01107200
-5.86052000 -0.82170200 -1.97171000
3.97838000 1.80646000 -5.16596000
3.99055000 1.80785000 -5.13394000
3.98533000 1.79277000 -5.14381000
3.93507000 1.50109000 -5.18433000
4.05544000 1.80208000 -4.97265000
3.88456000 0.94187800 -5.11984000
3.88834000 0.98290700 -5.12189000
3.89505000 1.02164000 -5.12421000
2.66737000 0.31186600 -4.80774000
2.80354000 -0.19296800 -3.51821000
2.86359000 0.00083800 -3.15686000
4.08807000 -4.09891000 0.36126100
3.46808000 1.59313000 -2.17426000
3.88754000 1.12233000 -5.14091000
3.68139000 -5.83779000 -0.35364700
3.75314000 -5.51861000 -1.25024000
3.90608000 -5.46518000 -1.60556000
3.90214000 -5.63690000 -1.21204000
3.89567000 2.08812000 -2.26183000
3.99198000 2.19573000 -2.29183000
3.76426000 2.10714000 -2.18993000
2.96935000 0.18829800 -4.77014000
2.65682000 0.29376900 -4.96286000
5.38728000 2.00383000 -3.99557000
5.38417000 2.01119000 -3.96174000
5.38840000 1.92673000 -3.87128000
5.40297000 1.90250000 -3.96867000
5.34523000 1.99365000 -4.10144000
3.82243000 -5.85959000 0.24745200
3.94806000 1.80368000 -5.18298000
3.78693000 0.69858800 -5.14327000
3.82176000 1.02916000 -5.25090000
3.34051000 0.46072000 -2.44117000
3.52886000 -0.05481600 -2.46378000
3.55297000 0.46984200 -2.30251000
3.78674000 0.12278100 -2.13399000
3.70558000 0.14739300 -2.34799000
3.82825000 0.02816900 -2.28979000
3.06046000 -0.11653000 -3.04369000
3.24986000 -0.26633100 -2.80313000
3.22702000 0.13382700 -2.67494000
5.40779000 -4.54156000 -4.03415000
5.42972000 -4.41796000 -4.08177000
5.56313000 -4.51662000 -4.05302000
5.41036000 -4.30655000 -4.11771000
3.81427000 -5.81781000 -0.54208500
3.89456000 -5.73145000 -0.87316800
4.03933000 -5.72906000 -0.89658000
3.41107000 -4.88031000 -0.99971800
3.44294000 -4.70333000 -1.05081000
3.86681000 -4.67133000 -2.17581000
5.26739000 -4.54424000 -4.01830000
5.38690000 -4.71382000 -3.93813000
5.25559000 -4.75294000 -3.90082000
3.03795000 -0.51274700 -3.45164000
3.08029000 -0.69534000 -3.42395000
3.07804000 -0.59732100 -3.22314000
4.63748000 -5.56871000 -1.84238000
4.11782000 -5.73353000 -0.85016800
4.33518000 -5.63611000 -1.51663000
2.89351000 -0.30321000 -4.04778000
2.88899000 -0.33304300 -3.64198000
2.81305000 -0.22358800 -3.69030000
4.40695000 -5.47347000 -2.16166000
4.27370000 -5.60158000 -1.68023000
4.08285000 -5.56361000 -1.63904000
3.82656000 -0.04997100 -5.00158000
3.91915000 0.26329600 -5.06768000
4.04234000 -0.02228400 -5.01780000
5.49887000 -4.91935000 -1.22524000
4.98184000 -5.06100000 -0.38582800
5.02633000 -5.13342000 -0.56936100
2.78718000 -0.16865800 -3.96896000
2.96525000 0.25990800 -2.80671000
4.50801000 -5.63631000 -0.91674800
4.91958000 -5.48705000 -1.28885000
4.67556000 -5.52867000 -0.78286900
3.18889000 -4.68386000 -0.37845100
3.26710000 -4.32068000 -0.24279000
3.63066000 -4.35975000 -1.33742000
3.25439000 -4.51266000 -0.46485200
3.63980000 -5.32850000 -1.33105000
3.89055000 -5.29299000 -1.85259000
3.67204000 -5.43030000 -1.26496000
5.50330000 -4.71866000 -3.93994000
5.43303000 -4.86025000 -3.82309000
4.80560000 -1.37388000 -4.68777000
4.94872000 -1.12167000 -4.66495000
5.19337000 -2.15276000 -4.50637000
3.71105000 -5.88467000 0.13063500
3.92177000 -4.95803000 -2.19777000
3.14176000 0.39020500 -2.59736000
3.04910000 0.50929200 -2.55645000
3.81743000 -4.03302000 -1.28808000
3.74416000 -4.18570000 -1.39305000
5.61830000 -4.79306000 -3.85773000
5.50453000 -4.96699000 -3.68751000
4.77760000 -4.23158000 -0.10738000
5.35020000 -4.11066000 -0.90278100
5.11001000 -3.99302000 -0.71205500
5.16564000 1.16373000 -2.78044000
5.09129000 1.36333000 -2.71687000
5.16974000 1.02734000 -2.55820000
5.97340000 -1.60310000 -3.18296000
5.67656000 -0.57762300 -3.24520000
5.87020000 -1.43862000 -3.01824000
5.96755000 -2.54395000 -2.64381000
5.61226000 -1.24627000 -2.71307000
5.76581000 -2.28672000 -2.51977000
3.55939000 -4.05028000 -0.45433300
4.45079000 -4.20930000 0.22848300
4.96811000 -3.89570000 -0.66991700
4.29161000 -4.06859000 0.18134900
4.71524000 -3.41031000 -4.28418000
5.06785000 -4.17440000 -4.11476000
4.87425000 -4.21398000 -4.02092000
5.01672000 -3.38554000 -4.34617000
5.38354000 -4.04506000 -4.18042000
5.27466000 -4.26833000 -4.12361000
4.18805000 -3.03713000 -3.05447000
3.98418000 -2.58051000 -3.18184000
4.20087000 -3.31046000 -3.23257000
4.64412000 -4.05498000 -3.95444000
4.63126000 -3.56711000 -4.17586000
4.37142000 -3.43542000 -2.97638000
4.32998000 -2.95102000 -2.77983000
4.68119000 -2.05234000 -2.34288000
5.10746000 -2.76839000 -2.27614000
4.83664000 -1.93451000 -2.32435000
5.96454000 -1.60337000 -3.69704000
5.79973000 -0.86893700 -3.59674000
6.04803000 -1.82362000 -3.50319000
5.26223000 -5.21621000 -1.25463000
4.81700000 -5.36079000 -0.54260900
5.01348000 -5.40141000 -1.15569000
4.09494000 1.88405000 -2.12939000
3.99692000 1.43168000 -2.02566000
4.36100000 1.63619000 -2.16535000
4.44788000 1.88677000 -2.28678000
4.21218000 1.95127000 -2.17912000
5.76931000 -1.25043000 -4.00511000
5.51224000 -0.60274900 -4.21487000
5.62079000 -0.57959200 -3.99958000
5.14871000 1.50138000 -4.13472000
5.15711000 1.52223000 -3.97190000
5.32433000 0.99007900 -3.69627000
4.73372000 -3.49507000 -1.50197000
4.37635000 -3.63992000 -0.94863300
4.80209000 -3.55560000 -1.25991000
5.42639000 -3.01807000 -2.26943000
5.17004000 -2.38543000 -2.29169000
4.62648000 -0.56241500 -2.36889000
4.23722000 -0.61529200 -2.27210000
4.28349000 -0.66175700 -2.39218000
5.37367000 0.10337600 -2.76824000
5.30805000 0.05128700 -2.56401000
5.42700000 -0.04341800 -2.66409000
4.29785000 -2.93482000 -4.24067000
3.98059000 -2.14029000 -4.34354000
4.05272000 -1.93997000 -4.51090000
2.93079000 -0.53934100 -3.88090000
2.97217000 -0.73427600 -3.77896000
2.95352000 -0.56596600 -3.66376000
6.21752000 -4.63195000 -3.28499000
5.83139000 -4.95487000 -2.47091000
5.81047000 -4.99478000 -2.82438000
5.53597000 -5.04193000 -3.51724000
5.77673000 -4.84612000 -3.71858000
4.47387000 2.10656000 -2.41511000
4.31811000 2.16717000 -2.49419000
4.26989000 2.24857000 -2.34653000
5.10585000 1.06620000 -2.89213000
4.97721000 1.27461000 -2.93883000
5.09956000 1.35223000 -2.79097000
4.08970000 0.38787600 -5.06541000
4.06493000 0.78825300 -5.10536000
4.38731000 0.40059100 -4.98778000
5.35814000 0.83141400 -3.83495000
5.32646000 -4.86209000 -3.82228000
5.19061000 -4.99749000 -3.65884000
5.31519000 -5.00409000 -3.65059000
5.88552000 -3.59513000 -2.10322000
5.69493000 -3.88762000 -1.57898000
5.99047000 -3.78941000 -2.09214000
5.98136000 -4.77697000 -2.39813000
6.24469000 -4.58394000 -3.09011000
6.33345000 -4.42048000 -2.87000000
5.02423000 -4.88320000 -0.32225000
5.45832000 -4.79791000 -1.03238000
5.45826000 -4.65601000 -0.96352300
5.59328000 -4.46565000 -1.15743000
5.98528000 -4.45567000 -1.92348000
6.05354000 -4.27794000 -2.02815000
4.97481000 0.68674800 -4.59798000
4.76770000 1.34676000 -4.68825000
4.98483000 1.15785000 -4.52405000
5.16494000 1.35499000 -3.42737000
4.95481000 1.89006000 -3.44709000
4.95073000 1.70988000 -3.21555000
2.79192000 1.20212000 -5.29344000
2.60230000 0.40358900 -5.09969000
2.75934000 0.50923300 -5.18814000
2.93424000 0.28716100 -5.03723000
2.98807000 -0.79467400 -4.12766000
3.10250000 -0.85129500 -4.24824000
3.05080000 -1.00707000 -4.10418000
4.01715000 -0.24514700 -5.01072000
3.95724000 -0.45286800 -5.07983000
3.72809000 -0.35518600 -4.97475000
5.40045000 -4.23320000 -0.89375500
4.65731000 -4.40964000 0.17427200
4.62050000 -4.60053000 0.30860100
4.22367000 -3.52611000 -3.49745000
3.91120000 -2.66107000 -3.57518000
4.05688000 -3.05665000 -3.64306000
3.81461000 -4.43386000 -1.94352000
3.93726000 -4.49824000 -2.32476000
5.31447000 -1.48461000 -2.44389000
5.24922000 -0.92935200 -2.52386000
5.10560000 -1.04696000 -2.43856000
5.06994000 -0.44493900 -2.25276000
4.86920000 -0.50818900 -2.22197000
4.81272000 -0.55350300 -2.38609000
6.36356000 -4.23735000 -3.58120000
6.27760000 -4.13119000 -3.78816000
6.42711000 -4.05264000 -3.51642000
5.50358000 -1.82046000 -4.36422000
5.29251000 -1.91556000 -4.47748000
5.12284000 -1.04022000 -4.59788000
3.63091000 0.07042600 -2.37911000
3.78456000 -0.04280000 -2.31100000
4.14593000 -1.67571000 -2.54966000
4.05287000 -1.76003000 -2.65278000
4.28658000 -2.35576000 -2.60040000
5.56747000 0.36455200 -3.76042000
5.48385000 0.40334800 -3.46742000
5.61717000 0.33836000 -3.31788000
5.33548000 0.39874600 -2.95351000
5.17506000 0.41052600 -2.68538000
5.46840000 0.30819300 -2.87547000
5.72664000 -0.25180900 -4.14188000
5.75882000 -0.22414200 -3.96300000
5.67001000 -0.34247200 -3.87566000
5.64756000 -0.33391800 -3.47929000
5.76943000 -0.18496700 -3.47170000
5.70872000 -0.19739200 -3.37126000
4.18153000 -5.66970000 0.18596400
4.22782000 -5.67946000 -0.17979700
4.51996000 -5.55752000 -0.52951900
4.28356000 -5.55463000 0.32758900
4.68328000 -0.25092300 -5.00173000
4.47156000 -0.28471300 -5.04849000
4.45505000 -0.14171300 -4.98263000
5.47053000 0.33257500 -4.06204000
5.64178000 0.34424200 -3.75693000
5.52463000 0.23338600 -4.23853000
5.60652000 -0.40732000 -4.06295000
4.72888000 -0.76289700 -4.81034000
4.90990000 -0.78103200 -4.69567000
4.62620000 -0.86338800 -4.77601000
5.30794000 0.25702700 -4.37914000
5.41180000 0.19135200 -4.41696000
5.13330000 0.16843600 -4.59686000
5.08527000 0.76605300 -4.46591000
3.51532000 -1.02668000 -4.71412000
3.79059000 -1.12590000 -4.69473000
3.55960000 -1.16026000 -4.49007000
4.17515000 -0.98975600 -4.81807000
4.09008000 -1.02938000 -4.81055000
4.08302000 -0.86699300 -4.99068000
3.27472000 -1.19547000 -3.87548000
3.11042000 -1.12087000 -4.00417000
3.24204000 -1.15317000 -4.09496000
3.21477000 -1.09680000 -3.43368000
3.30803000 -1.18104000 -3.58304000
3.36477000 -1.12871000 -3.31874000
3.94024000 -3.81935000 -0.43052300
3.42267000 -0.51360900 -4.87467000
3.20856000 -0.40806900 -4.62256000
3.42688000 -0.36644300 -4.80156000
2.89123000 0.14287300 -4.68118000
2.87263000 -0.12367900 -4.26817000
2.77786000 0.15927900 -4.45811000
3.33621000 1.11178000 -2.24525000
3.43972000 1.25219000 -2.21547000
6.26493000 -4.40680000 -3.62874000
6.09682000 -4.32444000 -3.90394000
4.27629000 0.05672300 -2.15134000
4.07966000 -0.19162700 -2.22883000
4.33673000 0.03725000 -2.16136000
4.70084000 0.71529600 -2.19815000
4.64767000 0.81116800 -2.20147000
4.58056000 0.75950100 -2.15766000
4.19030000 1.19226000 -1.92483000
4.10357000 1.25007000 -2.09456000
4.10664000 1.10715000 -2.10363000
4.71983000 0.92734000 -2.23319000
4.81327000 1.11977000 -2.11229000
4.75950000 0.93747700 -2.05283000
3.40516000 -0.77037700 -2.73586000
3.33204000 -0.84376300 -2.80348000
3.52104000 -0.91696600 -2.79532000
3.28209000 -0.93497900 -2.96986000
3.43245000 -1.05017000 -3.08441000
4.58341000 -0.75430600 -4.96943000
4.26366000 -0.83562100 -5.01428000
4.38489000 -0.68447400 -5.03569000
4.41636000 -0.80878100 -4.95332000
5.00394000 -5.25958000 -3.00916000
4.49731000 -5.52270000 -2.06340000
4.26537000 -5.00705000 -2.69798000
4.46813000 -4.78763000 -3.17152000
4.51523000 -4.97051000 -3.05823000
5.13388000 1.21237000 -3.20687000
4.87177000 1.43740000 -2.90049000
3.16804000 0.62216100 -5.37187000
3.07613000 1.02161000 -5.41174000
3.52655000 0.74123500 -5.33332000
3.37943000 0.48332600 -5.10204000
3.16618000 0.55599700 -5.26191000
3.56094000 0.49365300 -5.10056000
6.44362000 -3.61280000 -3.42757000
6.28121000 -2.90469000 -3.55431000
6.28533000 -2.77149000 -3.39361000
6.36423000 -4.14072000 -2.71108000
3.67889000 -0.84314700 -2.59193000
3.50616000 -0.70810000 -2.50101000
3.54697000 -0.89407100 -2.71638000
4.00477000 -0.63857000 -2.29726000
3.83412000 -0.73741300 -2.40455000
4.16220000 -0.70423900 -2.41787000
4.58872000 -3.51340000 -1.79165000
4.47017000 -3.59070000 -2.10330000
4.37503000 -3.59990000 -1.47261000
4.42387000 -2.30047000 -2.47416000
3.81147000 -2.40812000 -3.77246000
3.82389000 -2.29109000 -3.99197000
4.08779000 -3.07577000 -3.78099000
3.33180000 -1.21886000 -4.04977000
3.36921000 -1.19005000 -4.21083000
5.08877000 -0.24077900 -2.22509000
5.12997000 -0.03185000 -2.08621000
5.10142000 -0.19113100 -2.08657000
4.75745000 0.58306600 -2.24431000
4.73871000 0.80873100 -2.25690000
4.13713000 2.24238000 -2.41039000
4.14843000 2.28029000 -2.19521000
4.02476000 2.13348000 -2.15643000
3.99557000 -3.83033000 -0.30727600
4.39998000 -3.59887000 -1.20861000
5.12882000 -5.22754000 -3.12912000
5.20449000 -5.23906000 -3.08619000
5.02848000 -5.39720000 -2.45431000
4.69939000 -5.48088000 -2.22807000
2.93177000 -0.08093800 -3.20597000
3.08781000 0.26293500 -2.72536000
2.99799000 -0.00414200 -3.05264000
6.23418000 -2.74563000 -3.00400000
6.15365000 -2.64593000 -2.88443000
6.30499000 -3.45470000 -2.76014000
6.42978000 -3.50942000 -3.14939000
6.26886000 -2.75004000 -3.13137000
6.40349000 -3.58810000 -2.92967000
5.37794000 0.48457600 -3.17742000
5.29524000 0.87515000 -3.27976000
5.22832000 0.76776900 -2.99984000
5.14406000 1.54574000 -3.77763000
5.30231000 1.00737000 -3.49258000
3.41056000 0.76924400 -2.32647000
3.50993000 0.67408900 -2.29130000
3.56839000 1.03031000 -2.22253000
4.00724000 1.14812000 -2.08948000
4.00401000 0.85274700 -2.09381000
4.21970000 1.28655000 -1.93547000
4.37047000 1.46839000 -2.07268000
4.16753000 1.38242000 -2.09550000
4.62453000 1.38979000 -2.26600000
4.70241000 1.34900000 -2.09901000
4.71243000 1.23773000 -2.27989000
3.55096000 0.36285100 -5.07750000
3.66669000 -0.12739300 -4.96270000
3.36835000 0.27049600 -5.00004000
3.24221000 -0.26856300 -4.70219000
3.14597000 0.08006500 -4.81870000
3.46739000 -0.19003400 -4.86678000
4.95686000 1.09903000 -2.38006000
4.78948000 1.00913000 -2.33870000
4.90390000 0.73136700 -2.24184000
4.70721000 1.39804000 -2.34037000
4.73946000 1.22596000 -2.33084000
5.94316000 -2.11228000 -3.96308000
5.80906000 -2.06707000 -4.12837000
5.69820000 -1.40389000 -4.14806000
6.31652000 -3.84996000 -3.75265000
6.36267000 -3.55435000 -3.63813000
6.42929000 -3.82496000 -3.52587000
3.02447000 1.16225000 -5.39103000
2.95842000 1.26190000 -5.27541000
3.07730000 1.71736000 -5.24891000
5.30296000 2.04688000 -3.83444000
5.22576000 1.98760000 -3.76758000
5.31530000 1.97634000 -3.84134000
4.34019000 -3.72061000 -2.36811000
4.37026000 -3.72863000 -2.69408000
4.21423000 -3.93180000 -2.54900000
4.14383000 -4.28612000 -2.77375000
4.08792000 -4.20028000 -2.55733000
4.32391000 -3.99674000 -3.16547000
4.19550000 -2.04341000 -4.55878000
4.51230000 -2.96256000 -4.36391000
4.40170000 -2.97575000 -4.29940000
4.52045000 -1.77318000 -4.68249000
4.31867000 -0.97025800 -4.81183000
4.43676000 1.12504000 -4.93796000
4.55708000 0.43317400 -4.91561000
4.19442000 0.96118000 -5.06155000
3.14546000 0.68830400 -2.42752000
3.27965000 0.85593300 -2.33259000
5.50603000 -1.15863000 -2.64157000
5.36717000 -0.10733100 -2.54428000
4.63826000 1.02343000 -1.91996000
4.51875000 0.98280200 -1.86762000
4.54267000 0.92749500 -1.93701000
4.53593000 1.34163000 -1.95269000
4.43376000 1.36263000 -1.98297000
4.40372000 1.31598000 -1.89824000
5.27431000 -0.48583800 -4.61082000
5.41913000 -0.37759300 -4.62680000
5.33957000 -0.54826800 -4.47517000
4.91556000 0.02366900 -4.78220000
5.08287000 -0.10761000 -4.75619000
3.64744000 -0.99483800 -4.84824000
3.26439000 -0.95823300 -4.51073000
3.16495000 -0.78470500 -4.48061000
3.30510000 -0.76121100 -4.66593000
5.19856000 1.82827000 -4.12839000
5.35795000 1.87500000 -4.07610000
5.29518000 1.68809000 -3.96966000
5.35190000 -3.42283000 -1.86088000
4.93819000 -3.59437000 -1.21089000
5.12687000 -3.66241000 -1.19981000
5.50569000 -1.80120000 -2.46846000
5.66915000 -2.50389000 -2.40759000
3.78338000 1.23505000 -5.29483000
3.91049000 1.51542000 -5.24754000
3.71603000 0.84068600 -5.31248000
3.72750000 0.67874000 -5.23243000
3.38795000 0.53664000 -5.28092000
4.60561000 -5.33488000 0.03218300
4.61976000 -5.23136000 0.14537500
3.11673000 -0.31482100 -3.08709000
3.11349000 -0.54070800 -3.05964000
3.37556000 -0.33338900 -2.54025000
3.80806000 -0.15061000 -2.21125000
3.67587000 -0.10110800 -2.39483000
3.88069000 -0.40914800 -2.24063000
3.82968000 -0.55095500 -2.28676000
3.98189000 -0.52363200 -2.25114000
5.18776000 0.77087100 -2.87259000
5.14273000 0.99713000 -2.82831000
5.25423000 0.88561500 -2.75217000
4.86511000 0.39400900 -2.24279000
4.69375000 0.39155400 -2.15121000
4.89853000 0.33067500 -2.12764000
5.15090000 0.39188100 -2.62383000
5.33125000 0.28881500 -2.61168000
5.09480000 0.43775000 -2.50562000
5.17884000 0.31375800 -2.44633000
5.09459000 0.81272700 -2.34596000
5.01399000 1.11043000 -2.41375000
5.23923000 0.50012000 -2.51152000
4.03143000 1.65723000 -2.07930000
3.88026000 0.93571200 -2.05556000
3.90969000 0.99743300 -1.96439000
3.69782000 1.13510000 -1.99398000
2.70814000 0.63484900 -5.24981000
4.36378000 -3.77687000 -3.72593000
4.04607000 -2.78321000 -3.99768000
4.44924000 -3.68451000 -3.95053000
4.02766000 -5.05507000 -2.31770000
4.35017000 -4.69562000 -3.05782000
5.37537000 -5.07391000 -1.20575000
6.03343000 -4.64955000 -2.27713000
4.50299000 -3.56989000 -2.30360000
4.68206000 -3.44465000 -2.16162000
4.70536000 -3.39644000 -2.35114000
4.46785000 -3.59861000 -2.54715000
4.55807000 -3.43678000 -2.64247000
4.40676000 -3.66129000 -2.77961000
5.23606000 -0.76774800 -4.52846000
5.15646000 -0.65776700 -4.59220000
5.05229000 -0.61363800 -4.72815000
5.42378000 -0.23476100 -2.62613000
5.43820000 -0.27518300 -2.78981000
5.47648000 -0.12869900 -2.74770000
5.62818000 -0.31403300 -3.22702000
5.61439000 -0.19838100 -3.06036000
5.52765000 -0.30268600 -2.96755000
4.35100000 -4.27232000 -3.24791000
4.25962000 -4.48767000 -3.00178000
5.56686000 -3.71965000 -1.58416000
5.40958000 -3.55243000 -1.66003000
5.85240000 -3.40342000 -2.28257000
5.57616000 -3.31076000 -2.17947000
3.53171000 -1.76616000 -3.82263000
3.41920000 -1.40723000 -4.00870000
3.57510000 -1.71058000 -4.04949000
3.45551000 -1.54644000 -3.53129000
3.50427000 -1.51392000 -3.34699000
4.40963000 -0.46408500 -5.05167000
4.51574000 -0.40637100 -5.03770000
4.54235000 -0.61473300 -5.04792000
4.20355000 -0.71942400 -5.07704000
4.31243000 -0.51286000 -5.04438000
5.07940000 1.25650000 -2.59125000
4.95436000 1.65219000 -2.56149000
5.03373000 1.50668000 -2.72655000
4.78798000 1.60873000 -2.80400000
3.52430000 1.77824000 -5.29252000
3.45372000 1.61369000 -5.33495000
3.18629000 1.75235000 -5.32847000
3.09403000 1.47290000 -5.37598000
3.85942000 -0.65694300 -5.01429000
4.11126000 -0.55098000 -5.05625000
4.04550000 -0.74897000 -5.03738000
3.61050000 -0.87663000 -4.90305000
3.47489000 -0.90521500 -4.75614000
3.54684000 -0.70394800 -4.87402000
3.29411000 -4.19086000 0.13876700
5.62599000 0.09758600 -4.07582000
5.63693000 0.10623800 -3.92157000
5.69986000 0.04861100 -3.94865000
5.80692000 -0.08285100 -3.57846000
5.77911000 0.05493200 -3.57748000
5.77083000 -0.04019900 -3.44559000
5.71799000 -0.25566900 -3.68053000
5.66607000 -0.35373600 -3.63224000
5.63285000 -0.41476500 -3.91719000
5.65438000 -0.50775200 -3.85645000
5.94107000 -4.86676000 -3.35323000
5.96817000 -4.64738000 -3.77460000
4.14728000 2.20036000 -2.54358000
4.14015000 2.35833000 -2.53110000
4.52654000 2.19624000 -2.92640000
4.44084000 2.30702000 -2.93821000
4.38735000 2.04212000 -2.68387000
3.83333000 1.36251000 -2.10413000
3.77491000 1.55630000 -2.04864000
3.66987000 1.39498000 -2.19092000
3.21735000 -0.54984900 -4.69788000
2.92192000 -0.39782800 -4.06762000
4.17389000 -5.19462000 -2.37506000
4.61032000 -5.09678000 -3.02400000
4.23289000 -5.36486000 -2.22565000
5.04935000 1.41736000 -4.39160000
5.13600000 1.37671000 -4.24618000
5.26324000 0.76270300 -4.20676000
4.67100000 1.87249000 -4.64758000
4.93800000 1.80115000 -4.35752000
