-1.56529000 4.10338000 -0.19606200
-1.54457000 4.03284000 -0.06038890
-1.55703000 4.86594000 -0.30808900
-1.57609000 4.62508000 -0.29865400
-1.55752000 5.10431000 -0.32082000
-1.58013000 5.11608000 -0.40519700
-1.58234000 4.88764000 -0.39940500
-1.57916000 4.65654000 -0.39932500
-1.59700000 4.38735000 -0.29984600
-1.58710000 4.42760000 -0.40650000
-1.58672000 4.20501000 -0.42468600
-1.59233000 4.15999000 -0.31460900
-1.60549000 3.99357000 -0.44910800
-1.59358000 3.94887000 -0.33894200
-1.63549000 3.79605000 -0.47414300
-1.60680000 3.75450000 -0.36723400
-1.57173000 3.69848000 -0.24953900
-1.56319000 3.89043000 -0.21981000
-1.58403000 4.46203000 -0.50273300
-1.58919000 4.24255000 -0.52269300
-1.59310000 4.68416000 -0.48882900
-1.62685000 4.70899000 -0.56500000
-1.59592000 4.49317000 -0.59013900
-1.60302000 4.27622000 -0.61111500
-1.60745000 4.02905000 -0.54850000
-1.62100000 4.06112000 -0.63682600
-1.66457000 3.85509000 -0.65918800
-1.64702000 3.82669000 -0.57247500
-1.69183000 3.88495000 -0.73781100
-1.76899000 3.69425000 -0.75103900
-1.74978000 3.67048000 -0.66789700
-1.74092000 3.92377000 -0.80269900
-1.80438000 3.72971000 -0.82708400
-1.90590000 3.55118000 -0.84346000
-1.89220000 3.53288000 -0.74980600
-1.86308000 3.50384000 -0.67057200
-1.71304000 3.63787000 -0.58838200
-1.82753000 3.47212000 -0.58762300
-1.80075000 3.45193000 -0.49022800
-1.68247000 3.60755000 -0.49532300
-1.65477000 4.09383000 -0.71279100
-1.64255000 4.30891000 -0.68425300
-1.68987000 4.34345000 -0.74755700
-1.70000000 4.13086000 -0.78094300
-1.75733000 4.38217000 -0.78764500
-1.75452000 4.17671000 -0.84757900
-1.82396000 4.42581000 -0.82360400
-1.84714000 4.22637000 -0.85366900
-1.87743000 4.02846000 -0.89641200
-1.81309000 3.97353000 -0.84399500
-1.63574000 4.52239000 -0.66230900
-1.67748000 4.55254000 -0.72807000
-1.65603000 4.73267000 -0.63454000
-1.68005000 4.75673000 -0.70399900
-1.74051000 4.58523000 -0.77092500
-1.71063000 4.78273000 -0.77715300
-1.78378000 4.81379000 -0.79969400
-1.80514000 4.62214000 -0.80427600
-1.69926000 4.97581000 -0.76276200
-1.75956000 5.00071000 -0.79998200
-1.66650000 4.95726000 -0.69673800
-1.63399000 5.15332000 -0.69993400
-1.66991000 5.16664000 -0.76366900
-1.73671000 5.18801000 -0.78816600
-1.78378000 4.81379000 -0.79969400
-1.75956000 5.00071000 -0.79998200
-1.82890000 5.03190000 -0.81080300
-1.85318000 4.84977000 -0.81246200
-1.73671000 5.18801000 -0.78816600
-1.80123000 5.21426000 -0.80429300
-1.86564000 5.24146000 -0.83456600
-1.89255000 5.06472000 -0.84511200
-1.92118000 4.88862000 -0.83332200
-1.87623000 4.66328000 -0.81645100
-1.80514000 4.62214000 -0.80427600
-1.94509000 4.70813000 -0.83828100
-1.97103000 4.52261000 -0.85079500
-1.89652000 4.47284000 -0.84213200
-1.82396000 4.42581000 -0.82360400
-2.04552000 4.57511000 -0.86484500
-2.07910000 4.38812000 -0.87628400
-2.00235000 4.33220000 -0.87115000
-2.12438000 4.62834000 -0.86673800
-2.15821000 4.44657000 -0.88181300
-2.20187000 4.25496000 -0.87841500
-2.11974000 4.19446000 -0.88193700
-2.04046000 4.13996000 -0.89903400
-1.92865000 4.27744000 -0.85596900
-1.94772000 4.08810000 -0.94376200
-1.87743000 4.02846000 -0.89641200
-1.84714000 4.22637000 -0.85366900
-2.02021000 4.75454000 -0.84901300
-1.99504000 4.92755000 -0.85478300
-2.07659000 4.96297000 -0.87663100
-2.09862000 4.80018000 -0.86490900
-1.96151000 5.09664000 -0.90113100
-2.04780000 5.12523000 -0.94328200
-1.94704000 5.26459000 -0.84768300
-2.04322000 5.27842000 -0.86392400
-2.15261000 5.14356000 -0.95955100
-2.16910000 4.99035000 -0.88660200
-2.15632000 5.27879000 -0.88170400
-2.28215000 5.25481000 -0.85752400
-2.27038000 5.13777000 -0.92840400
-2.18460000 4.84209000 -0.86432200
-2.20552000 4.68080000 -0.87144000
-2.29726000 5.37704000 -0.81577800
-2.44988000 5.32330000 -0.80583600
-2.41383000 5.21033000 -0.83343700
-2.49281000 5.43951000 -0.81116900
-2.67838000 5.35209000 -0.81400400
-2.61627000 5.24696000 -0.82714700
-2.56380000 5.14690000 -0.87862000
-2.39004000 5.10599000 -0.90358300
-2.51745000 5.04097000 -0.90895200
-2.15352000 5.41457000 -0.82137800
-2.02530000 5.43209000 -0.80300700
-2.79559000 5.13087000 -0.84535900
-2.72021000 5.02522000 -0.87292300
-2.87364000 5.23687000 -0.82325700
-3.07122000 5.09775000 -0.82157300
-2.97812000 4.98562000 -0.84743900
-2.87668000 4.86854000 -0.83535500
-2.65158000 4.92386000 -0.90687700
-2.78622000 4.76984000 -0.89719200
-3.15679000 4.82668000 -0.83287600
-3.03777000 4.70682000 -0.84066100
-3.26330000 4.94261000 -0.83969300
-3.45065000 4.77607000 -0.84293200
-3.33356000 4.66135000 -0.84218600
-3.19965000 4.54017000 -0.84297300
-2.92048000 4.60050000 -0.88991500
-3.06719000 4.43211000 -0.91192500
-2.93805000 4.33228000 -0.95484300
-2.80710000 4.50438000 -0.91342800
-3.22232000 4.26173000 -0.89415700
-3.08427000 4.16270000 -0.96001200
-3.36913000 4.37337000 -0.86482100
-3.54111000 4.19760000 -0.85113100
-3.38967000 4.08815000 -0.87043600
-3.24216000 3.98849000 -0.91411500
-2.95306000 4.07098000 -0.99164000
-2.82201000 4.24538000 -0.97501100
-3.09776000 3.89125000 -0.91869100
-2.96712000 3.80489000 -0.93537900
-2.83108000 3.98687000 -0.96388600
-2.71728000 4.16852000 -0.97432600
-2.70933000 4.42286000 -0.92738300
-2.61862000 4.35009000 -0.96023900
-2.72290000 3.91133000 -0.96029800
-2.61850000 4.09443000 -0.93811800
-2.85467000 3.73122000 -0.99014400
-2.75517000 3.66386000 -1.00890000
-2.62159000 3.84049000 -0.95536300
-2.51894000 4.02307000 -0.95047400
-2.52553000 4.28029000 -0.98339600
-2.43090000 4.21330000 -1.00137000
-2.37399000 4.39026000 -0.90490100
-2.45959000 4.45444000 -0.90430700
-2.33538000 4.14628000 -1.01024000
-2.28767000 4.32246000 -0.89133800
-2.41757000 3.95361000 -0.96878700
-2.32172000 3.88858000 -0.98662000
-2.24321000 4.08014000 -1.01117000
-2.23977000 4.50709000 -0.88777900
-2.32191000 4.56462000 -0.89092400
-2.40128000 4.61533000 -0.89422100
-2.52539000 3.77766000 -1.01936000
-2.43525000 3.71456000 -0.99422600
-2.66478000 3.60004000 -0.95718100
-2.58433000 3.54504000 -0.96719200
-2.35688000 3.65914000 -0.98509400
-2.23852000 3.82828000 -0.98305200
-2.51230000 3.49639000 -0.99596600
-2.44015000 3.44477000 -1.03325000
-2.28812000 3.60894000 -0.97888200
-2.16362000 3.77228000 -0.98056900
-2.15773000 4.01874000 -1.01533000
-2.07406000 3.95817000 -1.01414000
-2.22023000 3.55617000 -0.97527000
-2.09003000 3.71505000 -0.97423600
-2.38049000 3.39960000 -0.98815600
-2.33761000 3.36851000 -0.92617400
-2.15658000 3.50124000 -0.95083200
-2.02589000 3.65998000 -0.93818900
-2.00729000 3.89486000 -0.95031100
-1.94821000 3.83902000 -0.89468600
-2.02589000 3.65998000 -0.93818900
-2.15658000 3.50124000 -0.95083200
-2.09582000 3.44221000 -0.91371100
-1.95158000 3.59685000 -0.91489000
-2.33761000 3.36851000 -0.92617400
-2.29097000 3.32718000 -0.87931100
-2.25801000 3.29555000 -0.81243800
-2.07564000 3.42474000 -0.82078400
-1.87651000 3.78405000 -0.86583900
-1.94821000 3.83902000 -0.89468600
-2.48985000 3.18312000 -0.87412000
-2.46727000 3.16919000 -0.80156100
-2.51442000 3.19567000 -0.94967700
-2.70781000 3.02410000 -0.95159800
-2.69219000 3.02392000 -0.87156300
-2.68417000 3.03210000 -0.79441800
-2.45286000 3.16327000 -0.72079300
-2.23700000 3.27490000 -0.73226800
-2.67995000 3.04498000 -0.71354000
-2.66976000 3.05049000 -0.62780600
-2.44826000 3.17618000 -0.63042500
-2.21728000 3.25722000 -0.64493500
-2.05890000 3.40927000 -0.73555400
-2.03238000 3.38225000 -0.65413800
-2.43483000 3.18205000 -0.53439500
-2.19923000 3.25251000 -0.54819800
-2.66192000 3.06308000 -0.53338000
-2.63377000 3.04793000 -0.43431800
-2.40712000 3.17052000 -0.43241600
-2.17328000 3.24687000 -0.44537600
-2.00099000 3.35537000 -0.56575400
-1.97201000 3.34086000 -0.46615700
-2.37850000 3.16403000 -0.32063100
-2.14725000 3.25121000 -0.33153200
-2.60015000 3.02617000 -0.33011500
-2.57145000 3.00543000 -0.21873200
-2.35078000 3.14281000 -0.20290300
-2.12261000 3.23442000 -0.20988300
-1.94249000 3.32996000 -0.35675300
-1.92034000 3.30773000 -0.23489400
-1.75734000 3.40153000 -0.25748700
-1.77914000 3.43622000 -0.37925100
-1.91593000 3.27064000 -0.09122950
-1.74731000 3.34766000 -0.11733800
-2.10316000 3.17510000 -0.08820760
-2.08991000 3.10317000 0.04902790
-1.88722000 3.16528000 0.03303590
-1.72636000 3.26453000 0.03453710
-1.56945000 3.43253000 -0.16187800
-1.60084000 3.51061000 -0.28192500
-1.52936000 3.33091000 -0.04833680
-1.53405000 3.62277000 -0.12326000
-1.64358000 3.56838000 -0.39330600
-1.84416000 3.04153000 0.15989900
-1.65589000 3.11987000 0.14820300
-2.04980000 2.97930000 0.15558900
-1.48436000 3.22654000 0.09075270
-2.32365000 3.08676000 -0.08868440
-2.28850000 2.99797000 0.01160180
-2.54628000 2.97493000 -0.10033700
-2.49792000 2.90005000 -0.00412984
-2.25242000 2.90502000 0.12405000
-2.43249000 2.80014000 0.06239440
-2.36136000 2.68864000 0.10550300
-2.19696000 2.77541000 0.18655200
-2.60139000 2.67872000 0.02905320
-2.52305000 2.58682000 0.08039860
-2.68994000 2.77520000 -0.01673850
-2.85015000 2.61843000 -0.03149150
-2.76761000 2.55452000 0.04896170
-2.68363000 2.48358000 0.12657400
-2.45192000 2.49163000 0.14342000
-2.29606000 2.57150000 0.14192800
-2.59030000 2.39123000 0.17028900
-2.38605000 2.37420000 0.19505500
-2.24537000 2.44067000 0.18903900
-2.15162000 2.64208000 0.24523500
-2.11177000 2.49169000 0.27396000
-2.33651000 2.23430000 0.27476000
-2.21394000 2.28639000 0.25500100
-2.30067000 2.06283000 0.27325900
-2.19150000 2.10710000 0.25790600
-2.08066000 2.32208000 0.27005800
-2.07134000 2.14040000 0.26825200
-1.93732000 2.34739000 0.30688400
-2.28859000 1.88560000 0.23211000
-2.18804000 1.92118000 0.23604500
-2.29325000 1.70002000 0.19648400
-2.20107000 1.72571000 0.22037600
-2.08387000 1.94957000 0.26876000
-2.11230000 1.74793000 0.26000600
-2.30903000 1.50321000 0.14456800
-2.21777000 1.52391000 0.16450600
-2.38322000 1.47274000 0.20139100
-2.37333000 1.25863000 0.19692900
-2.30759000 1.28421000 0.14435500
-2.23511000 1.31273000 0.10533400
-2.14296000 1.53588000 0.22198700
-2.15166000 1.33182000 0.11645200
-2.30090000 1.06100000 0.11484300
-2.23588000 1.08596000 0.07983100
-2.37131000 1.03723000 0.15259500
-2.36060000 0.80293000 0.11554600
-2.28829000 0.82577700 0.08240170
-2.22217000 0.84750200 0.05218960
-2.16725000 1.11183000 0.05109000
-2.17040000 0.87343500 -0.00119528
-2.08631000 0.89920300 -0.04468100
-2.10361000 1.11569000 0.09325900
-2.15912000 0.61253000 -0.03256140
-2.08952000 0.63515900 -0.10404100
-2.20987000 0.59383500 0.01484530
-2.21968000 0.33841000 -0.05239020
-2.16656000 0.35360100 -0.11508700
-2.08271000 0.36383000 -0.14713400
-2.02198000 0.63103400 -0.04186010
-2.03600000 0.88662300 0.03624530
-2.00918000 0.36400500 -0.09391970
-1.98827000 0.35767700 -0.01291470
-2.00902000 0.61687600 0.03981580
-2.02535000 0.86735000 0.11509800
-2.06771000 1.11010000 0.15058300
-2.04261000 1.09534000 0.21640100
-1.96844000 0.60293900 0.10201700
-2.00160000 0.84192000 0.18663300
-1.95957000 0.35179500 0.05432980
-1.91786000 0.34617400 0.11780700
-1.93219000 0.58223300 0.17028500
-1.95544000 0.80783100 0.25247200
-2.00931000 1.06854000 0.28041200
-1.95858000 1.02205000 0.34195900
-1.89301000 0.55674600 0.23912400
-1.89283000 0.76372900 0.31180600
-1.88733000 0.33708900 0.19120200
-1.90480000 0.94831000 0.41133400
-1.86748000 1.11482000 0.51010800
-1.95236000 0.10595200 0.03678520
-1.92903000 0.10760000 0.11117900
-1.97739000 0.10483300 -0.03322630
-1.95476000 -0.12361200 -0.04266870
-1.92272000 -0.11480000 0.02761160
-1.88354000 -0.10482800 0.09654520
-1.89052000 0.11126700 0.18374200
-1.84194000 -0.09542650 0.17026200
-1.79282000 -0.09239880 0.24692600
-1.84698000 0.11109300 0.26064100
-1.78132000 -0.28048300 0.25846500
-1.72960000 -0.29818800 0.34059000
-1.74675000 -0.10251200 0.33413900
-1.70878000 -0.47491300 0.33601400
-1.63907000 -0.51405600 0.41601300
-1.66776000 -0.32669100 0.43045100
-1.69600000 -0.12317000 0.43352400
-1.78775000 0.10411300 0.33897400
-1.72842000 0.09005680 0.43342700
-1.82005000 -0.27617100 0.17748300
-1.85861000 -0.28390900 0.10294800
-1.58959000 -0.36148300 0.52798300
-1.63693000 -0.15121900 0.55038500
-1.56070000 -0.56134100 0.50874300
-1.44449000 -0.60588000 0.58554500
-1.48524000 -0.39754400 0.62175300
-1.52957000 -0.17556000 0.64821500
-1.66487000 0.07191430 0.54816700
-1.57783000 0.05438690 0.66733700
-1.35154000 -0.42936000 0.69866300
-1.40379000 -0.19811600 0.74042200
-1.31633000 -0.64931600 0.66685500
-1.18387000 -0.68402500 0.76235400
-1.20979000 -0.45296300 0.78034500
-1.25880000 -0.21032000 0.82190400
-1.43914000 0.04718730 0.74475600
-1.29753000 0.04470480 0.82727900
-1.35289000 0.29821600 0.84884300
-1.49747000 0.28740200 0.77163200
-1.14752000 0.05229810 0.91795400
-1.20311000 0.31315800 0.93555500
-1.08768000 -0.20186700 0.86596300
-0.92128200 -0.18584300 0.94262800
-0.97464700 0.07441240 0.98507700
-1.02684000 0.33857200 0.98547900
-1.25498000 0.57476400 0.92370800
-1.40478000 0.55059500 0.84740000
-1.07598000 0.60017200 0.94864600
-1.13936000 0.85494500 0.96454600
-1.31260000 0.82544800 0.90693400
-1.44901000 0.78951800 0.81184600
-1.53422000 0.52410700 0.75718600
-1.58042000 0.74173100 0.73719600
-1.37161000 1.05706000 0.87580200
-1.51134000 1.00439000 0.78519700
-1.18952000 1.09259000 0.91707900
-1.23579000 1.31438000 0.86613700
-1.41861000 1.26375000 0.80964800
-1.57148000 1.19494000 0.73859100
-1.63466000 0.93384300 0.70152800
-1.70351000 1.10340000 0.66184900
-1.45527000 1.44481000 0.72908300
-1.61594000 1.35809000 0.66177900
-1.27177000 1.51788000 0.80450800
-1.76152000 1.25170000 0.59360600
-0.97915400 1.12062000 0.93550200
-1.01704000 1.35180000 0.90113400
-0.93636700 0.88381700 0.99540800
-0.70258100 0.90766100 0.96617900
-0.73821300 1.14405000 0.92565900
-0.76538500 1.37385000 0.88177200
-1.04408000 1.56847000 0.85010500
-0.78381700 1.59783000 0.84723100
-0.79032400 1.79794000 0.78626500
-1.05733000 1.76390000 0.79379700
-0.50582100 1.62161000 0.83040600
-0.51358400 1.82968000 0.80174200
-0.49082000 1.39443000 0.85082000
-0.19868700 1.41713000 0.84621300
-0.21634400 1.64707000 0.84383100
-0.22884000 1.85192000 0.80242500
-0.51325600 2.00610000 0.76194700
-0.78681600 1.97367000 0.73918400
-0.23525300 2.02089000 0.74753300
-0.23739300 2.15846000 0.70031300
-0.50608100 2.14584000 0.70390900
-0.77533600 2.12414000 0.70116700
-1.05301000 1.93017000 0.72983100
-1.03498000 2.07433000 0.66611000
-0.49516000 2.25546000 0.63872600
-0.75862800 2.25284000 0.67280800
-0.23704600 2.27271000 0.67121300
-0.23513500 2.36704000 0.63939600
-0.48286300 2.35450000 0.60814400
-0.73776000 2.36110000 0.63788100
-1.01495000 2.21486000 0.64324800
-0.99011800 2.34325000 0.62374900
-0.46947200 2.44630000 0.59232200
-0.71403700 2.45165000 0.58977900
-0.23218200 2.45632000 0.62688900
-0.22830000 2.53973000 0.60855900
-0.45446800 2.53209000 0.57315300
-0.69035200 2.54220000 0.56249700
-0.96149800 2.45641000 0.59345200
-0.93026100 2.55999000 0.55713000
-1.19803000 2.44267000 0.55309900
-0.43982100 2.62016000 0.57218100
-0.66290000 2.62883000 0.52780200
-0.22387800 2.62238000 0.60056100
-0.21752900 2.70258000 0.58690900
-0.42018600 2.70319000 0.55040900
-0.63373000 2.71940000 0.51056300
-0.89366400 2.65405000 0.50055400
-0.85258700 2.75236000 0.45776200
-0.39725600 2.79581000 0.54937300
-0.59676000 2.81505000 0.49264200
-0.20780900 2.79761000 0.58974200
-0.21221200 2.82286000 0.68933600
-0.39672200 2.84753000 0.63453000
-0.57258200 2.90550000 0.54148200
-0.80411100 2.85666000 0.43206900
-0.76663400 2.96032000 0.46701900
-0.40252100 2.87251000 0.72590700
-0.58603100 2.93317000 0.64945500
-0.21993500 2.82973000 0.78533300
-0.22342800 2.87235000 0.87884200
-0.40180600 2.91595000 0.81956500
-0.58946000 2.96939000 0.74737300
-0.77367300 3.01391000 0.56717700
-0.77679300 3.06041000 0.66174400
-0.40051800 2.96175000 0.92056300
-0.58172300 3.02112000 0.84856400
-0.22865900 2.91533000 0.98026800
-0.39862500 3.00927000 1.02636000
-0.57527600 3.06862000 0.96142900
-0.76772600 3.11374000 0.76755200
-0.74732600 3.17318000 0.88661800
-0.39055300 3.07087000 1.13434000
-0.55144800 3.13871000 1.07065000
-0.35925500 3.16858000 1.22556000
-0.71703500 3.23976000 1.01794000
-0.86812600 3.39168000 0.98033200
-0.03537980 2.82869000 0.81332900
-0.04414110 2.85459000 0.91332500
-0.02979450 2.81597000 0.71935200
0.15356100 2.82924000 0.72443700
0.14551000 2.85826000 0.81479900
0.13421300 2.88572000 0.91738400
-0.05585250 2.89525000 1.01609000
0.11668300 2.92447000 1.02483000
0.32545900 2.91481000 0.79602700
0.30928200 2.95069000 0.90257000
0.33388900 2.88481000 0.70125800
0.50990200 2.98005000 0.67308300
0.50314100 3.01385000 0.77590200
0.28506400 2.99373000 1.02059000
0.51054400 2.94383000 0.58098900
0.68132200 3.07724000 0.55411600
0.67810800 3.12792000 0.65445500
0.50988400 2.89704000 0.48688300
0.68181800 3.01750000 0.45900500
0.66372200 3.17761000 0.76681100
0.33436000 2.85897000 0.61173400
0.15359900 2.81353000 0.63214400
0.16133700 2.75547000 0.56917800
0.34358400 2.80672000 0.54218600
0.18101700 2.67200000 0.57051500
0.37563600 2.72472000 0.54134700
0.20154100 2.58875000 0.58270900
0.40968400 2.63978000 0.54799000
0.55395400 2.80311000 0.46739400
-0.02749540 2.79455000 0.62860700
-0.02374270 2.72085000 0.58667400
-0.01648440 2.63865000 0.60556000
-0.00916521 2.55830000 0.62053900
0.22307000 2.50169000 0.59580200
0.44839400 2.54808000 0.56312100
0.24488400 2.41084000 0.61489400
0.48650600 2.45020000 0.58403100
-0.00144193 2.47382000 0.63154300
0.00660557 2.38475000 0.64214600
0.26568900 2.31094000 0.63521400
0.51929700 2.34112000 0.60268800
0.28786700 2.19356000 0.66539300
0.55197600 2.21955000 0.64628200
0.01577300 2.29029000 0.66916200
0.02653590 2.17788000 0.70087200
0.31428700 2.05487000 0.72580700
0.58813200 2.07317000 0.71286800
0.34269200 1.88145000 0.78326400
0.62197300 1.88852000 0.75829100
0.87961200 1.87809000 0.70391200
0.85194700 2.07698000 0.68234400
0.03989930 2.03504000 0.73129200
0.05752800 1.86835000 0.79481000
0.90719000 1.66348000 0.75706800
1.13038000 1.64185000 0.71947900
1.11136000 1.85400000 0.65900500
0.92415000 1.42741000 0.79489000
1.13837000 1.41259000 0.77884200
1.32549000 1.38578000 0.73897200
1.31574000 1.60116000 0.64046900
1.31745000 1.81683000 0.59344600
1.09258000 2.05531000 0.62028100
1.31779000 2.02402000 0.55185800
0.64803100 1.66814000 0.76839400
0.37104100 1.67502000 0.83432400
0.39663100 1.44357000 0.85411600
0.67595500 1.44050000 0.83157400
0.41993600 1.20590000 0.88830300
0.69428300 1.19741000 0.87145700
0.43265300 0.95860900 0.89786600
0.69608600 0.94001400 0.86444400
0.92698000 0.92308800 0.89462600
0.93608200 1.18594000 0.87234600
0.07843950 1.66631000 0.85459000
0.10118400 1.43779000 0.87361000
0.12526600 1.20603000 0.91820300
-0.17589200 1.18989000 0.90409500
-0.15192200 0.95453300 0.93660500
0.14391500 0.96293200 0.91504900
-0.12947800 0.71308200 0.96481400
0.15572800 0.72082500 0.97300000
-0.11222700 0.45841700 0.95671500
0.15659700 0.46408300 0.99500200
0.41607100 0.44666000 0.97643900
0.43173700 0.70780900 0.93696300
-0.46888400 1.16184000 0.87404100
-0.43982900 0.93006400 0.92241200
-0.40593400 0.69167400 0.97040500
-0.66071700 0.66012600 0.95402500
-0.61462200 0.40928600 1.00664000
-0.37204700 0.44026400 0.99029400
-0.57051600 0.14526700 1.02302000
-0.34078500 0.17528500 1.01126000
-0.53102000 -0.12690400 0.98708400
-0.31563500 -0.10288900 1.02816000
-0.09071230 -0.08913920 1.01099000
-0.09832610 0.19250900 1.00370000
-0.88270500 0.62960500 0.96854800
-0.83239500 0.37281000 1.01479000
-0.78141200 0.10860000 1.01648000
-0.73418600 -0.15795000 0.98430100
-0.08883660 -0.37540700 0.96539100
0.12222900 -0.37764200 0.96345400
0.13471200 -0.09135560 0.98763000
-0.08575220 -0.65248200 0.96442600
0.11539600 -0.65078800 0.94544100
0.31237900 -0.65732700 0.92092900
0.32961100 -0.39205600 0.95509700
0.35548600 -0.11017400 0.97918000
0.14650800 0.19103400 0.97056500
0.38683100 0.17214800 0.98124600
-0.29817200 -0.38763200 1.01369000
-0.50507800 -0.40637500 1.01200000
-0.48586300 -0.67531100 0.97732900
-0.28708600 -0.66094000 0.95165500
-0.47659600 -0.92335200 0.97189600
-0.27949900 -0.91197500 0.97983600
-0.47072900 -1.13521000 0.97090100
-0.27234300 -1.12439000 0.98335400
-0.07349870 -1.11030000 0.96095800
-0.08142850 -0.90022800 0.95609600
-0.70380300 -0.42882100 0.99237400
-0.67998300 -0.68886400 0.96229800
-0.89185400 -0.44920300 0.95058800
-0.86521600 -0.69846800 0.92294600
-0.66820200 -0.92927800 0.94566700
-0.85504400 -0.92777900 0.91512600
-0.85088900 -1.12397000 0.90694900
-0.66605600 -1.13589000 0.95669900
-0.84933300 -1.27877000 0.90333700
-0.65952500 -1.29654000 0.94262700
-0.84669300 -1.40109000 0.89468600
-0.65523700 -1.42162000 0.94470500
-0.45317400 -1.43024000 0.95219900
-0.46374700 -1.30095000 0.97177300
-1.02324000 -0.91557000 0.84121900
-1.02573000 -1.10073000 0.84399300
-1.03422000 -0.69910400 0.85250100
-1.17531000 -0.89097400 0.75400900
-1.18323000 -1.06736000 0.75923100
-1.02853000 -1.24915000 0.84229400
-1.19016000 -1.21008000 0.75725200
-1.20010000 -1.32803000 0.75716100
-1.02746000 -1.36992000 0.82783600
-1.21187000 -1.43166000 0.75763600
-1.02966000 -1.47720000 0.81733700
-1.22415000 -1.52611000 0.75519200
-1.03805000 -1.57521000 0.81823000
-0.85640700 -1.60147000 0.91636600
-0.84060600 -1.51053000 0.86809800
-1.32917000 -1.16352000 0.65285300
-1.35308000 -1.27595000 0.66282400
-1.31419000 -1.02495000 0.65168200
-1.41444000 -0.97080300 0.53188800
-1.43205000 -1.11033000 0.52602900
-1.46951000 -1.22051000 0.53800200
-1.37558000 -1.37443000 0.66888000
-1.50920000 -1.31235000 0.55153400
-1.54531000 -1.39400000 0.56068700
-1.40008000 -1.46218000 0.67624500
-1.57175000 -1.47260000 0.55767600
-1.42408000 -1.54207000 0.68165300
-1.60304000 -1.54221000 0.56148300
-1.44883000 -1.61505000 0.68773700
-1.26954000 -1.68470000 0.78586900
-1.24859000 -1.60744000 0.77542900
-1.61245000 -1.24961000 0.42268000
-1.64723000 -1.33063000 0.41633500
-1.56103000 -1.16020000 0.41246200
-1.64777000 -1.08812000 0.31030300
-1.68895000 -1.18187000 0.29524000
-1.72871000 -1.26140000 0.27977400
-1.68372000 -1.40429000 0.41290900
-1.77439000 -1.33086000 0.27282400
-1.82304000 -1.39353000 0.27023000
-1.72226000 -1.47211000 0.41169400
-1.87461000 -1.45758000 0.26546900
-1.76251000 -1.54225000 0.40626100
-1.94388000 -1.49027000 0.29446200
-1.82061000 -1.61024000 0.41490700
-1.67546000 -1.68554000 0.56655100
-1.63523000 -1.60813000 0.56467500
-1.84287000 -1.25276000 0.13772800
-1.91067000 -1.30074000 0.14948100
-1.79419000 -1.18218000 0.15654100
-1.88123000 -1.08135000 0.08473550
-1.91151000 -1.15412000 0.03163700
-1.98265000 -1.19884000 0.03975930
-1.96809000 -1.35423000 0.14648900
-2.04489000 -1.24393000 0.03870960
-2.11356000 -1.29371000 0.03604040
-2.03703000 -1.38325000 0.17129800
-2.18873000 -1.31331000 0.07384300
-2.11108000 -1.42646000 0.18839200
-2.25553000 -1.30792000 0.13732300
-2.18353000 -1.42905000 0.24015200
-2.08148000 -1.51387000 0.38249500
-2.01265000 -1.50799000 0.33413900
-2.11118000 -1.13119000 -0.07728930
-2.18857000 -1.16509000 -0.05945480
-2.04631000 -1.08141000 -0.05655270
-2.10386000 -0.94001000 -0.12811900
-2.17830000 -0.97814000 -0.13916900
-2.25579000 -1.00610000 -0.11445200
-2.25636000 -1.17430000 -0.00322287
-2.33590000 -1.03284000 -0.08466900
-2.39431000 -1.04194000 -0.01166480
-2.32657000 -1.18773000 0.04948060
-2.44585000 -1.04636000 0.08274710
-2.40716000 -1.20745000 0.10224600
-2.53554000 -1.07263000 0.14105600
-2.48938000 -1.22329000 0.16494400
-2.41808000 -1.32466000 0.25610000
-2.33283000 -1.31617000 0.19489300
-2.37205000 -0.84196200 -0.08336920
-2.42095000 -0.85519600 -0.00508669
-2.31335000 -0.82615400 -0.14906100
-2.34568000 -0.62318900 -0.14085300
-2.39876000 -0.63997600 -0.07204810
-2.46419000 -0.65758000 -0.01360830
-2.49434000 -0.87542600 0.06122540
-2.52468000 -0.67516400 0.06972730
-2.61429000 -0.69812500 0.13803300
-2.57258000 -0.89831800 0.14210100
-2.72785000 -0.72688000 0.18328600
-2.67532000 -0.93065000 0.20807400
-2.84394000 -0.75433500 0.24814600
-2.80187000 -0.96987800 0.22517800
-2.75145000 -1.14372000 0.23349200
-2.64161000 -1.10965000 0.17844500
-2.56078000 -0.45549500 0.06834660
-2.65305000 -0.47307300 0.13226400
-2.48443000 -0.43903800 0.00339981
-2.50114000 -0.20640500 0.02358630
-2.57674000 -0.22032500 0.09445270
-2.67888000 -0.23126500 0.14514100
-2.75705000 -0.49105700 0.20330300
-2.79518000 -0.24106100 0.18493700
-2.91695000 -0.24846600 0.23031400
-2.88462000 -0.50928700 0.23200000
-3.04748000 -0.25337500 0.22001500
-3.01862000 -0.52292200 0.24863900
-3.17113000 -0.25496800 0.17797300
-3.15183000 -0.53169900 0.22199500
-3.11434000 -0.80015200 0.24684200
-2.97952000 -0.77990400 0.26992600
-2.82115000 0.01517630 0.19807600
-2.94569000 0.01427660 0.20297500
-2.70117000 0.01817520 0.16645600
-2.72294000 0.27097900 0.19341900
-2.84534000 0.27147100 0.23537000
-2.97615000 0.27498300 0.24204200
-3.07260000 0.01510480 0.20492200
-3.10202000 0.27974300 0.20899600
-3.21754000 0.28517400 0.15354300
-3.19382000 0.01822230 0.16249400
-3.30615000 0.29162400 0.06243390
-3.29983000 0.02319350 0.08981650
-3.39198000 0.29815600 -0.03052160
-3.38387000 0.02893180 -0.00819317
-3.38117000 -0.24794700 0.02964020
-3.28525000 -0.25275900 0.11626900
-3.13587000 0.54135400 0.21553900
-3.25748000 0.54685400 0.16427700
-3.00875000 0.53491200 0.24950200
-3.04049000 0.79425200 0.24518800
-3.17050000 0.80202100 0.21600400
-3.28533000 0.80847800 0.15071200
-3.35838000 0.55317400 0.07854200
-3.37240000 0.81465500 0.05298930
-3.42189000 0.82288400 -0.06913750
-3.42069000 0.56119900 -0.03900570
-3.47686000 0.83269600 -0.18658400
-3.46014000 0.56961300 -0.16601600
-3.52517000 0.84318400 -0.30518600
-3.50431000 0.57786900 -0.28625800
-3.51209000 0.31135000 -0.25808300
-3.47340000 0.30557900 -0.13295200
-3.39283000 1.07718000 0.02920100
-3.44387000 1.08533000 -0.09199530
-3.31131000 1.07070000 0.13246600
-3.33355000 1.33274000 0.12134800
-3.41523000 1.34037000 0.01152870
-3.47552000 1.34867000 -0.10871400
-3.49394000 1.09649000 -0.21185700
-3.52992000 1.36041000 -0.22983900
-3.56622000 1.37222000 -0.35208500
-3.54237000 1.10831000 -0.32917500
-3.55163000 1.37886000 -0.46959900
-3.58086000 1.11838000 -0.44278300
-3.54421000 1.38238000 -0.57151100
-3.60275000 1.12537000 -0.55031500
-3.59124000 0.85810800 -0.53145000
-3.56645000 0.85216200 -0.42063100
-3.51099000 1.62020000 -0.25971500
-3.49374000 1.62229000 -0.38746600
-3.46150000 1.60939000 -0.13798600
-3.43444000 1.86430000 -0.16145700
-3.46253000 1.86763000 -0.29035500
-3.49655000 1.87567000 -0.40375600
-3.51490000 1.62974000 -0.49049900
-3.50506000 1.87757000 -0.50712000
-3.50597000 1.87827000 -0.59881500
-3.53812000 1.63577000 -0.58608200
-3.48501000 1.87414000 -0.68020300
-3.54726000 1.63865000 -0.67462100
-3.45787000 1.86984000 -0.75507000
-3.53285000 1.63757000 -0.75540300
-3.54816000 1.38262000 -0.74820300
-3.55148000 1.38398000 -0.66331900
-3.39733000 2.09070000 -0.52580700
-3.38379000 2.08317000 -0.60777800
-3.41692000 2.10348000 -0.42786700
-3.30925000 2.31571000 -0.44579900
-3.31058000 2.30874000 -0.53812600
-3.30087000 2.29848000 -0.61840200
-3.39228000 2.08693000 -0.68525300
-3.28708000 2.28831000 -0.69358700
-3.30601000 2.29543000 -0.76632600
-3.40674000 2.09380000 -0.76019600
-3.31850000 2.29930000 -0.83706900
-3.42570000 2.10208000 -0.82870700
-3.33075000 2.30345000 -0.90406600
-3.42866000 2.10512000 -0.88831600
-3.42007000 1.86944000 -0.90901300
-3.43778000 1.86914000 -0.82932700
-3.19185000 2.50106000 -0.69994200
-3.20356000 2.50149000 -0.77350300
-3.20480000 2.51679000 -0.62334700
-3.05202000 2.70926000 -0.62591800
-3.06733000 2.71048000 -0.70416700
-3.08142000 2.71088000 -0.77994400
-3.19654000 2.48990000 -0.84845500
-3.08221000 2.69985000 -0.85197800
-3.07883000 2.68513000 -0.92373900
-3.19924000 2.48445000 -0.92655000
-3.07883000 2.68513000 -0.92373900
-3.10510000 2.69558000 -0.99674700
-3.23156000 2.49947000 -1.00154000
-3.19924000 2.48445000 -0.92655000
-3.16849000 2.73651000 -1.01917000
-3.30307000 2.54001000 -1.02076000
-3.40284000 2.33472000 -1.02736000
-3.33874000 2.30625000 -0.98814400
-3.33075000 2.30345000 -0.90406600
-2.89342000 2.86446000 -0.86316200
-2.91442000 2.86995000 -0.92763400
-2.86627000 2.85049000 -0.79135500
-2.91442000 2.86995000 -0.92763400
-2.93776000 2.87687000 -1.01099000
-2.70781000 3.02410000 -0.95159800
-2.75555000 3.05798000 -1.01015000
-2.82156000 3.10810000 -1.01800000
-3.00394000 2.92482000 -1.02589000
-2.88607000 3.15430000 -1.01807000
-3.07030000 2.97042000 -1.00785000
-2.95318000 3.20096000 -1.00793000
-3.13698000 3.01485000 -0.99853700
-3.30284000 2.82003000 -1.01853000
-3.23444000 2.77781000 -1.02133000
-2.55581000 3.22434000 -1.02377000
-2.62804000 3.28176000 -1.01850000
-2.51442000 3.19567000 -0.94967700
-2.69457000 3.32912000 -0.99868700
-2.76239000 3.37490000 -0.96565400
-3.37482000 2.86388000 -1.00920000
-3.51500000 2.65310000 -1.01375000
-3.44187000 2.61444000 -1.01943000
-3.45228000 2.91141000 -1.00357000
-3.59165000 2.69374000 -1.00604000
-3.70432000 2.46602000 -1.07519000
-3.62208000 2.43061000 -1.06216000
-3.54683000 2.39768000 -1.04969000
-3.37199000 2.57727000 -1.02064000
-3.47453000 2.36614000 -1.03976000
-3.20808000 3.06182000 -0.99180800
-3.02464000 3.24928000 -0.98690300
-3.10535000 3.30429000 -0.99289800
-3.28672000 3.11433000 -1.00122000
-3.19926000 3.36697000 -0.98713400
-3.37704000 3.17457000 -1.02321000
-3.31156000 3.44096000 -0.98658300
-3.48408000 3.24396000 -1.06393000
-3.63750000 3.02333000 -0.97734200
-3.53905000 2.96549000 -1.00914000
-2.83687000 3.42604000 -0.95252300
-2.92090000 3.48387000 -0.95819000
-3.01815000 3.54947000 -0.95863100
-3.13394000 3.62717000 -0.97196700
-3.75544000 3.09217000 -0.99482600
-3.88555000 2.84564000 -0.97854200
-3.77539000 2.79181000 -1.02398000
-3.88693000 3.16624000 -0.94633800
-4.01775000 2.91199000 -0.95973400
-4.13599000 2.64573000 -0.99465300
-3.99796000 2.58607000 -0.98019900
-3.88504000 2.54005000 -1.00909000
-3.67628000 2.73920000 -1.00407000
-3.79144000 2.50214000 -1.05597000
-3.61041000 3.32160000 -1.03837000
-3.44463000 3.52685000 -0.97574500
-3.59386000 3.62435000 -0.98476500
-3.75247000 3.40835000 -0.99861500
-3.74832000 3.72401000 -0.96231000
-3.90000000 3.49836000 -0.93539500
-3.88998000 3.81301000 -0.86271700
-4.05127000 3.59233000 -0.87274800
-4.19912000 3.34685000 -0.88121200
-4.04881000 3.26037000 -0.97520500
-3.27179000 3.72240000 -1.01225000
-3.42125000 3.81933000 -0.97498100
-3.57195000 3.91673000 -0.92880100
-3.71739000 4.01272000 -0.85305600
-4.35462000 3.44073000 -0.85093500
-4.49430000 3.16350000 -0.88703200
-4.33654000 3.07840000 -0.90974900
-4.49304000 3.52553000 -0.83683100
-4.62874000 3.23608000 -0.83939900
-4.75551000 2.92865000 -0.84507900
-4.61526000 2.86296000 -0.86651200
-4.45917000 2.79073000 -0.92121900
-4.18127000 2.99834000 -0.99123200
-4.29259000 2.71479000 -0.95727200
-4.20545000 3.69377000 -0.86642500
-4.04127000 3.91917000 -0.86759300
-4.17587000 4.01717000 -0.83026600
-4.34222000 3.78590000 -0.85085100
-4.29011000 4.10537000 -0.83738700
-4.45544000 3.86368000 -0.85734600
-4.38495000 4.18250000 -0.85134100
-4.54907000 3.92985000 -0.83054500
-4.69629000 3.64749000 -0.83169300
-4.60453000 3.59289000 -0.83302000
-3.86633000 4.12244000 -0.85532600
-3.99957000 4.22645000 -0.83335400
-3.68799000 4.31136000 -0.85807200
-3.81784000 4.41939000 -0.83258900
-4.11116000 4.32069000 -0.84262200
-3.92387000 4.51580000 -0.87024700
-4.01154000 4.60239000 -0.87649300
-4.20295000 4.40309000 -0.90254200
-4.08733000 4.68158000 -0.83965300
-4.28217000 4.47865000 -0.91033300
-4.15425000 4.75530000 -0.84084200
-4.34703000 4.54462000 -0.90418900
-4.53728000 4.31650000 -0.83578300
-4.46618000 4.25202000 -0.85640700
-3.73683000 4.70112000 -0.82369000
-3.81923000 4.78774000 -0.82358000
-3.63493000 4.60176000 -0.85098300
-3.54593000 4.87587000 -0.83810100
-3.62256000 4.96164000 -0.86227100
-3.88973000 4.86590000 -0.82829600
-3.68944000 5.03953000 -0.84387300
-3.74902000 5.11140000 -0.84799100
-3.95454000 4.94112000 -0.82825200
-3.80122000 5.17547000 -0.87951400
-4.01370000 5.01260000 -0.85248100
-3.84625000 5.23187000 -0.92432100
-4.06417000 5.07556000 -0.89855700
-4.26250000 4.88337000 -0.91273000
-4.20923000 4.81888000 -0.88328900
-3.48889000 5.20897000 -0.84485500
-3.54397000 5.27742000 -0.86983200
-3.42372000 5.12962000 -0.87721400
-3.22254000 5.28846000 -0.85466000
-3.28512000 5.36781000 -0.85626800
-3.34382000 5.44206000 -0.84742700
-3.58946000 5.33438000 -0.91366100
-3.39652000 5.50791000 -0.87397600
-3.44665000 5.57074000 -0.90607000
-3.63543000 5.39224000 -0.94064000
-3.48763000 5.62293000 -0.96165500
-3.67740000 5.44531000 -0.98412000
-3.52107000 5.66348000 -1.03088000
-3.71709000 5.49377000 -1.04128000
-3.92579000 5.33297000 -1.03824000
-3.89099000 5.28851000 -0.97094700
-3.19660000 5.66366000 -0.83967400
-3.24699000 5.72723000 -0.88367600
-3.14140000 5.59424000 -0.80936100
-2.91722000 5.71523000 -0.86913600
-2.97676000 5.79202000 -0.85025700
-3.02447000 5.85313000 -0.89223200
-3.28604000 5.77734000 -0.94740500
-3.06092000 5.89945000 -0.95285000
-3.09429000 5.94129000 -1.01567000
-3.32024000 5.81935000 -1.01549000
-3.12571000 5.97794000 -1.08422000
-3.35312000 5.85484000 -1.08923000
-3.15371000 6.00807000 -1.16349000
-3.38095000 5.87938000 -1.17526000
-3.58315000 5.72296000 -1.19551000
-3.55130000 5.69485000 -1.10859000
-2.83155000 6.03117000 -0.93705200
-2.84677000 6.03969000 -1.02559000
-2.79263000 5.97885000 -0.88071000
-2.55115000 6.10368000 -0.86754000
-2.58571000 6.15053000 -0.93146500
-2.60809000 6.17414000 -1.01057000
-2.86505000 6.05178000 -1.10417000
-2.62540000 6.18891000 -1.09263000
-2.64137000 6.19978000 -1.18329000
-2.88339000 6.06277000 -1.18903000
-2.66318000 6.21947000 -1.28858000
-2.91572000 6.10702000 -1.27834000
-2.68540000 6.23554000 -1.43440000
-2.96206000 6.18841000 -1.38596000
-3.21370000 6.08800000 -1.37365000
-3.17223000 6.02406000 -1.26259000
-2.37716000 6.31640000 -1.08836000
-2.39304000 6.33157000 -1.18226000
-2.36390000 6.30540000 -1.00292000
-2.10337000 6.41367000 -1.02831000
-2.11518000 6.42976000 -1.10755000
-2.14504000 6.46854000 -1.19361000
-2.40757000 6.34272000 -1.30200000
-2.17912000 6.51393000 -1.30545000
-2.21368000 6.56359000 -1.45684000
-2.43753000 6.37929000 -1.45087000
-2.25929000 6.63031000 -1.64619000
-2.49039000 6.45418000 -1.62633000
-2.33033000 6.72913000 -1.83683000
-2.55185000 6.54566000 -1.81664000
-2.79937000 6.41831000 -1.78085000
-2.74980000 6.34378000 -1.58337000
-1.99565000 6.73090000 -1.29924000
-2.01728000 6.77309000 -1.45485000
-1.96218000 6.68483000 -1.19018000
-1.81122000 6.92272000 -1.18645000
-1.82087000 6.95129000 -1.29973000
-1.84321000 6.99619000 -1.44778000
-2.03862000 6.82012000 -1.66067000
-1.85262000 7.03801000 -1.65652000
-1.93744000 7.14044000 -1.85103000
-2.10995000 6.91426000 -1.85938000
-2.00929000 7.22656000 -2.04512000
-2.18510000 7.00777000 -2.04577000
-2.08913000 7.31357000 -2.20803000
-2.24332000 7.08162000 -2.22005000
-2.42793000 6.86831000 -2.21191000
-2.36735000 6.78507000 -2.04595000
-1.70138000 7.27040000 -1.64019000
-1.80349000 7.38419000 -1.82367000
-1.66136000 7.20295000 -1.44994000
-1.53474000 7.43102000 -1.43458000
-1.55050000 7.47991000 -1.63353000
-1.62966000 7.57664000 -1.82735000
-1.85496000 7.45093000 -2.03014000
-1.68746000 7.64323000 -2.02952000
-1.74753000 7.70336000 -2.20756000
-1.91329000 7.51491000 -2.21027000
-1.78499000 7.74068000 -2.36662000
-1.98877000 7.59287000 -2.33974000
-1.83917000 7.79765000 -2.47756000
-2.03985000 7.64799000 -2.45374000
-2.21551000 7.44978000 -2.45192000
-2.15402000 7.38443000 -2.34591000
-1.53563000 7.81613000 -2.02849000
-1.55961000 7.83600000 -2.22916000
-1.47966000 7.75492000 -1.82768000
-1.34318000 7.90034000 -1.83344000
-1.38660000 7.94555000 -2.03915000
-1.43021000 7.98223000 -2.22802000
-1.61182000 7.88559000 -2.38095000
-1.47828000 8.02834000 -2.38371000
-1.54664000 8.09770000 -2.48771000
-1.65427000 7.93072000 -2.50505000
-1.59348000 8.15120000 -2.57544000
-1.70952000 7.99167000 -2.58529000
-1.63341000 8.20049000 -2.64634000
-1.76473000 8.05290000 -2.64507000
-1.90705000 7.87786000 -2.65232000
-1.87982000 7.84367000 -2.56936000
-1.39586000 8.16896000 -2.37029000
-1.44027000 8.22166000 -2.49080000
-1.34215000 8.11561000 -2.22103000
-1.26298000 8.22386000 -2.22480000
-1.32898000 8.28743000 -2.36287000
-1.36457000 8.33939000 -2.48427000
-1.47761000 8.27130000 -2.58449000
-1.39573000 8.38963000 -2.57813000
-1.42609000 8.43834000 -2.65033000
-1.51067000 8.31861000 -2.65700000
-1.44678000 8.48007000 -2.71623000
-1.53487000 8.35922000 -2.72298000
-1.45900000 8.51608000 -2.78004000
-1.54940000 8.39229000 -2.78918000
-1.65463000 8.25141000 -2.79691000
-1.64362000 8.22552000 -2.72584000
-1.32504000 8.50139000 -2.56818000
-1.34767000 8.55021000 -2.64211000
-1.30033000 8.44994000 -2.47556000
-1.26488000 8.56540000 -2.44864000
-1.30282000 8.62166000 -2.52975000
-1.31879000 8.67241000 -2.60454000
-1.35498000 8.59185000 -2.71101000
-1.35356000 8.72314000 -2.66165000
-1.38256000 8.77155000 -2.71880000
-1.38250000 8.63646000 -2.76315000
-1.39066000 8.81572000 -2.78337000
-1.40414000 8.67794000 -2.81954000
-1.38388000 8.85503000 -2.85122000
-1.40051000 8.71015000 -2.88124000
-1.44015000 8.56381000 -2.90508000
-1.44667000 8.53918000 -2.84674000
-1.33725000 8.84726000 -2.61282000
-1.36528000 8.90172000 -2.67229000
-1.32795000 8.79474000 -2.54464000
-1.28649000 8.91369000 -2.49412000
-1.30253000 8.97183000 -2.55806000
-1.31673000 9.02980000 -2.61993000
-1.37379000 8.95390000 -2.73984000
-1.31470000 9.08442000 -2.68608000
-1.30308000 9.13687000 -2.75507000
-1.36707000 9.00265000 -2.81347000
-1.26159000 9.17248000 -2.82271000
-1.34483000 9.04709000 -2.89636000
-1.20166000 9.19393000 -2.88199000
-1.25970000 9.05311000 -2.94536000
-1.30278000 8.90387000 -2.98332000
-1.36485000 8.89001000 -2.92517000
-1.22816000 9.20222000 -2.61784000
-1.18773000 9.23784000 -2.67934000
-1.24301000 9.15028000 -2.55508000
-1.17323000 9.25866000 -2.46445000
-1.12598000 9.29440000 -2.52673000
-1.08676000 9.33369000 -2.58402000
-1.15475000 9.27816000 -2.73678000
-1.07156000 9.38762000 -2.63898000
-1.03869000 9.43006000 -2.69075000
-1.10586000 9.30616000 -2.78597000
-1.02114000 9.48743000 -2.75603000
-1.06005000 9.33680000 -2.83852000
-0.95979500 9.51577000 -2.81228000
-0.99536500 9.35343000 -2.88674000
-1.04181000 9.19246000 -2.93736000
-1.12485000 9.19774000 -2.91971000
-1.03681000 9.49675000 -2.51210000
-1.03889000 9.56632000 -2.57160000
-1.06796000 9.44720000 -2.45640000
-1.01224000 9.51735000 -2.31100000
-1.01622000 9.58591000 -2.36094000
-0.99656900 9.65215000 -2.41578000
-1.00632000 9.62843000 -2.63688000
-0.97046500 9.73007000 -2.47551000
-0.89638900 9.76633000 -2.52983000
-0.94014000 9.66949000 -2.69815000
-0.81543000 9.77931000 -2.57652000
-0.84854200 9.66817000 -2.73429000
-0.73212800 9.78212000 -2.62109000
-0.75891600 9.66239000 -2.76948000
-0.78324800 9.50736000 -2.87035000
-0.87833900 9.52329000 -2.85445000
-0.89573500 9.76874000 -2.29840000
-0.82933400 9.79965000 -2.34622000
-0.93944500 9.70844000 -2.24932000
-0.86873900 9.73279000 -2.08628000
-0.82309900 9.78242000 -2.12833000
-0.76221200 9.80710000 -2.17079000
-0.76277800 9.82055000 -2.39219000
-0.70174200 9.82345000 -2.21348000
-0.63640400 9.83972000 -2.26030000
-0.69176300 9.84066000 -2.44153000
-0.55778200 9.86537000 -2.31526000
-0.60560500 9.85050000 -2.49503000
-0.44623700 9.86630000 -2.37200000
-0.48806800 9.82963000 -2.54168000
-0.51547200 9.74360000 -2.69476000
-0.63286600 9.75154000 -2.65175000
-0.64910200 9.84779000 -2.04766000
-0.58143900 9.85942000 -2.09285000
-0.70545000 9.81698000 -2.00840000
-0.65676100 9.82634000 -1.85786000
-0.59315100 9.83704000 -1.89378000
-0.52344100 9.84404000 -1.93416000
-0.50030900 9.87033000 -2.14630000
-0.44379700 9.86596000 -1.98342000
-0.34251100 9.88534000 -2.03991000
-0.39405000 9.88491000 -2.20538000
-0.34251100 9.88534000 -2.03991000
-0.21324300 9.91162000 -2.09964000
-0.25234000 9.89553000 -2.26612000
-0.39405000 9.88491000 -2.20538000
-0.05441490 9.93842000 -2.16269000
-0.07616390 9.85371000 -2.32132000
-0.11643600 9.88710000 -2.48921000
-0.29787500 9.88046000 -2.43163000
-0.44623700 9.86630000 -2.37200000
-0.40037400 9.86702000 -1.82475000
-0.30453800 9.88381000 -1.87494000
-0.47905200 9.84770000 -1.78252000
-0.44344700 9.83652000 -1.64627000
-0.36592300 9.84314000 -1.68148000
-0.27227600 9.83510000 -1.72532000
-0.30453800 9.88381000 -1.87494000
-0.18374200 9.89035000 -1.93076000
-0.27227600 9.83510000 -1.72532000
-0.15886800 9.85107000 -1.77325000
-0.01711630 9.89102000 -1.82213000
-0.03657390 9.93029000 -1.98770000
0.16068100 9.96380000 -1.87126000
0.14860600 9.96340000 -2.04787000
0.39615400 9.98803000 -1.92126000
0.38190400 9.97244000 -2.10289000
0.36791400 9.94025000 -2.28242000
0.13774100 9.92794000 -2.22536000
-0.13944800 9.86642000 -1.63454000
0.00374558 9.87940000 -1.67666000
-0.25132400 9.85907000 -1.59516000
-0.23271700 9.86639000 -1.48913000
-0.12036800 9.86642000 -1.52047000
0.02319980 9.87290000 -1.55431000
0.18300900 9.93320000 -1.71759000
0.20434000 9.91015000 -1.58879000
0.43302500 9.97789000 -1.62334000
0.41506800 9.97918000 -1.75926000
0.72326300 9.99596000 -1.66313000
0.70379700 9.99024000 -1.80212000
1.04151000 9.92901000 -1.70475000
1.01992000 9.92855000 -1.84404000
0.99490000 9.91274000 -2.00614000
0.68073600 9.95271000 -1.96428000
0.21716800 9.89950000 -1.48226000
0.44565900 9.97319000 -1.51262000
0.03481330 9.87291000 -1.45349000
0.04028680 9.88235000 -1.36914000
0.22397000 9.89912000 -1.39375000
0.45437500 9.97301000 -1.41939000
0.73802000 9.99661000 -1.55131000
0.74971800 10.00000000 -1.45780000
1.07817000 9.94643000 -1.50329000
1.06156000 9.93901000 -1.59429000
1.40907000 9.83926000 -1.54590000
1.39107000 9.84458000 -1.63765000
1.72966000 9.69124000 -1.58964000
1.71166000 9.70603000 -1.68633000
1.69162000 9.72559000 -1.80178000
1.36278000 9.82619000 -1.74997000
0.75901900 9.98922000 -1.37507000
1.08904000 9.93703000 -1.42283000
0.46265100 9.96393000 -1.33722000
0.47109600 9.94805000 -1.26227000
0.76732300 9.97494000 -1.29857000
1.09561000 9.91567000 -1.35010000
1.42757000 9.84410000 -1.46411000
1.43592000 9.82660000 -1.38842000
1.76565000 9.68653000 -1.42421000
1.74541000 9.68057000 -1.50441000
2.10105000 9.56482000 -1.45367000
2.07854000 9.56220000 -1.54225000
2.37183000 9.35234000 -1.49898000
2.36896000 9.37857000 -1.58609000
2.36310000 9.40573000 -1.68445000
2.05523000 9.56147000 -1.63619000
1.44174000 9.80703000 -1.31534000
1.78088000 9.68440000 -1.34477000
1.10322000 9.90397000 -1.27662000
1.10616000 9.87092000 -1.20909000
1.44518000 9.78313000 -1.24412000
1.79090000 9.67230000 -1.26432000
2.10861000 9.54186000 -1.37230000
2.10775000 9.50760000 -1.29782000
2.35985000 9.27843000 -1.35674000
2.36489000 9.31285000 -1.42577000
2.62138000 9.10339000 -1.37995000
2.62896000 9.13170000 -1.45474000
2.88210000 8.94082000 -1.38300000
2.90810000 8.98874000 -1.44697000
2.93216000 9.03296000 -1.52573000
2.63633000 9.16031000 -1.53499000
2.09295000 9.45446000 -1.23671000
2.35659000 9.24765000 -1.28870000
1.78853000 9.63635000 -1.19060000
1.76930000 9.57032000 -1.14448000
2.08028000 9.40555000 -1.17579000
2.35594000 9.21980000 -1.21518000
2.61078000 9.07109000 -1.31321000
2.59059000 9.02491000 -1.26568000
2.84100000 8.86426000 -1.27056000
2.86210000 8.90432000 -1.32087000
3.11695000 8.71962000 -1.24216000
3.13810000 8.75471000 -1.29792000
3.44568000 8.62512000 -1.15506000
3.46694000 8.65585000 -1.23235000
3.47803000 8.66170000 -1.31989000
3.16121000 8.79051000 -1.36114000
2.57040000 8.97812000 -1.22531000
2.82200000 8.82712000 -1.21760000
2.33841000 9.16845000 -1.15983000
2.30732000 9.10116000 -1.14009000
2.54893000 8.92822000 -1.18536000
2.79448000 8.76989000 -1.19621000
3.09645000 8.68398000 -1.18575000
3.07054000 8.63546000 -1.13601000
3.38075000 8.49373000 -1.06911000
3.41594000 8.56891000 -1.09600000
3.72018000 8.31307000 -1.06644000
3.76183000 8.39580000 -1.07241000
4.06978000 8.11577000 -1.05570000
4.11133000 8.18848000 -1.07928000
4.14456000 8.24912000 -1.13540000
3.79681000 8.46317000 -1.12435000
3.03859000 8.57167000 -1.10063000
3.34480000 8.41752000 -1.04614000
2.76550000 8.70791000 -1.18821000
2.73400000 8.64065000 -1.17495000
3.00509000 8.49260000 -1.09980000
3.68168000 8.23496000 -1.07830000
4.02709000 8.04054000 -1.04150000
2.52149000 8.86901000 -1.15937000
2.49180000 8.80483000 -1.13511000
2.27303000 9.03207000 -1.14728000
2.24230000 8.96541000 -1.14015000
2.45722000 8.73189000 -1.12705000
2.69998000 8.56811000 -1.13914000
2.21067000 8.89503000 -1.12789000
2.17613000 8.81662000 -1.09716000
2.41335000 8.64492000 -1.14914000
2.65849000 8.48251000 -1.11003000
2.96729000 8.40714000 -1.06912000
2.92293000 8.31155000 -1.05450000
2.36080000 8.54344000 -1.18072000
2.60376000 8.38031000 -1.07880000
2.12761000 8.71874000 -1.09072000
2.06152000 8.59407000 -1.10395000
2.29377000 8.41922000 -1.18652000
2.52854000 8.25025000 -1.06615000
2.86277000 8.20485000 -1.06385000
2.77797000 8.07361000 -1.11037000
2.20297000 8.26347000 -1.11758000
2.42923000 8.08761000 -1.06888000
1.97383000 8.43595000 -1.10797000
1.86511000 8.25232000 -1.08218000
2.08867000 8.08139000 -1.07616000
2.30656000 7.90271000 -1.09863000
2.66510000 7.90802000 -1.09700000
2.52611000 7.71796000 -1.09704000
2.73396000 7.52590000 -1.07588000
2.89113000 7.71917000 -1.07360000
2.91670000 7.32731000 -1.12266000
3.08501000 7.51679000 -1.06433000
3.07345000 7.11967000 -1.08151000
3.24977000 7.30787000 -1.09355000
2.36695000 7.52197000 -1.12325000
2.55889000 7.32781000 -1.11191000
2.16325000 7.70876000 -1.09257000
2.00738000 7.52142000 -1.09905000
2.19706000 7.33344000 -1.10757000
2.37512000 7.13741000 -1.11229000
2.73116000 7.12750000 -1.13315000
2.53823000 6.93387000 -1.14283000
2.68905000 6.72070000 -1.11729000
2.88504000 6.91785000 -1.13055000
2.82652000 6.49734000 -1.08872000
3.02104000 6.70003000 -1.07816000
2.94956000 6.27325000 -1.08247000
3.14600000 6.48107000 -1.13806000
3.33600000 6.69321000 -1.06097000
3.21259000 6.90690000 -1.09314000
2.34731000 6.76000000 -1.14741000
2.49623000 6.54398000 -1.14954000
2.19024000 6.96637000 -1.12925000
2.01871000 6.82001000 -1.06353000
2.16520000 6.61112000 -1.11998000
2.31473000 6.39431000 -1.06998000
2.63614000 6.31703000 -1.13733000
2.45317000 6.16440000 -1.07157000
2.57337000 5.93625000 -1.11856000
2.75980000 6.09098000 -1.12666000
2.67415000 5.72384000 -1.11223000
2.86303000 5.87975000 -1.10150000
3.05649000 6.06169000 -1.10702000
2.27231000 6.03972000 -1.07103000
2.39417000 5.81025000 -1.05993000
2.13624000 6.26897000 -1.07372000
1.97446000 6.16841000 -1.05760000
2.10443000 5.93867000 -1.06399000
2.22218000 5.70526000 -1.06040000
2.48887000 5.59050000 -1.11584000
2.31560000 5.47620000 -1.10486000
1.96163000 5.85719000 -1.03297000
2.07233000 5.61671000 -1.04647000
1.84152000 6.09212000 -0.99999800
1.72755000 6.03292000 -0.97542000
1.84209000 5.79405000 -1.00213000
1.93754000 5.54593000 -1.08869000
2.16645000 5.37789000 -1.04410000
2.03453000 5.29690000 -1.02337000
1.74345000 5.74934000 -0.97379400
1.83484000 5.49564000 -1.02888000
1.62407000 5.98742000 -1.00371000
1.54340000 5.95213000 -0.97972300
1.65632000 5.71619000 -0.96592200
1.74537000 5.46032000 -0.99605100
1.91857000 5.23397000 -1.02574000
1.81490000 5.18899000 -1.03757000
1.74537000 5.46032000 -0.99605100
1.65632000 5.71619000 -0.96592200
1.56453000 5.68518000 -0.99333500
1.66297000 5.43283000 -0.97941400
1.54340000 5.95213000 -0.97972300
1.48104000 5.92281000 -0.93195400
1.42036000 5.89471000 -0.89838600
1.49507000 5.65922000 -0.96414200
1.58404000 5.40934000 -0.97236300
1.72581000 5.15989000 -1.02574000
1.81490000 5.18899000 -1.03757000
1.65019000 5.13928000 -0.98963000
1.70696000 4.86227000 -0.97365500
1.78675000 4.88278000 -0.99875900
1.87868000 4.91618000 -1.01126000
1.71721000 4.58988000 -1.03807000
1.81256000 4.61427000 -1.04277000
1.91578000 4.65427000 -1.04172000
1.58115000 5.12029000 -0.95350400
1.62898000 4.84327000 -0.95397500
1.51527000 5.38760000 -0.94483800
1.46336000 5.36836000 -0.89586300
1.52310000 5.10263000 -0.90748100
1.55284000 4.82412000 -0.92395900
1.63620000 4.56823000 -0.99523500
1.56908000 4.54770000 -0.93177300
