-0.65145500 3.02507000 0.54393300
-0.63808500 3.08849000 0.55147900
-0.62443200 3.01805000 0.57370800
0.62693400 3.98938000 -0.94676600
0.65542700 3.94621000 -0.87577400
-0.56831000 3.09212000 0.53785100
-0.52693900 3.06925000 0.48519300
-0.65675000 2.98886000 0.53956800
-0.58386100 2.96432000 0.53673300
-0.58566800 3.00647000 0.57521000
-2.64335000 0.92313900 -0.01221060
-2.53772000 0.81231600 -0.00965966
2.95423000 3.44840000 -0.08201120
2.81204000 3.38204000 -0.04932670
3.06674000 3.37090000 -0.02360560
2.74673000 3.42210000 -0.08609100
2.14961000 1.62767000 0.70611400
2.20990000 1.62686000 0.75702900
-0.54625300 3.07236000 0.56068400
-0.53707000 3.00487000 0.52575600
-0.47338700 2.99823000 0.52807800
-0.41278400 3.03244000 0.55534500
1.99999000 2.60051000 -0.08656530
1.98068000 2.62261000 -0.11763000
2.33839000 1.63514000 0.65649700
2.20755000 1.57769000 0.71505100
2.22999000 1.63917000 0.76096700
0.66005200 1.98910000 0.96037000
0.70527300 2.08287000 0.86285800
0.69931300 1.97423000 0.84835900
0.68920100 2.08173000 0.92804900
-1.65558000 5.24058000 -0.05263050
-1.53411000 5.21186000 0.18405700
-1.60106000 5.14070000 0.07797340
-0.44804900 3.66192000 -1.28967000
-0.64308700 3.55177000 -1.32234000
-0.55880600 3.54727000 -1.32164000
-0.55093300 3.52074000 -1.37988000
-1.50629000 3.48197000 0.15463300
-1.45645000 3.43951000 0.21362700
-1.55075000 3.60519000 0.03808980
-1.82052000 5.47873000 -0.09838560
-1.71369000 5.35077000 -0.01141180
0.63312400 4.23831000 -1.15602000
0.70127000 4.26983000 -1.08323000
0.69197900 4.38892000 -1.12513000
3.22953000 1.45220000 -0.63159900
3.33639000 1.51724000 -0.60643200
3.36408000 1.46647000 -0.61123700
3.33331000 1.53694000 -0.66935800
-5.16860000 3.55863000 -1.00706000
-5.19572000 3.57155000 -0.94119700
-5.24459000 3.57318000 -0.99163800
3.24852000 1.62000000 -0.66388000
3.30464000 1.56451000 -0.65619200
3.26898000 1.54576000 -0.64246800
3.30758000 1.54508000 -0.61196000
1.68610000 3.23832000 0.00920670
1.73981000 3.30074000 0.03895850
-3.49830000 3.82822000 -0.53730100
-3.55533000 3.85699000 -0.58077700
-3.55565000 3.81492000 -0.56231300
-3.63038000 3.79990000 -0.54731300
-3.67081000 3.80907000 -0.48626000
2.43898000 0.50551400 -0.99963200
4.53053000 -3.26417000 -0.36642400
4.60439000 -3.27897000 -0.27747800
4.58026000 -3.29745000 -0.40594700
4.71283000 -3.45200000 -0.30985300
4.66826000 -3.40161000 -0.38971400
-2.53038000 0.44693800 0.36540100
-2.53955000 0.46575300 0.31520600
-2.49721000 0.64187100 0.24599000
-2.46957000 0.65482500 0.29652600
-2.47498000 0.60341900 0.27454300
-3.59021000 3.82700000 -0.62905900
-3.54778000 3.87441000 -0.61618800
-3.59123000 3.84205000 -0.67782900
-3.59021000 3.82700000 -0.62905900
-3.58875000 3.78876000 -0.58550400
3.03404000 -3.59866000 1.83498000
3.19402000 -3.54668000 1.76655000
-0.96438400 -3.30674000 -0.28540100
-1.72910000 2.87180000 1.45855000
-1.68978000 2.83016000 1.49404000
2.14213000 1.60559000 0.84475500
2.22751000 1.61966000 0.82456300
0.79854800 -3.21717000 0.65467800
0.92349200 -3.18266000 0.79696800
0.81662600 -3.18519000 0.80658900
0.99751500 -3.17533000 0.97624800
1.11124000 -3.19596000 0.86259500
1.21701000 -3.20447000 0.95163000
2.40216000 1.26803000 0.25615200
2.39296000 1.45938000 0.04619140
2.41111000 1.44453000 0.15346200
2.37955000 1.64558000 -0.04876600
2.33186000 1.70267000 -0.20216200
-1.75206000 5.62137000 -1.69835000
-1.75387000 5.56367000 -1.71337000
-1.65681000 3.13178000 1.49882000
-1.69129000 3.11529000 1.51936000
-0.81396300 -1.98283000 -0.24333900
-0.79118400 -2.06260000 -0.29703000
-0.79759800 -1.90632000 -0.29620400
-0.78432000 -1.91043000 -0.37547000
-0.75488700 -1.89862000 -0.41144100
-0.76577000 -1.86659000 -0.33078700
-4.35199000 -4.60352000 0.21505500
1.79946000 -1.93304000 -0.04455910
1.80117000 -1.91611000 0.09758090
1.89324000 -1.88386000 0.25268200
1.91148000 -1.81851000 0.30182400
3.51113000 -1.48239000 0.40370100
3.55977000 -1.42664000 0.42895600
3.66146000 -1.46441000 0.57718700
3.62043000 -1.43786000 0.51083900
0.01716390 6.39210000 -0.88839800
0.05508430 6.64301000 -0.92151900
0.02971830 6.50056000 -0.89544100
0.07176440 6.52024000 -0.93450200
-0.35947900 -0.00132728 0.41616900
-0.50303600 0.04617150 0.43536900
2.12133000 2.30407000 -0.49830900
2.08870000 2.32686000 -0.46785400
2.14829000 2.33557000 -0.42440000
2.11261000 2.34757000 -0.38990300
4.50220000 -3.28774000 0.42524200
4.42060000 -3.31193000 0.39118600
1.99910000 3.17496000 -0.00487191
-3.92036000 -3.44026000 -0.31250000
-3.98800000 -3.49108000 -0.38821800
-4.02417000 -3.48619000 -0.31449400
0.95982500 0.27143600 1.46420000
0.98668100 0.39872900 1.39934000
1.00997000 0.33809400 1.36139000
0.98107300 0.47116800 1.40517000
-2.19396000 1.30183000 1.30989000
-2.13232000 1.27784000 1.26822000
-2.12461000 1.23491000 1.33863000
-2.17701000 5.24287000 -0.89958300
-2.20594000 5.15189000 -0.98691100
-2.23588000 5.13722000 -0.95048800
-2.18842000 5.22638000 -0.87592000
-0.85262700 -0.19497100 0.37139400
-0.77804400 -0.21586600 0.35488700
-0.91235900 -0.09726190 0.41064400
0.99769700 -0.37353800 0.47669500
1.09281000 -0.54787600 0.46467100
1.21105000 -0.48776500 0.55451500
4.45788000 -4.49002000 -0.15165400
4.50868000 -4.52895000 -0.01004530
4.34865000 -4.26374000 -0.21745900
-1.93096000 1.91736000 0.97903700
-1.89756000 1.94251000 0.95364300
-1.91156000 1.96497000 1.04465000
-1.91679000 1.91870000 0.92278400
-1.87589000 1.94092000 0.87847300
-1.89756000 1.94251000 0.95364300
-3.50579000 1.76471000 -0.75330200
-3.49602000 1.76196000 -0.69607300
-3.51053000 1.80877000 -0.68879900
-3.48784000 1.73342000 -0.74313700
4.19970000 -2.86389000 0.81258400
4.16006000 -2.84616000 0.84836000
4.21660000 -2.86170000 0.74142400
0.34225600 -4.41638000 -1.52127000
0.79790800 -4.35706000 -1.51443000
0.76388500 -4.44753000 -1.51133000
0.23986300 -4.41642000 -1.52276000
-3.37530000 -3.25515000 -0.83409800
-3.36960000 -3.25727000 -0.91048700
-3.26119000 -3.24870000 -0.90509600
-3.37280000 -3.23013000 -0.98241400
0.00497063 5.13156000 0.43130200
-0.03567690 5.10843000 0.48642100
-0.46593400 -3.74127000 1.95151000
-0.49125000 -3.79921000 1.88946000
-0.40192600 -3.75489000 1.86983000
-0.37655500 -3.75934000 1.85940000
-4.05046000 -4.19912000 -0.56446300
2.71757000 0.24931900 -0.80731000
2.89746000 0.17425000 -0.81208800
2.92312000 0.15036600 -0.85535300
3.45148000 -3.44937000 1.04328000
3.30039000 -3.37098000 1.03826000
3.43920000 -3.37020000 1.01417000
3.51775000 -3.37078000 0.98715100
3.65696000 -3.47096000 0.94753100
3.58851000 -3.52091000 1.01488000
1.04564000 3.52882000 -0.29853000
0.91479600 3.42743000 -0.15662600
0.93827600 3.47884000 -0.19037300
0.78232200 3.54770000 -0.23755000
1.27186000 0.49219400 0.74104300
1.24094000 0.45396800 0.80133600
1.18819000 0.48901400 0.75909100
1.20643000 0.48492200 0.70540300
-2.18924000 5.54755000 -0.62685100
0.86740900 3.56747000 -0.30774900
0.98865600 3.52769000 -0.26089700
-3.41959000 2.25577000 -0.59682300
-3.56188000 -3.09819000 -0.88008800
-3.57113000 -3.18130000 -0.85068800
-3.59000000 -3.10274000 -0.84768200
-3.65414000 -2.99987000 -0.69933800
-2.75302000 0.98333500 1.08157000
-2.78567000 1.05351000 1.07318000
-2.80855000 1.01166000 1.08439000
-2.77462000 0.91712400 1.07480000
0.03332000 0.16815800 0.40685000
0.09906260 0.18310000 0.41770600
0.10796000 0.13661900 0.41672800
0.32411900 0.22382700 0.50065000
-2.28329000 4.95378000 -0.94636100
0.85287200 5.97823000 -0.91608300
0.81508000 5.96032000 -0.95104400
0.82140100 5.97207000 -0.89757200
0.82191200 5.98753000 -0.88567700
0.84960100 6.03713000 -0.87533700
3.70469000 1.97084000 -0.58226300
3.71136000 1.90345000 -0.56043400
3.78298000 1.85135000 -0.60964800
0.10191200 4.23262000 -1.36886000
0.05242900 4.14285000 -1.36203000
-1.21212000 2.63074000 0.89113700
-1.35755000 2.61348000 0.92759700
-1.37871000 2.72316000 0.86025300
-1.43328000 2.71458000 0.85107300
-0.10842100 4.37384000 -1.48780000
-0.13384400 4.51287000 -1.59461000
-0.13512100 4.55213000 -1.54324000
-0.02898590 4.66227000 -1.51520000
-0.06567920 4.54381000 -1.52433000
3.25866000 2.96538000 -0.03491140
3.08016000 2.97149000 -0.03253500
2.88930000 2.93346000 -0.06590900
2.99984000 2.92919000 -0.06596900
-5.26232000 3.68851000 -0.45957300
-5.21933000 3.78251000 -0.39603600
0.72948800 -2.81875000 1.20565000
0.57268600 -2.83054000 1.25716000
0.29742300 -2.81774000 1.20515000
0.23287400 -2.81525000 1.23676000
1.40980000 -1.39942000 -0.38091100
1.33445000 -1.43849000 -0.45351800
-0.09491830 4.36044000 -1.46569000
-0.04623550 4.37655000 -1.47799000
-0.11998200 4.51920000 -1.52102000
-2.26869000 -4.20462000 -1.43525000
-2.25848000 -4.22905000 -1.46626000
-2.37483000 -4.22528000 -1.43717000
-2.06852000 -4.19637000 -1.44688000
-2.09911000 -4.19829000 -1.41482000
4.07869000 -5.28644000 1.76100000
4.14779000 -5.27198000 1.68563000
4.27272000 -5.25525000 1.61214000
4.24469000 -5.17490000 1.55141000
4.39014000 -5.22089000 1.52066000
-2.32527000 -4.18343000 -1.40189000
-2.28693000 -4.13097000 -1.37451000
-1.39153000 2.56365000 0.92403800
-1.39669000 2.50219000 0.92751200
-1.34237000 2.51197000 0.95995100
-1.52849000 2.67599000 0.84592800
-1.50514000 2.62818000 0.85540000
-1.48458000 2.66433000 0.80091400
-3.45589000 -4.28734000 -1.14963000
-3.47300000 -4.32089000 -1.15474000
-3.29957000 -4.30507000 -1.21463000
3.66554000 -1.38427000 0.71980900
3.59680000 -1.30079000 0.75295600
-1.38971000 2.71895000 0.81648300
-1.44635000 2.70807000 0.79092500
-1.45262000 2.61041000 0.84997400
-1.45402000 2.64592000 0.87285400
-1.46892000 2.69060000 0.80273000
0.93207500 5.29279000 -0.87835900
0.91682300 5.32824000 -0.95743900
0.87968200 5.18768000 -1.00510000
0.89604900 5.22765000 -0.94256100
0.90161200 5.13080000 -0.94222300
-2.48900000 0.45116100 1.05189000
-2.35675000 0.41561300 1.12124000
-2.41890000 0.46880000 1.11857000
-2.53562000 0.38872200 1.07805000
-1.19358000 -2.73023000 -0.85926200
-0.88469500 -2.75346000 -0.94390900
-3.05304000 -2.64343000 -0.48844900
-2.91921000 -2.49761000 -0.44690100
-2.95996000 -2.53707000 -0.48867300
-2.28812000 1.60912000 0.54331000
-2.37618000 1.53345000 0.43409100
-2.28812000 1.60912000 0.54331000
-0.91841900 -0.70740600 -1.09848000
-0.90668100 -0.53409000 -1.10889000
-0.84642600 -0.57995400 -1.04067000
-0.85536800 5.01761000 -1.75065000
-0.90615700 5.10770000 -1.75213000
-0.80881900 5.03611000 -1.79073000
-0.86771600 5.09229000 -1.77995000
0.65089700 1.49142000 1.95303000
0.49539900 1.52617000 2.10424000
0.54292600 1.58646000 2.11742000
2.19423000 3.00419000 -0.10249500
2.59023000 3.07892000 -0.03427280
0.94540400 0.61307200 1.22349000
0.92932800 0.69732900 1.31850000
0.92607500 0.65004200 1.20785000
0.94333600 0.65850200 1.15673000
1.10379000 0.46928000 0.68448300
-3.50512000 -4.13264000 -1.08107000
-3.75026000 1.18845000 -0.73707000
-3.86132000 1.28514000 -0.79751200
-1.43411000 -3.27505000 0.69563900
-1.57549000 -3.29237000 0.63965800
-0.90708300 -3.29343000 0.47653700
-1.10336000 -3.28260000 0.48782500
-0.27648100 1.51873000 1.66279000
3.35377000 -3.24565000 -0.40983100
3.30645000 -3.23553000 -0.33872200
3.25656000 -3.24880000 -0.48496100
-3.89147000 -3.63668000 0.88515100
-3.87846000 -3.63461000 0.90294100
-3.14893000 -2.87265000 0.78527500
-3.15032000 -2.85715000 0.71010600
-3.26898000 -2.87444000 0.79150900
-3.35321000 -2.93506000 0.79588500
-1.30733000 -3.29849000 0.43167400
-1.18173000 -3.27600000 0.53332100
-1.30353000 -3.28352000 0.59442500
-1.04582000 -3.28011000 0.57917600
-1.08763000 -3.28263000 0.73242400
0.48938600 1.93790000 -0.12338200
0.43963300 2.09911000 -0.04942540
0.36356100 2.36475000 -0.08483870
0.41670300 2.22078000 -0.01460930
0.21340100 1.23579000 -1.25811000
0.08675740 1.19552000 -1.26430000
0.21888300 1.28502000 -1.27675000
-3.06185000 -2.77867000 0.82679700
-3.10490000 -2.78115000 0.84575000
-2.89952000 -2.71555000 0.87394100
-3.14301000 -2.80555000 0.80117800
-3.08450000 -2.81757000 0.79332100
2.07047000 -1.75054000 0.43046800
2.12486000 -1.72597000 0.56068700
2.05584000 -1.69317000 0.43874700
2.11485000 -1.73970000 0.44813500
-2.14859000 -1.82461000 0.02066120
-2.01859000 -1.76039000 -0.06545920
-2.06841000 -1.78497000 -0.06917580
0.92265500 3.13340000 0.44964800
0.93213200 3.21524000 0.44429600
0.88126400 3.19339000 0.46732200
1.18258000 0.38477500 0.65314800
2.34365000 1.28739000 0.55446100
2.38769000 1.30476000 0.58188600
2.37844000 1.26471000 0.53127700
0.87244000 0.81852800 -1.31163000
0.76055500 0.96170800 -1.30224000
0.54870400 1.00401000 -1.32730000
0.63191600 1.06689000 -1.29382000
1.47164000 -2.84241000 -1.11656000
1.36219000 -2.85072000 -1.14477000
0.16864900 1.31815000 -1.26720000
-0.02384310 1.23611000 -1.29932000
-0.06037040 1.32798000 -1.24332000
3.52699000 -1.51085000 0.21991500
3.58147000 -1.50027000 0.31815400
3.52212000 -1.53021000 0.27177500
3.59363000 -1.46670000 0.25792700
-2.11211000 -1.77641000 0.13264300
-2.12801000 -1.82717000 0.16874900
-2.10460000 -1.76747000 0.21322500
-2.12031000 -1.80837000 0.00698450
-2.12895000 -1.81421000 0.08305940
-2.11924000 -1.76511000 0.05109330
-4.23218000 3.86778000 -0.96784600
-4.47030000 3.97957000 -0.88605000
-2.93261000 -5.39446000 -1.76604000
-2.13296000 -5.39669000 -1.84025000
-2.47450000 -5.39750000 -1.82462000
-4.29235000 -5.23226000 -0.88729600
-4.37136000 -5.25093000 -0.75506000
-4.30010000 -5.25731000 -0.90314900
-4.43567000 -5.25743000 -0.70961500
-1.23088000 5.72303000 -1.73379000
-1.27382000 5.66528000 -1.72390000
-1.23237000 5.61118000 -1.69219000
-1.29022000 5.67014000 -1.74548000
-1.85145000 3.62198000 -1.07413000
-1.86722000 3.68127000 -1.04975000
-1.85072000 3.66002000 -1.09007000
-1.83446000 3.63475000 -1.10084000
1.48978000 -1.52399000 -0.66843700
1.42874000 -1.55229000 -0.68181300
-2.50876000 -5.35907000 -1.81688000
-2.64064000 -5.39810000 -1.80662000
-2.93513000 -5.34338000 -1.75794000
-1.17958000 2.36014000 1.35894000
-1.21905000 2.61153000 1.41524000
-1.19284000 2.64768000 1.51995000
-1.16914000 2.60895000 1.43792000
3.33894000 0.78701600 -0.60433500
-0.13692500 7.10899000 -0.88789600
-0.26138400 6.79391000 -0.82522700
-0.21788500 6.93291000 -0.85008800
-0.31136800 6.85907000 -0.88917900
3.53603000 -2.42923000 -0.38149100
3.44790000 -2.38997000 -0.40794100
-2.84543000 -0.30607300 -0.61586700
-3.02553000 -0.24559100 -0.68993700
-3.26023000 0.03166780 -0.72391100
-3.16252000 -0.12405200 -0.71829600
3.42486000 0.92752400 -0.58811100
-1.46680000 -5.15975000 1.85647000
-1.39662000 -5.09075000 1.82156000
-1.39223000 -5.18188000 1.87596000
-1.73098000 -5.27876000 1.88024000
-1.57693000 -5.29150000 1.91111000
-1.66480000 -5.32246000 1.93151000
4.28143000 -2.77195000 -0.35912500
4.31514000 -2.80795000 -0.30019000
4.25221000 -2.81618000 -0.38222600
4.21316000 -2.75623000 -0.36430800
4.24559000 -2.73939000 -0.35625500
4.11800000 2.33607000 -0.65223500
4.11418000 2.45881000 -0.59688100
4.14374000 2.55302000 -0.54390100
-5.62918000 3.52144000 -0.75485500
-2.07096000 -2.13165000 -0.77226400
-2.11705000 -2.11932000 -0.67903100
-2.15562000 -2.13122000 -0.71330600
4.51002000 3.27705000 0.14298600
4.37686000 3.19902000 0.06571840
4.43591000 3.27809000 0.08091220
4.40203000 3.18214000 0.10900100
-0.27507000 7.02389000 -0.90313500
-0.34879000 6.94672000 -0.85279600
-0.33476300 6.87531000 -0.89480800
-0.25358200 7.00964000 -0.90561000
-1.29811000 -3.79646000 -0.84113300
-1.19351000 -3.85843000 -0.87733700
-0.98197100 -3.77492000 -0.85574500
-1.78892000 -3.94693000 -0.88767800
-1.83832000 -4.11784000 -0.93114300
-1.67078000 -4.03541000 -0.91258300
-1.79768000 0.33342200 0.85882700
-1.85447000 0.31635800 0.85145500
-2.04078000 0.25504200 0.93044600
-2.03869000 0.26115300 0.89295300
-3.10778000 -0.15437100 -0.66824800
-3.20736000 -0.04274160 -0.71720700
-3.11519000 -0.16018600 -0.71143900
-3.02577000 -0.22754600 -0.64000100
-3.04867000 -0.21581400 -0.68391200
-2.93636000 -0.26918300 -0.64736500
0.97506000 -3.14678000 1.52056000
1.28860000 -3.10768000 1.53643000
4.39633000 3.14499000 -0.06083730
4.36752000 3.20152000 0.00038753
3.27313000 -1.42504000 -0.41051600
3.36994000 -1.41934000 -0.36598800
3.43925000 -1.42252000 -0.42185600
3.46941000 -1.39485000 -0.36787000
3.78849000 -2.36339000 0.20078800
-0.50327500 7.60822000 -1.15672000
-0.50316800 7.63009000 -1.05907000
-1.53496000 5.71919000 -0.88799500
-1.43180000 5.70506000 -0.82798500
-1.36940000 5.69588000 -0.88135700
-1.69853000 5.71136000 -0.84010500
-0.83626000 -5.22620000 2.27579000
-1.27736000 -5.26836000 2.26087000
-0.81554100 -5.27172000 2.27442000
-1.66880000 -5.18332000 2.23688000
-1.47743000 -5.22941000 2.25028000
-1.27212000 -5.21730000 2.24710000
-3.79907000 -3.33632000 0.43719900
-3.80691000 -3.25643000 0.45031100
-3.76104000 -3.25873000 0.54266200
0.34375200 -3.51654000 -1.62363000
0.43278600 -3.51419000 -1.60753000
0.19064000 -3.50461000 -1.59713000
0.08205010 -4.27622000 1.85891000
0.25155800 -4.26574000 1.84378000
0.15044600 -4.23189000 1.80920000
0.25155800 -4.26574000 1.84378000
2.01318000 -3.24977000 -0.39345500
2.10711000 -3.24138000 -0.49019400
2.12656000 -3.24749000 -0.38485100
1.92060000 -3.25477000 -0.53777300
2.02145000 -3.24300000 -0.55934800
1.97703000 -3.24055000 -0.46444100
1.11382000 0.45604800 1.67763000
1.02014000 0.37144800 1.59505000
1.00472000 0.51050200 1.59148000
0.97511300 0.50329500 1.54645000
1.98710000 1.17245000 1.06211000
1.96543000 1.20321000 1.12676000
1.89369000 1.16230000 1.15438000
1.85443000 1.14305000 1.22747000
1.86903000 1.20812000 1.23356000
3.09019000 1.71491000 -0.61710000
3.93118000 -1.43401000 -0.61880000
3.89138000 -1.52389000 -0.59173700
3.88962000 -1.49212000 -0.63801300
-1.81532000 1.03184000 0.55914400
-1.73997000 1.03476000 0.62557300
-1.82480000 1.11183000 0.50170300
-1.72304000 1.17267000 0.80780300
-1.74509000 1.25875000 0.75700300
-1.75296000 1.13006000 0.75164900
-2.76019000 -2.91170000 0.71022500
-2.68458000 -2.80545000 0.68483300
-2.71248000 -2.85026000 0.73651500
-2.73154000 -2.78916000 0.71583900
0.78582300 6.13836000 -0.80497700
0.77661400 6.07966000 -0.83405700
0.77993100 6.07999000 -0.75962700
0.76090400 5.93041000 -0.78992000
0.76105000 6.00508000 -0.81344700
-2.69217000 -2.87390000 0.67005700
-2.76297000 -2.80562000 0.61846600
-2.82720000 -2.82025000 0.59045800
-2.74345000 -2.88759000 0.63834800
3.88858000 -2.45879000 -0.28476000
3.83832000 -2.43698000 -0.38103600
3.81611000 -2.44846000 -0.34295500
3.52388000 -2.37484000 -0.48781600
3.66986000 -2.42991000 -0.42056400
3.66485000 -2.39908000 -0.54278700
1.90880000 1.22590000 1.18191000
1.90727000 -3.24987000 -0.46329700
1.79657000 -3.25687000 -0.53851000
1.50043000 -3.27880000 -0.69082300
2.52566000 -1.39872000 0.51654900
2.50607000 -1.51122000 0.51327900
2.56421000 -1.43917000 0.48185600
2.45989000 -1.42964000 0.59184200
2.47638000 -1.44955000 0.64555100
2.45134000 -1.48925000 0.60778800
0.73259400 3.68430000 -0.37186100
0.68152000 3.63375000 -0.27561900
0.67671000 3.62897000 -0.20328500
0.64420000 3.59268000 -0.07911690
0.59965700 3.53710000 0.02721600
2.54473000 -1.33332000 0.54204800
2.52590000 -1.35700000 0.51453600
2.45617000 -1.49391000 0.55680600
2.46798000 -1.43002000 0.54874100
-1.10577000 -3.30534000 -0.16862500
-1.19085000 -3.25461000 0.00169706
-1.20342000 -3.29348000 -0.05985660
-1.12668000 -3.30858000 -0.01953860
2.02239000 3.75548000 -0.36170300
2.08099000 3.84682000 -0.42874600
-1.23996000 -3.30319000 0.13213500
-1.23930000 -3.27927000 0.00377987
-1.22695000 -3.23105000 0.07255170
-1.17183000 -3.30441000 0.24973200
-1.13152000 -3.25256000 0.15498400
-1.12044000 -3.29024000 0.18226700
-0.73548900 5.56058000 0.86288100
-0.77203500 5.52592000 0.83124900
-0.76367300 5.46510000 0.84219700
-0.66782900 5.49586000 0.85793200
-0.69897600 5.56932000 0.88265300
0.43961300 3.48477000 0.09652350
0.39973900 3.46447000 0.03165890
0.37117300 3.41807000 0.08261180
0.43420600 3.47920000 0.03826910
0.50871500 3.45565000 0.06919750
0.40409900 3.58290000 -0.03854760
0.46819700 3.53665000 -0.07061320
0.35882200 3.45320000 0.09071580
-1.21063000 -3.31010000 0.41113800
-1.21495000 -3.29852000 0.25953800
-1.30011000 -3.30559000 0.27914200
-1.23063000 -3.24993000 0.21518700
-1.72635000 1.13481000 0.68366600
-1.81169000 1.13432000 0.51707500
-1.73770000 1.09231000 0.63650000
-1.74789000 1.28641000 0.67931700
1.86156000 -5.39760000 -1.61850000
1.71160000 -5.41735000 -1.64183000
1.97223000 -5.39817000 -1.71922000
1.92386000 -5.41872000 -1.71122000
3.68518000 -3.31076000 -0.96369000
3.77507000 -3.23721000 -0.87187100
-2.19104000 1.81730000 0.13134900
-2.26960000 1.63411000 0.21186300
-2.22209000 1.82051000 -0.03915600
-2.09819000 1.92692000 0.04511300
-2.17435000 1.87987000 -0.00972828
1.82760000 -1.85746000 0.14539900
1.78716000 -1.88913000 0.03449040
2.91619000 -1.50611000 -0.92143800
2.30172000 0.74543700 0.69495500
2.25713000 0.76562800 0.72500900
2.28443000 0.72750000 0.63740300
0.49297200 3.41646000 0.15470800
0.59162100 3.53466000 -0.07507770
0.50835000 3.55377000 -0.09137380
0.50700600 3.56864000 -0.01547810
0.45827600 3.52328000 0.04375780
0.52396900 3.49505000 0.07523770
0.40261300 3.55644000 -0.00558140
0.40898400 3.49929000 0.00955238
0.48510000 3.56114000 -0.03167350
0.42588100 3.48167000 -0.00998505
2.30095000 1.16047000 0.77117200
2.25824000 1.11909000 0.75264400
1.50245000 -5.34843000 2.06585000
1.01672000 -5.36179000 2.10281000
1.09062000 -5.34027000 2.04682000
1.69685000 -5.20273000 1.90121000
1.77680000 -5.32432000 2.00992000
1.51124000 -5.33006000 2.02517000
-2.19450000 3.06769000 0.42745300
-2.15278000 2.94525000 0.46237900
-2.13867000 3.02759000 0.43187800
-0.70674100 -1.96256000 0.18173200
-0.68869000 -1.85844000 0.17076700
2.39670000 -3.23012000 -0.24705000
2.33304000 -3.23237000 -0.21368500
2.76172000 -3.23943000 -0.09186740
1.15978000 1.93869000 -0.09568020
1.22642000 1.89999000 -0.04683430
1.16425000 1.92294000 -0.01039930
1.29299000 1.90403000 0.16461300
1.29357000 1.90448000 0.09603200
-0.35279400 5.22138000 -1.71598000
-0.33030400 5.13850000 -1.64841000
-0.28635000 5.18544000 -1.65004000
1.01141000 2.09246000 -0.18837700
1.10029000 2.04673000 -0.27577100
1.09007000 2.01530000 -0.19747100
1.11088000 1.94655000 -0.00616127
1.06432000 1.99811000 -0.06972730
1.12093000 1.97220000 -0.13684900
-2.20337000 4.96217000 -0.45308700
-2.03806000 4.91645000 -0.31111700
-2.27173000 4.95256000 -0.56918500
-1.75864000 3.15649000 1.45637000
-1.71422000 3.09920000 1.51615000
-1.71152000 3.20574000 1.48975000
-1.69564000 3.31003000 1.41433000
-1.66564000 3.37142000 1.41120000
-1.68278000 3.31844000 1.38885000
-5.73627000 3.63801000 -0.87274000
-5.80055000 3.68513000 -0.98759000
-5.74089000 3.65234000 -0.94009400
-3.08399000 3.83937000 -0.36457000
-3.08269000 3.77777000 -0.33031200
-1.72942000 3.04604000 1.38731000
-1.65293000 3.06192000 1.40631000
-1.77687000 3.07006000 1.41545000
-1.75258000 3.07374000 1.39540000
-1.71573000 -2.50281000 0.71269100
-1.83382000 -2.57735000 0.75010400
-1.71293000 -2.55603000 0.75917000
-1.94195000 -3.23038000 0.16653100
-2.02168000 -3.22455000 0.13859400
-1.71421000 3.10091000 1.37847000
-1.67592000 3.21395000 1.39037000
-1.74334000 3.22060000 1.41005000
-1.72750000 3.21267000 1.39024000
-1.83112000 6.09336000 -0.33805200
-1.91992000 5.95150000 -0.41465600
-2.22290000 4.82694000 -0.54929000
-2.24657000 4.79062000 -0.62884900
-2.25538000 4.94596000 -0.52173700
-1.43392000 3.49605000 1.38773000
-1.44843000 3.39269000 1.39594000
-1.61229000 3.23171000 1.38366000
-1.62441000 3.17166000 1.41917000
-3.38930000 -3.28723000 -0.04444450
-3.33850000 -3.30193000 -0.10141400
-3.37296000 -3.26400000 0.00199786
-3.04133000 -3.29440000 0.16022900
-3.33583000 -3.25975000 0.07481090
-3.07832000 -3.29206000 -0.04286980
-0.81404800 -1.47430000 0.36734700
1.03513000 2.68208000 0.70131100
0.95595200 2.76050000 0.71634300
0.95564400 2.67300000 0.72077100
0.25308400 2.32402000 -0.87105000
0.30746700 2.40498000 -0.90758900
-1.22747000 4.64862000 -1.72477000
-1.24761000 4.52543000 -1.66636000
-1.26966000 4.67168000 -1.70547000
3.55746000 -5.05815000 -1.62419000
2.79204000 -5.10507000 -1.69683000
0.06167240 -1.59140000 -0.70200800
-0.07957920 -1.46511000 -0.54923500
-0.00268674 -1.48444000 -0.59896700
-0.00836068 -1.44198000 -0.51362400
-1.92415000 0.92714100 0.78355900
2.64742000 -5.13295000 -1.75121000
2.48391000 -5.12132000 -1.70469000
2.79607000 -5.12079000 -1.70675000
3.51357000 -5.38514000 -1.64349000
3.57595000 -5.38342000 -1.56870000
3.12351000 -5.40621000 -1.66415000
3.38482000 -5.38252000 -1.69281000
-1.96291000 0.87380900 0.84753600
-1.86879000 0.85906800 0.82727400
-1.89898000 0.92246700 0.81850800
-0.09952700 -1.54198000 -0.64350800
-0.13849100 -1.49626000 -0.58794800
-0.06954090 -1.53181000 -0.62620800
2.28656000 -2.89128000 1.54057000
2.32347000 -2.88008000 1.59234000
2.44016000 -2.89142000 1.57726000
2.41353000 -2.85884000 1.54451000
-0.99942000 -3.09125000 1.66887000
-0.91571500 -3.13377000 1.64426000
-0.92409400 -3.09006000 1.67633000
-0.96472000 -3.14526000 1.60375000
0.67248200 -4.14709000 1.45563000
0.64156900 -3.96158000 1.40001000
0.82401700 -3.54789000 1.26520000
-3.36801000 -3.18551000 -1.02383000
-3.32999000 -3.03940000 -1.01734000
-3.28057000 -3.03079000 -0.99540200
-3.30147000 -3.12496000 -1.02947000
0.62348400 2.23058000 1.63027000
0.67454200 2.22334000 1.59676000
0.64739200 2.22627000 1.55595000
0.67454200 2.22334000 1.59676000
2.68091000 -0.89458500 0.12387800
0.89962900 2.55167000 0.70986800
1.03354000 2.49451000 0.77966800
1.03013000 2.51109000 0.72490500
0.96621100 2.47769000 0.75750400
1.93926000 -3.36330000 1.84459000
2.03227000 -3.36148000 1.84021000
0.29193700 2.21769000 1.47414000
1.42155000 -2.86429000 -1.24388000
1.41549000 -2.89706000 -1.28876000
2.80016000 -0.90872900 -0.32001100
-1.93479000 3.90596000 -0.20031400
-1.85647000 4.02279000 -0.18040200
-2.73261000 0.61102800 1.15000000
-2.77916000 0.56440800 1.12550000
-2.79858000 0.61824400 1.02650000
1.19764000 6.83984000 -1.08882000
1.20903000 6.81774000 -1.09453000
1.14896000 6.89352000 -1.04344000
1.16016000 6.88434000 -1.01671000
1.36264000 6.78130000 -0.99621400
-2.80282000 3.67936000 -0.40008200
-2.84338000 3.70963000 -0.44350400
-2.77157000 3.71924000 -0.34997700
-1.76238000 -5.19483000 2.23510000
-1.85419000 -5.18727000 2.19544000
-1.83143000 -5.25199000 2.23651000
-1.76076000 -5.13968000 2.16261000
-1.46517000 3.10634000 1.37559000
-1.41539000 3.09231000 1.33217000
-1.39658000 3.01527000 1.32338000
-1.51341000 3.15749000 1.33448000
-1.43782000 3.14817000 1.35821000
-1.50670000 3.12440000 1.37099000
-0.74968700 5.86536000 0.91583900
-0.83200200 5.77533000 0.87828700
-0.76648100 5.74753000 0.91080200
-3.92687000 -4.59930000 -0.98583200
-3.93962000 -4.57898000 -0.91287400
-3.84346000 -4.58241000 -1.00679000
-4.11490000 -4.58916000 -0.71032000
-1.68514000 0.56420800 1.56009000
-1.69406000 0.54792500 1.53236000
-1.75695000 0.70961000 1.57351000
-1.70916000 0.62853000 1.57482000
-1.71380000 0.69621400 1.51059000
-2.35725000 -2.61020000 0.82095100
-2.30750000 -2.69687000 0.69880300
-2.29943000 -2.62456000 0.74567300
0.79073700 1.90253000 0.45728800
0.87143700 1.84051000 0.29923700
-3.74554000 -4.59037000 -1.06900000
-3.72143000 -4.60890000 -1.14124000
-3.86809000 -4.60557000 -1.03419000
-3.52295000 -4.62637000 -1.24863000
2.67419000 -4.18910000 1.39802000
3.08529000 -4.35955000 1.39708000
2.95531000 -4.20783000 1.38232000
-3.80451000 -4.55736000 -1.06042000
-3.84346000 -4.58241000 -1.00679000
-3.86478000 -4.56314000 -1.00383000
-5.02490000 4.08015000 -0.37938600
-4.96242000 4.07609000 -0.33948100
-4.99837000 4.15475000 -0.33619500
-4.85569000 3.99107000 -0.35618900
-4.84271000 4.04881000 -0.38967700
-4.87151000 4.00449000 -0.40185600
-0.98913400 0.07239860 -1.26715000
-0.78643000 -0.03603850 -1.20311000
-1.06345000 0.26662000 -1.31319000
-1.19669000 0.28445600 -1.31924000
2.87841000 -4.25192000 1.39756000
3.48988000 3.28170000 0.02760870
3.38548000 3.53022000 0.04501730
-4.93694000 4.14314000 -0.34993100
-4.93694000 4.14314000 -0.34993100
-4.88873000 4.03922000 -0.36021600
-4.89310000 4.09814000 -0.37117800
2.04129000 -3.81956000 -1.50992000
2.08879000 -3.56732000 -1.61384000
2.03477000 -3.64630000 -1.62051000
-2.00167000 -3.49794000 1.66876000
-1.78127000 -3.38993000 1.54797000
-1.98642000 -3.44258000 1.60661000
-1.65365000 -3.35666000 1.51549000
-1.93141000 -3.37264000 1.49745000
2.30904000 -2.85434000 1.53979000
2.31521000 -2.86806000 1.55673000
-1.20647000 -0.02432170 -1.27698000
-1.29366000 0.01853940 -1.29302000
-1.04929000 0.16058100 -1.29590000
-1.10697000 -0.30127700 -1.21382000
-0.07353950 -3.22879000 1.13191000
0.06693340 -3.20599000 1.12885000
0.04007470 -3.22824000 1.15203000
-0.05414310 -3.21458000 1.09376000
0.19527400 -3.18175000 1.07764000
0.82308500 4.19086000 -0.81235200
0.77919600 4.32103000 -0.87234200
0.77726800 4.39165000 -0.81818500
0.81744100 4.34169000 -0.81786200
-2.80664000 -2.94035000 -1.00887000
-3.20854000 -3.32009000 -0.90062200
-3.18328000 -3.28080000 -0.92852800
4.83479000 -4.23961000 -0.02878880
3.54217000 -1.19275000 0.47504900
3.57393000 -1.12963000 0.58522800
3.50017000 -1.18253000 0.52181800
-0.20101500 -3.82613000 1.85124000
-0.21343600 -3.77297000 1.88003000
-2.64532000 3.34629000 0.02743140
-2.58281000 3.31450000 0.12698200
-2.92309000 3.74013000 -0.26705300
-2.90904000 3.64786000 -0.25176100
-2.81996000 3.62415000 -0.20514100
3.35826000 3.31875000 0.12113300
3.43175000 3.36317000 0.08032280
3.46450000 3.40409000 0.06747680
3.46525000 3.46931000 0.03422870
-2.19658000 0.38967300 0.67272000
-1.77761000 1.99236000 -0.62125300
-2.99245000 2.88609000 -0.52771100
-2.06223000 0.76041800 0.45090100
0.17270300 -1.64977000 -0.74624100
0.33073000 -1.68864000 -0.69554700
-0.03523790 3.78015000 0.00337839
0.16585600 3.68975000 -0.03820450
-3.22422000 -3.39899000 -0.88185800
-3.26232000 -3.44533000 -0.99074500
-3.28948000 -3.43836000 -0.90885000
0.91673400 5.26393000 -0.98710700
0.88927800 5.27104000 -1.07649000
0.15007000 2.33680000 0.73743300
4.70295000 -3.76244000 0.06729490
4.63680000 -3.87456000 -0.07794860
0.31044900 3.56070000 -0.06091770
0.31909800 3.59649000 -0.09564080
1.95825000 -4.55801000 -1.53731000
1.64097000 -4.56679000 -1.55347000
1.81013000 -4.50975000 -1.56476000
-1.84056000 -3.51871000 1.74538000
-4.82218000 3.80708000 -0.35517900
-4.32576000 3.72254000 -0.32567400
-4.70483000 3.86865000 -0.37196000
-4.87386000 3.83503000 -0.30137200
-4.86069000 3.82802000 -0.34633800
-4.82322000 3.88685000 -0.32043000
-2.86179000 2.56518000 0.14246000
-2.86429000 2.59994000 0.15758800
-2.96130000 2.56595000 0.22739900
0.86210700 5.23112000 -1.12531000
0.81141400 5.15997000 -1.15701000
0.86626200 5.20902000 -1.05513000
0.89630400 5.24120000 -1.03505000
-2.79235000 -4.18061000 1.68662000
-2.79555000 -4.21559000 1.71790000
-2.58818000 -4.21556000 1.75263000
-3.00093000 -4.19239000 1.56704000
-3.01597000 -4.21805000 1.65516000
0.71911800 1.37654000 0.88925700
0.68615700 1.40087000 0.90489300
-2.96056000 -2.94915000 1.16472000
-2.86693000 -2.95565000 1.22884000
-4.08076000 -3.73068000 -0.54743300
-4.07182000 -3.87170000 -0.52487700
-4.03313000 -3.81320000 -0.58720500
-4.00563000 -3.91884000 -0.52078500
3.22707000 0.14688700 -0.77719500
3.22707000 0.14688700 -0.77719500
3.20950000 0.11570800 -0.76247200
-3.12405000 0.77836400 0.67213200
-3.15835000 0.77216400 0.61077800
-3.11848000 0.72983500 0.64277600
-3.01617000 0.73666600 0.72552500
1.44448000 -3.27454000 0.01629690
1.47854000 -3.29065000 -0.10763400
1.40563000 -3.29112000 -0.23049100
2.85530000 -0.82045400 -0.88739400
2.79597000 -0.91349600 -0.88464400
2.91755000 -0.80002500 -0.90104000
4.13669000 -3.99172000 1.35218000
4.11954000 -3.96529000 1.32933000
4.13669000 -3.99172000 1.35218000
-2.81541000 1.58984000 -0.98127300
-2.78966000 1.55298000 -0.93660700
-2.85251000 1.58846000 -0.99418800
-2.81541000 1.58984000 -0.98127300
-2.84761000 1.55143000 -0.93846500
-1.94313000 5.63919000 -0.18195100
-2.01254000 5.68000000 -0.27528700
-1.97459000 5.63643000 -0.26795000
-2.00801000 5.66482000 -0.32918400
2.90602000 -0.71708900 -0.73682700
0.85953800 -4.19144000 -1.53750000
1.45457000 -4.21018000 -1.52542000
1.63606000 3.49851000 -0.02216300
1.74597000 3.54907000 -0.05914070
1.94092000 3.67477000 -0.20343800
1.79419000 3.58434000 -0.09087040
-5.05994000 4.02717000 -0.32847400
-5.02302000 3.96229000 -0.35395300
-5.02758000 4.02518000 -0.38358100
1.92468000 2.96088000 -0.90632800
-1.55998000 0.50410700 0.79606500
-1.61846000 0.53826800 0.78031300
2.06584000 -4.99262000 -1.58178000
1.78054000 -4.90285000 -1.60068000
1.89120000 -5.00248000 -1.62346000
2.07464000 -4.99678000 -1.65948000
3.15996000 -0.50644500 -0.88403000
3.26450000 -0.39541700 -0.90406700
-5.05770000 4.09141000 -0.29411100
-5.14178000 4.03221000 -0.29498300
-5.07133000 4.04605000 -0.30845000
-2.90478000 -3.49356000 1.42906000
-2.96723000 -3.59935000 1.53165000
-2.94544000 -3.59455000 1.58465000
-1.00378000 3.07278000 1.60729000
0.00699371 3.86216000 -1.35596000
0.01809150 4.02333000 -1.41101000
0.03857770 3.97707000 -1.36773000
-1.66980000 3.05358000 -1.23530000
-1.91523000 2.98705000 -1.22232000
3.40115000 -4.72819000 -1.16755000
3.59730000 -4.63468000 -1.08692000
3.40905000 -4.65169000 -1.12276000
3.67855000 -4.98585000 -1.25900000
3.59704000 -4.83430000 -1.19127000
-1.41462000 3.43643000 -1.30750000
-1.55300000 3.55331000 -1.25074000
-1.01676000 3.35412000 -1.39913000
0.03066390 3.94283000 -1.40603000
0.02831830 3.90252000 -1.35327000
3.57366000 2.83084000 -0.30779800
3.56790000 2.84623000 -0.14901900
3.54356000 2.89489000 -0.12485800
-2.03209000 6.57054000 -1.39830000
-1.82946000 6.75879000 -1.43503000
-2.71159000 -4.51902000 -1.03188000
-2.77297000 -4.58851000 -1.06449000
-2.67252000 -4.53989000 -1.05305000
-2.34858000 -4.70822000 -1.14251000
-2.22450000 -4.88928000 -1.21988000
-2.06749000 -4.70188000 -1.15376000
3.49898000 2.86819000 -0.26865100
3.53035000 2.82979000 -0.25653300
3.45817000 2.86542000 -0.29974000
3.45018000 2.88147000 -0.17808800
-1.26083000 3.48430000 -1.30277000
-1.24702000 3.46729000 -1.34678000
-1.11869000 3.42885000 -1.35349000
-1.02686000 3.40161000 -1.39136000
-0.22299900 5.92366000 -0.87737000
-0.15371500 5.96514000 -0.88175400
-0.22265000 6.02060000 -0.91174400
-0.22256900 6.35473000 -0.86824400
-0.24249100 6.15562000 -0.86810900
-3.43010000 -3.19796000 -0.95282500
-3.43159000 -3.14112000 -0.97670700
-3.35390000 -3.11382000 -1.04175000
-0.17473300 3.97008000 0.14592300
-0.19844400 3.89825000 0.10366700
-0.12221200 4.03344000 0.04861170
-0.31370800 3.82435000 0.28093300
4.58364000 -4.71451000 0.38719500
4.52782000 -4.63066000 0.42957700
4.62428000 -4.73416000 0.25437100
4.65354000 -4.77861000 0.19847700
-1.54834000 3.47561000 -1.31929000
-1.49142000 3.45480000 -1.33269000
-1.49798000 3.48148000 -1.27224000
-1.55776000 3.49068000 -1.29454000
-1.59355000 3.54809000 -1.22056000
3.40910000 0.68766700 -0.91367700
3.50341000 3.43964000 -0.57218300
3.50304000 3.40555000 -0.60367800
4.34459000 -4.34366000 0.52292100
4.37799000 -4.44330000 0.64786000
4.31705000 -4.29124000 0.48816200
4.27513000 -4.22765000 0.56529300
4.26231000 -4.16328000 0.49119500
-1.72329000 1.57593000 -0.57897900
-1.73845000 1.46455000 -0.60069500
-1.04503000 6.30796000 -1.36505000
-1.05354000 6.50769000 -1.36529000
-1.73367000 2.54210000 0.63416700
-3.46079000 -4.55015000 -1.24692000
-3.42650000 -4.51863000 -1.26127000
-3.45416000 -4.49654000 -1.22555000
-3.30586000 -4.50412000 -1.28874000
-2.13662000 0.42480400 0.41467000
-2.15872000 0.55844600 0.32424000
-2.11344000 0.67205300 0.32953800
-1.53365000 0.37482600 0.76622000
-1.45334000 0.28142100 0.74962900
-2.73639000 -4.61887000 -1.08386000
-2.76027000 -4.72821000 -1.11477000
-2.67248000 -4.61053000 -1.09828000
-2.57583000 -4.72877000 -1.12793000
-2.61862000 -4.65404000 -1.11380000
-2.62179000 -4.72853000 -1.14430000
-0.77935400 -0.41643500 -1.09664000
-0.71822600 -0.54230700 -1.05142000
-0.38206700 -0.87677600 -0.91979000
-0.59356500 -0.81177200 -0.94831000
4.58190000 -4.76965000 1.21759000
4.64168000 -4.83825000 1.17979000
4.70256000 -4.81612000 1.08722000
3.71627000 -1.37334000 -0.93193200
3.99230000 2.19688000 -0.55249300
4.08371000 2.28119000 -0.55556200
3.98387000 2.21879000 -0.59282800
4.03895000 2.29672000 -0.61063300
1.78768000 0.75121500 -0.69726300
1.72414000 0.82380900 -0.64662800
1.73394000 0.80052000 -0.73774200
1.66459000 0.85523200 -0.73814500
4.88471000 -5.30588000 -0.36064800
4.92126000 -5.33075000 -0.01359170
4.89649000 -5.28995000 0.01125230
4.84043000 -5.20861000 -0.04307010
-2.18379000 2.58469000 1.18655000
-2.21697000 2.52102000 1.27342000
-2.11105000 2.61659000 1.42961000
-2.15922000 2.61450000 1.31681000
-2.17885000 2.55852000 1.36151000
-3.84833000 3.32390000 -1.07992000
-3.85018000 3.35427000 -1.11268000
-3.85816000 3.27888000 -1.08949000
-3.86266000 3.24537000 -1.02040000
-3.87184000 3.31135000 -1.04419000
-2.24680000 1.36069000 1.01595000
-2.39799000 1.38772000 0.76960200
-2.31479000 1.37960000 0.88567200
-2.32713000 1.32179000 0.78309300
4.06326000 2.27383000 -0.57711600
-2.19774000 5.71584000 -0.99504000
-2.17301000 5.69567000 -0.97631800
0.06343780 -5.08214000 2.24199000
0.24862500 -5.06574000 2.21416000
-0.01552180 -5.07240000 2.20265000
3.69210000 -4.73984000 1.44294000
3.61288000 -4.62883000 1.41820000
3.71559000 -4.88711000 1.51031000
0.37745100 -0.08571510 0.32329500
0.39361900 -0.01720350 0.32746700
-1.19543000 3.33677000 -1.38024000
-1.20424000 3.28952000 -1.38053000
-1.28623000 3.36362000 -1.36049000
3.97245000 2.54694000 -0.54054200
-2.17201000 1.18334000 0.88810000
-2.11682000 1.06123000 0.81568300
-2.11824000 0.96180100 0.74917600
4.09552000 1.96042000 -0.76792400
4.08555000 2.08905000 -0.74986900
4.13240000 2.10682000 -0.73612300
-2.11933000 0.86844000 0.73376500
-2.05573000 0.87123900 0.81430900
-2.13217000 0.94519200 0.68745900
4.33791000 -4.62453000 1.01527000
4.43068000 -4.68131000 0.96966000
4.41160000 -4.53396000 0.72829300
0.67379800 2.06221000 1.06818000
0.69958700 2.06962000 1.18488000
0.72130700 2.13635000 1.04261000
0.74044200 2.10979000 1.17442000
0.69958700 2.06962000 1.18488000
0.76723200 2.11884000 1.24093000
-2.12145000 2.49273000 1.48108000
-2.08580000 2.58535000 1.49944000
0.69299100 2.06718000 1.21164000
0.65940100 2.09638000 1.27784000
0.69299100 2.06718000 1.21164000
0.65940100 2.09638000 1.27784000
4.05330000 2.37522000 -0.58449500
-0.63439400 -3.53780000 -1.60893000
-0.70883900 -3.68757000 -1.65228000
-0.64154700 -3.64868000 -1.65482000
-2.82599000 -4.97984000 -1.20831000
4.25408000 -4.42473000 0.89275700
4.36336000 -4.53619000 0.88498700
4.22842000 -4.50940000 1.01484000
3.94318000 -4.49122000 1.22207000
4.01799000 -4.35666000 1.10361000
0.22687800 -3.25839000 -0.37049600
0.38207000 -3.26399000 -0.44851700
0.56677600 -3.25576000 -0.45049800
-1.21688000 0.54947200 0.79302300
-1.11998000 0.55406300 0.87335200
-1.30005000 0.73466200 0.91928300
-1.14317000 0.47424300 0.76709700
-0.98557700 -3.37505000 -0.76971400
-1.39786000 -3.34563000 -0.72579400
-1.48290000 -3.31141000 -0.68127400
2.82037000 0.16977900 -0.85381100
2.82492000 0.20064600 -0.81177800
2.86749000 0.23463500 -0.80330800
2.80725000 0.24903300 -0.79224100
-1.77882000 -3.71415000 -1.58122000
-1.65421000 -3.75017000 -1.62692000
-1.50722000 -3.74117000 -1.64333000
0.77223700 -3.26446000 -0.70007700
0.89728600 -3.29395000 -0.74023900
0.94403600 -3.25637000 -0.63015400
4.95950000 -4.86860000 0.75529700
4.98775000 -4.90851000 0.70335500
4.99525000 -4.94037000 0.61211800
4.95551000 -4.91976000 0.88516400
-0.45097200 4.83748000 -1.86268000
-0.43412000 4.89233000 -1.86627000
-0.41068700 4.93184000 -1.84012000
-0.39782500 4.88461000 -1.88425000
-2.25934000 2.19702000 1.29280000
-2.19513000 2.16367000 1.26593000
-2.26899000 2.27867000 1.27637000
-4.12916000 1.15098000 -1.00689000
-4.23718000 1.23209000 -1.00971000
-4.26053000 1.28573000 -1.00525000
-4.19723000 1.39312000 -0.97293200
0.91660200 0.70346800 1.24405000
0.88556800 0.79308800 1.33449000
4.17031000 -4.41096000 0.99501400
4.12281000 -4.25815000 0.92234600
4.18977000 -4.32940000 0.87961500
4.23141000 -4.29188000 0.76803000
4.21169000 -4.31877000 0.81738000
4.13098000 -4.20041000 0.87279700
-2.04552000 0.41920400 1.33272000
-2.01584000 0.36273300 1.37433000
-2.09738000 0.46053800 1.37266000
-2.19334000 0.53132400 1.30978000
-0.29552300 1.83602000 2.08205000
-0.31508300 1.82079000 2.02753000
-0.31243200 1.81660000 2.08889000
-0.30973800 1.75903000 2.06456000
-0.23889000 1.72790000 2.15685000
-1.69710000 5.68009000 -0.53313800
-1.63430000 5.64307000 -0.41988800
-1.73432000 5.60614000 -0.36173600
-1.64475000 5.52403000 -0.27770400
-1.67600000 5.59784000 -0.36545900
-1.33786000 4.53029000 0.43284000
-1.35266000 4.67529000 0.40609500
2.35500000 -1.57602000 0.68637500
2.34813000 -1.61682000 0.60969900
2.38555000 -1.62367000 0.69585400
2.44530000 -1.47267000 0.73892500
2.37762000 -1.46299000 0.76708500
2.46333000 -1.41963000 0.70287700
3.64393000 -1.37158000 0.22648300
3.60220000 -1.41730000 0.19904300
3.62787000 -1.43001000 0.13598600
-4.19060000 -4.17967000 0.01682600
-1.20107000 4.52559000 0.61925300
-1.28670000 4.61318000 0.52607500
-0.99704400 4.43625000 0.70872200
-1.01102000 4.40296000 0.66428900
-2.37154000 -2.10643000 -0.67136000
-1.44632000 4.03661000 -1.40564000
-4.19252000 -4.16473000 0.43163700
-4.16214000 -4.16519000 0.40122500
-4.15033000 -4.17392000 0.31478400
0.71370200 0.55228400 0.65119200
0.65721400 0.54974700 0.70084400
0.60576100 0.47071600 0.62287700
0.69235700 0.55923300 0.65587000
-1.45887000 1.92215000 0.91287700
-1.41883000 1.86159000 0.97687600
-1.41961000 1.94408000 0.95730800
-1.44957000 1.99381000 0.89361400
-1.41515000 2.08992000 0.90448400
-1.43161000 2.13124000 0.87683600
-0.20087900 5.63697000 -0.77538100
-0.24531400 5.63408000 -0.72371300
-0.24493000 5.61657000 -0.64991400
0.96682000 0.38032800 -1.29346000
3.07240000 -3.25245000 1.52539000
3.06031000 -3.27827000 1.62032000
1.73360000 -3.55475000 -1.43423000
1.75611000 -3.62459000 -1.42767000
1.73433000 -3.76767000 -1.51487000
1.75464000 -3.71213000 -1.45902000
1.76166000 -3.83596000 -1.47305000
-3.73642000 3.15091000 -0.45301500
-3.75197000 3.13494000 -0.47204200
-3.69665000 3.16247000 -0.46606600
-3.73642000 3.15091000 -0.45301500
-3.69005000 3.19551000 -0.42342900
-0.69766500 -2.10556000 0.11008200
-0.71072200 -2.07619000 0.04676650
-0.70298700 -2.04206000 0.14542800
-3.13304000 -2.31268000 -0.16047900
-3.14049000 -2.32117000 -0.10872000
-3.06642000 -2.29885000 -0.13675000
-3.19184000 -2.43789000 -0.09543980
-3.15194000 -2.41445000 -0.06210570
-3.15537000 -2.41250000 -0.16804700
4.35135000 -2.87927000 0.00107530
4.37574000 -2.84562000 0.04124210
-3.80600000 3.17440000 -0.45804900
-3.80123000 3.15952000 -0.51902600
-3.82329000 3.11589000 -0.64821800
-3.79158000 3.07957000 -0.66851100
-3.78912000 3.09695000 -0.62036600
-2.06010000 4.16358000 -1.02841000
0.77311500 0.05396270 -1.21586000
0.84962000 0.16782700 -1.25205000
0.92554200 -0.00498260 -1.21520000
1.78170000 1.00207000 1.34743000
2.45381000 -3.28854000 -0.61776200
2.54191000 -3.35799000 -0.72304400
2.59707000 -3.34454000 -0.69630700
-0.00297189 -3.43018000 1.21782000
0.24508000 -3.53364000 1.24965000
0.02776420 -3.56371000 1.25294000
0.37335000 -3.46832000 1.23414000
0.53852900 -3.61240000 1.28709000
0.24508000 -3.53364000 1.24965000
0.33480600 -3.32472000 1.19916000
0.57453700 -3.25378000 1.18515000
0.56178100 -3.35389000 1.20782000
0.24463200 -3.40264000 1.21284000
-1.58806000 4.99294000 -0.06440580
-1.61428000 4.98201000 0.00382291
-1.63877000 5.05356000 -0.04141610
-1.59130000 4.92327000 -0.06347230
1.37785000 -3.43125000 1.21010000
1.22154000 -3.45680000 1.22608000
1.27087000 -3.38178000 1.21913000
-1.55539000 4.98079000 0.08811940
-1.50906000 4.97893000 0.11174200
-1.56359000 4.93668000 -0.02198610
-0.03930030 5.25278000 0.56712700
0.06306770 5.22091000 0.44376600
0.09625760 5.21992000 0.38581300
-1.44059000 2.03131000 0.83529800
-1.45501000 1.85687000 0.93530000
-2.37410000 1.65776000 -0.22277900
-2.47257000 1.66447000 -0.35907200
-2.41487000 1.73287000 -0.32164800
-2.44220000 1.60809000 -0.30838000
-2.64983000 -3.03105000 1.50699000
-2.61933000 -3.00820000 1.50614000
-2.62647000 -3.11871000 1.51977000
-2.59134000 -3.07415000 1.53522000
-2.65345000 -3.06309000 1.52168000
1.32422000 1.99452000 1.19204000
1.37104000 2.01603000 1.20703000
1.36795000 2.00581000 1.11094000
0.58348200 3.32153000 -1.23514000
0.44827500 3.29993000 -1.27718000
0.54810100 3.37352000 -1.22942000
0.11286500 3.15097000 -1.35680000
4.34947000 -2.82027000 0.30627700
4.32508000 -2.86756000 0.32076500
4.36200000 -2.83466000 0.21560400
4.35491000 -2.87775000 0.27326400
0.08443820 5.10478000 0.25235000
0.32842700 5.12196000 -0.06276490
0.43444500 5.20798000 -0.11390700
-2.98849000 -2.97209000 1.34232000
-2.90693000 -2.98565000 1.36894000
-2.95457000 -2.96246000 1.30848000
-2.91354000 -3.06391000 1.43381000
-2.90792000 -3.01837000 1.40921000
4.30447000 -2.96058000 0.24481800
-0.75259900 4.72767000 -1.53335000
-0.75848600 4.63303000 -1.51556000
-0.84080700 4.71150000 -1.54317000
-0.66365000 4.61544000 -1.49446000
-0.69476600 4.57619000 -1.49639000
-0.39269100 4.34531000 0.61199000
-0.48233900 4.28221000 0.62435200
4.27788000 -2.82634000 0.60210100
4.25961000 -2.91837000 0.58073500
-3.07051000 -2.95937000 1.26268000
-3.11298000 -2.95773000 1.21578000
-3.15676000 -2.96872000 1.26627000
-2.93640000 -2.96064000 1.24446000
2.25628000 -3.70562000 1.27402000
2.25882000 -3.75327000 1.29979000
2.22599000 -3.73957000 1.24032000
-3.77489000 3.07986000 -0.72661200
-3.80370000 3.16860000 -0.99369700
-3.74353000 3.15267000 -0.89459400
-0.44967100 4.46018000 -1.46413000
-0.58976900 4.41551000 -1.46545000
-0.34837600 4.58879000 -1.50004000
-0.25766200 4.50840000 -1.56954000
-0.34356400 4.50621000 -1.47321000
-0.34823100 4.60999000 0.70340500
-0.29209800 4.63336000 0.65047000
-0.30617900 4.84078000 0.66198700
2.48058000 -3.80251000 1.73350000
2.43197000 -3.87649000 1.75739000
2.50861000 -3.86067000 1.79611000
2.57650000 -3.89158000 1.78193000
2.50005000 -3.94355000 1.73272000
-0.14732300 4.59165000 -1.62663000
-0.15220300 4.71809000 -1.63722000
2.95050000 4.05115000 -0.07990170
-3.48754000 5.03618000 -1.30822000
0.66604800 -0.16852400 -1.18565000
0.64081100 -0.23201800 -1.17523000
0.48454700 0.16407900 -1.27470000
0.74845200 -0.26333800 -1.16906000
0.91373800 -0.50091300 -1.11969000
-3.74667000 1.00434000 -0.70340200
-3.68858000 0.90958200 -0.70762400
-3.84051000 1.05157000 -0.74500700
-3.89998000 1.00517000 -0.78551700
4.66236000 -3.63671000 -0.03804070
4.62664000 -3.64692000 -0.06806080
4.58608000 -3.53795000 -0.00028270
4.63180000 -3.67440000 -0.18611100
0.45530000 3.81401000 -0.52390900
0.41404600 3.79827000 -0.53509300
0.52555200 3.78245000 -0.60706900
-0.75613900 6.00101000 -0.81449900
-0.72336600 6.06253000 -0.76835900
-0.74510400 6.07263000 -0.72415700
-0.24887400 3.49074000 -0.08844390
-0.30794600 3.44122000 -0.00208277
-0.20484500 3.48872000 -0.05144730
-0.44843200 3.34470000 0.18428400
-0.31381100 3.40757000 0.09564020
-0.45848400 3.36117000 0.11177300
0.25956000 -3.32520000 -0.68890900
0.24117300 -3.29933000 -0.61718500
0.20121000 -3.30618000 -0.67361700
0.19914400 -3.28430000 -0.50286300
0.19736700 -3.29545000 -0.62394400
0.22588100 -3.26414000 -0.53917800
-0.76667000 6.19247000 -0.86202600
-0.72996700 6.08013000 -0.83531300
-0.74716600 6.20778000 -0.84075000
1.35005000 -0.21094800 0.63484000
1.40618000 -0.31000300 0.62666400
1.47308000 -0.25205400 0.64946300
1.62132000 -0.44819200 0.64569900
1.47187000 -0.43740400 0.62346600
1.50250000 -0.48520100 0.66129600
2.44560000 -3.90049000 1.76897000
2.36345000 -3.90738000 1.77422000
0.50078000 2.35875000 1.99521000
0.42959200 2.41560000 1.86946000
0.34383300 2.53453000 1.91636000
0.40691100 2.47020000 1.92349000
-0.52246200 -2.56230000 1.40477000
-0.57343600 -2.58882000 1.45517000
-0.57373700 -2.53575000 1.32408000
-5.07588000 3.88429000 -1.05014000
-5.06384000 3.93253000 -0.99377600
0.35430300 2.51952000 1.96036000
0.38638700 2.47228000 1.98568000
0.30105500 2.52097000 2.01338000
0.22012800 2.48418000 2.03311000
0.29613900 2.45809000 2.05475000
-0.25653700 3.42220000 0.12287600
