-0.99640000 3.05140000 0.28890000
2.82860000 1.42590000 0.35160000
2.87630000 1.56970000 0.36070000
2.86500000 1.65080000 0.35100000
2.86290000 1.58210000 0.40930000
-1.14200000 6.49170000 -1.28480000
-1.14440000 6.51220000 -1.32920000
-1.12020000 6.52810000 -1.34000000
-1.11210000 6.51730000 -1.29520000
-0.08650000 2.78310000 0.46770000
-0.07590000 2.72770000 0.44420000
-0.06490000 2.84330000 0.48380000
-0.11130000 2.68580000 0.40340000
-0.20160000 2.66840000 0.45010000
-0.25150000 2.59360000 0.42860000
-0.66760000 4.74180000 -0.39360000
-0.56040000 4.52490000 -0.42880000
1.32220000 2.70080000 -1.26130000
1.37370000 2.69170000 -1.21290000
1.27790000 2.64930000 -1.32160000
1.21780000 2.75370000 -1.33740000
1.27220000 2.71200000 -1.30710000
1.17790000 2.67870000 -1.40880000
-1.43530000 3.99950000 -0.88190000
-1.53190000 4.01650000 -0.86140000
-1.48070000 3.91150000 -0.77410000
0.84710000 1.70730000 1.48120000
0.88140000 1.66600000 1.45440000
0.68200000 5.78710000 -1.42640000
0.90710000 5.70920000 -1.34570000
2.65790000 1.45640000 -0.32120000
2.64720000 1.40500000 -0.29880000
2.66960000 1.39350000 -0.31780000
2.61690000 1.42280000 -0.49190000
2.65860000 1.41970000 -0.47610000
2.62500000 1.36380000 -0.48670000
0.25010000 3.63680000 -0.43360000
0.31210000 3.63180000 -0.45560000
0.35220000 3.69510000 -0.51570000
0.32210000 3.49170000 -0.35920000
0.29310000 3.54190000 -0.35730000
1.17000000 2.86550000 0.36360000
1.17860000 2.78220000 0.51520000
1.21490000 2.76220000 0.48230000
1.18890000 2.82000000 0.49530000
2.32610000 6.08150000 -0.48220000
2.37050000 6.05970000 -0.46830000
2.36670000 6.10120000 -0.50080000
2.34680000 5.93100000 -0.38130000
2.35770000 5.95830000 -0.41880000
0.29550000 8.15600000 -1.34330000
0.24450000 8.14610000 -1.40320000
0.27180000 8.18310000 -1.38610000
0.34230000 8.22970000 -1.27050000
0.30660000 8.23420000 -1.36950000
-1.02010000 6.78570000 -1.30610000
-0.96520000 6.80800000 -1.28670000
-1.05440000 6.83140000 -1.33060000
0.23470000 5.72350000 -1.72290000
-0.00920000 2.90410000 -0.47880000
-0.05380000 2.95630000 -0.48610000
-0.10320000 2.89630000 -0.51710000
0.03760000 2.96850000 -0.44020000
0.05050000 2.91720000 -0.44910000
0.59400000 4.78840000 -0.28780000
0.70550000 4.81020000 -0.38460000
0.62870000 4.86890000 -0.29600000
0.39850000 4.80130000 -0.25870000
0.52390000 4.76030000 -0.25840000
0.45870000 4.82300000 -0.24520000
-0.96130000 2.31930000 -1.20610000
-0.81420000 7.22400000 -1.18470000
-0.83140000 7.29850000 -1.17790000
-0.81650000 7.27020000 -1.20950000
-0.88140000 7.40370000 -1.24410000
-0.82970000 7.32330000 -1.21890000
-0.85840000 7.34850000 -1.18500000
-1.74780000 5.24990000 -0.99840000
-1.73690000 5.31180000 -1.01600000
-1.79380000 5.34080000 -0.99750000
1.05400000 2.84630000 -0.11350000
1.01650000 2.82950000 -0.15960000
0.83430000 2.78030000 -0.30270000
0.88330000 2.79270000 -0.26790000
0.94800000 2.85710000 -0.24900000
2.50250000 1.24670000 -0.16090000
2.64460000 1.33460000 -0.29730000
2.66820000 1.34440000 -0.34310000
-0.03400000 1.30470000 1.31260000
-0.15110000 1.29150000 1.29350000
0.08490000 1.24570000 1.39560000
0.07830000 1.23940000 1.35910000
2.46690000 6.62380000 -0.84740000
2.53780000 6.56960000 -0.84490000
-2.33420000 2.00010000 0.28470000
-2.34770000 1.95100000 0.14990000
-2.37360000 1.93940000 0.25680000
-2.28660000 2.01690000 0.05610000
-2.32540000 1.99970000 0.18150000
-1.42640000 5.88570000 -0.78320000
-1.51780000 5.90060000 -0.87830000
-1.52830000 5.87300000 -0.92960000
-1.40520000 5.81200000 -0.95390000
0.70470000 4.33320000 0.54290000
0.70880000 4.37580000 0.51140000
0.70760000 4.41320000 0.53410000
-2.45940000 5.67420000 -0.76570000
-2.48600000 5.62870000 -0.68110000
-2.48400000 5.70610000 -0.66730000
-1.69010000 5.60270000 -1.21000000
-1.64860000 5.53390000 -1.08310000
0.37760000 2.61910000 0.41920000
0.34130000 2.65490000 0.42730000
0.31220000 2.59420000 0.42070000
0.50240000 2.70640000 0.38960000
0.44480000 2.68370000 0.39440000
0.46470000 2.65770000 0.40860000
-0.55640000 3.61690000 -0.78780000
-0.59200000 3.61970000 -0.85900000
-0.66520000 0.05600000 1.39980000
-0.79490000 0.04970000 1.42980000
-0.71760000 0.01290000 1.46690000
-0.18450000 1.52960000 1.48610000
-0.06760000 1.52090000 1.47880000
-0.10240000 1.50910000 1.46640000
-2.60700000 1.73930000 0.59420000
-2.56850000 1.70940000 0.64100000
-2.57220000 1.75740000 0.63880000
-2.46080000 1.77650000 0.75990000
-2.49570000 1.77410000 0.71960000
-2.52930000 1.73600000 0.74090000
-1.30080000 1.99910000 1.06120000
-1.35130000 1.96300000 1.12660000
-1.50600000 1.96300000 1.11050000
-2.55530000 1.81270000 -0.07550000
-2.59160000 1.78740000 -0.04550000
-2.54940000 1.82670000 -0.03240000
-2.62540000 1.76250000 0.07410000
-2.62790000 1.74090000 0.11750000
-1.75160000 5.72990000 -0.96040000
-1.78270000 5.63010000 -1.02740000
-1.76240000 5.65040000 -1.05620000
-1.77320000 5.69450000 -1.00910000
-1.07500000 5.59570000 -1.39750000
-0.98930000 5.53290000 -1.50050000
-1.14260000 5.55440000 -1.39480000
2.09510000 3.47090000 -0.49670000
2.06190000 3.70580000 -0.55360000
2.06070000 3.50820000 -0.57550000
1.97540000 3.47230000 -0.62810000
2.00650000 3.48550000 -0.56780000
-1.39610000 0.94030000 1.32110000
-2.27230000 1.82970000 -0.64900000
-2.30940000 1.80890000 -0.59540000
-2.26060000 1.85650000 -0.60280000
-2.42120000 1.80180000 -0.42540000
-2.38830000 1.83700000 -0.44610000
-2.40380000 1.79140000 -0.45590000
-2.17800000 3.09190000 -0.83850000
-2.27020000 3.14870000 -0.84700000
-2.07660000 1.91580000 0.90910000
-2.13100000 1.94410000 0.84260000
-2.14800000 1.88000000 0.86030000
-2.24620000 1.80640000 0.72270000
-2.19570000 1.80440000 0.79230000
-2.20590000 1.86980000 0.79600000
-0.72660000 0.53070000 -2.22040000
-0.87820000 0.53470000 -2.15730000
-0.61480000 0.72300000 -2.20380000
-0.70590000 0.62560000 -2.18950000
0.85000000 1.59960000 -2.13760000
0.95380000 1.49220000 -2.06300000
0.77140000 1.38110000 -2.08260000
0.96800000 1.82620000 -2.17210000
1.00920000 1.85500000 -2.14300000
1.00960000 1.81140000 -2.15220000
-0.15100000 4.76590000 0.47450000
-0.13410000 4.85160000 0.44790000
-0.19590000 4.85030000 0.49700000
-2.48180000 0.35550000 0.76830000
-2.49050000 0.51360000 0.58280000
-2.41350000 0.58740000 0.70900000
-2.40320000 0.66040000 0.70830000
1.60560000 5.92430000 -0.75180000
1.62610000 6.01990000 -0.74070000
1.64460000 6.01400000 -0.80320000
1.60080000 6.00100000 -0.80650000
1.92000000 4.10750000 -0.50780000
2.00220000 4.02290000 -0.49560000
2.00510000 3.92180000 -0.54410000
-1.13200000 2.83550000 -1.13730000
-1.17080000 2.70190000 -1.18610000
-1.33050000 2.67090000 -1.02640000
-1.24620000 2.71950000 -1.10510000
-1.84080000 6.53550000 -0.84890000
-1.91020000 6.48680000 -0.87140000
-1.92590000 6.40630000 -0.86680000
-0.72540000 6.65490000 -1.25330000
-0.71990000 6.58340000 -1.23330000
-0.66170000 6.63230000 -1.20690000
-0.80710000 6.49750000 -1.26730000
-0.77400000 6.55920000 -1.25470000
-1.96550000 0.09690000 -0.93830000
-1.94760000 0.07080000 -0.97620000
-1.96060000 0.14250000 -0.97890000
-1.90320000 0.14470000 -0.94550000
0.05320000 5.29560000 -0.29960000
0.08530000 5.35490000 -0.32570000
-0.01430000 5.30900000 -0.29790000
0.45570000 5.98060000 -1.05300000
1.61720000 1.07420000 0.94670000
1.56490000 1.05520000 0.99430000
1.10200000 4.98990000 -1.39250000
2.86470000 1.65010000 0.40260000
-0.40800000 0.13970000 -2.33810000
-0.49630000 0.15380000 -2.32560000
-0.50500000 0.09030000 -2.32240000
-0.54050000 0.15650000 -2.31720000
2.17480000 3.25110000 -0.68310000
2.10340000 3.35360000 -0.65060000
2.13710000 3.35020000 -0.68390000
2.09340000 3.32460000 -0.61660000
2.33660000 1.02720000 0.81040000
2.26100000 0.93970000 0.96240000
2.30910000 0.93180000 0.98000000
2.26640000 0.96810000 0.92870000
0.88140000 6.15660000 -1.00690000
0.82990000 6.18700000 -1.02410000
0.85260000 6.20670000 -0.98270000
0.98150000 4.76460000 -1.12030000
1.00880000 4.81500000 -1.22130000
1.03560000 4.65970000 -1.06640000
0.94780000 4.67990000 -0.91230000
-0.45120000 2.28380000 -0.04760000
-0.45150000 2.26880000 -0.10430000
1.82450000 0.67360000 -1.38360000
0.36930000 6.38470000 -1.46390000
0.39700000 6.35390000 -1.47320000
0.37330000 6.35550000 -1.42010000
0.43670000 6.25090000 -1.42550000
0.41620000 6.27600000 -1.42410000
0.43610000 6.30690000 -1.45990000
2.15910000 5.87270000 -1.19690000
2.17450000 5.82580000 -1.15160000
2.20610000 5.76230000 -1.22200000
2.04690000 5.74010000 -1.33720000
2.14100000 5.82550000 -1.28630000
-0.29930000 5.53330000 -0.47330000
-0.23550000 5.53830000 -0.46560000
-0.23790000 5.61990000 -0.52920000
-0.11010000 5.67840000 -0.56340000
2.64740000 0.52040000 -0.21200000
2.59170000 0.53770000 -0.29910000
2.60310000 0.55330000 -0.22860000
-0.66680000 1.00430000 1.30310000
-0.69060000 1.05210000 1.33260000
-0.69040000 0.99890000 1.34300000
-0.72100000 0.92460000 1.46460000
-0.73510000 1.01620000 1.44240000
-0.78970000 5.83600000 -0.89610000
-0.82130000 5.89330000 -0.93310000
-0.82680000 5.82420000 -0.96320000
2.74530000 1.31570000 0.18420000
2.83280000 1.30110000 0.08410000
2.84920000 1.34460000 0.00640000
2.86300000 1.35900000 0.06370000
-2.41130000 1.00970000 0.49400000
-2.37720000 0.98890000 0.46560000
-2.41910000 0.94920000 0.47920000
-2.31390000 1.08450000 0.52100000
-2.24890000 1.08420000 0.48690000
1.65200000 0.71440000 1.37800000
1.51300000 0.77190000 1.37070000
-1.09520000 1.06500000 1.12530000
-1.06000000 1.11270000 1.07320000
-1.14150000 1.12940000 1.05690000
-0.10550000 4.54200000 0.67220000
-0.20520000 4.67360000 0.69670000
-0.14110000 5.70940000 -1.71530000
-0.32430000 5.75520000 -1.63010000
0.62870000 2.03710000 -1.93630000
0.51250000 2.11840000 -1.94850000
0.70340000 2.04170000 -1.91080000
0.47940000 2.05290000 -1.98120000
0.65330000 1.02310000 1.43610000
0.58870000 0.93740000 1.48890000
-0.47060000 7.30820000 -0.62430000
-0.45720000 7.25150000 -0.58330000
-0.42720000 7.27000000 -0.54580000
-0.49830000 7.28970000 -0.65860000
-1.60650000 7.19510000 -0.89950000
-1.61860000 7.11370000 -0.89570000
0.37230000 7.71570000 -1.47610000
0.34360000 7.75090000 -1.49180000
0.26000000 7.81650000 -1.52970000
0.20550000 7.79500000 -1.56060000
0.19140000 7.83410000 -1.53660000
-0.10680000 6.34040000 -1.70740000
-0.08670000 6.40060000 -1.70210000
-0.09260000 6.39970000 -1.76310000
0.00680000 6.28930000 -1.78940000
0.06100000 6.32430000 -1.82220000
-0.36000000 8.06240000 -1.21460000
-0.39550000 8.00550000 -1.23470000
2.31990000 0.85880000 -0.60180000
2.30640000 0.85170000 -0.68130000
2.26210000 0.92090000 -0.65980000
2.24790000 0.89530000 -0.69510000
2.16910000 0.94470000 -0.65500000
2.20820000 0.95960000 -0.63560000
-0.18890000 2.58840000 0.37740000
-0.33500000 2.49410000 0.39560000
-0.32880000 2.48000000 0.31210000
0.70390000 2.82610000 -0.12580000
0.67980000 2.93630000 -0.14870000
0.45320000 2.95380000 -0.23280000
0.55640000 2.93430000 -0.18350000
0.51210000 2.90660000 -0.19790000
-0.09070000 3.06840000 0.37840000
-0.08860000 3.00230000 0.43210000
2.84800000 1.75220000 0.06960000
2.81830000 1.77370000 0.03620000
2.82590000 1.67410000 0.06610000
-2.20560000 0.60800000 -0.60450000
-2.18420000 0.67340000 -0.62110000
-2.17560000 0.63920000 -0.66040000
-2.16330000 0.60550000 -0.69960000
-2.04620000 0.57670000 -0.93770000
-1.68660000 6.09950000 -0.72260000
-1.63870000 6.11600000 -0.73170000
-1.68870000 6.09270000 -0.76890000
1.53150000 0.85660000 1.41630000
1.45750000 0.90140000 1.37330000
1.35340000 0.98950000 1.18860000
1.39280000 0.96910000 1.25480000
1.20630000 2.87100000 -0.06570000
1.23810000 2.86120000 -0.03100000
1.23080000 2.91370000 -0.10450000
1.44270000 2.79330000 0.14630000
1.32070000 2.89280000 -0.00490000
1.33620000 2.77220000 0.08830000
-1.90420000 0.12510000 -1.34850000
-1.94140000 0.17610000 -1.36580000
-1.87840000 0.15420000 -1.42080000
-1.99130000 0.17620000 -1.30380000
0.83770000 3.62670000 -1.39230000
0.83180000 3.63950000 -1.32790000
0.85610000 3.55820000 -1.40960000
-1.98200000 5.53970000 -0.98620000
2.47510000 0.70390000 -0.50620000
2.42370000 0.71070000 -0.56020000
2.41240000 0.76400000 -0.55570000
2.58110000 0.72120000 -0.24030000
2.53170000 0.66570000 -0.38020000
2.52540000 0.77870000 -0.36060000
0.01740000 6.81330000 -0.36740000
-0.03120000 6.79150000 -0.42040000
0.08250000 6.79290000 -0.39650000
-2.07570000 0.07260000 0.82110000
-2.14680000 0.03450000 1.00080000
-2.15560000 0.04960000 0.95260000
-1.83540000 0.03060000 1.15400000
-2.07830000 0.03030000 1.03110000
-1.86170000 6.23700000 -1.40040000
-1.86290000 6.19260000 -1.32630000
-1.82310000 6.16660000 -1.29950000
-0.03500000 1.13090000 1.12560000
0.00000000 1.10520000 1.15600000
-0.00560000 1.15860000 1.11670000
1.71320000 1.23680000 1.04670000
1.78250000 1.23890000 1.07190000
1.60490000 1.26560000 1.14650000
1.56830000 1.26780000 1.17080000
0.53340000 6.57580000 -0.90150000
0.57430000 6.58250000 -0.98720000
0.19700000 1.22030000 1.28320000
0.23410000 1.25300000 1.33320000
0.23710000 1.38840000 1.50730000
-2.35830000 0.08270000 -0.58380000
-2.48550000 0.12950000 -0.37880000
-2.45950000 0.10980000 -0.37440000
-0.46180000 0.56460000 1.54980000
-0.54660000 0.64960000 1.52050000
-0.67210000 0.56880000 1.54070000
-0.58890000 0.64590000 1.52170000
-0.80080000 0.65420000 1.50870000
-0.82890000 6.86200000 -1.20690000
-0.80130000 6.78870000 -1.20680000
-0.74770000 6.86170000 -1.18620000
-0.70300000 6.72490000 -1.24230000
1.16460000 4.42980000 -0.22780000
1.17240000 4.47790000 -0.24600000
1.12950000 4.41240000 -0.25190000
-0.03370000 5.38510000 0.28890000
-0.03160000 5.35670000 0.31880000
0.40310000 4.49910000 0.37360000
0.43560000 4.51840000 0.39900000
0.42900000 4.50900000 0.35310000
0.41360000 4.58200000 0.46810000
-0.43860000 0.89230000 1.45860000
-0.41310000 0.92170000 1.50230000
-0.45460000 0.94970000 1.42070000
-0.47790000 0.97930000 1.35150000
-0.57010000 0.96920000 1.32440000
-0.52910000 0.92500000 1.38580000
2.22540000 6.45080000 -0.52890000
2.15880000 6.41070000 -0.53430000
2.27520000 6.38120000 -0.56280000
2.08180000 6.41950000 -0.52790000
2.01200000 5.41220000 -1.03500000
1.97990000 5.33500000 -1.00670000
1.99140000 5.45530000 -0.94990000
2.01630000 5.36890000 -1.03590000
2.05790000 5.36240000 -1.03070000
2.01990000 5.32450000 -1.03590000
-2.12730000 1.08440000 -0.22530000
-2.10060000 1.09810000 -0.28910000
-2.13930000 1.08880000 -0.27030000
-2.10710000 1.08580000 -0.19930000
-2.14600000 1.05580000 -0.21290000
-0.91720000 0.23880000 -2.25570000
-0.96040000 0.19630000 -2.23250000
-1.03200000 0.23530000 -2.20870000
-0.99190000 0.24940000 -2.22380000
-1.98420000 1.27910000 -0.62540000
-2.00120000 1.25270000 -0.58880000
-2.03230000 1.28810000 -0.61980000
1.27900000 1.78130000 1.16980000
1.20560000 1.77520000 1.18620000
1.36470000 1.74870000 1.21460000
1.62530000 1.83360000 1.11880000
1.37400000 1.89550000 1.09850000
1.46260000 1.84860000 1.13290000
-0.06600000 8.47460000 -1.32760000
-0.01470000 8.57550000 -1.37030000
0.58910000 2.78380000 0.32730000
0.57790000 2.81310000 0.26410000
0.45170000 2.79950000 0.25300000
0.77720000 2.83630000 0.33590000
0.49900000 7.43980000 -1.58610000
0.53520000 7.17080000 -1.58350000
0.44440000 7.28970000 -1.66930000
0.77680000 0.98980000 1.28160000
0.76860000 0.94560000 1.35200000
0.70520000 1.01030000 1.29380000
0.73980000 0.97500000 1.33180000
-0.02680000 3.53980000 -0.37740000
-0.03360000 3.39810000 -0.42390000
2.14040000 0.55090000 1.23000000
2.29200000 0.26790000 1.22690000
-0.30510000 7.34560000 -1.68790000
-0.46180000 7.30650000 -1.51930000
2.76590000 0.84860000 0.55120000
2.79550000 0.78710000 0.54950000
2.73860000 0.75420000 0.57990000
2.73990000 0.74890000 0.52720000
-2.23850000 3.65820000 -0.90870000
-2.16700000 3.98120000 -0.97250000
-1.91100000 4.20290000 -1.00320000
-2.00820000 1.85970000 -0.93440000
-1.96830000 1.85630000 -0.94980000
-2.01260000 1.85150000 -0.97620000
-2.09720000 1.84420000 -0.72690000
-2.03650000 1.84480000 -0.76300000
-2.08480000 1.85470000 -0.79360000
0.13710000 6.37900000 -1.82190000
0.15330000 6.30990000 -1.78680000
0.28120000 6.34790000 -1.70880000
0.25770000 6.39300000 -1.69040000
-1.01100000 2.01080000 -1.59470000
-1.15470000 2.02030000 -1.46550000
-1.12570000 2.02230000 -1.49060000
2.49230000 0.12790000 -0.78110000
0.62600000 3.84700000 -1.43560000
0.64940000 3.83870000 -1.48260000
0.62670000 3.83690000 -1.50590000
0.61330000 3.83380000 -1.34200000
0.65530000 3.81090000 -1.27430000
0.66890000 3.82220000 -1.33430000
1.87030000 6.53110000 -0.51310000
2.74750000 1.50380000 -0.13360000
2.73950000 1.53630000 -0.19770000
2.77360000 1.54690000 -0.16550000
2.71650000 1.47910000 -0.16570000
2.29930000 0.07820000 -0.55350000
2.37250000 0.06920000 -0.45270000
2.37930000 0.00700000 -0.46550000
2.34490000 -0.00600000 -0.54170000
2.42150000 -0.03390000 -0.49620000
-0.16790000 2.08410000 -2.00450000
-0.01950000 1.99380000 -2.01530000
0.05750000 1.98800000 -2.01730000
0.70510000 2.63620000 -1.84260000
0.91910000 2.51880000 -1.62120000
0.58180000 2.63170000 -1.89520000
0.54470000 2.74210000 -1.93190000
0.67890000 2.73170000 -1.88070000
-2.04510000 6.17140000 -1.34680000
-2.06770000 6.23420000 -1.34580000
-2.06100000 6.17590000 -1.42090000
-1.93840000 6.10250000 -1.42970000
-1.98480000 6.08700000 -1.41300000
-0.70380000 4.41340000 0.41780000
-0.87170000 4.48800000 0.29750000
-0.48740000 0.01940000 1.64660000
-1.84320000 0.10940000 1.49500000
-1.97210000 0.10610000 1.44740000
-1.76250000 0.11600000 1.53880000
-1.73100000 0.14760000 1.58270000
-0.75840000 4.93600000 -1.62380000
-0.73650000 4.71290000 -1.52890000
2.20840000 2.49580000 -0.61190000
2.16300000 2.63480000 -0.61100000
2.18910000 2.67470000 -0.59050000
-2.19420000 2.31300000 0.45640000
-2.14620000 2.31840000 0.32610000
-2.23220000 2.36660000 0.42370000
-2.25050000 2.43850000 0.39040000
-2.16590000 2.36580000 0.29000000
-2.51570000 1.82280000 -0.10390000
-2.46980000 1.80470000 -0.05350000
-2.51210000 1.80080000 -0.22520000
-2.44010000 1.83630000 -0.23430000
-2.48930000 1.82450000 -0.25570000
-0.03890000 4.55510000 0.75990000
0.06390000 4.44700000 0.75740000
0.13740000 4.50910000 0.81000000
1.58920000 2.68930000 0.29770000
1.66450000 2.69560000 0.35290000
1.34390000 2.71790000 0.18940000
-2.07370000 5.70740000 -1.06510000
-2.04920000 5.65130000 -1.08080000
-2.11140000 5.68300000 -1.03010000
-2.06980000 5.69320000 -1.14640000
-1.92530000 5.07970000 -1.21850000
-1.86420000 4.93330000 -1.16270000
-0.94860000 6.14000000 -1.35210000
2.75320000 5.62720000 -0.53960000
2.73560000 5.61190000 -0.61030000
-2.19080000 2.60500000 -0.40830000
-2.22360000 2.57450000 -0.46960000
-2.17770000 2.55370000 -0.37370000
0.93310000 4.89340000 -0.53430000
0.91420000 4.87970000 -0.55610000
0.88380000 4.77060000 -0.67460000
0.89900000 4.75560000 -0.59220000
-0.33300000 0.64390000 -2.27340000
-0.41790000 0.64670000 -2.26100000
0.41040000 4.12400000 0.54530000
0.35190000 4.17130000 0.56670000
0.35000000 4.14400000 0.51930000
0.27200000 4.23910000 0.52810000
0.26270000 4.26950000 0.43320000
0.29770000 4.19320000 0.47640000
1.39420000 5.34200000 -0.74860000
1.25510000 5.41270000 -0.66930000
2.37560000 1.05900000 0.30320000
2.39860000 3.23910000 -0.41710000
0.93910000 6.81010000 -1.20090000
0.90000000 6.83770000 -1.16100000
-1.84040000 6.41660000 -0.84030000
-1.48820000 2.77850000 0.78100000
-1.33830000 2.85480000 0.63720000
-0.62180000 7.57200000 -0.72280000
-0.66810000 7.64000000 -0.68310000
-0.65780000 7.61520000 -0.76340000
2.46780000 5.69950000 -0.42440000
2.35180000 5.78550000 -0.51060000
2.40450000 5.74900000 -0.51690000
2.43310000 5.73870000 -0.45520000
-0.29200000 3.06570000 0.09890000
-0.23630000 3.08680000 0.05110000
-0.28480000 3.05740000 0.06830000
-0.89550000 1.36150000 1.36650000
-0.89020000 1.40600000 1.40900000
-0.98450000 1.40610000 1.37340000
-0.81990000 1.28030000 1.35410000
-0.65430000 4.38750000 -0.07370000
-0.72240000 4.44910000 -0.08080000
-0.87090000 4.14990000 -0.22610000
-0.76690000 4.31670000 -0.14540000
2.60500000 1.91980000 0.03030000
2.64180000 1.88250000 0.08670000
2.63810000 1.82470000 0.04900000
2.66090000 1.81130000 0.11470000
2.66450000 1.82140000 0.18840000
-0.85350000 6.40180000 -1.21310000
-0.79300000 6.38430000 -1.19060000
-0.77640000 6.44570000 -1.21600000
-0.84780000 6.32570000 -1.18350000
-0.87470000 6.37730000 -1.20310000
-2.13170000 6.14220000 -0.93150000
-2.16060000 6.15720000 -0.92700000
-2.15430000 6.11450000 -0.88110000
1.65440000 6.03150000 -0.95770000
1.59370000 6.03780000 -0.90330000
1.67300000 6.05480000 -0.88710000
1.62390000 5.99740000 -0.85270000
-1.87860000 2.69480000 -0.63480000
-1.95930000 2.64780000 -0.67370000
-2.11250000 2.60950000 -0.70630000
-2.07850000 2.65210000 -0.67300000
-2.08970000 2.58020000 -0.71110000
0.02770000 6.12130000 -0.83000000
-0.00030000 6.06010000 -0.85280000
-0.00940000 5.98760000 -0.84760000
0.05810000 5.99690000 -0.84300000
-0.67250000 5.60360000 -0.72930000
-0.68650000 5.56750000 -0.71680000
-0.73270000 2.02030000 -1.79350000
-0.66270000 2.04360000 -1.82240000
1.11470000 1.06780000 1.02390000
1.07430000 1.10610000 1.00490000
-0.10900000 6.16550000 -0.85790000
-0.28730000 6.28150000 -0.91460000
-0.26420000 6.26220000 -0.80800000
-0.35100000 6.34660000 -0.90950000
-1.84590000 5.19410000 -1.32110000
-1.82480000 5.15670000 -1.30610000
-1.88650000 5.15770000 -1.27530000
1.43820000 0.10030000 -1.89530000
1.39270000 0.15500000 -1.99290000
1.51220000 0.17800000 -1.91650000
1.47740000 0.23440000 -1.94950000
1.88300000 6.10420000 -1.04910000
2.01690000 6.12610000 -1.09360000
2.02380000 6.17590000 -1.05250000
-1.45500000 3.70770000 -0.25170000
2.60050000 5.84000000 -0.73560000
2.54440000 5.86440000 -0.70650000
2.57160000 5.80420000 -0.68600000
2.54230000 5.77970000 -0.76760000
-2.48560000 0.59120000 0.39810000
-2.48130000 0.65450000 0.24780000
-2.46820000 0.66470000 0.13740000
-2.46880000 0.60100000 0.13840000
-0.18360000 4.65660000 -0.31360000
-0.27880000 4.65500000 -0.29040000
-0.32820000 4.57550000 -0.28110000
-0.25310000 4.58210000 -0.33260000
1.01890000 4.15430000 -0.54090000
0.98580000 4.22110000 -0.52910000
1.05630000 4.14580000 -0.60230000
0.97710000 4.38950000 -0.55350000
0.94760000 4.45950000 -0.62140000
1.01780000 4.31900000 -0.64730000
-2.62560000 0.14480000 0.01150000
0.70060000 1.02290000 1.31630000
0.66180000 1.06900000 1.30830000
0.92480000 0.26160000 1.70110000
-0.26400000 8.28190000 -1.08590000
-0.27030000 8.32080000 -1.07200000
-0.25440000 8.31660000 -1.11470000
-0.25410000 8.29390000 -0.98790000
-0.24950000 8.21280000 -0.99040000
-0.22420000 8.22540000 -0.96610000
-1.96320000 6.45880000 -1.31230000
-1.92630000 6.43350000 -1.31560000
-1.95760000 6.46410000 -1.39760000
0.19680000 4.65300000 -0.30890000
0.23160000 4.69600000 -0.27890000
0.32890000 4.49840000 -0.31810000
0.31870000 4.57020000 -0.28600000
0.26920000 4.53480000 -0.30490000
-0.01600000 5.94000000 -0.82420000
0.10600000 5.92450000 -0.81610000
1.04310000 2.95670000 0.21570000
1.08620000 2.93110000 0.20400000
1.09550000 2.92790000 0.16070000
1.03700000 2.98530000 0.32250000
1.01230000 3.02150000 0.31130000
0.99710000 3.01820000 0.36170000
-1.67180000 0.70490000 1.36360000
-1.78570000 0.71130000 1.32450000
-1.66220000 1.66740000 1.35800000
-1.72390000 1.69760000 1.37810000
-1.69670000 1.63490000 1.34050000
-1.67490000 1.76580000 1.33860000
-1.63160000 1.76710000 1.34520000
-1.41280000 6.01570000 -1.06030000
-1.48900000 6.07210000 -1.02380000
-1.37260000 6.04290000 -1.02720000
-1.41080000 6.07680000 -0.97250000
-1.34660000 6.04800000 -1.00940000
1.94630000 5.93910000 -1.19960000
1.92660000 5.99790000 -1.23190000
1.97530000 5.96190000 -1.23700000
2.00280000 6.02090000 -1.18430000
2.05190000 6.01980000 -1.17690000
-0.44050000 1.70530000 1.52340000
-0.35850000 1.66530000 1.49690000
-0.36210000 1.73880000 1.53530000
-0.36420000 1.77190000 1.49750000
-0.32360000 1.75580000 1.51230000
-0.32520000 1.76810000 1.48000000
-1.66050000 1.34190000 1.34460000
-1.65080000 1.37210000 1.35650000
-1.71930000 1.38650000 1.37700000
-1.75800000 1.53310000 1.34740000
-1.68110000 1.48700000 1.33600000
1.12260000 0.70990000 1.48010000
1.11610000 0.80210000 1.45830000
1.10220000 0.90200000 1.50480000
1.03840000 0.90230000 1.47010000
1.04990000 0.86310000 1.48860000
-0.51690000 6.39690000 -0.98250000
-0.57930000 6.38820000 -0.96140000
2.42300000 3.60580000 -0.72260000
2.43250000 3.64230000 -0.69410000
-1.67580000 1.88520000 1.12950000
-1.83250000 1.85850000 1.08130000
-1.71230000 1.89910000 1.10960000
0.03870000 7.73680000 -0.33240000
-0.00320000 7.70940000 -0.34840000
-0.01470000 7.77020000 -0.31770000
-0.94890000 3.05550000 0.39950000
-0.96200000 3.09530000 0.38570000
-0.95850000 2.99480000 0.41390000
2.01940000 2.77410000 -0.35500000
2.12910000 2.73110000 -0.29940000
2.07410000 2.77760000 -0.37880000
2.01000000 2.80640000 -0.45220000
2.00170000 2.79990000 -0.48780000
0.58140000 2.93270000 -0.56440000
0.39630000 3.09990000 -0.45060000
0.39340000 2.87520000 -0.50690000
0.52200000 3.07840000 -0.52790000
0.99660000 6.98180000 -1.24750000
0.96620000 6.91520000 -1.22480000
0.99800000 6.90150000 -1.24740000
0.92600000 7.09170000 -1.20010000
0.94000000 7.13700000 -1.18130000
0.93370000 7.06120000 -1.14580000
0.46540000 3.04160000 0.27120000
0.42170000 3.05010000 0.24280000
0.32580000 3.16010000 0.11680000
0.32800000 3.11600000 0.15800000
0.35720000 3.14410000 0.14400000
-0.34370000 2.41640000 0.02020000
-0.32420000 2.39320000 -0.25170000
-0.27970000 2.43260000 -0.14740000
0.67410000 1.34890000 1.50360000
0.61340000 1.35810000 1.52840000
0.73390000 1.32550000 1.35610000
-1.74450000 -0.00970000 1.25540000
-1.44630000 6.09140000 -0.78830000
-2.25820000 3.67410000 -0.60910000
-2.31470000 3.68470000 -0.62280000
-2.32270000 3.62330000 -0.59270000
-2.40850000 3.49990000 -0.69160000
-2.40860000 3.65800000 -0.66300000
1.14420000 1.87860000 -1.99470000
1.11790000 1.87730000 -2.04330000
1.04890000 1.85590000 -2.00180000
1.28740000 1.79620000 -1.98670000
1.21240000 1.79900000 -2.03940000
1.21340000 1.84040000 -2.03360000
-2.46520000 -0.00630000 0.00560000
-0.57460000 3.65850000 -1.64820000
-0.50790000 3.52250000 -1.74330000
-0.52810000 3.48860000 -1.75800000
-0.81000000 1.76180000 1.51320000
-0.80700000 1.68210000 1.50960000
-0.56360000 1.77110000 1.48500000
-0.60490000 1.75940000 1.44960000
-0.60370000 1.77180000 1.49530000
0.31590000 6.64870000 -1.67320000
0.33790000 6.61890000 -1.64950000
0.35300000 6.87100000 -1.72890000
0.29360000 6.81980000 -1.74460000
-0.00560000 6.36300000 -0.44800000
-0.04290000 6.28700000 -0.45870000
-0.01380000 6.29310000 -0.44510000
0.12690000 1.75590000 -2.22890000
0.08360000 1.79770000 -2.26380000
0.16930000 1.81760000 -2.28050000
-0.08730000 1.67220000 -2.22670000
-0.00020000 1.76720000 -2.22870000
2.15980000 -0.00290000 -0.84210000
2.11330000 0.08680000 -0.86400000
2.13360000 0.09080000 -0.80640000
1.23710000 2.85000000 0.25840000
1.26600000 2.77160000 0.11700000
1.26750000 2.79660000 0.05370000
-0.07350000 7.90020000 -0.31550000
-0.02610000 7.98150000 -0.23440000
0.01620000 4.47220000 0.55130000
0.06600000 4.60330000 0.50020000
0.13170000 4.58340000 0.44750000
-0.04260000 4.63560000 0.56090000
-0.05260000 4.54460000 0.57310000
0.67860000 0.04310000 1.46750000
0.56710000 0.04400000 1.70110000
2.59770000 1.21760000 0.40900000
2.65020000 1.25990000 0.28370000
0.47450000 7.84850000 -0.63950000
0.42660000 7.85540000 -0.66130000
0.47200000 7.79210000 -0.66070000
0.41150000 7.77570000 -0.68510000
-1.83740000 4.70270000 -1.03700000
-1.83440000 4.78560000 -1.11600000
-1.72620000 4.66490000 -1.09360000
-0.76250000 4.20210000 -0.14150000
-0.52500000 6.05050000 -0.78680000
-0.45900000 6.12830000 -0.81380000
-0.51130000 6.12830000 -0.81180000
-0.47280000 6.22110000 -0.87740000
-0.50430000 6.19730000 -0.83400000
-0.44920000 6.18010000 -0.86170000
0.83610000 3.51500000 -1.12690000
0.89070000 3.18850000 -1.07590000
1.20840000 3.12610000 -0.81370000
0.90080000 3.15720000 -1.20240000
-0.25000000 6.84090000 -1.70630000
-0.29680000 6.81490000 -1.65260000
-0.29450000 6.88470000 -1.68830000
-1.26410000 1.11880000 1.03580000
-1.27120000 1.10080000 1.06650000
-1.32870000 1.06860000 1.12030000
-1.36730000 1.07830000 1.08780000
-0.49730000 2.10320000 -1.91290000
-0.39280000 2.03640000 -1.94710000
-0.46550000 2.02770000 -1.92600000
-0.48950000 2.14420000 -1.89700000
-0.56420000 2.11560000 -1.87740000
-0.62380000 2.15270000 -1.82660000
1.86660000 0.05400000 1.48410000
1.74570000 0.06470000 1.52250000
1.86270000 -0.00600000 1.48980000
1.66430000 0.07090000 1.54520000
1.61840000 0.00370000 1.56250000
1.70070000 -0.00360000 1.54290000
-0.45560000 6.35450000 -0.96720000
-0.42430000 6.27660000 -0.98940000
-0.36180000 6.37960000 -0.97340000
-1.89730000 2.43090000 -0.19500000
-1.91830000 2.24960000 -0.20600000
-1.89320000 2.30240000 -0.19680000
2.39890000 0.01730000 0.63640000
2.41610000 -0.00760000 0.76730000
2.44430000 0.02750000 0.45160000
0.79220000 5.55450000 -0.72110000
0.74420000 3.68870000 -0.92150000
0.76370000 3.50110000 -0.80440000
0.78530000 3.54660000 -0.89270000
0.76640000 3.61460000 -0.88620000
-2.11920000 1.26480000 0.82650000
-2.14480000 1.27720000 0.78480000
-2.08120000 1.24910000 0.77420000
-1.97570000 1.20780000 0.85550000
-2.05910000 1.22910000 0.83550000
-1.55430000 2.04530000 -1.05430000
-1.40090000 2.01120000 -1.22120000
-1.45550000 2.05530000 -1.16060000
-0.68900000 4.62440000 0.29940000
-0.64380000 4.66820000 0.32960000
-0.63660000 4.68260000 0.28080000
-0.69650000 4.62070000 0.33100000
-0.70770000 4.58950000 0.29510000
-0.71710000 4.57240000 0.37100000
-0.33340000 0.95080000 -2.15590000
1.34590000 3.77620000 -0.47980000
1.51690000 3.69890000 -0.26980000
1.40380000 3.67310000 -0.27790000
2.67120000 0.22250000 -0.26340000
2.69440000 0.23400000 -0.19660000
-2.19970000 1.11390000 0.10150000
-2.18970000 1.09280000 0.22080000
-2.14930000 1.13030000 0.27910000
-2.14880000 1.14850000 0.18960000
0.95690000 4.93000000 -1.35330000
1.00710000 4.86860000 -1.29580000
0.91040000 4.83100000 -1.10140000
0.90880000 4.84430000 -1.14220000
0.98910000 4.83560000 -1.23320000
-0.83540000 1.88160000 -1.98640000
-0.90270000 1.91190000 -2.03140000
-0.77890000 1.90960000 -2.07050000
-0.83660000 1.90730000 -2.09890000
-1.20020000 4.38330000 -0.40410000
-1.11860000 4.52820000 -0.48800000
-1.19090000 4.51150000 -0.38660000
-1.24570000 4.35390000 -0.32760000
-1.22890000 4.41420000 -0.37810000
-1.25920000 4.42250000 -0.33860000
2.53890000 0.13000000 1.23840000
2.33790000 0.09360000 1.34640000
2.41470000 0.08950000 1.30370000
2.43020000 0.12550000 1.31890000
0.19650000 1.74560000 1.52180000
0.11610000 1.75640000 1.51420000
0.15650000 1.76010000 1.51970000
0.45490000 2.78410000 -1.94890000
0.56470000 2.55520000 -1.86640000
-0.30360000 2.60210000 -1.89300000
-0.25470000 2.51670000 -1.85080000
0.77610000 1.27690000 1.23250000
0.90070000 1.29420000 1.26790000
0.87140000 1.31430000 1.27360000
0.84790000 1.26700000 1.20190000
-0.66430000 3.35110000 -1.51870000
-0.66630000 3.29710000 -1.53100000
-0.67900000 3.30590000 -1.49310000
-0.65740000 3.37160000 -1.40150000
0.50680000 0.28940000 -2.36770000
0.45540000 0.30030000 -2.31680000
0.50030000 0.31690000 -2.29310000
0.17130000 0.27940000 -2.38970000
0.36330000 0.28640000 -2.37600000
0.31340000 0.26250000 -2.40460000
-2.26590000 6.16900000 -0.76510000
-2.25650000 6.11650000 -0.68830000
-2.23340000 6.11560000 -0.71900000
-2.23030000 6.14500000 -0.75650000
0.22580000 7.17750000 -1.86540000
0.16520000 7.13500000 -1.90040000
0.20160000 7.19870000 -1.90130000
0.15100000 7.24580000 -1.92010000
0.04630000 7.19870000 -1.96900000
0.08370000 7.23890000 -1.97800000
-0.67110000 7.78760000 -0.70030000
-0.67190000 7.75970000 -0.69640000
-0.61120000 7.77540000 -0.66070000
-1.18950000 0.27850000 1.58210000
-1.23330000 0.26980000 1.58290000
-1.36400000 0.25920000 1.57130000
-1.37050000 0.25490000 1.63220000
-0.90670000 2.98440000 -0.16890000
-0.88100000 2.99450000 -0.10160000
-0.81990000 3.01130000 -0.10870000
-0.70840000 3.14530000 0.00210000
-0.65610000 3.09390000 -0.11610000
-0.75230000 3.08580000 -0.04110000
-0.74920000 3.04040000 -0.11170000
-2.27600000 1.34870000 0.76790000
-2.32770000 1.39390000 0.80540000
-2.44080000 1.47490000 0.75810000
-0.43910000 4.73880000 -0.29650000
-0.43370000 4.78810000 -0.28080000
-0.53780000 4.83910000 -0.30440000
-0.30780000 4.72470000 -0.23640000
-0.33240000 4.76450000 -0.22440000
-0.37720000 4.75130000 -0.23200000
-0.68430000 4.87130000 -0.35060000
-0.70980000 4.81370000 -0.41300000
-0.58640000 4.81950000 -0.31590000
-0.08380000 4.75690000 0.78010000
-0.04410000 4.81060000 0.78400000
-0.07880000 4.83920000 0.76880000
-0.88560000 7.53260000 -1.21730000
-0.88980000 7.56560000 -1.19100000
-0.82460000 2.08190000 -1.72220000
-1.01060000 2.09270000 -1.58510000
-0.82380000 2.10850000 -1.71870000
-0.72750000 2.11720000 -1.78040000
-1.07100000 2.08820000 -1.53740000
-0.91230000 2.03530000 -1.65190000
-0.97470000 2.03140000 -1.60800000
1.27300000 1.50930000 1.40250000
1.27860000 1.55760000 1.43800000
1.23730000 1.55750000 1.44210000
1.19170000 1.51970000 1.42510000
1.13440000 1.41920000 1.39150000
1.66890000 4.90920000 -0.66280000
1.61750000 4.90690000 -0.71380000
2.03950000 1.32740000 1.26490000
2.04200000 1.36470000 1.26660000
2.01090000 1.32810000 1.29150000
2.04610000 1.29510000 1.13980000
1.11320000 1.25200000 1.22020000
1.06950000 1.20890000 1.26900000
1.08240000 1.20900000 1.20660000
1.01910000 1.19220000 1.15270000
1.00900000 1.20800000 1.24850000
-0.39170000 5.22510000 0.36790000
-0.37260000 5.29910000 0.38100000
-0.34000000 5.23290000 0.43850000
-0.39440000 5.23800000 0.39300000
-0.38460000 5.20600000 0.43390000
0.30830000 0.07430000 -2.18310000
-1.56890000 6.23180000 -1.19510000
-1.58710000 6.30450000 -1.18180000
-1.55590000 6.27480000 -1.17870000
-1.51960000 6.21650000 -1.15120000
-0.74010000 2.31350000 0.47910000
-0.69180000 2.30230000 0.44710000
-0.99200000 2.30590000 0.61180000
2.48080000 6.68170000 -0.76340000
2.50430000 6.65750000 -0.77280000
2.48150000 6.65720000 -0.83160000
2.53370000 6.63070000 -0.82880000
2.56120000 6.62060000 -0.81150000
2.55640000 6.58090000 -0.83690000
0.23700000 2.94680000 0.34450000
0.22500000 2.98830000 0.32320000
0.18920000 2.93870000 0.37400000
-2.37040000 0.18390000 1.22530000
0.05400000 7.86420000 -1.55600000
0.13410000 7.94570000 -1.56080000
0.13390000 7.84900000 -1.54130000
0.18200000 7.87230000 -1.53980000
-1.47320000 4.73710000 -0.40270000
-1.43730000 4.71380000 -0.29870000
-1.33400000 4.61110000 -0.28350000
-1.32820000 4.67740000 -0.25400000
-1.39570000 4.65950000 -0.26550000
-2.01820000 6.26780000 -1.12330000
-1.99890000 6.23200000 -1.10180000
-1.95490000 6.27270000 -1.11060000
1.60570000 0.12980000 -1.44100000
1.66770000 0.12460000 -1.39100000
1.57310000 0.01890000 -1.56060000
2.41640000 1.03680000 0.44380000
2.37410000 1.04650000 0.41350000
2.40250000 1.03490000 0.50080000
2.48130000 1.02590000 0.50750000
-0.75710000 0.56340000 1.53760000
-0.88590000 0.62730000 1.50780000
-1.01410000 0.57600000 1.50420000
-0.92910000 0.55920000 1.52900000
1.66200000 2.97880000 0.04900000
1.49020000 3.06200000 -0.21340000
1.40550000 3.10250000 -0.36380000
1.59150000 3.06520000 -0.36010000
1.37440000 3.11420000 -0.57850000
0.49740000 1.30100000 1.31150000
0.50110000 1.27390000 1.27960000
0.51480000 1.23330000 1.28020000
0.55600000 1.22570000 1.33540000
-1.48930000 2.51060000 0.92590000
-1.63720000 2.46540000 0.93980000
0.25930000 3.03880000 -0.44300000
0.37050000 2.94480000 -0.47640000
0.29000000 2.97440000 -0.45630000
0.12850000 7.26320000 -1.93850000
0.08740000 7.27490000 -1.97650000
0.10080000 7.31500000 -1.93860000
-0.01570000 7.36490000 -1.94380000
0.04580000 7.33260000 -1.95310000
-2.18980000 1.37540000 -0.48390000
-2.30260000 5.68950000 -0.54750000
-2.29120000 5.64120000 -0.56750000
-2.26650000 5.71030000 -0.56430000
-0.35480000 4.27800000 -0.44310000
-0.38940000 4.28410000 -0.50400000
-0.38950000 4.25380000 -0.52740000
-0.28950000 4.18910000 -0.42380000
-0.28020000 4.15650000 -0.44510000
-0.23030000 4.14400000 -0.41960000
-0.89880000 4.97860000 -0.78560000
-0.95460000 4.95340000 -0.70460000
-0.90100000 4.84630000 -0.79870000
2.54270000 6.44430000 -0.59200000
-0.35770000 7.90450000 -1.42150000
-0.30670000 7.91460000 -1.45200000
-0.32170000 7.86370000 -1.45840000
-0.38400000 6.46580000 -1.41810000
-0.31570000 6.52080000 -1.54280000
-0.32980000 6.39540000 -1.48610000
-1.58070000 5.81010000 -1.08450000
-1.52760000 5.84910000 -1.12720000
-1.43560000 5.89320000 -1.08520000
-0.40580000 3.24410000 -1.91260000
-0.46390000 3.27750000 -1.88420000
-0.42980000 3.20460000 -1.92820000
-0.47850000 3.19530000 -1.90160000
-0.10310000 6.47970000 -0.46550000
0.02450000 6.69680000 -0.32820000
-0.04380000 6.64310000 -0.39420000
-0.02400000 6.60070000 -0.36160000
-2.42570000 -0.00960000 0.66130000
-2.44670000 -0.01780000 0.70910000
-0.24890000 4.52560000 0.19620000
-0.26570000 4.57850000 0.16510000
-1.40100000 1.58650000 -1.60450000
-2.35370000 0.68950000 -0.27260000
-2.34010000 0.70360000 -0.37440000
-2.33800000 0.66030000 -0.30530000
-1.14050000 4.09700000 -0.59960000
-1.33350000 3.81160000 -0.56530000
-1.18750000 4.02980000 -0.63980000
2.52580000 0.92460000 -0.30430000
2.54460000 0.91760000 -0.33940000
2.51970000 0.97110000 -0.31280000
2.54310000 0.83670000 -0.37480000
-0.04970000 8.11550000 -0.94400000
0.03960000 8.13330000 -0.93140000
-0.00100000 8.10290000 -0.92220000
2.14010000 5.77130000 -1.05580000
2.15290000 5.84010000 -1.04680000
2.18660000 5.82880000 -0.97700000
2.23650000 5.85490000 -0.96080000
-2.23290000 3.97300000 -0.66340000
-2.15470000 4.02620000 -0.64560000
-2.04360000 4.15960000 -0.66310000
-2.02310000 4.08060000 -0.67590000
-1.92960000 4.27910000 -0.64060000
-0.21170000 1.04060000 1.36400000
-0.23510000 1.03360000 1.42660000
-0.21870000 1.00200000 1.39260000
-0.22630000 0.98370000 1.44280000
-0.27600000 0.98320000 1.48500000
-0.25510000 0.95300000 1.48470000
2.67390000 1.85270000 0.45540000
2.63450000 1.91320000 0.44610000
2.65180000 1.84620000 0.53250000
-0.00850000 8.60180000 -1.14960000
0.00270000 8.53620000 -1.12940000
0.04410000 8.54280000 -1.12300000
0.80710000 2.02790000 0.78860000
0.86150000 2.06400000 0.74290000
2.57290000 -0.01190000 0.37190000
-2.11450000 1.29860000 1.07530000
-2.12590000 1.34130000 1.10610000
-2.16020000 1.28100000 1.05020000
-2.10210000 1.38050000 1.09380000
-2.31440000 1.06820000 0.19220000
-2.36100000 1.06910000 0.17760000
-2.34080000 1.00760000 0.20850000
-2.38560000 0.97840000 0.20280000
-2.41810000 0.93470000 0.22020000
-2.40640000 0.94080000 0.29740000
2.16730000 5.69880000 -1.10520000
2.06920000 5.63360000 -1.09320000
2.11140000 5.59570000 -1.04000000
0.69640000 1.87830000 -2.22580000
0.60950000 1.84450000 -2.25920000
0.59850000 1.74300000 -2.20260000
0.68590000 1.74910000 -2.19250000
0.06330000 7.03890000 -1.86950000
0.12530000 7.08430000 -1.88590000
0.10170000 6.93630000 -1.81790000
0.05030000 6.93250000 -1.81660000
0.08190000 6.96180000 -1.85280000
-0.11750000 5.26370000 0.35310000
-0.18910000 1.84120000 1.25850000
0.04300000 1.85110000 1.25070000
-0.11280000 1.86220000 1.24600000
-0.19310000 1.90730000 1.20160000
0.57420000 4.96260000 -1.74810000
0.57080000 4.75140000 -1.70730000
-2.35180000 3.88490000 -0.83140000
-2.35670000 3.83620000 -0.81910000
-2.37950000 3.78280000 -0.81050000
2.41770000 1.48320000 1.12500000
2.53310000 1.47730000 1.02190000
2.47930000 1.47000000 1.08240000
2.46650000 1.41850000 1.05310000
1.07730000 2.08430000 -1.67270000
1.08480000 2.03380000 -1.69300000
1.01890000 2.03030000 -1.73960000
1.19410000 0.91290000 1.36470000
1.15280000 1.00340000 1.35930000
1.14370000 1.02090000 1.32090000
0.13170000 3.09260000 -0.06720000
0.17340000 3.11080000 -0.10750000
0.21700000 3.16690000 0.04500000
0.21360000 3.17890000 -0.04070000
0.17650000 3.15900000 -0.00570000
2.69690000 0.60400000 0.02140000
2.68560000 0.54690000 -0.04580000
2.67640000 0.61070000 -0.03920000
0.53290000 6.01810000 -1.26050000
0.52550000 6.03960000 -1.30770000
0.53640000 5.99410000 -1.28320000
-2.39700000 6.10190000 -0.64750000
-2.43430000 6.18220000 -0.69330000
2.41970000 2.81850000 -0.55580000
2.36030000 2.83900000 -0.62150000
2.40200000 2.94430000 -0.61540000
2.39330000 2.69850000 -0.53760000
2.40560000 2.71010000 -0.49620000
0.64180000 6.18680000 -0.80740000
0.49220000 6.12930000 -0.88750000
0.54270000 6.16030000 -0.85170000
1.92080000 1.73670000 1.29720000
1.95900000 1.73450000 1.26340000
-1.97480000 1.91310000 0.98600000
-2.11720000 1.87910000 0.89080000
-2.05170000 1.87740000 0.94740000
-1.82320000 1.93370000 1.05570000
-1.91740000 1.97200000 0.96850000
-1.90030000 1.92440000 1.02530000
-0.81260000 5.93000000 -0.89690000
-0.76320000 6.09940000 -0.89710000
-0.82030000 6.06140000 -0.94690000
0.20590000 2.77250000 -0.42080000
0.22250000 2.75990000 -0.46760000
0.29310000 2.74300000 -0.43220000
-2.24440000 0.44780000 1.10480000
-2.28730000 0.23140000 1.14220000
-2.37250000 0.23190000 1.05530000
-1.73400000 5.07640000 -0.91820000
-1.74200000 5.16050000 -0.96590000
-1.80520000 5.27710000 -0.97890000
-1.77560000 2.25840000 0.77890000
-1.67730000 2.21400000 0.71250000
1.64300000 1.54650000 1.35950000
1.60330000 1.53250000 1.38080000
1.51700000 1.60510000 1.37060000
1.43820000 1.59390000 1.39170000
1.48630000 1.54490000 1.42000000
2.65070000 0.16600000 -0.49700000
-1.74510000 2.93580000 -0.00800000
-1.64350000 2.96780000 0.03620000
-1.98520000 5.67760000 -1.34660000
-1.94380000 5.67490000 -1.36490000
-1.99880000 5.73920000 -1.33790000
-1.99700000 5.82260000 -1.34920000
-1.96310000 5.79550000 -1.35990000
-0.57350000 6.09790000 -1.21140000
-0.57400000 6.06690000 -1.21890000
-0.60660000 6.09480000 -1.24630000
0.41230000 2.38580000 0.33750000
0.52630000 2.34220000 0.39630000
0.44310000 2.43760000 0.38180000
0.42890000 2.50030000 0.41730000
-0.78140000 6.19230000 -1.02690000
-0.78760000 6.16120000 -0.99030000
-0.72430000 6.25770000 -0.99030000
-0.62030000 6.33020000 -0.92660000
-0.65520000 6.27620000 -0.92400000
-0.00880000 8.38420000 -1.60400000
-0.03700000 8.29720000 -1.60360000
-0.06960000 8.36510000 -1.55310000
0.19270000 1.90840000 1.19720000
0.23480000 1.82580000 1.24910000
0.41980000 1.82010000 1.23710000
0.34470000 1.85930000 1.23320000
2.27760000 0.14970000 1.40490000
2.31050000 0.11290000 1.38210000
2.31690000 0.15430000 1.38330000
2.10600000 0.92860000 1.23130000
2.15140000 0.83210000 1.16820000
2.11190000 0.82880000 1.20620000
0.36810000 2.26700000 -0.06310000
0.08920000 8.30750000 -1.58280000
0.10590000 8.29280000 -1.49860000
-0.03110000 0.61050000 -2.29520000
0.19680000 0.72960000 -2.27270000
2.00060000 4.98670000 -0.68570000
1.96710000 4.95490000 -0.66190000
2.02370000 4.93530000 -0.69350000
-0.68330000 1.34250000 1.48060000
-0.70680000 1.29300000 1.43530000
-0.65750000 1.32800000 1.41110000
-0.65730000 1.32470000 1.34010000
-0.69630000 1.26900000 1.35420000
-0.65570000 1.30280000 1.30090000
-0.10750000 3.00830000 -0.29170000
-1.28730000 5.53720000 -1.01680000
-1.34830000 5.48900000 -1.03560000
-1.29760000 5.50930000 -0.99840000
-1.29950000 5.54050000 -1.12040000
0.14480000 2.18070000 0.02420000
0.06950000 2.21110000 -0.08640000
0.09890000 2.17180000 0.16030000
0.57650000 6.99610000 -1.49840000
0.53640000 6.83790000 -1.54600000
0.56380000 6.87560000 -1.52200000
-2.13680000 1.85330000 -0.71460000
-2.13500000 1.86130000 -0.75090000
-2.18260000 1.83220000 -0.74340000
-2.22270000 1.80420000 -0.73110000
-2.21920000 1.85540000 -0.69170000
-2.24760000 0.92920000 0.95620000
-2.24140000 0.90610000 0.92060000
-2.25070000 0.87880000 0.97170000
-2.17740000 0.96240000 0.84460000
-2.18760000 1.01980000 0.88130000
-2.15310000 0.98840000 0.83870000
2.77050000 1.74160000 -0.19590000
-1.15890000 5.10160000 -0.59240000
-1.13750000 5.06720000 -0.61790000
-1.19900000 5.11970000 -0.58660000
-1.13520000 4.91230000 -0.53920000
-1.15450000 4.91690000 -0.48720000
-1.12350000 4.87230000 -0.51340000
2.32270000 1.29470000 -0.55370000
2.29320000 1.26610000 -0.52470000
2.26830000 1.24620000 -0.55040000
2.29150000 1.23920000 -0.44780000
2.37660000 1.26650000 -0.42610000
-1.65120000 5.86370000 -0.80850000
-1.75470000 5.81230000 -0.82700000
-1.71940000 5.82770000 -0.79630000
-1.97180000 1.85080000 -0.99100000
-1.95110000 1.74250000 -1.01890000
0.62640000 4.23450000 0.00530000
-0.49430000 3.69760000 -0.71250000
-0.39450000 3.68560000 -0.61150000
-0.41200000 3.75080000 -0.67390000
0.24000000 1.02600000 1.38430000
0.23590000 1.01910000 1.34010000
0.22000000 1.04440000 1.30350000
0.18380000 1.07160000 1.40040000
-0.01710000 6.28310000 -1.72250000
0.09380000 6.28140000 -1.69080000
0.06700000 6.29660000 -1.66650000
-0.33160000 1.91910000 -2.21790000
-0.59080000 1.88440000 -2.20140000
-0.41780000 1.90850000 -2.22030000
-0.50540000 1.88370000 -2.21930000
-2.10460000 0.11320000 -1.05560000
-2.16460000 0.05350000 -0.96310000
-2.06050000 0.11240000 -1.12140000
-2.04750000 0.06120000 -1.12320000
-2.36860000 -0.00490000 0.87160000
-2.41120000 -0.01100000 0.81360000
2.92360000 0.09540000 0.50700000
2.90420000 0.11860000 0.58510000
2.88170000 0.05150000 0.61270000
2.87780000 0.06150000 0.65360000
2.84210000 0.09710000 0.81620000
2.82680000 0.05510000 0.80740000
0.55160000 3.64700000 -0.61860000
0.47810000 3.72090000 -0.61970000
0.50580000 3.67780000 -0.60230000
0.55550000 3.58760000 -0.57010000
0.49640000 3.56690000 -0.51380000
0.34070000 6.78430000 -0.46260000
0.34200000 6.52210000 -0.50100000
0.67500000 6.33270000 -1.10080000
0.60570000 6.30840000 -1.11650000
0.60550000 6.33790000 -1.12100000
0.67490000 6.28870000 -1.11270000
0.65920000 6.23810000 -1.11780000
0.09750000 7.74220000 -0.65340000
0.14200000 7.77650000 -0.60110000
-0.56830000 3.24970000 -0.85100000
-0.66810000 3.20060000 -0.69460000
-0.52900000 3.24420000 -0.79190000
2.15310000 1.08800000 -0.46880000
2.12640000 1.05990000 -0.52540000
2.20140000 1.00590000 -0.55690000
2.25820000 0.93170000 -0.57370000
2.19260000 0.99450000 -0.59080000
0.59200000 0.32200000 -2.27460000
0.65240000 0.28250000 -2.35650000
0.79320000 0.28390000 -2.30870000
0.74950000 0.26480000 -2.34030000
0.68790000 0.29680000 -2.28210000
-1.97550000 5.84870000 -1.35570000
-1.97440000 5.92150000 -1.36310000
-1.06210000 1.80180000 1.23440000
0.55090000 6.35290000 -0.93700000
0.51420000 6.37440000 -0.96460000
0.54680000 6.30890000 -0.93520000
0.23100000 7.92900000 -0.86320000
2.63940000 5.68140000 -0.37140000
2.59140000 5.63690000 -0.34540000
-2.29130000 3.63360000 -0.92270000
-2.25280000 3.56530000 -0.90870000
2.84030000 0.04980000 0.07190000
2.88000000 0.06340000 0.12810000
2.85190000 0.04540000 0.16250000
2.87320000 0.04910000 0.25440000
2.90880000 0.08560000 0.19020000
2.89510000 0.05670000 0.32030000
-0.11100000 4.21480000 -0.36800000
-0.15890000 4.32890000 -0.39740000
-0.36210000 4.92560000 -1.79590000
-0.25510000 5.29150000 -1.81430000
-2.17830000 1.11430000 0.08090000
-2.13690000 1.12370000 0.04190000
-2.19370000 1.07750000 0.02570000
-2.21540000 1.06230000 0.00660000
-2.14990000 1.09290000 0.00030000
2.36590000 6.38110000 -0.82820000
2.47180000 6.33220000 -0.79560000
2.49480000 6.33200000 -0.77690000
-0.84920000 7.38670000 -1.10710000
-0.84180000 7.35710000 -1.12950000
-0.77120000 7.35970000 -1.08880000
-0.87340000 7.54520000 -1.11300000
-1.59220000 6.33320000 -1.07060000
1.05720000 6.29110000 -1.19170000
1.02730000 6.34170000 -1.19220000
0.99880000 6.32640000 -1.17200000
-1.75360000 5.00010000 -0.84350000
-1.72550000 5.03400000 -0.86950000
-1.76460000 4.94830000 -0.79180000
-1.80610000 4.92870000 -0.82090000
-1.69120000 6.81640000 -0.86610000
-1.73270000 6.68240000 -0.85710000
-1.77360000 6.51960000 -0.84220000
-1.73650000 6.61190000 -0.85660000
-1.96620000 6.09860000 -0.73740000
-1.99480000 6.03930000 -0.73790000
2.34350000 1.18660000 1.02030000
2.48400000 1.28510000 1.02570000
2.48280000 1.25150000 0.97430000
-1.92070000 2.68670000 -0.32840000
-1.90150000 2.62620000 -0.31610000
-2.12330000 2.82040000 -0.40720000
-1.65410000 6.96880000 -0.90760000
-0.84970000 1.76490000 1.49120000
-0.88870000 1.76820000 1.47010000
-0.89230000 1.73220000 1.52270000
-0.93250000 1.75120000 1.51370000
-0.89060000 0.13940000 -2.01520000
-0.78110000 0.13690000 -2.05700000
-0.81910000 0.09280000 -2.06420000
