26.18190000 58.27890000 -0.22040000
26.68010000 58.43550000 0.08450000
26.69530000 58.12820000 0.10180000
26.19510000 58.65060000 -0.24120000
26.70470000 58.74510000 0.02200000
26.78410000 57.87090000 0.13220000
26.63710000 57.75860000 -0.10280000
26.98920000 57.64300000 0.04710000
16.88190000 50.76500000 1.26870000
17.01300000 51.06420000 1.35300000
17.06200000 51.25690000 1.16710000
17.02750000 51.19230000 0.90670000
16.99730000 51.12670000 0.64650000
16.91600000 50.88850000 1.53330000
16.75360000 50.74640000 1.81160000
16.41540000 50.51910000 1.89170000
16.45030000 50.68490000 2.01870000
16.77880000 50.38050000 1.01100000
16.85930000 50.46910000 0.21940000
16.81940000 50.24780000 0.25530000
16.90100000 50.68990000 0.18400000
16.94010000 50.88690000 0.11100000
16.98530000 51.10580000 0.34260000
16.98170000 51.08310000 0.03830000
14.07320000 52.98860000 -1.78950000
14.42710000 52.80580000 -1.46140000
14.09520000 52.73050000 -1.34820000
15.04080000 52.85730000 -1.54760000
14.73420000 52.85330000 -1.49540000
15.62020000 53.18140000 -2.85510000
13.56920000 52.96650000 -1.65310000
13.46020000 53.03540000 -1.77390000
-17.76090000 27.31300000 -2.10340000
-17.59160000 27.17820000 -1.95300000
-17.52790000 27.15530000 -2.27150000
-17.62980000 27.20910000 -1.62630000
-17.89990000 27.34130000 -1.41370000
-17.74460000 27.18920000 -1.31370000
-18.02120000 27.48530000 -1.06530000
-17.93950000 27.15090000 -1.02950000
-17.66890000 26.94120000 -5.07000000
-17.83630000 26.89930000 -5.21960000
-18.36730000 27.03980000 -4.62360000
-18.16680000 26.82210000 -5.10990000
-18.00890000 26.84220000 -5.37010000
-18.34130000 26.84190000 -4.86820000
-18.71870000 26.67080000 -5.05090000
-18.25280000 26.54240000 -5.62560000
-18.89240000 26.97550000 -5.05340000
-18.63120000 26.86400000 -4.91530000
-18.87750000 27.16020000 -4.87780000
-22.48560000 31.45080000 -4.57200000
-21.99060000 31.53390000 -4.69370000
-22.85490000 31.13340000 -4.56330000
-21.48570000 31.55530000 -4.61370000
-21.52150000 31.19990000 -4.71120000
-21.63210000 32.30470000 -4.20890000
-22.32070000 32.18630000 -4.48560000
-20.59960000 31.21090000 -4.66540000
-21.17240000 31.80410000 -4.46350000
-20.85940000 32.06840000 -4.36160000
-21.09790000 32.25690000 -4.24750000
-31.65300000 26.04270000 -4.54880000
-31.49450000 25.56480000 -4.42190000
-31.61980000 25.49280000 -4.22120000
-31.38400000 25.62690000 -4.63980000
-31.97720000 25.66520000 -3.96630000
-31.71550000 25.41290000 -4.11850000
-31.81540000 25.33130000 -4.02980000
15.01870000 27.38460000 4.96500000
15.25560000 27.11110000 5.08230000
15.58750000 27.05930000 4.98690000
15.51640000 27.06140000 5.27090000
15.24620000 26.99330000 5.34550000
14.16820000 27.66530000 4.70380000
14.36230000 27.64140000 5.04580000
14.78750000 27.59040000 4.52400000
14.77050000 27.43660000 5.16790000
14.52820000 27.50460000 5.37600000
14.80590000 27.24530000 5.43860000
20.99770000 33.50730000 2.96520000
20.76810000 33.36980000 3.20710000
21.08040000 33.14610000 3.19140000
20.51470000 33.20450000 3.40250000
20.46440000 32.89120000 3.61210000
20.41450000 32.58220000 3.83060000
19.35970000 32.89190000 3.77530000
20.11480000 33.22850000 3.53790000
19.70910000 33.24230000 3.64300000
19.41590000 34.99900000 3.47650000
20.35620000 33.58870000 3.33970000
20.21480000 33.98810000 3.31780000
20.82290000 33.80530000 2.93540000
-33.03840000 12.32110000 -3.82150000
-33.47690000 12.14200000 -3.36370000
-33.45240000 12.45910000 -3.10020000
-33.34680000 13.01340000 -3.02670000
-33.49830000 12.78710000 -2.85370000
-33.82610000 12.07190000 -3.02400000
-33.57910000 11.80800000 -3.35710000
-33.55660000 11.44650000 -3.30910000
-33.85190000 12.38530000 -2.83070000
-33.38970000 11.70090000 -3.66000000
29.65750000 27.21280000 3.01200000
29.44320000 27.45090000 2.96150000
29.23240000 27.50240000 3.22960000
29.43250000 26.99870000 3.39810000
29.04390000 27.56040000 3.49970000
29.10780000 27.90120000 2.77280000
28.91660000 27.98310000 2.94790000
28.63660000 27.86560000 3.52630000
28.85270000 27.72720000 3.52590000
28.91320000 27.45980000 3.82570000
28.57470000 27.79110000 3.76160000
28.51270000 27.71560000 3.99830000
29.78230000 28.63500000 2.32390000
30.00020000 28.85870000 1.85170000
29.90330000 28.86860000 1.98160000
30.08090000 28.74400000 2.01130000
30.02130000 28.86100000 1.72970000
29.67960000 28.95700000 1.52580000
29.84050000 29.13700000 1.73430000
29.88510000 29.00570000 1.85830000
29.82100000 29.03010000 2.14020000
29.37920000 27.90570000 0.54020000
29.70810000 28.27910000 0.62960000
29.85880000 27.96610000 0.30910000
30.00480000 28.55710000 0.77450000
30.10800000 28.23740000 0.27750000
29.65700000 28.49460000 1.05590000
29.26070000 28.02900000 0.62390000
30.10770000 28.81230000 1.58740000
30.25400000 28.78830000 1.54030000
29.81780000 28.76000000 1.36100000
30.19370000 28.72160000 1.13040000
30.40250000 28.78000000 1.49390000
17.19390000 26.96390000 -0.12490000
17.04030000 26.51310000 -0.63470000
17.04670000 26.43050000 -0.40900000
17.04070000 26.59460000 -0.86140000
17.14620000 26.91710000 -1.26250000
17.06030000 26.65620000 -1.13220000
17.14420000 26.70880000 -1.39270000
18.83250000 26.84640000 -4.68350000
19.30910000 26.73240000 -4.91190000
18.97980000 26.71390000 -4.95930000
19.87420000 26.85380000 -4.40090000
19.64030000 26.68090000 -4.82400000
18.52830000 26.78380000 -4.76910000
18.67830000 26.68390000 -5.03290000
18.37670000 26.65240000 -5.10500000
21.74590000 33.23060000 -2.21140000
20.40980000 33.61890000 -2.35080000
20.69790000 33.71190000 -2.16200000
20.25380000 32.52010000 -3.05770000
20.11610000 33.51760000 -2.52720000
19.51510000 32.44630000 -3.12700000
19.83190000 33.46230000 -2.64760000
19.54390000 33.40060000 -2.75290000
-25.79820000 11.85470000 -11.16410000
-26.81820000 11.54890000 -11.11480000
-27.13450000 11.53790000 -10.97860000
-26.49210000 11.54570000 -11.22700000
-27.48850000 11.48310000 -10.84610000
-27.42510000 11.94110000 -10.46520000
-27.84460000 11.43110000 -10.71840000
38.48940000 26.22080000 1.29370000
38.69670000 26.16810000 1.22260000
38.98650000 26.10310000 1.02980000
38.92400000 26.04340000 0.81390000
38.28380000 26.27610000 1.36380000
32.40460000 23.45790000 0.38680000
33.36840000 24.29840000 -0.44610000
33.80960000 24.39480000 -0.42880000
33.76250000 23.38240000 1.02770000
34.25430000 24.47510000 -0.42550000
32.78300000 24.41490000 -0.83120000
33.07330000 24.36390000 -0.63270000
33.67800000 25.22380000 -1.24800000
33.15960000 24.82410000 -1.08930000
31.42740000 25.04740000 -1.73990000
31.54840000 24.93020000 -1.67150000
31.14850000 24.85880000 -1.62570000
31.05770000 25.01060000 -1.68900000
30.75430000 24.76960000 -1.61080000
29.95190000 24.83420000 -1.86650000
30.33610000 24.83440000 -1.68380000
30.35680000 24.46560000 -1.45210000
30.30760000 25.15810000 -1.76430000
27.80650000 27.26650000 -3.74400000
27.91240000 27.37440000 -3.48020000
28.49680000 27.43920000 -3.52840000
28.01660000 27.47420000 -3.20850000
27.66260000 27.36210000 -3.20530000
27.51690000 27.24250000 -3.69440000
27.22790000 27.21840000 -3.64630000
28.12880000 27.99260000 -2.79330000
28.46310000 27.94810000 -2.65520000
28.58920000 27.83660000 -2.76340000
28.31230000 27.72050000 -3.02370000
27.95110000 27.56420000 -3.02330000
28.33310000 28.04660000 -2.54040000
28.71490000 27.71290000 -2.87510000
26.43560000 25.13200000 -4.90480000
26.16950000 25.21010000 -4.99050000
26.41710000 25.27750000 -5.09120000
25.90270000 25.30700000 -5.05670000
22.84840000 24.75180000 -4.94980000
23.23730000 24.83250000 -4.92320000
23.18570000 24.52310000 -4.72570000
23.61930000 24.91380000 -4.86850000
23.90370000 24.53410000 -4.54800000
24.53580000 26.35530000 -5.29020000
22.57050000 24.89860000 -5.11330000
23.91950000 25.09750000 -4.91360000
24.21970000 25.27840000 -4.96290000
-7.66110000 12.15390000 -12.40410000
-7.63990000 11.57410000 -12.70990000
-7.98530000 11.60910000 -12.66050000
-6.83540000 11.93790000 -12.60210000
-7.29370000 11.53660000 -12.75320000
-8.46440000 11.91700000 -12.40500000
-8.40190000 11.63190000 -12.60560000
-8.81800000 11.65090000 -12.54460000
31.15750000 12.51560000 3.40170000
31.24950000 12.28350000 3.41260000
31.17470000 12.51210000 3.07760000
31.31190000 12.04340000 3.41930000
31.03600000 12.78400000 3.41560000
30.91350000 13.05230000 3.42850000
5.26650000 93.55390000 0.02000000
4.97440000 93.44250000 0.09480000
4.77180000 93.38950000 -0.04980000
5.16750000 93.53130000 0.23900000
4.59010000 93.40940000 -0.40750000
4.56290000 93.36990000 -0.12450000
4.35450000 93.39560000 -0.19410000
0.60730000 95.07040000 -5.80030000
0.99430000 95.18910000 -5.73790000
0.75920000 95.08910000 -5.63180000
0.56130000 94.91330000 -5.56760000
0.85390000 95.23090000 -6.16090000
1.58210000 94.87050000 -6.12860000
1.57830000 94.90450000 -5.81240000
1.30750000 95.08650000 -5.77310000
1.13280000 95.14290000 -6.40510000
1.37100000 95.00940000 -6.42240000
1.60560000 94.86990000 -6.44160000
0.93870000 95.26950000 -6.42530000
0.41150000 95.35650000 -6.10090000
0.76240000 95.42530000 -6.43620000
0.65480000 94.93810000 -5.30990000
1.15980000 95.00240000 -5.11230000
1.61230000 94.90380000 -5.48260000
1.62520000 94.86160000 -5.15510000
-0.27860000 85.35570000 -5.46090000
-0.67020000 85.09610000 -5.29560000
-0.04900000 85.37660000 -5.58260000
-1.23560000 83.47630000 -5.46330000
-0.38780000 63.50810000 3.20330000
-0.31820000 63.74050000 3.27700000
-0.48710000 63.06870000 3.36930000
-0.25330000 63.97370000 3.35000000
-0.22970000 64.07270000 3.50600000
-0.20070000 64.17010000 3.66510000
-0.25460000 63.98840000 3.96330000
-33.27870000 13.89950000 -2.44890000
-33.28490000 13.70530000 -2.71130000
-33.27850000 13.49500000 -2.52700000
-33.35680000 13.50440000 -2.11920000
-33.31280000 13.28740000 -2.34940000
-33.63810000 13.89730000 -1.77810000
-33.40000000 14.10200000 -2.21840000
-33.47860000 13.04550000 -2.61690000
-33.50300000 12.87520000 -2.35100000
-33.70950000 12.66180000 -2.60570000
-33.44230000 15.17470000 -1.96080000
-33.50200000 14.99050000 -1.94010000
-33.40750000 15.40250000 -1.61780000
-33.55420000 14.80420000 -1.91720000
-33.68680000 14.71190000 -1.61540000
-33.20660000 14.93750000 -2.55420000
-33.31040000 14.50640000 -2.41200000
-33.44850000 14.65800000 -2.17020000
-33.32530000 15.05610000 -2.25770000
-33.36190000 14.30430000 -2.31760000
-33.72080000 14.25090000 -1.73020000
-33.25730000 14.32330000 -2.67940000
-33.33170000 14.15670000 -2.96890000
-33.76200000 10.56950000 -4.43660000
-33.80740000 10.59420000 -4.14960000
-33.51610000 10.88850000 -4.14330000
-33.85180000 10.61790000 -3.86260000
-33.49610000 11.14840000 -3.57010000
-33.85010000 10.79760000 -3.23940000
-33.71320000 10.96370000 -3.24230000
-33.92270000 10.62780000 -3.55050000
-34.00180000 10.64280000 -3.24070000
-33.56910000 11.17970000 -3.25400000
-33.90050000 10.97540000 -2.57560000
-34.09960000 10.64980000 -2.91580000
-34.20320000 10.66020000 -2.59250000
-33.70470000 11.19340000 -2.92080000
-34.31670000 10.67220000 -2.25380000
-34.41660000 10.67630000 -1.91100000
-33.12770000 15.83400000 -1.94180000
-33.20950000 15.69960000 -1.95000000
-33.28460000 15.56150000 -1.95630000
-33.37230000 15.37140000 -1.96110000
-33.11590000 15.58110000 -2.27630000
-32.96820000 10.75470000 -6.24210000
-33.04810000 10.60130000 -6.27680000
-33.14190000 10.63180000 -6.01210000
-32.92520000 10.56230000 -6.52750000
-32.94950000 10.93320000 -5.94760000
-33.21680000 10.67140000 -5.74900000
-33.29340000 10.71080000 -5.48710000
-33.45810000 10.41500000 -5.51080000
-33.39660000 10.57290000 -5.50760000
-33.33820000 10.37380000 -5.76460000
-33.53890000 10.65660000 -4.98080000
-33.56720000 10.46590000 -5.25910000
-33.65380000 10.50860000 -4.99740000
-33.80080000 10.39940000 -4.72520000
-33.62410000 10.15850000 -5.23470000
-33.71500000 10.54400000 -4.71910000
-34.02460000 10.29770000 -4.16210000
-34.18080000 10.32590000 -3.56590000
-34.26960000 10.34240000 -3.26110000
-34.46880000 10.35160000 -2.61530000
-34.57430000 10.66570000 -1.21870000
-34.50290000 10.67490000 -1.56630000
-34.68610000 10.32480000 -1.59700000
-34.63870000 10.33630000 -1.94410000
-34.80160000 10.28280000 -0.54580000
-34.67680000 10.63940000 -0.51010000
-34.62780000 10.65380000 -0.86480000
-34.18840000 11.24980000 -0.37940000
-34.02250000 11.35010000 -1.49730000
-34.71490000 10.60820000 -0.16040000
-34.73900000 10.57110000 0.18940000
-32.77750000 16.26560000 -1.89640000
-32.86950000 16.16170000 -1.90890000
-32.92820000 16.38920000 -0.88230000
-32.96050000 16.05620000 -1.92120000
-33.04570000 15.94610000 -1.93200000
-32.00850000 16.65530000 -3.53420000
-32.86660000 15.76540000 -2.60720000
-31.55770000 10.88910000 -8.45500000
-32.06820000 10.59430000 -7.92380000
-32.25690000 10.55220000 -7.60820000
-31.85890000 10.63670000 -8.22600000
-32.42300000 10.69820000 -7.29300000
-32.44280000 10.53560000 -7.32130000
-32.62150000 10.51900000 -7.02980000
-32.41630000 10.39740000 -7.31020000
-33.06580000 10.29910000 -6.26410000
-32.77540000 10.54020000 -6.78010000
-32.77370000 10.39710000 -6.77770000
-34.74890000 10.47880000 0.89790000
-34.74990000 10.52740000 0.54370000
-34.80560000 10.36920000 0.53500000
-34.78880000 10.44060000 -0.17610000
-34.69400000 10.43290000 1.60540000
-34.72730000 10.45760000 1.25170000
-34.75730000 10.30000000 1.24650000
-34.65480000 10.67950000 0.57080000
-34.35890000 10.97880000 1.95640000
-34.63450000 10.42300000 1.95060000
-34.54940000 10.40800000 2.29010000
-33.81820000 10.47940000 4.13070000
-34.02170000 10.27240000 3.86860000
-33.86930000 10.32670000 4.16320000
-34.26750000 10.33210000 3.24760000
-34.16900000 10.21740000 3.57170000
-34.28790000 10.17440000 3.25630000
-34.33760000 10.43830000 2.92530000
-34.38880000 10.28890000 2.93820000
-34.40050000 10.13050000 2.93850000
-34.15030000 9.56930000 3.55160000
-34.26690000 9.54700000 3.23650000
-34.58500000 10.25920000 2.28860000
-34.44950000 10.42500000 2.61000000
-33.74490000 10.22490000 4.45100000
-33.70780000 10.39310000 4.43370000
-33.60960000 10.09960000 4.73840000
-33.59830000 10.28450000 4.73120000
-33.54250000 10.45980000 4.70180000
-33.37250000 10.51010000 4.95400000
-33.46420000 10.15730000 5.00870000
-33.31850000 10.21490000 5.27910000
-32.44770000 16.56190000 -1.83680000
-32.53330000 16.49540000 -1.85350000
-32.61660000 16.42580000 -1.86970000
-32.69970000 16.34810000 -1.88370000
-30.03270000 11.06920000 -9.78960000
-30.38650000 11.00310000 -9.56690000
-29.43460000 11.55810000 -9.45780000
-30.72170000 10.92230000 -9.32190000
-30.94060000 11.01390000 -8.96030000
-31.03700000 10.85420000 -9.06410000
-31.34940000 10.78300000 -8.80230000
-31.06590000 10.46910000 -9.11280000
-30.79060000 10.53110000 -9.41220000
-31.61740000 10.71230000 -8.52510000
-31.62280000 10.53550000 -8.54130000
-33.16240000 9.47670000 5.49470000
-33.17460000 10.26150000 5.53590000
-32.81190000 9.75480000 5.99230000
-33.01570000 10.30360000 5.78420000
-32.65830000 9.99200000 6.24850000
-32.67780000 10.18740000 6.25920000
-32.85670000 10.34600000 6.02670000
-32.69750000 10.38850000 6.26940000
-32.89920000 10.65960000 5.69320000
-33.21330000 10.56390000 5.21210000
-32.15780000 16.73340000 -1.76350000
-32.22910000 16.69470000 -1.78000000
-32.30000000 16.65650000 -1.79640000
-32.37560000 16.61190000 -1.81700000
-28.19550000 11.37290000 -10.60480000
-28.44630000 11.63480000 -10.13720000
-28.54860000 11.31710000 -10.49450000
-28.92840000 11.27000000 -10.34990000
-28.80720000 11.57290000 -10.01410000
-29.29370000 11.20590000 -10.18000000
-29.09320000 10.91110000 -10.59340000
-28.33880000 11.01470000 -10.87490000
-29.66480000 11.13950000 -9.98710000
-29.80580000 10.77100000 -10.17810000
-30.48770000 10.61370000 -9.70300000
-30.15420000 10.69650000 -9.95600000
-32.48410000 10.03610000 6.48370000
-32.06870000 9.73530000 6.93260000
-32.30750000 10.07990000 6.71740000
-31.93830000 10.16100000 7.17820000
-32.12470000 10.12060000 6.94930000
-32.52570000 10.43080000 6.50130000
-32.16440000 10.50460000 6.94780000
-31.97940000 10.53810000 7.16600000
-31.74210000 10.20640000 7.41110000
-31.54470000 10.25200000 7.64390000
-31.32330000 10.29380000 7.87650000
-31.32450000 10.63740000 7.79460000
-31.09470000 10.33480000 8.10280000
-31.08520000 10.67320000 8.00740000
-30.84860000 10.37340000 8.33670000
-30.82720000 10.71710000 8.23760000
-30.58780000 10.40820000 8.55440000
-30.55820000 10.75330000 8.45620000
-30.29610000 10.44070000 8.77780000
-30.26160000 10.78680000 8.68100000
-30.00480000 10.47300000 9.00310000
-29.63250000 10.84340000 9.11640000
-29.68520000 10.50190000 9.22200000
-29.36250000 10.52990000 9.43800000
-29.96020000 10.81630000 8.90000000
-31.88370000 16.93470000 -1.70180000
-31.94560000 16.87050000 -1.71570000
-31.88540000 17.05220000 -1.38320000
-32.01600000 16.81950000 -1.73160000
-32.08660000 16.77490000 -1.74750000
-31.77190000 16.98770000 -1.99640000
-19.82660000 12.00610000 -12.12330000
-19.82520000 11.70920000 -12.39300000
-20.10930000 11.72410000 -12.35260000
-19.56870000 11.99450000 -12.16740000
-19.54240000 11.69870000 -12.44180000
-20.40030000 11.75240000 -12.31240000
-20.69220000 11.78720000 -12.28120000
-20.97550000 12.14730000 -11.99270000
-21.01040000 11.81750000 -12.25310000
-21.32670000 11.83630000 -12.20840000
-20.35620000 12.23850000 -11.94530000
-21.66820000 11.83170000 -12.17870000
-21.66050000 12.05860000 -11.82840000
-22.00950000 11.82520000 -12.14690000
-25.38090000 11.54080000 -11.57170000
-25.66760000 11.53800000 -11.48860000
-25.54050000 11.85150000 -11.27280000
-25.95480000 11.53600000 -11.40720000
-26.22320000 11.54060000 -11.31670000
-25.45210000 11.23090000 -11.80220000
-26.28020000 11.38330000 -11.44550000
-26.95210000 11.18670000 -11.39860000
-26.62200000 11.20870000 -11.49120000
-27.61630000 11.10520000 -11.12770000
-30.97590000 9.57120000 8.05460000
-31.66200000 9.63190000 7.39500000
-30.27290000 10.24980000 8.76670000
-29.32640000 10.34210000 9.36840000
-28.94920000 10.20070000 9.48440000
-29.02140000 10.56340000 9.65060000
-28.65980000 10.59290000 9.82500000
-28.24650000 10.44360000 9.87650000
-27.86350000 10.66430000 10.05600000
-28.26350000 10.63000000 9.95020000
-28.63430000 10.77580000 9.78940000
-27.84020000 10.83660000 10.03260000
-27.02770000 10.94270000 10.20820000
-27.46720000 10.72500000 10.17160000
-27.07040000 10.78540000 10.28370000
-31.80500000 17.28540000 -1.67960000
-31.78510000 17.19370000 -1.67570000
-31.91640000 17.17690000 -1.07290000
-31.79720000 17.10250000 -1.67910000
-31.82920000 17.01260000 -1.68770000
-31.61940000 17.21690000 -2.27360000
-15.12240000 11.75640000 -12.80640000
-15.09610000 11.62820000 -12.90440000
-15.49530000 11.64530000 -12.87610000
-14.30910000 11.73300000 -12.86600000
-14.69620000 11.61200000 -12.93840000
-15.98460000 12.01250000 -12.43920000
-15.89160000 11.66310000 -12.82910000
-16.28780000 11.68180000 -12.78610000
-16.20940000 11.34900000 -12.91770000
-15.46100000 11.47550000 -12.93520000
-16.96480000 11.40360000 -12.89280000
-17.06040000 11.73410000 -12.73470000
-16.67410000 11.70890000 -12.76240000
-16.58720000 11.37700000 -12.90840000
-17.97950000 11.42980000 -12.82650000
-17.75960000 11.74480000 -12.66900000
-17.41040000 11.74300000 -12.70850000
-17.31350000 11.41930000 -12.87700000
-17.66070000 12.15360000 -12.23430000
-18.60770000 11.42220000 -12.77380000
-18.38230000 11.73040000 -12.61090000
-18.07070000 11.73640000 -12.63760000
-18.72430000 11.84280000 -12.44380000
-18.67360000 11.72140000 -12.57840000
-18.96380000 11.70750000 -12.53600000
-18.91780000 11.41760000 -12.74350000
-19.52220000 11.42450000 -12.69120000
-19.25260000 11.70070000 -12.48370000
-18.77670000 11.97710000 -12.32640000
-20.11790000 11.43030000 -12.61010000
-20.42430000 11.44870000 -12.56810000
-21.05230000 11.48510000 -12.49920000
-21.37320000 11.50110000 -12.46590000
-22.73000000 11.74540000 -12.09060000
-22.37070000 11.79090000 -12.12660000
-22.38140000 11.47800000 -12.35850000
-22.02560000 11.67320000 -12.28910000
-22.40370000 12.03170000 -11.85880000
-23.42890000 11.66100000 -12.02240000
-23.07970000 11.70310000 -12.05750000
-23.08760000 11.22690000 -12.29620000
-23.78110000 11.92300000 -11.82740000
-23.77030000 11.63180000 -11.96200000
-24.11120000 11.60160000 -11.89910000
-24.43840000 11.58370000 -11.82800000
-24.70040000 11.86000000 -11.57320000
-24.76240000 11.56130000 -11.74510000
-25.07180000 11.55120000 -11.65900000
-24.13380000 11.30540000 -12.08730000
-24.80850000 11.26000000 -11.95230000
-26.36670000 10.50260000 10.47420000
-26.68910000 10.85600000 10.38350000
-26.29950000 10.91830000 10.45380000
-27.09390000 10.59540000 10.28210000
-25.27330000 10.86030000 10.71760000
-25.57010000 11.02200000 10.54870000
-25.93430000 10.97090000 10.50040000
-25.98300000 10.77070000 10.58080000
-26.63680000 11.02040000 10.27470000
-25.51190000 11.18320000 10.40890000
-25.22020000 11.04920000 10.60010000
-24.86800000 11.07060000 10.64060000
-31.93630000 17.60310000 -1.70280000
-31.89900000 17.52740000 -1.69870000
-32.39710000 18.10630000 -0.75720000
-31.86290000 17.45110000 -1.69480000
-31.83070000 17.37120000 -1.68660000
-13.47680000 11.68390000 -12.81110000
-13.44930000 11.53860000 -12.87560000
-13.87310000 11.55600000 -12.90520000
-13.02650000 11.51670000 -12.82960000
-14.28380000 11.58770000 -12.93560000
-13.83980000 11.37630000 -12.92570000
-13.41620000 11.36110000 -12.90720000
-14.66180000 11.42990000 -12.96200000
-24.61790000 10.69190000 10.84050000
-24.52950000 11.08250000 10.68730000
-23.93000000 10.93120000 10.91650000
-24.19330000 11.09980000 10.74440000
-23.33610000 10.74530000 11.07940000
-23.57260000 11.12380000 10.87010000
-23.88230000 11.11010000 10.80400000
-23.91680000 11.63790000 10.22790000
-23.02470000 10.75060000 11.13060000
-22.99030000 11.13610000 11.00510000
-23.28160000 11.13020000 10.93780000
-22.66650000 11.29340000 10.96430000
-22.40620000 11.12790000 11.12650000
-22.69950000 11.13520000 11.07270000
-21.79710000 11.06410000 11.19870000
-22.10120000 11.09500000 11.16050000
-22.08740000 10.69760000 11.21170000
-22.71000000 10.73750000 11.15440000
-21.79350000 11.23450000 11.09940000
-21.47530000 11.01480000 11.24560000
-21.47230000 11.18260000 11.16910000
-21.15390000 10.96650000 11.29770000
-32.08470000 17.91610000 -1.73660000
-32.04700000 17.83530000 -1.72620000
-32.00950000 17.75470000 -1.71590000
-31.97300000 17.67870000 -1.70940000
-12.21250000 11.64940000 -12.60880000
-11.73320000 11.53270000 -12.67080000
-12.16050000 11.52870000 -12.71600000
-11.68210000 12.36240000 -11.92880000
-11.30610000 11.53420000 -12.62280000
-12.59560000 11.51160000 -12.74730000
-12.12180000 11.19500000 -12.86120000
-12.96280000 11.16440000 -12.87420000
-12.54260000 11.17850000 -12.85820000
-20.47260000 10.84510000 11.36680000
-20.81410000 10.90800000 11.34340000
-20.80850000 10.72240000 11.33540000
-21.14970000 10.77900000 11.32020000
-19.71330000 11.03060000 11.40610000
-20.09130000 11.10050000 11.36080000
-20.09560000 10.94720000 11.39940000
-20.47110000 11.00880000 11.34830000
-20.46640000 11.16030000 11.28580000
-18.93380000 10.97380000 11.45090000
-19.32380000 11.00200000 11.43280000
-18.54560000 10.82210000 11.45640000
-19.69700000 11.17530000 11.36710000
-19.31130000 11.15130000 11.40570000
-32.23760000 18.28050000 -1.76830000
-32.20110000 18.18550000 -1.76100000
-32.16450000 18.09060000 -1.75350000
-32.12570000 18.00270000 -1.74530000
-31.82850000 17.89270000 -2.69000000
-10.63840000 12.01440000 -12.13630000
-10.04180000 11.60040000 -12.51670000
-10.46890000 11.57160000 -12.53200000
-9.61490000 11.63600000 -12.51250000
-10.88780000 11.54790000 -12.56950000
-10.40030000 11.05800000 -12.81110000
-9.99540000 11.25500000 -12.74490000
-10.82570000 11.04280000 -12.82890000
-17.76750000 10.84920000 11.49260000
-17.76910000 11.01250000 11.49060000
-18.15830000 10.98420000 11.48250000
-17.00780000 10.90040000 11.50490000
-17.37990000 11.03860000 11.48840000
-18.54560000 10.97730000 11.45760000
-17.76420000 11.16240000 11.44010000
-32.35860000 18.70770000 -1.79800000
-32.33360000 18.59690000 -1.79150000
-32.53800000 18.53780000 -0.78370000
-32.30440000 18.48720000 -1.78410000
-32.27150000 18.38360000 -1.77640000
-19.90430000 22.66220000 -6.22570000
-19.88400000 23.20640000 -6.46510000
-19.56250000 23.12350000 -6.44780000
-20.57070000 22.76640000 -6.12690000
-20.20180000 23.30190000 -6.45250000
-19.26850000 22.65220000 -6.21910000
-19.25310000 23.04490000 -6.41760000
-18.94370000 22.96640000 -6.38580000
-18.64610000 22.72300000 -6.26680000
-18.63990000 22.92720000 -6.38920000
-18.33660000 22.88500000 -6.40190000
-19.16450000 23.78680000 -6.82400000
-18.35130000 23.27010000 -6.65520000
-18.34400000 23.07880000 -6.52850000
-18.59160000 23.73600000 -6.85380000
-17.68000000 22.43150000 -6.27900000
-18.07520000 23.25870000 -6.69360000
-17.79830000 23.25050000 -6.72420000
-18.32440000 23.72780000 -6.88850000
-17.23750000 23.28870000 -6.77600000
-17.51950000 23.26370000 -6.76870000
-17.52950000 23.48480000 -6.89130000
-16.66670000 23.36510000 -6.80850000
-16.95260000 23.32520000 -6.80030000
-16.82050000 22.77270000 -6.52660000
-5.74150000 11.34090000 -12.85100000
-6.14330000 11.39070000 -12.85060000
-6.05860000 11.84840000 -12.68710000
-6.54500000 11.43840000 -12.83680000
-6.92020000 11.49070000 -12.80520000
-6.92400000 10.40550000 -13.06960000
-7.69230000 11.14240000 -12.90180000
-9.21650000 11.64380000 -12.52930000
-32.53190000 0.18310000 -8.44580000
-32.81150000 0.17480000 -8.17030000
-33.46250000 0.39320000 -8.32270000
-33.09290000 0.15690000 -7.89670000
-33.35550000 0.16100000 -7.60330000
-33.74840000 0.34050000 -8.02840000
-33.61740000 0.16830000 -7.30920000
-34.26850000 0.35430000 -7.39950000
-32.93180000 0.02560000 -7.13450000
-34.11640000 0.16320000 -6.70730000
-33.86790000 0.16140000 -7.00910000
-34.31820000 0.26060000 -6.89460000
-34.59860000 0.09410000 -6.10240000
-34.35560000 0.13570000 -6.40400000
-34.36640000 0.00640000 -5.89660000
-35.18450000 0.49190000 -6.09330000
-35.02030000 0.15320000 -5.46430000
-34.81810000 0.09180000 -5.78740000
-34.79420000 0.00760000 -5.27710000
-35.38070000 0.25450000 -4.80880000
-35.19500000 0.22630000 -5.13430000
-34.95530000 0.14200000 -4.95310000
-35.59060000 0.40220000 -4.94590000
-35.72150000 0.23580000 -4.15270000
-35.55800000 0.21120000 -4.48370000
-35.31520000 0.11930000 -4.32160000
-35.14030000 0.16290000 -4.63670000
-35.78550000 0.29710000 -4.61930000
-36.01080000 0.31650000 -3.47530000
-35.85780000 0.31980000 -3.81060000
-35.22710000 0.09300000 -3.84760000
-36.40830000 0.45990000 -4.51870000
-36.36750000 0.38960000 -3.22610000
-36.22960000 0.41900000 -2.77770000
-36.12920000 0.32040000 -3.12960000
-35.64690000 0.12460000 -2.90090000
-36.47910000 0.45810000 -2.86720000
-36.44840000 0.38340000 -2.10810000
-36.33910000 0.40100000 -2.44260000
-35.87950000 0.14890000 -2.26920000
-36.62880000 0.37800000 -1.43170000
-36.53550000 0.40760000 -1.76850000
-35.98420000 0.18140000 -1.95480000
-36.78500000 0.36930000 -1.82770000
-36.54990000 0.20990000 0.29920000
-36.74700000 0.33140000 -0.73260000
-36.68860000 0.34910000 -1.08250000
-37.16030000 0.38640000 -1.15490000
-36.79510000 0.27910000 -0.03010000
-36.76990000 0.31040000 -0.38150000
-37.43300000 0.33380000 -0.80820000
-37.15050000 0.44590000 0.67160000
-36.70190000 0.35090000 0.64960000
-36.75760000 0.27100000 0.31070000
-36.53230000 0.34770000 1.29250000
-36.61640000 0.35210000 0.97100000
-36.21910000 0.19800000 1.52540000
-36.78510000 0.29250000 1.32850000
-36.33870000 0.30280000 1.89290000
-36.43540000 0.32510000 1.59270000
-36.68300000 0.32540000 1.63930000
-36.09540000 0.24390000 2.47800000
-36.21590000 0.27740000 2.18530000
-35.87420000 0.07320000 2.37720000
-36.34330000 0.29650000 2.56470000
-35.82340000 0.16740000 3.07020000
-35.95790000 0.21140000 2.77390000
-36.05970000 0.26900000 3.17390000
-35.51090000 0.07980000 3.65040000
-35.67260000 0.10130000 3.36130000
-35.90220000 0.21890000 3.47170000
-35.15410000 0.02120000 4.22460000
-35.33550000 0.03780000 3.93810000
-35.55780000 0.17480000 4.06410000
-34.96410000 -0.03280000 4.50690000
-35.41570000 0.16360000 4.79600000
-34.77180000 -0.07580000 4.78900000
-35.01770000 -0.03830000 5.38460000
-16.29990000 10.74740000 11.49130000
-16.27560000 11.10950000 11.45710000
-16.62680000 11.09630000 11.45830000
-15.94110000 10.93760000 11.49950000
-15.92440000 11.11930000 11.44650000
-17.00320000 11.06860000 11.47440000
-15.91070000 11.26680000 11.34390000
-17.01320000 11.46100000 11.15800000
-15.59260000 11.11360000 11.44230000
-15.26070000 11.10850000 11.43950000
-23.66410000 24.00100000 8.27700000
-24.44260000 24.17730000 8.66430000
-24.80130000 24.17010000 8.59980000
-24.77800000 24.13050000 8.47180000
-24.75590000 24.08830000 8.34700000
-24.08430000 24.18230000 8.73040000
-25.89620000 24.23130000 8.41970000
-25.44190000 24.04660000 8.16880000
-25.09860000 24.06940000 8.25660000
-24.98110000 23.79510000 7.76530000
-26.06420000 24.00460000 7.92650000
-25.75250000 24.03110000 8.04450000
-26.76870000 23.95770000 7.77740000
-26.41560000 23.98080000 7.85220000
-26.54980000 24.11180000 8.09690000
-26.56990000 23.75310000 7.39790000
-27.42700000 23.94730000 7.36010000
-27.10680000 23.92930000 7.58350000
-27.26160000 24.08090000 7.81090000
-26.96760000 24.21660000 8.06580000
-27.17730000 23.56880000 6.46280000
-28.02250000 23.97180000 6.94130000
-27.72250000 23.96300000 7.14850000
-28.58560000 23.99740000 6.49860000
-28.30620000 23.98100000 6.72210000
-28.50720000 24.15400000 6.93420000
-27.89580000 24.13120000 7.36220000
-28.05240000 23.55580000 5.91890000
-29.13970000 24.00500000 6.06010000
-28.86370000 23.99920000 6.28070000
-29.59870000 23.97640000 5.58360000
-29.36660000 23.99530000 5.81880000
-29.60230000 24.17700000 6.01570000
-29.06740000 24.18900000 6.48260000
-30.04910000 23.87930000 5.11440000
-29.82550000 23.92350000 5.35180000
-30.07190000 24.11870000 5.51160000
-29.36450000 23.56270000 4.83900000
-30.22100000 23.85210000 4.85370000
-30.37610000 23.84250000 4.58060000
-32.43250000 19.27010000 -1.81690000
-32.42140000 19.12090000 -1.81510000
-32.54760000 19.35820000 -0.85230000
-32.40320000 18.97200000 -1.81200000
-32.38340000 18.83930000 -1.80550000
-32.10830000 19.39130000 -3.03830000
-20.92650000 22.56350000 -5.97450000
-21.20470000 23.66430000 -6.49120000
-20.86910000 23.51550000 -6.47090000
-22.07410000 22.86590000 -5.98250000
-21.53820000 23.81830000 -6.49990000
-20.53490000 23.41010000 -6.45840000
-20.42110000 24.10020000 -6.84420000
-19.78740000 23.90560000 -6.85840000
-20.03480000 27.20120000 -5.41800000
-19.71370000 27.17420000 -5.37000000
-20.05200000 27.04390000 -5.56930000
-19.40970000 27.11110000 -5.27930000
-19.50040000 26.73840000 -5.52090000
-19.15110000 27.04130000 -5.16460000
-19.02910000 26.55610000 -5.23650000
-19.14340000 27.19770000 -4.98350000
-20.38840000 27.99400000 -4.55920000
-18.18250000 27.20340000 -0.34180000
-18.42110000 27.00320000 -0.03120000
-18.23650000 27.04410000 -0.35320000
-18.49810000 27.23520000 0.33310000
-18.65410000 26.97590000 0.26090000
-18.05080000 27.42330000 -0.69460000
-18.09050000 27.09530000 -0.69150000
-18.12380000 26.76290000 -0.64450000
-18.56700000 26.53240000 -0.03780000
-17.91340000 26.97700000 -0.97460000
-17.49340000 27.07120000 -1.52140000
-17.29970000 26.87440000 -2.03940000
-17.17070000 26.82820000 -2.67300000
-17.45960000 27.14370000 -2.57790000
-17.38980000 27.13280000 -2.88410000
-17.16910000 26.95430000 -3.39540000
-17.28830000 27.09080000 -3.49400000
-17.32930000 27.12230000 -3.18830000
-17.20070000 26.98740000 -3.08410000
-17.47740000 27.21410000 -3.32000000
-17.37360000 27.17380000 -3.91130000
-17.24010000 27.06990000 -3.78510000
-17.18860000 27.05570000 -4.07640000
-17.27220000 27.08040000 -4.45910000
-17.13050000 27.01030000 -4.33690000
-17.07550000 26.96010000 -4.59630000
-17.21440000 27.01450000 -4.71540000
-17.36560000 27.01700000 -4.82560000
-17.51580000 26.99280000 -4.95120000
-17.59930000 27.09860000 -4.71430000
-17.11710000 26.96790000 -4.94480000
-17.53430000 26.87600000 -5.28440000
-17.39990000 26.82260000 -5.50260000
-16.76150000 26.79590000 -5.62740000
-16.96940000 26.72400000 -5.87520000
-17.18460000 26.77940000 -5.69080000
-17.79890000 26.72610000 -5.98440000
-17.16110000 26.63530000 -6.14250000
-17.84190000 26.81930000 -5.58930000
-15.34470000 23.60590000 -6.90300000
-15.69340000 23.64640000 -6.92770000
-15.99420000 24.01590000 -6.96800000
-16.04230000 23.68860000 -6.93100000
-16.01420000 23.37280000 -6.81460000
-16.02850000 23.52960000 -6.87420000
-15.68080000 23.34100000 -6.84520000
-16.33490000 23.89040000 -6.96670000
-16.33910000 23.37410000 -6.78500000
-16.53820000 22.82300000 -6.60200000
-4.46220000 11.28830000 -12.79390000
-4.87840000 11.29890000 -12.82010000
-4.46250000 11.52310000 -12.73540000
-3.67740000 11.77730000 -12.64130000
-4.04570000 11.27760000 -12.76820000
-5.30970000 11.32030000 -12.84000000
-5.26130000 11.78130000 -12.75380000
-5.65820000 11.80510000 -12.71960000
-2.37600000 10.42710000 -12.83870000
-5.31260000 10.46570000 -13.02870000
-30.70350000 0.11620000 -9.93300000
-31.02940000 0.11110000 -9.70710000
-31.49490000 0.41960000 -10.44240000
-31.35150000 0.13130000 -9.47600000
-32.15010000 0.47540000 -9.93250000
-31.64780000 0.17950000 -9.21920000
-31.95990000 0.14290000 -8.97890000
-32.76650000 0.49830000 -9.39050000
-31.17700000 -0.03680000 -7.91970000
-32.24110000 0.18720000 -8.70770000
-32.12570000 0.11790000 -7.93550000
-32.89110000 0.38900000 -8.90760000
-34.34080000 -0.10010000 5.34070000
-34.55670000 -0.09110000 5.06480000
-34.67100000 -0.16080000 3.89840000
-33.88710000 -0.14880000 5.86870000
-34.11240000 -0.10590000 5.60520000
-32.45540000 -0.24240000 6.00200000
-34.34410000 -0.13790000 5.77990000
-34.35330000 -0.26440000 6.23170000
-34.78310000 -0.03860000 5.22530000
-33.64790000 -0.23960000 6.13160000
-33.87680000 -0.24930000 6.31980000
-33.40340000 -0.23890000 6.39750000
-15.27480000 10.92640000 11.49280000
-14.94580000 11.09680000 11.44650000
-14.64880000 10.72760000 11.49620000
-14.63100000 11.07850000 11.43720000
-14.01080000 10.90520000 11.49840000
-14.00990000 11.06730000 11.44190000
-14.32050000 11.07020000 11.43300000
-14.31370000 11.20130000 11.33490000
-14.93080000 11.24270000 11.34860000
-13.69860000 11.06630000 11.44360000
-13.38720000 11.06500000 11.44440000
-13.08650000 11.19460000 11.34720000
-13.07330000 11.06100000 11.43490000
-12.75960000 11.05540000 11.42150000
-12.43030000 11.07060000 11.44660000
-12.11940000 11.21900000 11.37390000
-12.10100000 11.08490000 11.46960000
-11.75990000 11.08430000 11.46580000
-11.41860000 11.08030000 11.45380000
-11.07070000 11.07130000 11.44430000
-11.08420000 12.09420000 10.67930000
-10.72390000 11.07590000 11.46870000
-10.35570000 11.19710000 11.41250000
-22.62840000 24.16340000 8.80730000
-22.99070000 24.16640000 8.80310000
-23.35290000 24.17700000 8.79520000
-23.01770000 24.29450000 9.16960000
-22.63490000 24.19610000 8.92590000
-22.64190000 24.23200000 9.04750000
-23.71880000 24.17600000 8.76460000
-24.12450000 24.26740000 8.98260000
-24.50130000 24.27410000 8.92240000
-30.45410000 24.22660000 4.95620000
-30.48760000 23.92260000 4.63710000
-30.50500000 23.80680000 4.33000000
-30.90410000 24.07330000 3.90540000
-30.63100000 23.77330000 4.07790000
-30.54520000 23.48460000 3.66490000
-31.02670000 24.02550000 3.67740000
-30.84710000 23.70430000 3.60220000
-30.73630000 23.74140000 3.83810000
-30.63620000 23.34810000 3.39740000
-30.94180000 23.66580000 3.38080000
-31.02800000 23.63280000 3.15290000
-32.43830000 19.89190000 -1.83400000
-32.43810000 19.73200000 -1.83220000
-32.43680000 19.57200000 -1.83020000
-32.43670000 19.42100000 -1.82400000
-22.72250000 23.28830000 -6.01230000
-22.49780000 24.35250000 -6.50210000
-22.16680000 24.19730000 -6.49750000
-23.37980000 23.47820000 -5.91160000
-22.82980000 24.50570000 -6.51210000
-21.84870000 24.01620000 -6.47680000
-22.01200000 24.69510000 -6.74210000
-21.70290000 24.51750000 -6.67640000
-23.43880000 25.04700000 -6.67850000
-23.17370000 24.62590000 -6.50390000
-23.51820000 24.74480000 -6.49950000
-22.08480000 27.47080000 -5.57820000
-21.73450000 27.40920000 -5.56380000
-21.82970000 26.90000000 -5.89410000
-21.38320000 27.35310000 -5.55670000
-21.04300000 27.30940000 -5.53310000
-21.46890000 26.84760000 -5.90280000
-20.70550000 27.25540000 -5.49730000
-20.37140000 27.22700000 -5.45600000
-22.36640000 27.93850000 -5.16540000
-23.65510000 31.35480000 -4.40230000
-23.28960000 31.36710000 -4.42070000
-24.02260000 31.35010000 -4.40460000
-22.88420000 31.40030000 -4.46560000
-23.41040000 31.90650000 -4.26960000
-23.76260000 31.85030000 -4.18490000
-22.70180000 32.09470000 -4.51370000
-23.06390000 32.02080000 -4.43370000
-21.83560000 32.95320000 -3.45940000
-21.62560000 33.59120000 -2.88490000
-21.50940000 33.48950000 -3.13410000
-22.40480000 33.48190000 -1.82780000
-21.72050000 33.66570000 -2.61760000
-21.85360000 33.75160000 -2.06890000
-21.79150000 33.71420000 -2.34600000
-20.60070000 34.75970000 -2.71020000
-21.52500000 34.17230000 -1.21270000
-21.94680000 33.79260000 -1.51320000
-21.90630000 33.78030000 -1.79280000
-21.97460000 33.79260000 -1.23620000
-21.99560000 33.78290000 -0.95880000
-16.76010000 37.12960000 2.79080000
-16.58620000 37.43050000 2.84640000
-17.44290000 37.11920000 2.71060000
-16.41220000 37.73150000 2.90140000
-16.24420000 38.03610000 2.95410000
-16.07610000 38.34100000 3.00440000
-15.90970000 38.64720000 3.05300000
-15.74320000 38.95360000 3.09990000
-17.15900000 38.93300000 2.82550000
-16.06100000 37.14190000 2.78110000
-15.00850000 38.96810000 3.07550000
-15.58030000 39.26410000 3.14250000
-15.41730000 39.57480000 3.18400000
-12.67460000 57.59300000 -0.94260000
-12.62300000 57.91140000 -1.00070000
-12.49530000 57.43530000 -1.17150000
-12.59550000 58.22540000 -1.09040000
-12.41750000 58.78680000 -1.26870000
-12.56340000 58.53280000 -1.12050000
-12.50670000 58.83850000 -1.11350000
-12.44040000 59.09540000 -1.07930000
-12.39060000 59.35270000 -1.07430000
-12.28500000 59.61190000 -1.22350000
-12.91820000 58.36960000 -1.00690000
-12.60670000 59.16000000 -0.96990000
-12.37160000 59.60440000 -1.07560000
-12.33100000 59.85030000 -1.04710000
-12.29980000 60.07690000 -0.98130000
-12.16290000 60.21500000 -1.19950000
-12.29620000 60.31930000 -0.93960000
-12.51130000 59.62620000 -0.96920000
-12.45000000 60.36390000 -0.75850000
-12.58340000 60.23910000 -0.85560000
-12.31890000 60.51030000 -0.83810000
-12.45760000 60.47820000 -0.50480000
-12.29560000 60.67480000 -0.70220000
-12.28450000 60.61330000 -0.16300000
-12.28400000 60.78000000 -0.52730000
-12.24740000 60.86950000 -0.34490000
-12.18770000 60.89580000 -0.13690000
-12.11660000 60.91810000 0.06420000
-12.24980000 60.80860000 -0.74100000
-12.09070000 61.20180000 -0.12060000
-12.26530000 60.44780000 0.17890000
-11.97180000 60.85950000 0.57100000
-12.04460000 60.88890000 0.31770000
-11.33210000 62.20460000 1.20700000
-11.92180000 60.79160000 0.82220000
-11.87510000 60.72510000 1.07470000
-8.75610000 64.42210000 3.65830000
-8.93080000 64.52040000 3.40130000
-9.17530000 63.40610000 3.70070000
-9.10340000 64.61740000 3.14390000
-10.42220000 62.44410000 2.78040000
-8.28530000 64.15130000 4.05290000
-8.52430000 64.28830000 3.86170000
-8.20510000 64.95030000 3.77880000
-7.83450000 63.88710000 4.48370000
-8.05990000 64.01940000 4.26750000
-7.97850000 63.55630000 4.49110000
-7.60540000 64.57140000 4.52620000
-7.52090000 64.09680000 4.78450000
-7.59980000 63.74130000 4.69130000
-7.34210000 63.58640000 4.86010000
-7.14230000 64.28000000 5.01270000
-1.60220000 65.90390000 4.76540000
-1.36790000 65.72140000 4.66050000
-1.22050000 66.00450000 4.59780000
-1.50790000 65.43880000 4.73690000
-1.43960000 66.18600000 4.72430000
-1.05970000 66.27860000 4.54040000
-0.87260000 66.53320000 4.57090000
-0.45100000 66.15730000 4.47610000
-0.66340000 66.34830000 4.51450000
-0.83710000 66.09500000 4.50490000
-0.45520000 66.49720000 4.70330000
-0.26510000 66.30570000 4.59180000
-0.07600000 66.45380000 4.71230000
-0.25230000 65.96540000 4.43810000
0.10350000 65.90230000 4.39500000
0.29030000 65.99590000 4.49520000
0.14720000 66.18300000 4.73350000
-0.07510000 65.79710000 4.32360000
0.29140000 66.33160000 4.72410000
0.43070000 66.12270000 4.49720000
0.54100000 66.28010000 4.41200000
0.47700000 66.65990000 4.45700000
0.64490000 66.42130000 4.32650000
0.76740000 66.55310000 4.27630000
0.55780000 65.94870000 4.22810000
1.12420000 66.08500000 4.02660000
0.94560000 66.32000000 4.15070000
0.90670000 66.65170000 4.32480000
1.26220000 66.20380000 4.07880000
1.39580000 66.28650000 4.17390000
1.80970000 65.89790000 3.84770000
1.60280000 66.11210000 3.98760000
1.32120000 65.83840000 3.92050000
1.74270000 66.18540000 4.11730000
1.52590000 66.29430000 4.33520000
1.94090000 66.14860000 3.82260000
2.09800000 66.20500000 3.99680000
1.64410000 66.25560000 4.52640000
2.31620000 66.21160000 3.65430000
2.07000000 65.68580000 3.74330000
2.56830000 66.02590000 3.46350000
2.69520000 66.19580000 4.11840000
2.70280000 66.34310000 3.49060000
2.89930000 66.39090000 3.74960000
2.96080000 66.10620000 3.30290000
3.23510000 65.83430000 3.19850000
3.38590000 66.04770000 3.26630000
3.12680000 66.32350000 3.41370000
2.72890000 65.52760000 3.44360000
3.10260000 65.58620000 3.20170000
3.55970000 66.36120000 3.79770000
3.58540000 66.09430000 3.43570000
3.77880000 66.04540000 3.67490000
3.60740000 65.73830000 3.12370000
3.33820000 65.32840000 3.12470000
3.56920000 65.07740000 3.04050000
3.88910000 64.91550000 3.04940000
4.17590000 65.57150000 3.27400000
3.97660000 65.77110000 3.51260000
4.03440000 66.01820000 3.83670000
4.40820000 65.55460000 3.43280000
4.46730000 65.81730000 3.74570000
4.64430000 65.58100000 3.54270000
4.77940000 65.43620000 3.24960000
4.32780000 65.39630000 2.96800000
4.88970000 65.34350000 2.87360000
4.90900000 65.68720000 3.56360000
5.04390000 65.50670000 3.28580000
5.13090000 64.74610000 2.58340000
4.98480000 65.08100000 2.63840000
4.64930000 64.79320000 2.76680000
4.48700000 65.13520000 2.77290000
5.19040000 65.19870000 2.58750000
5.32140000 64.88200000 2.49090000
5.28300000 64.38200000 2.54920000
5.70250000 64.64260000 2.48640000
5.46220000 64.02320000 2.63790000
5.64250000 64.15420000 2.49850000
13.10420000 74.75730000 -4.43040000
12.21780000 74.10580000 -5.46230000
12.37760000 74.42080000 -5.35690000
12.05890000 73.79020000 -5.56870000
12.52970000 74.73300000 -5.25830000
12.68220000 75.04550000 -5.16000000
12.85470000 75.34870000 -5.09720000
13.05620000 75.63640000 -5.06440000
12.16700000 74.95880000 -5.66550000
12.70720000 76.25510000 -5.62270000
13.28210000 75.90670000 -5.06820000
13.62950000 76.85740000 -5.63470000
13.53160000 76.15420000 -5.10300000
14.83900000 77.22560000 -5.50870000
14.57590000 77.01670000 -5.41290000
15.10240000 77.43380000 -5.60520000
14.31050000 76.80710000 -5.32660000
14.04570000 76.59680000 -5.24110000
14.43690000 75.96930000 -4.17830000
13.78390000 76.38250000 -5.16420000
3.39430000 67.05220000 5.30990000
2.87520000 67.03450000 5.36080000
2.64940000 66.74490000 5.36860000
2.90970000 66.54770000 5.16860000
2.40090000 66.49790000 5.28720000
2.44820000 66.06750000 4.97250000
2.17210000 66.27410000 5.19260000
1.94810000 66.17670000 4.98850000
2.21360000 66.03400000 4.74820000
1.32940000 66.69030000 5.08390000
1.93530000 66.59420000 5.31330000
1.31680000 66.47480000 4.51300000
1.78860000 66.20730000 4.75480000
-9.44370000 64.79420000 2.62690000
-9.27620000 64.70720000 2.88750000
-9.75220000 64.93400000 2.07350000
-9.60410000 64.86730000 2.35430000
-9.28830000 65.95480000 1.94330000
-9.88910000 64.98780000 1.78270000
-10.00940000 65.03320000 1.48310000
-11.21700000 63.70360000 -0.45570000
-10.45210000 65.07760000 -0.04610000
-10.52290000 65.05790000 -0.34910000
-10.37850000 65.09590000 0.25630000
-10.22610000 65.08760000 0.87840000
-10.30710000 65.09420000 0.56870000
-9.88730000 65.77580000 0.77600000
-10.12330000 65.06320000 1.18300000
2.66770000 67.30090000 5.45940000
2.73540000 67.83630000 5.61110000
3.15290000 67.27940000 5.46720000
3.41070000 67.56460000 5.49140000
3.20670000 67.83850000 5.57420000
3.69200000 67.84590000 5.49120000
3.48970000 68.12060000 5.57760000
3.96110000 68.13630000 5.46130000
4.34060000 67.63070000 5.10570000
3.92000000 67.58130000 5.36710000
4.03330000 68.66040000 5.45500000
4.21430000 68.38760000 5.32070000
4.43740000 68.64660000 5.12140000
3.59640000 68.67220000 5.72590000
4.06750000 69.19780000 5.37230000
4.70060000 68.90950000 5.08430000
3.86390000 69.47490000 5.47390000
4.91810000 69.19460000 4.92670000
4.37850000 68.13900000 5.11320000
5.33400000 68.66930000 4.77000000
4.61230000 68.38490000 4.95510000
4.96380000 69.73160000 4.98980000
5.16890000 69.48020000 4.89300000
5.45220000 69.71050000 5.03820000
4.51340000 69.71880000 5.09480000
5.23550000 69.95980000 5.14510000
5.72670000 69.92890000 5.19220000
5.99980000 70.15960000 5.31770000
6.05330000 69.10540000 4.55410000
5.55620000 69.02850000 4.62020000
6.51840000 70.14600000 5.33980000
6.54280000 70.63630000 5.49320000
6.27140000 70.39410000 5.41490000
16.53380000 78.80240000 -6.21730000
16.73320000 79.06290000 -6.31380000
17.02850000 78.57010000 -5.64760000
16.92840000 79.32880000 -6.40330000
17.11380000 79.59460000 -6.50550000
18.16330000 80.16290000 -6.21190000
17.29910000 79.86080000 -6.60740000
17.45820000 80.14600000 -6.69260000
17.62290000 80.42450000 -6.78720000
16.72440000 80.14370000 -7.09940000
15.78630000 78.82500000 -6.60460000
17.93870000 80.98650000 -6.98880000
17.78350000 80.70250000 -6.89240000
14.38760000 88.84000000 -9.33440000
14.65160000 89.05960000 -9.42610000
15.73460000 88.66700000 -9.48090000
14.91720000 89.28780000 -9.47340000
15.44460000 89.10080000 -9.50980000
15.58080000 89.60610000 -9.47930000
15.70040000 89.37350000 -9.54710000
15.19560000 89.55830000 -9.49610000
15.46750000 89.83680000 -9.47180000
15.95310000 89.70070000 -9.39500000
14.96240000 89.97520000 -9.55440000
14.78800000 89.49690000 -9.50270000
14.11090000 88.62050000 -9.29110000
13.20260000 88.99450000 -9.27620000
13.83350000 88.40110000 -9.24850000
17.58770000 92.29540000 -10.24590000
18.04620000 92.59030000 -10.30800000
18.02430000 92.68510000 -10.17300000
18.24610000 92.83360000 -10.22070000
17.98170000 92.81240000 -10.06410000
18.78660000 92.94880000 -10.52290000
18.72030000 93.10830000 -10.28780000
18.48120000 92.97380000 -10.25770000
18.13720000 93.08040000 -10.07090000
18.86170000 93.47810000 -10.15730000
18.97540000 93.25220000 -10.29480000
19.22470000 93.40430000 -10.31180000
18.61120000 93.34130000 -10.14180000
27.81990000 98.12800000 -7.03830000
28.32260000 98.13240000 -7.16510000
28.37730000 98.04970000 -7.41760000
28.15000000 97.95040000 -7.44410000
27.98090000 98.29650000 -6.78700000
28.26390000 98.20370000 -6.90490000
28.40300000 98.37410000 -6.62410000
28.61040000 98.46440000 -6.58450000
28.67440000 98.40000000 -6.85770000
28.47240000 98.30000000 -6.88280000
28.13150000 98.49200000 -6.48770000
28.53700000 98.23500000 -7.13790000
29.18640000 98.54760000 -7.05270000
28.81330000 98.55690000 -6.54540000
29.56890000 98.27500000 -7.95940000
28.33800000 97.08200000 -8.50840000
27.63110000 96.06660000 -8.79830000
27.03110000 96.40710000 -8.43980000
26.80390000 96.22580000 -8.47710000
26.56880000 96.03520000 -8.52020000
25.44570000 94.99210000 -8.62310000
24.39690000 93.70730000 -8.56520000
25.06440000 94.93380000 -8.58640000
24.82140000 94.74860000 -8.57300000
24.27090000 94.36070000 -8.55860000
24.54550000 94.55370000 -8.57390000
24.40120000 94.67800000 -8.53310000
24.74220000 95.12990000 -8.68300000
24.04280000 95.08220000 -8.21540000
23.77170000 95.37290000 -8.11260000
23.91630000 95.48090000 -8.38100000
23.79260000 94.90870000 -8.15230000
23.54100000 95.20930000 -7.97670000
24.02490000 95.52390000 -8.59990000
23.75330000 95.59420000 -8.37060000
21.85690000 94.85990000 -10.04830000
21.60130000 94.70920000 -10.08870000
21.99150000 94.69400000 -10.23250000
21.34120000 94.57220000 -10.14620000
21.49990000 94.37620000 -10.45890000
22.34170000 95.14480000 -9.93900000
22.09870000 95.00480000 -9.99660000
21.72360000 95.05610000 -9.93150000
22.19600000 95.34530000 -9.84000000
22.78530000 95.44410000 -9.83000000
22.56370000 95.29450000 -9.88410000
