34.32210000 61.91970000 -8.97820000
36.28580000 59.97040000 -7.68980000
36.27380000 60.43810000 -7.81750000
34.68810000 60.82370000 -8.46960000
32.12130000 35.29050000 -5.09430000
33.20000000 36.40750000 -3.70680000
32.93960000 35.83950000 -3.81550000
33.04680000 35.69100000 -3.72110000
42.93980000 46.53900000 -2.08490000
43.50910000 46.51360000 -1.25230000
-41.79410000 8.19940000 -7.39450000
-41.94000000 7.75760000 -7.35800000
-42.68500000 8.15700000 -6.43370000
-42.23240000 8.47580000 -6.82170000
27.29750000 63.72920000 -11.38690000
26.30280000 64.73970000 -11.14100000
25.80000000 64.93950000 -11.08220000
26.03840000 64.54470000 -11.22500000
28.60820000 24.52550000 26.67360000
28.22960000 24.81980000 26.48680000
28.52380000 24.61410000 27.26830000
29.10450000 24.26590000 27.82420000
-2.02000000 46.62650000 -24.54810000
-3.63330000 46.05240000 -24.11520000
26.42710000 49.38270000 -20.41420000
26.37840000 50.72300000 -20.53980000
25.41190000 52.62120000 -19.95770000
24.76880000 53.21200000 -19.63330000
25.00220000 52.57870000 -19.41820000
26.68720000 46.69900000 -10.71760000
27.35070000 45.89840000 -10.43220000
26.49610000 46.60970000 -10.10770000
26.78470000 47.69950000 -12.40490000
26.70410000 47.12490000 -11.41910000
50.07470000 87.28540000 -4.68310000
50.59910000 87.21820000 -4.24340000
-12.46200000 116.54000000 -8.22670000
-12.63340000 118.39300000 -8.65740000
-12.77600000 118.64400000 -9.00780000
17.79940000 23.69600000 -13.50910000
17.57160000 24.62130000 -12.40490000
16.77230000 0.69980000 -20.47220000
16.47700000 1.01780000 -20.10150000
16.12420000 0.69350000 -20.58190000
42.11610000 6.57420000 28.38810000
41.95410000 6.86280000 28.20670000
41.54380000 6.79800000 28.72620000
41.66450000 6.96410000 28.16980000
41.42890000 6.92170000 28.57460000
-43.20530000 56.80370000 -9.80290000
-39.73610000 56.75490000 -11.05410000
-41.37620000 56.51390000 -10.13880000
-5.12740000 40.60770000 6.49280000
-5.50480000 41.05610000 7.61970000
-6.27110000 41.26240000 7.68120000
-6.72720000 41.29770000 7.72790000
-6.50810000 41.56480000 8.16560000
48.55790000 58.60060000 -3.83960000
45.80370000 59.25680000 -4.04040000
46.70670000 59.05930000 -3.75480000
45.58730000 59.70590000 -3.55280000
-37.16020000 103.72700000 -11.02090000
-37.56830000 103.18700000 -10.65330000
-35.41810000 103.92500000 -10.58490000
-21.53400000 17.02680000 -21.04260000
-23.08260000 16.88600000 -19.54810000
-22.90410000 17.01200000 -20.10050000
-21.85360000 17.49410000 -22.25100000
-21.85460000 17.21060000 -21.53610000
-22.80680000 17.40390000 -21.39370000
23.52210000 52.89040000 -13.89940000
23.56830000 52.44220000 -13.34290000
22.91340000 53.31580000 -13.15120000
23.66600000 53.26520000 -14.67790000
22.62580000 54.06210000 -13.41700000
38.67180000 16.34570000 3.53890000
38.39950000 16.72480000 5.77810000
37.64150000 16.97230000 5.62060000
37.74500000 17.19440000 6.10210000
-4.85630000 8.37640000 -32.74280000
-58.98630000 69.91630000 -6.72130000
-58.98120000 69.94570000 -7.26420000
28.28120000 20.51550000 -11.44510000
27.93700000 21.32230000 -12.03600000
27.43320000 20.55280000 -12.42090000
-51.29080000 6.38240000 17.58840000
-51.17710000 6.48700000 17.01770000
-51.43330000 6.22700000 17.11610000
-51.00420000 6.05680000 19.36710000
-51.16060000 5.95230000 18.93610000
36.28860000 12.82400000 -7.65440000
36.65610000 12.21280000 -7.79870000
36.21940000 12.47000000 -7.95930000
35.53670000 12.54840000 -8.26610000
-29.51500000 0.95560000 -16.42380000
-29.35300000 1.20970000 -15.87640000
12.46870000 51.16640000 -16.71230000
13.46540000 51.83680000 -16.94230000
-59.17620000 82.50510000 -10.81770000
-58.96500000 82.42220000 -11.28880000
-59.69550000 82.48430000 -8.98980000
-18.70260000 58.30880000 -14.86520000
-17.88250000 58.15220000 -14.24860000
-18.02350000 58.94370000 -13.95490000
-13.36100000 69.44350000 -4.74210000
-13.87530000 69.28890000 -4.10520000
-12.46600000 67.87870000 -4.92450000
-12.69440000 69.60690000 -4.87090000
-12.84140000 68.94310000 -4.83670000
-32.65390000 72.99990000 -23.87800000
-34.39940000 72.88440000 -23.52720000
-36.69280000 73.40970000 -23.07020000
-36.26570000 72.52490000 -23.00850000
-25.00230000 11.33110000 -22.17250000
-24.40650000 10.17530000 -23.54620000
-26.32760000 10.74930000 -21.65280000
-59.07180000 71.40920000 -7.52680000
-58.87440000 71.46150000 -7.90450000
-59.57140000 71.38890000 -7.25120000
-25.70810000 62.13760000 -15.51570000
-27.00590000 61.24220000 -15.43910000
-25.61730000 61.28970000 -15.59500000
36.61540000 43.73540000 -3.65680000
36.40690000 44.42270000 -3.07930000
35.75860000 45.45490000 -2.89890000
18.92290000 42.59700000 6.89500000
18.34170000 42.65960000 6.77790000
18.61910000 42.73540000 7.64320000
18.24430000 42.97750000 7.69450000
5.45260000 96.78470000 -15.28050000
5.25240000 97.57540000 -14.98770000
5.08310000 96.63080000 -14.70640000
4.65770000 95.35020000 -14.39210000
5.08750000 95.88480000 -14.72450000
-10.42610000 81.44200000 -8.43250000
-11.05260000 81.80400000 -8.96000000
-9.11910000 80.74510000 -6.90540000
-9.45900000 80.97440000 -7.39220000
-9.70650000 80.69070000 -7.30400000
-26.05910000 34.76010000 17.41460000
-26.15730000 35.50530000 16.64720000
-26.80000000 34.97950000 16.67430000
-46.66120000 102.58200000 -14.01050000
-46.73740000 102.32300000 -13.52950000
-46.07320000 101.87900000 -13.14430000
-46.18060000 102.21700000 -13.96160000
-46.34870000 102.32500000 -13.85100000
-16.17520000 7.84060000 33.09070000
-17.74480000 8.46560000 33.13880000
-16.87990000 8.64760000 33.38200000
-17.43980000 8.95740000 33.76020000
54.68020000 74.00490000 -5.72820000
54.75700000 74.07920000 -5.56460000
54.67610000 73.79960000 -5.62090000
54.51940000 74.18910000 -6.10370000
-50.45480000 66.81720000 -14.01590000
-50.10880000 66.00980000 -13.67090000
-50.55720000 65.46400000 -13.13660000
-49.42520000 65.11830000 -13.02370000
-49.19430000 64.91190000 -12.67810000
32.58950000 50.77570000 -9.96940000
32.61570000 50.21220000 -9.25500000
32.14640000 50.31880000 -9.55480000
-5.17520000 82.00670000 -26.14550000
-5.35040000 82.87610000 -26.16240000
-5.06210000 82.65410000 -26.16630000
-5.69260000 82.39850000 -26.07810000
-31.23630000 48.72070000 -21.55820000
-31.84490000 46.92490000 -21.38720000
-31.02320000 46.20200000 -21.07830000
54.62560000 79.96760000 -5.65940000
53.86280000 80.32690000 -5.30790000
54.45370000 80.38410000 -5.48520000
10.86700000 37.72940000 12.71280000
10.70460000 37.99570000 12.11940000
10.04330000 38.64150000 11.64370000
9.31780000 38.57760000 11.63980000
9.89930000 38.37810000 11.72770000
-32.24860000 46.93010000 -23.03900000
-32.46660000 45.80440000 -22.89150000
-32.40310000 46.89240000 -22.89630000
-31.94190000 48.22500000 -22.99880000
9.72460000 11.91820000 36.26580000
9.01970000 11.79780000 36.70380000
9.83990000 13.08450000 35.96180000
9.70680000 12.12980000 36.29310000
-16.32290000 0.48770000 -32.83350000
-15.36870000 0.38360000 -32.95200000
-16.40940000 0.56520000 -32.99190000
-16.45740000 0.52370000 -32.56900000
-17.39150000 0.52550000 -32.51470000
32.31270000 71.00670000 -11.71200000
32.27040000 71.87790000 -11.71040000
31.27350000 71.28820000 -11.96760000
31.09660000 72.83780000 -12.05590000
31.17450000 72.40310000 -12.02320000
-46.41200000 11.58710000 -2.24170000
-46.50400000 10.81310000 -2.59210000
-46.60840000 10.75570000 -2.37710000
53.79950000 78.97820000 -6.72870000
54.96950000 79.46940000 -6.41930000
55.15770000 79.54480000 -6.71170000
-42.85980000 3.96970000 -8.65870000
-44.21660000 4.41930000 -6.29100000
-44.21940000 4.21860000 -6.34780000
-44.62650000 4.28190000 -5.77730000
43.75170000 42.99650000 -3.10820000
43.43100000 42.64580000 -3.41860000
42.63070000 42.15520000 -3.19530000
-1.91510000 8.28940000 34.13530000
-3.40340000 8.69980000 34.23320000
-4.14130000 8.68920000 34.25490000
-29.57980000 37.16350000 -19.73260000
-28.46170000 37.72350000 -20.19760000
-49.52620000 8.77010000 7.53140000
-49.51440000 8.34170000 8.43090000
-49.07080000 9.03980000 6.52760000
-48.73690000 8.39310000 6.50250000
-49.31000000 8.93840000 6.91560000
35.03610000 32.15090000 -8.72550000
35.06540000 31.98750000 -8.30820000
27.46890000 105.70000000 -13.14530000
27.34870000 105.54300000 -12.99670000
27.25570000 105.44200000 -13.06660000
9.06080000 78.75600000 -6.20010000
8.91820000 79.52910000 -6.63520000
8.33900000 79.47780000 -6.38350000
9.13580000 81.14950000 -7.85450000
28.41110000 28.66490000 -14.32340000
28.02090000 28.72490000 -13.72350000
11.57370000 23.52560000 -16.39990000
10.83430000 23.44240000 -17.21660000
10.70580000 23.59910000 -16.58550000
9.29140000 23.34730000 -18.54270000
45.19220000 1.90170000 25.07730000
44.79120000 2.25150000 26.23000000
45.94500000 1.43760000 23.04510000
45.87940000 1.88880000 23.78090000
45.54200000 1.79150000 24.24070000
-57.81550000 72.02040000 -13.09120000
-58.23720000 71.66550000 -13.11320000
-58.18440000 71.48500000 -13.71570000
-57.91890000 72.18230000 -12.86360000
-57.74350000 72.16550000 -13.01410000
-50.51270000 10.67360000 10.98980000
-50.65870000 10.36990000 10.49260000
-50.68290000 10.02330000 10.15600000
-50.73290000 9.60730000 10.09600000
-50.70750000 9.75220000 10.36110000
-55.49110000 90.99750000 -12.41980000
-55.14460000 91.19950000 -12.07120000
-56.17910000 91.29880000 -12.74880000
-56.26820000 90.97070000 -12.76930000
-57.47150000 92.07620000 -13.00610000
2.24770000 2.27630000 -0.36890000
1.85480000 2.37950000 1.38210000
-0.51490000 2.30090000 -1.35540000
2.32240000 2.24730000 -1.23970000
-57.44190000 57.95700000 -13.14940000
-54.91860000 57.44450000 -11.61760000
-55.41450000 57.57180000 -11.67220000
-37.23210000 87.90850000 -19.55670000
-37.65210000 88.07370000 -19.38000000
-37.54360000 88.44000000 -19.10880000
-35.88500000 86.34790000 -21.02550000
-36.36630000 86.64810000 -20.51930000
-38.58740000 48.58680000 -14.66210000
-37.91810000 48.19630000 -14.48500000
-38.38450000 48.18420000 -14.43980000
-37.15880000 48.40120000 -14.42760000
-36.24300000 48.05670000 -13.83130000
-37.69370000 47.92790000 -14.18770000
-20.08530000 18.75910000 -23.89040000
-19.83610000 18.16580000 -24.05290000
-20.74350000 18.22260000 -23.48810000
-18.80340000 18.74860000 -24.64390000
-50.43960000 6.12040000 7.96280000
-50.00880000 6.10250000 6.63810000
-45.45950000 91.94620000 -10.36050000
-45.22030000 92.46170000 -9.83180000
-46.02190000 92.78150000 -9.42510000
-43.51700000 92.78790000 -10.20200000
-44.36520000 92.51660000 -10.03850000
46.68400000 48.36830000 -6.23740000
46.77130000 48.45750000 -6.33590000
46.78770000 48.51620000 -6.12480000
46.58040000 48.56710000 -6.15650000
11.03690000 46.95210000 -14.82990000
11.01330000 46.53780000 -14.91110000
-1.39550000 28.49500000 13.72790000
0.18360000 28.49600000 13.46310000
-0.47780000 28.26430000 14.35060000
0.19710000 27.87680000 15.34740000
40.91930000 94.67090000 -6.56060000
41.09470000 94.30800000 -5.99870000
41.45060000 95.20410000 -6.51250000
41.29100000 95.27950000 -7.15770000
6.95480000 38.99410000 0.18430000
6.53550000 38.89160000 0.69010000
11.54130000 39.44180000 0.88810000
11.62270000 39.57970000 -0.15830000
10.85010000 39.36340000 0.55140000
-29.81400000 31.73970000 -15.10880000
-55.57510000 51.03980000 -10.62530000
-54.60800000 50.96520000 -10.92050000
30.89340000 69.06240000 -11.79510000
30.77170000 69.62950000 -12.24410000
30.47600000 68.84360000 -11.70900000
32.28010000 69.58110000 -12.06310000
31.19660000 69.73090000 -12.35430000
31.13300000 69.42800000 -12.13160000
36.20590000 9.56660000 -8.44920000
35.38300000 9.07790000 -8.31780000
34.73490000 8.95610000 -8.66980000
19.68160000 8.53460000 35.05290000
-20.46470000 82.16630000 -24.61570000
-22.15300000 82.24330000 -24.92610000
-22.07580000 82.60530000 -24.65480000
-23.99570000 82.47850000 -25.03200000
-25.49870000 82.87840000 -24.93480000
-24.70520000 83.06650000 -24.80520000
-48.09540000 99.60650000 -11.70440000
-48.75650000 99.34750000 -12.02680000
-49.45290000 98.50570000 -11.95100000
-6.98320000 87.08050000 -24.01540000
-6.49900000 87.28450000 -23.97570000
-6.39580000 86.74420000 -24.36990000
41.68620000 11.39480000 24.95000000
41.84180000 12.10810000 25.53780000
41.86090000 11.77780000 25.96370000
41.82760000 11.85000000 26.51410000
40.10780000 82.54380000 -10.56150000
39.79900000 82.13530000 -11.15700000
39.91480000 82.56240000 -10.69040000
40.62840000 82.68350000 -10.19300000
40.77430000 82.31750000 -10.71560000
-37.55680000 2.63150000 32.92370000
-37.13890000 2.82000000 33.04340000
-38.32180000 2.69230000 32.80010000
-37.41240000 3.58410000 32.89990000
-38.54200000 3.12810000 32.75950000
10.25790000 4.17400000 -32.15480000
10.98210000 3.63370000 -31.74950000
10.06770000 3.53300000 -32.21650000
11.49760000 4.60450000 -31.31330000
12.19860000 4.33490000 -31.07910000
10.84290000 4.49390000 -31.69310000
-33.29790000 44.75790000 -15.10250000
-32.69500000 44.71880000 -14.90060000
-33.67090000 45.15600000 -15.23010000
23.30890000 86.58750000 -13.30770000
24.13920000 87.46260000 -13.32080000
24.03860000 87.90790000 -13.36360000
23.53070000 87.20180000 -13.16680000
30.36860000 110.30300000 -15.41750000
30.17290000 109.90600000 -15.21670000
30.38340000 109.94000000 -15.23880000
30.60130000 109.15100000 -15.52470000
30.42620000 109.38400000 -15.24850000
30.38670000 109.29000000 -15.10020000
-4.19640000 105.75300000 -5.01640000
-5.59210000 105.83200000 -5.23490000
-5.55360000 107.91100000 -5.83260000
-6.37600000 107.94400000 -5.98510000
-6.31070000 107.30200000 -5.97820000
-5.01150000 79.18570000 -5.63430000
-5.40720000 79.41160000 -5.67460000
-5.40110000 79.99840000 -5.42250000
44.83390000 42.92390000 -5.03430000
44.52620000 42.93370000 -5.32270000
-13.66020000 86.17510000 -19.06870000
-13.47750000 85.75110000 -19.13860000
-13.65040000 85.35230000 -19.93490000
-14.23630000 85.17010000 -20.12550000
-36.25830000 52.59820000 -18.29100000
-36.27190000 51.66590000 -17.75690000
-36.53900000 50.01320000 -16.21180000
-36.28380000 50.93250000 -17.16470000
3.22930000 16.32890000 -25.55070000
0.73820000 15.96520000 -26.32810000
-41.28540000 0.38680000 -10.87270000
-40.33440000 0.45220000 -10.85900000
-40.60040000 0.34400000 -9.93980000
-38.98560000 0.23680000 -10.28160000
-6.14290000 29.86580000 11.62920000
-6.72240000 29.49480000 12.20650000
-7.03690000 29.31630000 12.86670000
10.16910000 45.36630000 -15.43360000
10.34110000 45.01470000 -14.09880000
9.78260000 44.17480000 -18.32050000
39.79740000 21.01860000 10.70120000
39.75460000 19.54080000 11.36510000
39.87920000 19.51400000 13.08980000
2.50660000 37.82730000 12.09570000
2.74800000 38.33880000 11.81690000
2.25170000 38.02800000 12.13220000
1.59580000 37.40440000 12.03870000
2.09050000 37.36200000 12.21610000
-7.70080000 74.17020000 -3.93940000
-8.62610000 74.44020000 -4.15720000
-6.47540000 74.38760000 -3.91060000
-39.87130000 17.13780000 -1.64940000
-40.05910000 17.50050000 -1.76500000
-39.49120000 17.25450000 -2.31980000
-38.73580000 17.77220000 -5.06770000
-38.25090000 17.42090000 -4.74450000
-39.02100000 17.56440000 -3.69300000
-39.29290000 64.51480000 -19.86610000
-41.78260000 63.90150000 -18.36760000
33.74460000 107.07500000 -14.56160000
33.16490000 106.64500000 -14.42720000
33.09890000 106.44900000 -14.45590000
54.25040000 67.96940000 -9.25060000
53.82600000 68.04080000 -9.19290000
52.75530000 68.29270000 -9.43930000
-60.07660000 82.25580000 -7.24770000
-59.73100000 82.53190000 -7.39980000
-59.84160000 82.46790000 -7.59910000
-59.25300000 82.69930000 -7.24240000
-59.64680000 82.57000000 -7.78960000
-59.41200000 82.62280000 -6.91240000
29.25740000 1.83400000 -5.37150000
28.73330000 1.54500000 -7.39550000
29.11710000 1.73230000 -6.30460000
28.47640000 1.68160000 -7.18580000
-12.24390000 58.20550000 -14.33690000
-14.90070000 64.44300000 -12.50600000
-22.50300000 89.17120000 -22.38070000
-22.77210000 88.80080000 -21.80880000
-22.74500000 89.20780000 -21.71610000
-22.67270000 87.87600000 -21.60750000
-22.62840000 88.20330000 -22.02480000
45.12080000 68.85680000 -6.35750000
45.03470000 69.03740000 -6.03080000
44.73840000 69.00560000 -6.10980000
46.14730000 69.09100000 -6.56180000
45.61450000 69.12960000 -6.09930000
-47.34740000 5.67900000 -0.51340000
-46.78500000 5.54190000 -1.66080000
-47.13430000 5.29940000 -1.48070000
-47.34890000 5.38770000 -0.99060000
9.68940000 2.73860000 13.44230000
9.16100000 2.57410000 15.56800000
34.46060000 50.63470000 -10.20760000
34.67100000 49.83620000 -9.27650000
33.99450000 50.64330000 -10.15490000
-46.90880000 46.73830000 -13.80760000
-46.55390000 46.61830000 -13.99130000
-46.56710000 47.11490000 -13.50570000
-47.00020000 46.84680000 -13.59460000
-46.82770000 47.23280000 -13.08070000
6.63230000 23.79570000 29.60540000
4.02400000 24.06690000 29.06720000
2.39700000 24.16220000 28.87560000
3.95940000 23.83660000 29.31560000
-10.46530000 113.02900000 -9.68260000
-12.00620000 111.52700000 -10.59650000
-11.42580000 110.66200000 -10.60620000
-28.34870000 80.68220000 -24.90380000
-29.29970000 80.66000000 -24.84140000
-26.65320000 80.09950000 -25.13200000
-28.34170000 80.27520000 -25.01520000
0.88390000 116.02000000 -6.29050000
1.14910000 117.21300000 -6.64370000
0.46860000 117.12700000 -6.89560000
0.31770000 116.79800000 -6.77510000
16.63390000 2.67530000 5.72100000
19.09350000 2.60170000 8.20420000
16.03170000 2.69890000 9.60400000
20.35130000 2.55460000 6.65590000
-17.46990000 96.46090000 -21.91390000
-17.88850000 96.22310000 -21.85130000
-18.24110000 96.06370000 -21.24530000
-18.68970000 95.13270000 -21.03550000
-18.27520000 95.95340000 -20.83750000
3.44820000 86.01920000 -13.78230000
2.80370000 86.03400000 -13.61200000
3.60990000 85.68350000 -13.20530000
3.25580000 85.56130000 -13.00330000
21.60050000 55.47750000 -18.91130000
20.48500000 55.99870000 -18.14480000
21.24550000 56.32240000 -18.03980000
20.79940000 56.10240000 -18.01380000
18.25470000 69.14940000 -22.26220000
16.69050000 69.57960000 -22.66080000
26.24990000 66.92510000 -20.37520000
24.39630000 67.42460000 -20.82730000
1.09000000 34.56170000 12.90750000
0.84640000 34.64840000 12.57720000
1.04780000 33.74120000 12.72220000
0.89570000 35.53480000 12.51970000
25.80230000 -0.09690000 -16.97950000
29.00810000 -0.07290000 -15.13930000
29.83370000 -0.02750000 -12.15060000
28.39460000 -0.05940000 -14.26020000
-59.15700000 69.40220000 -14.11130000
-58.94290000 69.24960000 -14.06940000
-59.47620000 69.47410000 -14.08280000
-59.68140000 71.12920000 -14.22480000
-16.40610000 78.20540000 -8.69510000
-16.12640000 78.57450000 -8.78430000
-16.45830000 78.72540000 -9.04120000
-16.53450000 79.01260000 -10.14120000
-16.58630000 79.69220000 -10.24720000
-26.37450000 39.11020000 -1.80060000
-24.69300000 39.57400000 -1.76380000
-24.96200000 39.50290000 -2.62880000
45.11270000 66.62260000 -4.29210000
44.02050000 66.27470000 -4.95100000
46.18940000 67.12190000 -5.64570000
45.10040000 66.58530000 -6.35100000
44.68080000 66.58820000 -5.81670000
-19.85870000 61.58050000 -19.51540000
-21.31860000 60.11920000 -19.45300000
-20.78160000 60.52820000 -18.40180000
-26.15560000 24.14000000 26.53860000
-26.70560000 24.11630000 27.66240000
-23.99730000 24.18990000 26.42190000
-37.07880000 52.22120000 -17.70030000
-30.17600000 86.86960000 -18.47790000
-30.26710000 87.52850000 -18.83220000
-30.07320000 87.13350000 -19.76220000
-21.77900000 0.41970000 -25.97060000
-21.27440000 0.25910000 -25.37530000
-22.37330000 0.46670000 -25.08690000
-22.75090000 0.52180000 -25.92740000
-22.99540000 0.71110000 -25.23230000
-13.48460000 23.91710000 -18.61450000
-12.31850000 23.84690000 -19.17320000
-11.69390000 23.69850000 -19.41630000
-12.10970000 23.47050000 -19.33610000
37.91780000 0.71520000 8.92160000
38.78760000 0.97170000 8.90870000
38.34750000 0.63890000 9.28340000
37.88640000 0.65740000 9.33440000
37.93950000 0.69490000 9.81790000
35.53720000 39.10830000 -3.80750000
36.03460000 40.07160000 -3.99540000
35.93500000 40.83380000 -4.10790000
35.78890000 40.27790000 -3.85090000
-21.81170000 42.55920000 1.74540000
-20.86370000 41.91700000 1.47550000
-21.37290000 42.07000000 1.07550000
-20.37790000 42.07540000 0.68120000
30.44570000 69.74890000 -11.93930000
30.15910000 70.03510000 -11.72620000
30.21350000 69.43880000 -11.59480000
38.70550000 76.40460000 -14.50280000
-7.26270000 86.30870000 -12.07060000
-6.68640000 87.02260000 -11.48710000
-7.31470000 87.37820000 -12.01560000
-6.79740000 85.99220000 -11.68650000
40.01880000 16.66040000 13.84690000
39.82630000 16.19370000 13.13490000
39.30380000 16.53760000 13.21220000
38.62580000 16.56580000 12.16730000
48.15640000 75.68350000 -6.99430000
47.90760000 75.38790000 -7.48070000
46.40100000 74.98600000 -6.80410000
44.59220000 74.67900000 -6.98830000
-43.73920000 96.55330000 -12.96290000
-43.56450000 95.91020000 -12.98440000
-43.45840000 98.09750000 -12.22660000
-29.01330000 84.41310000 -16.84410000
-28.10700000 84.81840000 -17.28580000
-28.80270000 85.35260000 -17.46270000
40.84350000 42.06060000 -4.44280000
40.76770000 41.47210000 -4.89330000
40.38230000 42.17810000 -4.45460000
12.07380000 36.66160000 16.01350000
11.80030000 37.04030000 15.26370000
14.26220000 36.50820000 17.10760000
13.28060000 36.56320000 16.73790000
27.66530000 77.42820000 -20.47090000
28.61830000 77.03970000 -20.63620000
27.43400000 76.70540000 -21.03730000
29.95550000 77.21360000 -20.44200000
-47.41470000 1.29750000 8.62870000
-46.97260000 1.38990000 9.28200000
-45.27540000 1.58200000 9.04000000
-45.53570000 1.57760000 10.12010000
-30.54180000 25.04300000 -4.31950000
-31.05260000 24.64430000 -3.63110000
-31.46760000 23.79950000 -4.54630000
-30.69080000 24.80020000 -4.22270000
-9.18290000 59.10750000 -22.66680000
-9.56250000 58.56470000 -22.21400000
-9.98870000 59.13140000 -21.93450000
-10.02700000 58.65420000 -21.73610000
35.92250000 1.11880000 4.63750000
35.40370000 1.46350000 4.72630000
36.62060000 0.34910000 3.15180000
36.16320000 0.55180000 3.90170000
-24.12430000 26.06770000 17.39070000
-25.66670000 26.78450000 17.92790000
-23.05050000 25.12250000 18.06830000
-23.03420000 25.31860000 17.33880000
-23.50090000 25.29080000 17.38660000
15.38280000 71.80100000 -23.28220000
15.68640000 71.17810000 -23.37600000
14.69150000 71.47010000 -23.67400000
18.37600000 70.58660000 -22.72850000
-10.12230000 1.97950000 -35.77480000
-10.51800000 1.52800000 -35.73750000
-10.55700000 2.15570000 -35.62560000
-23.41420000 32.47410000 -19.11610000
-23.83420000 30.52400000 -18.32030000
-24.07250000 31.90010000 -19.09420000
-24.32390000 30.23570000 -18.33670000
-56.28750000 50.44580000 -5.62810000
-56.21790000 50.29000000 -5.96460000
-56.28950000 49.97120000 -5.75770000
-56.15740000 50.95840000 -5.81330000
-56.16370000 50.69840000 -5.97070000
-58.91120000 67.61420000 -12.59430000
-57.23620000 66.31010000 -11.75840000
-58.64380000 67.45260000 -12.03760000
-60.15670000 69.02700000 -12.70060000
-59.82530000 68.47200000 -12.83280000
-59.86440000 68.54870000 -12.50400000
-46.23400000 2.49850000 -5.64340000
-46.02710000 3.12120000 -5.54770000
-44.99060000 3.40490000 -6.62280000
-13.57850000 59.09050000 -16.07590000
-13.10680000 58.89370000 -16.15430000
-13.83060000 58.07930000 -16.34600000
-35.74080000 20.53250000 29.06390000
-35.84010000 18.43350000 30.37970000
-35.93300000 18.55730000 29.95600000
-3.67440000 117.18900000 -6.30010000
-3.77600000 117.62700000 -6.36470000
-4.32610000 115.20800000 -5.49610000
-4.24930000 115.88800000 -5.58880000
-38.67990000 83.21780000 -21.57760000
-37.70460000 82.72470000 -22.15150000
-37.40930000 81.89560000 -22.29550000
-38.10470000 82.17010000 -21.73000000
23.48310000 56.04210000 -19.33590000
23.94630000 56.19190000 -19.33830000
23.11980000 54.68910000 -19.19320000
-26.03320000 6.40020000 33.65870000
-27.00570000 6.26420000 33.66510000
-28.35770000 6.23410000 33.61280000
28.87360000 6.45730000 37.59780000
28.34880000 7.77840000 37.50580000
28.32100000 7.08350000 37.67600000
-2.93080000 52.92120000 -3.20450000
-2.85880000 52.48840000 -3.19480000
-3.76030000 51.83740000 -3.22460000
-3.04260000 52.05460000 -3.20140000
-4.14060000 52.90120000 -3.14360000
24.75440000 77.00330000 -13.16530000
25.63840000 76.43770000 -12.67710000
53.17500000 86.93320000 -4.16640000
52.74800000 87.06830000 -3.81440000
52.37300000 87.10980000 -3.76910000
52.60900000 86.91450000 -3.67330000
41.19120000 67.89650000 -9.60640000
40.49400000 67.30260000 -11.03380000
40.18950000 67.84040000 -10.25530000
-36.78750000 99.78640000 -15.99840000
-37.30240000 99.38070000 -16.12520000
-36.31390000 100.70500000 -16.16210000
-36.60480000 100.21300000 -15.99500000
-36.99400000 100.47800000 -16.15630000
-47.06220000 43.88000000 -10.52110000
-47.01020000 43.66310000 -11.03170000
-47.12060000 43.50860000 -10.57840000
-46.80740000 44.35110000 -10.31010000
-34.85460000 78.94460000 -23.40150000
-35.83110000 78.93150000 -23.36800000
-33.93810000 80.79600000 -23.84670000
-34.98570000 79.90480000 -22.96270000
-47.23490000 15.00830000 19.26420000
-47.59760000 14.65070000 19.78960000
-46.65610000 15.68280000 19.17480000
-46.02330000 16.02940000 18.68410000
-46.59300000 15.55510000 18.83780000
38.21770000 12.79760000 27.77950000
38.14120000 13.23210000 27.76750000
37.45620000 13.04880000 27.63710000
37.54520000 12.36210000 27.78780000
3.40670000 91.61580000 -17.95260000
3.44370000 92.09310000 -18.11250000
3.40180000 91.56220000 -16.93230000
3.10860000 90.57530000 -16.69980000
-35.56990000 37.00750000 10.62960000
-34.90150000 37.25380000 11.79210000
-13.14950000 37.34650000 16.05550000
13.42530000 44.35720000 5.31450000
13.67750000 44.64690000 7.02420000
-0.56920000 56.55880000 -25.17180000
-0.48320000 55.81820000 -24.83690000
-1.84310000 56.56800000 -25.21070000
-0.31260000 56.05060000 -24.90510000
24.94600000 -0.14010000 -18.68330000
25.42470000 -0.09970000 -17.61550000
22.23800000 -0.15120000 -18.94750000
-26.38550000 74.22440000 -25.08820000
-28.34960000 73.49350000 -24.85370000
-28.05130000 74.89650000 -24.37790000
-13.61050000 108.12200000 -16.08870000
-13.90340000 107.58200000 -17.12160000
-14.52570000 107.13000000 -17.03530000
-14.12900000 107.60000000 -16.66410000
-36.15580000 67.04250000 -15.38780000
-36.15430000 67.84450000 -15.15030000
-35.37580000 66.11000000 -15.58630000
-35.36280000 66.51830000 -15.86250000
-49.48520000 69.05740000 -15.07010000
-49.66330000 68.62310000 -15.07370000
-49.46270000 69.24980000 -14.98290000
-49.99640000 69.26390000 -14.22380000
33.63850000 32.31960000 18.75840000
27.46050000 60.44170000 -19.51180000
27.19880000 61.79860000 -20.52840000
27.84440000 61.92440000 -20.14570000
-48.18960000 13.17300000 19.64400000
-47.73950000 13.59820000 18.86810000
-48.10390000 12.83840000 19.28200000
-47.30470000 13.11600000 18.24590000
18.39340000 36.96450000 -12.22980000
17.67760000 37.02180000 -13.28710000
17.25370000 38.02880000 -13.00240000
17.95160000 35.78390000 -13.53290000
16.96170000 36.87430000 -14.39620000
18.03750000 36.34540000 -13.18640000
48.78200000 55.02530000 -8.44280000
49.26940000 53.68420000 -8.68530000
48.41280000 54.44490000 -8.72090000
46.79010000 54.69420000 -8.87160000
-31.10470000 78.41820000 -16.34130000
-31.82680000 78.96730000 -16.82830000
-28.54410000 78.14220000 -16.17350000
52.07000000 62.43300000 -9.16500000
51.40960000 62.34250000 -9.02810000
51.05510000 62.59360000 -9.09340000
50.36720000 61.68930000 -8.69520000
50.46830000 60.91190000 -8.47700000
9.99910000 48.41960000 -13.40520000
9.60250000 48.63180000 -13.19770000
9.94000000 48.12140000 -12.52930000
9.84730000 48.83310000 -13.95770000
-38.37970000 16.70250000 -4.00850000
-38.77650000 16.24640000 -3.61040000
-39.82870000 13.27310000 -6.07640000
-40.19290000 12.93170000 -5.51150000
-53.19180000 88.67320000 -8.79540000
-52.74790000 87.27350000 -8.41900000
25.66510000 48.82100000 -9.28110000
26.00610000 47.73470000 -9.27440000
27.03020000 46.99130000 -8.08450000
26.44320000 47.95990000 -8.47220000
26.61670000 47.11270000 -8.55170000
-41.34900000 58.19030000 -18.16350000
-42.84690000 57.78270000 -16.67060000
-43.28230000 57.25190000 -16.30730000
-12.02300000 90.35300000 -15.39090000
-11.57190000 89.99030000 -15.33130000
-11.94670000 89.78560000 -14.91450000
-11.19610000 90.41790000 -16.78670000
-11.57400000 90.52410000 -16.39530000
10.11840000 7.27440000 34.83590000
16.28820000 7.18630000 35.13150000
15.24060000 7.24520000 35.05970000
-45.28210000 21.89120000 13.04440000
-45.32920000 21.52150000 11.96280000
-45.44060000 21.30610000 12.76740000
-45.29970000 21.86310000 11.50670000
-45.37330000 22.45130000 11.72830000
23.16110000 25.48230000 -8.32800000
22.84060000 25.75930000 -9.58800000
21.87010000 25.44340000 -8.00520000
22.45360000 26.18000000 -10.51270000
27.21900000 0.80480000 -21.21860000
28.49660000 0.61600000 -20.05050000
27.19150000 0.29570000 -21.11710000
28.23430000 1.41080000 -20.29570000
-36.34940000 2.16080000 2.89470000
-35.52670000 2.17450000 3.08680000
-36.45380000 2.23130000 6.55280000
-37.96740000 2.17610000 5.51750000
-38.25420000 2.29310000 7.90620000
39.47140000 54.44320000 -6.54190000
39.65630000 54.28580000 -6.37170000
39.78630000 54.68740000 -5.70920000
39.53570000 54.97700000 -5.98300000
-44.71130000 9.68510000 -3.22530000
-43.85600000 11.16110000 -3.87110000
19.08800000 24.71310000 25.00330000
18.10820000 24.62130000 24.59940000
15.35210000 24.49660000 25.34890000
15.91990000 24.51710000 23.43790000
14.22760000 24.50580000 23.51750000
-31.20000000 13.57570000 32.48120000
-31.66230000 14.86490000 32.46820000
-31.51820000 13.30260000 32.68380000
-31.23900000 12.37620000 32.90520000
-30.83500000 13.56410000 32.51480000
-12.75240000 75.92540000 -27.15690000
-12.01690000 74.20950000 -27.24220000
-12.99230000 74.81100000 -27.05430000
-13.28290000 74.61710000 -27.13640000
-13.10150000 73.97420000 -27.16350000
33.13530000 70.93700000 -18.18650000
31.09920000 68.78630000 -18.95200000
30.94920000 69.37250000 -18.70200000
-17.46640000 84.39640000 -18.21060000
-17.74050000 84.27900000 -18.57880000
-17.20440000 85.37940000 -18.63310000
-17.32540000 84.96000000 -18.67490000
-5.13560000 122.29300000 -15.01730000
-4.61770000 122.99400000 -15.20310000
-5.36860000 122.99300000 -15.20680000
-14.79000000 23.93710000 -17.89610000
-14.78320000 23.73720000 -17.93990000
-17.73200000 24.31790000 -16.09600000
-18.48350000 24.01660000 -15.78120000
-18.98580000 24.31940000 -15.30040000
-1.99780000 33.96190000 -25.94580000
-2.08810000 33.49250000 -25.81160000
-2.42670000 34.13600000 -25.78530000
-2.84250000 34.20630000 -25.23420000
-2.70720000 34.04820000 -25.45850000
-2.72350000 33.54420000 -25.20890000
16.44910000 2.23030000 -2.50770000
17.42800000 2.41480000 0.92580000
14.55990000 2.19150000 -2.67740000
19.65450000 2.31530000 -0.87320000
20.84720000 2.41570000 1.04310000
18.62050000 2.45980000 1.54630000
-18.27720000 55.49320000 -20.64700000
-18.76910000 55.69210000 -20.57370000
-19.67060000 56.66240000 -20.15270000
-19.47120000 56.27870000 -20.33910000
-9.97470000 88.50410000 -17.04900000
-9.70240000 88.47360000 -16.28930000
-9.97860000 88.95730000 -16.74400000
-9.72940000 87.54670000 -16.80330000
27.56060000 26.16260000 26.24780000
27.11590000 26.16190000 25.51150000
26.98660000 26.23640000 26.12900000
27.36500000 25.98840000 25.30070000
27.06840000 26.07630000 25.00630000
37.05360000 82.85230000 -15.33530000
35.70910000 81.99360000 -16.21910000
33.39290000 81.35070000 -17.95280000
32.80770000 81.24290000 -18.36570000
-58.84310000 61.04660000 -9.28700000
-57.95980000 61.71280000 -10.48190000
6.69670000 78.31280000 -25.90090000
-20.59630000 37.91590000 15.42530000
-20.35500000 38.20910000 15.08480000
-20.80520000 38.50170000 14.42870000
-17.69390000 84.02190000 -15.12300000
-17.44340000 84.57410000 -15.62020000
-17.46050000 84.64750000 -15.05780000
-6.03580000 63.88600000 -2.03170000
-3.52480000 64.95670000 -2.10250000
-4.27870000 64.83800000 -2.15500000
-8.03530000 115.64400000 -21.97840000
-8.20660000 115.81500000 -21.80700000
-8.47980000 115.31500000 -21.56950000
-8.78250000 115.84700000 -21.11970000
7.08400000 3.45990000 37.45580000
5.49310000 3.06220000 37.45300000
-0.47250000 2.77080000 37.31250000
-37.83200000 4.75140000 -14.86350000
-38.95470000 4.51070000 -13.92220000
-38.95980000 4.31110000 -13.98490000
-58.64310000 82.10100000 -9.15030000
-58.90110000 82.72370000 -7.57190000
-58.43630000 82.55420000 -7.94030000
20.46070000 48.84320000 -16.07710000
21.81130000 47.00010000 -16.42160000
-17.67410000 45.96950000 -19.10850000
-17.92560000 45.11380000 -19.16630000
-18.22710000 45.39290000 -19.41630000
-18.37090000 46.91890000 -19.45440000
-18.85500000 44.60390000 -19.73230000
-19.26570000 47.19430000 -19.68290000
0.86240000 93.83480000 -23.93110000
1.14440000 94.22580000 -23.75480000
1.38400000 92.58820000 -23.31250000
14.85330000 57.30110000 -11.53370000
14.52520000 57.25010000 -12.10850000
13.87880000 57.56560000 -11.85770000
13.05160000 57.89160000 -11.48890000
46.60810000 52.80150000 -4.19710000
46.40530000 52.33040000 -4.22370000
43.44350000 0.82180000 10.12850000
44.22060000 0.71070000 10.53790000
43.39130000 0.95390000 10.79760000
42.23150000 1.03340000 11.27690000
42.19430000 0.84200000 11.88180000
41.44690000 0.97610000 11.50310000
1.83120000 48.86960000 -24.73360000
1.38540000 48.69950000 -24.92220000
1.62190000 49.85180000 -24.34110000
0.89340000 47.08170000 -25.38800000
21.82230000 29.31560000 -14.40820000
20.34790000 29.02610000 -15.07480000
20.35110000 28.29220000 -14.75120000
20.13620000 29.38850000 -15.60070000
20.08950000 29.04310000 -15.92650000
19.90300000 28.27770000 -15.49350000
5.21990000 86.86690000 -15.50610000
5.16870000 87.04630000 -15.93720000
4.89770000 86.92670000 -16.04040000
5.06110000 86.73260000 -15.42510000
-4.94690000 104.88200000 -26.40450000
-4.44320000 104.27200000 -26.55130000
-5.07080000 103.82300000 -26.50390000
-4.14190000 103.85100000 -26.58960000
-37.38810000 18.34740000 29.05840000
-36.86380000 19.65500000 29.05830000
-37.14930000 19.52880000 28.69790000
-37.11380000 19.47210000 28.91540000
21.02630000 1.34470000 31.90130000
21.34400000 1.35970000 33.61530000
20.70800000 1.36110000 32.98760000
20.30040000 1.41660000 31.93680000
20.30320000 1.61800000 31.11970000
16.19040000 53.39950000 -16.94250000
15.76730000 54.49780000 -16.99480000
15.52900000 53.84520000 -17.00750000
1.01230000 53.69180000 -4.67880000
1.20020000 54.51660000 -5.34550000
-6.98630000 87.72620000 -10.85600000
-7.19950000 88.32940000 -9.01660000
-8.16770000 88.67100000 -10.09060000
-6.13320000 87.59880000 -9.90810000
-5.81710000 87.95640000 -8.47780000
-6.79960000 88.17070000 -8.80550000
-42.48760000 23.56430000 7.04390000
-43.38310000 23.62440000 10.46910000
-4.07430000 24.07380000 -20.71230000
-2.89140000 24.30320000 -20.75660000
-5.21350000 24.51970000 -20.83270000
54.15500000 62.20920000 -7.98030000
54.53950000 61.68620000 -8.14070000
53.98120000 61.90130000 -7.78190000
3.12350000 32.58480000 -23.91530000
3.04780000 34.31060000 -24.69910000
3.25490000 34.89260000 -24.43160000
2.95040000 33.42050000 -24.61270000
4.33620000 65.79020000 -1.79670000
3.67300000 64.74640000 -1.78110000
1.55980000 62.55730000 -1.73180000
3.01180000 64.50420000 -1.69180000
-5.08050000 121.15200000 -9.03860000
-5.55190000 121.68300000 -8.58540000
-5.15390000 121.18800000 -8.21560000
-5.75850000 121.18600000 -7.79420000
-6.39960000 120.90800000 -7.72100000
0.34830000 117.50700000 -7.38480000
0.01160000 117.44200000 -7.95220000
0.57330000 117.40200000 -7.04610000
-0.11140000 117.35800000 -6.96410000
-34.64870000 78.35860000 -23.64290000
-35.09610000 78.13360000 -23.62820000
-35.51450000 77.89490000 -23.56180000
-33.87660000 77.33540000 -23.89080000
-35.40740000 77.24040000 -23.57020000
-42.76090000 94.51140000 -11.76340000
-42.25720000 94.33610000 -12.19560000
-42.82570000 94.83700000 -12.18210000
-41.89860000 93.64750000 -12.61120000
-42.06010000 93.96170000 -12.17010000
15.25050000 73.19000000 -23.59060000
19.55970000 73.15950000 -22.57440000
9.13270000 90.28320000 -16.51490000
8.92520000 89.88960000 -16.36760000
33.95710000 71.13320000 -17.90280000
31.94130000 71.43150000 -19.07300000
33.44080000 71.91030000 -18.39020000
35.00970000 71.46180000 -17.47900000
32.14680000 71.87200000 -19.09330000
35.28770000 48.58790000 -7.99120000
35.70620000 47.60650000 -7.28630000
35.44560000 47.34220000 -6.99530000
36.74280000 46.56220000 -6.87060000
25.12400000 90.72830000 -14.95790000
24.13460000 91.00090000 -16.81780000
23.65440000 90.71490000 -18.09530000
10.07820000 27.50260000 18.79430000
8.58490000 27.89040000 18.07340000
-17.21510000 2.46990000 20.18460000
-17.93260000 2.42210000 22.33550000
-18.22630000 2.38370000 23.62980000
25.80740000 1.93440000 37.50870000
24.59230000 2.01730000 37.66740000
26.85570000 1.96010000 37.43290000
26.51910000 2.19320000 37.53010000
25.97490000 1.82740000 37.42370000
-28.94150000 6.41910000 33.97600000
-28.91360000 6.90830000 33.64350000
-29.09000000 6.95720000 33.87930000
-29.22790000 7.03250000 34.32160000
45.81850000 89.09840000 -5.92190000
45.41300000 89.46480000 -5.67160000
45.14000000 88.66300000 -5.93070000
31.81530000 6.68980000 36.77800000
31.14190000 6.35310000 37.20950000
-11.04660000 81.73090000 -26.04240000
-11.91840000 82.08880000 -25.74200000
-8.23240000 80.79230000 -26.58660000
19.55130000 58.96350000 -15.73420000
20.22880000 58.20930000 -15.35200000
19.51170000 59.07540000 -14.44950000
22.86530000 1.37100000 34.85570000
25.20810000 1.43730000 36.08470000
22.40330000 1.49480000 36.18090000
21.29770000 1.40170000 34.69450000
44.44560000 66.42180000 -8.27910000
43.57240000 66.65490000 -8.41410000
43.33030000 66.88170000 -7.93980000
-54.30220000 47.78190000 -7.01350000
-54.97580000 47.68910000 -5.97310000
-55.18750000 47.87210000 -5.50860000
-55.78380000 51.44280000 -6.37590000
-55.98780000 51.01360000 -6.22290000
-54.81380000 53.30620000 -6.56760000
38.90030000 15.59420000 8.16670000
39.76120000 14.42390000 7.71150000
39.76850000 14.49200000 7.47860000
-36.27860000 23.28990000 26.01390000
-36.25050000 22.55420000 26.31130000
-36.40210000 23.53960000 26.68370000
-11.56320000 109.73900000 -13.14280000
50.56010000 67.65720000 -5.28460000
50.91440000 67.12460000 -6.07550000
51.33030000 67.24750000 -5.74720000
49.70520000 67.41270000 -6.18920000
49.38230000 67.58530000 -5.84210000
45.31840000 8.79470000 15.14930000
44.88430000 8.67120000 16.45250000
44.55150000 9.00280000 17.62010000
-36.49190000 51.83550000 -10.35580000
-36.71690000 52.28960000 -10.59110000
-36.96320000 52.12550000 -10.23210000
-35.64790000 50.96710000 -10.43510000
46.28490000 0.76570000 10.32190000
46.43520000 0.88120000 10.20290000
46.60910000 0.95260000 11.16440000
46.74260000 1.21750000 10.94520000
18.11210000 68.72720000 -22.27590000
18.19280000 68.13040000 -22.47940000
16.30790000 68.86820000 -22.84360000
18.02760000 67.92970000 -22.54550000
16.86750000 68.19230000 -22.74370000
-51.28370000 6.61200000 14.03470000
-51.35960000 6.57090000 15.10850000
-50.83190000 6.72630000 14.80140000
-50.97620000 6.78430000 13.36540000
-51.11870000 6.68730000 14.72770000
53.87560000 73.41930000 -4.78330000
53.93100000 73.88460000 -4.97860000
53.10480000 73.57660000 -5.06830000
53.53680000 73.36680000 -4.81280000
53.48610000 73.66370000 -5.00440000
40.30980000 60.44740000 -10.81650000
39.66600000 61.00280000 -11.07450000
39.86100000 60.97080000 -10.54420000
39.19950000 62.08950000 -11.54490000
39.70790000 61.53370000 -10.67750000
39.32230000 61.57400000 -11.14800000
9.89400000 65.93320000 -8.60120000
10.45560000 67.99520000 -8.17090000
9.92090000 68.69100000 -8.34090000
10.74960000 67.35080000 -8.19510000
10.04890000 65.50480000 -8.62060000
37.51030000 74.88980000 -10.28200000
36.76020000 74.99600000 -10.69610000
36.13980000 75.81450000 -10.13320000
-57.17790000 70.04900000 -5.60000000
-57.97830000 70.31400000 -5.55450000
-58.91260000 70.55560000 -5.51580000
-18.46740000 26.94740000 16.31890000
-19.78720000 28.16900000 16.92870000
-9.42020000 43.31930000 3.07400000
-8.66480000 43.31630000 3.08890000
-10.06360000 43.30130000 3.23340000
-10.62530000 43.05810000 2.24890000
-12.78160000 42.86550000 2.33620000
-23.45880000 70.70860000 -15.02260000
-23.26460000 70.41010000 -14.71270000
-23.31750000 70.80780000 -14.57530000
-23.90780000 72.38530000 -14.80180000
-23.75450000 71.53380000 -14.86970000
3.32130000 106.64100000 -22.20070000
3.06720000 105.50700000 -22.84500000
3.01880000 106.51700000 -22.55270000
1.79940000 107.36800000 -23.33090000
-3.19800000 78.72820000 -5.50300000
-4.20510000 78.93430000 -5.47910000
-0.02240000 77.38770000 -4.74700000
-2.98710000 77.61240000 -5.05890000
-45.03130000 78.29310000 -14.59570000
-45.76310000 78.47150000 -14.51800000
-45.22620000 78.08140000 -14.57850000
-43.58010000 77.80970000 -15.20800000
-43.98870000 77.97340000 -15.01660000
31.79110000 39.27560000 -4.27570000
31.17300000 40.23380000 -3.80680000
31.00420000 39.18780000 -3.96100000
32.56060000 42.91440000 -4.05650000
32.09640000 40.97330000 -4.12710000
26.38760000 24.52990000 -12.24040000
27.26810000 24.89900000 -11.94630000
-14.66010000 17.52350000 -25.93250000
-47.47820000 102.47500000 -9.97850000
-47.90430000 102.34200000 -10.21530000
-47.95290000 102.73000000 -9.95040000
-48.45420000 102.42200000 -10.70680000
9.21920000 49.71710000 -14.70420000
8.92710000 49.83830000 -14.73780000
8.76840000 49.77070000 -15.42300000
8.29190000 50.05970000 -14.52100000
-16.40860000 74.45290000 -6.84580000
-16.55660000 75.17830000 -7.76620000
-16.45160000 74.43180000 -7.60670000
-16.58560000 74.74860000 -7.16530000
-18.28450000 51.16090000 -14.11280000
-18.75240000 50.98150000 -14.26000000
-18.71180000 52.14650000 -13.73790000
-18.75360000 52.56840000 -13.68820000
-19.17930000 52.33330000 -13.63100000
-23.62730000 75.73270000 -15.14070000
-23.44260000 76.64780000 -15.29130000
-23.72140000 75.84630000 -15.56600000
-23.88110000 75.35010000 -15.33360000
-24.18920000 75.70170000 -15.80750000
-24.21520000 75.15450000 -15.42240000
-6.38440000 14.87960000 33.76540000
-6.16860000 14.52310000 34.30180000
40.85720000 86.11820000 -7.92210000
40.30410000 86.65480000 -7.47550000
41.47270000 85.46950000 -9.53960000
41.50900000 85.86400000 -8.56030000
-37.91330000 0.11630000 -14.80170000
-37.06880000 0.13580000 -13.79100000
-37.90030000 0.24940000 -14.12600000
-38.50060000 0.43240000 -14.79650000
-38.80460000 0.52800000 -14.30080000
53.29100000 64.57650000 -4.38000000
53.22600000 64.75540000 -4.04390000
52.84880000 64.12880000 -4.00930000
52.95850000 64.51770000 -3.86980000
53.09450000 64.73990000 -3.89670000
-51.75770000 68.25600000 -13.72460000
-51.83160000 67.77800000 -13.56330000
-52.06730000 68.27860000 -13.00090000
-51.44220000 68.53060000 -13.93770000
-38.20290000 101.02200000 -10.02770000
-39.15320000 101.30800000 -11.12980000
-34.15300000 99.85060000 -11.26560000
-34.40220000 99.95080000 -10.83490000
-35.21130000 99.06270000 -10.77330000
-13.06130000 48.58510000 -13.21680000
-13.05150000 48.41170000 -11.21110000
-13.03720000 48.39780000 -12.00140000
25.45490000 83.19120000 -11.93210000
26.12310000 83.43130000 -12.00330000
25.43960000 83.40210000 -11.90740000
24.38030000 83.28390000 -12.30250000
24.32500000 83.94490000 -12.35020000
23.95740000 83.40480000 -12.75640000
29.42840000 86.93520000 -12.86180000
28.98200000 86.98800000 -13.06850000
37.46730000 95.02580000 -13.71520000
37.79200000 94.68640000 -13.24580000
37.27630000 93.91160000 -13.62380000
36.62190000 92.57200000 -14.31490000
37.52520000 93.56240000 -13.10750000
28.13170000 48.54670000 -7.37240000
27.51580000 49.98130000 -7.87810000
33.09620000 74.36830000 -12.63550000
32.88390000 74.77360000 -12.52010000
32.36110000 74.33790000 -12.81290000
34.40560000 74.61220000 -12.05790000
33.98350000 74.42540000 -12.22400000
-7.53010000 0.20570000 -29.88060000
-8.16590000 0.48190000 -28.92930000
-8.59980000 0.44690000 -29.77990000
-7.58480000 0.37020000 -28.11340000
-10.99590000 66.31160000 -26.91930000
-11.72550000 48.72250000 -19.50730000
-11.99550000 48.48190000 -19.61020000
-16.42140000 42.60950000 0.80320000
-18.32300000 42.04050000 -0.16310000
-18.98490000 41.71830000 -0.58970000
21.14100000 86.71340000 -14.67650000
21.38240000 87.31020000 -15.44490000
20.49060000 86.45590000 -15.08880000
27.78080000 62.17390000 -20.30090000
27.42230000 62.44520000 -20.51240000
26.70210000 61.81970000 -20.62270000
18.66080000 6.40640000 36.75100000
19.07350000 6.64640000 36.68170000
17.94610000 6.73780000 36.49450000
18.99270000 6.78690000 36.58710000
18.65540000 7.03450000 36.10480000
18.30010000 6.90990000 36.30360000
28.76560000 10.64030000 36.53860000
28.76370000 9.93660000 36.74640000
28.60890000 14.66010000 34.53550000
28.70680000 13.71250000 34.84120000
52.20580000 92.41490000 -9.95550000
51.60260000 92.32650000 -9.80150000
51.51890000 92.15750000 -10.01690000
50.98350000 91.80860000 -10.01400000
26.82920000 102.29300000 -11.77080000
26.80330000 103.40100000 -12.30450000
26.01120000 101.79200000 -11.61650000
25.47880000 101.36600000 -11.63770000
0.60960000 66.09070000 -1.17600000
0.43830000 66.12130000 -1.31350000
0.94440000 64.62470000 -1.38050000
0.91470000 65.85570000 -1.10170000
0.12780000 64.34970000 -1.17660000
-61.42120000 82.83690000 -13.23970000
-61.17950000 83.38350000 -13.24000000
-60.74150000 83.69740000 -13.44850000
-61.25130000 83.39140000 -13.54190000
-61.14070000 83.49240000 -13.35730000
-31.52320000 49.46890000 -21.95680000
-32.47190000 47.40790000 -22.38510000
-49.77830000 11.49580000 12.00760000
-49.89270000 12.35090000 12.04760000
-50.49070000 11.62940000 11.48140000
-49.36680000 12.04680000 12.39590000
32.57450000 12.64200000 -7.84170000
33.73010000 12.88010000 -7.92650000
34.05240000 12.14250000 -8.41410000
33.28420000 12.25050000 -8.01490000
11.18060000 44.39230000 9.36430000
13.76940000 44.53570000 10.78550000
12.45120000 44.52570000 9.85000000
13.34990000 44.31030000 11.25770000
-35.50820000 100.69900000 -9.58440000
-37.30060000 100.10300000 -9.82750000
-36.72010000 100.68000000 -9.52890000
-37.60950000 100.72700000 -9.72250000
36.74960000 55.35800000 -10.73830000
36.07590000 56.57610000 -12.03550000
35.57240000 56.68610000 -12.45540000
-29.58350000 79.22980000 -24.47440000
-29.18060000 78.84560000 -24.33140000
-29.82250000 78.91510000 -24.13310000
-32.66400000 79.17650000 -23.42920000
-33.34440000 79.35150000 -23.27560000
-15.48030000 28.16300000 16.24440000
-14.75020000 27.88520000 16.93870000
-15.16890000 27.47490000 17.36440000
31.27990000 104.18500000 -15.91680000
30.81440000 104.12400000 -16.23280000
30.82450000 104.67200000 -16.22440000
30.02930000 105.37800000 -16.81030000
-43.38850000 8.23620000 -5.11040000
-44.23460000 8.47920000 -4.39890000
-43.20690000 7.87290000 -5.35350000
51.82460000 48.89290000 -7.59490000
51.44100000 49.09750000 -7.11390000
51.33530000 49.08970000 -7.57930000
51.07090000 49.56150000 -7.81070000
-5.03150000 21.40690000 -29.45610000
-4.91540000 20.95700000 -29.41390000
-5.95580000 21.37380000 -29.35540000
-1.91860000 21.26900000 -29.68590000
-2.81890000 20.82270000 -29.68230000
-3.20420000 21.48040000 -29.69640000
1.69100000 103.81800000 -24.69710000
1.99330000 103.39700000 -24.74690000
0.87210000 103.32700000 -25.31830000
-0.34240000 103.43500000 -25.76490000
-29.76670000 45.35840000 -12.11840000
-29.92240000 45.22220000 -11.60090000
-30.12110000 45.60460000 -11.40990000
-30.16820000 45.31810000 -11.15550000
-30.53240000 23.64040000 -6.71950000
-30.58240000 23.65420000 -7.19980000
-30.18010000 23.76590000 -6.91950000
53.84910000 61.98660000 -5.30300000
53.74150000 62.04510000 -5.47390000
53.60910000 62.31960000 -4.81940000
53.68580000 62.05270000 -4.52830000
42.59660000 5.76520000 5.38920000
42.14510000 6.03630000 4.98750000
42.76410000 5.77590000 6.05240000
42.58080000 6.67890000 6.66580000
42.56290000 6.13030000 6.28090000
-35.39560000 85.18410000 -23.19790000
-35.53480000 84.79010000 -22.50580000
-36.06920000 86.12010000 -20.98900000
-35.78960000 84.89210000 -22.08950000
-36.28560000 86.10280000 -20.93680000
44.06920000 56.06620000 -9.19090000
43.76800000 55.40620000 -9.16520000
44.62590000 56.23550000 -8.99740000
18.82020000 23.28900000 -14.78830000
19.01380000 23.06110000 -15.74110000
20.29380000 22.48310000 -18.27850000
19.26540000 22.42600000 -19.16050000
19.13400000 22.56860000 -18.52020000
-60.11460000 81.99310000 -13.92550000
-60.24780000 83.03010000 -13.37550000
