-16.68598600 50.20486800 -76.33630400
-17.95093200 50.80574400 -80.01144400
-18.18172800 50.27133600 -76.25540200
-17.64812100 50.31140900 -73.03198200
-19.71256300 50.44772700 -76.19699100
-18.95270200 50.30696500 -72.72256500
-17.84145000 50.48502000 -69.65145900
-20.31290400 50.31205400 -72.41870100
-19.17908100 50.47348400 -69.15902700
-17.27198400 51.01796700 -66.05596900
-20.87757500 50.60987100 -68.73358200
-18.22554400 51.04825200 -65.34234600
-14.37507600 51.47185900 -61.82629400
-20.15171400 51.53015100 -64.71884200
-15.65996900 51.42381700 -60.96585100
-10.53474400 50.83620500 -57.33432000
-17.43822100 51.40732600 -59.84655800
-11.26431700 50.83976000 -56.16564900
-22.73598500 52.54356800 -63.75402800
-26.12973800 52.68104200 -61.58908100
-27.17443800 52.10941700 -67.82177700
-31.27847300 51.47091700 -65.46569800
-35.14815500 51.25701900 -62.62695300
-29.22698200 51.77922800 -59.31939700
-36.72441900 50.72237800 -59.08807400
-32.20236200 51.31631100 -56.77340700
-26.58264900 51.15335800 -53.39041100
-34.31386600 51.36837000 -53.55694600
-30.01030700 50.94481700 -50.57296800
-26.50266300 52.49775700 -47.74475100
-23.71386700 53.04546000 -45.01895100
-33.20951100 50.98720200 -47.36517300
-29.94581600 51.23861300 -44.90325900
-27.80979900 51.48774700 -42.83645600
-26.38669600 51.43539400 -41.31887800
-21.85524000 52.00244900 -43.38964800
-33.01827200 50.82199500 -41.79803500
-31.09353600 50.81626100 -40.09826700
-29.66059100 50.72774100 -38.68951400
-33.87764000 50.65598300 -37.38162200
-32.72739400 50.61687100 -36.22164900
-31.67149400 50.50221600 -35.16037000
-35.98307800 51.05757500 -33.35037200
-34.90901900 50.93251400 -32.31271400
-33.86015300 50.85694500 -31.29000900
-38.46505000 51.03402700 -28.53106700
-37.32527900 50.99836300 -27.67507900
-36.33195500 50.52661900 -26.90719600
-40.50658400 50.65701300 -23.77328500
-39.48687000 50.15272900 -23.14184600
-39.14945200 48.98189900 -23.03356900
-42.00267000 50.06882500 -19.26046800
-41.80012500 48.79255300 -19.24719200
-41.89376100 47.47187400 -19.41009500
-43.71778900 48.76195500 -15.19592300
-43.88575000 47.35949300 -15.29412800
-44.18540200 45.92555600 -15.45880100
-45.35276800 47.36360200 -11.01919600
-45.68024400 45.88014600 -11.12167400
-46.42536900 44.42461400 -11.36550900
-47.44049800 44.56580700 -6.90679900
-48.34589400 42.97407200 -7.08606000
-48.96829200 42.88172500 -2.55047600
-50.00447800 40.85408000 -2.64068600
-50.02864800 40.70227400 2.10128800
-51.67659000 37.76253100 2.12472500
-51.33562500 38.12359200 6.97009300
-53.31225600 34.64853300 7.19406100
-51.83134500 34.81313700 12.14083900
-53.46965800 30.71828500 12.45672600
-51.68274700 31.04764600 17.64361600
-52.56977100 26.60138300 17.93652300
-49.42562100 31.31600000 22.66299400
-49.91328400 26.64163400 22.99215700
-46.63229400 31.41019400 27.41735800
-47.17559800 26.66614900 27.96890300
-44.34464300 26.73186100 32.95288100
-45.28206600 48.79799300 -10.99557500
-43.88366700 50.09682500 -15.24975600
-45.31810000 50.20292700 -10.99789400
-44.87508400 50.80662500 -15.60595700
-46.21487400 51.08868400 -11.24667400
-46.15369400 51.08060800 -16.06201200
-47.58277900 51.23143800 -11.57101400
-47.44474800 51.34209800 -16.50573700
-48.97735600 51.36685900 -11.91888400
-48.78279100 51.80691900 -16.96600300
-50.37474100 51.53147100 -12.31622300
-50.16237600 52.39411500 -17.42507900
-51.88060800 51.60775400 -12.74130200
-51.76348900 53.13612700 -17.87765500
-53.58380100 51.53430900 -13.17208900
-54.69461800 52.76325200 -18.62832600
-55.97262600 51.40262200 -13.62701400
-58.11330400 51.23693500 -19.31366000
-59.60314900 50.79811100 -14.14624000
-62.27003500 49.84665700 -20.01321400
-64.11122100 49.84087000 -14.70623800
-66.71765900 48.12411100 -20.63006600
-68.88628400 48.53258100 -15.45401000
-70.64791100 49.33855100 -10.24108900
-73.34863300 46.15988200 -16.75653100
-75.55365800 47.85635400 -10.53054800
-77.04960600 42.56028000 -17.19809000
-71.21495100 45.18176300 -21.44079600
-76.07103000 41.57914000 -22.58306900
-79.78905500 36.98827700 -22.66070600
-74.08606000 41.53648000 -27.04898100
-78.72084800 36.89563800 -28.30807500
-81.19236800 32.13794700 -29.30276500
-74.54180100 37.74565100 -33.11297600
-76.18718700 33.14033500 -34.01477100
-76.57591200 29.30151200 -35.16790800
-79.90113100 27.34174300 -29.58227500
-77.37476300 25.32492300 -36.39126600
-80.66416200 23.61207800 -29.71884200
-78.48622100 21.15408900 -36.84677100
-81.83149000 20.09725800 -30.00845300
-78.71744500 16.71717800 -36.41616800
-82.32221200 15.96318300 -29.67797900
-78.77744300 12.33869600 -35.73471100
-81.75664500 11.85940800 -28.52575700
-79.62670100 8.43608100 -34.33288600
-73.92429400 26.55673000 -41.21548500
-73.08754000 30.50300000 -40.08807400
-70.06263000 30.96497500 -44.44586200
-70.47777600 27.10007700 -45.63806200
-66.89530900 32.32283800 -49.00558500
-67.83559400 28.60486400 -50.32379200
-64.45782500 33.32202900 -53.63049300
-65.30140700 29.35316500 -54.27716100
-66.92266800 25.57205200 -55.68054200
-62.83188600 29.83251600 -57.76339700
-63.87606800 25.45718800 -58.50827000
-61.75891100 30.29655600 -61.71597300
-62.51810500 25.83583100 -61.73251300
-61.16917400 30.42554700 -66.08337400
-61.93010700 25.82771100 -65.15261800
-63.17004400 21.29834700 -63.56961100
-61.17331700 25.32799900 -68.40704300
-62.35630800 20.51492500 -66.71423300
-64.25619500 16.33470700 -64.40444900
-64.59030200 17.34495500 -61.53201300
-66.58978300 12.51936900 -61.78533900
-67.09279600 14.55041200 -59.22473100
-68.60492700 9.26606700 -59.21694900
-69.57753000 12.00884600 -56.40173300
-69.62538100 14.50158500 -54.21505700
-65.25367000 10.72269700 -64.90524300
-66.82003800 6.93620600 -62.31243900
-68.35012800 3.59830200 -59.93444800
-68.63398700 -0.16457700 -56.61712600
-68.33615100 -7.16985300 -57.66061400
-70.11803400 -4.66401100 -53.50970500
-67.92202800 -11.90970700 -54.44070400
-69.96606400 -9.73240700 -50.64291400
-66.44583900 -16.09716200 -51.14303600
-68.52590900 -14.45467900 -47.80407700
-65.11011500 -20.16693300 -48.77395600
-66.72239700 -18.77191200 -45.32998700
-62.50988000 -23.31413800 -46.50528000
-64.08927900 -22.38520100 -43.34927400
-59.80829600 -26.10336100 -44.88803100
-61.03812400 -25.44208300 -41.80075100
-57.00664500 -28.45574200 -43.90643300
-58.11164900 -28.25105500 -40.33963000
-54.16527600 -30.35926400 -42.97653200
-54.74494200 -30.58031100 -39.15185500
-50.67023500 -31.76953100 -41.80026200
-53.48638200 -30.33697100 -46.08679200
-50.66294900 -31.71707200 -45.04180900
-47.19040700 -32.42039500 -44.16552700
-46.93464700 -32.83892400 -41.05102500
-43.85036500 -31.91566100 -44.36850000
-43.10776500 -32.46452700 -40.86691300
-40.28599500 -32.50346800 -45.19595300
-41.66243000 -32.44619400 -48.84057600
-38.51812700 -32.81662000 -50.52114900
-43.61736300 -32.70443700 -52.43847700
-40.82139600 -32.58200800 -54.32717900
-37.74121900 -33.33233600 -56.24475100
-43.22486900 -33.42927200 -57.45480300
-40.44408400 -33.46092600 -59.50085400
-37.37638100 -33.44248600 -61.85922200
-43.31617700 -33.07167100 -61.76696800
-40.55460400 -32.68945700 -64.09069800
-37.16926600 -32.52157600 -67.23547400
-42.74082200 -32.68371200 -65.77468900
-39.82028200 -32.34576400 -69.15695200
-36.47031400 -31.98745000 -72.95809900
-42.01364100 -32.31765000 -70.63122600
-38.96070900 -31.27898400 -74.61276200
-35.91406300 -30.50478000 -78.49090600
-40.93229700 -31.51598400 -76.05865500
-38.12999000 -30.22079500 -80.13745100
-35.14893300 -27.97428500 -83.70526100
-39.93901100 -30.32229200 -81.53909300
-36.95761900 -28.44932200 -85.37194800
-33.60617100 -26.34531000 -88.68292200
-38.38043200 -29.31666200 -86.77279700
-35.16788500 -26.62006000 -90.04898100
-31.64408100 -24.26377100 -92.64535500
-36.43442500 -27.85216700 -91.09637500
-33.26339700 -25.01985000 -93.98379500
-30.04803500 -22.42809500 -96.39263900
-34.35592700 -26.69099000 -95.24493400
-31.26732600 -23.52872800 -97.59643600
-28.96355400 -19.90333900 -99.33938600
-32.03467600 -25.31763800 -98.95788600
-29.06903800 -21.41953500 -100.74490400
-27.59410900 -17.07404100 -102.23397800
-29.42737600 -23.46151000 -102.60043300
-27.08962200 -18.87233200 -104.10888700
-26.45626800 -14.08204000 -105.57226600
-27.11561600 -9.88076400 -106.90918000
-27.88362100 -21.06643500 -106.94207800
-26.47876700 -16.10853200 -108.61575300
-26.59745000 -11.69288200 -109.87976100
-28.31618500 -8.50163400 -110.77413900
-28.91619900 -6.41095200 -108.09780900
-28.22464800 -18.45823700 -111.80004900
-27.82172400 -14.30630900 -113.05639600
-29.06204200 -11.20233900 -114.16601600
-30.76277900 -8.48062300 -114.69552600
-30.40933200 -5.74079600 -111.39648400
-31.93869800 -13.99643300 -116.80578600
-33.59017200 -11.65155100 -116.93753100
-36.58185600 -16.61574600 -118.02194200
-38.37091800 -14.14525800 -118.10640000
-39.98945600 -11.40287600 -117.54742400
-43.68492900 -16.94475200 -118.00270100
-45.28549200 -13.78993400 -117.24646000
-46.40652500 -10.37997200 -115.84475700
-41.49735300 -8.36129500 -116.56933600
-47.02495600 -6.84775400 -113.93496700
-42.66379500 -5.07406100 -114.56097400
-47.51767700 -3.53453700 -111.63818400
-43.81860400 -1.75261000 -111.82663000
-40.43716400 -0.39705900 -111.04571500
-37.06254600 -0.61847500 -110.25109900
-45.32642400 1.58017900 -108.97055100
-42.12584700 2.54873300 -108.01568600
-38.46158600 1.41778800 -107.63281300
-38.92462200 3.22873600 -105.62304700
-35.68710300 1.60262900 -105.78619400
-35.05651900 0.60809800 -107.51632700
-34.05861700 -1.53812500 -109.58926400
-42.63540600 4.79219800 -105.67388900
-42.30134600 5.79820700 -103.85635400
-38.64945200 3.91106000 -104.27133200
-46.33406800 4.81572400 -105.69253500
-46.29148100 6.78131400 -102.84674100
-45.52790100 7.87813900 -101.12194800
-41.56740600 6.82575100 -102.61227400
-49.58496100 3.55772400 -105.72998000
-49.94945500 5.71738400 -102.98489400
-52.24587200 0.65782500 -105.24832200
-53.10450000 3.29167100 -102.35525500
-54.94349700 -2.50032700 -103.90292400
-55.82448600 0.10114800 -101.50903300
-56.93406700 -6.01321800 -100.85916100
-57.58504500 -3.82426200 -99.47857700
-58.84309400 -1.28799700 -97.00692700
-59.19783000 -7.29663700 -95.29226700
-59.91577100 -5.27398500 -93.95407100
-60.95871700 -2.81256700 -91.61785900
-60.16208600 1.51094100 -93.56036400
-62.28376000 -0.28049100 -88.00344800
-60.99800900 4.00853200 -89.53338600
-64.13266000 1.68441800 -84.18502800
-62.52389500 6.06367200 -85.51480100
-60.74974800 10.44140000 -87.25732400
-58.89736200 14.43909600 -88.69754000
-63.82667500 7.19877300 -80.73172000
-62.52629900 11.71810200 -82.42684900
-60.80349700 16.17003600 -84.02865600
-58.61492900 20.58011200 -85.58673100
-57.37400100 18.65696900 -90.30694600
-63.41284900 12.77330700 -77.92208900
-61.53734600 17.39131200 -79.21453900
-59.90848500 22.05802900 -80.84832800
-57.89914700 26.78262300 -82.73254400
-56.68213700 25.44144200 -87.63568100
-61.21978000 18.18862900 -75.41662600
-59.56028700 22.67781100 -76.90972900
-57.64551500 27.42302300 -78.28390500
-55.79231300 32.27961700 -79.86874400
-55.77253000 31.83008400 -84.69931000
-59.11035200 23.33715400 -73.59677100
-57.29322100 27.88943500 -75.03778100
-56.00756800 32.74059700 -75.96420300
-54.02663400 37.38651700 -76.77194200
-53.79415900 37.15965700 -81.04434200
-58.15142800 28.54022000 -72.10800200
-56.22190100 32.82022100 -72.86892700
-54.58934800 37.61204500 -73.57299800
-52.76703600 42.00403200 -73.53549200
-51.96931500 41.84633300 -77.25137300
-57.86670700 33.82159800 -70.43689000
-55.97611200 38.04705400 -70.39370700
-54.22908000 42.11623400 -69.72354100
-52.43354800 46.00499700 -68.64923100
-50.77117200 45.87371400 -72.76620500
-57.22538800 38.21224600 -66.37188700
-55.29635600 41.67090200 -65.60440100
-52.86113000 44.57223500 -64.41458100
-49.96074700 47.05221600 -63.07864400
-49.36792800 48.92567400 -67.14428700
-57.13631400 41.35319100 -61.46353100
-54.48665600 43.97009700 -60.45843500
-51.13887000 46.33478200 -59.36419700
-47.35784900 49.02054200 -58.44537400
-46.06866500 48.85462200 -61.87527500
-57.23919700 44.58723100 -56.78466800
-53.28356200 46.52480300 -55.59790000
-49.20681000 49.20413600 -54.80719000
-45.21614100 51.71634700 -53.17721600
-42.85524000 51.53175400 -57.73519900
-55.82024400 46.60799800 -51.26065100
-51.75404400 48.66158300 -49.95397900
-47.66771700 50.03723500 -48.19754000
-43.50366200 50.73395200 -46.64315800
-41.10922200 52.44236800 -51.49411000
-54.35088300 48.85368000 -45.60287500
-49.89067100 49.96183000 -43.81265300
-45.74001300 50.76378600 -42.75213600
-41.68694300 51.23859400 -41.77435300
-39.39592700 50.97301100 -45.64889500
-52.95978500 50.73196400 -39.76825000
-48.35122700 50.80760600 -38.62527500
-44.42389700 52.13281600 -37.79373200
-40.07310500 53.17658200 -37.10125700
-37.74831400 51.03935200 -40.77502400
-51.19281800 50.44153600 -34.11795000
-47.24430800 51.03965400 -33.11547900
-44.01636500 51.69907400 -32.15875200
-42.30604600 51.55830000 -31.20617700
-38.26845600 52.29710400 -35.59750400
-50.12348900 50.67273300 -28.26306200
-47.62083400 50.86844300 -27.32516500
-45.62056000 51.00011100 -26.52670300
-44.22650900 50.99857700 -25.84838900
-40.94519000 51.27559300 -30.28167700
-49.92411800 51.58586900 -22.65344200
-48.37683100 51.25922800 -22.08239700
-46.89080800 50.97813000 -21.53799400
-45.53390500 50.88026000 -20.97195400
-42.89167000 50.95691300 -25.14044200
-41.63690900 50.86620700 -24.45544400
-39.66816700 51.04649700 -29.40277100
-44.24445300 50.79319000 -20.35122700
-42.99272900 50.67817300 -19.72976700
-37.11904900 51.56263700 -34.45654300
-35.42463700 50.74944300 -38.86358600
-35.79281600 50.79698900 -43.97277800
-36.98610700 51.61029800 -49.69201700
-38.51486200 52.05241400 -55.98251300
-41.37674700 49.84452800 -60.70196500
-52.71769700 51.63676100 -23.53439300
-53.79792000 50.33265700 -29.35260000
-56.25950600 50.85953900 -24.41671800
-58.37164300 49.73442100 -30.38147000
-60.40533400 49.89421800 -25.31405600
-63.52430000 48.89888000 -31.22854600
-65.43457000 49.09068700 -26.03561400
-68.76529700 47.25872000 -32.07724000
-70.17696400 46.29388400 -26.47183200
-71.82458500 42.41363500 -32.12277200
-65.08371000 45.83108500 -37.10363800
-69.18035900 42.97688700 -37.84146100
-71.73938800 38.85336300 -38.54470800
-65.68998700 43.12111300 -43.14474500
-68.92904700 39.77643200 -44.24032600
-70.89702600 35.69158200 -44.92480500
-72.97942400 34.31297700 -39.54431200
-64.49235500 39.34236100 -48.09503200
-66.25417300 35.72959100 -48.52685500
-62.15562400 40.60767000 -52.73095700
-63.65009300 36.91856800 -53.35742200
-60.66377300 41.96262000 -57.80456500
-61.79794300 38.01377900 -57.86361700
-62.47357200 34.06485400 -57.78460700
-58.97460200 38.09408200 -61.99191300
-60.36623400 34.38281600 -61.94567900
-58.94167300 34.32675900 -66.46221900
-60.58497600 29.84917300 -69.81848100
-59.70464300 24.37533000 -70.82281500
-60.63063800 18.88259900 -72.01135300
-61.14164000 19.61359200 -69.17852800
-62.52244600 14.20262900 -70.50894200
-63.27612300 15.07241200 -67.51678500
-64.39068600 9.61849600 -68.23086500
-62.73580900 13.60191100 -73.87783800
-64.19284800 8.98243000 -71.85305800
-64.55950200 8.25818800 -75.86676000
-65.10271500 3.19469100 -79.52487200
-59.39913200 43.98500400 -52.23266600
-61.71151000 42.96061300 -47.34851100
-58.61843900 46.54256400 -46.76239000
-61.95765700 46.67835600 -42.31494100
-58.12509900 50.54365500 -41.55542000
-60.78019000 48.76801700 -36.31207300
-55.95874000 50.49411400 -35.28356900
-47.54525000 48.82500800 -71.50735500
-45.41542800 47.96916200 -75.41522200
-48.75886500 45.23036600 -76.63604700
-44.65528900 48.52021400 -79.67108200
-47.98114000 45.28213900 -81.09643600
-51.24285900 41.63078300 -81.62292500
-43.75272400 49.03010900 -84.16888400
-40.15718800 50.66328800 -82.11138900
-38.55732000 51.07661400 -86.37246700
-40.88902300 49.06924100 -88.47283900
-41.18775200 51.42734500 -77.98751800
-36.78810100 52.93095400 -76.76059000
-32.28988600 51.55749900 -77.25344800
-27.16976200 50.72478500 -74.90490700
-28.33826400 50.91772100 -79.03680400
-23.90403700 50.66630900 -75.71313500
-25.04429600 51.78444700 -80.59024000
-25.96280700 51.27908700 -84.61846900
-27.20679500 50.35428200 -87.30789200
-22.25496700 52.44393500 -80.35150100
-21.51051300 50.67832200 -76.10192900
-19.68160200 51.75875500 -80.34960900
-17.68608500 50.56321700 -83.56897000
-16.78753700 49.88163400 -86.46395900
-14.89643900 50.39956700 -85.08859300
-12.47734800 51.13389200 -87.45089700
-14.07282600 51.03478200 -88.66384900
-11.14350900 50.62874200 -86.71579000
-8.63594100 49.93434900 -89.24691800
-9.13501400 50.93122100 -89.50705000
-8.46101800 48.82037700 -89.11831700
-5.28161600 48.12895200 -91.26702900
-5.37431000 49.23327600 -91.37072800
-5.20386100 46.91409700 -91.20977800
-1.43158300 46.43985000 -92.76199300
-1.41185000 47.72276300 -92.79544100
-1.45623800 45.07887300 -92.75567600
2.63357900 44.93573800 -93.12994400
2.69540800 46.28744500 -93.07382200
2.57635500 43.24947700 -93.20156900
6.62160100 43.36306800 -92.60015900
6.72316000 45.10134500 -92.49667400
6.54906800 41.40316800 -92.71820100
10.40227100 41.66201400 -91.93670700
10.44987500 43.78712100 -91.65002400
10.43526500 39.43610800 -92.40249600
13.65743100 39.48123200 -90.68853800
13.64873900 41.92923400 -90.34194900
13.74631500 36.74450300 -91.18063400
16.61639600 36.73180800 -89.33007800
16.63443400 39.50809900 -89.06521600
16.68854100 33.33558300 -89.76019300
19.24270200 33.36940800 -87.64306600
19.09936900 36.72728700 -87.28121900
19.56298100 29.18602200 -88.10244800
21.60768700 29.09600400 -85.30487100
21.07776500 33.20954100 -84.91943400
22.29132700 33.08316800 -81.69607500
21.70398100 36.49136400 -81.48345900
20.71978400 36.64035000 -84.54238900
22.67819200 28.91649400 -81.84420800
22.78331900 28.69936800 -78.18624900
22.12233500 32.99147800 -78.17672700
22.61157600 28.53667300 -74.47735600
20.36380400 39.46426400 -84.17001300
18.96266400 39.57455100 -86.92703200
18.86240200 41.96625500 -86.58914200
16.62924200 42.01992800 -88.76385500
16.61544600 44.20311400 -88.40573100
13.71755800 43.99364900 -90.04888900
13.76116000 45.58045200 -89.67095900
10.51031900 45.28584700 -91.36483800
10.58889800 46.53512600 -91.11584500
6.82658000 46.47438400 -92.41201800
6.95952200 47.55682400 -92.33276400
2.76916100 47.39326900 -93.03521700
2.84988800 48.50795700 -92.97680700
-1.41659500 48.71983700 -92.90969800
-1.39077000 49.68898400 -92.92428600
-5.47187000 50.23869700 -91.49234000
-5.86051600 50.90189400 -92.13549800
-10.14838800 51.37783800 -90.53402700
-11.25880100 51.12886000 -91.88674900
-22.63456700 50.34749600 -72.12304700
-25.75871300 50.14212400 -71.63992300
-23.40339700 51.37632400 -68.47375500
-28.82614900 51.06887100 -89.50109900
-26.24773400 50.75424200 -93.10986300
-30.39679000 51.35775400 -92.30453500
-34.62801400 50.92308400 -90.02905300
-32.13340000 49.57716000 -94.74905400
-36.71836900 49.34026700 -92.16293300
-33.82675200 47.25474900 -97.52829000
-27.41046100 49.73418800 -95.95547500
-22.70009600 50.72499100 -93.82150300
-54.33615100 30.37039400 -89.57812500
-52.37692300 28.15296000 -93.93246500
-55.00309000 23.21738100 -91.91159100
-52.94257400 20.46563000 -95.51840200
-62.46691900 -4.74354800 -86.25430300
-61.32064800 -6.72833700 -88.25607300
-60.97663100 -9.47016100 -83.30728100
-62.16906000 -7.84238400 -81.95852700
-60.76034500 -11.16576800 -78.24865700
-61.83078800 -9.50231000 -77.02609300
-59.62283300 -12.09735900 -73.82849100
-60.39328800 -10.14960600 -72.71688800
-61.77021800 -8.11935100 -71.28595000
-61.31486500 -12.49760900 -68.79208400
-62.22868300 -10.65704700 -67.64196800
-62.11106100 -15.34202400 -64.75466900
-62.94237500 -13.67435600 -63.78146400
-64.24266800 -11.78567300 -62.46582000
-63.35302000 -17.07261800 -59.76782200
-64.29489100 -15.48830800 -58.47924800
-66.01075700 -13.85382700 -56.96038800
-65.83313000 -9.62518200 -60.50259400
-63.25347100 -19.10585800 -55.04177900
-64.82836200 -17.85059500 -53.49020400
-62.22617300 -22.80583200 -52.67504900
-63.96113600 -21.53247500 -50.71405000
-61.16738900 -24.27923200 -48.85742200
-58.57656100 -26.85080300 -47.57287600
-56.11618800 -28.97803300 -46.73855600
-52.82183800 -30.64254800 -48.70648200
-51.78199000 -30.83214600 -51.31436200
-49.92683400 -31.77946500 -54.00839200
-47.76392400 -31.41194900 -56.56884800
-45.49454500 -31.75014500 -55.56485000
-49.99780300 -30.84738900 -57.66165200
-48.01222200 -32.11660400 -60.36270100
-45.60404200 -32.51686100 -59.06985500
-51.97282400 -31.32996000 -58.24572800
-49.99137900 -32.48516100 -60.89376800
-47.60097500 -32.78900900 -63.79803500
-45.49458300 -32.80467600 -62.93862900
-53.66103400 -32.12507200 -58.58865400
-51.77399400 -33.08792100 -61.26757800
-49.79009200 -33.01635700 -64.41330000
-46.78565200 -32.55449700 -67.74203500
-44.85479000 -32.60365700 -66.96893300
-53.03535500 -34.25882700 -61.27203400
-50.97586800 -34.03438900 -64.93310500
-48.11277800 -33.18898000 -68.55123900
-45.40915700 -32.61639400 -72.83120700
-43.86266300 -32.18420800 -71.82132000
-52.04379300 -35.08597200 -65.45983900
-49.20285800 -34.15284300 -69.38937400
-46.42427100 -33.58759300 -73.60668900
-43.93134300 -32.71716700 -78.14959700
-42.65119200 -31.83611300 -77.21923800
-50.57555400 -34.76089500 -70.39486700
-47.92406500 -34.08341200 -74.57531700
-45.35403400 -33.49929000 -79.09259000
-42.66648900 -32.28353500 -83.63458300
-41.26847100 -31.31290400 -82.70623800
-50.06035600 -34.36537900 -75.77633700
-47.42168400 -33.71050600 -80.15026900
-44.55390900 -32.89211700 -84.55044600
-41.10537000 -31.97449500 -88.62197900
-39.51072700 -30.49681500 -87.60144000
-50.26145200 -34.02875900 -81.47360200
-47.19541900 -33.29588700 -85.71353100
-43.75756800 -32.33525500 -89.86846900
-39.68504300 -31.43790400 -93.57113600
-37.60818500 -29.66865000 -92.22659300
-50.79328900 -33.36511200 -87.22137500
-46.93907900 -32.71430200 -91.28689600
-42.57077000 -31.81230200 -95.00140400
-37.62818900 -30.58476600 -98.20431500
-35.46938300 -28.78327000 -96.48590100
-50.42118800 -33.35743700 -93.00058000
-45.80303200 -32.33899300 -96.67584200
-40.74070000 -31.00667600 -99.99249300
-35.47695200 -29.21944000 -102.84777800
-33.10813900 -27.47192800 -100.64141800
-49.03704800 -33.12820400 -98.61340300
-43.87007100 -31.98581700 -102.09115600
-38.85239400 -29.85489100 -105.14621000
-34.11815600 -26.95941200 -107.86737100
-31.11086300 -25.50156600 -105.14276100
-47.59027900 -32.31013100 -104.51455700
-42.37162000 -30.64331400 -107.82302900
-37.50549300 -27.46692800 -110.47485400
-30.33149000 -22.86515200 -110.06381200
-46.01558700 -30.22736400 -110.64035000
-41.03896300 -27.33736600 -113.24835200
-49.56025700 -28.34675400 -112.71319600
-44.35560600 -25.63211600 -115.51577800
-52.69740300 -25.42187700 -113.99493400
-47.25762900 -22.94278500 -116.64984100
-41.70118000 -19.84472100 -117.97845500
-49.43433400 -19.54141200 -116.55966200
-54.89028200 -21.67277700 -113.63351400
-55.73775500 -17.66470100 -111.99099700
-50.93239600 -15.88492600 -115.60742200
-55.74776500 -13.67030000 -110.01120000
-51.48194100 -12.14551600 -114.03793300
-55.11101500 -10.40071300 -108.30230700
-51.37379500 -8.74015100 -112.09356700
-54.40048200 -7.81464100 -106.98245200
-51.35898600 -5.46519700 -110.27035500
-54.57125100 -5.18261200 -105.80978400
-51.71873500 -2.27475600 -108.12985200
-48.54355600 0.03408700 -108.94299300
-57.26493800 -10.00131400 -102.36227400
-56.63275900 -8.04676700 -101.64682000
-60.05216200 -11.92613000 -97.13815300
-58.83190200 -10.65078800 -96.51293900
-58.47236600 -8.98155800 -95.91690100
-60.86495200 -13.17461600 -91.52185100
-59.62255900 -11.83596500 -90.81680300
-59.68471500 -10.14674100 -90.13928200
-60.82267800 -14.12966200 -85.86749300
-60.33080300 -12.64941600 -85.17495700
-60.33522000 -11.03912700 -84.33731100
-60.51117700 -8.50964500 -89.47644000
-60.34389500 -14.32989500 -80.12637300
-60.09595500 -12.75125500 -79.27752700
-60.46983300 -15.54772000 -75.40097000
-59.82091500 -13.90382800 -74.70950300
-60.82849900 -17.10897100 -70.98150600
-60.12309300 -15.58519400 -70.22918700
-60.21318800 -13.97290400 -69.48260500
-60.90197000 -18.30724900 -66.19979900
-61.23074300 -16.77775600 -65.48107900
-61.67868000 -21.10824400 -62.29693600
-61.48333700 -19.71559900 -61.56561300
-62.32431000 -18.39025700 -60.73983800
-61.17161600 -22.77004800 -58.17892500
-61.57259400 -21.51839100 -57.27807600
-62.67270700 -20.52724100 -56.29858400
-60.51813500 -25.90113100 -55.55413800
-61.92391200 -23.98118200 -58.81097400
-61.64847600 -26.73738900 -55.71322600
-61.12268100 -29.07300800 -53.08560200
-60.04512000 -28.85772900 -52.76632700
-60.82731600 -30.47521200 -51.85955800
-59.84952500 -30.27334600 -51.57058700
-60.58786800 -31.75701900 -51.03515600
-59.51681500 -31.37080800 -50.89648400
-58.36235800 -31.66101100 -51.05587800
-56.83082600 -33.93333100 -51.29296900
-57.09994500 -32.43058800 -51.52569600
-55.79413600 -33.44761700 -52.72174100
-55.90348100 -35.02835500 -53.09323100
-55.41735100 -35.50186200 -55.46942100
-54.93441000 -33.97163400 -55.12652600
-56.98453500 -35.68680200 -51.05886800
-56.50614900 -36.78293600 -53.47192400
-56.51156600 -36.88532300 -56.07797200
-56.19007900 -36.89328800 -59.08816500
-54.78556100 -35.55054900 -58.24414100
-58.52564200 -37.51946300 -54.10717800
-58.51891300 -37.45308300 -56.68563800
-58.11853800 -37.42511000 -59.90850800
-57.12004100 -37.22082900 -63.52691700
-55.41310900 -36.70872100 -62.45910600
-60.69094100 -37.78273800 -57.39621000
-60.11891200 -37.72415200 -60.79852300
-58.97293900 -37.46904000 -64.66357400
-56.99050900 -36.84392200 -68.95578000
-55.06666600 -36.14947900 -67.54342700
-62.06122600 -37.87767000 -61.65506000
-60.97383100 -37.78111600 -65.52267500
-59.50313600 -36.92743700 -70.07714800
-58.22840100 -35.61620300 -74.43252600
-54.75121300 -35.25377300 -72.89544700
-63.05735800 -37.68704600 -66.07666000
-61.99559000 -37.03635800 -70.70593300
-61.52829000 -34.66241500 -75.17718500
-60.22080200 -35.33250800 -80.00882000
-56.40741700 -35.03732300 -78.67276000
-64.31951900 -37.09988000 -71.11731000
-63.84444400 -35.52951000 -75.77993800
-62.66320800 -35.04699700 -80.73556500
-60.45478100 -35.72533000 -85.69027700
-57.85765800 -35.27470000 -84.70526100
-65.85418700 -36.47660800 -76.26010100
-64.75076300 -35.74931000 -81.23101800
-62.76416000 -35.76852400 -86.51425200
-59.96734600 -35.24650200 -91.73559600
-57.47755400 -35.24065000 -90.55188000
-66.85367600 -35.56932100 -81.81027200
-64.95008900 -35.40348400 -87.34982300
-62.33196300 -34.82552300 -92.81082200
-59.02948800 -33.73075500 -97.92187500
-56.49968700 -34.35955000 -96.57922400
-66.59606200 -33.71486700 -87.74984700
-64.39147900 -33.12610200 -93.43634000
-61.46551500 -32.13052700 -98.86831700
-58.23535900 -31.10007100 -104.06332400
-55.36510500 -33.19223400 -102.86862200
-65.84278100 -30.66671800 -93.54461700
-63.43957500 -29.50119400 -99.15429700
-60.55767100 -28.02233500 -104.40756200
-57.13497900 -26.76885200 -109.44241300
-54.26100200 -29.97459400 -108.78921500
-64.95514700 -26.29321300 -98.81921400
-62.18542500 -24.51960900 -104.07901000
-59.21279900 -23.03139900 -109.15719600
-62.70641300 -20.58457800 -102.62991300
-59.79677600 -18.92199700 -107.58157300
-62.75918600 -16.31424900 -100.42990100
-59.37775400 -14.92048600 -105.26178000
-61.41571000 -13.47192600 -98.19332900
-58.71364600 -11.72228100 -103.58908100
-64.88240100 -18.77862200 -95.48614500
-63.72721100 -15.81308600 -92.99798600
-62.42868000 -14.35522100 -92.03079200
-65.54647100 -18.17310000 -87.94979900
-63.71373700 -16.76098600 -86.67034900
-62.23882300 -15.30651700 -86.24301100
-64.71852100 -17.85343700 -81.52304100
-63.08897400 -16.35568800 -81.15554800
-61.38102000 -15.57564500 -80.78042600
-63.33967600 -17.66711200 -76.27694700
-61.62923400 -16.83972400 -75.96627800
-64.07402800 -19.00415400 -71.72814900
-62.26371000 -18.17697700 -71.41812100
-65.16286500 -21.03443300 -67.34625200
-63.60323300 -20.03695900 -66.98645000
-61.94320700 -19.43617400 -66.74472000
-64.51031500 -22.48531300 -62.74426300
-62.89093000 -21.99350200 -62.72671500
-63.11863700 -24.86800200 -59.13034100
-62.80658000 -27.48300200 -55.89584400
-62.04080200 -29.68802800 -53.36331200
-63.55649600 -32.04858800 -52.16122400
-61.72540300 -31.24191700 -52.13028000
-63.36900300 -33.62972600 -51.25814800
-61.61621900 -32.68867100 -51.41638200
-61.37868500 -34.03123500 -50.77471900
-63.20896100 -35.05176500 -50.46432500
-63.05992900 -36.58254200 -49.98135400
-61.10556800 -35.50052300 -50.28567500
-65.56826000 -34.39286400 -50.83630400
-65.50376900 -36.02659200 -50.10760500
-65.53466800 -37.60015500 -50.19204700
-65.57168600 -38.25972700 -51.75012200
-62.93263200 -37.93730500 -51.16812100
-68.06652100 -36.37019000 -49.71478300
-68.17665900 -37.93429900 -50.43515000
-68.04296100 -38.34906800 -52.24969500
-67.85154700 -38.33699800 -54.35147100
-65.59785500 -38.14737300 -53.73748800
-70.49465900 -37.83786000 -50.75860600
-70.25320400 -38.36454800 -52.77990700
-69.89638500 -38.41222400 -54.99142500
-69.39724000 -38.33323700 -57.38293500
-67.45330000 -38.24949600 -56.72238200
-71.66551200 -38.14656100 -55.56826800
-71.20286600 -38.04097000 -58.01257300
-70.61599700 -37.80087300 -60.58297700
-68.75238000 -38.11013800 -59.99188200
-73.02051500 -37.20518900 -56.03610200
-72.54878200 -36.88244600 -58.42144800
-71.98000300 -36.51490400 -60.95709200
-71.41226200 -35.99499100 -63.87771600
-70.00875100 -37.59195300 -63.66720600
-73.56929000 -35.39198300 -58.46618700
-73.12334400 -34.85645300 -60.99145500
-72.62329900 -34.19765500 -63.94543500
-72.17978700 -33.51813900 -67.34671000
-70.88188900 -35.45961800 -67.39456200
-73.75447100 -33.01652100 -60.69616700
-73.47202300 -32.20571900 -63.75698900
-73.15746300 -31.40353800 -67.22964500
-72.63595600 -30.76791800 -71.64468400
-71.58073400 -32.96468400 -71.62228400
-73.17414100 -30.04599400 -63.02734400
-72.91021000 -29.00657300 -66.61340300
-72.17728400 -28.08548900 -71.08349600
-71.09117100 -27.54007100 -75.89456200
-71.52182800 -30.30434800 -76.52117900
-71.67775700 -26.74169900 -65.64822400
-71.49266100 -25.19684600 -70.13110400
-70.24725300 -24.46082300 -74.88085900
-69.51717400 -23.68672900 -79.80673200
-70.18463900 -26.87599200 -81.07846100
-69.39677400 -22.79579000 -68.71911600
-68.58112300 -21.45621700 -73.33441200
-67.60807000 -20.56304400 -77.90713500
-66.77031700 -19.91824300 -82.97711200
-68.74071500 -22.55761900 -85.12851000
-66.07231900 -19.82003200 -72.08670000
-65.23943300 -18.61004300 -76.65029900
-66.84311700 -21.61605300 -67.66491700
-70.17614700 -24.59664500 -64.38089000
-67.86586800 -23.59574300 -63.21579000
-66.09872400 -23.07021000 -62.86465500
-70.43171700 -26.71192700 -60.99887100
-72.12091800 -28.11557000 -62.05001800
-72.43800400 -29.43157200 -59.06680300
-70.77727500 -28.48879800 -58.16976900
-72.77586400 -30.60411500 -56.42291300
-71.17307300 -30.04912000 -55.67199700
-71.59669500 -31.60284000 -53.49600200
-71.89957400 -33.17104300 -51.82232700
-70.27977000 -33.01774200 -50.99414100
-70.45276600 -34.63166800 -49.92166100
-68.04469300 -34.80526700 -50.07980300
-67.84574100 -33.05262400 -51.15307600
-72.15200000 -34.68228100 -50.81771900
-70.51898200 -36.34775200 -49.72509800
-65.62607600 -32.78204300 -51.84109500
-73.23227700 -31.16368500 -59.95303300
-73.65635700 -32.07074000 -57.29571500
-74.05931900 -33.69801700 -58.05822800
-73.98681600 -35.88706200 -55.99215700
-66.79234300 -21.04390300 -90.32037400
-67.66621400 -24.38394000 -92.21447800
-69.29299900 -25.87759600 -86.63073700
-67.01780700 -27.77157600 -93.19982900
-69.07018300 -29.00480800 -87.51553300
-70.42601000 -29.77763200 -81.80508400
-67.96937600 -31.52615400 -87.75491300
-69.72587600 -32.24956900 -82.09362800
-70.71116600 -32.59001200 -76.59121700
-68.50122800 -34.20161800 -82.08682300
-69.44985200 -34.51907700 -76.58535800
-70.23191100 -34.94779200 -71.63150000
-67.98413800 -36.19007500 -76.51547200
-68.65354200 -36.57340200 -71.54867600
-69.37171200 -37.15317200 -67.29769900
-66.54438800 -37.08639100 -71.37246700
-67.25800300 -37.63756600 -66.84521500
-68.02058400 -37.91116700 -63.18399000
-65.16227700 -37.66760600 -66.47772200
-66.00825500 -37.94708600 -62.71710200
-66.79401400 -38.08799400 -59.45843500
-63.99065400 -37.93157600 -62.30358900
-64.85458400 -38.01121900 -58.86434900
-65.41069000 -37.93154100 -56.02413900
-62.80949400 -37.93544000 -58.17446900
-63.17501100 -37.80229200 -55.34887700
-63.09848800 -37.97844300 -53.14273100
-60.74670400 -37.76814700 -54.80715900
-60.69101000 -37.86656200 -52.46194500
-60.74485000 -37.28915000 -50.34079000
-58.44749500 -37.59491700 -51.58462500
-65.45295700 -22.55241200 -97.57449300
-50.93778200 -31.98474900 -107.03476000
-52.37773900 -33.49721100 -100.79568500
-53.88265200 -34.18504000 -94.86984300
-54.73696100 -34.45190000 -89.15176400
-53.91330000 -34.34662600 -83.03561400
-52.75581400 -34.65074200 -77.10607900
-52.43796500 -34.80663300 -71.50976600
-53.40106200 -35.67055500 -66.38110400
-53.92307300 -35.78483200 -61.49743700
-54.16186500 -33.95045500 -58.29278600
-45.04998800 9.73813500 -101.24636800
-32.35862700 -2.07670300 -106.83511400
-31.40193200 -3.65851600 -108.84115600
0.81968300 50.16489400 -43.29751600
5.59989900 50.25457800 -42.50747700
5.81228300 50.50206400 -43.96661400
10.08113100 50.22377400 -41.78604100
10.49388500 50.74181000 -43.13882400
10.97868300 51.15058900 -44.59622200
14.81253100 51.01804400 -41.86950700
15.47093400 51.56985900 -43.19473300
16.22345500 52.06730700 -44.54257200
19.75649100 51.33060500 -41.32702600
20.76256200 51.69760100 -42.68167100
22.05304100 52.05097600 -44.17645300
17.03396400 52.73379500 -45.97497600
24.50397500 52.29122900 -46.29711900
26.10302900 51.71839500 -41.79345700
28.64858100 51.80525600 -43.92831400
29.48773200 52.35939400 -39.21731600
31.56008500 53.68431100 -41.06936600
35.01789900 54.20761100 -43.51846300
34.73204800 53.88812300 -37.52343800
37.77117200 54.09238800 -39.49185200
41.90454100 53.06200800 -41.59024000
39.75460100 52.68592100 -45.82373000
46.62107800 52.17524700 -43.48080400
44.74020000 52.09241900 -47.78085300
51.63268300 52.12758600 -45.57720900
49.54533800 50.86009600 -49.45517000
48.76136400 51.53030000 -53.65506000
54.31947300 48.80973800 -51.11816400
53.30606800 48.73944900 -54.97348000
53.10349300 48.75729400 -59.16189600
48.64907100 51.61707300 -57.84854100
53.16653800 48.80308900 -63.64633200
48.31997300 50.28162400 -62.15777600
53.40573900 49.78063600 -68.65905800
48.85891700 50.93766800 -67.12634300
43.99853500 51.11747700 -65.84222400
49.06723800 52.32233800 -72.53604100
53.34432200 50.53212700 -74.38159200
52.02650500 49.83753600 -80.78027300
56.22816500 47.88140500 -76.56906100
54.86838500 46.87696800 -82.01870700
52.93570300 45.64630500 -87.72750900
56.99396500 43.78063600 -83.11566200
55.21619800 42.80157900 -89.16555800
52.44020800 41.46052900 -95.10879500
56.71786100 39.42452200 -89.88516200
53.62054400 37.48205600 -95.64038100
50.31948900 35.78590800 -101.36520400
55.36966300 33.93581400 -95.99432400
52.68284600 31.83113900 -101.94067400
48.18668000 29.11883400 -106.38870200
54.83630000 27.62003700 -101.10711700
50.64303200 24.83599500 -105.46243300
44.60134500 22.37421200 -108.51965300
53.46355800 20.44412400 -103.42736800
47.56548700 18.08373500 -106.29104600
41.15913400 15.55211800 -108.71395900
50.86012600 14.08753400 -104.81939700
44.40372100 11.51125100 -106.89791900
52.92737600 10.24624500 -102.16940300
46.77745400 8.08436600 -104.81671100
54.09569500 7.53456800 -99.62515300
48.67819200 5.67607100 -102.35238600
42.73461500 3.21881100 -103.75961300
49.86259100 3.84852000 -100.48724400
44.50053000 2.00544400 -101.95449800
50.79214900 2.32014600 -99.22561600
45.92652500 0.43721700 -100.59683200
51.90692100 1.11316000 -99.13766500
47.32102200 -0.91208300 -100.49734500
48.37873100 -1.37601600 -102.05175800
44.13632200 -3.83319800 -102.35427900
49.81280500 -1.84886000 -103.89401200
45.21226100 -4.20575900 -104.81515500
42.03636200 -7.30200600 -104.77374300
47.23434100 -5.25010000 -107.31869500
43.65098600 -8.37793800 -107.58056600
40.72569300 -11.75933400 -106.95507800
40.02402500 -10.85443300 -104.04953000
39.48476000 -15.41962400 -105.00762900
39.06740600 -14.35223800 -102.41284200
39.37186400 -18.85854300 -102.87103300
39.12953200 -17.67269700 -100.32553100
41.95074800 -16.83448600 -107.41644300
41.20307200 -20.16029900 -105.13446000
41.69931800 -23.50664900 -102.36904900
44.71196400 -21.45498300 -106.80392500
44.76396200 -24.23536900 -103.45706200
46.41988000 -26.64557800 -99.64630100
43.52399100 -26.18694300 -98.78216600
48.71353500 -28.75449800 -95.67169200
45.66864400 -28.24649200 -94.87268100
51.22801200 -30.62676200 -91.23544300
47.95971700 -30.41121300 -90.60385100
53.48075100 -31.52137400 -86.42736800
49.89782000 -31.56959200 -85.68722500
46.61383800 -31.21942500 -84.93295300
51.65644100 -32.46508400 -80.80749500
48.30314300 -32.19736900 -80.02401700
45.56627700 -30.84168600 -79.07022100
44.20629100 -29.16701500 -84.15539600
43.71288300 -28.37133000 -78.18072500
42.10879500 -26.82388300 -83.08538800
41.94265700 -26.94116600 -76.82968100
39.92884800 -25.40636800 -81.43856800
40.02433400 -26.36921300 -75.60556000
44.02362100 -28.53965600 -72.10153200
42.17540000 -27.91195100 -71.09957900
39.86564600 -28.29320000 -70.28167700
45.88002400 -29.93569800 -67.59323100
47.33196600 -31.25949900 -68.61731000
49.21452700 -31.89736600 -64.75531000
47.64690400 -30.48258200 -63.83187900
45.63124500 -29.91017000 -73.29251100
47.34466200 -32.20127900 -74.25405900
49.01250500 -33.09225800 -69.72753900
51.94329500 -33.79079400 -70.75006100
53.84391800 -33.50465400 -67.44610600
51.03041800 -33.22906900 -65.87460300
50.13842000 -33.25371200 -75.21679700
53.56142800 -33.30236400 -76.06744400
55.70349900 -33.58064700 -72.01507600
60.28887900 -33.43652700 -73.67080700
61.92430100 -33.36559700 -71.28173800
57.50569200 -33.12094500 -69.28726200
57.87436300 -32.80648000 -77.32217400
62.67071900 -33.09265100 -79.30123900
64.66925800 -33.37001400 -75.82440200
55.53656000 -32.42322900 -81.78427100
60.15560900 -32.44998600 -83.45858800
63.63084800 -32.33702900 -85.14157100
65.94467200 -32.80876200 -81.13485700
57.49943500 -31.55131100 -87.72296100
61.11825900 -31.57606500 -89.30749500
64.19857800 -31.36557000 -90.87893700
66.44736500 -32.04626500 -86.64740000
54.77079400 -30.47119100 -92.12677000
58.44289400 -30.59195700 -93.62738000
61.79146200 -30.41765600 -95.21908600
64.48758700 -29.39765900 -96.64669800
66.87262000 -30.45589800 -92.25897200
55.78664400 -28.86412400 -97.85388200
59.07628300 -28.99390400 -99.60000600
61.79969000 -28.21640000 -101.25247200
64.12214700 -26.37083200 -102.25622600
66.97328200 -28.16427800 -97.91262800
58.79306800 -25.81107500 -105.33306900
60.84355900 -23.48512800 -105.88256800
62.93176300 -20.95311200 -105.94171100
66.04103100 -23.84831600 -102.42965700
55.04309100 -22.50095900 -107.78964200
57.12236800 -20.50126800 -108.95416300
59.40873300 -17.77039700 -108.91436800
61.75294500 -14.77869200 -107.58840900
64.45892300 -18.10900500 -104.51919600
52.70561600 -17.55444300 -110.14553800
55.28567900 -14.72891600 -110.43585200
58.09874300 -11.68570600 -109.30975300
60.80409200 -8.81271300 -106.41729700
63.75386000 -11.81860000 -104.71453900
50.91145300 -12.20867400 -110.76931800
54.29528000 -9.07033000 -109.97039800
57.92248500 -6.24035500 -107.02227800
63.13259900 -6.21172700 -102.86731000
50.48080400 -6.91925400 -109.17715500
54.94586900 -4.16585000 -106.78283700
52.36233900 -2.34715400 -105.47195400
46.83349200 -10.08743900 -109.79003900
48.12000700 -15.36644700 -110.37170400
43.77722200 -13.45260700 -109.32269300
46.06632200 -18.29574000 -108.71118200
50.62501500 -20.00136400 -108.92529300
64.43981200 -4.40583600 -99.56152300
65.86084000 -9.48067000 -101.07916300
66.11548600 -15.22133300 -102.09008800
68.04686700 -18.32425100 -99.12793000
67.22767600 -20.95206500 -101.28662100
70.39985700 -20.41138800 -96.32104500
69.62828800 -23.10531800 -97.63467400
68.66239900 -25.85151700 -98.24749800
72.04543300 -24.82387200 -93.95669600
71.03810900 -27.32201600 -93.99679600
69.25432600 -29.26380200 -93.40545700
72.95847300 -28.45583700 -89.65634200
71.11351000 -29.93631200 -88.87185700
68.96069300 -31.09061800 -87.87994400
72.89628600 -30.49200800 -84.48547400
70.94750200 -31.63704700 -83.62057500
68.71527100 -32.47358300 -82.61987300
72.95269000 -32.16843000 -80.21743800
70.92936700 -32.72073400 -79.13552900
68.17858900 -33.05730400 -77.66732800
66.21866600 -33.31411000 -73.24008200
67.62648800 -33.11280800 -71.15930200
63.34077500 -33.17810800 -69.16299400
68.88290400 -32.93799200 -69.37686200
64.58180200 -33.11862200 -67.30899000
60.44455000 -32.70406700 -65.29657000
59.08608200 -32.82632800 -67.24173000
57.22143900 -31.48496600 -63.31201200
55.63048200 -32.40539200 -65.06317100
55.12467600 -30.57523300 -61.20367400
53.14260100 -31.87327600 -63.29180900
53.69626600 -29.00879900 -59.98602300
51.45223200 -30.46079600 -61.97680700
52.64749900 -27.87490800 -58.79260300
50.04800000 -29.22682200 -60.89935300
51.85813900 -27.39140900 -57.45559700
54.70058800 -26.18004600 -56.01977500
54.47428500 -26.10158700 -54.10525500
51.35081900 -27.40455200 -55.23696900
55.20564300 -26.73186900 -57.35379000
57.28824200 -25.11606600 -57.22479200
57.09852600 -24.57523000 -55.71731600
55.96190600 -27.77998400 -58.55841100
57.82383300 -26.02243200 -58.48175000
58.96483600 -27.43006700 -59.45730600
60.08046000 -25.03399500 -60.22039800
59.32981900 -23.99751100 -59.04986600
59.10307300 -23.08898000 -57.73776200
57.16040800 -29.34206000 -59.69238300
58.91940300 -30.41223900 -61.93258700
60.41798400 -28.54604900 -61.44799800
62.83470200 -29.28883600 -63.72525000
63.77429200 -26.87791400 -63.68646200
61.50244900 -26.09477600 -61.79281600
61.80330700 -31.39352000 -64.05032300
65.56612400 -31.91243400 -66.08789100
66.28344000 -29.79610400 -65.60089100
70.10607900 -29.85661500 -67.63992300
70.69612100 -27.73076600 -67.25372300
67.02775600 -27.44149600 -65.31506300
69.75194500 -31.91273900 -67.96771200
73.80658000 -31.55038100 -70.05725100
73.94915800 -29.75362200 -69.78756700
76.94966900 -29.63854000 -73.31988500
77.26861600 -28.22318300 -73.34121700
74.03333300 -27.84282300 -70.00509600
76.07722500 -31.44516400 -73.45852700
75.87439000 -31.25146900 -77.21344000
77.07766700 -29.78891000 -77.34491000
77.53009000 -28.40842800 -77.49438500
74.82189200 -31.20594800 -80.78628500
76.17915300 -30.00655900 -81.26962300
76.67117300 -28.24798400 -81.36123700
76.62779200 -26.41856200 -81.22711200
77.41539000 -26.85023900 -77.52392600
74.41158300 -29.19485500 -85.14913900
75.21148700 -27.36737600 -85.43429600
75.45089700 -25.22262600 -85.41851800
75.29667700 -22.94622600 -85.17715500
76.41389500 -24.39368100 -81.00787400
73.62110100 -26.12956400 -89.74984700
73.91494800 -23.75919900 -89.62329100
73.46659900 -21.45580700 -89.05429100
72.78010600 -19.38299600 -87.63467400
74.50272400 -20.73151800 -84.68856800
72.54354900 -22.12001000 -93.31494100
72.39071700 -19.65100300 -91.79931600
71.44181800 -17.92360900 -89.64703400
70.26676900 -16.73590100 -86.98709100
70.41917400 -18.10697900 -94.09829700
70.32344800 -16.23054100 -90.96838400
69.12142200 -15.61911600 -87.43548600
66.65085600 -15.17169000 -82.78286700
67.78436300 -16.08369100 -83.04620400
68.57780500 -16.55121000 -83.83734100
67.42726100 -16.65073800 -77.33367900
68.61517300 -17.39069600 -77.47341900
70.38188200 -18.02668200 -78.18658400
72.03698700 -19.15761400 -79.02026400
69.12665600 -17.27562000 -72.46676600
71.20209500 -18.04149100 -73.60147100
69.28369100 -18.07085000 -68.50317400
71.71324200 -19.29594000 -70.30056800
69.20158400 -19.86598600 -65.57321200
72.17750500 -21.06451800 -67.82522600
68.72595200 -22.13718200 -64.96865800
72.20710000 -23.09962700 -66.93814100
74.90105400 -23.74334000 -70.57492100
77.39328000 -24.59158100 -73.75692700
71.38350700 -25.36096800 -66.91101100
74.18382300 -25.85157600 -70.39990200
77.46360800 -26.70774500 -73.51004000
77.34847300 -25.07462700 -77.56655900
76.04139700 -22.12791800 -80.66983000
74.11407500 -20.38156100 -80.07562300
67.87146000 -24.78190800 -65.18209800
66.14170100 -21.93938100 -63.70224000
64.77134700 -24.32122600 -63.80777000
64.13462100 -21.33450500 -62.66540500
62.81414800 -23.62937900 -62.24328600
62.86140400 -20.51198200 -61.85049400
61.52307500 -22.68804600 -60.95010400
62.29542900 -19.61495000 -60.95956400
60.84950600 -21.77760700 -59.89816300
62.39700700 -18.76277000 -59.67288200
60.80940600 -20.97748000 -58.52087400
62.58149700 -17.85471300 -58.21044900
60.92695600 -20.20310000 -56.92733800
59.10784900 -22.49322900 -56.12289400
61.25398300 -19.56382600 -54.84780900
59.23334100 -21.93000400 -54.09500100
57.01174200 -24.19931600 -53.78942900
59.82965900 -21.62148700 -51.48400900
57.33540000 -24.05472800 -51.09274300
54.44876100 -26.09868200 -51.26605200
58.20462800 -23.98968900 -47.40899700
54.97354900 -26.16950000 -47.23620600
51.35559800 -28.03986200 -47.52533000
51.02359400 -27.41546600 -51.89306600
47.37200200 -29.36776200 -48.14132700
47.62456500 -29.18705200 -53.07601900
43.05718200 -30.36372000 -48.73742700
43.19600300 -29.87641900 -54.24014300
38.44015900 -31.51345100 -49.24414100
38.25760300 -30.75329600 -54.46881100
33.39253200 -31.82286100 -49.35278300
33.11386100 -31.69874200 -54.33987400
32.84642000 -31.00931500 -59.16165200
27.51052300 -32.50418100 -54.01519800
28.03672600 -32.66812500 -49.25256300
22.52541500 -33.27224000 -48.95608500
28.84170200 -33.83133300 -44.65155000
23.41023300 -33.99057800 -44.31054700
18.00962800 -34.10668600 -43.70797700
24.35616500 -34.79294600 -39.64798000
18.99658200 -35.44956200 -39.11456300
13.90199500 -35.37586200 -38.07098400
20.22685600 -35.87069300 -34.24411000
15.14573300 -35.19695300 -33.10302700
11.02033000 -35.29468500 -31.85049400
16.67073100 -36.19557600 -28.47604400
12.68112000 -35.80177700 -27.30419900
9.53805500 -36.30810500 -26.38085900
14.63380400 -36.34394500 -22.83163500
11.40993300 -37.11056900 -21.98629800
8.30840300 -37.42673900 -20.59918200
13.47030400 -37.62564100 -17.05224600
9.95171700 -37.45243500 -15.61044300
16.02856400 -37.93762600 -12.42596400
12.90907700 -37.95598600 -11.09390300
18.35683300 -39.17951600 -8.25882000
15.59127200 -39.35773500 -7.11773700
17.87124300 -38.43263200 -2.57971200
15.37725600 -38.72145500 -1.21795700
20.07648300 -38.80507300 1.20727500
17.81637200 -39.37804400 2.72503700
15.26233500 -39.37588500 4.60409500
20.22089200 -38.87201700 5.80044600
18.06239500 -39.10870400 7.82894900
15.71504600 -38.88964500 10.34826700
12.55773500 -39.10629300 7.02914400
13.06742100 -38.58935200 13.44183300
9.77417000 -39.18650800 10.23642000
10.69401200 -38.22179400 17.13937400
16.62729600 -37.41553500 15.81900000
14.59754400 -37.15845900 19.41564900
12.76166700 -35.92587700 23.14450100
18.71176100 -36.13662300 21.10986300
17.06978600 -35.54142800 24.88235500
11.44661500 -33.88979300 26.83346600
23.10163300 -36.22619200 22.71920800
21.47323000 -35.45361300 26.36251800
27.43354000 -35.28838700 24.14114400
25.45746400 -34.03759800 27.57077000
31.55955100 -34.23621700 25.69104000
29.30353200 -33.41599300 29.18707300
35.24021100 -33.50418500 27.82128900
32.47730300 -32.56322100 30.90118400
38.52686700 -32.21553800 30.28903200
35.50357100 -31.07154800 32.86431900
32.79665400 -30.70821800 36.16790800
38.62322600 -30.37461100 35.31094400
35.81613500 -29.26748800 37.66937300
33.31415600 -27.38297300 40.51467900
38.47201900 -28.41922800 40.35702500
36.14579800 -26.45908500 42.32122800
33.82434100 -25.11375400 45.00482200
30.98337900 -25.88938300 43.31835900
31.20882200 -22.06344000 47.35672000
36.59098800 -24.45313800 46.87716700
34.24108100 -21.39724300 49.03521700
30.84248700 -19.40147200 52.38272100
36.47301900 -22.07912400 50.87973000
33.80108600 -19.58590900 53.59603900
31.61876900 -16.43124600 56.12545800
28.16089100 -15.81885900 54.88125600
29.82355100 -13.64501700 59.07373000
26.06354700 -12.20688000 57.69265700
29.30336400 -9.97525500 61.60165400
25.07192600 -8.87893600 60.70709200
29.42087400 -6.71412300 64.53503400
24.60254900 -5.57852400 64.23739600
20.27492500 -4.58190700 62.97009300
24.80200400 -1.23533600 67.76144400
