5.81326389 0.23833813 -4.26177120
5.86671591 0.22910939 -4.06523800
5.79975891 0.10137381 -4.25555658
5.85624266 0.08963782 -4.06054354
5.89374447 0.08032006 -3.86195660
5.84661388 -0.04309445 -4.05604458
5.88969898 -0.05272323 -3.85917377
5.93011665 0.07499456 -3.66326308
5.92015076 -0.05843130 -3.65983987
5.96998453 0.06992682 -3.46546721
5.96350241 -0.06106285 -3.46311975
6.00865030 0.06757067 -3.26827598
6.00562763 -0.06012948 -3.26679993
6.04407215 0.06661051 -3.07086229
6.04043484 -0.05900923 -3.06919098
6.07700348 0.06398743 -2.87328887
6.07009506 -0.06003146 -2.87089729
6.11051369 0.05776383 -2.67592883
6.10364962 -0.06532169 -2.67373276
6.13362122 -0.07474595 -2.47663927
6.08804655 -0.18060109 -2.66982055
6.12440968 -0.19191922 -2.47467446
6.14376497 -0.19784945 -2.27731419
6.11083412 -0.29992566 -2.47188258
6.13001156 -0.30437106 -2.27496696
6.13430500 -0.30340207 -2.07612228
6.09578133 -0.39774337 -2.27006817
6.10253811 -0.39318234 -2.07176566
6.14916182 -0.30572259 -1.87683260
6.12011623 -0.39682764 -1.87328517
6.16985178 -0.31057701 -1.67852128
6.14756250 -0.40384251 -1.67602277
6.16568184 -0.40779001 -1.48052990
6.16568184 -0.40779001 -1.48052990
6.14756250 -0.40384251 -1.67602277
6.11085176 -0.48559415 -1.67267990
6.12837505 -0.48875073 -1.47741807
6.15579462 -0.40225998 -1.28453898
6.12553024 -0.48240265 -1.28251183
6.06513405 -0.54957312 -1.47259903
6.07357216 -0.54695040 -1.27941787
6.11438942 -0.47995764 -1.08692980
6.07022905 -0.54815948 -1.08482265
6.15053177 -0.40344229 -1.08864582
6.10998869 -0.48329160 -0.89203250
6.06675243 -0.55376071 -0.89010310
6.14926910 -0.40829703 -0.89336610
6.11378527 -0.49510762 -0.69779307
6.06435204 -0.56176257 -0.69773084
6.15269184 -0.42031723 -0.69904673
6.12278318 -0.51450759 -0.50646985
6.07236242 -0.58257616 -0.50705659
6.16101360 -0.43761003 -0.50614089
6.06507206 -0.58243406 -0.31676480
5.99041557 -0.61321425 -0.50686991
5.98819256 -0.61585498 -0.31757385
5.97897243 -0.59831321 -0.12805547
5.90004826 -0.61821997 -0.31810731
5.89812803 -0.61160493 -0.12928241
5.89065075 -0.60562146 0.05921349
5.80450678 -0.61877108 -0.13098946
5.80033684 -0.61236978 0.05592385
5.79245949 -0.61209404 0.24257934
5.69360161 -0.61811310 0.23658688
5.70267963 -0.62061137 0.05216300
5.68181229 -0.62406129 0.42017502
5.56995583 -0.61296535 0.41203094
5.58077621 -0.62035358 0.22984758
5.55558825 -0.61960679 0.59377867
5.44391870 -0.61357003 0.40384242
5.43157768 -0.61300093 0.58439875
5.41568995 -0.62371433 0.76471502
5.29339552 -0.61591703 0.57431650
5.27590704 -0.61904681 0.75307691
5.39939308 -0.62031800 0.94558251
5.25831223 -0.61874431 0.93157053
5.24364233 -0.61636168 1.10989523
5.38298035 -0.63149405 1.12503636
5.22509575 -0.62399006 1.28705525
5.36478949 -0.62838221 1.30407250
5.34082842 -0.62070936 1.48148131
5.19915199 -0.62083387 1.46241939
5.31758785 -0.60799527 1.65867698
5.17142153 -0.60624385 1.63623643
5.28475380 -0.60894662 1.83382773
5.14107704 -0.61063600 1.80951989
5.10891819 -0.61734861 1.98130095
5.25472021 -0.61064476 2.00899625
5.21752071 -0.62187403 2.18300867
5.07307053 -0.62323445 2.15317082
5.17683601 -0.61789095 2.35672808
5.03263474 -0.62702185 2.32470298
5.13299513 -0.61645055 2.53069615
4.98779774 -0.62054050 2.49519491
5.08740234 -0.62914670 2.70319724
4.94215202 -0.62093151 2.66557121
4.89647055 -0.62427467 2.83507609
5.04135656 -0.62619495 2.87601852
4.84921551 -0.62638187 3.00396752
4.99556828 -0.61837089 3.04818201
4.80305386 -0.62289631 3.17349029
4.94946909 -0.61179185 3.22030067
4.75706100 -0.62440795 3.34300399
4.90378761 -0.61637050 3.39339781
4.71170855 -0.62569708 3.51300693
4.85962677 -0.61749077 3.56778383
4.66332436 -0.61783737 3.68304515
4.81158018 -0.61681515 3.74122715
4.61076117 -0.61009365 3.85272813
4.75843954 -0.61128479 3.91456413
4.55436659 -0.61926895 4.02168179
4.70033741 -0.61019135 4.08641624
4.49426413 -0.62607050 4.18827057
4.63697195 -0.61339200 4.25809956
4.42903137 -0.62074500 4.35506392
4.56885004 -0.61042261 4.42787123
4.35964680 -0.61445898 4.52038097
4.49853182 -0.60740852 4.59761620
4.28791523 -0.60727525 4.68378687
4.42445278 -0.60599488 4.76558304
4.21286678 -0.60973787 4.84857082
4.34771538 -0.61188948 4.93362999
4.13509846 -0.62668407 5.00935411
4.26604366 -0.61731303 5.09919643
4.05091953 -0.63056946 5.16869640
4.18159771 -0.62390125 5.26492262
3.96310425 -0.61875343 5.32575417
4.09508944 -0.61980247 5.42828417
3.87255907 -0.63528144 5.48070478
4.00259733 -0.62371433 5.59069395
3.77693748 -0.63401908 5.63415241
3.90597129 -0.63037378 5.74920988
3.67607045 -0.64028710 5.78414202
3.80101418 -0.63276517 5.90417767
3.56616092 -0.64625293 5.92947245
3.68895316 -0.63332546 6.05385637
3.44964600 -0.63658857 6.06757450
3.56825042 -0.63274753 6.19731998
3.32661366 -0.64401245 6.19921398
3.44096828 -0.64540809 6.33401775
3.19874501 -0.64601284 6.32560682
3.30948091 -0.64304310 6.46503305
3.06533670 -0.64406568 6.44601583
3.17214322 -0.63881105 6.58925676
2.92760801 -0.64651072 6.56109142
3.02904415 -0.64190525 6.70866156
2.78489137 -0.65565956 6.66895533
2.87941933 -0.65053827 6.81928253
2.72537565 -0.64345217 6.92366123
2.63634205 -0.65025365 6.77099562
2.56577516 -0.64750648 7.02192450
2.48334765 -0.65223640 6.86689377
2.40162253 -0.65852243 7.11394405
2.32575631 -0.65334785 6.95618391
2.23345995 -0.65709084 7.20059538
2.16551590 -0.66388351 7.04174232
2.06202579 -0.66118073 7.28135109
1.99943388 -0.66090500 7.12005281
1.88926673 -0.65557039 7.35574150
1.83141375 -0.66312790 7.19187355
1.71392047 -0.65589052 7.42412138
1.66156197 -0.65796214 7.25827074
1.53565812 -0.65523255 7.48386812
1.48858070 -0.66452354 7.31771469
1.35453260 -0.65733975 7.54204082
1.31328773 -0.66839135 7.37266970
1.17148685 -0.65819341 7.59477377
1.13683903 -0.66644418 7.42241478
0.95747399 -0.66302103 7.46333933
0.98668951 -0.65641522 7.63750267
0.77539742 -0.67165405 7.49564934
0.79829144 -0.65958029 7.67036295
0.59098238 -0.67245448 7.51783991
0.60935098 -0.66367018 7.69272470
0.41876569 -0.66489697 7.70710897
0.40794551 -0.67430359 7.53303576
0.22421509 -0.67393899 7.54220104
0.22860721 -0.66812438 7.71825933
0.03925778 -0.67102289 7.54486799
0.03835091 -0.66711980 7.72108650
-0.14542393 -0.67215192 7.54312611
-0.15318571 -0.67223197 7.72096205
-0.33054128 -0.67313892 7.53436899
-0.34339753 -0.67064947 7.71252489
-0.51381826 -0.67552185 7.51953030
-0.53250694 -0.68228775 7.69753408
-0.69668621 -0.67553949 7.49861908
-0.72018492 -0.67646402 7.67601919
-0.87824726 -0.69799805 7.47223902
-0.90820956 -0.69153428 7.64682007
-1.09577191 -0.68971163 7.60987854
-1.05979049 -0.69932246 7.43816948
-1.28281856 -0.69645077 7.56365490
-1.24085355 -0.69964260 7.39403534
-1.46758914 -0.70586622 7.51153660
-1.41881382 -0.70693320 7.34280586
-1.64832342 -0.70395470 7.45157576
-1.59365320 -0.71034724 7.28568172
-1.82453203 -0.70671988 7.38379240
-1.76376283 -0.71387684 7.22017336
-1.99661541 -0.71657997 7.31041574
-1.93113399 -0.71985185 7.14854002
-2.16656494 -0.71313000 7.23236275
-2.09555340 -0.71457928 7.07277107
-2.33291364 -0.72885829 7.14951658
-2.25762534 -0.72220767 6.99161434
-2.49591923 -0.72680432 7.06250143
-2.41660357 -0.72622639 6.90764046
-2.65694237 -0.73181880 6.97179747
-2.57226539 -0.73706460 6.81924725
-2.81461334 -0.73352581 6.87518024
-2.72603345 -0.74118102 6.72438955
-2.96945739 -0.73257446 6.77400970
-2.87596059 -0.73150778 6.62525654
-3.11901140 -0.72513294 6.66565609
-3.02148700 -0.72975600 6.51994324
-3.26374602 -0.72337234 6.55126667
-3.16205192 -0.72627997 6.40855885
-3.40266633 -0.73180997 6.43153191
-3.29834056 -0.73172992 6.29307461
-3.53710556 -0.73329484 6.30541611
-3.42862773 -0.73795354 6.17094946
-3.66515207 -0.74340349 6.17181206
-3.55368733 -0.74633759 6.04396105
-3.78955364 -0.74543071 6.03506947
-3.67479897 -0.74674660 5.91195822
-3.90953636 -0.75257033 5.89466524
-3.78978491 -0.74992085 5.77630854
-4.02558899 -0.74479067 5.75231266
-3.90153456 -0.75100547 5.63743353
-4.13796139 -0.75125444 5.60748863
-4.00850105 -0.75007176 5.49415636
-4.24028683 -0.74666661 5.45153379
-4.10956383 -0.75166345 5.34572315
-4.33671713 -0.74876499 5.29301786
-4.20277596 -0.74606222 5.19303942
-4.42505693 -0.75120997 5.12916756
-4.28894663 -0.75412607 5.03405237
-4.50769806 -0.75170785 4.96155643
-4.36880445 -0.75436622 4.87090492
-4.58372402 -0.74799132 4.79101992
-4.44322109 -0.75053406 4.70597839
-4.65572262 -0.74717331 4.61920309
-4.51319265 -0.74901390 4.53869629
-4.72196007 -0.74304807 4.44541311
-4.57964325 -0.74395502 4.36968899
-4.78528976 -0.74106532 4.27076054
-4.64312410 -0.74536860 4.20077133
-4.84176493 -0.74608868 4.09446239
-4.70126200 -0.74334145 4.02944374
-4.89354563 -0.73499298 3.91683149
-4.75323820 -0.73924267 3.85590219
-4.94400120 -0.73754454 3.74024057
-4.80115986 -0.74149203 3.68084908
-4.98834038 -0.74011397 3.56195998
-4.84392500 -0.74284357 3.50568080
-5.02640200 -0.74067432 3.38184834
-4.88327646 -0.73973179 3.32964993
-5.06280994 -0.74087882 3.20254564
-4.92124033 -0.74431044 3.15402794
-5.09812498 -0.73894048 3.02398086
-4.95644808 -0.74719125 2.97831726
-5.13269281 -0.74524415 2.84576273
-4.98800182 -0.74827588 2.80196643
-5.26140594 -0.73953605 2.88542509
-5.29422235 -0.73785585 2.70565128
-5.16255713 -0.74005193 2.66762495
-5.32206917 -0.74120748 2.52604628
-5.19108820 -0.73995394 2.49117613
-5.34891891 -0.74164325 2.34955287
-5.21893406 -0.74760914 2.31686115
-5.37291574 -0.74282593 2.17289090
-5.24454021 -0.73988301 2.14313316
-5.26501608 -0.73022747 1.96764445
-5.39074230 -0.73394364 1.99419284
-5.28155279 -0.72392380 1.79000437
-5.40408754 -0.72718656 1.81351197
-5.29774284 -0.72749788 1.61218643
-5.42285585 -0.72921371 1.63355136
-5.31027889 -0.74456853 1.43669808
-5.43064451 -0.73629981 1.45431972
-5.31462717 -0.73276132 1.26131618
-5.43505430 -0.72781807 1.27700853
-5.31716061 -0.72766680 1.08628106
-5.43833447 -0.72758675 1.10042644
-5.32174015 -0.71721995 0.91173494
-5.44214869 -0.71323687 0.92363095
-5.54840469 -0.71309477 0.93405104
-5.44791031 -0.71574396 0.74864036
-5.55474329 -0.71151191 0.75697112
-5.44242477 -0.71601969 0.57424539
-5.55188084 -0.71687335 0.58106470
-5.43574762 -0.71395689 0.40038386
-5.54778194 -0.70904922 0.40615407
-5.64338589 -0.71562862 0.41089290
-5.54210091 -0.71104079 0.23159020
-5.64287043 -0.71352142 0.23545773
-5.53561020 -0.70545721 0.05739084
-5.63960695 -0.70944947 0.06060935
-5.53080893 -0.69770432 -0.11555488
-5.63318777 -0.69745535 -0.11278093
-5.73045397 -0.69566834 -0.11050487
-5.62754250 -0.69352585 -0.28724700
-5.72289753 -0.69981152 -0.28628677
-5.61754847 -0.69581962 -0.46187308
-5.71404171 -0.70228332 -0.46253106
-5.60599947 -0.69321448 -0.63494331
-5.70399570 -0.69653964 -0.63791287
-5.79320574 -0.69081390 -0.64051789
-5.69407320 -0.69494832 -0.81223673
-5.78582716 -0.69127619 -0.81655765
-5.87379313 -0.68165624 -0.82017618
-5.77633190 -0.68828887 -0.99205512
-5.85954142 -0.66795552 -0.99610937
-5.92907619 -0.62290543 -0.99883884
-5.84338665 -0.65736657 -1.17215788
-5.91018343 -0.61212081 -1.17568767
-5.97506905 -0.55276495 -0.99888325
-5.96311188 -0.54753715 -1.17737687
-5.89688301 -0.60956895 -1.35357666
-5.94775724 -0.54222047 -1.35597730
-5.94775724 -0.54222047 -1.35597730
-5.99470139 -0.46549210 -1.35796881
-5.96311188 -0.54753715 -1.17737687
-5.92023897 -0.52894640 -1.53308403
-5.97147799 -0.45627201 -1.53626680
-5.90115929 -0.52741712 -1.71091080
-5.95622969 -0.45647654 -1.71549845
-5.87224627 -0.52170020 -1.88811517
-5.92093229 -0.44793239 -1.89284527
-5.84953880 -0.51506758 -2.06744456
-5.90249300 -0.44560304 -2.07363272
-5.83251333 -0.50803506 -2.24942350
-5.88073778 -0.43336916 -2.25570941
-5.90485764 -0.33628947 -2.25748754
-5.84746742 -0.41399595 -2.43577671
-5.86886835 -0.31646281 -2.43803501
-5.88037300 -0.20921202 -2.43815947
-5.84390211 -0.29998806 -2.62062740
-5.85061502 -0.19116324 -2.62097406
-5.86900139 -0.07347444 -2.62286782
-5.82881498 -0.17267016 -2.80486465
-5.84276390 -0.05523946 -2.80638480
-5.85466051 0.07117154 -2.80797648
-5.81411695 -0.03685287 -2.98998189
-5.82624531 0.08934445 -2.99204445
-5.83925152 0.22471726 -2.99476504
-5.79263735 0.10677935 -3.17633533
-5.80624056 0.24281015 -3.17994499
-5.82275057 0.38285965 -3.18465686
-5.77003717 0.25518629 -3.36541772
-5.78833389 0.40039238 -3.37151694
-5.81069422 0.55734348 -3.37903881
-5.75154305 0.41147938 -3.55862570
-5.77258873 0.56987971 -3.56720543
-5.78884935 0.73433453 -3.57510972
-5.72800970 0.58268249 -3.75538135
-5.74363947 0.74679953 -3.76406765
-5.75566053 0.91249025 -3.77211428
-5.69977236 0.75802881 -3.95457292
-5.70963240 0.92378181 -3.96274376
-5.72615099 1.08760548 -3.97288823
-5.65424156 0.93461984 -4.15174627
-5.66998768 1.09883475 -4.16263771
-5.68941402 1.25718164 -4.17408943
-5.61400175 1.11023271 -4.35339212
-5.62602139 1.27273166 -4.36327887
-5.63868237 1.41686213 -4.37217855
-5.56504774 1.28416538 -4.55377531
-5.57503271 1.42885578 -4.56232786
-5.58897352 1.54475760 -4.57078314
-5.50318480 1.43928480 -4.74938393
-5.51987362 1.54960322 -4.75930595
-5.53143167 1.65155506 -4.76722765
-5.44877243 1.54959416 -4.94819307
-5.45819712 1.64766085 -4.95559025
-5.46627903 1.74178886 -4.96200943
-5.38592339 1.64341998 -5.14442396
-5.39556980 1.73608077 -5.15180349
-5.40319824 1.82300711 -5.15865803
-5.31361389 1.73134196 -5.33785439
-5.31902790 1.82053554 -5.34392691
-5.32847929 1.90394974 -5.35136890
-5.23574734 1.82183349 -5.53070736
-5.24069977 1.90784395 -5.53630781
-5.27198648 1.97984254 -5.55423212
-5.15553331 1.91517901 -5.72315025
-5.18939877 1.98399460 -5.74303961
-5.23835182 2.03820252 -5.77047634
-5.14907885 2.04546618 -5.95897245
-5.10230350 1.99061823 -5.93145561
-5.20681620 2.08217669 -5.99182367
-5.11327457 2.08409715 -6.18103218
-5.05809832 2.04864025 -6.14747667
-5.17535114 2.09867811 -6.21893406
-5.06846476 2.09833169 -6.40533924
-5.00765085 2.08547544 -6.36574030
-5.12999868 2.10499978 -6.44603348
-5.01327896 2.10255456 -6.63070631
-4.95186090 2.09688234 -6.58807516
-5.07236814 2.10184336 -6.67214632
-4.94457006 2.09911394 -6.85243607
-4.88621044 2.09665108 -6.80848885
-5.00131178 2.09734464 -6.89495325
-4.86142254 2.09613562 -7.07067251
-4.80628967 2.09769130 -7.02556944
-4.91620827 2.09330821 -7.11474466
-4.71734571 2.09456182 -7.24283600
-4.77242470 2.09193897 -7.28993988
-4.82747698 2.08974290 -7.33703470
-4.68147945 2.08643556 -7.51497746
-4.62752104 2.08933401 -7.46518850
-4.73304653 2.08518195 -7.56203651
-4.58038998 2.08139420 -7.73896599
-4.52875185 2.08379483 -7.68869686
-4.62996578 2.08402610 -7.78784847
-4.47089863 2.08337688 -7.96419048
-4.42210531 2.08271909 -7.91234779
-4.51587772 2.07969618 -8.01092911
-4.30130482 2.08138537 -8.13181019
-4.34334087 2.07969618 -8.18047047
-4.38207006 2.07468176 -8.22536850
-4.16282940 2.07815790 -8.34196377
-4.19841051 2.07369471 -8.38776112
-4.23257828 2.06451941 -8.43081951
-4.01019907 2.07294798 -8.54156399
-4.04071283 2.06437731 -8.58491707
-4.07015038 2.05168104 -8.62549400
-3.84424162 2.06446600 -8.72726822
-3.87027407 2.04924488 -8.76818466
-3.89316821 2.02369237 -8.80307198
-3.66738367 2.04712892 -8.90477562
-3.68922877 2.02417254 -8.94275761
-3.70308089 1.98435020 -8.96819496
-3.48919249 1.98253632 -9.09632111
-3.47767901 2.02150536 -9.07263565
-3.49244666 1.93408990 -9.10580826
-3.27273464 1.93889987 -9.22831631
-3.26844931 1.98542595 -9.21592140
-3.27060080 1.88487887 -9.22836876
-3.04343843 1.89111149 -9.33851719
-3.04402518 1.94674170 -9.33484650
-2.81480026 1.94936454 -9.43912697
-3.04035354 1.99453020 -9.32283497
-2.81027460 1.99860239 -9.42331028
-2.57729745 1.99815774 -9.51320648
-2.79887676 2.03332138 -9.39179325
-2.56702876 2.03405929 -9.48081684
-2.33413172 2.03511715 -9.56486225
-2.55355906 2.05885601 -9.44088840
-2.32146215 2.06025171 -9.52289772
-2.08854723 2.06183434 -9.59986687
-2.10079908 2.03921580 -9.64620590
-1.85527670 2.06499076 -9.67013931
-1.86567914 2.03621984 -9.71739483
-1.61951697 2.06214547 -9.72851658
-1.60938132 2.08054972 -9.67085934
-1.84320295 2.08071876 -9.61546898
-1.37601304 2.08440828 -9.71995544
-1.36602843 2.09422398 -9.65661621
-1.59824109 2.09064984 -9.60971737
-1.13358498 2.09473085 -9.69506931
-1.12581432 2.10141659 -9.62842369
-1.35556400 2.09698009 -9.59121513
-0.89611799 2.10364819 -9.65863514
-0.88996542 2.10273266 -9.58827305
-1.11708343 2.10192323 -9.55915546
-0.66205621 2.10408401 -9.60924625
-0.65790415 2.10530210 -9.53593159
-0.88358182 2.10554194 -9.51567745
-0.43209314 2.10683131 -9.54468918
-0.65320081 2.10858274 -9.46109676
-0.42954147 2.11118793 -9.46708107
-0.20699340 2.11032534 -9.54222679
-0.20654884 2.11483312 -9.46395111
-0.42702532 2.11702895 -9.38932133
-0.20617543 2.12034535 -9.38566589
-0.20654884 2.11483312 -9.46395111
-0.20617543 2.12034535 -9.38566589
0.01324300 2.12509298 -9.37447262
-0.20536636 2.12410617 -9.30755997
0.01241617 2.12799168 -9.29706001
0.22873168 2.12904048 -9.28572369
0.01038014 2.12648010 -9.22244740
0.22601996 2.12756491 -9.21208096
0.44025502 2.12872052 -9.20210552
0.43572956 2.12162566 -9.13503170
0.22285479 2.12172341 -9.14266968
0.64839095 2.12696910 -9.12458515
0.64274520 2.11110783 -9.06186008
0.43127519 2.10479522 -9.07226276
0.85428631 2.11485076 -9.05007076
0.84728032 2.08705783 -8.99304390
0.63716173 2.08137655 -9.00506496
1.05666089 2.08701348 -8.97320843
1.04937029 2.04537749 -8.92523384
0.84177679 2.03809571 -8.94973755
1.25662601 2.04116297 -8.89741421
1.24987781 1.98040271 -8.86360168
1.04420471 1.98069608 -8.89310169
1.45554221 1.97171628 -8.82889175
1.45110559 1.89176035 -8.81208801
1.24498785 1.89742398 -8.84154415
1.65310669 1.88382089 -8.76381111
1.44791377 1.79865491 -8.80266380
1.64992368 1.79091978 -8.75740051
1.85699272 1.86976433 -8.72287655
1.85248518 1.78234911 -8.71255398
2.05114341 1.77281797 -8.65219402
2.05744696 1.85871291 -8.66822433
2.24815679 1.75977504 -8.58756638
2.25438023 1.84639013 -8.59965801
2.44699264 1.74632311 -8.52705479
2.45190930 1.83463645 -8.53504848
2.64087653 1.73966384 -8.45302010
2.64397955 1.82740808 -8.45689583
2.82954121 1.73504055 -8.36509895
2.83338237 1.82848394 -8.36985493
3.01465869 1.73172426 -8.26953793
3.02050924 1.82807493 -8.27830505
3.19914484 1.72943926 -8.17159653
3.20653319 1.82933736 -8.18323517
3.38543558 1.73077285 -8.07569981
3.39140153 1.83325827 -8.08440399
3.56312037 1.73408031 -7.96427059
3.56645417 1.83665466 -7.96845675
3.74044919 1.83844161 -7.84932899
3.73567486 1.73231995 -7.84248161
3.90799832 1.72480702 -7.72088194
3.91472864 1.82887518 -7.72984362
4.06493139 1.72045946 -7.57842207
4.05942774 1.61886322 -7.57099056
3.89804935 1.61715615 -7.70787430
4.22230053 1.61598253 -7.43504000
4.21758795 1.50743365 -7.42934036
4.05393362 1.50552213 -7.56388569
4.37048483 1.50175238 -7.28186655
4.35939789 1.35965800 -7.26942873
4.20639420 1.36033368 -7.41635895
4.50503969 1.35644841 -7.11503744
4.34864902 1.19282019 -7.25735474
4.49905634 1.19074881 -7.10744572
4.63554049 1.18881047 -6.94439507
4.49023628 1.02026570 -7.09646511
4.63199282 1.01929677 -6.93806458
4.77162457 1.18702352 -6.78106022
4.76157761 1.01850533 -6.76967955
4.89471912 1.18562770 -6.60741282
4.87861776 1.01796305 -6.59219933
5.01028299 1.18416059 -6.42877674
4.99486589 1.01678956 -6.41428375
5.11931181 1.18187571 -6.24677896
5.10898972 1.01497567 -6.23566532
5.21825886 1.18016851 -6.05901289
5.21465778 1.01413095 -6.05197191
5.30795908 1.17947507 -5.86724472
5.30619860 1.01497567 -5.86151934
5.39533854 1.01670051 -5.67044497
5.29451609 0.84942722 -5.85085917
5.38757706 0.85174775 -5.66183901
5.48184681 0.85421056 -5.47424984
5.37433863 0.68616366 -5.65073395
5.46824408 0.68925768 -5.46349144
5.54396772 0.69364083 -5.26856756
5.45230246 0.52641201 -5.45194244
5.53274775 0.53193319 -5.26033449
5.60016727 0.53675216 -5.06402349
5.51002216 0.38014787 -5.24708748
5.58335447 0.38425547 -5.05331898
5.65489912 0.38716274 -4.85956860
5.57169867 0.24375267 -5.04500628
5.65087175 0.24441047 -4.85445642
5.70838690 0.24512185 -4.65693617
5.63774014 0.11158933 -4.84625006
5.70278549 0.10865559 -4.65179729
5.75212097 0.10800644 -4.45414352
5.69342327 -0.01876000 -4.64671183
5.74208355 -0.02203189 -4.44863129
5.78778315 -0.02841557 -4.24981308
5.73185921 -0.14624648 -4.44270086
5.77373505 -0.15282586 -4.24357176
5.83823013 -0.17010984 -4.05204391
5.74605846 -0.26585594 -4.23353386
5.81557560 -0.28302425 -4.04424667
5.88574219 -0.18236133 -3.85642648
5.85744286 -0.29020804 -3.84788251
5.90717888 -0.18319704 -3.65559006
5.88749361 -0.29366645 -3.64935732
5.95497608 -0.18610431 -3.46007919
5.94204855 -0.30231744 -3.45577598
6.00050640 -0.18457538 -3.26451492
5.98070621 -0.29940131 -3.25909138
6.03441620 -0.17900941 -3.06711054
6.01065922 -0.29112378 -3.06143808
6.05717707 -0.17626221 -2.86782098
6.03464746 -0.28374431 -2.86246872
6.06899309 -0.28982580 -2.66526842
6.00134182 -0.38234445 -2.85513377
6.02961588 -0.38233531 -2.65758681
6.07720804 -0.39720106 -2.46619248
6.07720804 -0.39720106 -2.46619248
6.02961588 -0.38233531 -2.65758681
5.97681236 -0.46286902 -2.64842916
6.02420092 -0.47810820 -2.45770168
6.09578133 -0.39774337 -2.27006817
6.04352951 -0.47436523 -2.26269770
5.95590115 -0.54070914 -2.44705033
5.98423624 -0.54328746 -2.25414467
6.05928421 -0.47223124 -2.06609321
6.00328922 -0.53806847 -2.05879378
6.10253811 -0.39318234 -2.07176566
6.08367205 -0.47777921 -1.86981773
6.02854824 -0.54290521 -1.86291838
6.12011623 -0.39682764 -1.87328517
6.05194902 -0.54997331 -1.66763878
5.96997499 -0.58446121 -1.66033936
5.94973040 -0.57686841 -1.85360086
5.98479652 -0.58919996 -1.46687341
5.87968779 -0.59769970 -1.65226650
5.89423370 -0.60115814 -1.45980513
5.99245977 -0.57706380 -1.27415442
5.90327549 -0.59352970 -1.26832187
5.99844408 -0.59279203 -1.08198643
5.90941906 -0.61370331 -1.07793224
5.99899483 -0.60379881 -0.88876951
5.90731144 -0.61329430 -0.88661790
5.98888588 -0.59724623 -0.69654834
5.90012836 -0.60771954 -0.69569480
5.89928389 -0.61271638 -0.50645202
5.80551100 -0.61262751 -0.69445896
5.80436420 -0.61299211 -0.50606972
5.80566263 -0.61966002 -0.31842735
5.69990540 -0.62006903 -0.50530517
5.70612907 -0.62165159 -0.31890747
5.70588875 -0.62503028 -0.13329223
5.59632635 -0.62136734 -0.31986770
5.59639740 -0.62701303 -0.13552383
5.59060955 -0.62742203 0.04749527
5.46693707 -0.63104057 0.04261418
5.47207594 -0.62269211 -0.13847563
5.45693493 -0.62257648 0.22326833
5.31987238 -0.61784655 0.21677795
5.32393551 -0.62144738 0.03787534
5.30777216 -0.62009585 0.39569837
5.16377497 -0.60971141 0.21066102
5.15010071 -0.61773086 0.38751873
5.13575077 -0.62470132 0.56410974
4.98142290 -0.61848652 0.37918797
4.96741104 -0.62894219 0.55379629
5.12203264 -0.62250525 0.74075407
4.95292759 -0.63035578 0.72820014
5.10542440 -0.61949110 0.91698056
4.93723488 -0.62728840 0.90191936
5.08767796 -0.61833525 1.09282470
4.91842222 -0.62108278 1.07508731
5.06801128 -0.62220305 1.26761091
4.89751959 -0.62124288 1.24683285
5.04510880 -0.61634368 1.44103658
4.87240267 -0.62261206 1.41785812
5.01553726 -0.61117828 1.61287105
4.84341860 -0.61867338 1.58740759
4.98360109 -0.61684161 1.78289175
4.81214905 -0.62869322 1.75548995
4.94893551 -0.61955351 1.95264554
4.77833700 -0.62971580 1.92230988
4.91403008 -0.62468368 2.12191033
4.74352932 -0.63777089 2.08870292
4.87744379 -0.63380575 2.29071307
4.70808125 -0.64566618 2.25457168
4.83466959 -0.63033813 2.45876884
4.66796541 -0.64286542 2.41885757
4.78722811 -0.62577713 2.62535739
4.62412453 -0.63716650 2.58333921
4.74107552 -0.63049823 2.79167056
4.57924318 -0.63954026 2.74676275
4.53448629 -0.64421695 2.91035509
4.69465590 -0.63524580 2.95735264
4.48865366 -0.63922012 3.07336092
4.64844990 -0.63515693 3.12439489
4.44259882 -0.62386560 3.23545980
4.60235071 -0.62239838 3.28975630
4.39729977 -0.63406348 3.39814544
4.55605555 -0.63032055 3.45574951
4.35069370 -0.64344335 3.56104422
4.50819588 -0.62944889 3.62304044
4.30038023 -0.63954908 3.72285867
4.45732212 -0.62743968 3.78866029
4.24697256 -0.62869322 3.88238788
4.40207434 -0.62559026 3.95256400
4.19083548 -0.62845308 4.04186392
4.34373236 -0.62435466 4.11556959
4.13196898 -0.62703949 4.19938421
4.28252697 -0.62850672 4.27799749
4.06926107 -0.62824893 4.35663748
4.21631670 -0.63146722 4.43954515
4.00235748 -0.63281876 4.51203251
4.14699459 -0.62247843 4.59998131
3.93140793 -0.63348556 4.66516066
4.07354689 -0.61635286 4.75831938
3.85671544 -0.63440132 4.81628799
3.99747610 -0.62754655 4.91301203
3.77837777 -0.63821548 4.96471262
3.91572452 -0.63431245 5.06657553
3.69423437 -0.64342570 5.11088800
3.82897592 -0.62739527 5.21825409
3.60578775 -0.64558613 5.25493813
3.73883986 -0.63239175 5.36800337
3.51291323 -0.64413691 5.39635658
3.64423203 -0.63414353 5.51623297
3.41638517 -0.65024489 5.53584623
3.54617405 -0.63739747 5.66031837
3.31560659 -0.64715070 5.67009830
3.44101286 -0.64426136 5.80019903
3.20760894 -0.64948922 5.79862547
3.32849836 -0.64161187 5.93446064
3.09360981 -0.65254778 5.91971016
3.21023154 -0.64673287 6.06070185
2.97506762 -0.65800655 6.03691053
3.08625674 -0.65260100 6.18194771
2.85230207 -0.66563499 6.15002060
2.95852137 -0.64724874 6.29861355
2.72522449 -0.66620409 6.25839996
2.82569170 -0.65359682 6.40938473
2.59247446 -0.66481692 6.36070728
2.68827391 -0.66462153 6.51632500
2.54481912 -0.65596175 6.61455154
2.45553684 -0.66527951 6.45661354
2.39942646 -0.66086942 6.70790625
2.31325579 -0.66423899 6.54774618
2.24762321 -0.66212296 6.79556179
2.16852975 -0.67557508 6.63379145
2.09334826 -0.66903132 6.87926912
2.02027416 -0.67857122 6.71444130
1.93536603 -0.67112970 6.95465517
1.86795533 -0.67712200 6.78843117
1.77278709 -0.66344774 7.02467155
1.71302259 -0.68157655 6.85622406
1.60822558 -0.66962689 7.08868599
1.55418658 -0.68018937 6.91773129
1.44075644 -0.67389452 7.14638805
1.39210558 -0.68311465 6.97431278
1.27042472 -0.66829330 7.19889688
1.22778404 -0.68278563 7.02444887
1.06122196 -0.68713337 7.06951666
1.09920394 -0.67351234 7.24601030
0.89409977 -0.68765771 7.10694790
0.92695159 -0.67859805 7.28601933
0.72573280 -0.69302797 7.13694572
0.75220102 -0.68267882 7.31817722
0.55659240 -0.69106287 7.15959120
0.57523662 -0.68254554 7.34004068
0.38660732 -0.69456607 7.17367411
0.39680517 -0.68611962 7.35460281
0.21375941 -0.69834465 7.18241405
0.21904948 -0.69014716 7.36349440
0.04218287 -0.69349027 7.18597889
0.04021798 -0.68612844 7.36641932
-0.13010493 -0.69615740 7.18305397
-0.13825789 -0.68487489 7.36372519
-0.30263275 -0.69929600 7.17404747
-0.31731164 -0.68516827 7.35443497
-0.47419158 -0.70346564 7.15984869
-0.49461389 -0.68899125 7.34007597
-0.64597255 -0.70688879 7.14101744
-0.67149830 -0.68901807 7.31994629
-0.81696230 -0.71124530 7.11654043
-0.84836495 -0.69610417 7.29448318
-0.98616499 -0.71768224 7.08508396
-1.02390683 -0.70088732 7.26188850
-1.19741261 -0.71356583 7.22130203
-1.15198016 -0.71974504 7.04431963
-1.36903358 -0.72161210 7.17064238
-1.31646180 -0.72053629 6.99678993
-1.53701830 -0.71763784 7.11454916
-1.47780490 -0.72820032 6.94333649
-1.70154428 -0.71791357 7.05107737
-1.63822329 -0.72993410 6.88207865
-1.86369646 -0.72441256 6.98299932
-1.79564548 -0.73264569 6.81613493
-2.02367926 -0.72716010 6.91010284
-1.95152962 -0.73323244 6.74596834
-2.18070149 -0.72100735 6.83205938
-2.10405302 -0.72791576 6.67034197
-2.33569646 -0.72554195 6.74976397
-2.25438023 -0.72968513 6.59105301
-2.48760605 -0.73666441 6.66388702
-2.40156913 -0.74442607 6.50782585
-2.63622642 -0.73355258 6.57189322
-2.54611707 -0.74541306 6.41921902
-2.78189492 -0.73462844 6.47424459
-2.68650460 -0.73957169 6.32376575
-2.92252231 -0.73447716 6.37172318
-2.82207298 -0.74353713 6.22347736
-3.05849957 -0.74010515 6.26476669
-2.95399594 -0.74309254 6.11871576
-3.18994260 -0.73934036 6.15206480
-3.08086038 -0.74800014 6.00974894
-3.31644225 -0.74470180 6.03359318
-3.20354581 -0.74484396 5.89551830
-3.43888783 -0.74631113 5.91102409
-3.32066536 -0.75605559 5.77659369
-3.55474520 -0.74302131 5.78266573
-3.43358874 -0.75478405 5.65164995
-3.66631722 -0.75013417 5.65188122
-3.54141784 -0.75660670 5.52419901
-3.77411032 -0.75424176 5.51563692
-3.64524531 -0.75376147 5.39284468
-3.87709332 -0.75417054 5.37560558
-3.74214745 -0.75734472 5.25593376
-3.97248411 -0.75864267 5.23119926
-3.83343005 -0.75568217 5.11520004
-4.06157064 -0.75392157 5.08278370
-3.91952991 -0.75828689 4.97088289
-4.14518929 -0.75615323 4.93026018
-4.00057888 -0.76042092 4.82297373
-4.22284269 -0.75508624 4.77330017
-4.07729864 -0.75846499 4.67174864
-4.29742861 -0.75677562 4.61472225
-4.14983940 -0.75364584 4.51765156
-4.36676884 -0.75293463 4.45301485
-4.21817493 -0.75462395 4.36185646
-4.43223190 -0.75321919 4.28956461
-4.28149605 -0.75954962 4.20324278
-4.49333048 -0.75277454 4.12490511
-4.34048700 -0.75395721 4.04356241
-4.55017853 -0.74915600 3.95770311
-4.39585066 -0.75042754 3.88131213
-4.60166597 -0.74858689 3.78818035
-4.44529295 -0.75384152 3.71710634
-4.64725876 -0.74672902 3.61630130
-4.49060106 -0.75472164 3.54999304
-4.68973064 -0.74224800 3.44524050
-4.53200579 -0.74571526 3.38207054
-4.72981930 -0.74407065 3.27357507
-4.57128572 -0.74939615 3.21459293
-4.76733017 -0.74912041 3.10141182
-4.60748959 -0.74953824 3.04676843
-4.80122232 -0.74551952 2.92899942
-4.64174652 -0.75026745 2.87825012
-4.83306932 -0.74941379 2.75646257
-4.67328215 -0.75256121 2.70975876
-4.86415195 -0.74351037 2.58466387
-4.70332479 -0.74530619 2.54035163
-5.01784897 -0.74098527 2.62702012
-5.04896736 -0.74443489 2.45387888
-4.89295816 -0.75216132 2.41322064
-5.07671547 -0.74397266 2.28187537
-4.92050266 -0.75289899 2.24341345
-4.94368982 -0.74113655 2.07416630
-5.10097885 -0.74051422 2.10968542
-4.96654844 -0.73870039 1.90394127
-5.12137461 -0.73783791 1.93667758
-4.98409891 -0.73459280 1.73300493
-5.14108562 -0.73747331 1.76264715
-5.00004053 -0.73581988 1.56248641
-5.15611982 -0.73665559 1.58911455
-5.01169634 -0.73931390 1.39198565
-5.16863823 -0.73947400 1.41574204
-5.02098751 -0.72968513 1.22244513
-5.17711163 -0.73692214 1.24281418
-5.02299643 -0.72378135 1.05180216
-5.18078327 -0.72903597 1.06972611
-5.02609968 -0.72229654 0.88288391
-5.18199253 -0.71814454 0.89807850
-5.02487278 -0.71572632 0.71435702
-5.18131685 -0.71878487 0.72712433
-5.32074404 -0.72124749 0.73845136
-5.18031216 -0.72126549 0.55675697
-5.32016611 -0.72339916 0.56627023
-5.17945862 -0.71149427 0.38700309
-5.31393385 -0.71853590 0.39394689
-5.16815853 -0.70763564 0.21630676
-5.30784321 -0.70722657 0.22170353
-5.43345404 -0.71167195 0.22692247
-5.29803658 -0.69991833 0.05019811
-5.42537212 -0.70143849 0.05396786
-5.28506470 -0.70457709 -0.12059600
-5.41376019 -0.70066518 -0.11833774
-5.27336407 -0.70110065 -0.29010099
-5.40360737 -0.69522405 -0.28969198
-5.52440739 -0.69582844 -0.28831390
-5.39263535 -0.69854915 -0.45990825
-5.51101828 -0.69632632 -0.46067280
-5.38473177 -0.69602412 -0.63012439
-5.49869490 -0.69449484 -0.63264948
-5.37512922 -0.69068062 -0.80009168
-5.48967075 -0.68795991 -0.80403036
-5.59348965 -0.69118732 -0.80829805
-5.48021078 -0.68820882 -0.97631824
-5.58802176 -0.68708861 -0.98176825
-5.68572378 -0.69286788 -0.98715621
-5.67676210 -0.69224554 -1.16181791
-5.57916689 -0.69463694 -1.15506959
-5.76378679 -0.67780679 -1.16733909
-5.66240311 -0.68726665 -1.33527935
-5.75287676 -0.68692881 -1.34288096
-5.83526039 -0.66637295 -1.34966469
-5.81624269 -0.65552592 -1.52548218
-5.73554850 -0.67840230 -1.51778281
-5.87559891 -0.60069585 -1.53037226
-5.86186123 -0.60336298 -1.70798564
-5.80263996 -0.65908235 -1.70196652
-5.92023897 -0.52894640 -1.53308403
-5.90115929 -0.52741712 -1.71091080
-5.83285093 -0.59343201 -1.88430119
-5.77943468 -0.64826214 -1.87831748
-5.87224627 -0.52170020 -1.88811517
-5.81848288 -0.59048915 -2.06384397
-5.76088762 -0.63979805 -2.05646443
-5.84953880 -0.51506758 -2.06744456
-5.79854155 -0.58179373 -2.24418664
-5.74479532 -0.63659739 -2.23574948
-5.83251333 -0.50803506 -2.24942350
-5.72972584 -0.63945138 -2.41670585
-5.77962971 -0.57598799 -2.42493868
-5.81237507 -0.49781039 -2.43038893
-5.74767542 -0.55989546 -2.60337019
-5.78822708 -0.48446509 -2.61097193
-5.81237507 -0.49781039 -2.43038893
-5.78822708 -0.48446509 -2.61097193
-5.82727623 -0.40067744 -2.61801338
-5.76318169 -0.46911943 -2.79244375
-5.80031061 -0.38341111 -2.80010796
-5.81633091 -0.28155705 -2.80312204
-5.77873182 -0.36505166 -2.98326921
-5.79212999 -0.26270854 -2.98611426
-5.80338621 -0.15560867 -2.98834586
-5.75387239 -0.24550460 -3.16769314
-5.77082777 -0.13792484 -3.17146277
-5.78208399 -0.01908899 -3.17375660
-5.72855234 -0.12305907 -3.35321069
-5.74282122 -0.00644609 -3.35692692
-5.75588179 0.12090710 -3.36083913
-5.70178175 0.00552120 -3.54026628
-5.71588230 0.13280316 -3.54528069
-5.73269558 0.26627329 -3.55128193
-5.66783619 0.14342771 -3.72876215
-5.68631077 0.27709353 -3.73633718
-5.70723104 0.42393556 -3.74537921
-5.63744640 0.28713134 -3.92227268
-5.66150522 0.43542260 -3.93335056
-5.67980289 0.59487194 -3.94358373
-5.61032915 0.44594049 -4.12109089
-5.62500811 0.60605663 -4.13129759
-5.64416790 0.76892912 -4.14289999
-5.56969786 0.61400521 -4.31951761
-5.58436775 0.77819330 -4.33089781
-5.59865618 0.94435525 -4.34211826
-5.53075600 0.78442585 -4.52134991
-5.54548788 0.95197487 -4.53366375
-5.55823755 1.11976385 -4.54498196
-5.47990894 0.95892751 -4.72180414
-5.49666834 1.12695658 -4.73475790
-5.49735260 1.29203379 -4.74203968
-5.43135548 1.13341129 -4.92463207
-5.43845081 1.29817748 -4.93426991
-5.44086027 1.44265461 -4.94101810
-5.36638117 1.30165374 -5.12265015
-5.37401819 1.44155216 -5.13160324
-5.37786770 1.54658902 -5.13748932
-5.29441786 1.44353473 -5.31792974
-5.30082846 1.54616237 -5.32465124
-5.30867004 1.64118826 -5.33192444
-5.21869421 1.54760265 -5.51104927
-5.22295284 1.64217520 -5.51707697
-5.22915888 1.73322690 -5.52391434
-5.14316607 1.64584696 -5.70606184
-5.14705133 1.73993051 -5.71193886
-5.14883852 1.83169353 -5.71648216
-5.04921627 1.74850154 -5.89270878
-5.05319023 1.84083331 -5.89858580
-5.06464195 1.92521679 -5.90823269
-4.96425486 1.84377611 -6.08423710
-4.97919130 1.92775965 -6.09630966
-5.01319027 1.99552608 -6.11891937
-4.88347197 1.92535007 -6.28100014
-4.91019773 1.99762428 -6.30073833
-4.95354080 2.05077410 -6.33001566
-4.83809280 2.05048966 -6.50698996
-4.79611874 1.99535716 -6.47644901
-4.89268303 2.08267450 -6.54568291
-4.77001524 2.07998967 -6.72045088
-4.71690989 2.04758239 -6.68016672
-4.82736158 2.09194803 -6.76447964
-4.69519854 2.09131646 -6.93493509
-4.64163065 2.07561541 -6.89117384
-4.75005484 2.09907842 -6.97992277
-4.55656242 2.08922720 -7.10267973
-4.60905409 2.09755802 -7.14854813
-4.66256857 2.09840274 -7.19539404
-4.51940727 2.09694433 -7.36571646
-4.46675539 2.09632206 -7.31642580
-4.57323265 2.09369063 -7.41532755
-4.42495060 2.09217882 -7.58568668
-4.37312555 2.09557533 -7.53312349
-4.47698927 2.08704901 -7.63784027
-4.27151155 2.09024978 -7.74976730
-4.32194090 2.08605337 -7.80495453
-4.37234306 2.08362603 -7.85872602
-4.16190434 2.08608866 -7.96934700
-4.21002197 2.08306575 -8.02541256
-4.25642347 2.08223009 -8.07941532
-4.04010773 2.08038974 -8.18446159
-4.08354902 2.08096766 -8.23996735
-4.12478495 2.08041644 -8.29192543
-3.90352631 2.08110094 -8.39295292
-3.94111681 2.08025646 -8.44498348
-3.97608447 2.07748246 -8.49432755
-3.75171399 2.08013201 -8.58659649
-3.78461909 2.07771349 -8.63733768
-3.81597757 2.07307243 -8.68377399
-3.58907294 2.07815790 -8.77204323
-3.61716795 2.07249475 -8.81928158
-3.64304042 2.06311464 -8.86376190
-3.41295314 2.07189870 -8.95051098
-3.43713641 2.06294584 -8.99577332
-3.45899010 2.04766226 -9.03712559
-3.22142529 2.06195879 -9.11552620
-3.24092293 2.04802704 -9.15578270
-3.25740695 2.02340794 -9.19107151
-3.01347637 2.05121851 -9.25802898
-3.02914190 2.02962279 -9.29545879
-2.78417993 2.05566406 -9.35261059
-2.99600554 2.06610203 -9.21700573
-2.76726055 2.06852031 -9.30947971
-2.53794646 2.07114315 -9.39549923
-2.52171183 2.07774901 -9.34727573
-2.74964762 2.07672668 -9.26304340
-2.29188204 2.08074546 -9.42488384
-2.30695224 2.07195210 -9.47449493
-2.06086993 2.08236361 -9.49305916
-2.07545972 2.07690454 -9.54818249
-1.82987547 2.08737779 -9.55693150
-2.04581761 2.08731556 -9.43758106
-1.81643248 2.09229445 -9.49769211
-1.58632720 2.09553075 -9.54777431
-1.57306194 2.09436607 -9.48083496
-1.80135357 2.09219694 -9.43175697
-1.34573960 2.09850931 -9.52419567
-1.33419025 2.09943390 -9.45161915
-1.55951226 2.09681106 -9.40806293
-1.10877919 2.10427952 -9.48809814
-1.09943497 2.10689330 -9.41358471
-1.32227635 2.10250115 -9.37586021
-0.87662017 2.10836935 -9.44218540
-0.86943632 2.11159658 -9.36747646
-1.08995736 2.10948062 -9.33728313
-0.64850652 2.11389065 -9.38361263
-0.86185247 2.11684227 -9.28818703
-0.64278072 2.11838031 -9.30521297
-0.42417139 2.12183905 -9.31126785
-0.63726842 2.12077212 -9.22583485
-0.42101505 2.12396407 -9.23268986
-0.20536636 2.12410617 -9.30755997
-0.20489514 2.12328815 -9.22999573
-0.41758317 2.11690450 -9.15513420
-0.20381047 2.11993647 -9.15352535
-0.20489514 2.12328815 -9.22999573
-0.20381047 2.11993647 -9.15352535
0.00909095 2.12001657 -9.15020084
-0.20335704 2.10254574 -9.08059406
0.00791737 2.10383511 -9.08067417
0.21966296 2.10501742 -9.07743645
0.21709348 2.07196999 -9.01976967
0.00727720 2.06940937 -9.01964664
0.42708758 2.07681561 -9.01375198
0.42346013 2.02715087 -8.96806145
0.21476409 2.01951361 -8.97488022
0.63271630 2.03357911 -8.95813942
0.62945330 1.96584833 -8.93274689
0.42047274 1.95961583 -8.93839169
0.83742917 1.97403681 -8.91848564
0.83384615 1.89585018 -8.89866829
0.62672383 1.88975990 -8.91583633
1.04016829 1.89772618 -8.87429714
1.03645182 1.80615878 -8.85986805
0.83052987 1.80618560 -8.88504696
1.24160051 1.80195355 -8.82905197
1.23836422 1.69358218 -8.81912136
1.03269994 1.69796550 -8.84751797
1.44547760 1.68887901 -8.80107212
1.43936062 1.57283497 -8.78028584
1.23460329 1.57388425 -8.81102085
1.64234877 1.57404423 -8.74156570
1.64642966 1.68566036 -8.75043011
1.84847522 1.68001473 -8.70426750
1.84305191 1.57191050 -8.69083405
2.04605770 1.67254639 -8.64152527
2.04257250 1.56167698 -8.63684750
2.24331117 1.65818775 -8.57996368
2.23890114 1.55301714 -8.57377625
2.43507886 1.54460645 -8.50712204
2.44108915 1.64875424 -8.51739979
2.62978053 1.54029441 -8.43515873
2.63576436 1.64278865 -8.44496536
2.81861424 1.52676237 -8.34795666
2.82762980 1.63403094 -8.36466217
3.00221133 1.51339042 -8.25001431
3.00857759 1.62688279 -8.26006985
3.18773770 1.50457954 -8.15513897
3.19405031 1.62070370 -8.16417313
3.37144160 1.49804485 -8.05550861
3.37913203 1.61736953 -8.06672859
3.54733920 1.49675560 -7.94178534
3.55961752 1.61885417 -7.95937157
3.72025800 1.49966288 -7.82237101
3.72973585 1.61865866 -7.83456993
3.88907838 1.50156558 -7.69621801
3.88073874 1.35653722 -7.68578959
3.71220279 1.35399449 -7.81213760
4.04545164 1.35857344 -7.55372429
4.03952122 1.19097996 -7.54639721
3.87220335 1.18946850 -7.67533398
4.19855261 1.19222462 -7.40692616
4.19115543 1.01949227 -7.39820433
4.03025723 1.01852310 -7.53566599
4.34152746 1.02046144 -7.24844551
4.17783689 0.84619093 -7.38322258
4.32540798 0.84863597 -7.23077965
4.47028542 0.85012960 -7.07520628
4.30958223 0.67697936 -7.21346855
4.45408583 0.67940658 -7.05776262
4.61769629 0.84927613 -6.92259502
4.60150576 0.67943323 -6.90511465
4.75098848 0.84851146 -6.75739241
4.73909235 0.67881083 -6.74385166
4.86910391 0.84833360 -6.58084583
4.85953760 0.67921108 -6.56929636
4.98708630 0.84774685 -6.40451336
4.97577715 0.67961109 -6.39229679
5.09966278 0.84743565 -6.22526407
5.09150124 0.67984223 -6.21550179
5.20468235 0.84754235 -6.04177380
5.19477797 0.68089145 -6.03147840
5.28598070 0.68308735 -5.84156847
5.18254375 0.51611644 -6.01998234
5.27329302 0.51924604 -5.83032084
5.36549187 0.52071291 -5.64182520
5.26256180 0.36233941 -5.81995487
5.35661888 0.36941651 -5.63286304
5.44086885 0.37223491 -5.44266033
5.34784365 0.23184778 -5.62422991
5.43165779 0.23621312 -5.43431139
5.49901533 0.24135208 -5.23847198
5.41849947 0.11170498 -5.42447853
5.49152040 0.11175823 -5.23127937
5.56314564 0.11183827 -5.03823090
5.48484325 -0.00998455 -5.22445107
5.55674362 -0.01176278 -5.03216743
5.62568426 -0.01482133 -4.83917284
5.54591465 -0.12855382 -5.02451277
5.60719109 -0.13268785 -4.83032656
5.67578411 -0.13916039 -4.63863850
5.57666874 -0.24039243 -4.81696367
5.65272999 -0.25423527 -4.62847614
5.70489311 -0.25887635 -4.43199635
5.61336136 -0.35322681 -4.61245489
5.65797567 -0.35449800 -4.41529942
5.70549726 -0.35970819 -4.22027779
5.70549726 -0.35970819 -4.22027779
5.65797567 -0.35449800 -4.41529942
5.61013365 -0.44095314 -4.39846039
5.66476822 -0.44699019 -4.20746565
5.76806307 -0.37189764 -4.03011036
5.71582890 -0.45077762 -4.01474667
5.76806307 -0.37189764 -4.03011036
5.81380653 -0.38075277 -3.83590627
5.76986742 -0.46299350 -3.82337022
5.81380653 -0.38075277 -3.83590627
5.84850788 -0.38275349 -3.63875961
5.80768919 -0.46476290 -3.62767243
5.84850788 -0.38275349 -3.63875961
5.90677834 -0.39869472 -3.44649386
5.84983206 -0.47092444 -3.43287301
5.90677834 -0.39869472 -3.44649386
5.93321133 -0.38904798 -3.24821806
5.87875414 -0.46620333 -3.23565507
5.93321133 -0.38904798 -3.24821806
5.96715641 -0.38424715 -3.05190706
5.91016579 -0.46134892 -3.03969073
5.96715641 -0.38424715 -3.05190706
6.00134182 -0.38234445 -2.85513377
5.95242405 -0.46663880 -2.84526467
5.84954786 -0.53220946 -3.02641678
5.89193964 -0.53993553 -2.83339548
5.91955471 -0.53573906 -2.63889837
5.80689812 -0.57302743 -2.81733871
5.84107494 -0.57705498 -2.62560630
5.87133980 -0.57100028 -2.43377614
5.75097466 -0.58952898 -2.61016297
5.78343534 -0.59119153 -2.41975522
5.81388617 -0.59517467 -2.22908115
5.90196848 -0.57837093 -2.24239087
5.92792988 -0.58007795 -2.04890704
5.84019423 -0.59499693 -2.03697562
5.86079502 -0.59156495 -1.84366071
5.74632406 -0.59962887 -2.02462602
5.76708508 -0.59992224 -1.83422756
5.78419065 -0.60087359 -1.64349997
5.66312361 -0.60669732 -1.82220709
5.67830038 -0.60233194 -1.63281310
5.79604244 -0.59688163 -1.45188332
5.68937826 -0.59801072 -1.44376600
5.80386639 -0.60169160 -1.26167154
5.69761133 -0.60510564 -1.25494993
5.81044579 -0.61467230 -1.07282889
5.70162153 -0.61703730 -1.06713867
5.81099653 -0.61569488 -0.88373727
5.70221710 -0.61204958 -0.87948740
5.70285749 -0.61926895 -0.69226289
5.58543491 -0.61400551 -0.87500638
5.58902693 -0.62992913 -0.69019133
5.59353447 -0.62793756 -0.50470942
5.46146011 -0.63107616 -0.68719506
5.46597672 -0.63516575 -0.50367814
5.46744394 -0.62278098 -0.32056117
5.32862139 -0.63140517 -0.50264674
5.33207989 -0.62432790 -0.32154804
5.32923460 -0.61443222 -0.14154296
5.18168163 -0.62069142 -0.32197484
5.17645359 -0.61718857 -0.14389907
5.17266607 -0.61612153 0.03370550
5.01075411 -0.62078029 -0.14562391
5.00470829 -0.62592840 0.02976683
4.99380779 -0.62105602 0.20462410
4.82876635 -0.64419019 0.02692174
4.81865740 -0.63381457 0.19931625
4.80627203 -0.62597281 0.37199527
4.64163065 -0.64250082 0.19487077
4.62981462 -0.64385235 0.36466026
4.79311371 -0.63505930 0.54368734
4.61642504 -0.64787108 0.53414738
4.77769709 -0.63351202 0.71549499
4.60056353 -0.64378113 0.70332342
4.76113319 -0.63431245 0.88661814
4.58401775 -0.65448570 0.87176144
4.74177790 -0.63227648 1.05712771
4.56346178 -0.64020705 1.03990614
4.71953249 -0.62805325 1.22642815
4.54111910 -0.64042920 1.20725942
4.69423771 -0.62882650 1.39486635
4.51577091 -0.63660622 1.37259459
4.66609859 -0.62708390 1.56196165
4.48826265 -0.63948703 1.53690720
4.63573599 -0.62761742 1.72752810
4.45910025 -0.63685513 1.69949508
4.60376453 -0.63875782 1.89169860
4.42794657 -0.64129168 1.86150491
4.57043219 -0.64665282 2.05517554
4.39561033 -0.65226322 2.02147889
4.53503752 -0.65121382 2.21799445
4.36137199 -0.65356117 2.18151498
4.49681568 -0.64625293 2.37931085
4.32506132 -0.65508163 2.34055543
4.45638895 -0.64959574 2.54084063
4.28667021 -0.65176535 2.49867105
4.24726582 -0.65384573 2.65593338
4.41414785 -0.64693737 2.70182800
4.20550537 -0.65052062 2.81349778
4.37069798 -0.64713305 2.86212206
4.16253567 -0.64161187 2.96975517
4.32632351 -0.64194965 3.02150011
4.11884594 -0.64302546 3.12681293
4.28155804 -0.63897115 3.18102074
4.07524490 -0.65501922 3.28253698
4.23679256 -0.64638621 3.34038997
4.03027487 -0.65769553 3.43702531
4.19104004 -0.65038699 3.49919057
3.98228168 -0.64571065 3.59017992
4.14184666 -0.64476812 3.65643501
3.93212819 -0.64900017 3.74235654
4.09023476 -0.63611710 3.81293225
3.87987661 -0.65059149 3.89233685
4.03608942 -0.63444573 3.96716285
3.82486844 -0.64934677 4.04125071
3.97934771 -0.63609946 4.12028170
3.76751328 -0.64843100 4.18715906
3.91926289 -0.63782412 4.27280521
3.70724201 -0.64763975 4.33335209
3.85559535 -0.63153845 4.42245674
3.64183140 -0.65259218 4.47708225
3.78734875 -0.63974476 4.57045460
3.57235813 -0.65248537 4.61838579
3.71473670 -0.64177197 4.71813250
3.49800348 -0.64996910 4.75651455
3.63875532 -0.64371908 4.86104441
3.42011023 -0.65358800 4.89154053
3.55794573 -0.65160525 5.00168085
3.33768296 -0.65501922 5.02436161
3.47257566 -0.65432566 5.13997889
3.25254321 -0.66232747 5.15516472
3.38218188 -0.64958692 5.27691650
3.16191888 -0.66383910 5.28228664
3.28896952 -0.65466380 5.40979099
3.06652808 -0.66237187 5.40468740
3.19012070 -0.66148293 5.53877115
2.96609664 -0.66996503 5.52248335
3.08748388 -0.66173190 5.66094065
2.86258888 -0.67351234 5.63648224
2.97787690 -0.66808879 5.77907419
2.75357747 -0.67780679 5.74577761
2.86409163 -0.67209870 5.89229965
2.63972068 -0.67730886 5.85162401
2.74568248 -0.66825771 6.00071526
2.52100945 -0.68067843 5.95206451
2.62321019 -0.67123622 6.10529900
2.39911509 -0.68128282 6.04980278
2.49663043 -0.66850662 6.20439768
2.36458302 -0.67278314 6.29878330
2.27302456 -0.67976272 6.14080906
2.22919250 -0.67976272 6.38802052
2.14379525 -0.68643093 6.22683764
2.08927631 -0.67955822 6.47042179
2.00966740 -0.68358570 6.30590439
1.94641745 -0.68059838 6.54812765
1.87278306 -0.68525714 6.38097000
1.80067778 -0.68202966 6.62008238
1.73196912 -0.68994260 6.45173264
1.65132856 -0.68918699 6.68601656
1.58890557 -0.69141865 6.51602268
1.49772060 -0.68916017 6.74631548
1.44242799 -0.68550605 6.57391977
1.29328322 -0.69434357 6.62576294
1.34125853 -0.69136542 6.80146551
1.14073324 -0.69855797 6.67375660
1.18422747 -0.69234318 6.85007143
0.98796982 -0.69671768 6.71300983
1.02371132 -0.68931144 6.89226866
0.83275253 -0.68876028 6.74546194
0.86245704 -0.69137424 6.92672062
0.67653060 -0.69755340 6.77196550
0.70077610 -0.69175643 6.95464706
0.51956177 -0.69957137 6.79319715
0.53731698 -0.69640636 6.97692728
0.36236188 -0.70396352 6.80679035
0.37407118 -0.70430166 6.99146366
0.20351709 -0.71606410 6.81714869
0.20866491 -0.69846028 6.99998999
0.04418333 -0.71521080 6.82073116
0.04420999 -0.69876248 7.00326252
-0.11585284 -0.71333456 6.81746864
-0.12298331 -0.69897580 7.00077295
-0.27547997 -0.70880032 6.80895185
-0.28818512 -0.70662189 6.99195337
-0.43377352 -0.71427709 6.79615736
-0.45480049 -0.71063179 6.97873163
-0.59439641 -0.71958494 6.77844620
-0.62061566 -0.71124530 6.96076393
-0.75035167 -0.72487515 6.75474310
-0.78464389 -0.71520162 6.93624258
-0.90595126 -0.73085862 6.72385597
-0.94594258 -0.72401267 6.90537357
-1.10581875 -0.72559518 6.86643124
-1.06035066 -0.72948945 6.68757296
-1.26418328 -0.72526622 6.82031345
-1.21298063 -0.73233467 6.64480734
-1.42085874 -0.73026305 6.77040958
-1.36449921 -0.73749125 6.59614706
-1.57591593 -0.73193443 6.71155167
-1.51402640 -0.74204350 6.54149485
-1.72850156 -0.73231667 6.64883518
-1.66229987 -0.74741340 6.48147297
-1.87969124 -0.74368805 6.58146858
-1.80691040 -0.74563521 6.41662264
-2.02717352 -0.73883367 6.50878620
-1.95069385 -0.74808019 6.34675837
-2.17321515 -0.73721552 6.43219948
-2.09042311 -0.75145894 6.27239513
-2.31536293 -0.74532419 6.35123920
-2.22786760 -0.75494415 6.19460773
-2.45438099 -0.74401706 6.26542473
-2.36187124 -0.75538844 6.11190557
-2.58987832 -0.74836475 6.17359877
-2.49349189 -0.76069629 6.02333450
-2.72138357 -0.75305027 6.07647419
-2.61969852 -0.76456410 5.92879677
-2.84916353 -0.75034750 5.97339392
-2.74225926 -0.76011872 5.82983255
-2.97126222 -0.75400162 5.86654329
-2.86058831 -0.76124781 5.72653770
-3.08975124 -0.75758451 5.75725603
-2.97540545 -0.76399499 5.61895800
-3.20324349 -0.75700659 5.64160299
-3.08515453 -0.76152319 5.50671053
