7.22854710 -3.94647336 -5.15606642
7.35948992 -4.14665365 -4.88556337
7.41906595 -3.92266965 -4.85437012
7.53381968 -4.13204002 -4.58164024
7.59321785 -3.90440869 -4.55911350
7.68416882 -4.11856031 -4.27791119
7.73714209 -3.88025475 -4.26317739
7.81866074 -4.10038805 -3.98357034
7.86514187 -3.85003567 -3.98044086
7.93145084 -4.07270002 -3.70142937
7.97023535 -3.81066060 -3.70611215
8.03528404 -4.03943253 -3.42769909
8.06843758 -3.76832151 -3.44061375
8.13583279 -4.00136900 -3.16068101
8.16375732 -3.72560763 -3.17824697
8.23530579 -3.96094084 -2.89511108
8.25688744 -3.68237853 -2.91608071
8.33741760 -3.92035675 -2.63106370
8.35246849 -3.63974047 -2.65457463
8.44039249 -3.88030338 -2.36868596
8.44367218 -3.59702873 -2.39216137
8.53189278 -3.83899617 -2.10471201
8.52776337 -3.55412555 -2.12900615
8.60043240 -3.79812431 -1.83440053
8.59445572 -3.51254892 -1.85949135
8.64876938 -3.75598574 -1.56171846
8.64246178 -3.47090459 -1.58645320
8.68629646 -3.71285677 -1.28787398
8.67957211 -3.42844796 -1.31197453
8.71545792 -3.66773176 -1.01294303
8.71137238 -3.38380289 -1.03691053
8.74366283 -3.61921620 -0.73768282
8.74232960 -3.33754158 -0.76094264
8.77202129 -3.56711340 -0.46117595
8.77074814 -3.28747058 -0.48336276
8.80063248 -3.51081014 -0.18240847
8.79949665 -3.23436236 -0.20299698
8.82975960 -3.44980907 0.10146634
8.82687187 -3.17825246 0.08347084
8.86048603 -3.38600254 0.39357620
8.85418797 -3.12200379 0.37679976
8.89747620 -3.32436943 0.69362360
8.88731861 -3.06556678 0.67930448
8.89206982 -3.26851988 1.00271368
8.88025665 -3.01387954 0.98874754
8.84808922 -3.21935916 1.31401455
8.82985592 -2.96948457 1.30078125
8.78985405 -3.17920136 1.62634599
8.77359295 -2.93292499 1.61565125
8.69985294 -3.15083146 1.93382299
8.69256210 -2.90793133 1.92813671
8.58370686 -3.13235164 2.23633003
8.57660198 -2.89384174 2.23364186
8.45663548 -3.12535477 2.53849220
8.44198704 -2.89072347 2.53400469
8.33512497 -3.13425446 2.84541440
8.33105469 -2.89805150 2.84751105
8.19679260 -3.15692592 3.14690495
8.18943977 -2.92077255 3.14696121
8.04104996 -3.19479704 3.44103289
8.03283024 -2.95568037 3.43843222
7.86677647 -3.24533892 3.71659184
7.86716413 -2.99831319 3.71849847
7.67304134 -3.30004835 3.96312451
7.67174482 -3.04507470 3.96484184
7.48699331 -3.34992695 4.20087910
7.48324633 -3.08858156 4.20265627
7.31111288 -3.39351177 4.43468571
7.30725670 -3.12678790 4.43799591
7.14562988 -3.42441344 4.66881800
7.13203669 -3.15466142 4.66641331
6.98717928 -3.43694353 4.91043901
6.96741247 -3.16931129 4.90219641
6.82348776 -3.43912387 5.15558863
6.80300093 -3.17512012 5.14388227
6.65050077 -3.43206835 5.40292835
6.63130331 -3.17156148 5.38678932
6.45058632 -3.41977310 5.63621712
6.42595196 -3.16428328 5.60943556
6.22340918 -3.40331578 5.85304832
6.20411015 -3.15371776 5.82346869
5.98589087 -3.38454533 6.06456661
5.97009945 -3.14025784 6.03241444
5.74288750 -3.36475706 6.27488899
5.73147535 -3.12484145 6.24253654
5.49208641 -3.34500122 6.47926998
5.48527575 -3.10940266 6.45073748
5.23276806 -3.32698226 6.67801428
5.23201084 -3.09413433 6.65526772
4.95893192 -3.31340194 6.86412573
4.96652317 -3.08291245 6.84827471
4.67825413 -3.30641103 7.03890133
4.68962669 -3.07686353 7.02533817
4.39757633 -3.30544090 7.20808458
4.40974092 -3.07547021 7.19460392
4.11858654 -3.31044984 7.37371302
4.13113594 -3.07910466 7.35931492
3.83791733 -3.32018495 7.52950811
3.84962511 -3.08676481 7.51150942
3.55180883 -3.33242249 7.66302395
3.56333828 -3.09647369 7.64135695
3.26139617 -3.34500718 7.76576042
3.27374196 -3.10682130 7.74639511
2.97173047 -3.35642648 7.85539436
2.98396754 -3.11640573 7.83699989
2.68737030 -3.36480665 7.94593382
2.69933295 -3.12389851 7.93087435
2.40786052 -3.37018609 8.04135036
2.41895008 -3.12839913 8.02909470
2.13114691 -3.37339139 8.13828468
2.14162993 -3.13116884 8.12746143
1.85573184 -3.37529922 8.23627758
1.86581743 -3.13304734 8.22694969
1.58106732 -3.37656116 8.33687019
1.59193671 -3.13460398 8.33109760
1.30930758 -3.37775111 8.44859219
1.32035434 -3.13572598 8.44268227
1.03525627 -3.37858462 8.55925274
1.04639137 -3.13578868 8.54827976
0.74425530 -3.37514234 8.60849190
0.75927901 -3.13369751 8.60783482
0.44845259 -3.37061644 8.61995506
0.46505815 -3.13039303 8.62813663
0.15135770 -3.36552477 8.61421013
0.16981575 -3.12673616 8.62075424
-0.14588834 -3.36114669 8.60590363
-0.12537779 -3.12322116 8.60828495
-0.44246727 -3.35767412 8.59523964
-0.41977713 -3.12027931 8.59461212
-0.73589742 -3.35319495 8.58000755
-0.71183860 -3.11615944 8.58132839
-1.02206337 -3.35021758 8.52792931
-0.99610889 -3.11222124 8.53514099
-1.30091798 -3.34666610 8.46790791
-1.27438438 -3.10838199 8.47817612
-1.57340658 -3.34231043 8.40939713
-1.54662490 -3.10352707 8.42398453
-1.83874810 -3.33692694 8.34813213
-1.81194997 -3.09792185 8.35558891
-2.09905982 -3.32971048 8.28474712
-2.07227731 -3.09085107 8.28670883
-2.35434961 -3.32009578 8.21687603
-2.32882619 -3.08164859 8.21920490
-2.60646677 -3.30825925 8.14593315
-2.58281708 -3.07085919 8.14766312
-2.85664773 -3.29412103 8.07081318
-2.62917733 -3.54545069 8.13745308
-2.87677789 -3.52939224 8.05925083
-3.12198114 -3.51206708 7.97214794
-2.89598441 -3.76410770 8.03827858
-3.13859844 -3.74433255 7.95011425
-3.38117886 -3.72415447 7.86120272
-3.36580420 -3.49339986 7.88346720
-3.62353563 -3.70340729 7.77176285
-3.60922432 -3.47457266 7.79038858
-3.86392236 -3.68220925 7.67402601
-3.85022140 -3.45463037 7.69018269
-4.09195089 -3.65891314 7.54733944
-4.08297968 -3.43409181 7.56955814
-4.31478643 -3.63532615 7.40855503
-4.31313086 -3.41562009 7.43604183
-4.54083538 -3.61555409 7.26779652
-4.53997469 -3.39723945 7.29332447
-4.76499748 -3.59752083 7.11814404
-4.76596737 -3.38149595 7.14249563
-4.99094152 -3.58356476 6.96325111
-4.98947811 -3.36942959 6.98044825
-5.22048473 -3.57603955 6.80420113
-5.21368265 -3.36166334 6.81296110
-5.46107101 -3.57513618 6.65438175
-5.45242167 -3.36070418 6.65977240
-5.69408417 -3.57999706 6.48994446
-5.45740509 -3.78583121 6.63348341
-5.68849802 -3.79164720 6.46813202
-5.90301085 -3.80531979 6.28371382
-5.67118979 -4.00035334 6.43625307
-5.87989807 -4.01491880 6.24826717
-6.08145666 -4.03591251 6.05592012
-5.84255743 -4.21900940 6.20238543
-6.03579187 -4.24056149 6.00630474
-6.23170519 -4.27331829 5.81498289
-5.98882246 -4.44256163 5.95808697
-6.16790056 -4.47302341 5.75747347
-6.33083296 -4.50440311 5.54593277
-6.09634876 -4.66565514 5.69971561
-6.24636412 -4.69606781 5.48646832
-6.38606453 -4.73094702 5.26673031
-6.15281630 -4.88233137 5.42989731
-6.28602600 -4.91631842 5.20987701
-6.42379808 -4.96871376 4.99451780
-6.18261003 -5.09262514 5.15620804
-6.31601906 -5.15393209 4.94374752
-6.42848492 -5.20279312 4.72277546
-6.54724884 -5.02236891 4.77707672
-6.51390362 -5.23290920 4.48774242
-6.64815664 -5.05715942 4.54682732
-6.59411860 -5.25755310 4.24927425
-6.73400640 -5.08241320 4.31133556
-6.67997885 -5.27757454 4.00872087
-6.81099510 -5.09938908 4.07181740
-6.77374792 -5.29834175 3.76495028
-6.90081692 -5.11333799 3.82979059
-6.87551785 -5.31382799 3.52296925
-7.00296354 -5.12452459 3.58707285
-6.95403337 -5.30006361 3.27184463
-7.10031652 -5.12460661 3.34019995
-7.00984144 -5.25897217 3.01349711
-7.17120981 -5.10279703 3.08350921
-7.06702518 -5.22267246 2.75086355
-7.23179197 -5.07536459 2.82109308
-7.13247824 -5.20216036 2.48014784
-7.30392361 -5.06989622 2.54718184
-7.21618223 -5.21470261 2.20907211
-7.39605427 -5.08736134 2.26362586
-7.27969694 -5.21626139 1.92632079
-7.48328352 -5.10126066 1.97170675
-7.29279518 -5.18494225 1.64945447
-7.49187326 -5.05421543 1.66506493
-7.27739000 -5.15317488 1.37768650
-7.46435738 -4.99985743 1.37087750
-7.25444412 -5.14460325 1.10806346
-7.42899084 -4.98134613 1.09745932
-7.42899084 -4.98134613 1.09745932
-7.25444412 -5.14460325 1.10806346
-7.24748278 -5.15384817 0.83550256
-7.42313099 -4.98175240 0.82670534
-7.22366285 -5.14142942 0.57157612
-7.40930271 -4.97243643 0.56135315
-7.19385195 -5.12558365 0.31243610
-7.37970829 -4.95039415 0.30118468
-7.15964794 -5.11158180 0.05599113
-7.34857368 -4.93634987 0.04282041
-7.11717224 -5.09887362 -0.19667974
-7.31057405 -4.92409515 -0.21307288
-7.06770563 -5.08692980 -0.44787788
-7.26110268 -4.91125107 -0.46650252
-7.01125431 -5.07995033 -0.69687140
-7.20518398 -4.90373659 -0.71929389
-6.94887877 -5.07826614 -0.94513828
-7.14335442 -4.90300369 -0.97256124
-6.87971830 -5.08024693 -1.19189060
-7.07371378 -4.90403461 -1.22381663
-6.80375051 -5.08496189 -1.43737257
-6.99839020 -4.91037798 -1.47348857
-6.71802998 -5.08642769 -1.68119669
-6.91462803 -4.91787195 -1.72233319
-6.62609386 -5.09342241 -1.92492306
-6.81863594 -4.92152500 -1.96910536
-6.52434635 -5.09430647 -2.16503358
-6.71821737 -4.92754745 -2.21512699
-6.41650772 -5.09715223 -2.40432644
-6.61334801 -4.93514347 -2.45907736
-6.30434322 -5.10072565 -2.63950968
-6.49920797 -4.94030142 -2.70000720
-6.18579531 -5.10330915 -2.87341547
-6.37810707 -4.94265270 -2.93639851
-6.06010866 -5.10219431 -3.10253859
-6.25313902 -4.94423389 -3.17005610
-5.93009377 -5.10031891 -3.32841659
-6.12308598 -4.94422150 -3.39980173
-5.79536057 -5.09584141 -3.54983282
-5.98889160 -4.94399357 -3.62573242
-5.66342163 -5.10030556 -3.77151513
-5.85741138 -4.95234442 -3.85183263
-5.52551365 -5.09986115 -3.99011731
-5.71955585 -4.95516300 -4.07426119
-5.38668966 -5.10055685 -4.20549822
-5.57810640 -4.95350695 -4.29268026
-5.24350071 -5.09631062 -4.41593552
-5.43542767 -4.95287609 -4.50864315
-5.09720850 -5.09038401 -4.62285662
-5.28839588 -4.94919920 -4.72010183
-4.94591522 -5.07875299 -4.82338572
-5.13549042 -4.93962479 -4.92523146
-4.79209137 -5.06555176 -5.02138662
-4.97748709 -4.92750692 -5.12704945
-4.63413954 -5.04933500 -5.21684122
-4.81658173 -4.91018867 -5.32344627
-4.47421122 -5.02245092 -5.40374470
-4.65215158 -4.88326979 -5.51244831
-4.31108570 -4.98884535 -5.58720112
-4.48559046 -4.84786606 -5.69607353
-4.14851665 -4.95034552 -5.76571035
-4.31919765 -4.80546474 -5.87435627
-3.99037051 -4.91240931 -5.94171524
-4.15883589 -4.76464605 -6.05153465
-3.83290076 -4.87298107 -6.11448145
-4.00045919 -4.72539473 -6.22701311
-3.67668247 -4.83288479 -6.28373432
-3.84211373 -4.68603182 -6.39967489
-3.51712251 -4.78982973 -6.44505405
-3.68273044 -4.64623451 -6.56624031
-3.35648417 -4.74662590 -6.60282516
-3.51900935 -4.60479975 -6.72761297
-3.19520617 -4.70186138 -6.75371408
-3.35193467 -4.55899000 -6.88180923
-3.03293610 -4.65919304 -6.90145159
-3.18459678 -4.51536179 -7.03064299
-2.87079167 -4.61492252 -7.04053736
-3.01333237 -4.47071266 -7.17379189
-2.70166183 -4.56704998 -7.17234564
-2.83927107 -4.42313480 -7.30616856
-2.53467727 -4.52003860 -7.29807377
-2.66342568 -4.37490988 -7.43205547
-2.36787224 -4.47481012 -7.41899681
-2.48946142 -4.32880640 -7.55266333
-2.20155096 -4.42901754 -7.53213406
-2.31496859 -4.28241682 -7.66563177
-2.03425384 -4.38300133 -7.63871717
-2.13717389 -4.23345852 -7.76830244
-1.87005115 -4.33663082 -7.73548317
-1.95902741 -4.18675375 -7.86287594
-1.70622647 -4.29209375 -7.82808256
-1.78508878 -4.14399338 -7.95217228
-1.54301822 -4.25001907 -7.91596413
-1.60773504 -4.10690594 -8.03747082
-1.38109648 -4.21667910 -7.99655914
-1.43173039 -4.07468462 -8.11800289
-1.22016132 -4.19017029 -8.07175350
-1.25427890 -4.05297756 -8.19173431
-1.05731404 -4.17555523 -8.13846588
-1.06545460 -4.04501152 -8.25725460
-0.87907249 -4.17510223 -8.19488525
-0.87097919 -4.04947424 -8.31273746
-0.67371756 -4.19651985 -8.23310471
-0.65290916 -4.07212067 -8.35779762
-0.46431103 -4.22802734 -8.25526810
-0.43410587 -4.11417198 -8.37672520
-0.24952845 -4.27946472 -8.25405502
-0.20602725 -4.16323566 -8.38362598
-0.02780125 -4.33826637 -8.23737621
0.02463098 -4.21859503 -8.37052536
0.19377252 -4.40486479 -8.20451069
0.25510997 -4.28691101 -8.34109783
0.41877785 -4.47731256 -8.16017246
0.48719534 -4.35311842 -8.29455948
0.64694935 -4.55584955 -8.11214924
0.71995318 -4.42805672 -8.24393559
0.87857831 -4.63715267 -8.05469131
0.95473891 -4.51168442 -8.19075871
1.11514711 -4.73476219 -8.00407219
1.19386864 -4.61004353 -8.14245129
1.35721660 -4.83133030 -7.94784498
1.44278896 -4.70258856 -8.08359623
1.60456061 -4.91993189 -7.87980556
1.69526589 -4.78661537 -8.01527977
1.85900140 -4.99833632 -7.80324697
1.95144606 -4.86281729 -7.94004011
2.11394858 -5.07127953 -7.72112703
2.20969057 -4.93115759 -7.85824776
2.36709666 -5.13596773 -7.62998247
2.46710587 -4.99354649 -7.77081823
2.62062597 -5.19474745 -7.53113270
2.72280121 -5.05168056 -7.67078924
2.87493992 -5.24760818 -7.42259979
2.97852731 -5.10488415 -7.56274605
3.07861996 -4.95216417 -7.69289255
3.23546028 -5.15427876 -7.44480753
3.33691001 -5.00537586 -7.57808447
3.43721676 -4.84059858 -7.68204880
3.60296965 -5.06672144 -7.45490503
3.70632267 -4.91260099 -7.56208277
3.81026959 -4.74506521 -7.63717461
3.99412274 -5.00424051 -7.43562222
4.09726524 -4.83871412 -7.50237656
4.19227982 -4.65524864 -7.54912233
4.39682198 -4.93894720 -7.36049509
4.47963953 -4.74625015 -7.39067936
4.55134726 -4.53962517 -7.41152000
4.77424622 -4.83979988 -7.23151779
4.83274221 -4.62029934 -7.25676584
4.89086533 -4.39959764 -7.27524757
5.11581230 -4.69534540 -7.10928583
5.15880966 -4.45721006 -7.11713600
5.20995188 -4.22695684 -7.13171816
5.41705894 -4.49469328 -6.94246387
5.47304630 -4.26921606 -6.95266294
5.67508173 -4.52259731 -6.74005604
5.73273802 -4.30499697 -6.75122786
5.73273802 -4.30499697 -6.75122786
5.67508173 -4.52259731 -6.74005604
5.93217707 -4.55683708 -6.52504683
5.98736715 -4.33898640 -6.53030777
6.17604113 -4.58831310 -6.30138922
6.23427439 -4.36842346 -6.29990435
6.40901136 -4.61017704 -6.06235123
6.47729111 -4.39121342 -6.06404877
6.64125299 -4.62129450 -5.81319904
6.69593000 -4.39951038 -5.79606199
6.85323906 -4.61696339 -5.53758383
6.90781975 -4.39573288 -5.51513386
7.05466986 -4.60171700 -5.24876261
7.11228085 -4.38288403 -5.22263861
7.24385929 -4.58250189 -4.94576168
7.30115080 -4.36517048 -4.91657162
7.41304350 -4.56757164 -4.63162231
7.47353840 -4.35309601 -4.60606575
7.57664299 -4.56699848 -4.32429409
7.63177872 -4.34725285 -4.29952097
7.71233797 -4.56621170 -4.01585340
7.76626444 -4.33821774 -3.99638557
7.83780622 -4.56707430 -3.71578002
7.88723326 -4.32516479 -3.70467067
7.95113754 -4.55611801 -3.42971754
7.99542141 -4.30318499 -3.42363405
8.05652332 -4.53130484 -3.15134788
8.09858608 -4.27066612 -3.15091801
8.16029358 -4.49700546 -2.87449145
8.20190430 -4.23311901 -2.88117671
8.26711941 -4.45996475 -2.60136223
8.30761051 -4.19449472 -2.61267972
8.37420559 -4.42429829 -2.33003807
8.41336823 -4.15617609 -2.34682155
8.47749043 -4.39005184 -2.06169081
8.51453495 -4.11861372 -2.08219600
8.56375027 -4.35584974 -1.79191709
8.59908485 -4.08078098 -1.81435454
8.62696648 -4.31870794 -1.51754320
8.64908123 -4.03982544 -1.53950632
8.67665100 -4.27855301 -1.24190557
8.68861866 -3.99739814 -1.26439738
8.71599007 -4.23476171 -0.96538550
8.71803379 -3.95203710 -0.98906302
8.74662590 -4.18484449 -0.68801576
8.74559307 -3.90248871 -0.71344656
8.77428055 -4.12968063 -0.40918881
8.77375031 -3.84845591 -0.43694144
8.80160904 -4.06876945 -0.13167579
8.80205536 -3.78918028 -0.15963124
8.82910061 -4.00070143 0.14838263
8.83026218 -3.72340512 0.12255944
8.85864830 -3.92370582 0.43638700
8.85989571 -3.65360141 0.41280010
8.87363243 -3.85163879 0.73365402
8.88830185 -3.58614635 0.71158391
8.87248611 -3.78709006 1.03523898
8.88808155 -3.52576184 1.01769328
8.83695602 -3.72918367 1.33910024
8.85050678 -3.47291088 1.32655072
8.77799320 -3.68100023 1.64324296
8.79375076 -3.42833257 1.63577831
8.68215752 -3.64366174 1.94114757
8.69629002 -3.39592600 1.93756616
8.56339169 -3.61624980 2.23271894
8.57908535 -3.37300038 2.23541069
8.44175816 -3.60193133 2.52364898
8.45382118 -3.36306477 2.53419781
8.32295609 -3.60751319 2.82008862
8.33621502 -3.36924529 2.83811378
8.19000149 -3.62797499 3.11234069
8.19712639 -3.39167261 3.13541794
8.05069160 -3.67248940 3.40389037
8.04561996 -3.43439865 3.42908597
7.88145161 -3.74089646 3.68204570
7.86928701 -3.49236774 3.70369697
7.68822479 -3.81410599 3.92500734
7.67661095 -3.55605483 3.95037818
7.49949694 -3.88010478 4.15978527
7.48964357 -3.61548519 4.18716145
7.32803822 -3.93421364 4.39678526
7.31615829 -3.66380954 4.42030048
7.16753197 -3.96452475 4.64065933
7.15759706 -3.69427061 4.65963697
7.00539303 -3.97400165 4.89046431
6.99852180 -3.70455670 4.90588522
6.83898020 -3.96641660 5.14827442
6.83586502 -3.70404434 5.15665436
6.66735029 -3.94999862 5.41655731
6.66839123 -3.69271517 5.41640615
6.48666382 -3.92695951 5.68518019
6.47365141 -3.67369056 5.66308880
6.24156904 -3.89738464 5.90609884
6.23929358 -3.65171576 5.88248396
5.99854851 -3.86969924 6.12655687
5.99731588 -3.62778449 6.09759808
5.75286579 -3.84219718 6.34531069
5.75077963 -3.60347962 6.30895901
5.49886131 -3.81479454 6.55109406
5.49795103 -3.57972360 6.51268959
5.21971846 -3.78738570 6.72292376
5.22781706 -3.55739856 6.69813395
4.93407631 -3.76892400 6.89477777
4.94823170 -3.54154873 6.87953997
4.65200281 -3.76291060 7.06592464
4.66571474 -3.53497744 7.05229616
4.37328148 -3.76434660 7.23341990
4.38515425 -3.53524685 7.22117090
4.09498072 -3.77284431 7.39948368
4.10619307 -3.54168558 7.38696146
3.81626225 -3.78739476 7.56264067
3.82606220 -3.55343390 7.54608965
3.53772664 -3.80707264 7.71526575
3.54394412 -3.56888270 7.68976450
3.24842548 -3.82537127 7.82360029
3.25445604 -3.58426976 7.79551697
2.95483208 -3.84127569 7.89675379
2.96301627 -3.59783292 7.87744188
2.66639161 -3.85236382 7.96790552
2.67683864 -3.60759926 7.95868254
2.38729405 -3.85748410 8.05277157
2.39799690 -3.61328053 8.05148983
2.10986900 -3.85945892 8.13984680
2.12150192 -3.61642408 8.14531136
1.83288121 -3.85973024 8.22900295
1.84604585 -3.61769700 8.24094582
1.55481660 -3.85979795 8.31916332
1.56850433 -3.61829662 8.33244419
1.27864516 -3.85983562 8.41621876
1.29394662 -3.61897302 8.43513203
0.99897128 -3.85921884 8.50845814
1.01624620 -3.61896586 8.53355122
0.71079528 -3.85506773 8.57079220
0.72845632 -3.61617589 8.59703541
0.41484931 -3.84750175 8.59288883
0.43147868 -3.60920238 8.60445786
0.11451250 -3.84018397 8.60170746
0.13264015 -3.60313749 8.60691833
-0.18684056 -3.83428717 8.60048676
-0.16676523 -3.59787226 8.60131264
-0.48730853 -3.82902813 8.58347321
-0.46441558 -3.59350967 8.58813953
-0.78443682 -3.82565069 8.54985714
-0.75983739 -3.59016967 8.56553459
-1.07335770 -3.82309961 8.49261093
-1.04761839 -3.58728766 8.51214027
-1.35424054 -3.82051015 8.42833710
-1.32739687 -3.58426166 8.45022678
-1.62469673 -3.81728673 8.35325336
-1.59935939 -3.58058453 8.38859749
-1.88758314 -3.81295252 8.29173279
-1.86288190 -3.57512999 8.32029343
-2.14441156 -3.80484676 8.22842026
-2.12320805 -3.56845021 8.26587105
-2.40051007 -3.79688382 8.18595886
-2.37816930 -3.55854797 8.20589924
-2.65220833 -3.78312016 8.12387085
-2.41686559 -4.03008318 8.13164139
-2.66464949 -4.01412106 8.06850624
-2.91061997 -3.99563003 7.99826241
-2.67542458 -4.24011803 7.99690151
-2.92058158 -4.22123718 7.93483305
-3.16416383 -4.20051193 7.86367989
-3.15220380 -3.97391462 7.91255617
-3.40867639 -4.18055058 7.79219913
-3.39581442 -3.95318151 7.83231211
-3.64878154 -4.15821981 7.70794916
-3.63697481 -3.93147421 7.74448347
-3.87253761 -4.12826300 7.58993292
-3.87152815 -3.90740728 7.64012051
-4.08596897 -4.09586620 7.45309019
-4.09208918 -3.87932897 7.50856400
-4.29872751 -4.06498194 7.31223631
-4.30926847 -3.85203171 7.36663437
-4.51902962 -4.03973532 7.17654467
-4.53145075 -3.82926393 7.22532368
-4.74497652 -4.01934958 7.04155111
-4.75610304 -3.81002259 7.08092976
-4.97709894 -4.00401831 6.90421581
-4.98459291 -3.79533648 6.93308163
-5.21405363 -3.99553275 6.76069403
-5.22014523 -3.78672743 6.78694534
-5.45018339 -3.99477220 6.60960531
-5.20023346 -4.19800043 6.72617435
-5.43739605 -4.19933558 6.57851982
-5.65149069 -4.20569611 6.40091372
-5.40425062 -4.39448357 6.52301264
-5.61298180 -4.40322208 6.34598684
-5.80134010 -4.41798019 6.15333319
-5.55185747 -4.58746529 6.27734470
-5.74145126 -4.60641098 6.09205818
-5.92691660 -4.63321829 5.90098286
-5.67266226 -4.78705597 6.02584791
-5.85896635 -4.82136631 5.84438896
-6.01371193 -4.85433388 5.64232683
-5.77982903 -5.00876331 5.79435015
-5.93635273 -5.04637384 5.59850121
-6.05898285 -5.06421900 5.37826824
-6.05898285 -5.06421900 5.37826824
-5.93635273 -5.04637384 5.59850121
-5.83604097 -5.22051764 5.54127264
-5.94954872 -5.22784138 5.31850672
-6.06734228 -5.25486231 5.09892035
-6.18261003 -5.09262514 5.15620804
-5.81960583 -5.36156178 5.24529552
-5.93670464 -5.39600706 5.03501129
-6.04257488 -5.44908094 4.82372093
-6.19543743 -5.32368660 4.89337969
-6.31601906 -5.15393209 4.94374752
-6.13441086 -5.49147844 4.59748697
-6.29413843 -5.36916924 4.66462231
-6.42848492 -5.20279312 4.72277546
-6.21749735 -5.52484941 4.36661386
-6.36795950 -5.38523293 4.42650843
-6.51390362 -5.23290920 4.48774242
-6.30438995 -5.55653286 4.12964725
-6.45272398 -5.41380548 4.18753433
-6.59411860 -5.25755310 4.24927425
-6.38391352 -5.57564735 3.88580155
-6.54273415 -5.44023180 3.94427800
-6.67997885 -5.27757454 4.00872087
-6.45626116 -5.58496428 3.63782573
-6.62819815 -5.46124649 3.69850373
-6.77374792 -5.29834175 3.76495028
-6.52780771 -5.57513094 3.38362932
-6.71637678 -5.47024822 3.44973874
-6.87551785 -5.31382799 3.52296925
-6.58723783 -5.54284811 3.12921691
-6.77918243 -5.43518448 3.19676852
-6.95403337 -5.30006361 3.27184463
-6.63971043 -5.50029325 2.87555623
-6.82759762 -5.38515282 2.93700576
-7.00984144 -5.25897217 3.01349711
-6.68540859 -5.45793295 2.62465620
-6.88203335 -5.34369087 2.67720938
-7.06702518 -5.22267246 2.75086355
-6.73763800 -5.43454933 2.36650252
-6.93704653 -5.31790638 2.41782308
-7.13247824 -5.20216036 2.48014784
-6.78441191 -5.42754078 2.11643600
-7.00585461 -5.32261753 2.15677309
-7.21618223 -5.21470261 2.20907211
-6.82560349 -5.42290354 1.86781240
-7.05928707 -5.32574654 1.89418781
-7.27969694 -5.21626139 1.92632079
-6.84641838 -5.41439152 1.61670089
-7.07777596 -5.30316210 1.63438356
-7.29279518 -5.18494225 1.64945447
-6.85213852 -5.40981197 1.36607134
-7.06747246 -5.28525352 1.37508750
-7.27739000 -5.15317488 1.37768650
-6.84803247 -5.41720200 1.11158681
-7.05857420 -5.28799105 1.11243892
-7.25444412 -5.14460325 1.10806346
-6.83824015 -5.42849970 0.85315281
-7.04890966 -5.29960871 0.84563363
-7.24748278 -5.15384817 0.83550256
-6.81650543 -5.43121958 0.59970826
-7.02702093 -5.29312515 0.58321965
-7.22366285 -5.14142942 0.57157612
-6.78544950 -5.42250538 0.34548441
-6.99646902 -5.28428841 0.32820794
-7.19385195 -5.12558365 0.31243610
-6.74823809 -5.41431284 0.09736793
-6.95985460 -5.27080345 0.07402840
-7.15964794 -5.11158180 0.05599113
-6.70503902 -5.40679550 -0.14961661
-6.91630745 -5.26027822 -0.17591652
-7.11717224 -5.09887362 -0.19667974
-6.65341663 -5.40028048 -0.39359543
-6.86478615 -5.24978447 -0.42262813
-7.06770563 -5.08692980 -0.44787788
-6.59568596 -5.39490318 -0.63571572
-6.80739832 -5.24323368 -0.66808450
-7.01125431 -5.07995033 -0.69687140
-6.53135967 -5.39282179 -0.87556702
-6.74475288 -5.24177313 -0.91232181
-6.94887877 -5.07826614 -0.94513828
-6.46015501 -5.39143848 -1.11426663
-6.67517757 -5.24328518 -1.15536618
-6.87971830 -5.08024693 -1.19189060
-6.38169909 -5.38950968 -1.35203600
-6.59794569 -5.24492168 -1.39653373
-6.80375051 -5.08496189 -1.43737257
-6.29392910 -5.38685942 -1.58680618
-6.51092625 -5.24334478 -1.63602662
-6.71802998 -5.08642769 -1.68119669
-6.19980145 -5.38365507 -1.82000291
-6.41708469 -5.24418545 -1.87465501
-6.62609386 -5.09342241 -1.92492306
-6.09932899 -5.38205719 -2.05294299
-6.31413126 -5.24110079 -2.10953760
-6.52434635 -5.09430647 -2.16503358
-5.99234819 -5.38089752 -2.28247786
-6.20928049 -5.24633741 -2.34514546
-6.41650772 -5.09715223 -2.40432644
-5.88078547 -5.37968111 -2.50974035
-6.09476852 -5.24387646 -2.57581782
-6.30434322 -5.10072565 -2.63950968
-5.76254034 -5.37773991 -2.73519039
-5.97770834 -5.24463701 -2.80455256
-6.18579531 -5.10330915 -2.87341547
-5.64058733 -5.37576103 -2.95651031
-5.85452175 -5.24422073 -3.03093791
-6.06010866 -5.10219431 -3.10253859
-5.51448202 -5.37143564 -3.17325068
-5.72624683 -5.24212980 -3.25364423
-5.93009377 -5.10031891 -3.32841659
-5.38284397 -5.36720467 -3.38842750
-5.59386110 -5.23858213 -3.47182465
-5.79536057 -5.09584141 -3.54983282
-5.24979258 -5.36410666 -3.60087562
-5.46004295 -5.23756552 -3.68851042
-5.66342163 -5.10030556 -3.77151513
-5.11329269 -5.35960007 -3.81019640
-5.32322216 -5.23357153 -3.90090108
-5.52551365 -5.09986115 -3.99011731
-4.97498751 -5.35291147 -4.01575851
-5.18353558 -5.23082685 -4.11203003
-5.38668966 -5.10055685 -4.20549822
-4.83274508 -5.34536266 -4.21849823
-5.04140234 -5.22451973 -4.31737518
-5.24350071 -5.09631062 -4.41593552
-4.68878317 -5.33429098 -4.41580248
-4.89561462 -5.21670866 -4.52045202
-5.09720850 -5.09038401 -4.62285662
-4.54182959 -5.32153893 -4.61115217
-4.74708748 -5.20461416 -4.71816397
-4.94591522 -5.07875299 -4.82338572
-4.39347887 -5.30770636 -4.80334568
-4.59677172 -5.19118786 -4.91305494
-4.79209137 -5.06555176 -5.02138662
-4.24337196 -5.28910398 -4.99093962
-4.44190216 -5.17198992 -5.10393858
-4.63413954 -5.04933500 -5.21684122
-4.08941746 -5.26356649 -5.17406273
-4.28426886 -5.14687967 -5.29083824
-4.47421122 -5.02245092 -5.40374470
-3.93523598 -5.23492527 -5.35390234
-4.12723637 -5.11743355 -5.47253847
-4.31108570 -4.98884535 -5.58720112
-3.78078580 -5.20216751 -5.52887201
-3.96910715 -5.08231783 -5.65047073
-4.14851665 -4.95034552 -5.76571035
-3.62659168 -5.16535664 -5.69952822
-3.81214619 -5.04407501 -5.82329655
-3.99037051 -4.91240931 -5.94171524
-3.47367096 -5.12791872 -5.86609125
-3.65699482 -5.00519943 -5.99252033
-3.83290076 -4.87298107 -6.11448145
-3.32110715 -5.08748055 -6.02729082
-3.50048780 -4.96301746 -6.15752220
-3.67668247 -4.83288479 -6.28373432
-3.16837406 -5.04700613 -6.18508911
-3.34609842 -4.92383575 -6.31783628
-3.51712251 -4.78982973 -6.44505405
-3.01417136 -5.00548220 -6.33747959
-3.18867588 -4.88061476 -6.47241020
-3.35648417 -4.74662590 -6.60282516
-2.86046600 -4.96440697 -6.48521709
-3.03188062 -4.83759928 -6.62139320
-3.19520617 -4.70186138 -6.75371408
-2.70582366 -4.92232990 -6.62786150
-2.87368608 -4.79445696 -6.76528215
-3.03293610 -4.65919304 -6.90145159
-2.55139995 -4.87885571 -6.76426840
-2.71466994 -4.74993134 -6.90319538
-2.87079167 -4.61492252 -7.04053736
-2.39856529 -4.83455276 -6.89405251
-2.55602741 -4.70394850 -7.03501081
-2.70166183 -4.56704998 -7.17234564
-2.24521875 -4.79026651 -7.02061939
-2.39349103 -4.65828180 -7.16121101
-2.53467727 -4.52003860 -7.29807377
-2.08936810 -4.74594545 -7.14178133
-2.23373342 -4.61495829 -7.28140068
-2.36787224 -4.47481012 -7.41899681
-1.93734884 -4.70204449 -7.25718403
-2.07582712 -4.57005167 -7.39563560
-2.20155096 -4.42901754 -7.53213406
-1.78643906 -4.65747166 -7.36703205
-1.91758645 -4.52362967 -7.50447512
-2.03425384 -4.38300133 -7.63871717
-1.64126229 -4.61273003 -7.47007561
-1.76321638 -4.47646284 -7.60403395
-1.87005115 -4.33663082 -7.73548317
-1.49746549 -4.56751204 -7.56748152
-1.61123502 -4.43113232 -7.69920492
-1.70622647 -4.29209375 -7.82808256
-1.35973799 -4.52489328 -7.65918779
-1.46047223 -4.38996983 -7.78869343
-1.54301822 -4.25001907 -7.91596413
-1.23218346 -4.48347569 -7.74755144
-1.31758392 -4.35338879 -7.87281179
-1.38109648 -4.21667910 -7.99655914
-1.10656214 -4.44527435 -7.83011913
-1.17931807 -4.31976318 -7.95340872
-1.22016132 -4.19017029 -8.07175350
-1.00008416 -4.41349506 -7.90369797
-1.03764820 -4.29879427 -8.02222729
-1.05731404 -4.17555523 -8.13846588
-0.88828027 -4.28223324 -8.08290863
-0.87907249 -4.17510223 -8.19488525
-0.70492136 -4.29617405 -8.11877918
-0.67371756 -4.19651985 -8.23310471
-0.49634361 -4.33865404 -8.13160229
-0.46431103 -4.22802734 -8.25526810
-0.34377673 -4.49036026 -7.99216700
-0.29086450 -4.38880014 -8.12439060
-0.24952845 -4.27946472 -8.25405502
-0.14325176 -4.55349398 -7.96215439
-0.08298804 -4.44976902 -8.09872818
-0.02780125 -4.33826637 -8.23737621
0.06247699 -4.62261438 -7.92390776
0.13026586 -4.51675320 -8.06462288
0.19377252 -4.40486479 -8.20451069
0.27463591 -4.69653749 -7.87679958
0.34857163 -4.59122562 -8.02116108
0.41877785 -4.47731256 -8.16017246
0.49411565 -4.77366114 -7.82292175
0.57068646 -4.66654730 -7.96751690
0.64694935 -4.55584955 -8.11214924
0.71701962 -4.85364628 -7.76228333
0.79977751 -4.74792099 -7.91029167
0.87857831 -4.63715267 -8.05469131
0.94580740 -4.93606710 -7.69841099
1.03129709 -4.83743906 -7.85218096
1.11514711 -4.73476219 -8.00407219
1.17759347 -5.03424263 -7.63765764
1.26588428 -4.93942022 -7.79677296
1.35721660 -4.83133030 -7.94784498
1.41333151 -5.12811136 -7.57040596
1.51098251 -5.02979612 -7.72901773
1.60456061 -4.91993189 -7.87980556
1.65675533 -5.21647406 -7.49506092
1.75936806 -5.11114025 -7.65156221
1.85900140 -4.99833632 -7.80324697
1.90118861 -5.29257631 -7.40962934
2.00889373 -5.19100046 -7.57019663
2.11394858 -5.07127953 -7.72112703
2.14878297 -5.36173105 -7.31758547
2.25986695 -5.25885153 -7.47893763
2.36709666 -5.13596773 -7.62998247
2.39627576 -5.42811155 -7.22011805
2.51126361 -5.31846142 -7.37930679
2.62062597 -5.19474745 -7.53113270
2.64464235 -5.47836208 -7.11111355
2.76357079 -5.36962175 -7.27065086
2.87493992 -5.24760818 -7.42259979
2.89203882 -5.51793432 -6.99398136
3.01787186 -5.41478157 -7.15456772
3.12953901 -5.29071712 -7.30363035
3.27260733 -5.46045256 -7.03686428
3.39152765 -5.34236002 -7.18639088
3.39152765 -5.34236002 -7.18639088
3.50094771 -5.21634626 -7.33329678
3.12953901 -5.29071712 -7.30363035
3.65874004 -5.40628386 -7.06994390
3.77587509 -5.29104519 -7.22127247
3.88863158 -5.15760660 -7.34024477
4.06334257 -5.38536358 -7.11281872
4.18964672 -5.27055740 -7.23975039
4.30288935 -5.11763716 -7.31451797
4.50609255 -5.38585281 -7.06751680
4.61395884 -5.22564507 -7.13422155
4.69878149 -5.03911781 -7.18719387
4.87867832 -5.29752779 -6.89022064
4.98095131 -5.12353706 -6.99365091
5.06648207 -4.92872906 -7.08403063
5.23006010 -5.16450071 -6.78691053
5.31590128 -4.96065187 -6.89558697
5.36168528 -4.72342968 -6.92501116
5.54222727 -4.95234442 -6.66991377
5.61299610 -4.73939896 -6.71804285
5.61299610 -4.73939896 -6.71804285
5.54222727 -4.95234442 -6.66991377
5.78275061 -4.98588419 -6.47135210
5.86921310 -4.77480936 -6.51127195
6.01003361 -5.01861477 -6.25731516
6.10738993 -4.80786705 -6.29020882
6.24236727 -5.04350805 -6.03281403
6.32852602 -4.82758856 -6.05054951
6.48348570 -5.05578804 -5.79829073
6.56759882 -4.84011745 -5.81113386
6.71139908 -5.05203819 -5.53976583
6.78772449 -4.83778763 -5.54625034
6.90150547 -5.02660608 -5.24768066
6.98468924 -4.81791592 -5.25803375
7.10770655 -5.00798845 -4.96737576
7.17982101 -4.79563141 -4.96583033
7.28081703 -4.98485422 -4.67399597
7.35246086 -4.77751446 -4.65667534
7.43439627 -4.97879314 -4.37182713
7.51146841 -4.77812004 -4.34798098
7.57622051 -4.98606873 -4.06367254
7.65035152 -4.78483295 -4.03822994
7.70878124 -5.00516796 -3.76178861
7.78006077 -4.79253054 -3.73594451
7.84298277 -5.02264547 -3.46636009
7.90214634 -4.79717302 -3.44507456
7.95624876 -5.01369286 -3.17507958
8.01033020 -4.78068209 -3.15983701
8.05537701 -4.98487473 -2.87941408
8.11391354 -4.75009346 -2.87773156
8.15978336 -4.95092964 -2.59396839
8.21943855 -4.71438837 -2.59565449
8.26878929 -4.92100525 -2.31362629
8.32783222 -4.67928314 -2.31937122
8.37156391 -4.89848471 -2.03697681
8.43132973 -4.65076208 -2.04611993
8.46233177 -4.87838793 -1.76232493
8.51624680 -4.62218285 -1.77311730
8.55130577 -4.85411024 -1.48397005
8.58579731 -4.58942986 -1.49720967
8.63176155 -4.82371092 -1.20310628
8.66285992 -4.55549240 -1.22217858
8.70164680 -4.78784609 -0.92118448
8.70971680 -4.51347017 -0.94297665
8.73993397 -4.73697758 -0.63384372
8.74628448 -4.46339989 -0.66109455
8.74423790 -4.67694855 -0.34269440
8.77076435 -4.40767193 -0.37751928
8.75874233 -4.61955786 -0.05668686
8.79520798 -4.34790421 -0.09720513
8.78674603 -4.55532408 0.22554788
8.82088757 -4.28142405 0.18151425
8.83080196 -4.47251844 0.50920016
8.85377789 -4.19599771 0.46656987
8.82425117 -4.39425373 0.79434031
8.85477161 -4.11996794 0.76044029
8.79366589 -4.31580162 1.07800007
8.84734440 -4.05216742 1.05729139
8.75372124 -4.24967480 1.37094712
8.81040192 -3.99011183 1.35592711
8.68342972 -4.19201946 1.66016221
8.74679089 -3.93688917 1.65230095
8.58401203 -4.14369440 1.94008410
8.64449692 -3.89310074 1.94108057
8.47237301 -4.11188126 2.21819901
8.52889633 -3.86256576 2.22664165
8.35359287 -4.09462166 2.48462486
8.41043472 -3.84514427 2.50729895
8.24884892 -4.09669590 2.75365210
8.29751968 -3.84845591 2.79018188
8.13063526 -4.11463785 3.02058101
8.17228603 -3.86825728 3.07090497
8.00758553 -4.15883207 3.28187466
8.04158878 -3.91329622 3.36136627
7.87070084 -4.23417664 3.54714870
7.89935017 -3.98697448 3.63753057
7.71553946 -4.31750059 3.80609488
7.71188545 -4.07044840 3.88409138
7.52788639 -4.39847851 4.05668449
7.51479101 -4.14339876 4.11805582
7.35116529 -4.46417665 4.30915403
7.33750916 -4.20368910 4.35836554
7.17251205 -4.49434423 4.56845379
7.17113113 -4.23404789 4.60890007
6.98632050 -4.48955727 4.83728123
6.99920511 -4.23717403 4.86325693
6.80300999 -4.46831465 5.11377573
6.82563162 -4.22165966 5.13301182
6.61014986 -4.43914747 5.39892626
6.65073299 -4.20002794 5.41314077
6.40743494 -4.41148996 5.66991043
6.45641804 -4.17206144 5.68170214
6.17468834 -4.37537384 5.91067600
6.22217464 -4.13913536 5.91759586
5.93910503 -4.34174061 6.15404701
5.98296118 -4.10794210 6.15013695
5.70447254 -4.31583691 6.39404774
5.74479246 -4.07984018 6.38129759
5.45929098 -4.28871346 6.61511421
5.49049330 -4.05034637 6.58983374
5.16100502 -4.24233294 6.75652075
5.20609379 -4.01756096 6.75256824
4.87344360 -4.22306824 6.90853357
4.91498280 -3.99583364 6.90881443
4.60633707 -4.22250223 7.07617188
4.63524055 -3.99074483 7.07827997
4.34869623 -4.22819948 7.24681568
4.36238861 -3.99391460 7.24422026
4.08332157 -4.23578882 7.41044903
4.08558893 -4.00345325 7.40822887
3.79824471 -4.25477362 7.55123615
3.80743694 -4.02200890 7.57204103
3.51350975 -4.28584480 7.70083094
3.52814746 -4.04733467 7.72390652
3.22470450 -4.31632090 7.81808996
3.24188042 -4.07066441 7.84597206
2.93260479 -4.33465576 7.89639950
2.94573450 -4.08679152 7.90421724
2.64640141 -4.34586954 7.97232389
2.65741801 -4.09760809 7.97165775
2.36212683 -4.34858465 8.03873062
2.37709856 -4.10253191 8.05295753
2.08234572 -4.34394360 8.10652351
2.09700847 -4.10194349 8.12652683
1.80506992 -4.34118271 8.18756676
1.81973588 -4.10138178 8.21354103
1.52744770 -4.33970404 8.27396011
1.54197395 -4.10080051 8.30279255
1.25127053 -4.34097433 8.37187672
1.26420701 -4.10040951 8.39548016
0.97009200 -4.33914614 8.45890808
0.98313111 -4.09850550 8.48055172
0.67901337 -4.33110142 8.51257133
0.69496977 -4.09323549 8.54409695
0.38188073 -4.31957054 8.54861355
0.39841542 -4.08459091 8.57630253
0.07918964 -4.30922604 8.57404041
0.09686714 -4.07592821 8.59417057
-0.22671527 -4.30131245 8.58512020
-0.20804709 -4.06858730 8.59991455
-0.53341287 -4.29508066 8.56138420
-0.51065159 -4.06317616 8.57674026
-0.83598816 -4.29133224 8.51518726
-0.81028914 -4.05964804 8.53665638
-1.12598693 -4.28831339 8.43771839
-1.10077107 -4.05707264 8.47274113
-1.40510118 -4.28634691 8.34991074
-1.37980890 -4.05457258 8.39259338
-1.67211580 -4.28463745 8.25753212
-1.64982593 -4.05229187 8.31244755
-1.92977655 -4.28040552 8.17944717
-1.90832782 -4.04715824 8.23839569
-2.18168998 -4.27206659 8.11755562
-2.16231179 -4.03884411 8.17521000
-2.42965126 -4.25766897 8.05716038
-2.19982576 -4.50118780 8.04994678
-2.44423747 -4.48318434 7.98108292
-2.68816042 -4.46408558 7.91944981
-2.46220374 -4.70806932 7.90602398
-2.70232344 -4.68623543 7.84208632
-2.94582605 -4.66639519 7.79051208
-2.93174934 -4.44427299 7.86151361
-3.18463111 -4.64228296 7.72377443
-3.17279649 -4.42194271 7.79629660
-3.41701365 -4.61599493 7.64321804
-3.41574717 -4.40212011 7.72989178
-3.64597988 -4.59020853 7.55629206
-3.64916706 -4.37657356 7.64011526
-3.86614609 -4.55988836 7.45031691
-3.87194681 -4.34663725 7.52976370
-4.06737757 -4.51959372 7.31620884
-4.07835054 -4.30944347 7.39072323
-4.27222729 -4.48188162 7.18351173
-4.28674173 -4.27526283 7.25310898
-4.48882246 -4.45218849 7.06007195
-4.50533390 -4.24774075 7.12283754
-4.71798944 -4.43075562 6.94973993
-4.73208046 -4.22599459 6.99715996
-4.95316887 -4.41427279 6.83078003
-4.96562386 -4.21014309 6.86802197
-5.17928219 -4.39299059 6.68309879
-4.92786360 -4.60025692 6.76137638
-5.14191628 -4.58033800 6.61054802
-5.35172844 -4.57726336 6.44920969
-5.08520031 -4.75287104 6.52053690
-5.28648996 -4.75044489 6.36656237
-5.48159981 -4.76437235 6.20394230
-5.21579027 -4.91622353 6.27912855
-5.40616751 -4.92934990 6.12307549
-5.59569979 -4.96098995 5.96199083
-5.59569979 -4.96098995 5.96199083
-5.40616751 -4.92934990 6.12307549
-5.31914473 -5.08775902 6.03945065
-5.50490618 -5.12393808 5.89055395
-5.68742609 -5.18573618 5.73588753
-5.77982903 -5.00876331 5.79435015
-5.38731003 -5.24992561 5.79473972
-5.55055761 -5.29727650 5.63445520
-5.69512606 -5.33307362 5.45056200
-5.40877914 -5.38289261 5.52635717
-5.54852152 -5.41774559 5.35348368
-5.67047024 -5.46024561 5.16442490
-5.39658403 -5.48576880 5.26120424
-5.51381588 -5.52392483 5.07540178
-5.62234783 -5.57701254 4.88808155
-5.78559637 -5.51006174 4.96589756
-5.71297407 -5.62411547 4.68528080
-5.88799143 -5.56569481 4.75801659
-5.79594326 -5.65765524 4.46746588
-5.97334337 -5.60329914 4.53691244
-5.87680006 -5.70117092 4.24664497
-6.05836296 -5.64068747 4.30772114
-5.95005703 -5.72991180 4.01591301
-6.13758564 -5.66949654 4.07340670
-6.01575089 -5.74094009 3.77743578
-6.20406342 -5.67234468 3.83027935
-6.07654285 -5.74193668 3.53443551
-6.26902962 -5.66997290 3.57992411
-6.13383675 -5.73679399 3.28741360
-6.33228207 -5.65861845 3.32907653
-6.18798304 -5.71864223 3.03867865
-6.38926172 -5.63598442 3.08041000
-6.23312330 -5.69499159 2.79456425
-6.43885994 -5.60105944 2.83190441
-6.26875210 -5.65524912 2.55386114
-6.48383522 -5.56410074 2.58069658
-6.30362368 -5.62807703 2.31041884
-6.52201223 -5.53466654 2.33578348
-6.33126831 -5.61037016 2.07096720
-6.55893993 -5.52238417 2.08975530
-6.35660887 -5.60487413 1.83283985
-6.59162235 -5.51774311 1.84421062
-6.37643194 -5.60465240 1.59316599
-6.61313152 -5.51662207 1.60309005
-6.38409519 -5.60884714 1.35526133
-6.62094021 -5.51687431 1.35927689
-6.38070917 -5.61452293 1.11711717
-6.61988640 -5.52663374 1.11143172
-6.37089634 -5.62526083 0.87455863
-6.61146832 -5.54117918 0.86426193
-6.35130882 -5.63121128 0.63507444
-6.59073496 -5.54509640 0.61480057
-6.32063913 -5.63113070 0.39292833
-6.55813980 -5.53669786 0.36827910
-6.28771210 -5.63599873 0.15192811
-6.52506351 -5.53921032 0.12308124
-6.24642801 -5.63992596 -0.08519118
-6.48066330 -5.53251839 -0.11923524
-6.19693136 -5.64256096 -0.32111016
-6.42949390 -5.52867842 -0.35902578
-6.14035177 -5.64314508 -0.55564195
-6.37191629 -5.52805424 -0.59757680
-6.07599878 -5.63998127 -0.78864008
-6.30906534 -5.52779102 -0.83490694
-6.00346565 -5.63994598 -1.02085888
-6.23616695 -5.52337265 -1.06939113
-5.92499447 -5.63844728 -1.25042284
-6.15686464 -5.52111435 -1.30291259
-5.83935261 -5.63554382 -1.47838104
-6.07015276 -5.51690340 -1.53444076
-5.74680901 -5.63093710 -1.70470762
-5.97626400 -5.51212263 -1.76346517
-5.64638901 -5.62702274 -1.92789435
-5.87566853 -5.50947332 -1.99182689
-5.54215717 -5.62336302 -2.14983439
-5.76909637 -5.50655365 -2.21750689
-5.43109512 -5.61917734 -2.36869812
-5.65797091 -5.50299311 -2.44037414
-5.31530666 -5.61608982 -2.58621359
-5.54181623 -5.50152254 -2.66168332
-5.19527054 -5.61204529 -2.79954576
-5.42068338 -5.49828482 -2.87895393
-5.07111931 -5.60554266 -3.00884938
-5.29514790 -5.49351215 -3.09308147
-4.94267416 -5.59940434 -3.21702838
-5.16625500 -5.48766804 -3.30271769
-4.81290102 -5.59324837 -3.42005730
-5.03312683 -5.48156738 -3.51212263
-4.67865181 -5.58611488 -3.62177110
-4.89836121 -5.47593546 -3.71640587
-4.54148483 -5.57506704 -3.81910014
-4.76025438 -5.46779346 -3.91810155
-4.40228748 -5.56328011 -4.01284409
-4.62002897 -5.45753288 -4.11594725
-4.26057911 -5.54961300 -4.20399475
-4.47656345 -5.44470263 -4.31034708
-4.11814690 -5.53513002 -4.39148331
-4.33173227 -5.43139696 -4.50233221
-3.97349787 -5.51967716 -4.57749987
-4.18615150 -5.41800785 -4.69134521
-3.82830811 -5.50135660 -4.75836802
-4.03803539 -5.39869785 -4.87581682
-3.68037987 -5.47658062 -4.93511200
-3.88779473 -5.37368393 -5.05639172
-3.53218579 -5.44976854 -5.10915184
-3.73710942 -5.34454727 -5.23118401
-3.38358736 -5.41947556 -5.27899694
-3.58568811 -5.31336308 -5.40421915
-3.23501492 -5.38526821 -5.44381189
-3.43409348 -5.27851009 -5.57238626
-3.08636212 -5.35015154 -5.60576582
-3.28321505 -5.24201202 -5.73625278
-2.93906546 -5.31420708 -5.76317644
-3.13326502 -5.20381927 -5.89597750
-2.79242015 -5.27751875 -5.91734123
-2.98342991 -5.16565323 -6.05185890
-2.64430952 -5.23864412 -6.06609726
-2.83313203 -5.12550783 -6.20185137
-2.49640489 -5.19998693 -6.21046734
-2.68297100 -5.08541584 -6.34794903
-2.34878635 -5.15788078 -6.35058832
-2.53094459 -5.04385424 -6.48892546
-2.20195508 -5.11773443 -6.48535252
-2.38100576 -5.00325489 -6.62520933
-2.05496192 -5.07636833 -6.61833715
-2.23138213 -4.96044016 -6.75697327
-1.90887785 -5.03295851 -6.74467373
-2.08177543 -4.91482496 -6.88270712
-1.76616108 -4.99055767 -6.86577082
-1.93297279 -4.87172937 -7.00380850
-1.62228036 -4.94848919 -6.98184204
-1.78630674 -4.82973957 -7.12000799
-1.47962821 -4.90613174 -7.09750271
-1.64043713 -4.78562021 -7.23089504
-1.34414566 -4.86496735 -7.20669746
-1.50150609 -4.74188328 -7.33584881
-1.21005249 -4.82105350 -7.31115294
-1.36377060 -4.69774055 -7.43656635
-1.08366668 -4.77884197 -7.41132069
-1.23469329 -4.65564966 -7.53185034
-0.96354324 -4.73578167 -7.50750113
-1.11262667 -4.61421776 -7.62334108
-0.85005093 -4.68992376 -7.60375023
-0.99336344 -4.57172489 -7.71131468
-0.75771093 -4.64503336 -7.69053507
-0.91790980 -4.53376579 -7.78151035
-0.67982298 -4.79205370 -7.51756525
-0.57857430 -4.73462820 -7.62394285
-0.48441371 -4.66624641 -7.74018192
-0.38708124 -4.81999922 -7.56090879
-0.29644677 -4.74038839 -7.69084787
-0.21320251 -4.65135050 -7.82622719
-0.40587220 -4.58531713 -7.86166573
-0.09746211 -4.81460571 -7.64344835
-0.01190636 -4.72277355 -7.78312969
0.10743876 -4.89001751 -7.58899546
0.19514777 -4.79697037 -7.73296928
0.31445390 -4.96631050 -7.52876663
0.40811381 -4.87265301 -7.67691708
0.52945143 -5.04594040 -7.46453905
0.62595832 -4.95280409 -7.61490917
0.75170118 -5.11503744 -7.38786650
0.84993196 -5.03041267 -7.54544687
0.97869694 -5.18511868 -7.30868721
1.07972634 -5.11327648 -7.47320366
1.20952582 -5.26402044 -7.22857904
1.31200516 -5.20698595 -7.40255642
1.43975413 -5.35929441 -7.15090179
1.55051458 -5.29403591 -7.32468653
1.67598665 -5.44529009 -7.06590557
1.79061806 -5.37693071 -7.24071550
1.91369903 -5.52566242 -6.97497559
2.03249335 -5.45417976 -7.14997196
2.15374470 -5.59844017 -6.87735224
2.27695584 -5.52237320 -7.05314255
2.39315510 -5.65480566 -6.76987410
2.52176690 -5.57523537 -6.94491959
2.63230300 -5.69841862 -6.65459585
2.76557326 -5.61424971 -6.82779741
2.86690307 -5.73820162 -6.53600025
3.00870275 -5.65462303 -6.71006060
3.14442897 -5.55988598 -6.87532282
3.25110102 -5.69543695 -6.59127045
3.39745593 -5.60803986 -6.75700426
3.53478312 -5.51833963 -6.92073965
3.64426851 -5.66172838 -6.63698387
3.79784107 -5.58131027 -6.80229759
3.93760324 -5.48923969 -6.96213579
3.65874004 -5.40628386 -7.06994390
4.04942036 -5.66417885 -6.68518877
4.21363211 -5.58869123 -6.84083223
4.21363211 -5.58869123 -6.84083223
4.36141253 -5.49776649 -6.97331190
3.93760324 -5.48923969 -6.96213579
4.45111465 -5.72287750 -6.66119146
4.62538576 -5.60095692 -6.72217560
4.76220322 -5.45952797 -6.80538654
4.84402990 -5.67600012 -6.48103333
4.98801279 -5.51075840 -6.56868124
5.11690664 -5.34029913 -6.66942263
5.20471525 -5.54982042 -6.36360645
5.33917522 -5.36394787 -6.47485495
5.45463943 -5.16242361 -6.58563662
5.45463943 -5.16242361 -6.58563662
5.33917522 -5.36394787 -6.47485495
5.54968166 -5.38878012 -6.29042959
5.67544127 -5.19165230 -6.39538622
5.76916933 -5.41233158 -6.10305214
5.89041424 -5.21701574 -6.19454384
6.01701641 -5.43370104 -5.90946054
6.13453960 -5.24364567 -5.98405838
6.25885296 -5.43803310 -5.68577337
6.37465572 -5.25047350 -5.75030708
6.48698378 -5.42425251 -5.44015551
6.61569023 -5.25305176 -5.50749779
6.68659067 -5.39465380 -5.16458511
6.79962540 -5.21648407 -5.21399355
6.88959026 -5.38247728 -4.90704107
7.01677465 -5.21115589 -4.95228100
7.07151842 -5.36772299 -4.64881182
7.20110416 -5.19480181 -4.68067694
7.21760273 -5.33920431 -4.37697268
7.34170246 -5.17119694 -4.38634920
7.36605835 -5.33801651 -4.09365368
7.48448086 -5.17313719 -4.08586645
7.50782061 -5.36228514 -3.80462456
7.61671448 -5.19183159 -3.78639770
7.65033340 -5.37877703 -3.49298358
7.75735188 -5.21684027 -3.48623037
7.77789974 -5.38512039 -3.17749643
7.88638353 -5.22569752 -3.17970967
7.88104248 -5.37071562 -2.86168218
7.98281908 -5.19516039 -2.87341595
7.98165941 -5.34944773 -2.56695914
8.08131504 -5.16511440 -2.58159733
8.08511448 -5.34630537 -2.28877282
8.18837166 -5.14358044 -2.30476952
8.17479229 -5.33489513 -2.01486635
8.28929234 -5.12924480 -2.03019428
8.26983929 -5.33139849 -1.74094117
8.38536358 -5.11721992 -1.75378585
8.36794472 -5.31007290 -1.44943237
8.47503757 -5.09539795 -1.47216249
8.47827721 -5.30372429 -1.16368151
8.58392429 -5.07912397 -1.18705416
8.52927113 -5.26617241 -0.86615700
8.66733932 -5.05207157 -0.89449519
8.54246616 -5.21104288 -0.56990516
8.68473625 -4.99421358 -0.59458423
8.53572178 -5.15325499 -0.27568609
8.66272640 -4.92579317 -0.30704597
8.54218006 -5.10194016 0.01609085
8.66688347 -4.87074804 -0.01801625
8.55890846 -5.04728937 0.30763513
8.69958115 -4.81439304 0.27107295
8.60562897 -4.99563456 0.59205043
8.75407505 -4.75104952 0.55529237
8.60969353 -4.92932272 0.86706007
8.75005054 -4.66816473 0.83114833
8.57680607 -4.83703899 1.13360095
8.70419121 -4.58271360 1.10701156
8.52442646 -4.74785614 1.40623450
8.65689754 -4.50305748 1.38702738
8.45633507 -4.68540668 1.66911137
8.58661938 -4.44211912 1.66951799
8.36810017 -4.64601660 1.92768753
8.49325085 -4.39361238 1.94018435
8.28145599 -4.63084841 2.17581820
8.39445400 -4.36733294 2.20437479
8.16921139 -4.61650372 2.41268015
8.28707409 -4.35555696 2.45747995
8.05385017 -4.60891819 2.64340758
8.17489719 -4.35321999 2.70481825
7.93972778 -4.61843586 2.87371922
8.05703354 -4.36520529 2.95169806
7.82732773 -4.65396929 3.11098790
7.93686962 -4.40801525 3.19846034
7.71160984 -4.70966339 3.35179758
7.80888319 -4.47009993 3.44867849
7.59038448 -4.78453636 3.59903955
7.66912699 -4.55379915 3.70904303
7.44084454 -4.86376429 3.85604882
7.51269150 -4.63916779 3.96964312
7.28561687 -4.92939234 4.14988089
7.34051466 -4.71082783 4.23858261
7.10123491 -4.95179176 4.45823479
7.15538931 -4.73540115 4.51877785
6.89998960 -4.94209003 4.77449846
6.96453953 -4.73102808 4.81282282
6.70553207 -4.91923714 5.08525562
6.75977898 -4.69902992 5.09955931
6.48660612 -4.88851166 5.37187338
6.55202770 -4.66758919 5.38327599
6.27078676 -4.86899805 5.64797163
6.34442329 -4.64344454 5.66141653
6.02815104 -4.83069038 5.88983154
6.11306286 -4.60555410 5.90502739
5.79114771 -4.79497147 6.11949682
5.87408829 -4.56976938 6.14437389
5.52414417 -4.74826860 6.31259489
5.63091660 -4.54191399 6.37389469
5.26622391 -4.71365213 6.49794722
5.37299347 -4.50803804 6.57319117
5.00648069 -4.68104506 6.65427446
5.09961605 -4.46658087 6.72742319
4.74688816 -4.66904783 6.80379915
4.82688284 -4.45268440 6.88211918
4.49484015 -4.67428637 6.96417189
4.56524658 -4.45528793 7.04336643
4.25426340 -4.69020891 7.13474751
4.31484032 -4.46375751 7.21548128
4.00561619 -4.69822073 7.28287315
4.06517029 -4.47326994 7.37762165
3.74244428 -4.70748568 7.41636276
3.77954555 -4.48371077 7.49830818
3.47098994 -4.73844099 7.55654049
3.49462199 -4.51622677 7.63804531
3.19046593 -4.78483200 7.69598532
3.20878315 -4.55524302 7.76823997
2.90739298 -4.82005596 7.82080412
2.92072821 -4.58053017 7.87303734
2.60720420 -4.82873487 7.87998629
2.62670135 -4.59056711 7.94001627
2.31125212 -4.82134914 7.92639875
2.33955407 -4.59012747 7.99876499
2.03221941 -4.81040287 7.98676443
2.05925846 -4.58054018 8.05790615
1.75975537 -4.80591154 8.06898880
