5.46671820 0.92206973 5.96110439
5.48626661 1.01273239 5.99339104
4.82250404 1.04043067 6.56672001
5.18630409 1.04364014 6.31926632
5.53376579 1.05874550 6.05997801
5.87705231 1.05864596 5.78442049
5.82254457 1.01598024 5.71736574
5.58903170 1.03282428 6.13398838
5.18630409 1.04364014 6.31926632
5.23927259 1.01922035 6.39489222
5.53376579 1.05874550 6.05997801
5.93833876 1.03493857 5.85892057
5.87705231 1.05864596 5.78442049
6.26665068 1.01994801 5.56425953
6.20618343 1.05203545 5.49558830
5.62897825 0.96083653 6.18778372
5.98465157 0.96390814 5.91599464
6.30711842 0.94601452 5.61433983
6.57372141 1.02019310 5.25999260
6.61506224 0.94160247 5.30864000
6.00286627 0.85953414 5.94118071
6.32921696 0.84849620 5.64532375
6.63238049 0.83880645 5.33515120
6.91697741 0.81565821 5.01912642
6.89473295 0.91895211 4.98706961
6.33542204 0.73379672 5.66018438
6.64024782 0.72452050 5.35282278
6.93045139 0.69970244 5.04186106
7.19254303 0.67265522 4.71832895
7.17759895 0.78317249 4.69331932
6.93281031 0.57113844 5.05624628
6.64069986 0.59709018 5.36341619
7.20008802 0.54425210 4.73831415
7.43985844 0.51797867 4.41120481
7.43671799 0.64324117 4.39406967
6.92331266 0.42977479 5.06255054
7.19248104 0.40383831 4.74742937
7.43801212 0.38049087 4.42483234
7.65065098 0.35283861 4.09948492
7.65398359 0.49124557 4.08562040
7.16572618 0.24608241 4.74309397
7.41406775 0.23386484 4.42509270
7.63516331 0.20395280 4.10493135
7.85997438 0.33163595 3.79083633
7.84655428 0.18779810 3.79478908
7.36980152 0.04862512 4.41160345
7.60480690 0.03440830 4.09975290
7.81150150 0.00991954 3.78342152
8.03624439 0.17150547 3.48744249
7.99949884 0.00997316 3.47135687
7.53463411 -0.21570314 4.06848526
7.74862194 -0.21919599 3.75405335
7.93716288 -0.20953694 3.44077086
8.18865299 0.01816930 3.18047142
8.12366581 -0.19436258 3.14717388
7.65491056 -0.50487256 3.70375061
7.85337067 -0.49400309 3.39400697
8.04801750 -0.48034552 3.10356593
8.30684566 -0.17640775 2.86404800
8.23815918 -0.45908153 2.82141304
7.73605156 -0.81477726 3.32852983
7.94578838 -0.80551648 3.03899288
8.14944172 -0.77858418 2.75402880
8.42581177 -0.42839587 2.54686666
8.34563541 -0.73381203 2.47238922
7.76731968 -1.08427608 2.90918803
7.98142195 -1.05390453 2.61942863
8.18545914 -1.00835109 2.33762074
8.53647518 -0.67601788 2.19945884
8.38785744 -0.95637083 2.06331158
7.77366972 -1.29085624 2.45153880
7.98114634 -1.25017428 2.17133164
8.18513775 -1.19834757 1.89781904
8.58703041 -0.89244860 1.80189407
8.39750767 -1.14147270 1.63731313
7.75194597 -1.45532966 1.97870791
7.96273184 -1.40498877 1.70544815
8.17703247 -1.34362531 1.44075978
8.60846996 -1.05954194 1.38886380
8.39511108 -1.26296639 1.18702507
7.72358942 -1.58375585 1.49898279
7.94669199 -1.52499664 1.23359740
8.17343330 -1.44447577 0.97522855
8.61387825 -1.15637124 0.94650388
8.39877224 -1.32239211 0.72791290
7.92579603 -1.60501218 0.75445455
7.68725014 -1.68200195 1.01009655
8.17149544 -1.47915971 0.50860208
8.63938522 -1.18629062 0.49569494
8.42092514 -1.31913638 0.27664447
8.43836594 -1.24424553 -0.15273190
8.65878010 -1.12474322 0.06842506
8.20246410 -1.45197487 0.05759399
7.94421768 -1.63592744 0.28929099
7.96535921 -1.55922902 -0.16338678
7.69584560 -1.76778531 0.06396692
8.19982910 -1.35511506 -0.36987516
8.42150688 -1.14789140 -0.56160265
8.66135406 -1.03443301 -0.33972570
7.96236467 -1.46171045 -0.59929705
7.72587919 -1.65360665 -0.39504549
8.17948437 -1.25846994 -0.78969181
8.37225342 -1.05605686 -0.96682733
8.62684631 -0.94891006 -0.73632544
7.94275427 -1.35545981 -1.04101372
7.72515249 -1.54820621 -0.85150754
8.13622856 -1.15331471 -1.21866226
8.53246784 -0.87165987 -1.12737918
8.29455090 -0.94852698 -1.37919891
8.43124199 -0.73789471 -1.52773225
8.05662727 -1.02538645 -1.63102603
8.19140339 -0.79277033 -1.78435469
7.66912794 -1.33057296 -1.74776328
7.83327913 -1.10396957 -1.91037571
7.90019560 -1.25057256 -1.47049737
7.95918560 -0.84662718 -2.05206060
8.32146835 -0.23278472 -1.93314826
8.03548527 -0.55276221 -2.12853003
8.11179352 -0.25889739 -2.20499873
8.25643635 -0.51277751 -1.85874760
7.60074759 -1.14925492 -2.19780588
7.73173141 -0.87901318 -2.33384609
7.81990528 -0.57795578 -2.40817761
7.51820421 -0.89984834 -2.63298893
7.61063576 -0.59321427 -2.70346761
7.94008112 -0.00881648 -2.49811292
7.70307589 -0.28658795 -2.77394629
7.74263191 -0.00621222 -2.79176354
7.90807819 -0.27689824 -2.48250175
7.29646444 -0.90517199 -2.93485045
7.40005016 -0.60033029 -3.01223850
7.50363493 -0.29548115 -3.08961916
7.54898930 -0.00544622 -3.10647845
7.78096199 0.23257025 -2.80306196
7.58887482 0.24631223 -3.11426878
7.28876638 -0.30413675 -3.41197109
7.33922291 -0.00392180 -3.42904496
7.38141346 0.27114564 -3.43397045
7.62982416 0.44229871 -3.12267947
7.42547274 0.44153270 -3.44381356
7.11421299 -0.00598241 -3.76059651
7.16868210 0.27025706 -3.77158880
7.21512461 0.45431709 -3.78222847
7.45544577 0.56754589 -3.44784236
7.24194193 0.58392286 -3.78451109
6.93189859 0.27803957 -4.11515093
6.97932196 0.46746919 -4.12810421
7.00132132 0.59266275 -4.12978172
7.01513195 0.70894027 -4.12590599
7.25357723 0.69597203 -3.77642226
6.72762442 0.48954502 -4.48114157
6.74464464 0.61060232 -4.48157072
6.75166082 0.72697932 -4.47345161
6.75056601 0.83322233 -4.45948696
7.01066589 0.81224185 -4.10993481
6.47790337 0.74098933 -4.82554674
6.46893406 0.61728942 -4.83381176
6.47279453 0.84874904 -4.80627489
6.46226263 0.94619071 -4.78311062
6.73634958 0.92642051 -4.43520498
6.17228079 0.85716724 -5.15381956
6.18007898 0.74232984 -5.17441750
6.15831709 0.95927387 -5.12812901
6.13822508 1.04761565 -5.09771919
6.43947411 1.02880287 -4.75038004
5.84606838 0.95696056 -5.48395443
5.85229588 0.85375863 -5.50148773
5.82871008 1.04902506 -5.45644760
5.79437160 1.12090564 -5.41346836
6.10897112 1.12130404 -5.05882215
5.48618221 1.03889108 -5.79825592
5.51095390 0.94871086 -5.83287144
5.45653057 1.11694551 -5.75840998
5.40944529 1.16482770 -5.70069170
5.74659681 1.16868830 -5.35713768
5.12759161 1.01389670 -6.13320160
5.10207653 1.08926260 -6.09457970
5.06642628 1.14682686 -6.04443073
5.40944529 1.16482770 -5.70069170
5.01829147 1.15680778 -5.97950554
5.35412550 1.17463243 -5.63447142
5.06642628 1.14682686 -6.04443073
4.69785500 1.13666213 -6.38512802
4.72831821 1.06890261 -6.43286467
4.65036297 1.16306579 -6.31630373
4.69785500 1.13666213 -6.38512802
4.60247326 1.13545954 -6.24626875
4.97735739 1.11892951 -5.92195559
4.24843264 1.15812528 -6.62980080
4.29154205 1.12488127 -6.69712448
4.20292473 1.13149929 -6.55821943
4.58143187 1.05099368 -6.20777035
4.18212032 1.04779959 -6.51838779
3.77239156 1.11745870 -6.83507919
3.81102848 1.16282070 -6.90466976
3.75864196 1.02880287 -6.80192709
4.17184830 0.95012796 -6.49121046
3.75180960 0.93250251 -6.77735376
3.32362795 1.07653177 -7.10250282
3.31471205 0.99221152 -7.06951094
3.31312609 0.89971805 -7.04764223
3.75018573 0.83124608 -6.75917768
3.31043005 0.80366278 -7.02459335
2.84876704 0.96776104 -7.30424881
2.84429383 0.87732810 -7.27617502
2.83935308 0.77970254 -7.24422550
3.30684543 0.70589924 -6.99977493
2.83604407 0.67774916 -7.21481133
2.36161208 0.85061038 -7.46762705
2.35879326 0.75381964 -7.43744755
2.35631919 0.65271652 -7.40554380
2.83135629 0.56669569 -7.17864943
2.35212135 0.54352444 -7.36807156
1.85247290 0.73585719 -7.58973408
1.84917140 0.63630128 -7.55187845
1.84603083 0.53070939 -7.51356363
2.33960509 0.40177009 -7.30337572
1.83710718 0.39276966 -7.44995594
1.32920897 0.62447441 -7.67420721
1.32615268 0.51633942 -7.63005543
1.31848502 0.38349354 -7.56643248
1.82485890 0.23525894 -7.38297033
1.30597639 0.22759141 -7.49003220
0.79285419 0.50411421 -7.71125889
0.78708625 0.37168199 -7.64527607
0.77896667 0.21768706 -7.56859255
0.75727385 -0.04647261 -7.45033932
1.24930060 -0.33471516 -7.26358223
1.27764237 -0.05355809 -7.37681198
0.73557329 -0.31063244 -7.33207703
0.24819607 0.39414084 -7.68938923
0.24463418 0.24568400 -7.62299347
0.23090760 -0.01831481 -7.49552441
-0.30554673 0.01548074 -7.47622967
-0.29850727 0.26160902 -7.59390068
0.21718103 -0.28231376 -7.36805630
-0.31259385 -0.23064770 -7.35855722
-0.32225299 -0.51900506 -7.15592194
0.18984279 -0.55720502 -7.14624786
-0.84367859 0.04318665 -7.41842747
-0.84004009 0.27742669 -7.50899029
-0.84730935 -0.19106112 -7.32786465
-0.83103973 -0.47245577 -7.10012770
-0.32016948 -0.76912415 -6.88732719
-0.80871874 -0.73820883 -6.84239435
-1.37066519 -0.13317522 -7.19527912
-1.33900678 -0.43751886 -7.00921202
-1.29264915 -0.70900160 -6.75350904
-1.24240768 -0.93221915 -6.45498657
-0.77915150 -0.93999380 -6.53040648
-1.83360744 -0.39692128 -6.83951473
-1.76603162 -0.68209994 -6.61277246
-1.69507790 -0.90986741 -6.32587862
-1.62448418 -1.08974516 -6.00605392
-1.18744016 -1.09264064 -6.11594296
-2.22953296 -0.65412593 -6.41162395
-2.13755274 -0.87341398 -6.14102936
-2.05023742 -1.05485415 -5.84005594
-1.96211016 -1.17913640 -5.51562119
-1.55131674 -1.20941591 -5.66182518
-2.57638144 -0.85448629 -5.93078852
-2.47355485 -1.03954220 -5.65090990
-2.36800885 -1.17698407 -5.34478903
-2.25562263 -1.23807156 -5.01436424
-1.87415135 -1.24096704 -5.17414141
-2.88614821 -1.01706803 -5.42295885
-2.76013541 -1.15219653 -5.13570404
-2.62453175 -1.23087144 -4.82963705
-2.49212265 -1.28465152 -4.51251650
-2.14659142 -1.28989863 -4.68108082
-3.14003634 -1.13981795 -4.91420984
-2.98425674 -1.22903287 -4.62514067
-2.82289290 -1.27703011 -4.32500982
-2.66908193 -1.30377853 -4.01967812
-2.35880160 -1.31969571 -4.19064760
-3.32372856 -1.20911717 -4.40554571
-3.13889503 -1.26790726 -4.12134790
-2.95641279 -1.30550957 -3.82992697
-2.77937698 -1.31386662 -3.53302884
-2.51747704 -1.31890678 -3.70767474
-3.42228866 -1.26092124 -3.89799261
-3.21695709 -1.30503476 -3.61865115
-3.01272082 -1.31846261 -3.33845115
-2.61389208 -1.31883776 -3.22802591
-2.82591820 -1.32632935 -3.04950428
-3.44844723 -1.30434513 -3.39479017
-3.22351384 -1.32387805 -3.12666225
-3.00906706 -1.32881856 -2.85778451
-2.79002404 -1.32645178 -2.59196949
-3.40897560 -1.32238424 -2.90182114
-3.16743588 -1.32364047 -2.65082860
-2.91707897 -1.32210875 -2.41190863
-2.51795936 -1.31683099 -2.39899373
-2.63237572 -1.31726754 -2.20586443
-3.30000567 -1.32398522 -2.42726612
-3.02724409 -1.32728684 -2.20914292
-2.72427154 -1.31384349 -2.02895093
-2.40990090 -1.30962288 -1.94016457
-2.32649994 -1.31018972 -2.13219142
-2.80868363 -1.30663574 -1.83720064
-3.11984468 -1.31394315 -1.99370015
-2.48921919 -1.29916704 -1.72776318
-2.18307567 -1.30959988 -1.66891217
-2.10907316 -1.30105901 -1.89423621
-2.57140255 -1.29715264 -1.51503980
-2.88732052 -1.30199385 -1.62100708
-2.26356602 -1.30012453 -1.44730318
-1.96941769 -1.28671980 -1.40459919
-1.89161587 -1.29718328 -1.64082301
-2.33933783 -1.29665470 -1.21327758
-2.64609456 -1.29522228 -1.28511965
-2.04631543 -1.28287435 -1.15907586
-1.76644528 -1.28060722 -1.11966562
-1.68892705 -1.30294347 -1.37788904
-2.12113762 -1.28789186 -0.90292847
-2.40990853 -1.29151487 -0.96496600
-1.84452283 -1.28529501 -0.85427266
-1.57637227 -1.28373230 -0.81417316
-1.49583590 -1.28906381 -1.08992231
-1.91962063 -1.29096341 -0.58118141
-2.19364643 -1.29297030 -0.63736695
-1.65490925 -1.28653598 -0.53408068
-1.39919841 -1.28535640 -0.49131539
-1.31767392 -1.28528738 -0.78029311
-1.73152375 -1.28591561 -0.24474266
-1.99212170 -1.28289747 -0.29883695
-1.47939003 -1.28943896 -0.19623268
-1.23579705 -1.28478944 -0.15096232
-1.15189815 -1.27933550 -0.45245656
-1.55518496 -1.27687693 0.10715357
-1.80394053 -1.28315020 0.05275307
-1.31386697 -1.27437186 0.15691245
-1.08049250 -1.26860416 0.20292556
-1.00024724 -1.27617979 -0.10868734
-1.38313556 -1.26647449 0.47229388
-1.62373352 -1.27460945 0.41734961
-1.15147674 -1.26711035 0.52192271
-0.92758524 -1.26568556 0.56809658
-0.85440242 -1.26942372 0.24701600
-1.44599295 -1.26679623 0.79288429
-1.21277916 -1.26874208 0.84680253
-0.98829001 -1.27277124 0.89615536
-0.71096289 -1.26344144 0.61230183
-0.77171373 -1.26235366 0.94304162
-1.26351070 -1.26402354 1.17682219
-1.03503084 -1.26449072 1.23032665
-0.81601870 -1.25685382 1.27974844
-0.56474280 -1.26072192 0.98715514
-0.60487318 -1.25393522 1.32558537
-1.07127762 -1.25149941 1.56564689
-0.84324193 -1.25198221 1.61832416
-0.62344843 -1.25094807 1.66712546
-0.40370086 -1.25449455 1.36887145
-0.41112331 -1.24734020 1.71140742
-0.86167169 -1.25673890 1.95754349
-0.62940782 -1.24907911 2.00917912
-0.40398425 -1.24923980 2.05321574
-0.20616701 -1.25238049 1.75106287
-0.18061353 -1.24472070 2.08890319
-0.62895590 -1.25059569 2.35239649
-0.38816652 -1.24995983 2.39714599
-0.14576094 -1.23706818 2.43042803
0.04238185 -1.24254525 2.11581254
0.09447692 -1.23482406 2.45302486
-0.36930785 -1.24112046 2.74544215
-0.11200370 -1.23900628 2.77746058
0.14561448 -1.23617959 2.79622722
0.34007671 -1.23542893 2.45875454
0.41110706 -1.23868465 2.79337025
-0.07830775 -1.24483550 3.13082743
0.19800831 -1.23837054 3.14107656
0.47760278 -1.23299313 3.13546944
0.67308372 -1.24396205 2.77026010
0.75296134 -1.23185968 3.10766411
0.24688619 -1.22262168 3.49541640
0.53967106 -1.21701455 3.48758793
0.82964468 -1.21747422 3.45523238
1.02746201 -1.23741293 3.05294156
1.11625576 -1.21866143 3.39341712
0.59980136 -1.20563972 3.84293890
0.90611362 -1.20946205 3.80440211
1.20702565 -1.21990240 3.73652005
1.50321138 -1.21984112 3.64228010
1.40118909 -1.21331477 3.30397987
0.98262084 -1.19839334 4.15597677
1.29722869 -1.21300852 4.08327675
1.60694206 -1.22878802 3.98062587
1.91350710 -1.22196305 3.85478902
1.79508471 -1.22720981 3.52277017
1.38766932 -1.23101687 4.42860842
1.71208966 -1.23272514 4.32107067
2.03012943 -1.23205864 4.18875360
2.33784318 -1.24973011 4.03246832
2.20744872 -1.24477410 3.70061803
1.81596565 -1.22974527 4.66240406
2.14681244 -1.23304689 4.52634096
2.46594000 -1.24694192 4.36821747
2.77517819 -1.24135005 4.19315815
2.63598990 -1.24455965 3.85945368
2.26361871 -1.23647094 4.86685514
2.59567595 -1.23956537 4.70756721
2.91517091 -1.25030458 4.53018618
3.22601008 -1.25371313 4.33833599
3.07646561 -1.25495422 4.00413418
2.72357345 -1.21437955 5.04801941
3.05619740 -1.22910976 4.86981153
3.37708664 -1.22698021 4.67236233
3.68873787 -1.23056495 4.45690393
3.52787185 -1.25339901 4.12929726
3.19435930 -1.16323447 5.19972372
3.52689171 -1.16321135 4.99790096
3.84999418 -1.16899467 4.77890396
4.16005230 -1.16989076 4.54328489
3.98909831 -1.22966111 4.22542143
4.33099890 -1.11012053 4.86114836
4.63678217 -1.11788750 4.61102915
4.45640659 -1.17086351 4.29482031
4.16622639 -0.94700253 5.40435839
4.49771643 -0.94792938 5.15982389
4.01125097 -1.10742438 5.10090351
4.81364155 -0.95338339 4.90588236
5.11690521 -0.96841222 4.64876986
4.93002653 -1.11965716 4.35139656
4.65486717 -0.76727057 5.43209505
4.98352385 -0.77899778 5.18147802
5.29166651 -0.78494191 4.91777039
5.58985090 -0.79994768 4.65041637
5.40061378 -0.96743160 4.37627554
5.45517492 -0.55710554 5.15615463
5.13725758 -0.55080897 5.41905069
5.75630140 -0.56524026 4.88606644
6.03579664 -0.57209593 4.60058880
5.86923885 -0.81679183 4.37268353
5.89257860 -0.28147879 5.07066202
5.58874893 -0.27899697 5.34749126
6.18671227 -0.29485306 4.79484415
6.45290136 -0.31007329 4.49986124
6.30344915 -0.58703274 4.31004810
5.99044180 0.00467261 5.20297194
6.29126215 -0.01202603 4.92453432
6.55457973 -0.02623525 4.61538744
6.81538439 -0.05434703 4.31672001
6.70427752 -0.32723919 4.18875360
6.61254930 0.21057865 4.68178415
6.34939289 0.22726969 4.99725723
6.86537218 0.18176982 4.36785746
7.11730003 0.15255482 4.06522226
7.06065464 -0.07522037 4.00401163
6.89496994 0.37243268 4.40121651
6.64230824 0.40660349 4.72005272
7.14749479 0.34484160 4.09472799
7.37831163 0.33155939 3.78241801
7.34944868 0.13436259 3.75161004
7.15670156 0.50610578 4.10861540
6.90807724 0.52782166 4.42006016
7.38801622 0.48879436 3.79720163
7.58787107 0.30801284 3.46657681
7.60021114 0.46860287 3.48486876
7.38931131 0.61005843 3.80408812
7.16204882 0.62971383 4.11893368
7.60082388 0.58726257 3.48871422
7.79321814 0.44546226 3.17394519
7.79452801 0.56051415 3.17759132
7.60341263 0.70295018 3.49346328
7.39340067 0.72499543 3.81240678
7.80140686 0.67215741 3.18448520
7.97923183 0.53273928 2.88541937
7.99226856 0.63905120 2.89921498
7.82355070 0.77547425 3.20183516
7.62103128 0.80899405 3.50716686
8.01024628 0.73833901 2.91484118
8.18339157 0.61909717 2.61574435
8.20551205 0.71268594 2.63826466
8.04738808 0.82385427 2.94389510
7.86041069 0.86411476 3.22944140
8.23653603 0.79510665 2.66662931
8.39237690 0.70569247 2.35208249
8.42414188 0.78642792 2.38299799
8.29664993 0.83517563 2.71769023
8.11518669 0.86062187 2.99831891
8.48640919 0.81828552 2.43748307
8.60870743 0.77543598 2.11641002
8.66841698 0.80446702 2.17139292
8.54938889 0.79863781 2.49556065
8.29664993 0.83517563 2.71769023
8.36089420 0.80854976 2.77630377
8.48640919 0.81828552 2.43748307
8.72880745 0.78827399 2.22881150
8.66841698 0.80446702 2.17139292
8.84441090 0.79290056 1.90634465
8.90224361 0.77761137 1.96396244
8.77135086 0.72890204 2.27562118
8.59645176 0.73667681 2.54551077
8.94980335 0.72753084 2.01457930
9.07356548 0.77365124 1.70835876
9.11744785 0.72572315 1.75742817
8.79934025 0.64975214 2.31319332
8.97371674 0.64899379 2.04994512
9.14356899 0.65405697 1.79414988
9.29219341 0.72756916 1.51299274
9.31797695 0.65843850 1.54748535
8.98434162 0.55826980 2.07680058
9.15437698 0.56772208 1.82083702
9.32742977 0.57542032 1.57026589
9.52184582 0.58141798 1.33421040
9.51551056 0.66720909 1.31679940
9.15803051 0.47176638 1.84319639
9.32299423 0.47846112 1.58648193
9.51037884 0.48507169 1.34181678
9.68446541 0.48653468 1.07368910
9.67918015 0.57004309 1.06197703
9.31476784 0.37324455 1.60161793
9.49304390 0.38019979 1.34739316
9.67706585 0.39499107 1.07803988
9.83794022 0.47916582 0.77969396
9.83083820 0.38857970 0.77763349
9.47426891 0.27386490 1.35172856
9.65714931 0.29152092 1.07651556
9.81173515 0.29334396 0.77149022
9.91986179 0.37936488 0.44213685
9.89739609 0.28441250 0.42936030
9.62911415 0.17817719 1.07352054
9.77805328 0.18443543 0.75941819
9.86183834 0.16533928 0.41167358
9.92276478 0.28126433 0.08212117
9.85899639 0.14186153 0.06130905
9.73376465 0.06282660 0.74389160
9.78558445 -0.01187292 0.39105314
9.67181110 -0.07562624 0.72202241
9.67951679 -0.19296847 0.36809623
9.59400940 -0.23220265 0.69973201
9.55456924 -0.36904693 0.36542287
9.44496250 -0.48908547 0.02067333
9.33617687 -0.70133388 0.06356105
9.12415123 -0.85045707 0.13289106
9.10443497 -0.77815521 -0.21852276
8.89275265 -0.94244504 -0.10341747
8.87269115 -0.85497659 -0.50061446
8.78765774 -0.81265545 -0.87291694
8.90349960 -0.63273174 -0.99160725
8.67108154 -0.68301147 -1.27110970
8.95718002 -0.09779403 -1.12412369
8.71596909 -0.41825426 -1.33431923
8.76085567 -0.15349704 -1.39752913
8.93033886 -0.36526290 -1.05786562
8.48620319 -0.46551582 -1.59653366
8.34508419 0.01289928 -1.94895875
8.56731415 0.04759876 -1.69790483
8.54116249 -0.19314468 -1.66534257
8.13669586 -0.00330145 -2.21669579
8.37221527 0.23708959 -1.96058607
8.16954899 0.22790538 -2.22856855
7.97685671 0.22564577 -2.51162505
8.20607948 0.39788651 -2.24016547
8.01172447 0.40150198 -2.52093935
7.82385731 0.42620522 -2.81605268
8.03195477 0.52723181 -2.52177429
7.84284687 0.54617482 -2.81746984
7.64770222 0.55730468 -3.12215805
7.65671015 0.66607541 -3.11541009
7.85202312 0.65795594 -2.81208515
7.46234083 0.67745036 -3.43728733
7.46074629 0.77877575 -3.42212796
7.65818071 0.76663470 -3.10378981
7.25411367 0.79817826 -3.76169991
7.24195671 0.88925463 -3.73989224
7.45180035 0.87049544 -3.40445662
7.00002623 0.90763843 -4.08963585
6.98343468 0.99641675 -4.06478691
7.22550344 0.97362089 -3.71459103
6.71779728 1.01238763 -4.40766048
6.68495846 1.08138061 -4.36872482
6.94978476 1.06881821 -4.02763700
6.40772343 1.09938896 -4.71034956
6.35789585 1.14222324 -4.65564203
6.63051176 1.11657786 -4.31440115
6.06102753 1.16990614 -5.00376177
6.35789585 1.14222324 -4.65564203
6.00061417 1.17457879 -4.93895960
6.29926729 1.14099002 -4.59516716
6.06102753 1.16990614 -5.00376177
5.69121504 1.16878784 -5.29367447
5.74659681 1.16868830 -5.35713768
5.64681911 1.12055337 -5.24126530
5.95611763 1.11870730 -4.88971424
5.30882454 1.12866521 -5.57719040
5.29589415 1.04153371 -5.55108643
5.62535477 1.03997874 -5.20965338
4.95874405 1.04393125 -5.88865042
4.95745707 0.95126164 -5.87387562
5.29187346 0.94799083 -5.53274059
4.57472944 0.95120800 -6.18598509
4.95615530 0.84713280 -5.85861683
4.57041645 0.84558541 -6.16671371
4.16360617 0.84827411 -6.46553421
4.16413498 0.74100471 -6.45068216
4.57042456 0.73510653 -6.15200663
3.75006294 0.72484988 -6.74126816
4.15882635 0.61784089 -6.42440033
3.74596524 0.60735446 -6.71499443
3.30208826 0.59088564 -6.97085142
3.72897530 0.44686401 -6.66191149
3.28616357 0.43164378 -6.91406012
2.81913090 0.42179313 -7.12406492
3.26245594 0.25005782 -6.84296131
2.79663372 0.24207617 -7.04973316
2.31887746 0.23482224 -7.22065639
2.76047134 -0.05892000 -6.93857241
2.28166556 -0.06864815 -7.11124182
2.72430110 -0.35991633 -6.82740450
2.24445343 -0.37212616 -7.00182867
1.78740191 -0.05619317 -7.26547480
1.69421136 -0.62965250 -6.93597555
1.74994493 -0.34765273 -7.14797878
1.19911289 -0.60549307 -7.03537083
0.70072073 -0.59669197 -7.12234116
0.66864860 -0.83003581 -6.84764147
1.15674591 -0.83493823 -6.76327562
0.17057817 -0.78936940 -6.87542391
0.16264246 -0.98256767 -6.56696701
0.64151728 -1.00231504 -6.52999973
-0.31017330 -0.95787978 -6.56610060
-0.29853791 -1.11522210 -6.22860575
0.15813078 -1.12050736 -6.22516584
-0.74621385 -1.09958041 -6.18982363
-0.28063667 -1.19676173 -5.86253119
-0.70786834 -1.19007468 -5.82725620
-1.13160706 -1.20396221 -5.76244593
-0.67385066 -1.24989843 -5.45901442
-1.08072984 -1.26648998 -5.39915180
-1.48087609 -1.27015138 -5.30534077
-1.03562832 -1.29596531 -5.03450155
-1.41629541 -1.29784977 -4.94717884
-1.78625381 -1.28685009 -4.82857275
-1.70036328 -1.30600750 -4.47717428
-1.35316241 -1.30950046 -4.58879423
-2.03513193 -1.31247246 -4.34463453
-1.93151641 -1.30372477 -4.00504732
-1.61734509 -1.29803360 -4.12408257
-2.23303366 -1.33629489 -3.86431980
-2.11871696 -1.31467068 -3.53555632
-1.83741438 -1.30525684 -3.66436553
-2.37759137 -1.32046187 -3.38935161
-2.01353121 -1.31210482 -3.20407367
-1.95525455 -1.30844331 -2.87431431
-1.70272243 -1.29087925 -2.98814058
-1.75670195 -1.29971111 -3.32703829
-1.47847855 -1.29480851 -3.42765117
-1.43788111 -1.28939319 -3.08692265
-1.54138947 -1.29628706 -3.77369547
-1.23197496 -1.29995632 -3.87017965
-1.18518817 -1.29075658 -3.51646018
-1.29089487 -1.29724467 -4.22948265
-0.95292425 -1.28610706 -4.31082392
-0.91300082 -1.27995622 -3.94996548
-0.99320006 -1.31686163 -4.67227936
-0.62355566 -1.29950428 -4.72740078
-0.60118872 -1.29042721 -4.36423588
-0.64656609 -1.29826319 -5.09277010
-0.25106943 -1.29636359 -5.12522554
-0.24398400 -1.29400444 -4.75779486
-0.26298824 -1.25048089 -5.49312401
0.14468764 -1.28502703 -5.12632895
0.15364975 -1.25575066 -5.49848509
0.15430081 -1.20138061 -5.86685085
0.59246320 -1.20259881 -5.82817602
0.56710887 -1.25440276 -5.46269035
0.61643869 -1.12089050 -6.18513536
1.07130718 -1.14187849 -6.11413622
1.02521753 -1.21881461 -5.75729847
1.11434066 -1.01742804 -6.45456457
1.57866919 -1.02928555 -6.34809208
1.51591158 -1.14612973 -6.00646734
1.63982606 -0.86480421 -6.66695976
2.11084938 -0.86480421 -6.51517010
2.03246546 -1.03918982 -6.20916510
2.18087626 -0.64345556 -6.78214121
2.65616608 -0.63732767 -6.61357784
2.56948662 -0.86463565 -6.34581757
3.10542011 -0.62459701 -6.40809298
3.18834639 -0.35695192 -6.64302254
3.22540498 -0.05345085 -6.74299192
3.62215018 -0.34713188 -6.38891172
3.66447139 -0.04062812 -6.49374580
4.04670858 -0.35144448 -6.11306286
4.08530712 -0.05350447 -6.21498537
4.12389755 0.24443556 -6.31690121
4.13527250 0.45643124 -6.36520433
3.70678449 0.26586789 -6.59857988
4.53178024 0.24223703 -6.02990675
4.54627323 0.46609804 -6.08149719
4.56435776 0.61702132 -6.12765551
4.92999601 0.45132208 -5.77282476
4.95106840 0.61315304 -5.82028675
4.95386410 0.73365879 -5.84044743
5.29397964 0.62103510 -5.48648977
5.29477692 0.73918921 -5.50416899
5.29067802 0.84747744 -5.51614141
5.61614799 0.84167892 -5.17679262
5.60923100 0.74068296 -5.15770340
5.62037706 0.94478899 -5.19345951
5.93639374 0.93552810 -4.85309982
5.93256378 0.83455521 -4.84013128
5.94403791 1.02964556 -4.86974478
6.24013948 1.00046134 -4.52918482
6.23395872 0.90624434 -4.51519012
6.25383568 1.08699524 -4.54831886
6.52118921 1.06982946 -4.20995808
6.50813723 0.98422986 -4.19139767
6.57011318 1.11879158 -4.25653791
6.83078003 1.11268663 -3.91942501
6.77710009 1.07021236 -3.87160444
6.89290237 1.10514927 -3.97492886
6.63051176 1.11657786 -4.31440115
7.13988113 1.08744717 -3.63158107
7.07793570 1.09981024 -3.57898045
7.19305611 1.04370141 -3.67940927
6.89290237 1.10514927 -3.97492886
7.13988113 1.08744717 -3.63158107
7.40486002 1.02373970 -3.34760523
7.35304880 1.07012045 -3.30174518
7.43637323 0.95341402 -3.38135457
7.63378429 0.94105095 -3.06261778
7.60093832 1.00917828 -3.02890635
7.65268135 0.85893667 -3.08754325
7.84732819 0.85081714 -2.78584242
7.82566547 0.93172115 -2.75907087
7.85565329 0.75951105 -2.80311513
8.04610157 0.74461251 -2.50490737
8.04139996 0.83758080 -2.48893666
8.04411125 0.64245224 -2.51680350
8.23668861 0.62779111 -2.23387671
8.24502945 0.73073274 -2.22552729
8.22522926 0.51853019 -2.23982048
8.42473888 0.51251709 -1.97487187
8.43950748 0.61660767 -1.97229052
8.40514469 0.40097347 -1.97221398
8.63492012 0.51294607 -1.73106456
8.61900234 0.40428251 -1.72775567
8.59506512 0.26255125 -1.71816552
8.81791496 0.28801274 -1.47574437
8.78954315 0.08229810 -1.44684350
9.03689766 0.32242104 -1.24184132
8.99204063 0.14062069 -1.19126284
9.25793076 0.34640428 -1.00465202
9.49288368 0.44588354 -0.74899477
9.27595520 0.45470777 -1.01493931
9.46422005 0.31810084 -0.74627548
9.06030464 0.43567288 -1.25860870
9.07109070 0.53796333 -1.26337337
9.29718113 0.55532837 -1.02433801
8.83286762 0.40759164 -1.48329699
8.84509182 0.51336741 -1.48724961
8.85484314 0.61545104 -1.48534238
9.07924080 0.63267052 -1.26184142
8.64717484 0.61603320 -1.72881281
8.65293598 0.71368939 -1.72070062
8.85915661 0.70989007 -1.47869337
8.44097137 0.80819744 -1.94351971
8.64749718 0.80213076 -1.70396388
8.44670773 0.71749640 -1.96271563
8.24143791 0.82222271 -2.20918846
8.22679996 0.90466636 -2.18499875
8.42244911 0.88627493 -1.91484880
8.02592564 0.92057598 -2.46507597
7.98982477 0.98729384 -2.42686057
8.19259071 0.97072542 -2.14663029
7.79264307 1.00371671 -2.72471595
7.73786783 1.04742420 -2.67544007
7.93592978 1.02672708 -2.37689519
7.54940987 1.05205071 -2.98342967
7.48825312 1.05692244 -2.93241477
7.67108107 1.05313849 -2.61854959
7.73786783 1.04742420 -2.67544007
7.54940987 1.05205071 -2.98342967
7.29029894 1.08417642 -3.24986458
7.35304880 1.07012045 -3.30174518
7.23155451 1.04882586 -3.20179081
7.43596792 1.01578879 -2.88846970
7.01960468 1.06461298 -3.53043175
6.99239731 0.98302722 -3.50382137
7.20286846 0.96881819 -3.17410755
6.75615025 0.98646653 -3.84751391
6.75556040 0.88767666 -3.83677435
6.98392439 0.88360161 -3.48884606
6.50628328 0.89149129 -4.18030643
6.50540209 0.79263246 -4.16875505
6.74955463 0.78346354 -3.82069635
6.23140717 0.80864936 -4.50415945
6.23050404 0.70636654 -4.49463081
6.50048494 0.68912405 -4.15290689
5.93799496 0.72612143 -4.83463907
5.92595291 0.59662300 -4.81053352
6.22008610 0.58063674 -4.47390318
5.60570002 0.60491103 -5.13669300
5.59593344 0.44000068 -5.10578489
5.90253687 0.42387658 -4.76982069
5.28094959 0.45356640 -5.44868088
5.25464582 0.23758750 -5.38956165
5.58445120 0.23061702 -5.06493378
4.90448093 0.23648444 -5.71085691
4.85550308 -0.05676764 -5.60766268
5.15593290 -0.35853755 -5.18760729
5.20529270 -0.06047496 -5.28858089
4.80651855 -0.35001212 -5.50446844
4.48604298 -0.05507476 -5.92371798
4.44030571 -0.35238656 -5.81752110
3.94140005 -0.62112695 -5.90918732
4.32324696 -0.61990905 -5.61948156
3.53290462 -0.62190831 -6.18665266
3.41852689 -0.84489602 -5.91915274
3.80306959 -0.82937700 -5.65436459
3.00038743 -0.83904380 -6.13490200
2.89173913 -1.02264440 -5.84001827
3.28435564 -1.00010884 -5.61226559
2.47321677 -1.03806365 -6.03918362
2.36766338 -1.13852346 -5.70104456
2.76764083 -1.12500381 -5.50703382
1.94932485 -1.14152610 -5.86691999
1.86099076 -1.19835508 -5.51278687
2.26065445 -1.20715630 -5.35293913
1.44875717 -1.20719457 -5.64927816
1.37882972 -1.24783814 -5.28642797
1.77305484 -1.25052667 -5.15436411
0.97705966 -1.23900628 -5.38829803
0.92893243 -1.27984130 -5.01996279
1.31274009 -1.27086365 -4.91912031
0.53870589 -1.26639795 -5.09030390
0.50843394 -1.27483153 -4.71979380
0.88081300 -1.27215850 -4.65047932
0.13356543 -1.28099024 -4.75428677
0.11918011 -1.28138101 -4.38566113
0.47864455 -1.26902544 -4.34933043
-0.24278907 -1.28131199 -4.39153624
0.10061251 -1.27659357 -4.01953983
-0.24089706 -1.27779591 -4.02704668
-0.58039975 -1.28599215 -4.00143242
-0.24838081 -1.26861930 -3.66254973
-0.56734723 -1.26779997 -3.64055800
-0.88098234 -1.28014755 -3.58726025
-0.56887156 -1.27268672 -3.27937818
-0.86747026 -1.28321159 -3.23206306
-1.15886867 -1.29215062 -3.16820216
-0.87869203 -1.27954245 -2.88437963
-1.15819454 -1.29938149 -2.82879901
-1.42989171 -1.29952729 -2.75503445
-1.17750525 -1.29458642 -2.50341344
-1.45031309 -1.29182136 -2.44974828
-1.69497836 -1.29532957 -2.67315745
-1.71614265 -1.29447925 -2.38925815
-1.48328912 -1.28501916 -2.15850306
-1.75999558 -1.29528368 -2.12941074
-1.94600141 -1.30904841 -2.58363605
-1.97854054 -1.30956149 -2.33517146
-2.03781295 -1.30455959 -2.11167049
-2.24495244 -1.31303179 -2.32136798
-1.81553757 -1.29938149 -1.87779808
-1.54168808 -1.29708362 -1.89037561
-1.61356115 -1.29648602 -1.63403630
-1.27175283 -1.29305446 -1.91061306
-1.34128952 -1.30177927 -1.63214457
-1.21595800 -1.28040791 -2.19968247
-0.94742447 -1.28401577 -2.23222971
-1.00279796 -1.29318476 -1.92697453
-0.90452129 -1.28435290 -2.55123425
-0.62534040 -1.27971101 -2.57950711
-0.67398858 -1.30062246 -2.25204587
-0.59050316 -1.27058029 -2.92446399
-0.29954138 -1.26345670 -2.93970680
-0.34484974 -1.27217364 -2.59241438
-0.26481894 -1.27309287 -3.29845142
0.03973150 -1.27134645 -3.29056144
-0.00691735 -1.25896025 -2.92971826
0.07607780 -1.27173710 -3.65556383
0.39930317 -1.28239954 -3.61479044
0.34459606 -1.27811003 -3.25181007
0.44269654 -1.26721001 -3.98198390
0.78053695 -1.27024341 -3.91240859
0.71748823 -1.26944685 -3.54717660
0.83324492 -1.27257192 -4.28054428
1.18350208 -1.26486599 -4.18143988
1.11342156 -1.26680410 -3.81420875
1.24881041 -1.28095961 -4.54863358
1.60795319 -1.27751243 -4.42670250
1.52438343 -1.26546347 -4.05910349
1.68933201 -1.26841271 -4.79158306
2.05656338 -1.28010166 -4.63769484
1.95724511 -1.30457509 -4.27630091
2.15628028 -1.24730194 -4.99711370
2.52469897 -1.23596513 -4.81254005
2.40671349 -1.26034677 -4.45646143
2.64466858 -1.21002889 -5.16619158
3.01012301 -1.19794893 -4.95111656
2.87759900 -1.25280941 -4.60489511
3.14651561 -1.10807538 -5.28568602
3.51052999 -1.12351012 -5.04891777
3.36277032 -1.21013618 -4.71751118
3.65924716 -1.00130367 -5.36642122
4.01774645 -1.01274776 -5.09824038
3.85701847 -1.12825167 -4.78640461
4.17662859 -0.84088993 -5.37709141
4.52507019 -0.84360915 -5.08249044
4.35842848 -1.01356745 -4.81122303
4.68968201 -0.63008910 -5.32170248
5.02332401 -0.63650805 -5.00367785
4.85644531 -0.85147601 -4.77072477
5.46553898 -0.35172793 -4.85534382
5.33335924 -0.62746173 -4.67401028
5.52499485 -0.06055166 -4.96013975
5.82475853 -0.06505567 -4.62654972
5.76627493 -0.34779066 -4.52677202
6.11820221 -0.07623913 -4.29656839
6.05862331 -0.35226414 -4.20040560
6.20007038 0.41350508 -4.43891239
5.88324928 0.21767946 -4.72632837
6.17778015 0.19978586 -4.39273119
6.46595383 0.38733879 -4.08961296
6.43823290 0.19412516 -4.04215240
6.48999119 0.56079757 -4.12999630
6.73202133 0.54308015 -3.77876639
6.70728731 0.38040659 -3.73929453
6.73921442 0.67302293 -3.80011415
6.97263384 0.66413748 -3.45930195
6.96722698 0.53953362 -3.44198251
6.97572899 0.77727431 -3.47271395
7.18865108 0.76550102 -3.14411187
7.18497515 0.65318376 -3.12974191
7.19441223 0.87140697 -3.15875006
7.40646124 0.84298110 -2.84979510
7.39850283 0.74247533 -2.83325696
7.41356993 0.93639368 -2.86446357
7.60414076 0.91510683 -2.55405331
7.60178089 0.82260573 -2.54237175
7.61592102 1.00264430 -2.57151771
7.82594109 0.97630948 -2.27959108
7.80868387 0.89586514 -2.25943780
7.87377024 1.02717900 -2.32224154
8.08253193 1.01047277 -2.04208016
8.03485775 0.96350211 -1.99836493
8.14149094 1.01093996 -2.09665704
7.93592978 1.02672708 -2.37689519
8.34873772 0.99774200 -1.83030641
8.29338646 1.00072169 -1.77492523
8.39302826 0.95290083 -1.87806571
8.14149094 1.01093996 -2.09665704
8.34873772 0.99774200 -1.83030641
8.56065750 0.98852706 -1.59548402
8.60283279 0.94488096 -1.64276123
8.63054657 0.87930441 -1.67789710
8.85402393 0.79606408 -1.46440780
8.83864212 0.87232620 -1.44094539
9.05885792 0.86844265 -1.21973467
9.07256126 0.79511428 -1.23958170
9.08010578 0.71699083 -1.25381374
9.31093025 0.80377001 -1.01216638
9.31487560 0.72579974 -1.02199423
9.30952835 0.64360118 -1.02649832
9.54407406 0.71067142 -0.76956928
9.53299046 0.62811285 -0.76651317
9.51400185 0.53802460 -0.75847787
9.70916843 0.49034169 -0.49292397
9.73037910 0.58211505 -0.49405771
9.90432835 0.44265872 -0.22737005
9.67688942 0.38357779 -0.49323809
9.86089611 0.32126436 -0.23748115
9.62769794 0.24490279 -0.50046134
9.79118252 0.17170461 -0.25465477
9.96591377 0.39213392 0.09855142
9.99315166 0.48949906 0.11243133
9.92776775 0.53610969 -0.22160228
9.93639183 0.47021911 0.45322856
10.00000000 0.58137208 0.12484030
9.94742203 0.55918902 0.46210626
9.83780193 0.56280440 0.77826917
9.93991661 0.64321822 0.46770573
9.82706165 0.64179349 0.77404100
9.66366100 0.64471960 1.04548526
9.63985348 0.71305364 1.02491069
9.80134773 0.71414137 0.76265067
9.48138618 0.73221105 1.28098166
9.59839821 0.76574618 0.99416387
9.43025589 0.76718622 1.23330629
9.25047874 0.77698326 1.46759236
9.37521172 0.78036129 1.18349397
9.19725704 0.79309207 1.41184366
9.01920986 0.78682625 1.65168321
9.14662552 0.76342523 1.35957229
8.96869278 0.75600278 1.59842372
9.19725704 0.79309207 1.41184366
9.01920986 0.78682625 1.65168321
8.79171848 0.75820118 1.85335326
8.84441090 0.79290056 1.90634465
8.93894958 0.68932319 1.56039226
8.75851250 0.68923128 1.81477034
8.57764626 0.69696778 2.08258390
8.74299335 0.60229129 1.78877258
8.56553555 0.60186231 2.06156516
8.37345600 0.61350542 2.33085680
8.55355549 0.50206906 2.04066133
8.36227989 0.51114601 2.31414294
8.17195415 0.51312989 2.59981966
8.35259056 0.39707455 2.29675508
8.16306114 0.39861423 2.58505106
7.96969414 0.42289612 2.87307167
8.14707565 0.27364281 2.56139731
7.95900917 0.28412923 2.85221362
7.78084707 0.29186574 3.15632749
7.75362349 0.10491019 3.11521697
7.94395685 0.10183856 2.81543851
7.56339741 0.11721966 3.43188524
7.51000023 -0.09945623 3.36715126
7.71006203 -0.10753753 3.05033731
7.29359245 -0.09084649 3.68767262
7.19046736 -0.35256276 3.56818557
7.41242075 -0.36641198 3.25513268
6.95614338 -0.34386885 3.88105464
6.80172586 -0.60890174 3.69782972
7.03125572 -0.61754978 3.38736582
6.56005573 -0.60120356 4.00661612
6.37584305 -0.82136482 3.77520227
6.61477804 -0.83188176 3.47123408
6.12896347 -0.81959540 4.07733250
5.92848921 -0.98604518 3.80757308
6.17273331 -0.99290085 3.51181626
5.67234898 -0.98078293 4.09738588
5.46808195 -1.12049198 3.80085540
5.71640062 -1.11598790 3.51156354
5.20375347 -1.11093247 4.07926273
5.00660324 -1.16680396 3.76699114
5.26083565 -1.16673505 3.48843837
4.73934889 -1.16764641 4.03648233
4.27602339 -1.22383952 3.97861147
4.54866266 -1.21564353 3.72156763
4.09298992 -1.23843181 3.65831232
4.35811472 -1.23388934 3.40334439
3.81651282 -1.24678099 3.90131521
3.64499974 -1.25264084 3.57644296
3.91253757 -1.24619126 3.33669543
3.36715937 -1.25497723 3.80012012
3.20650792 -1.25671589 3.47050643
3.47579217 -1.25765824 3.25092745
2.92641544 -1.25107813 3.67337155
2.77653408 -1.25842404 3.34620905
3.04645395 -1.26178670 3.14473057
2.49687076 -1.23964977 3.53072095
2.35655642 -1.25841641 3.20774078
2.62734199 -1.26660490 3.02420926
2.07804966 -1.24498856 3.37478828
1.95122445 -1.25633311 3.05134845
2.21870875 -1.26079881 2.88865185
1.67853165 -1.23541367 3.19062090
1.56357932 -1.24853504 2.86332822
1.82721055 -1.25604177 2.73137093
1.29702199 -1.24023187 2.97194552
1.19292367 -1.23727500 2.64544964
1.44781494 -1.24341834 2.54601645
0.93400335 -1.22347963 2.72234750
0.83296144 -1.23719084 2.40366435
1.07671523 -1.24743199 2.33636451
0.58584499 -1.24281311 2.44493604
0.49178123 -1.24352551 2.12741733
0.72208422 -1.25092494 2.09835577
0.26773643 -1.24220800 2.13109398
0.19252382 -1.24596131 1.80880320
0.40148622 -1.24380898 1.81022799
-0.00784421 -1.25041187 1.78577757
-0.03077031 -1.25251079 1.44865704
0.15777843 -1.25230384 1.47576559
-0.21348989 -1.25239563 1.40976775
-0.00867147 -1.25800276 1.10734677
-0.18176253 -1.25748956 1.06920040
-0.36707878 -1.26004028 1.02929223
-0.11281566 -1.26804483 0.73915774
-0.30436710 -1.26154947 0.69770241
-0.50318778 -1.26129639 0.65556502
-0.42388472 -1.26936996 0.33347344
-0.21838458 -1.26947725 0.37832215
-0.63539791 -1.26589251 0.29005712
-0.54802126 -1.26525664 -0.02495701
-0.33121508 -1.26541007 0.01948581
-0.77076381 -1.26977611 -0.06715544
-0.67852318 -1.28114343 -0.37648568
-0.45057952 -1.27745140 -0.33478516
-0.91217345 -1.28013241 -0.41474694
-0.82138062 -1.29793394 -0.71607256
-0.58093596 -1.28410017 -0.68045396
-1.06610715 -1.28578532 -0.74842030
-0.97747427 -1.28595388 -1.04210126
-0.72720957 -1.29235756 -1.01467896
-1.23363709 -1.28372467 -1.06562507
-1.15089476 -1.29336858 -1.34876609
-0.89025080 -1.28328812 -1.33506989
-1.41711497 -1.29248786 -1.36154258
-1.07303929 -1.29220438 -1.63473356
-0.80861151 -1.28954625 -1.63126361
-0.73504573 -1.28398538 -1.93681777
-0.46802112 -1.28462088 -1.93254340
-0.54805958 -1.28809083 -1.61845613
-0.39904362 -1.29049623 -2.25685668
-0.20360862 -1.28822112 -1.91003847
-0.12674904 -1.27655518 -2.23860264
-0.06431308 -1.26215458 -2.57890224
0.14265774 -1.26878786 -2.19998932
0.21718103 -1.26519561 -2.54387307
0.28546152 -1.25795686 -2.89298129
0.57754165 -1.26825166 -2.82959557
0.49528182 -1.26178670 -2.47897077
0.65001208 -1.25997126 -3.18523765
0.95241016 -1.27313125 -3.09410787
0.86559272 -1.27379739 -2.73891759
1.03378141 -1.27593458 -3.45249200
1.34514153 -1.27860796 -3.33304358
1.25042665 -1.28243780 -2.97867274
1.43841624 -1.26905620 -3.69307446
1.75701499 -1.27258742 -3.54900694
1.64988351 -1.28812146 -3.19224644
1.85791910 -1.27745903 -3.91275334
2.18005681 -1.27689219 -3.73867440
2.06525755 -1.27503836 -3.38074160
2.29400539 -1.28780770 -4.09793139
2.61806583 -1.26936996 -3.89777040
2.49328589 -1.27755082 -3.54339266
2.74581790 -1.25610316 -4.25211811
3.07249022 -1.26000202 -4.02775145
2.93340158 -1.27291667 -3.67849016
3.21570754 -1.24936223 -4.37633085
3.53937721 -1.24763131 -4.12667942
3.38649297 -1.26328051 -3.78543782
3.69756222 -1.21013618 -4.46121788
4.01917887 -1.21799493 -4.19219494
3.85224628 -1.26164877 -3.86219788
4.18861580 -1.13277841 -4.50987387
4.50757504 -1.15549016 -4.22034454
4.32698488 -1.22547877 -3.90603566
4.68680906 -1.03024280 -4.51092339
4.99894285 -1.04259837 -4.20089626
4.80883169 -1.15985632 -3.91498995
5.17742586 -0.86619073 -4.45798588
5.47251654 -0.86152571 -4.13203382
5.28503227 -1.03650093 -3.87826824
5.63737392 -0.63057166 -4.35006523
5.92187023 -0.62965250 -4.01793957
5.74520206 -0.85674590 -3.80188370
6.30930853 -0.34791324 -3.84903812
6.17566681 -0.63539737 -3.67607713
6.37376738 -0.07689790 -3.94559121
6.60878086 -0.08508629 -3.59336567
6.53889227 -0.35785586 -3.49593139
6.83800316 -0.10505570 -3.25352597
6.77892256 -0.37967885 -3.16531420
6.93515491 0.36507151 -3.39684319
6.67866993 0.18768327 -3.69079185
6.89709234 0.16955984 -3.34173727
7.13915300 0.35478422 -3.05973029
7.11392212 0.15718141 -3.01153374
7.16768599 0.52610582 -3.10275578
7.37627316 0.51953363 -2.79178643
7.34952497 0.34796685 -2.74774146
7.38960218 0.63557363 -2.81533265
7.58368063 0.62388462 -2.50693703
7.57679415 0.51384997 -2.48843884
7.59171629 0.72614443 -2.52453971
7.79599857 0.71160591 -2.23222971
7.79108858 0.60954529 -2.21768332
7.80488396 0.80652761 -2.24813962
8.01465034 0.79662329 -1.96882856
8.00495338 0.70681077 -1.95301044
8.01852608 0.88388497 -1.97908485
8.23479652 0.87611020 -1.71299505
8.23074436 0.78887147 -1.70378006
8.24823189 0.95668483 -1.73003066
8.46874523 0.94102794 -1.49886203
8.45546341 0.86350965 -1.48155832
8.50865364 0.98875690 -1.54070807
8.77257538 0.97931218 -1.36066949
8.72391987 0.97679210 -1.30649114
8.56065750 0.98852706 -1.59548402
8.99280643 0.97034246 -1.14394760
8.94509983 0.96550906 -1.09229672
9.03341198 0.93146843 -1.18898010
8.77257538 0.97931218 -1.36066949
8.99280643 0.97034246 -1.14394760
8.81263733 0.93685335 -1.40744853
9.22037506 0.97925854 -0.92298961
9.26779652 0.94269782 -0.96898758
9.29358101 0.87651616 -0.99559814
9.52514648 0.85966438 -0.74491972
9.49480534 0.92100495 -0.71761978
9.54062748 0.78809780 -0.76160300
9.73429298 0.74905521 -0.47992507
9.71211720 0.82235289 -0.46176350
9.93618584 0.62516379 -0.21272428
9.74013042 0.66791373 -0.49114680
9.92796612 0.71001267 -0.19824712
9.98740768 0.66769928 0.13626893
9.89908028 0.78504151 -0.17860702
9.95976257 0.74717855 0.14710788
9.91819286 0.72093570 0.46978155
9.86590576 0.77676111 0.46261176
9.90863991 0.81018138 0.15719588
9.75266075 0.76748496 0.73898154
9.79350376 0.79436362 0.44666395
9.68665600 0.78521001 0.70667976
9.54037476 0.78744668 0.95359695
9.54037476 0.78744668 0.95359695
9.62323189 0.76200813 0.67528927
9.48048973 0.76890975 0.91117632
9.68665600 0.78521001 0.70667976
9.32165432 0.76051444 1.13583398
9.37521172 0.78036129 1.18349397
9.43967724 0.71456265 0.88022274
9.28412819 0.70650440 1.09911239
9.11699677 0.69699079 1.32396138
9.26041317 0.63745034 1.07252479
9.10164547 0.61854559 1.29828548
8.92516994 0.60600632 1.53430271
9.08745956 0.53471559 1.27237952
8.91184044 0.51729685 1.50805986
8.73338032 0.50749993 1.76719463
8.90018940 0.42094287 1.48231483
8.72500801 0.40631247 1.74746263
8.54116249 0.39667627 2.01942015
8.70319939 0.29582581 1.71352935
8.51916313 0.28128725 1.98735595
8.33407688 0.26498705 2.26860499
8.31107426 0.09908864 2.22443795
8.49041557 0.11376509 1.93112445
8.12257957 0.09445445 2.51424289
8.09003925 -0.10680220 2.43660975
8.27679539 -0.09480670 2.14417720
7.89825773 -0.10898525 2.73723078
7.81097317 -0.35882860 2.61611986
8.00071716 -0.34500244 2.30376387
7.61242056 -0.36651146 2.93114924
7.45659494 -0.62311101 2.75471067
7.65640402 -0.61310703 2.43664813
7.24399424 -0.61633188 3.06932616
7.04971552 -0.83087838 2.84635377
7.25094986 -0.81588036 2.52816868
6.83408880 -0.82432145 3.15810466
6.61945915 -0.98277456 2.89903092
6.83369875 -0.99077153 2.59065056
6.40229225 -0.98872614 3.20868301
6.17597294 -1.10669649 2.91751432
6.39455557 -1.11909020 2.61579061
5.95137691 -1.11326110 3.21672606
5.73122311 -1.15412676 2.90734196
5.95088577 -1.14731693 2.60993075
5.50211430 -1.15658569 3.20089293
5.05358839 -1.21297026 3.17602897
5.28782129 -1.19718313 2.89022207
4.84654903 -1.21611845 2.85870934
5.07345819 -1.20845068 2.57434249
4.60815716 -1.22358680 3.13566113
4.80945969 -1.22266757 3.45471931
4.41007948 -1.22124279 2.81808877
4.63929462 -1.21385086 2.54115248
4.16858530 -1.23458648 3.08411741
3.97894144 -1.23994076 2.76512814
4.21078396 -1.22663534 2.50017953
3.73347926 -1.25281703 3.01586771
3.55437541 -1.25917470 2.69570637
3.78863835 -1.24751639 2.44673610
3.30553532 -1.26141155 2.92776346
3.13559246 -1.26023948 2.60924888
3.37138009 -1.26174843 2.37553716
2.88642311 -1.26854277 2.82371855
2.72509789 -1.26441419 2.50848269
2.96193480 -1.25130045 2.29435754
2.47577524 -1.26765418 2.70780134
2.32511234 -1.27232671 2.39268017
2.56118345 -1.28272891 2.19682384
2.07965827 -1.26233840 2.57071185
1.93739069 -1.26727891 2.25912189
2.16972351 -1.27441049 2.08431506
1.69739795 -1.25822508 2.41651773
1.55593467 -1.26600730 2.11667824
1.78422296 -1.26894104 1.96652853
1.32121956 -1.25262558 2.24027848
1.18229949 -1.25438726 1.95443356
1.40590000 -1.26203191 1.83327663
0.95348257 -1.25469387 2.04279828
0.81178176 -1.25094044 1.75792611
1.03263235 -1.25965750 1.68659699
0.60417515 -1.25085604 1.79686153
0.50658786 -1.25541377 1.50537109
0.33622375 -1.25427246 1.49697578
0.32977411 -1.26367116 1.18281984
0.48242083 -1.26340294 1.21824694
0.15008020 -1.25853884 1.14277387
0.40467277 -1.26517248 0.87093890
0.23870540 -1.26097465 0.82216048
0.06817278 -1.25873053 0.78032207
0.17416298 -1.25461721 0.47490618
0.36481825 -1.25866926 0.53752577
-0.01980132 -1.26190162 0.42489457
0.08883157 -1.27018964 0.12137039
0.29538113 -1.26947725 0.18746017
-0.11915039 -1.26216984 0.06815711
-0.00635818 -1.27104747 -0.23170547
0.21063182 -1.27238059 -0.16579218
-0.22741561 -1.27219677 -0.28653523
-0.11522088 -1.28787637 -0.58607608
0.11214066 -1.27923620 -0.52238381
-0.34588382 -1.28881109 -0.63831663
-0.23787905 -1.28821349 -0.93984914
-0.00074347 -1.27645564 -0.88265252
-0.48076722 -1.28642118 -0.98120517
-0.38373911 -1.28286684 -1.28367209
-0.13319868 -1.29172933 -1.24175715
-0.63578856 -1.28869593 -1.31333888
-0.29149079 -1.28181756 -1.59216750
-0.03505988 -1.28053069 -1.54986942
0.05699695 -1.26957691 -1.86659908
0.22052076 -1.27509975 -1.49036705
0.31896597 -1.27306986 -1.80732644
0.41140583 -1.26728654 -2.13753796
0.68046027 -1.26923239 -2.05536246
0.57996219 -1.28229988 -1.72865152
0.77414095 -1.26575458 -2.39420629
1.05021179 -1.28244543 -2.28390336
0.94711709 -1.27955794 -1.94836092
1.15215003 -1.28326511 -2.62663889
1.43570459 -1.28895664 -2.49207664
1.32365549 -1.29293966 -2.15407562
1.54337227 -1.28873420 -2.84081745
1.83202851 -1.29179823 -2.68138409
1.71374416 -1.30024731 -2.33910108
1.94924057 -1.28193235 -3.02850080
2.24184942 -1.27753556 -2.84486961
2.11326218 -1.28360224 -2.50316095
2.36874318 -1.27913654 -3.19249177
2.66414809 -1.27530670 -2.98377466
2.52649927 -1.27147651 -2.64277005
2.79946780 -1.27778828 -3.32940507
3.09590650 -1.26793754 -3.09878778
2.94910455 -1.28315020 -2.75816679
3.23922348 -1.27742839 -3.44266462
3.53459716 -1.27250302 -3.18911338
3.37960672 -1.28000963 -2.85123491
3.69046879 -1.27141535 -3.52650213
3.98166823 -1.28449082 -3.25326538
3.81655860 -1.29296267 -2.92056465
4.15112829 -1.26943135 -3.58370662
4.43623018 -1.27513802 -3.29111314
4.26032066 -1.28262949 -2.96588826
4.61878109 -1.22296643 -3.60746741
4.89563370 -1.22155690 -3.29624534
4.70995712 -1.26854277 -2.98457861
5.09053993 -1.15676939 -3.59764767
5.35653782 -1.15257168 -3.27180266
5.16128016 -1.22094417 -2.97422242
5.55311441 -1.02955353 -3.54841733
5.80947638 -1.03650880 -3.20900655
5.61346006 -1.15935075 -2.93599939
5.99635506 -0.86298877 -3.45724893
6.24482775 -0.87735111 -3.11711812
6.05978727 -1.04866505 -2.86798692
6.40458298 -0.63846898 -3.32961965
6.64026308 -0.65197343 -2.98955774
6.48657513 -0.87978691 -2.77678061
7.00441504 -0.39050233 -2.83452868
6.88000345 -0.65556592 -2.65769172
7.05916786 -0.11666053 -2.92303157
7.27323198 -0.11582556 -2.59930038
7.22468424 -0.38468853 -2.50499892
7.48905849 -0.11544248 -2.28818536
7.44869852 -0.38278878 -2.18610144
7.55723190 0.34836513 -2.44916606
7.32178879 0.15302980 -2.69360161
7.52941751 0.15190379 -2.39026928
7.77078962 0.36595234 -2.16987777
7.73301125 0.16631201 -2.09870958
7.78511333 0.49908930 -2.20041060
7.98838472 0.51064807 -1.92037952
7.96870661 0.36845711 -1.88237107
7.99625874 0.61241770 -1.93710876
8.21665764 0.60311860 -1.67795086
8.20528316 0.50123405 -1.65829551
8.22522926 0.69832361 -1.69263494
8.44270897 0.69311488 -1.45908415
8.43579197 0.60219169 -1.44688177
8.44912815 0.78034598 -1.47061980
8.67613029 0.85090911 -1.25011408
8.66750526 0.77181286 -1.23745966
8.88329220 0.77279329 -1.03065753
8.89505005 0.84737784 -1.04149616
8.68926620 0.92536342 -1.26769364
8.91213989 0.91691452 -1.05755150
9.10796547 0.84315729 -0.83404291
9.12925148 0.91236454 -0.84544086
9.16624928 0.96737802 -0.87432623
9.33950138 0.88493443 -0.61216569
9.38515472 0.93505323 -0.63575077
9.44298649 0.94964534 -0.67630994
9.22037506 0.97925854 -0.92298961
