8.50013256 -2.78952193 4.24169731
7.53045034 -2.79393601 5.81965399
7.34726191 -2.17329001 5.72101402
7.86226559 -2.17119217 4.96582651
6.74382305 -2.17528749 6.41814756
6.53106880 -1.57732475 6.25945282
7.12005472 -1.57538462 5.58290815
5.88265228 -1.57916999 6.88730812
6.27733707 -1.01414955 6.06335735
5.64314127 -1.01595771 6.66699028
4.95457411 -1.01763606 7.22023916
5.34238100 -0.50718462 6.37328577
4.68579531 -0.50875884 6.90360498
3.96398950 -0.51026213 7.36117363
4.38070250 -0.05691924 6.54425955
3.69494581 -0.05832541 6.97050047
2.96874332 -0.05954088 7.32447672
3.41240931 0.33266416 6.52749825
2.72602439 0.33152249 6.85490990
2.01301718 0.33074147 7.13605642
2.49094605 0.66557890 6.38243866
1.82632411 0.66476089 6.62603951
1.13636756 0.66415226 6.79794073
1.65696037 0.94388068 6.14300013
1.01634800 0.94337338 6.28930616
0.35823980 0.94314438 6.37174416
0.92037100 1.21011138 5.88172722
0.30456328 1.20990121 5.95738363
-0.32486984 1.20982325 5.95278072
0.26428136 1.51481569 5.67877769
-0.33419687 1.51487899 5.66690826
-0.93429375 1.51511133 5.59424019
-0.34782222 1.86867952 5.52780199
-0.93879253 1.86887050 5.48452330
-1.51372409 1.86921513 5.33506870
-0.96415854 2.24301147 5.49686718
-1.54421473 2.24336576 5.36937428
-2.11517715 2.24394822 5.18519974
-1.61733747 2.61075616 5.55190611
-2.20506668 2.61171913 5.35061550
-2.77821207 2.61263037 5.10620737
-2.33835101 2.99186492 5.64291334
-2.93639779 2.99316359 5.36806679
-3.45325232 2.99459291 5.00617838
-3.07252288 3.49021888 5.68466997
-3.65492821 3.49132204 5.32383013
-4.16401100 3.49254942 4.88216686
-3.76542258 4.07640505 5.52884817
-4.31617641 4.07812119 5.07467127
-4.85350466 4.07923698 4.61492109
-4.40467882 4.70928144 5.18042231
-4.93268061 4.71062517 4.68595314
-5.40816116 4.71196175 4.14667177
-4.94868755 5.35671043 4.69453049
-5.40736628 5.35811996 4.13990784
-5.81055212 5.35958481 3.55104995
-5.29521942 5.98161793 4.05015755
-5.70065355 5.98310089 3.48003221
-6.04592848 5.98472071 2.87171578
-5.46051550 6.54538345 3.33270383
-5.77923393 6.54690266 2.74965954
-6.02476406 6.54868650 2.12947392
-5.45174980 6.99988556 2.59661722
-5.68345499 7.00154448 2.01389647
-5.85099936 7.00333786 1.40469193
-5.40389442 7.23659086 1.91846466
-5.57630110 7.23286533 1.34146154
-5.68854952 7.23734856 0.75212765
-5.47053528 7.43671036 0.72821629
-5.36500168 7.42343235 1.29330277
-5.50559282 7.45087242 0.15368521
-5.29740191 7.63243580 0.15653121
-5.26290703 7.60835695 0.70422792
-5.25540018 7.66741467 -0.39807910
-5.08252907 7.75566530 0.15477423
-5.04022980 7.76746702 -0.37672707
-4.94091320 7.78483105 -0.90134978
-4.81887770 7.79836702 -0.35669762
-4.72392654 7.80210066 -0.85786182
-4.58631229 7.78976917 -1.34550583
-4.52258062 7.77810669 -0.81683004
-4.39938688 7.78225279 -1.28472686
-4.22708082 7.79935169 -1.73563147
-4.22708082 7.77806759 -1.23144782
-4.06730795 7.76885796 -1.66555011
-3.85359359 7.77839804 -2.07343960
-3.77613807 7.63728666 -2.02909970
-3.97189236 7.63222456 -1.62378168
-3.52455521 7.63465214 -2.40294909
-3.51354384 7.44998407 -2.39684153
-3.76684523 7.45213509 -2.02654600
-3.22237396 7.45414495 -2.73902059
-3.54063106 7.26292515 -2.41972709
-3.25442171 7.27293301 -2.77052951
-2.92455840 7.29236031 -3.07512069
-3.33670664 7.14045000 -2.84558511
-2.99665427 7.14147806 -3.15386081
-3.25442171 7.27293301 -2.77052951
-2.92455840 7.29236031 -3.07512069
-2.59105611 7.32677698 -3.35480094
-2.64436674 7.14257860 -3.43024254
-2.59105611 7.32677698 -3.35480094
-3.09491372 6.98170137 -3.26080513
-2.72189045 6.98269653 -3.53549170
-2.64436674 7.14257860 -3.43024254
-2.32426071 6.98338270 -3.77166438
-2.72189045 6.98269653 -3.53549170
-2.59105611 7.32677698 -3.35480094
-2.40376735 6.83171940 -3.91443658
-2.80963063 6.83099461 -3.66809034
-1.97528124 6.83228207 -4.13163519
-2.49273133 6.67005730 -4.08016777
-2.04813957 6.67062569 -4.31028509
-1.58006656 6.67123795 -4.49437809
-2.13174653 6.49198723 -4.49414921
-1.64796388 6.49256134 -4.70093203
-1.13537371 6.49281454 -4.82858658
-1.71857381 6.28430653 -4.91612673
-1.18726373 6.28464317 -5.05209780
-0.64596939 6.28471279 -5.16069698
-1.24699354 5.95479870 -5.31809473
-0.67672628 5.95495272 -5.40998077
-0.09805912 5.95498514 -5.43622208
-0.70014179 5.53499508 -5.62374496
-0.10394586 5.53503847 -5.65039015
0.49456516 5.53500748 -5.62834740
-0.10854325 5.04098892 -5.80283356
0.50372565 5.04092693 -5.78054857
1.10994256 5.04071045 -5.69181204
0.50369275 4.46551943 -5.84633875
1.11506975 4.46526527 -5.75477600
1.71592855 4.46491480 -5.60677433
1.09479547 3.85510159 -5.69454098
1.69043005 3.85470843 -5.55307961
2.26929522 3.85410953 -5.34847784
1.62921274 3.28968287 -5.38137341
2.18175316 3.28913355 -5.16910076
2.71709538 3.28831363 -4.91032076
2.06768584 2.83201051 -4.92055035
2.58239174 2.83122420 -4.68478155
3.06974578 2.83031678 -4.39459229
2.44156933 2.40561509 -4.44857883
2.90501213 2.40477777 -4.17259979
3.33306813 2.40385723 -3.84131169
2.82123995 1.94161928 -4.07311916
3.24066401 1.94069719 -3.75216627
3.63419199 1.93964767 -3.39988518
3.28924727 1.46786308 -3.83551526
3.68429685 1.46681213 -3.47176862
4.04472065 1.46578908 -3.07814741
4.26280022 1.07605290 -3.27882791
3.88309550 1.07711041 -3.69215059
4.58988523 1.07489610 -2.81164932
4.92183256 0.79096049 -3.02552032
4.57883835 0.79230201 -3.53016305
5.20565987 0.78941238 -2.47921443
5.62958193 0.52082139 -2.70160127
5.31291342 0.52242470 -3.28957081
5.88172626 0.51916867 -2.08496857
6.34440804 0.20306800 -2.27745080
6.06441736 0.20485212 -2.94139934
6.55878401 0.20117845 -1.58282018
7.04031801 -0.20001808 -1.73088777
6.80295753 -0.19801839 -2.47243023
7.18666267 -0.20222121 -0.95971328
7.45650101 -0.67565429 -1.86648571
7.61772871 -0.67792946 -1.04759192
7.68688250 -0.68028378 -0.21109632
7.96822977 -1.21549869 -1.12772954
8.04045963 -1.21790099 -0.24852081
8.01506042 -1.22033918 0.63997334
8.31581974 -1.79122162 -0.28426814
8.29131317 -1.79367590 0.63547367
8.17546082 -1.79609144 1.55214739
8.49573421 -2.37169456 0.62692386
8.37607861 -2.37413812 1.56814349
8.14311695 -2.37654614 2.49305320
8.52262211 -2.92793059 1.57661712
8.28175545 -2.93031311 2.51775599
7.94312716 -2.93274212 3.42837381
8.38424778 -3.43087578 2.53364444
8.04803276 -3.43342328 3.46146035
7.60972500 -3.43610930 4.34470558
8.11619568 -3.85540962 3.48007011
7.67123985 -3.85818887 4.37147045
7.13159704 -3.86080909 5.20925713
7.71770620 -4.19501543 4.39152765
7.17161512 -4.19762659 5.23335171
6.53325129 -4.19987583 6.01017857
7.19909811 -4.46406460 5.24956751
6.55838633 -4.46636152 6.02913857
5.83403587 -4.46864033 6.72950125
5.85477161 -4.69934797 6.74880409
6.58338881 -4.69712925 6.04819870
5.06295204 -4.70141077 7.36067247
5.07515574 -4.92534876 7.37369537
5.86975336 -4.92326546 6.75803280
4.22225237 -4.92698765 7.89440584
4.22579098 -5.14780807 7.90444994
5.08405256 -5.14618969 7.37994528
3.31183553 -5.14886236 8.32027626
3.31127262 -5.37321854 8.32748508
4.22899771 -5.38307667 7.91235542
2.36100411 -5.37633514 8.63930798
2.36523700 -5.62247610 8.65937519
3.31090927 -5.61509657 8.33521080
1.37534750 -5.64113379 8.86126232
2.29548740 -5.64780188 8.44218540
1.33136141 -5.67769909 8.65348816
0.34279412 -5.70984840 8.76393700
1.28241336 -5.68061686 8.40697098
0.32146278 -5.71144247 8.51661491
-0.64676476 -5.73836231 8.52832890
-8.76087475 -5.99600554 1.91367495
-8.91022968 -6.00370884 1.05373585
-8.90209484 -5.79828167 1.06254244
-8.75022697 -5.79099274 1.92651749
-8.53343678 -6.01041698 2.76701236
-8.51101303 -5.80460024 2.77727342
-8.73990726 -5.58607864 1.93839097
-8.50013256 -5.60038567 2.79027534
-8.17546177 -5.62455797 3.62210798
-8.48958302 -5.39633179 2.80311537
-8.16468048 -5.42099905 3.63502717
-7.74895906 -5.44158459 4.43998241
-8.15323734 -5.13683796 3.64784765
-7.73645878 -5.13924265 4.45156097
-7.23577595 -5.14131641 5.22330141
-7.72157717 -4.91876984 4.46129751
-7.22023296 -4.92080879 5.23158455
-6.63405800 -4.92274284 5.96037006
-7.20045328 -4.69722509 5.23713112
-6.61249447 -4.69914055 5.96292830
-5.93483973 -4.70087337 6.62275934
-6.58732510 -4.46869135 5.96373034
-5.91261530 -4.47043419 6.62372255
-5.16322899 -4.47189283 7.21040058
-5.87861729 -4.20374584 6.61550093
-5.13121414 -4.20523262 7.19781828
-4.31191349 -4.20615530 7.69697189
-5.08845329 -3.86812758 7.17566252
-4.27192831 -3.86915588 7.66553068
-3.41092110 -3.86992192 8.09742451
-4.22675228 -3.44677758 7.63666725
-3.36518264 -3.44753575 8.04393482
-2.46128082 -3.44844055 8.36957073
-3.30376720 -2.94653964 7.96652126
-2.41223454 -2.94738317 8.28093433
-1.49093759 -2.94804168 8.50701427
-2.35310006 -2.39312577 8.16329670
-1.44734621 -2.39374042 8.37355042
-0.52155179 -2.39410615 8.49426174
-1.39333916 -1.81513405 8.19235516
-0.49234921 -1.81544805 8.30531502
0.41899350 -1.81548226 8.31758785
-0.45884705 -1.24128020 8.03609562
0.42111057 -1.24131393 8.04820728
1.29987729 -1.24103820 7.97069502
1.25595689 -0.70225412 7.62442923
0.41770431 -0.70253527 7.70387983
2.08326221 -0.70178699 7.44534159
1.97875440 -0.22458316 7.02760887
1.19672430 -0.22511134 7.19595766
2.73644280 -0.22386296 6.76834393
1.85479856 0.17834018 6.55411816
2.55748701 0.17896192 6.30486488
3.23199892 0.17997845 5.98617363
2.38739657 0.49694288 5.85689592
3.00720620 0.49786454 5.56145763
3.58885074 0.49894929 5.19278622
2.78972197 0.76820475 5.15421247
3.32489896 0.76916707 4.80782557
3.81843877 0.77035433 4.41678858
3.09613752 1.05447650 4.48725939
3.56649399 1.05559623 4.12052584
3.99676538 1.05681312 3.70793009
3.78017449 1.44748497 3.51006365
3.37252378 1.44633412 3.89892101
4.13494205 1.44867504 3.07082272
3.71479011 1.92056704 3.44605637
4.07676792 1.92175698 3.02869678
4.37941313 1.92305756 2.57145047
4.50667572 2.38555455 2.65186381
4.19364500 2.38419271 3.12033367
4.75746298 2.38704848 2.15053201
5.00081015 2.81168008 2.26612520
4.73411417 2.81008434 2.78958035
5.20403910 2.81329465 1.71763957
5.44725466 3.26956248 1.80231512
5.22943974 3.26780844 2.37550807
5.58910275 3.27134919 1.20643342
5.75248051 3.83601332 1.24837399
5.59902430 3.83422017 1.85741687
5.84468651 3.83780932 0.62730032
5.89968538 4.44796371 0.63949215
5.82295752 4.44621515 1.26872098
5.91992521 4.44967556 0.00889056
5.85255766 5.02531672 0.01565745
5.82034492 5.02353048 0.63673109
5.80546188 5.02700853 -0.60412455
5.63616467 5.52150631 -0.58030403
5.67234516 5.51977301 0.02187580
5.52758789 5.52306366 -1.17352188
5.29194689 5.94364834 -1.11631739
5.40016031 5.94209623 -0.54659593
5.12797356 5.94525146 -1.66779065
4.88393259 6.27559376 -1.58071959
5.01790905 6.27392960 -1.05088568
4.68255520 6.27677250 -2.08867335
4.48815489 6.48508549 -1.99951911
4.68463802 6.48379564 -1.50989437
4.24295664 6.48629284 -2.45959187
4.31287146 6.66400146 -1.91553330
4.07534552 6.66517544 -2.35986114
3.79846334 6.66634989 -2.78263044
3.65790606 6.82816935 -2.67341948
3.93432498 6.82706022 -2.27422714
3.34603310 6.82920122 -3.04475570
3.53656411 6.98014545 -2.58143425
3.22472405 6.98111439 -2.93024302
2.88417721 6.98199654 -3.24748158
3.11938834 7.14107656 -2.83185720
2.78671265 7.14189053 -3.13569236
2.43350077 7.14250422 -3.40383983
2.72758007 7.36061430 -3.07000566
2.39629340 7.35173416 -3.35045218
2.02310491 7.34549332 -3.59245753
2.39629340 7.35173416 -3.35045218
2.02363467 7.53485489 -3.58837891
2.02310491 7.34549332 -3.59245753
2.40482688 7.54113579 -3.36058426
1.64611268 7.35182190 -3.79970860
1.63768005 7.52462864 -3.77637815
1.64231014 7.69122791 -3.78189015
2.02356791 7.71115303 -3.58280230
1.24312627 7.67101049 -3.93027210
1.27209795 7.78895235 -4.01601696
1.68140125 7.80635214 -3.86352491
0.85049009 7.79070663 -4.11338854
0.88591105 7.79763842 -4.28712940
1.32521164 7.83234406 -4.17302322
0.42332736 7.79904652 -4.36512375
0.92566448 7.79525089 -4.47397661
0.44429532 7.79904985 -4.55543613
-0.05030180 7.78383493 -4.58987474
0.46622214 7.78791809 -4.76281595
-0.04848256 7.78222036 -4.79706717
-0.56451190 7.79617977 -4.76117802
-0.58250248 7.72361088 -4.97163582
-0.04610190 7.73934793 -5.01963472
-1.11232376 7.70456600 -4.88101387
-1.15068698 7.54121590 -5.07848120
-0.59596395 7.52925110 -5.15304089
-1.69671237 7.54750824 -4.95290804
-1.19722021 7.34986830 -5.30889034
-1.76156688 7.34149837 -5.16607809
-2.30762506 7.34266281 -4.96744585
-1.84077585 7.02324533 -5.44116688
-2.40651011 7.02255011 -5.21274567
-2.96053958 7.02185535 -4.96244287
-3.47980857 7.02099037 -4.64027882
-2.54177785 6.57114840 -5.54868078
-3.12143779 6.57031488 -5.26309395
-3.67725086 6.56937885 -4.92615414
-3.67725086 6.56937885 -4.92615414
-3.26417661 6.00937080 -5.53578854
-3.84800482 6.00837374 -5.17680645
-3.84800482 6.00837374 -5.17680645
-4.36614895 6.00696754 -4.72876501
-3.93558097 5.38549328 -5.32024193
-4.47889376 5.38417578 -4.87139273
-4.99300337 5.38282633 -4.38572454
-4.49708414 4.73804951 -4.91250944
-5.00841522 4.73661327 -4.41731405
-5.46656656 4.73505831 -3.86858582
-4.92639542 4.10463905 -4.36093473
-5.36897039 4.10308504 -3.81244898
-5.75945711 4.10135889 -3.22746754
-5.18154860 3.51637268 -3.69255996
-5.50370836 3.51471305 -3.09522438
-5.87405157 3.51309586 -2.52396917
-5.26760340 3.01605487 -2.96919656
-5.57322550 3.01423264 -2.39689231
-5.79808521 3.01269531 -1.79269314
-5.24322939 2.63327980 -2.25705314
-5.48439312 2.63155961 -1.69597185
-5.65339327 2.62989402 -1.10743749
-5.28450394 2.26354790 -1.63304532
-5.44602966 2.26193428 -1.06316268
-5.54306269 2.26035142 -0.48254094
-5.40786505 1.88767231 -1.05742002
-5.49835014 1.88605845 -0.47647539
-5.53129101 1.88449633 0.10753763
-5.64522457 1.53093779 0.11236887
-5.62286854 1.53260922 -0.48924592
-5.60897827 1.52926898 0.71301478
-5.93675756 1.22648799 0.11838622
-5.89700413 1.22469807 0.75173289
-5.77638912 1.22279608 1.37821603
-6.18245411 0.95672870 1.48268557
-6.32324219 0.95876426 0.81179386
-5.99129438 0.95492464 2.14655304
-6.69732523 0.67847604 1.63185310
-6.48387575 0.67653674 2.34077501
-6.19594574 0.67449427 3.02870369
-6.99034452 0.34315291 2.54937816
-6.67655420 0.34115925 3.28874040
-6.29076576 0.33914432 3.99217176
-7.12855387 -0.04973206 3.52931929
-6.71766472 -0.05181703 4.27974319
-6.21621990 -0.05383470 4.98414373
-7.07501125 -0.50393605 4.52540064
-6.55765963 -0.50583267 5.28066969
-5.94919443 -0.50775391 5.97215128
-6.84429789 -1.01491570 5.54062176
-6.20027781 -1.01694572 6.26036358
-5.47863865 -1.01887584 6.88240528
-5.64495945 -1.58234847 7.16376495
-6.39113951 -1.58045065 6.50248194
-4.84030914 -1.58377421 7.72412062
-4.91379547 -2.18213534 7.95354557
-5.74434423 -2.18070769 7.38156319
-4.02970600 -2.18319798 8.43041420
-4.05126953 -2.80425072 8.61730576
-4.94567871 -2.80323911 8.12259293
-3.09150863 -2.80496645 8.99477863
-4.05530453 -3.43529558 8.76783371
-3.07632923 -3.43593240 9.14950657
-2.05720186 -3.43640161 9.42742443
-2.01678753 -4.07493210 9.55863476
-3.04328752 -4.07444668 9.26400280
-0.97424728 -4.07520962 9.70566750
-0.92318237 -4.71680927 9.83363914
-1.97554791 -4.71643496 9.66262531
0.13767895 -4.71685171 9.87425327
0.20041753 -5.35862160 9.89628983
-0.86170161 -5.35860538 9.89039612
1.25823843 -5.35849714 9.86229706
1.32444894 -5.98647070 9.87016106
0.25836071 -5.98671436 9.95776653
2.39212418 -5.98589659 9.67799377
1.39079201 -6.53241539 9.86573792
2.44877815 -6.53176069 9.65532207
3.45602989 -6.53087807 9.34866047
2.48231292 -6.93418837 9.60551548
3.47610593 -6.93323660 9.28827667
4.41509676 -6.93217802 8.88165569
3.49350095 -7.25601721 9.22593498
4.43027639 -7.25496578 8.82213974
5.28863764 -7.25360823 8.32258415
5.24352598 -7.48488235 8.18968296
4.40626621 -7.48624611 8.69521332
6.01034212 -7.48331118 7.63853264
5.13597488 -7.72763109 7.92949963
5.87778854 -7.72086239 7.40783453
6.55997372 -7.72040749 6.82979393
6.45473623 -7.73929644 6.69724131
7.07146978 -7.73528624 6.05308056
7.62573099 -7.73380327 5.35215139
6.95078897 -7.76684952 5.92679167
7.49406958 -7.76544285 5.24249458
7.95797539 -7.76380110 4.50619984
7.34699678 -7.68469191 5.11619377
7.79770756 -7.68302965 4.40880489
8.13917923 -7.68074322 3.62220907
7.65662050 -7.44917631 4.32532024
8.00689030 -7.44691420 3.54736328
8.32074642 -7.44463301 2.78821969
8.00689030 -7.44691420 3.54736328
7.87460041 -7.21307516 3.47259855
8.19976807 -7.21037626 2.71571708
8.32074642 -7.44463301 2.78821969
7.86153650 -7.11521244 1.84096456
7.64514351 -7.12650585 2.48720384
7.09052038 -7.04265404 2.25869060
7.24926758 -7.02037477 1.69023800
7.99964762 -7.10737181 1.18389618
7.32708740 -7.00536966 1.11013782
5.80704737 -6.89758444 -0.92486280
6.38604498 -6.85907841 -1.09641635
6.49068594 -6.84938192 -0.55040228
5.90365171 -6.89134836 -0.41955301
5.68583679 -6.91021824 -1.42720294
6.25008535 -6.89095020 -1.63449860
5.12932777 -6.93442869 -1.23566592
5.24094772 -6.93399954 -0.75798649
4.58680820 -6.91719246 -1.07122445
4.69270658 -6.92243576 -0.60082769
4.17360163 -6.91392231 -0.46079484
4.78239870 -6.91723871 -0.12466910
4.26286459 -6.91502714 0.02019080
3.68287396 -6.89770079 -0.33446705
3.77193737 -6.86645031 0.15500583
3.21632242 -6.90069771 -0.22216123
3.30452538 -6.85400867 0.28301880
2.85566664 -6.89344501 0.40434736
3.38687587 -6.84405518 0.79447550
2.93669510 -6.88181162 0.93244183
2.42989302 -6.90501595 0.51138103
2.50533104 -6.92105675 1.06095719
2.02154827 -6.92719126 0.61354065
2.08749533 -6.92250824 1.17657769
1.68222535 -6.93239450 1.27287710
2.14348698 -6.90259933 1.75935853
1.71728301 -6.90655375 1.86407161
1.28681242 -6.93286657 1.34473753
1.29650283 -6.90680170 1.93883967
0.89963394 -6.93580818 1.39365995
0.88296551 -6.92145538 1.97828233
0.48017713 -6.89785957 1.98254657
0.85379583 -6.90528202 2.59431911
0.41988599 -6.90733051 2.59415197
0.08549079 -6.92386723 1.95259929
-0.00367233 -6.92095661 2.54720211
-0.41334027 -6.91230774 2.45647049
-0.29814887 -6.95165300 1.88356721
-0.80184090 -6.91972828 2.31942821
-0.67166781 -6.95518970 1.77632999
-1.16037834 -6.93042564 2.13360786
-1.02402079 -6.94730854 1.61680269
-1.50595140 -6.93614674 1.93342888
-1.36360884 -6.95520973 1.43470442
-1.25195611 -6.97264051 0.99508864
-1.69525874 -6.94955969 1.21380603
-1.61495972 -6.95759439 0.79642087
-2.04781103 -6.94022179 0.96982527
-2.01649022 -6.94398069 0.56092995
-2.47196484 -6.92835283 0.72294480
-2.49815845 -6.92330837 0.30955231
-2.49772692 -6.91820621 -0.09568489
-3.08390164 -6.89850998 0.07344662
-3.09875083 -6.88025618 -0.37551701
-3.06372857 -6.87500143 -0.83896977
-3.74620986 -6.90621662 -0.62573230
-3.67179751 -6.90575027 -1.15306652
-2.86125755 -6.89662933 -1.24654210
-3.43440270 -6.89987135 -1.62717569
-3.12626672 -6.89987183 -2.05568123
-3.69931340 -6.94791651 -2.46163130
-4.02795315 -6.95231247 -1.97653687
-3.32999420 -6.94360495 -2.90562749
-3.88792419 -6.94030142 -3.35721660
-4.28700972 -6.94307899 -2.84797525
-3.44452333 -6.92869473 -3.81128550
-2.93964148 -6.93056917 -4.20822525
-4.34858894 -7.09758520 -5.76719952
-3.62923336 -7.09572506 -6.25512648
-3.64411521 -7.01409197 -4.98771238
-3.01709676 -7.01200533 -5.40498829
-2.40492535 -6.92827368 -4.55493116
-0.97275901 -7.00512171 -6.22596884
-1.31922531 -7.09299469 -7.21628904
3.64980197 -7.18451548 -7.85651636
2.82110620 -7.18338823 -8.16769886
3.71882319 -7.41666651 -8.06596375
2.88057065 -7.41557169 -8.38723850
4.41784191 -7.18714809 -7.44279432
4.50356436 -7.41869545 -7.63366938
5.26260900 -7.41925478 -7.18191147
4.50356436 -7.41869545 -7.63366938
5.35699797 -7.65140867 -7.35381269
4.58932114 -7.65029287 -7.82454395
5.43524694 -7.73170233 -7.49767876
4.65930271 -7.73060369 -7.97648430
6.13218117 -7.73339272 -6.92553473
6.03534603 -7.65297794 -6.78893566
6.22504854 -7.75346994 -7.05542612
5.50929594 -7.75004387 -7.63467026
6.87343359 -7.75630665 -6.42676544
6.95373249 -7.67304802 -6.52907896
6.29906464 -7.67963934 -7.16818142
7.53960991 -7.67840576 -5.85036421
7.09266996 -7.44331217 -6.72206259
7.68678188 -7.44531202 -6.01685524
8.22133160 -7.44732809 -5.27668571
8.77516174 -7.21752214 -4.54628801
8.31958961 -7.21530867 -5.36841154
9.16313362 -7.21985197 -3.71883535
9.24111843 -6.89666605 -3.76969457
8.83303738 -6.89434481 -4.60514069
9.50106716 -6.89897966 -2.91147852
9.54667473 -6.49619675 -2.94588685
9.22772408 -6.49387407 -3.79287887
9.77682495 -6.49856901 -2.07741666
9.76782990 -5.95245218 -2.08776855
9.54135036 -5.94999552 -2.97190237
9.91275406 -5.95497274 -1.19136190
9.71389008 -5.32455635 -2.08214855
9.87319851 -5.32707882 -1.17427623
9.93967438 -5.32969141 -0.25566518
9.80126667 -4.68310928 -1.14140069
9.86393833 -4.68582392 -0.22601984
9.83658791 -4.68859529 0.69154108
9.76587963 -4.04484367 -0.20009671
9.73892498 -4.04763269 0.72012872
9.65293598 -4.05032253 1.64108109
9.61374569 -3.40969563 0.74071425
9.50629425 -3.41238785 1.65165448
9.31665611 -3.41503525 2.55734634
9.14802074 -2.78465199 2.53955770
9.35406208 -2.78199577 1.65267920
8.86035633 -2.78709888 3.40584755
8.66612244 -2.16658807 3.35589528
8.96235275 -2.16417360 2.51221395
8.30440998 -2.16893363 4.17834187
8.05656624 -1.57114971 4.08399868
8.40888691 -1.56889427 3.28311038
7.62678957 -1.57335901 4.85380077
7.33657980 -1.01031971 4.70663548
7.74290705 -1.00829113 3.95467734
6.84297419 -1.01232159 5.40538406
6.50672722 -0.50353658 5.18006945
6.96544170 -0.50178802 4.50344467
5.95894957 -0.50540382 5.80493832
6.10813856 -0.05202922 4.90397072
5.59396267 -0.05372034 5.50179052
5.01370859 -0.05536791 6.04761076
5.19821930 0.33700207 5.16585255
4.64812613 0.33535585 5.67485476
4.05943680 0.33405930 6.14154816
4.27351475 0.66876638 5.28231812
3.72520828 0.66763788 5.71033573
3.12782121 0.66652262 6.07545471
3.42269397 0.94642019 5.31239939
2.86466432 0.94546807 5.64425230
2.27389216 0.94456857 5.93169641
2.66381598 1.21194172 5.30635500
2.10823250 1.21117663 5.55996704
1.52324843 1.21056640 5.75423479
1.98682380 1.51602006 5.30332375
1.42717290 1.51547706 5.48790216
0.85280418 1.51504683 5.61733294
1.37260330 1.86910212 5.35016775
0.81232423 1.86875939 5.48807621
0.23693091 1.86861336 5.54072094
0.79876441 2.24290967 5.51156235
0.21923687 2.24281621 5.56711292
-0.36958370 2.24287486 5.56057262
0.20703337 2.61014128 5.77306080
-0.40087035 2.61047912 5.72421122
-1.01122153 2.61034060 5.67964125
-0.44197860 2.99050593 6.04840279
-1.07984555 2.99037886 5.98881435
-1.71010637 2.99100161 5.83370781
-1.14929724 3.48840308 6.31632042
-1.80522180 3.48884177 6.15838718
-2.45168924 3.48943782 5.95475435
-1.86610949 4.07314301 6.39053345
-2.51624560 4.07387495 6.16332340
-3.15017772 4.07485390 5.88363075
-2.56459808 4.70533228 6.29297543
-3.20937753 4.70633936 6.00327110
-3.83404922 4.70772219 5.63629532
-3.22528362 5.35272026 5.99981880
-3.83844686 5.35396242 5.62178040
-4.42052174 5.35530043 5.18746519
-4.32533836 5.97887754 5.05831289
-3.76452923 5.97761726 5.47914410
-4.84374714 5.98023272 4.58507919
-4.63956022 6.54258490 4.37283278
-4.14697886 6.54124880 4.82103634
-5.07637787 6.54393959 3.87424588
-4.39379835 6.99570179 4.12774372
-4.78785515 6.99687290 3.64813066
-5.14662457 6.99819565 3.13581705
-4.55833244 7.20216846 3.46444440
-4.89342165 7.20509434 2.98176837
-5.17460442 7.24490070 2.46237564
-4.70305681 7.39841080 2.85941410
-4.97944307 7.42236948 2.36613798
-5.20744419 7.42756081 1.84172380
-4.81318808 7.59554291 2.27941632
-5.01833582 7.57948732 1.77343321
-5.16504622 7.58915997 1.24547863
-4.82340956 7.68541336 1.70404589
-4.96571922 7.70190048 1.19726503
-5.04671192 7.71975040 0.67958760
-4.75878477 7.76574755 1.14681637
-4.83177662 7.77062035 0.65340662
-4.85657978 7.80079174 0.15094319
-4.63367319 7.75974083 0.62769991
-4.64865351 7.77103662 0.14755003
-4.60810804 7.77608633 -0.33665439
-4.45914936 7.76144695 0.14445515
-4.41301250 7.78069735 -0.31798986
-4.33873367 7.78445005 -0.77870154
-4.26908255 7.63076115 -0.76653260
-4.34207201 7.62871790 -0.31445569
-4.14770555 7.63070297 -1.20682681
-4.26455069 7.44149637 -0.76915777
-4.13547039 7.44237280 -1.20476627
-3.96597290 7.44853067 -1.62291932
-4.15650415 7.25160980 -1.21328974
-3.99213386 7.25969172 -1.63725126
-3.78447270 7.26015472 -2.04007888
-3.78447270 7.26015472 -2.04007888
-3.99213386 7.25969172 -1.63725126
-4.09634542 7.13713932 -1.68668377
-3.88064790 7.13820744 -2.09661531
-3.54063106 7.26292515 -2.41972709
-3.62751055 7.13935900 -2.48579526
-4.00569391 6.97845078 -2.17433071
-3.74389172 6.97955942 -2.57344246
-3.43615437 6.98064709 -2.93961096
-3.55081725 6.82889271 -3.04225373
-3.87052727 6.82775354 -2.66865683
-3.19264317 6.83000994 -3.38282681
-3.30370021 6.66835785 -3.50487494
-3.66656995 6.66725206 -3.15412903
-2.91384220 6.66928577 -3.81710768
-2.80963063 6.83099461 -3.66809034
-3.43145871 6.48957539 -3.65167928
-3.02850509 6.49052668 -3.98304772
-3.02850509 6.49052668 -3.98304772
-2.91384220 6.66928577 -3.81710768
-2.59376621 6.49143648 -4.25959110
-3.15533733 6.28256273 -4.15770864
-2.70475793 6.28329277 -4.45694160
-2.21601462 6.28398085 -4.69359827
-2.32637787 5.95389175 -4.94441652
-2.83287954 5.95316553 -4.68305206
-1.79530001 5.95442247 -5.15006924
-1.86971247 5.53434753 -5.37982035
-2.42615628 5.53371477 -5.16302633
-1.29197252 5.53478622 -5.53783417
-1.92153692 5.04019165 -5.53775454
-1.32593775 5.04061842 -5.68042803
-0.71988606 5.04086971 -5.77077866
-1.34300244 4.46525049 -5.74936581
-0.73043573 4.46554279 -5.83277369
-0.11376893 4.46561527 -5.86983395
-0.72693115 3.85526776 -5.76519108
-0.11886214 3.85537219 -5.81371784
0.49066275 3.85532975 -5.78763771
-0.12491418 3.29034090 -5.62893152
0.46390641 3.29040170 -5.60365868
1.05117261 3.29009962 -5.51677990
0.43506715 2.83308387 -5.35405970
0.98909622 2.83295059 -5.25886297
1.53551793 2.83258295 -5.11570597
0.92711830 2.40723777 -4.98527575
1.45419300 2.40687084 -4.87869549
1.95137012 2.40637779 -4.67578840
1.40432024 1.94363344 -4.75079250
1.89045072 1.94307971 -4.56242037
2.36113787 1.94240606 -4.33084965
1.91376638 1.47016048 -4.65142155
2.39827681 1.46961653 -4.43389988
2.86307740 1.46886730 -4.16421890
2.52871490 1.08005238 -4.70377731
3.00846314 1.07916605 -4.41019678
3.46145606 1.07822788 -4.07253027
3.71151590 0.79475743 -4.40299320
3.22746849 0.79574388 -4.76891947
4.16483927 0.79359132 -3.99419236
4.48914671 0.52526259 -4.33640194
3.99825382 0.52649987 -4.78169823
4.93297768 0.52391905 -3.84193277
5.29502106 0.20805657 -4.15649843
4.82013559 0.20958385 -4.69166183
5.71299076 0.20646468 -3.56901383
6.11485291 -0.19427107 -3.85749292
5.66212511 -0.19255671 -4.48543024
6.50186634 -0.19600119 -3.18756938
6.88401699 -0.67131734 -3.41295314
6.46859503 -0.66938585 -4.12268257
7.21249294 -0.67345524 -2.65800762
7.19165754 -1.20857823 -3.60403109
7.53789139 -1.21082008 -2.81170201
7.80888700 -1.21304131 -1.98675239
7.78510809 -1.78393269 -2.94046497
8.06281662 -1.78631032 -2.08467197
8.23826599 -1.78875184 -1.19496667
8.24643421 -2.36433601 -2.16338778
8.43206978 -2.36679935 -1.25123596
8.51640511 -2.36923194 -0.31760621
8.57590103 -2.92060661 -1.29920220
8.65593624 -2.92305446 -0.34554797
8.64333534 -2.92549658 0.61706865
8.74261951 -3.42601490 0.60598880
8.75988293 -3.42366767 -0.36962777
8.62646961 -3.42848587 1.57902145
8.69119263 -3.85042596 1.57728386
8.81666851 -3.84796166 0.59585404
8.45376587 -3.85284543 2.54256511
8.73673248 -4.18689680 1.57457268
8.50231552 -4.18956900 2.54744315
8.16047859 -4.19212008 3.49100399
8.53634739 -4.45600653 2.54896355
8.19513893 -4.45877743 3.49898362
7.74849606 -4.46155262 4.40338326
8.22242451 -4.68950844 3.50504375
7.76989412 -4.69225979 4.41170406
7.22029734 -4.69478130 5.26128006
7.78394985 -4.91620350 4.41600752
7.23822212 -4.91877270 5.27171946
6.59704828 -4.92105246 6.05605507
7.24817753 -5.13957834 5.27635431
6.60948420 -5.14189529 6.06303167
5.88228750 -5.14407492 6.76404047
5.89052343 -5.32264233 6.76532030
6.61652756 -5.29423714 6.06648397
5.09304762 -5.36457586 7.38547468
5.88456964 -5.54601049 6.75129604
5.09532976 -5.59667969 7.38434553
4.22942781 -5.62612534 7.92379189
4.94786024 -5.60076189 7.18635082
4.10914326 -5.62758017 7.70997906
3.21893382 -5.62827444 8.11619759
3.99021506 -5.62872362 7.48946571
3.12110591 -5.63482666 7.88791752
2.22200108 -5.65209246 8.19937801
-8.95897865 -6.03070879 -0.70428562
-8.84266281 -6.01875019 -1.56812644
-8.84894848 -5.82864046 -1.55685949
-8.94730568 -5.82565880 -0.69015098
-8.98001385 -6.02365971 0.17712948
-8.96476650 -5.81622839 0.18747576
-8.93926907 -5.62031269 -0.67763042
-8.95418453 -5.60991526 0.19709222
-8.89396000 -5.59266233 1.07143021
-8.94750214 -5.40095949 0.20744272
-8.88711452 -5.38370609 1.08145773
-8.72912502 -5.37997293 1.95010614
-8.88099575 -5.12937403 1.09209573
-8.72089195 -5.13175917 1.96153462
-8.48210907 -5.13429737 2.81692386
-8.71298695 -4.91130304 1.97369361
-8.46977329 -4.91386986 2.82851744
-8.14133072 -4.91641188 3.66000652
-8.45161629 -4.69035721 2.83785868
-8.12605190 -4.69287252 3.67055869
-7.70318794 -4.69519186 4.46902418
-8.09717941 -4.46247387 3.67515540
-7.67881346 -4.46485329 4.47353983
-7.17717171 -4.46678591 5.24172783
-7.64061451 -4.19813585 4.47654200
-7.14314079 -4.20022297 5.24230671
-6.54806900 -4.20201635 5.95671988
-6.49412727 -3.86496353 5.94239569
-7.08813953 -3.86307240 5.23629999
-5.83373690 -3.86676383 6.60125732
-6.42642927 -3.44250917 5.92249584
-5.77146387 -3.44425416 6.57594728
-5.02812815 -3.44565988 7.14001751
-5.67492533 -2.94301295 6.51920509
-4.94670343 -2.94448519 7.08182096
-4.15296555 -2.94559288 7.56401777
-4.84097004 -2.39011073 6.99470520
-4.05844545 -2.39130735 7.46164083
-3.22889042 -2.39234114 7.85913801
-3.94196343 -1.81279659 7.31847525
-3.12815332 -1.81377661 7.69296074
-2.27868772 -1.81454778 7.99590826
-3.00399828 -1.23976922 7.46693945
-2.18026423 -1.24052215 7.74881268
-1.32944345 -1.24100184 7.94687510
-2.06517243 -0.70189643 7.42685080
-1.25165749 -0.70233625 7.60690784
-0.42111090 -0.70257509 7.69281816
-1.16004670 -0.22519577 7.19014406
-0.38069636 -0.22535606 7.27322817
0.40748534 -0.22536336 7.27581167
0.39448702 0.17759094 6.78754568
-0.33806643 0.17760876 6.79206705
1.12869442 0.17781244 6.70777130
0.38228351 0.49568069 6.31131601
1.06221890 0.49587482 6.24139261
1.73458076 0.49630341 6.08709335
0.99805838 0.76637924 5.78594398
1.62110913 0.76674730 5.64254475
2.21710706 0.76739007 5.42203569
1.51960993 1.05218065 5.25560760
2.07135677 1.05280769 5.05528498
2.60216856 1.05356848 4.80320597
2.48023129 1.44454873 4.56698704
1.98073900 1.44382143 4.80340195
2.93818378 1.44534910 4.25346279
2.90901399 1.91845119 4.19680309
2.43654180 1.91768825 4.47140980
3.32440329 1.91945446 3.83564091
2.99282026 2.38087511 4.29990578
3.42623305 2.38190603 3.94334531
3.82809544 2.38300037 3.54948187
3.61527538 2.80611253 4.15017748
4.03420353 2.80729342 3.73604774
4.40739202 2.80862188 3.28332281
4.61932039 3.26465058 3.43953633
4.22896671 3.26317048 3.91422319
4.94551277 3.26629758 2.91931105
5.10045719 3.83064747 3.01268435
4.76255608 3.82900262 3.54655528
5.38871717 3.83237982 2.45079517
5.42979288 4.44256353 2.47429132
5.15489483 4.44076872 3.04764557
5.65306425 4.44438648 1.87970161
5.35551167 5.01824617 2.44431996
5.59462500 5.02001572 1.86563671
5.74510479 5.02177715 1.25691676
5.41388512 5.51459694 1.81210530
5.56770468 5.51630354 1.22349024
5.64850092 5.51807165 0.62324828
5.33477592 5.93697643 1.17629361
5.42036724 5.93873596 0.60479635
5.43769693 5.94036818 0.02805043
5.14778471 6.26916647 0.58003801
5.14861107 6.27071619 0.03300541
5.12198734 6.27220392 -0.51330066
4.89765739 6.48079348 -0.48018152
4.93324375 6.47925043 0.04238582
4.82407141 6.48228455 -1.00242603
4.63423538 6.66140842 -0.95679277
4.70157146 6.65998602 -0.45554137
4.50426197 6.66279840 -1.44609427
4.33846951 6.82469606 -1.38702464
4.46216059 6.82344484 -0.91467899
4.15855646 6.82588339 -1.83966911
4.01393032 6.97786903 -1.77295649
4.19053698 6.97667503 -1.33226204
3.80120850 6.97902727 -2.18975091
3.68757272 7.13903618 -2.12277389
3.89404297 7.13789749 -1.71308470
3.42706132 7.14014816 -2.49774337
3.34719157 7.35564470 -2.43674850
3.60231209 7.34539843 -2.06915188
3.03760099 7.35726452 -2.75810289
3.34719157 7.35564470 -2.43674850
3.01345754 7.54777479 -2.73876047
3.03760099 7.35726452 -2.75810289
3.31656599 7.54402494 -2.41345549
2.72758007 7.36061430 -3.07000566
2.71663308 7.54713488 -3.05689168
3.02787757 7.72620630 -2.75279832
2.72169328 7.72077322 -3.06036544
2.39672351 7.71496487 -3.34928131
2.79769421 7.82788754 -3.13943887
2.45053244 7.82268620 -3.42157054
2.07645082 7.81893730 -3.66696024
2.16359663 7.80910587 -3.80820799
2.55067539 7.80982065 -3.55329919
1.75158083 7.82767582 -4.01502132
1.83274043 7.85576200 -4.18474674
2.25953960 7.82128811 -3.96457434
1.38675940 7.84468889 -4.35506535
1.45617831 7.80450487 -4.55711651
1.92521143 7.81370306 -4.38034344
0.96839398 7.77173567 -4.67799950
1.01244569 7.68708467 -4.88429213
1.52860618 7.68904877 -4.75937653
0.48613158 7.69228125 -4.96736288
0.50709957 7.53593159 -5.16707182
1.05772233 7.53967237 -5.08252287
-0.04229817 7.54531240 -5.20887089
-0.03495688 7.34467506 -5.42678976
0.54268581 7.34407091 -5.39086008
-0.61703038 7.34838867 -5.39738846
-0.02989661 7.02405119 -5.70576096
-0.64286065 7.02400541 -5.67838907
-1.24821723 7.02373552 -5.59207535
-0.66422480 6.57253170 -6.03564072
-1.30566347 6.57228136 -5.94561291
-1.93579304 6.57181835 -5.77887869
-1.35094023 6.01139688 -6.23986626
-2.01199174 6.01094103 -6.07563496
-2.65061951 6.01023912 -5.83381081
-2.05290103 5.38827658 -6.26396370
-2.70446014 5.38749170 -6.00332594
-3.33468795 5.38655233 -5.69052744
-3.93558097 5.38549328 -5.32024193
-2.69824314 4.74130297 -6.03273535
-3.33128190 4.74044085 -5.72244072
-3.93032289 4.73934269 -5.34173870
-3.93032289 4.73934269 -5.34173870
-3.26646042 4.10839176 -5.63917351
-3.85974574 4.10732126 -5.26832199
-3.85974574 4.10732126 -5.26832199
-4.41674995 4.10604334 -4.84458399
-3.72262621 3.52027297 -5.09651613
-4.25343943 3.51911283 -4.67891407
-4.74380255 3.51781249 -4.21076727
-4.01349878 3.02035904 -4.42038679
-4.49099827 3.01896286 -3.99051285
-4.91353226 3.01748800 -3.50686336
-4.60866880 2.63618827 -3.28943086
-4.23032188 2.63730431 -3.76371479
-4.98242140 2.63464713 -2.80731606
-4.44939327 2.26776457 -3.18355012
-4.79119635 2.26649523 -2.70482564
-5.07211447 2.26508403 -2.18597221
-4.75977707 1.89219189 -2.69504595
-5.03758669 1.89080918 -2.17554665
-5.24789238 1.88927674 -1.62399256
-5.14417744 1.53751254 -2.22868848
-5.36553288 1.53602219 -1.66687977
-5.52189922 1.53436327 -1.08423948
-5.63722086 1.23214006 -1.75977135
-5.80198717 1.23022747 -1.14402711
-5.89968395 1.22825396 -0.51722133
-6.21198559 0.96464670 -1.23648965
-6.32284594 0.96269596 -0.55615073
-6.36408567 0.96071637 0.13097049
-6.84297562 0.68462425 -0.60286635
-6.87856054 0.68247908 0.14384311
-6.82171011 0.68029654 0.89305550
-7.42250204 0.34974262 0.16665724
-7.35880566 0.34743339 0.98329008
-7.21818161 0.34526861 1.77699220
-7.86620045 -0.04290902 1.06262612
-7.71575594 -0.04525192 1.91680467
-7.46040344 -0.04760784 2.74296498
-8.15389824 -0.49683243 2.04126763
-7.89004755 -0.49929580 2.91700411
-7.53511333 -0.50160688 3.74881673
-7.87668467 -1.01059973 3.93997550
-8.25470352 -1.00814867 3.06868005
-7.39144611 -1.01293588 4.75539732
-7.63327169 -1.57632625 4.94906950
-8.14457226 -1.57394803 4.10393429
-7.05668783 -1.57834113 5.75779057
-7.21030903 -2.17664814 5.94232273
-7.83233643 -2.17447138 5.12617397
-6.50914335 -2.17874241 6.69613743
-6.59628773 -2.79976845 6.86251974
-7.31954670 -2.79758120 6.09707832
-5.80337763 -2.80177546 7.54851055
-5.85804558 -3.43275690 7.68708944
-6.68217564 -3.43075442 7.00263405
-4.98477125 -3.43431997 8.28596020
-4.99029207 -4.07290649 8.39012051
-5.88969707 -4.07133579 7.78858709
-4.04445696 -4.07385397 8.88370323
-4.02219725 -4.71536160 8.99302387
-4.97560978 -4.71445513 8.47424984
-3.00846457 -4.71598530 9.37009430
-2.97218347 -5.35753345 9.46851444
-3.97401142 -5.35651207 9.06455708
-1.92461431 -5.35815144 9.71631432
-1.87570179 -5.98623800 9.76471043
-2.90603971 -5.98561239 9.50326538
-0.80944830 -5.98659706 9.90488052
-1.83088934 -6.53229046 9.78450966
-0.77058822 -6.53253794 9.90990353
0.31120956 -6.53273869 9.96012592
-0.72190523 -6.93498707 9.86034012
0.35744506 -6.93522835 9.92186546
1.43243003 -6.93487883 9.82150269
0.38926029 -7.25777769 9.81253052
1.45558059 -7.25752592 9.72201824
2.50159407 -7.25693512 9.53098106
2.49491382 -7.48817015 9.38766479
1.46146727 -7.48872185 9.58645344
3.48172736 -7.48729372 9.09416485
2.47936940 -7.72655153 9.14687157
3.44614100 -7.72758341 8.83883190
4.33473063 -7.73135376 8.42307377
4.27860641 -7.75871515 8.24843025
5.05699825 -7.73348045 7.76080990
5.78118467 -7.73833990 7.25752306
4.97312593 -7.77082348 7.58250570
5.68411732 -7.76977205 7.09853220
6.34252214 -7.76866722 6.55569649
5.58036900 -7.68930483 6.91821289
6.21400309 -7.68818617 6.38466358
6.81112480 -7.68645048 5.78191900
6.09497499 -7.45295429 6.19734669
6.69431257 -7.45153666 5.63997841
7.22251272 -7.45042944 5.00533772
6.69431257 -7.45153666 5.63997841
6.57750130 -7.21662283 5.49803829
7.09806108 -7.21619749 4.89448214
7.22251272 -7.45042944 5.00533772
7.01511478 -7.12114573 3.79857302
6.60597706 -7.10811234 4.35670805
6.11392593 -7.00002670 3.81893420
6.51466417 -7.02705002 3.35539126
7.36310291 -7.13140154 3.14516878
6.85157251 -7.04973841 2.81781936
6.61980057 -6.89026070 0.52216089
6.65456009 -6.90339756 1.03646016
6.01937151 -6.91663885 0.58934689
6.04080248 -6.91498709 1.06307340
6.56536436 -6.86854649 -0.00971663
5.97406197 -6.90532875 0.08973785
5.39959478 -6.92392874 0.21273920
5.44126606 -6.91821671 0.69245195
5.33169746 -6.93690062 -0.27313021
4.85426521 -6.91191816 0.35447732
4.90618896 -6.90816021 0.83256978
4.33942652 -6.91312742 0.50271893
4.40811872 -6.90082073 0.98826349
3.85237002 -6.87441826 0.65074849
3.92995787 -6.88473320 1.15189445
3.46707654 -6.87301207 1.31430209
4.01005888 -6.90494537 1.66286349
3.55250263 -6.89497757 1.84940863
3.01666355 -6.91440487 1.47478580
3.10136175 -6.91328478 2.03417945
2.57571006 -6.90645742 1.62587881
2.65435529 -6.90979958 2.21125960
2.20175958 -6.89427662 2.36019349
2.74176598 -6.90881681 2.79471445
2.26092649 -6.90492392 2.96670866
1.74638581 -6.89301252 2.47557974
1.77410090 -6.91824007 3.10603523
1.29630482 -6.89979029 2.55759597
1.28992105 -6.90531015 3.20005631
0.81533307 -6.90421104 3.24414563
1.28826702 -6.92654610 3.86863375
0.77313215 -6.93839884 3.92084193
0.34375277 -6.91668987 3.23829722
0.26299071 -6.92669678 3.91199255
-0.11489474 -6.91359949 3.18315768
-0.24364598 -6.92976570 3.85053825
-0.73086768 -6.91576433 3.73705220
-0.55760175 -6.90285635 3.07983613
-1.19672537 -6.91604328 3.57604885
-0.97517371 -6.90425205 2.92851877
-1.62865067 -6.92023945 3.37167525
-1.36145902 -6.91350222 2.73414397
-2.02204633 -6.92189264 3.12386918
-1.70660317 -6.91708517 2.49804020
-2.36136937 -6.92680931 2.84456396
-2.03560615 -6.92118740 2.23795390
-1.82007504 -6.93590641 1.69079566
-2.32221150 -6.92520618 1.94452119
-2.12536478 -6.93335247 1.42523742
-2.60597324 -6.92863607 1.64592242
-2.47861099 -6.92970324 1.16178167
-2.94926500 -6.92774105 0.94232643
-3.02086663 -6.91413546 0.50998306
-3.58190513 -6.94197559 0.82738894
-3.69114304 -6.93408918 0.36830357
-3.75530362 -6.91967297 -0.11611705
-4.44218540 -6.95064545 0.30422804
-4.48329401 -6.94862700 -0.25523773
-4.43414879 -6.95012808 -0.84466910
-5.14523888 -6.94892025 -0.34938541
-5.06910563 -6.94787121 -1.01398182
-4.28360319 -6.95209694 -1.43280983
-4.89983988 -6.94813967 -1.66913486
-4.63344336 -6.94758797 -2.29303813
-1.67617559 -7.00561619 -6.02613068
-2.11603904 -7.09280300 -6.98722029
0.10460665 -7.41304493 -8.82090473
1.04303622 -7.18015146 -8.58077335
0.11975360 -7.17962980 -8.60128021
1.06039846 -7.41351938 -8.79183865
1.94379520 -7.18274021 -8.37544918
1.98179495 -7.41485167 -8.61025047
2.88057065 -7.41557169 -8.38723850
1.98179495 -7.41485167 -8.61025047
2.94006824 -7.64779663 -8.60669899
2.01979589 -7.64699316 -8.84497070
2.97287512 -7.72820425 -8.78197384
2.04956126 -7.72764587 -9.02993584
3.78784585 -7.64880800 -8.27541161
3.84770679 -7.72908258 -8.44051266
3.90419436 -7.74500084 -8.59235477
3.00720501 -7.74613285 -8.94770908
4.72428989 -7.75621033 -8.11793709
4.78302670 -7.69554377 -8.25148010
3.94679141 -7.67355013 -8.72764301
5.56995153 -7.67732716 -7.74976969
5.67369890 -7.43986940 -7.96122313
4.87235498 -7.43839931 -8.49016953
6.42490530 -7.44150877 -7.37107420
6.45649004 -7.20951796 -7.45254517
7.11416674 -7.21136427 -6.78811264
7.76000452 -7.21327543 -6.11108398
7.81265545 -6.88994503 -6.19973040
7.16364336 -6.88801765 -6.89314938
8.36036777 -6.89208555 -5.42903996
8.35448074 -6.48925304 -5.46675873
7.78547001 -6.48707867 -6.23841763
8.84081078 -6.49152994 -4.64746094
8.81491566 -5.94537115 -4.67258930
8.32216930 -5.94308519 -5.48098612
9.20255756 -5.94768715 -3.82462788
9.15592480 -5.31971216 -3.83644795
8.76871300 -5.31745195 -4.67181349
9.47547054 -5.32208014 -2.97322631
9.08382702 -4.67568684 -3.82383919
9.39655972 -4.67795467 -2.96053624
9.64007187 -4.68045616 -2.06017303
9.29876423 -4.03703260 -2.92791200
9.53423977 -4.03960514 -2.02754855
9.69801521 -4.04217529 -1.11329782
9.42172813 -3.40172529 -1.99355984
9.58341885 -3.40423679 -1.08964396
9.63702869 -3.40692186 -0.17402060
9.40833378 -2.77407551 -1.05285048
9.47361851 -2.77666926 -0.14473605
9.45056725 -2.77933669 0.75724161
9.26218605 -2.15651059 -0.12605694
9.24297237 -2.15908122 0.76284057
9.13647842 -2.16165662 1.64261401
8.86075401 -1.56414557 1.61020041
8.97286987 -1.56159842 0.75150079
8.68136978 -1.56657362 2.45864582
8.35540771 -1.00379801 2.38463354
8.53952122 -1.00146282 1.56590140
8.09132481 -1.00604200 3.18140340
7.69994688 -0.49759728 3.05314231
7.94368982 -0.49555883 2.28309751
7.37193394 -0.49973327 3.79654121
7.25122070 -0.04628776 2.89912653
6.93435431 -0.04838403 3.60279965
6.55521202 -0.05019744 4.27005863
6.45877314 0.34206536 3.37966013
6.10043287 0.34033611 4.01300669
5.68170404 0.33867657 4.61034203
5.23033190 0.67199713 4.29741859
5.62290144 0.67341524 3.73972750
4.77869558 0.67036545 4.81207275
4.83362865 0.95045865 4.00404406
4.40580463 0.94890374 4.48018360
3.94279075 0.94753581 4.92168522
4.12475586 1.21502423 4.22222090
3.67768240 1.21386051 4.63021469
3.18655849 1.21279788 4.98725891
3.49690843 1.51851928 4.42912149
3.03260660 1.51758027 4.77801132
2.52276134 1.51668966 5.06230640
2.94364142 1.87109840 4.66789055
2.44960570 1.87024760 4.95234728
1.92286146 1.86957526 5.17979956
2.44530606 2.24435616 4.97631788
1.91922426 2.24361634 5.20998716
1.36645174 2.24319100 5.38487625
1.39565563 2.61053514 5.56224060
1.96767533 2.61094737 5.38840055
0.80723113 2.61045814 5.67358589
0.83752507 2.99017215 6.02676296
1.45829463 2.99042821 5.88731956
0.19651663 2.99026513 6.08780527
0.18960434 3.48822737 6.37946081
0.85641021 3.48841906 6.32124615
-0.48077312 3.48818302 6.39544821
0.18798451 4.07265043 6.60385609
-0.50266701 4.07238531 6.63042021
-1.19113469 4.07268953 6.54273415
-0.51993084 4.70392942 6.75054455
-1.21944523 4.70410538 6.67634201
-1.90235543 4.70456982 6.52002382
-1.23300493 5.35046911 6.67926836
-1.91452742 5.35097694 6.51826715
-2.58043885 5.35169792 6.29525566
-2.54422545 5.97552776 6.14769411
-1.89706409 5.97479439 6.38620806
-3.16542268 5.97645760 5.83489704
-3.04140115 6.53899527 5.55926704
-2.45648289 6.53816700 5.86818981
-3.60849547 6.54006290 5.21134663
-3.44187450 6.99352455 4.93678713
-2.91053414 6.99258089 5.27655268
-3.94242644 6.99450588 4.55810308
-3.29513407 7.24063683 4.69798803
-3.75963402 7.24639845 4.32787657
-4.18127489 7.23726273 3.91444445
-3.62569094 7.44690037 4.15515804
-4.01177931 7.40579844 3.74599767
-4.39297009 7.40514040 3.32887506
-4.24040890 7.59931469 3.21023703
-3.88183856 7.61012554 3.61672997
-4.54556704 7.58730888 2.75820231
-4.07286406 7.72489500 3.07800531
-4.36767006 7.71071339 2.64623070
-4.61829424 7.66998720 2.18531489
-4.43345308 7.72758627 2.09496140
-4.18527603 7.75867844 2.53598762
-4.63082695 7.73492861 1.63167584
-4.26071548 7.77809477 2.00999808
-4.44595289 7.76425314 1.56482100
-4.56289673 7.74672222 1.09960926
-4.27652359 7.77725267 1.50308836
-4.39088869 7.74664545 1.05834913
-4.45141077 7.75246716 0.60482937
-4.28409576 7.65008068 1.03127408
-4.35960054 7.63963032 0.58949757
-4.37765932 7.62917328 0.13916230
-4.37223434 7.46770096 0.58457899
-4.38883734 7.45069885 0.13244919
-4.36211395 7.44452477 -0.32271880
-4.40408278 7.26382780 0.12538978
-4.36059284 7.25420904 -0.32873809
-4.28842831 7.25165462 -0.77880919
-4.45726490 7.13334703 -0.34707966
-4.39416170 7.13462925 -0.80868644
-4.28842831 7.25165462 -0.77880919
-4.36059284 7.25420904 -0.32873809
-4.15650415 7.25160980 -1.21328974
-4.26302958 7.13586760 -1.25446749
-4.53696823 6.97465134 -0.84312385
-4.40917730 6.97603607 -1.30513406
-4.23323298 6.97731018 -1.75301433
-4.56269789 6.82409239 -1.36167288
-4.37220192 6.82552004 -1.81730437
-4.14284611 6.82667685 -2.25557661
-4.52886629 6.66371536 -1.89542902
-4.29378796 6.66497469 -2.34896135
-4.00883532 6.66601753 -2.77140808
-4.46718597 6.48618603 -2.45337486
-4.16113424 6.48724079 -2.89479661
-3.80266261 6.48848486 -3.28074646
-3.96977830 6.28017902 -3.43045855
-4.32662773 6.27912664 -3.01535940
-3.58927870 6.28124332 -3.82811689
-4.17723989 5.95014572 -3.62144566
-3.76294208 5.95123291 -4.02354479
-3.31243062 5.95227480 -4.37695646
-3.15533733 6.28256273 -4.15770864
-3.45216179 5.53196573 -4.56964779
-3.91166830 5.53085566 -4.19177103
-2.95852351 5.53295088 -4.89883566
-3.31243062 5.95227480 -4.37695646
-3.45216179 5.53196573 -4.56964779
-3.03710198 5.03863430 -5.03884554
-3.55170822 5.03761625 -4.70860767
-2.49349093 5.03951502 -5.31942654
-2.51571584 4.46392965 -5.36826038
-3.06805944 4.46302223 -5.09252405
-1.93916690 4.46466780 -5.58683062
-2.49087977 3.85361695 -5.31254768
-1.91816604 3.85435748 -5.52102566
-1.32775712 3.85489702 -5.66805792
-1.86161077 3.28932071 -5.34528255
-1.29147589 3.28989506 -5.49029589
-0.71125448 3.29023743 -5.59170866
-1.24057746 2.83272600 -5.23964691
-0.68869942 2.83298445 -5.33274364
-0.13057005 2.83309937 -5.37408352
-0.66406018 2.40732622 -5.05342293
-0.13265304 2.40742397 -5.08862686
0.40080422 2.40736842 -5.06860256
-0.13900280 1.94410813 -4.92156363
0.38099432 1.94410193 -4.91938353
0.89642698 1.94395137 -4.86520529
0.37990299 1.47130013 -5.01435995
0.90433091 1.47113550 -4.95509481
1.41741693 1.47072482 -4.83276987
0.94848347 1.08168817 -5.25613832
1.48567760 1.08112693 -5.11588860
2.01288486 1.08058870 -4.93308687
2.16045427 0.79723066 -5.32943678
1.58430028 0.79776734 -5.52257347
2.71044731 0.79660469 -5.07873011
2.90908051 0.52848238 -5.49522305
2.31066799 0.52927190 -5.76845598
3.47193956 0.52758276 -5.17144394
3.71307015 0.21200699 -5.57829905
3.10668802 0.21307240 -5.92541170
4.28895950 0.21091644 -5.17127419
4.57953358 -0.18942675 -5.56471825
3.95773959 -0.18832898 -5.99612856
5.14652729 -0.19094305 -5.05531263
5.44285583 -0.66580087 -5.38751841
4.83190870 -0.66436505 -5.91517258
5.98461437 -0.66758591 -4.78138256
5.67353487 -1.20270157 -5.66103506
6.24148703 -1.20458770 -5.02938414
6.75483704 -1.20652604 -4.34266663
6.44587469 -1.77740717 -5.23097754
6.97218847 -1.77947986 -4.52132845
7.41995621 -1.78166842 -3.75540257
7.11244822 -2.35739827 -4.64945936
7.57609034 -2.35959625 -3.86932230
7.95744801 -2.36193085 -3.03993201
7.69353008 -2.91342878 -3.96266627
8.07743454 -2.91577935 -3.11656213
8.37535000 -2.91816330 -2.22596860
8.16663074 -3.41635990 -3.17786455
8.46319103 -3.41874194 -2.27330232
8.66860294 -3.42118907 -1.33434355
8.73081303 -3.84302163 -1.36030376
8.52401161 -3.84055901 -2.30846715
8.82668972 -3.84556150 -0.38799825
8.86816216 -4.18184042 -0.40144777
8.77258301 -4.17934752 -1.37875950
8.86247349 -4.18458700 0.58692515
8.89280128 -4.45085764 0.57940298
8.90645981 -4.44820118 -0.41316888
8.77364159 -4.45335436 1.57237899
8.80304337 -4.68395853 1.56915450
8.91889572 -4.68135881 0.57157636
8.56353283 -4.68665409 2.55034137
8.58678246 -4.91055489 2.54996157
8.82778072 -4.90778637 1.56433403
8.24487972 -4.91342115 3.50886273
8.60411167 -5.13131380 2.54854083
8.26002789 -5.13420677 3.51002550
7.79430151 -5.13703299 4.41830111
8.26829529 -5.22443390 3.50856400
7.80392599 -5.25914383 4.42062616
7.25690889 -5.28048849 5.28096914
7.24434090 -5.49364424 5.27125263
7.80944967 -5.49353027 4.42005587
