-0.51314241 -4.41949654 1.34335089
-0.43894413 -4.42761898 1.29504454
-0.50619930 -4.42095280 1.28249454
-0.43008387 -4.42955351 1.23605013
-0.49687979 -4.42175293 1.22319829
-0.42008379 -4.43092012 1.17740178
-0.48619407 -4.42242575 1.16273820
-0.40846291 -4.43108130 1.11889827
-0.47435170 -4.42259884 1.10347331
-0.39637384 -4.43284035 1.06018066
-0.46154970 -4.42247343 1.04407012
-0.38351688 -4.43459511 1.00289106
-0.44776574 -4.42345142 0.98485559
-0.36814740 -4.43452072 0.94546944
-0.43223450 -4.42536449 0.92620099
-0.35213098 -4.43464231 0.88729292
-0.41587922 -4.42691660 0.86767846
-0.33480549 -4.43562937 0.83090293
-0.39861998 -4.42773724 0.80930686
-0.31671330 -4.43579865 0.77426761
-0.38002336 -4.42756939 0.75223124
-0.29720503 -4.43537807 0.71863252
-0.36024681 -4.42665482 0.69562733
-0.33845785 -4.42667961 0.63917440
-0.27613935 -4.43509054 0.66294074
-0.31634566 -4.42584133 0.58231896
-0.25426713 -4.43177176 0.60816753
-0.29385287 -4.42415142 0.52669030
-0.23165675 -4.43003607 0.55346346
-0.27036732 -4.42533493 0.47197360
-0.20869505 -4.43266010 0.49928156
-0.24589980 -4.42571306 0.41645169
-0.18535084 -4.43334723 0.44582304
-0.22003444 -4.42640972 0.36215651
-0.16027522 -4.43411398 0.39299360
-0.19389071 -4.42633533 0.30810672
-0.13434364 -4.43464947 0.33957276
-0.16717681 -4.42666340 0.25515142
-0.10772717 -4.43514061 0.28724667
-0.13936336 -4.42524719 0.20201376
-0.08074954 -4.43421268 0.23582001
-0.10996202 -4.42338943 0.15040471
-0.05200548 -4.43108130 0.18576479
-0.08042677 -4.42402554 0.09941851
-0.02262262 -4.43001795 0.13502395
-0.04999284 -4.42709303 0.04785973
0.00698942 -4.43471336 0.08433328
-0.01845767 -4.42811441 -0.00289370
0.03777516 -4.43406296 0.03549854
0.01411202 -4.42679691 -0.05252118
0.06961893 -4.43496609 -0.01276386
0.04717653 -4.42475891 -0.10113586
0.10238419 -4.43590593 -0.06089416
0.08174350 -4.42423058 -0.14873762
0.13595456 -4.43400955 -0.10667165
0.11731644 -4.42500591 -0.19532670
0.17120402 -4.43497372 -0.15227936
0.20722786 -4.43547869 -0.19642757
0.15372232 -4.42513657 -0.24015439
0.19181088 -4.42448616 -0.28403214
0.24430686 -4.43446255 -0.23907860
0.23097810 -4.42441797 -0.32733732
0.28275272 -4.43344593 -0.28103143
0.26999536 -4.42426920 -0.36944109
0.32153890 -4.43220806 -0.32216641
0.31022879 -4.42332840 -0.41082159
0.36052182 -4.42863369 -0.36307490
0.35112908 -4.42337704 -0.45240319
0.40048194 -4.42967415 -0.40328526
0.39229456 -4.42266083 -0.49218571
0.44089028 -4.43061304 -0.44297326
0.43395272 -4.42038584 -0.53118807
0.48210159 -4.42935896 -0.48130274
0.47681838 -4.41684008 -0.56945443
0.52421206 -4.42739868 -0.51899654
0.51995212 -4.41717291 -0.60690302
0.56612974 -4.42705679 -0.55568415
0.61238265 -4.43581486 -0.50387377
0.60891795 -4.42808294 -0.59082395
0.65459681 -4.43694210 -0.53778082
0.69969541 -4.44567680 -0.48516509
0.69676965 -4.43833685 -0.57168138
0.74197114 -4.44722366 -0.51876378
0.78615880 -4.45780468 -0.46619242
0.78393811 -4.44899511 -0.55185300
0.82730973 -4.45962858 -0.49772137
0.87050229 -4.47100258 -0.44440755
0.86921424 -4.46050882 -0.52903646
0.91092372 -4.47240114 -0.47441435
0.95271337 -4.48336315 -0.41941449
0.99390268 -4.48228025 -0.44777316
0.95286781 -4.47084761 -0.50256521
1.03378499 -4.49057627 -0.39135173
1.07386506 -4.48971319 -0.41769725
1.03474772 -4.48112202 -0.47476661
1.11426950 -4.49653769 -0.36138284
1.15367746 -4.49593306 -0.38616186
1.11515307 -4.48960161 -0.44392329
1.19331956 -4.50578642 -0.33000460
1.23297358 -4.50429201 -0.35306638
1.19348931 -4.49556351 -0.40948781
1.27190828 -4.50917625 -0.29571396
1.31029558 -4.51003361 -0.31704578
1.27209806 -4.50402403 -0.37546128
1.34861827 -4.51602364 -0.25998902
1.38691521 -4.51515913 -0.27923858
1.34860814 -4.51000690 -0.33690560
1.42450142 -4.51925564 -0.22182319
1.46209347 -4.51817989 -0.23984614
1.42498922 -4.51481199 -0.29836243
1.49888921 -4.52155256 -0.18142429
1.53606951 -4.51897478 -0.19790591
1.49948359 -4.51608801 -0.25609499
1.57239008 -4.52476740 -0.14045908
1.60910904 -4.52161026 -0.15442447
1.57385802 -4.51847887 -0.21390952
1.64507473 -4.52601910 -0.09606550
1.68055713 -4.52484703 -0.10880416
1.64505613 -4.52142048 -0.16765387
1.71579742 -4.53048038 -0.05259665
1.75020003 -4.53263283 -0.06345441
1.71560907 -4.52465057 -0.12176312
1.78547657 -4.53868580 -0.00779416
1.78481758 -4.53536463 -0.07416124
1.81897998 -4.53986120 -0.01765808
1.85296404 -4.53983831 0.03714043
1.88646126 -4.54056740 0.02979909
1.85320938 -4.54095221 -0.02440801
1.91960979 -4.54316759 0.08325136
1.88679671 -4.54384947 0.09027810
1.95057356 -4.54759169 0.13231887
1.91881907 -4.54737616 0.13999990
1.98153925 -4.55171347 0.18141170
1.94978309 -4.55124664 0.18910520
2.01165891 -4.55344439 0.22808872
1.98101759 -4.55488014 0.23551178
2.04074287 -4.55794334 0.27179036
2.01023936 -4.55891132 0.27801186
2.06834149 -4.55965757 0.31170496
2.03830242 -4.56037378 0.31915945
2.09471440 -4.56030703 0.34840506
2.12465429 -4.55917501 0.34086239
2.09839272 -4.55938864 0.30423164
2.15075040 -4.55769157 0.37738007
2.12169957 -4.55963039 0.38583478
2.17622042 -4.55684805 0.41213629
2.14774370 -4.55812502 0.42155972
2.20143342 -4.55681324 0.44657162
2.17269897 -4.55753136 0.45515218
2.22562456 -4.55698061 0.47873601
2.19729471 -4.55727863 0.48824763
2.24945021 -4.55714893 0.51008904
2.27811050 -4.55566692 0.50093603
2.25397944 -4.55758190 0.46922448
2.30226851 -4.55389500 0.53259718
2.27340817 -4.55618906 0.54159927
2.32576656 -4.55282831 0.56183004
2.29728317 -4.55510092 0.57217211
2.34949470 -4.55237913 0.59110087
2.32047653 -4.55376816 0.60164404
2.37326288 -4.55230474 0.62050366
2.34368062 -4.55218220 0.63120425
2.39698243 -4.55327988 0.64827716
2.42651367 -4.55361986 0.63658893
2.40281630 -4.55259323 0.60919291
2.44942617 -4.55491734 0.66423672
2.41982484 -4.55557013 0.67592484
2.47191834 -4.55568409 0.69097227
2.44225049 -4.55616426 0.70348448
2.49503183 -4.55618238 0.71647477
2.46478844 -4.55651236 0.72966641
2.51799798 -4.55641794 0.74154329
2.48693681 -4.55676937 0.75559676
2.53976917 -4.55691051 0.76680678
2.50863791 -4.55702543 0.78099239
2.56208253 -4.55786324 0.79069895
2.53042054 -4.55749846 0.80619299
2.58367705 -4.55869293 0.81505030
2.55178761 -4.55820179 0.83069533
2.60506725 -4.55812263 0.83927590
2.57315946 -4.55887985 0.85520393
2.62654805 -4.55781794 0.86319315
2.59455919 -4.55859232 0.87922817
2.64933109 -4.55747843 0.88568246
2.61597157 -4.55853176 0.90322095
2.67186308 -4.55862713 0.90781951
2.63735199 -4.55947304 0.92674828
2.69356060 -4.56004906 0.93046606
2.65880084 -4.56084681 0.94935083
2.71525478 -4.56097364 0.95313150
2.68025041 -4.56189871 0.97197223
2.73694849 -4.56222010 0.97578442
2.70170760 -4.56352997 0.99456221
2.75905991 -4.56315899 0.99812901
2.72316051 -4.56487131 1.01717103
2.78089190 -4.56305552 1.02020311
2.74314070 -4.56533813 1.04014468
2.80264807 -4.56294298 1.04228354
2.76458359 -4.56525612 1.06256485
2.82440448 -4.56283760 1.06435776
2.78602028 -4.56518078 1.08497858
2.84605432 -4.56274414 1.08652616
2.80728698 -4.56510878 1.10744286
2.86749840 -4.56369591 1.10887706
2.82776904 -4.56564760 1.12995100
2.88957715 -4.56416988 1.13175023
2.84894323 -4.56672812 1.15218234
2.91167641 -4.56455564 1.15464830
2.87066269 -4.56765079 1.17486680
2.93290138 -4.56396914 1.17791140
2.89188790 -4.56728506 1.19795358
2.95369148 -4.56280899 1.20132542
2.91270041 -4.56641340 1.22134256
2.97448134 -4.56164837 1.22472692
2.93039751 -4.56582975 1.24438536
2.99034524 -4.56152058 1.24870718
2.94577169 -4.56539583 1.26737165
3.00504327 -4.56104851 1.27290750
2.95904255 -4.56531239 1.29052770
3.01976824 -4.56116724 1.29709530
2.97231960 -4.56522846 1.31368399
3.03432989 -4.56140852 1.32133341
2.98675251 -4.56553411 1.33765161
3.04347992 -4.56255865 1.34715056
2.99868202 -4.56636429 1.36265719
3.05256701 -4.56382513 1.37296760
3.00540447 -4.56658554 1.38861263
3.05826831 -4.56370068 1.39938223
3.01156187 -4.56650448 1.41461217
3.06318402 -4.56360102 1.42650163
3.01771927 -4.56642389 1.44060540
3.06809425 -4.56330013 1.45362723
3.02366495 -4.56637955 1.46679366
3.07300377 -4.56310701 1.48075271
3.02905512 -4.56598902 1.49385011
3.07792449 -4.56298828 1.50787830
3.03448296 -4.56559610 1.52090645
3.08285594 -4.56273031 1.53501010
3.03938460 -4.56525183 1.54810739
3.08470821 -4.56306744 1.56394744
3.04103518 -4.56525373 1.57625222
3.08655453 -4.56318426 1.59292877
3.04278469 -4.56577301 1.60473025
3.08840966 -4.56345177 1.62191010
3.04465628 -4.56634235 1.63370526
3.08861136 -4.56323242 1.65022469
3.04501891 -4.56640339 1.66208899
3.08854818 -4.56289577 1.67844474
3.04495049 -4.56596613 1.69030285
3.08848071 -4.56247759 1.70665872
3.04480886 -4.56501675 1.71805108
3.08840203 -4.56186485 1.73482215
3.04464054 -4.56393003 1.74568629
3.08825946 -4.56122971 1.76246989
3.04448080 -4.56298733 1.77332139
3.00183845 -4.56434059 1.78442442
3.04431343 -4.56191969 1.80095649
3.00199842 -4.56326103 1.81213510
2.96213126 -4.56421900 1.82385468
3.00217295 -4.56244469 1.83984566
2.96361446 -4.56392193 1.85076010
2.92506719 -4.56504536 1.86164927
2.96440792 -4.56324768 1.87747049
2.92575455 -4.56517076 1.88835347
2.88708782 -4.56708241 1.89923632
2.92623663 -4.56489134 1.91501975
2.88756609 -4.56662035 1.92590272
2.85177469 -4.56688404 1.93660951
2.88848066 -4.56607771 1.95254385
2.85350966 -4.56659126 1.96321285
2.81860662 -4.56652117 1.97387564
2.85549068 -4.56574249 1.98980379
2.82102275 -4.56567383 2.00045395
2.78649235 -4.56562042 2.01114821
2.82342911 -4.56476974 2.02703214
2.78944135 -4.56473064 2.03763843
2.75648689 -4.56502390 2.04811239
2.79216552 -4.56398535 2.06419158
2.75943303 -4.56441689 2.07462764
2.72672224 -4.56490469 2.08507037
2.76179504 -4.56440401 2.10126257
2.73050714 -4.56487513 2.11178088
2.69910026 -4.56546545 2.12185836
2.73429871 -4.56485081 2.13848495
2.70287323 -4.56488228 2.14855003
2.67139888 -4.56516790 2.15853953
2.70668745 -4.56458664 2.17531705
2.67532873 -4.56524992 2.18552065
2.64427924 -4.56570053 2.19575572
2.67978835 -4.56489229 2.21290398
2.65002394 -4.56488705 2.22328997
2.62006664 -4.56503677 2.23334265
2.65576959 -4.56386518 2.25081801
2.62575126 -4.56439018 2.26078272
2.59470868 -4.56496048 2.27047658
2.63145828 -4.56425238 2.28822279
2.60142994 -4.56482267 2.29800487
2.57075119 -4.56491232 2.30786872
2.60807800 -4.56540108 2.32557702
2.57777047 -4.56570959 2.33543444
2.54686499 -4.56569242 2.34492111
2.58477974 -4.56632423 2.36300063
2.55438876 -4.56649256 2.37214708
2.52423716 -4.56598568 2.38113666
2.56277132 -4.56575108 2.40119123
2.53259349 -4.56500578 2.41010523
2.49408770 -4.56529570 2.39011979
2.50242066 -4.56378222 2.41900682
2.46393871 -4.56438541 2.39910293
2.47224617 -4.56287384 2.42791438
2.43373084 -4.56388807 2.40811753
2.44227171 -4.56316328 2.43675280
2.41189837 -4.56286430 2.44467902
2.40172005 -4.56337214 2.41703773
2.38056350 -4.56282711 2.45318413
2.37043238 -4.56384945 2.42580700
2.34923029 -4.56316137 2.46182132
2.33914852 -4.56426859 2.43458247
2.31789374 -4.56276512 2.47043943
2.30785966 -4.56415987 2.44334555
2.28656292 -4.56257010 2.47899508
2.27610946 -4.56402016 2.45209575
2.25391841 -4.56255627 2.48723578
2.24301720 -4.56399345 2.46082115
2.22117352 -4.56254148 2.49557734
2.21003151 -4.56396055 2.46947718
2.18842816 -4.56252718 2.50391865
2.17702723 -4.56392908 2.47822142
2.15549755 -4.56257248 2.51254988
2.14259076 -4.56386471 2.48783970
2.12039137 -4.56191587 2.52251410
2.10759044 -4.56329584 2.49779177
2.08482385 -4.56089401 2.53261709
2.07202291 -4.56238699 2.50790071
2.04926586 -4.55891991 2.54266953
2.03645706 -4.56094933 2.51797867
2.01369476 -4.55761433 2.55275989
2.00022435 -4.56009054 2.52885509
1.97742403 -4.55685902 2.56368709
1.96315360 -4.55990267 2.54072571
1.93926644 -4.55571747 2.57650113
1.92492080 -4.55887890 2.55359674
1.90066087 -4.55535126 2.59063625
1.88479125 -4.55684042 2.56797099
1.86267233 -4.55632401 2.60466456
1.84663475 -4.55627871 2.58206844
1.82505536 -4.55909014 2.61862993
1.80749464 -4.55884695 2.59708428
1.78551543 -4.56227970 2.63496709
1.76786053 -4.56182098 2.61382389
1.74663818 -4.56369925 2.65219736
1.72731948 -4.56277943 2.63188457
1.70491970 -4.56253719 2.67151618
1.68593037 -4.56199026 2.65087008
1.66347277 -4.56105137 2.69204879
1.64294803 -4.56199551 2.67156625
1.62038767 -4.56147146 2.71340585
1.59951913 -4.56314087 2.69321895
1.57490706 -4.55940580 2.73774481
1.55462360 -4.55847120 2.71616745
1.52766347 -4.55375957 2.76288223
1.50632131 -4.55350161 2.74197841
1.47698164 -4.54972315 2.79229784
1.45579207 -4.55004883 2.77095342
1.42601752 -4.54301310 2.82189560
1.40412402 -4.54292440 2.79875827
1.37493539 -4.53420401 2.85254383
1.35208535 -4.53222275 2.83001065
1.32182193 -4.52658129 2.88669634
1.29878247 -4.52504492 2.86413765
1.26748097 -4.52122593 2.92271066
1.24431109 -4.52196503 2.89739060
1.21350265 -4.51492405 2.95982599
1.18982077 -4.51720428 2.93372560
1.16619635 -4.51849174 2.90755010
1.13530493 -4.51052904 2.97079039
1.11146581 -4.51214409 2.94434452
1.08763456 -4.51412439 2.91700482
1.05641401 -4.50669670 2.98147202
1.03240967 -4.50828314 2.95288706
1.00842416 -4.50953388 2.92427707
0.97687984 -4.50217533 2.98959351
0.95248896 -4.50305319 2.95988250
0.92858672 -4.50354338 2.92851067
0.89647788 -4.49825048 2.99623013
0.87152445 -4.49931717 2.96375108
0.84699774 -4.50024605 2.93173146
0.81532818 -4.49492264 3.00046396
0.79029685 -4.49527502 2.96787786
0.76541048 -4.49596596 2.93310285
0.73357522 -4.49016094 3.00334501
0.70834458 -4.49167728 2.96809816
0.68367189 -4.49359751 2.93304014
0.65053481 -4.48592424 3.00254631
0.62478459 -4.48851585 2.96568894
0.60059559 -4.48647785 2.92865539
0.56680393 -4.48296833 2.99920583
0.54166979 -4.48508453 2.96185160
0.51717633 -4.48660374 2.92244649
0.48277280 -4.48016739 2.99446249
0.45762855 -4.48210144 2.95467997
0.43396926 -4.48130560 2.91440701
0.39836010 -4.47651196 2.98708367
0.37431228 -4.47743988 2.94575357
0.35057667 -4.47696924 2.90276909
0.31435364 -4.46718884 2.97647119
0.28968313 -4.46824551 2.93243599
0.26586521 -4.46990395 2.88938880
0.23032370 -4.45834541 2.96415997
0.20511466 -4.46080589 2.91873479
0.18148369 -4.46118736 2.87330341
0.14472026 -4.45311928 2.94892406
0.12013995 -4.45297384 2.90193868
0.09666063 -4.45247078 2.85443759
0.05936494 -4.44266176 2.93107104
0.03470472 -4.44267225 2.88133669
0.01107686 -4.44400454 2.83279729
-0.02616652 -4.43108654 2.90983987
-0.05087474 -4.43001604 2.85952044
-0.07413927 -4.43153572 2.80977988
-0.11305574 -4.42024231 2.88678432
-0.13718274 -4.42278719 2.83499908
-0.16049241 -4.42429733 2.78303790
-0.20033491 -4.41333914 2.86053944
-0.22398438 -4.41294622 2.80691743
-0.18348818 -4.42476845 2.72979951
-0.24724483 -4.41464949 2.75289893
-0.20490637 -4.42427540 2.67691350
-0.26975587 -4.41545868 2.69924569
-0.22591278 -4.42337561 2.62327242
-0.29075962 -4.41269302 2.64386201
-0.24436781 -4.42516088 2.56902790
-0.30974981 -4.41471004 2.58874917
-0.26274222 -4.42726326 2.51524854
-0.32838264 -4.41624737 2.53350401
-0.27934155 -4.42742634 2.46048141
-0.34508395 -4.41739893 2.47725248
-0.29524568 -4.42695141 2.40491557
-0.36124656 -4.41681290 2.42107630
-0.31029645 -4.42798519 2.34931803
-0.37621382 -4.41844034 2.36372375
-0.32394412 -4.42820263 2.29312944
-0.39027402 -4.41927338 2.30593109
-0.33643657 -4.42676783 2.23631167
-0.40299082 -4.41934395 2.24791169
-0.34783092 -4.42997837 2.17902851
-0.41441277 -4.42105007 2.18965364
-0.35741514 -4.43130970 2.12221694
-0.42452806 -4.42290974 2.13020635
-0.43336573 -4.42339277 2.07152653
-0.49146146 -4.41344070 2.13867354
-0.49991879 -4.41419268 2.07883620
-0.44100979 -4.42325449 2.01231194
-0.50806177 -4.41504669 2.01808667
-0.44751638 -4.42273140 1.95324838
-0.51445508 -4.41485691 1.95714867
-0.45284498 -4.42085075 1.89320350
-0.52000660 -4.41552114 1.89583302
-0.45725828 -4.42259789 1.83344173
-0.52384347 -4.41574287 1.83383811
-0.52726430 -4.41575241 1.77195001
-0.59028763 -4.40635395 1.83526599
-0.59429395 -4.40850067 1.77236509
-0.52969450 -4.41533470 1.71030724
-0.59683812 -4.40784931 1.71029460
-0.53090036 -4.41697741 1.64961445
-0.59765136 -4.40649033 1.64694715
-0.53036302 -4.41700411 1.58861971
-0.59661591 -4.40541124 1.58502769
-0.52832955 -4.41574287 1.52696431
-0.59436017 -4.40395546 1.52091265
-0.59088993 -4.40628767 1.45763433
-0.66048533 -4.39260769 1.51532662
-0.65721118 -4.39582634 1.45158899
-0.58662057 -4.40725088 1.39611745
-0.65294445 -4.39820147 1.38698971
-0.57949466 -4.40938377 1.33418536
-0.64561188 -4.39918947 1.32269847
-0.57221389 -4.41090345 1.27154231
-0.63818115 -4.39979267 1.25994241
-0.56290996 -4.41244173 1.20927691
-0.62947357 -4.40440130 1.19689679
-0.55235744 -4.41399813 1.14853382
-0.61850661 -4.40480661 1.13440490
-0.54067367 -4.41504955 1.08735025
-0.60675377 -4.40596819 1.07213306
-0.52773535 -4.41622639 1.02747524
-0.59278715 -4.40851688 1.00955296
-0.51309085 -4.41805696 0.96642387
-0.57797009 -4.40836573 0.94821221
-0.49728581 -4.41968393 0.90694511
-0.56298339 -4.41135550 0.88783395
-0.48112491 -4.42102623 0.84769285
-0.54523647 -4.41075659 0.82716626
-0.46282586 -4.42073011 0.78867334
-0.52689111 -4.41060925 0.76673132
-0.44384626 -4.42043400 0.73010051
-0.50687915 -4.41130686 0.70720857
-0.42300159 -4.41777706 0.67117536
-0.48543698 -4.40930986 0.64750332
-0.40115938 -4.41841030 0.61399275
-0.46444303 -4.40897608 0.58905631
-0.37859315 -4.41791868 0.55679125
-0.44149405 -4.40901756 0.53142709
-0.41718972 -4.40827703 0.47272205
-0.35582677 -4.41874504 0.49968410
-0.39240760 -4.40584040 0.41584781
-0.33133310 -4.41812706 0.44338229
-0.36659792 -4.40262747 0.35838211
-0.30665007 -4.41684246 0.38765278
-0.34022212 -4.40310097 0.30291685
-0.28024000 -4.41804457 0.33253980
-0.31352985 -4.40618992 0.24669674
-0.25372934 -4.41900778 0.27736393
-0.28548217 -4.40871763 0.19077228
-0.22698762 -4.41971827 0.22246487
-0.25694090 -4.41005802 0.13515607
-0.19805998 -4.41749620 0.16856600
-0.22697417 -4.40783453 0.08103703
-0.16822813 -4.41511011 0.11518933
-0.19556883 -4.40609121 0.02755332
-0.13799721 -4.41624832 0.06356768
-0.16384313 -4.40466976 -0.02526351
-0.10700245 -4.41752148 0.01152464
-0.13125208 -4.40699291 -0.07852069
-0.07500125 -4.41909599 -0.04140545
-0.09889308 -4.41000366 -0.13065815
-0.04245389 -4.41861773 -0.09143560
-0.06434051 -4.41000509 -0.18156888
-0.00853100 -4.41851616 -0.14206953
-0.02830467 -4.40892744 -0.23169334
0.02656920 -4.41693068 -0.19005512
0.00880432 -4.40654230 -0.28018853
0.06317881 -4.41519165 -0.23788977
0.10069359 -4.41420078 -0.28389367
0.04739323 -4.40627337 -0.32874656
0.08666580 -4.40371037 -0.37409008
0.13947423 -4.41409159 -0.32902962
0.17861986 -4.41487455 -0.37270591
0.12725559 -4.40586138 -0.41949010
0.21893416 -4.41549158 -0.41674745
0.16807814 -4.40734434 -0.46398446
0.20929977 -4.40851545 -0.50744045
0.26056927 -4.41561222 -0.45923492
0.25110069 -4.40822363 -0.54955697
0.30155334 -4.41547346 -0.50094849
0.29400045 -4.40730953 -0.59172982
0.34354573 -4.41545486 -0.54219055
0.33705643 -4.40658808 -0.63259441
0.38570926 -4.41376877 -0.58198553
0.38165373 -4.40291357 -0.67191762
0.42913094 -4.41002750 -0.62039661
0.42675954 -4.40223408 -0.71032894
0.47320154 -4.41020679 -0.65860009
0.51828551 -4.41082096 -0.69582862
0.47355500 -4.40011835 -0.74836254
0.56409097 -4.41879702 -0.64316899
0.60909420 -4.41864729 -0.67858595
0.56483281 -4.40888882 -0.73168570
0.65353513 -4.42790365 -0.62519032
0.69827336 -4.42673540 -0.65878898
0.65440744 -4.41852331 -0.71299595
0.74070060 -4.43850517 -0.60533673
0.78469497 -4.43834209 -0.63792896
0.74286067 -4.42692327 -0.69259524
0.82661730 -4.44953632 -0.58302987
0.86981869 -4.44972610 -0.61452740
0.82872319 -4.43777418 -0.66944540
0.91165406 -4.46037674 -0.55917549
0.95446849 -4.45883656 -0.58794284
0.91451621 -4.44850922 -0.64457184
0.99484509 -4.46875668 -0.53099942
1.03770089 -4.46907949 -0.55847716
0.99766296 -4.45856810 -0.61532003
1.07651508 -4.48225594 -0.50120026
1.11790073 -4.48467159 -0.52675313
1.08036470 -4.47091293 -0.58538884
1.15616953 -4.48768425 -0.46841291
1.19761980 -4.48990059 -0.49170744
1.15990400 -4.48596907 -0.55146927
1.23400581 -4.49596739 -0.43322271
1.27539384 -4.49774647 -0.45515853
1.23916185 -4.49207497 -0.51487625
1.31096470 -4.50421810 -0.39554763
1.35163581 -4.50490379 -0.41559607
1.31675863 -4.49788189 -0.47546494
1.38764417 -4.51074600 -0.35664579
1.42762434 -4.51158285 -0.37506509
1.39214420 -4.50549698 -0.43474510
1.46272147 -4.51387882 -0.31467426
1.50140333 -4.51245785 -0.33101752
1.46691167 -4.51129961 -0.39225760
1.53745234 -4.51509762 -0.27166459
1.57517135 -4.51448679 -0.28719005
1.54043746 -4.51193094 -0.34729147
1.61035836 -4.51782322 -0.22749744
1.64740252 -4.51742077 -0.24068904
1.61286390 -4.51441908 -0.30026215
1.68104994 -4.52127790 -0.18086432
1.68498480 -4.51864386 -0.25357240
1.71816874 -4.52198648 -0.19248964
1.75116003 -4.52661180 -0.13174643
1.75454807 -4.52366161 -0.20227173
1.78729081 -4.52935982 -0.14131470
1.82062149 -4.53767824 -0.08283609
1.82314885 -4.53073120 -0.14997695
1.85571158 -4.53872013 -0.08939740
1.88818109 -4.54056501 -0.03126484
1.92317724 -4.53858805 -0.03713407
1.89081311 -4.53537035 -0.09495203
1.95423985 -4.54241514 0.01942571
1.92116237 -4.54130363 0.02408081
1.98540640 -4.54562378 0.07334341
1.95248163 -4.54375458 0.07865278
2.01641512 -4.54983807 0.12404668
1.98347127 -4.54987860 0.12798463
2.04580784 -4.55220222 0.17315823
2.01408887 -4.55217409 0.17725347
2.07332015 -4.55406713 0.21643834
2.04216099 -4.55413294 0.22177915
2.10175657 -4.55802822 0.25925303
2.07125187 -4.55818987 0.26551220
2.12840414 -4.55840397 0.29675198
2.15827465 -4.55659533 0.28973147
2.13210988 -4.55718756 0.25261623
2.18445134 -4.55509424 0.32728082
2.15441442 -4.55696964 0.33318147
2.20971394 -4.55683994 0.36256543
2.18038464 -4.55684137 0.37015837
2.23442912 -4.55848980 0.39639065
2.20531869 -4.55755901 0.40426651
2.25866842 -4.55794239 0.42852360
2.23017526 -4.55801678 0.43787792
2.28282762 -4.55529499 0.46026656
2.31182122 -4.55335236 0.45173004
2.28778148 -4.55644083 0.42040858
2.33591151 -4.55161047 0.48264885
2.30700326 -4.55338383 0.49202204
2.36011910 -4.55094481 0.51172453
2.33076382 -4.55172253 0.52224886
2.38434362 -4.55137444 0.54081285
2.35486817 -4.55123949 0.55133092
2.40856361 -4.55227709 0.56988853
2.37906742 -4.55233860 0.58040029
2.43235040 -4.55287647 0.59750473
2.46199870 -4.55317259 0.58646458
2.43835330 -4.55240107 0.55935788
2.48565030 -4.55382967 0.61357135
2.45605254 -4.55375814 0.62490714
2.50991583 -4.55442142 0.63831890
2.47904754 -4.55461597 0.65227807
2.53367376 -4.55439186 0.66306037
2.50234270 -4.55543852 0.67756671
2.55743337 -4.55438757 0.68780798
2.52600169 -4.55600071 0.70244020
2.58099937 -4.55576801 0.71136671
2.54909992 -4.55634308 0.72742695
2.60374689 -4.55794477 0.73484373
2.57141566 -4.55766773 0.75130647
2.62612748 -4.55874252 0.75867289
2.59373093 -4.55843067 0.77520490
2.64962316 -4.55807924 0.78092319
2.61557174 -4.55814409 0.79932350
2.67240453 -4.55693340 0.80339992
2.63805962 -4.55760050 0.82214624
2.69519401 -4.55614567 0.82588291
2.66083741 -4.55615807 0.84465444
2.71809173 -4.55617142 0.84787530
2.68365216 -4.55582285 0.86702424
2.74068403 -4.55647850 0.86993057
2.70626760 -4.55721951 0.88889074
2.76335621 -4.55787134 0.89177817
2.72797585 -4.55928373 0.91151845
2.78678918 -4.55811262 0.91301560
2.74966645 -4.56013918 0.93418390
2.81021857 -4.55829048 0.93425310
2.77295041 -4.56064701 0.95554090
2.83364582 -4.55843163 0.95549685
2.79638147 -4.56085682 0.97677833
2.85664344 -4.55809879 0.97733194
2.81926250 -4.56069422 0.99877065
2.87945271 -4.55778265 0.99942487
2.84177279 -4.56055260 1.02085745
2.90236473 -4.55749893 1.02149904
2.86352849 -4.56042767 1.04293144
2.92584777 -4.55740309 1.04405749
2.88509202 -4.56037092 1.06517553
2.94916749 -4.55719662 1.06672919
2.90713096 -4.56080961 1.08801711
2.97249341 -4.55699062 1.08940101
2.93031263 -4.56094551 1.11070764
2.99455881 -4.55688620 1.11242497
2.95332456 -4.56076288 1.13346756
3.01606154 -4.55687046 1.13640523
2.97415304 -4.56051397 1.15684998
3.03877544 -4.55754280 1.16141713
2.99508500 -4.55964184 1.18037736
3.06118441 -4.55828857 1.18645418
3.01776218 -4.55954695 1.20540810
3.08015919 -4.55902576 1.21188760
3.03696227 -4.56025887 1.23081005
3.09906387 -4.55839968 1.23804438
3.05238295 -4.56043291 1.25534379
3.11454153 -4.55543280 1.26472330
3.06714821 -4.55891180 1.27994680
3.12946701 -4.55272388 1.29084861
3.08161378 -4.55676413 1.30619800
3.14019012 -4.55226755 1.31808114
3.09094763 -4.55681324 1.33307183
3.14938235 -4.55236864 1.34569740
3.10051417 -4.55808544 1.35909653
3.15788651 -4.55335283 1.37202406
3.10768127 -4.55949163 1.38578176
3.16354060 -4.55530405 1.39930058
3.11314893 -4.56048203 1.41294515
3.16999912 -4.55823040 1.42729425
3.11838365 -4.56158733 1.44002664
3.17334557 -4.56172848 1.45543885
3.12325931 -4.56201267 1.46745408
3.17694235 -4.56193638 1.48350179
3.12780571 -4.56151772 1.49523401
3.17856574 -4.56088734 1.51230061
3.13060188 -4.56127310 1.52362394
3.18068862 -4.56008816 1.54101145
3.13226223 -4.56133080 1.55244184
3.18207264 -4.55960703 1.56989217
3.13375187 -4.56205368 1.58139789
3.18338990 -4.55860090 1.59885466
3.13522840 -4.56130362 1.61033523
3.18396807 -4.55699921 1.62760949
3.13555622 -4.55984783 1.63904607
3.18395710 -4.55546236 1.65625739
3.13519430 -4.55945873 1.66725993
3.18387151 -4.55528450 1.68475449
3.13475657 -4.55918121 1.69539201
3.18369198 -4.55680084 1.71311295
3.13431811 -4.55877733 1.72352409
3.18190861 -4.55802870 1.74184883
3.13362551 -4.55788994 1.75181973
3.17907071 -4.55753279 1.77016342
3.13091755 -4.55915070 1.77996433
3.08789039 -4.56048822 1.79017413
3.12933755 -4.55883646 1.80766237
3.08669686 -4.55965424 1.81813633
3.04407835 -4.56098127 1.82861674
3.08548284 -4.55834246 1.84607983
3.04284286 -4.55996084 1.85645950
3.00307703 -4.56171370 1.86659372
3.04241705 -4.55888796 1.88349068
3.00294185 -4.56098986 1.89354324
2.96488452 -4.56275415 1.90413678
3.00255942 -4.56045723 1.92061853
2.96528387 -4.56234694 1.93084097
2.92671776 -4.56447983 1.94168603
2.96491027 -4.56197739 1.95791614
2.92717910 -4.56371689 1.96834612
2.89020276 -4.56543875 1.97914100
2.92721009 -4.56348848 1.99514461
2.89236474 -4.56466913 2.00572562
2.85789704 -4.56471968 2.01638198
2.89438081 -4.56388187 2.03239202
2.85995007 -4.56391764 2.04303598
2.82552552 -4.56395292 2.05367970
2.86197901 -4.56358337 2.06970859
2.82755446 -4.56361866 2.08035254
2.79452634 -4.56384039 2.09082627
2.82962132 -4.56328821 2.10701871
2.79689312 -4.56379557 2.11746120
2.76535845 -4.56435585 2.12796044
2.80020356 -4.56372929 2.14414024
2.76914120 -4.56428814 2.15467072
2.73808265 -4.56468916 2.16519523
2.77315617 -4.56386757 2.18177748
2.74218941 -4.56421328 2.19247174
2.71082139 -4.56448650 2.20266271
2.74630070 -4.56337738 2.21979856
2.71529007 -4.56384516 2.23004603
2.68552971 -4.56379509 2.24042583
2.72103405 -4.56279182 2.25756812
2.69127131 -4.56270409 2.26795387
2.66151237 -4.56291246 2.27834654
2.69701600 -4.56178379 2.29548240
2.66726017 -4.56214905 2.30587459
2.63744497 -4.56371498 2.31573224
2.67295527 -4.56090975 2.33364797
2.64370203 -4.56316185 2.34332323
2.61434937 -4.56555319 2.35315537
2.65066385 -4.56292915 2.37288332
2.62119126 -4.56498003 2.38241363
2.59227610 -4.56551266 2.39237189
2.62814212 -4.56410456 2.41196108
2.60015297 -4.56429577 2.42264915
2.57100987 -4.56458282 2.43144989
2.57894778 -4.56322336 2.46183395
2.60803413 -4.56315374 2.45292640
2.54132128 -4.56345749 2.44012451
2.54963422 -4.56238031 2.47034526
2.51114559 -4.56207657 2.44901967
2.51987576 -4.56147289 2.47905779
2.49039960 -4.56222057 2.48767614
2.48105597 -4.56200123 2.45790839
2.46092486 -4.56311226 2.49620652
2.45161200 -4.56276512 2.46651435
2.43107533 -4.56327486 2.50359821
2.42177916 -4.56278229 2.47394371
2.40122390 -4.56295300 2.51098323
2.39101171 -4.56263733 2.48193264
2.37011838 -4.56262541 2.51919270
2.35968351 -4.56260633 2.49029946
2.33890843 -4.56223488 2.52680445
2.32844114 -4.56231213 2.49816275
2.30771255 -4.56153488 2.53429055
2.29716897 -4.56171083 2.50632834
2.27651143 -4.56107426 2.54185176
2.26530719 -4.56172180 2.51449347
2.24413991 -4.56120872 2.54982853
2.23248529 -4.56179333 2.52263355
2.21187067 -4.56158924 2.55757236
2.19966817 -4.56184578 2.53077388
2.17959666 -4.56154871 2.56531000
2.16685200 -4.56179714 2.53891397
2.14688611 -4.56147480 2.57313561
2.13362503 -4.56139326 2.54712963
2.11276388 -4.56049728 2.58142042
2.09793615 -4.56023359 2.55726409
2.07708907 -4.55846739 2.59152317
2.06226969 -4.55812073 2.56736088
2.04141593 -4.55646181 2.60163879
2.02659035 -4.55634880 2.57746983
2.00572562 -4.55516338 2.61177301
1.99093592 -4.55467653 2.58758545
1.97097766 -4.55583429 2.62172508
1.95439589 -4.55440235 2.59936142
1.93417299 -4.55757904 2.63477826
1.91709340 -4.55592251 2.61293077
1.89694726 -4.55990696 2.64825940
1.87980807 -4.55808401 2.62646818
1.85965931 -4.56157780 2.66179681
1.84253490 -4.56057882 2.63998699
1.82096231 -4.56350946 2.67735386
1.80317092 -4.56286383 2.65611649
1.78252053 -4.56370163 2.69457150
1.76470244 -4.56438017 2.67331529
1.74443901 -4.56324291 2.71189618
1.72433078 -4.56352711 2.69204879
1.70262647 -4.56074429 2.73336649
1.68312860 -4.56112623 2.71268892
1.66142273 -4.55831242 2.75401258
1.64126670 -4.55943012 2.73358035
1.61814570 -4.55677748 2.77623773
1.59652662 -4.55809212 2.75698805
1.57147694 -4.55183649 2.80304241
1.54922962 -4.55374622 2.78357887
1.52292037 -4.54794502 2.83105493
1.49951649 -4.54912043 2.81208205
1.47210324 -4.54261923 2.86284828
1.44900167 -4.54345560 2.84301376
1.42090726 -4.53481245 2.89600015
1.39787257 -4.53504038 2.87498307
1.36909831 -4.52797937 2.93043566
1.34490335 -4.52796984 2.90885210
1.31618011 -4.52103233 2.96713567
1.29178786 -4.52109671 2.94530082
1.26258099 -4.51429892 3.00601244
1.23785925 -4.51365757 2.98252892
1.20982790 -4.50961685 3.04690838
1.18478358 -4.50940275 3.02282739
1.15957022 -4.50909805 2.99755120
1.13160622 -4.50446177 3.06327677
1.10605049 -4.50400496 3.03647828
1.08119321 -4.50453711 3.00932121
1.05215240 -4.49722004 3.07587695
1.02694273 -4.49911356 3.04858160
1.00189626 -4.50110531 3.01911569
0.97260040 -4.49373293 3.08742690
0.94663751 -4.49601507 3.05693555
0.92149425 -4.49751472 3.02743220
0.89274740 -4.49094391 3.09693837
0.86651659 -4.49361229 3.06611991
0.84035867 -4.49455118 3.03304982
0.81181008 -4.48780537 3.10402799
0.78497535 -4.48903370 3.07029724
0.75855809 -4.48972893 3.03679895
0.73041517 -4.48471165 3.10883403
0.70329297 -4.48395872 3.07443023
0.67626411 -4.48419714 3.03840947
0.64775509 -4.48085070 3.11163354
0.62038499 -4.48017502 3.07471323
0.59329027 -4.48103428 3.03706336
0.56405151 -4.47714329 3.11120558
0.53626299 -4.47653532 3.07270026
0.50952822 -4.47741127 3.03450918
0.47891143 -4.47075033 3.10819244
0.45179173 -4.47049570 3.06963038
0.42508551 -4.47322273 3.02855206
0.39406747 -4.46390581 3.10418534
0.36715633 -4.46590137 3.06252813
0.34021589 -4.46771574 3.02074528
0.30905461 -4.45494843 3.09707046
0.28201553 -4.45567751 3.05282784
0.25520396 -4.45698071 3.00853491
0.22397237 -4.44778299 3.08706188
0.19667031 -4.44797945 3.04118371
0.17041044 -4.44979382 2.99495316
0.13781507 -4.44043875 3.07435465
0.11081320 -4.44048595 3.02654529
0.08498744 -4.44240141 2.97887421
0.05175255 -4.43073988 3.05740118
0.02463718 -4.43078089 3.00862312
-0.00130161 -4.43202782 2.96031022
-0.03536416 -4.42212582 3.04007649
-0.06198783 -4.42205811 2.98949909
-0.08755970 -4.42142677 2.93816066
-0.12312616 -4.41223240 3.01862526
-0.14891520 -4.41064930 2.96696591
-0.17497277 -4.41124201 2.91386580
-0.21078424 -4.40048695 2.99419832
-0.23695508 -4.40209389 2.94034982
-0.26322454 -4.40497351 2.88646340
-0.29933983 -4.39206123 2.96738100
-0.32614708 -4.39467478 2.91133690
-0.28760520 -4.40389681 2.83131909
-0.35140771 -4.39397526 2.85570812
-0.31114379 -4.40480804 2.77635098
-0.37504515 -4.39447069 2.80026174
-0.33453983 -4.40611506 2.72093606
-0.39805198 -4.39384556 2.74294090
-0.35561895 -4.40358686 2.66460896
-0.42038134 -4.39328480 2.68585253
-0.37522945 -4.40600443 2.60872197
-0.44094718 -4.39450788 2.62716031
-0.39419922 -4.40782547 2.55129409
-0.45994645 -4.39726305 2.56945539
-0.41139224 -4.40695000 2.49440718
-0.47776723 -4.39755058 2.51056194
-0.42715526 -4.40741873 2.43630624
-0.49366874 -4.39881516 2.45147324
-0.44265649 -4.40806150 2.37756348
-0.50918651 -4.39848852 2.39206362
-0.45667347 -4.40978050 2.31901598
-0.52336669 -4.40077782 2.33170414
-0.46938694 -4.41069651 2.25944901
-0.53602374 -4.40281105 2.27038217
-0.48072562 -4.41052008 2.19954872
-0.54720664 -4.40237427 2.20956349
-0.55793679 -4.40428066 2.14770699
-0.61389434 -4.39470625 2.21855307
-0.62467146 -4.39633179 2.15602350
-0.56682074 -4.40382767 2.08587575
-0.63368839 -4.39632702 2.09258795
-0.57500309 -4.40611410 2.02432108
-0.64112276 -4.39677620 2.02949190
-0.58063495 -4.40377140 1.96083498
-0.64716429 -4.39634037 1.96537697
-0.58643126 -4.40534401 1.89822984
-0.65300256 -4.39481497 1.90080905
-0.65694362 -4.39419222 1.83609653
-0.71981740 -4.38599539 1.90389144
-0.72383547 -4.38479662 1.83849943
-0.66102165 -4.39674616 1.77314532
-0.72797382 -4.38537550 1.77344716
-0.66287452 -4.39539433 1.70975375
-0.72898793 -4.38358641 1.70831311
-0.66373408 -4.39444733 1.64461327
-0.72974432 -4.38571453 1.64207816
-0.66246772 -4.39309740 1.57961142
-0.72918975 -4.38795757 1.57568598
-0.72758913 -4.38852978 1.50966489
-0.79547089 -4.37799263 1.57193041
-0.79408407 -4.38182116 1.50482738
-0.72394133 -4.38975525 1.44437993
-0.79019487 -4.38005304 1.43751037
-0.71901590 -4.38838243 1.37854743
-0.78514564 -4.37740088 1.37056458
-0.71177524 -4.38975286 1.31414950
-0.77853346 -4.38093567 1.30453718
-0.70456791 -4.39063406 1.24942434
-0.77102208 -4.38331175 1.23817647
-0.69501799 -4.39285135 1.18408883
-0.76124996 -4.38263702 1.17148232
-0.68433875 -4.39508677 1.11970973
-0.75024343 -4.38453341 1.10676336
-0.67280549 -4.39593315 1.05672705
-0.73844475 -4.38595057 1.04093730
-0.65860850 -4.39831781 0.99310899
-0.72384846 -4.38658667 0.97650152
-0.64385748 -4.40048265 0.93076807
-0.70936161 -4.38874769 0.91308486
-0.62799340 -4.40113592 0.86803705
-0.69210690 -4.38746452 0.84913343
-0.60964012 -4.40101337 0.80663335
-0.67414141 -4.38896990 0.78588027
-0.59119135 -4.39990282 0.74551272
-0.65516323 -4.39066458 0.72372168
-0.57026601 -4.40104103 0.68425375
-0.63494658 -4.39242887 0.66139328
-0.54897213 -4.40021753 0.62451714
-0.61281830 -4.39086533 0.60088921
-0.52770847 -4.40031576 0.56467986
-0.58978963 -4.39041090 0.54008311
-0.50294626 -4.39898300 0.50453430
-0.56505358 -4.38917398 0.47881159
-0.54031539 -4.39021730 0.41850874
-0.47862849 -4.39859486 0.44567209
-0.51507515 -4.38977146 0.35910553
-0.45319220 -4.39636660 0.38679093
-0.48857099 -4.38804436 0.29967088
-0.42726564 -4.39242983 0.32935670
-0.46183071 -4.39040661 0.24100989
-0.40077421 -4.39597082 0.27129972
-0.43351859 -4.39069510 0.18221693
-0.37321562 -4.39821720 0.21414852
-0.40422451 -4.38726187 0.12495246
-0.34502709 -4.40056658 0.15777113
-0.37398306 -4.38521147 0.06865688
-0.31575006 -4.40019035 0.10171455
-0.34309050 -4.38657141 0.01201527
-0.28500679 -4.39912033 0.04620536
-0.31155318 -4.38796473 -0.04430551
-0.25386637 -4.39894104 -0.00830374
-0.27910540 -4.38840532 -0.10003499
-0.22157434 -4.39918947 -0.06249825
-0.24659595 -4.38905096 -0.15383942
-0.18884771 -4.39954567 -0.11598819
-0.21105973 -4.38805246 -0.20781375
-0.15520006 -4.39947844 -0.16920133
-0.17422839 -4.38970280 -0.26198319
-0.11941787 -4.39859819 -0.22134516
-0.13707452 -4.38732767 -0.31407660
-0.08251046 -4.39823437 -0.27328128
-0.09878846 -4.38683605 -0.36552212
-0.04525748 -4.39774370 -0.32299685
-0.00629638 -4.39928150 -0.37170571
-0.05932054 -4.38595057 -0.41504270
0.03364884 -4.40005064 -0.41933292
-0.01861701 -4.38687372 -0.46439314
0.02290338 -4.38652802 -0.51069927
0.07500581 -4.39970827 -0.46549413
0.06541774 -4.38491726 -0.55672824
0.11690081 -4.39794970 -0.51088166
0.15845984 -4.39908218 -0.55558360
0.10899110 -4.38555908 -0.60331732
0.15250111 -4.38473701 -0.64754128
0.20191945 -4.39713526 -0.59883851
0.24526818 -4.39535189 -0.64157122
0.19704178 -4.38308716 -0.69158882
0.28950459 -4.39399624 -0.68273145
0.24229686 -4.38439131 -0.73405111
0.28902799 -4.38112640 -0.77537471
0.33506778 -4.39113712 -0.72336948
0.38156086 -4.38947296 -0.76230270
0.33611742 -4.37997675 -0.81480497
0.42884898 -4.38905573 -0.80118561
0.38402227 -4.38033772 -0.85380757
0.47674111 -4.38896418 -0.83835119
0.43256736 -4.38099051 -0.89314324
0.52062881 -4.39936686 -0.78494287
0.56791300 -4.39932871 -0.82139766
0.52458501 -4.38936663 -0.87544125
0.61134750 -4.40816879 -0.76769370
0.65742606 -4.40764284 -0.80170774
0.61581594 -4.39819574 -0.85698432
0.70013636 -4.41816854 -0.74715447
0.74656355 -4.41802025 -0.78059602
0.70535010 -4.40666103 -0.83572161
0.78794420 -4.42640877 -0.72451437
0.83378828 -4.42575169 -0.75622594
0.79367697 -4.41685057 -0.81346494
0.87410086 -4.43666410 -0.70055920
0.91936421 -4.43609619 -0.73027033
0.87968552 -4.42570305 -0.78690559
0.95889765 -4.44648504 -0.67342126
1.00284708 -4.44597149 -0.70195580
0.96503377 -4.43569469 -0.76023918
1.04107308 -4.45855093 -0.64282942
1.08529794 -4.45800352 -0.66998631
1.04809177 -4.44406271 -0.72845232
1.12259090 -4.47113276 -0.61077809
1.16632831 -4.47009611 -0.63402867
1.13007009 -4.45733070 -0.69472790
1.20279634 -4.48446846 -0.57450587
1.24565220 -4.48265600 -0.59725952
1.21014094 -4.46804047 -0.65713435
1.28051496 -4.49289751 -0.53561050
1.28802061 -4.48012686 -0.61781740
1.32229352 -4.49164963 -0.55614972
1.35784352 -4.49741030 -0.49572721
1.36457849 -4.48976755 -0.57680839
1.39848244 -4.49785757 -0.51517808
1.43251026 -4.50512171 -0.45343482
1.43978429 -4.49821806 -0.53253430
1.47376609 -4.50511217 -0.47080973
1.50641596 -4.51140213 -0.40795919
1.51401985 -4.50520992 -0.48680696
1.54624593 -4.51191950 -0.42325836
1.58025014 -4.51303577 -0.36262831
1.58625078 -4.51285696 -0.43896618
1.61894214 -4.51427317 -0.37654331
1.65133905 -4.51560545 -0.31388786
1.65788758 -4.51440620 -0.38914996
1.68997765 -4.51577425 -0.32614851
1.72156894 -4.51981688 -0.26368171
1.72805059 -4.51529503 -0.33662879
1.75962973 -4.52001858 -0.27450803
1.79091096 -4.52594328 -0.21151903
1.79667342 -4.52230597 -0.28335267
1.82784867 -4.52791548 -0.21999891
1.85867810 -4.52983379 -0.15572032
1.86364543 -4.52718544 -0.22532713
1.89456725 -4.52861309 -0.16153927
1.92566705 -4.53355312 -0.09985249
1.93015122 -4.52779436 -0.16640830
1.96023273 -4.53333950 -0.10265824
1.99067712 -4.53692961 -0.04117903
1.95692301 -4.53768396 -0.03915343
2.02177262 -4.54089260 0.01587773
1.98800945 -4.54171038 0.01764548
2.05226016 -4.54558945 0.07051259
2.01884222 -4.54582071 0.07019186
2.08017945 -4.54987621 0.11896373
2.04816222 -4.54980803 0.12023450
2.10913968 -4.55194330 0.16605602
2.07752728 -4.55201578 0.16907559
2.13597107 -4.55424929 0.20791443
2.10465169 -4.55404139 0.21116051
2.16256166 -4.55631018 0.24777241
2.19327712 -4.55585957 0.24411128
2.16695905 -4.55438757 0.20416522
2.21924210 -4.55529690 0.28095594
2.18854690 -4.55509806 0.28464228
2.24401116 -4.55688715 0.31516489
2.21446037 -4.55429888 0.32136756
2.26868200 -4.55920744 0.34900269
2.23911905 -4.55807495 0.35544425
2.29319763 -4.55864477 0.38222390
2.26372647 -4.55836391 0.38907450
2.31727576 -4.55612755 0.41367748
2.34706998 -4.55677414 0.40599024
2.32273531 -4.55730200 0.37537956
2.37152481 -4.55603218 0.43606615
2.34151340 -4.55431986 0.44442028
2.39579320 -4.55352974 0.46382079
2.36585689 -4.55259466 0.47308707
2.42001581 -4.55167198 0.49174523
2.39006805 -4.55098391 0.50172865
2.44423819 -4.55172396 0.52082729
2.41428900 -4.55157137 0.53081685
2.46802425 -4.55253172 0.54842466
2.49810672 -4.55304861 0.53643459
2.47405267 -4.55184078 0.51037842
2.52255583 -4.55511665 0.56145269
2.49182248 -4.55400610 0.57512236
2.54709291 -4.55527067 0.58595502
2.51629400 -4.55423307 0.60008395
2.57170701 -4.55342960 0.60986602
2.54091501 -4.55397320 0.62399501
2.59632564 -4.55110931 0.63378966
2.56536841 -4.55185747 0.64807594
2.62125349 -4.55081940 0.65586996
2.58910871 -4.55196095 0.67269146
2.64557195 -4.55325317 0.67769879
2.61255741 -4.55439425 0.69552046
2.66989303 -4.55483770 0.69954652
2.63633943 -4.55647469 0.71792799
2.69409204 -4.55627060 0.72143817
2.66029096 -4.55720377 0.73997062
2.71822286 -4.55738640 0.74337393
2.68398142 -4.55731678 0.76213282
2.74174714 -4.55779219 0.76484412
2.70676613 -4.55712175 0.78459692
2.76620579 -4.55767345 0.78498703
2.72964525 -4.55703497 0.80667740
2.79066730 -4.55738449 0.80513620
2.75315571 -4.55697536 0.82794631
2.81497765 -4.55529594 0.82546771
2.77739978 -4.55595541 0.84837854
2.83849359 -4.55308771 0.84688139
2.80084920 -4.55480337 0.86969149
2.86212015 -4.55273819 0.86816287
2.82427740 -4.55484962 0.89095408
2.88642764 -4.55464411 0.88923675
2.84770370 -4.55508471 0.91221046
2.91073084 -4.55781651 0.91028547
2.87154794 -4.55659437 0.93337244
2.93493867 -4.55929327 0.93179339
2.89549923 -4.55731058 0.95498729
2.95929170 -4.55875206 0.95450920
2.91908574 -4.55669880 0.97717464
2.98363829 -4.55731010 0.97723126
2.94268990 -4.55583429 0.99938715
3.00798488 -4.55575466 0.99994707
2.96683645 -4.55509615 1.02231681
3.03233242 -4.55489254 1.02266908
2.99098873 -4.55445957 1.04526532
3.05677080 -4.55463600 1.04609573
3.01469302 -4.55358839 1.06806922
3.08006287 -4.55506134 1.07132149
3.03703904 -4.55399227 1.09242690
3.10282731 -4.55630445 1.09643400
3.05975652 -4.55484676 1.11743248
3.12603545 -4.55647039 1.12177300
3.08248353 -4.55598450 1.14243186
3.14917302 -4.55526590 1.14777887
3.10436177 -4.55681038 1.16753173
3.16990685 -4.55344057 1.17463398
3.12467813 -4.55608606 1.19336772
3.18867517 -4.55140448 1.20190430
3.14356709 -4.55428267 1.22004664
3.20597577 -4.54992342 1.22936952
3.16006827 -4.55125284 1.24770689
3.22329044 -4.54892635 1.25684094
3.17661142 -4.54930305 1.27537978
3.23878765 -4.54854822 1.28604257
3.18959594 -4.54827213 1.30232918
3.24881959 -4.54901838 1.31536984
3.19859099 -4.54890108 1.33009648
3.25675964 -4.55005312 1.34401143
3.20690370 -4.54973221 1.35841715
3.26439786 -4.55143309 1.37250841
3.21506357 -4.55153704 1.38668144
3.27204871 -4.55326605 1.40099275
3.22150445 -4.55392265 1.41470027
3.27961063 -4.55441046 1.42959046
3.22683549 -4.55652142 1.44275057
3.28310513 -4.55447912 1.45852137
3.22944140 -4.55815792 1.47112167
3.28484869 -4.55298805 1.48732650
3.23010612 -4.55630589 1.50029171
3.28527880 -4.55021095 1.51657844
3.23233771 -4.55464363 1.52897739
3.28515697 -4.54938602 1.54625177
3.23333383 -4.55386925 1.55792725
3.28459620 -4.55051422 1.57574880
3.23328805 -4.55417442 1.58713496
3.28403902 -4.55169868 1.60524607
3.23292875 -4.55451012 1.61661339
3.28347993 -4.55285120 1.63474321
3.23310566 -4.55417824 1.64556956
3.28290844 -4.55333042 1.66422772
3.23337865 -4.55444050 1.67443752
3.28179240 -4.55466604 1.69347954
3.23240614 -4.55586195 1.70302892
3.28067350 -4.55605793 1.72273779
3.23015094 -4.55744457 1.73185301
3.27864647 -4.55586290 1.75149262
3.22785926 -4.55724525 1.76045048
3.27544236 -4.55512953 1.77954912
3.22463584 -4.55571842 1.78850079
3.17602897 -4.55722427 1.79828298
3.22142982 -4.55472660 1.81655753
3.17298889 -4.55705500 1.82642126
3.12815595 -4.55843639 1.83563089
3.17097116 -4.55578804 1.85405648
3.12693858 -4.55684805 1.86357427
3.08416605 -4.55666447 1.87370861
3.12557340 -4.55531168 1.89100182
3.08325768 -4.55607939 1.90064538
3.04225779 -4.55829239 1.91058481
3.08242464 -4.55583620 1.92753196
3.04197192 -4.55791712 1.93764114
3.00217938 -4.55997419 1.94770002
3.04030752 -4.55823135 1.96426976
3.00157642 -4.56023502 1.97449219
2.96440339 -4.56203747 1.98482144
3.00097966 -4.56048918 2.00118375
2.96401167 -4.56213522 2.01149416
2.92753744 -4.56348324 2.02182984
2.96384025 -4.56222057 2.03814793
2.92878556 -4.56326771 2.04855275
2.89606428 -4.56356668 2.05908346
2.93002605 -4.56302834 2.07528210
2.89730358 -4.56330204 2.08581281
2.86400795 -4.56324911 2.09638119
2.89854836 -4.56303072 2.11254191
2.86581874 -4.56295872 2.12306619
2.83198309 -4.56316185 2.13365364
2.86692333 -4.56186914 2.14980817
2.83508205 -4.56280565 2.16039562
2.80411983 -4.56334591 2.17108345
2.83862400 -4.56226015 2.18792367
2.80826950 -4.56285477 2.19850445
2.77732706 -4.56285191 2.20918608
2.81155348 -4.56186390 2.22607040
2.78118920 -4.56184149 2.23664522
2.75078773 -4.56238222 2.24717569
2.78451085 -4.56096220 2.26421118
2.75548053 -4.56135035 2.27464724
2.72645688 -4.56174421 2.28507733
2.75980282 -4.56123972 2.30211282
2.73077035 -4.56102896 2.31253648
2.70173407 -4.56075001 2.32296014
2.73601437 -4.56016779 2.34133530
2.70744181 -4.56040430 2.35223722
2.67960238 -4.56101513 2.36297536
2.71410656 -4.56105757 2.38157082
2.68627048 -4.56183767 2.39230251
2.65761876 -4.56257629 2.40244317
2.69293904 -4.56266785 2.42163634
2.66459942 -4.56301641 2.43200970
2.63601398 -4.56302643 2.44222569
2.67188120 -4.56231165 2.46184015
2.64390039 -4.56231928 2.47251558
2.61590791 -4.56177998 2.48320341
2.65179014 -4.56088114 2.50290608
2.62377954 -4.56001520 2.51346803
2.58689713 -4.56205893 2.49222445
2.59483576 -4.56037903 2.52260208
2.55758309 -4.56166267 2.50074816
2.56597447 -4.56085825 2.53093123
2.52882838 -4.56168842 2.50901437
2.53736854 -4.56240702 2.53917193
2.50874543 -4.56298590 2.54738760
2.49974513 -4.56259060 2.51745033
2.47952247 -4.56285572 2.55549002
2.47022796 -4.56328297 2.52585459
2.44983077 -4.56257486 2.56287551
2.44037700 -4.56331348 2.53324604
2.42035866 -4.56227589 2.57026076
2.41052747 -4.56313610 2.54063153
2.39088249 -4.56190109 2.57765222
2.38056421 -4.56272554 2.54809213
2.36121821 -4.56144285 2.58507514
2.34951925 -4.56202364 2.55571032
2.33043337 -4.56020260 2.59271860
2.31873178 -4.56096649 2.56335974
2.29954052 -4.55951071 2.60022974
2.28794646 -4.56050777 2.57102823
2.26786637 -4.55994654 2.60662723
2.25632286 -4.56082773 2.57750773
2.23618674 -4.56061554 2.61303759
2.22461796 -4.56138420 2.58397460
2.20450854 -4.56120205 2.61944151
2.19234562 -4.56171513 2.59171844
2.17282200 -4.56062412 2.62582660
2.15984845 -4.56162310 2.59949994
2.13889480 -4.55975533 2.63388491
2.12591934 -4.56105709 2.60755849
2.10497570 -4.55869198 2.64193082
2.09190416 -4.55951929 2.61570477
2.07104230 -4.55793667 2.64998937
2.05623341 -4.55699778 2.62581396
2.03588676 -4.55752230 2.66000414
2.02066255 -4.55681372 2.63591695
2.00142860 -4.55864286 2.66988683
1.98620379 -4.55747509 2.64580584
1.96698403 -4.56034279 2.67976332
1.95078850 -4.55927992 2.65699077
1.93051267 -4.56264162 2.69236350
1.91381371 -4.56158781 2.67026424
1.89372170 -4.56339645 2.70536637
1.87677956 -4.56238747 2.68360686
1.85760319 -4.56288385 2.71873426
1.83877337 -4.56259871 2.69859767
1.82122254 -4.56073570 2.73381925
1.80169630 -4.56297207 2.71439981
1.78437364 -4.55945110 2.74936366
1.76452458 -4.56176949 2.73052311
1.74502265 -4.55915880 2.76947498
1.72415698 -4.56043053 2.75128865
1.70387292 -4.55746698 2.79068112
1.68222940 -4.55812693 2.77292252
1.66148889 -4.55601454 2.81317687
1.64004028 -4.55576324 2.79502177
1.61668968 -4.55350733 2.83937120
1.59338081 -4.55222607 2.82279515
1.57002413 -4.54728031 2.86744046
1.54633093 -4.54677677 2.85002780
1.52020693 -4.54046106 2.90133476
1.49538136 -4.54133749 2.88256979
1.46994328 -4.53466940 2.93447447
1.44524395 -4.53487682 2.91525626
1.41794455 -4.52838802 2.97258973
1.39360404 -4.52802849 2.95187449
1.36520767 -4.52141190 3.01071763
1.34056282 -4.52113152 2.98897696
1.31276822 -4.51547098 3.05158234
1.28753495 -4.51559544 3.03019381
1.26115954 -4.51074934 3.09465480
1.23486710 -4.51075077 3.07111502
1.21022677 -4.50302887 3.13760161
1.18359637 -4.50385571 3.11409307
1.15740967 -4.50528765 3.08889270
1.13237035 -4.49820614 3.15678835
1.10597396 -4.49814987 3.13145542
1.07901466 -4.49839640 3.10370088
1.05379355 -4.49323416 3.17274761
1.02669740 -4.49384117 3.14495540
0.99976844 -4.49327946 3.11715674
0.97482073 -4.49063492 3.18691444
0.94723994 -4.49170303 3.15887666
0.91997260 -4.49083376 3.12840438
0.89534187 -4.48777342 3.20093632
0.86708558 -4.48780966 3.16871548
0.83900368 -4.48702288 3.13644409
0.81564891 -4.48121357 3.21041656
