17.96071400 12.83977500 -0.47517300
-21.06196600 11.86025400 9.13111500
16.80397600 12.83513600 -2.70885500
8.17597900 12.82991800 -13.50103600
4.85023800 12.84675000 -18.04348200
9.70600900 4.82503600 21.83517500
0.44662400 12.78516400 -16.72379300
-18.84558500 5.36993300 14.55792300
-10.34505200 -1.46242300 -18.79214500
21.55357900 -1.01449300 -0.39506800
-22.55149800 9.22010600 8.15901800
-19.28020500 -7.72711400 -7.40551400
5.49799500 5.87738400 23.54164100
-3.24212700 12.75794400 -17.12624500
10.67105600 12.80727200 18.87982600
-2.62709800 12.73661800 -14.18179700
-19.46977200 -4.63856600 6.35447900
-7.16885500 12.70598800 -13.67612000
-19.49477000 -3.97916700 6.59758900
-9.11300600 12.70602200 -15.37805200
10.56046900 7.54604400 -21.93497500
22.62651800 9.65359700 -8.63574600
1.48472600 -2.85838100 -21.26667400
6.27638900 7.48561500 23.57881900
-10.30992400 -2.07388700 18.55473700
7.84182500 -5.30321700 19.61660400
6.07648700 -5.17089700 20.20440900
24.36335400 8.66026700 0.37748900
20.74550800 -5.24984800 -2.44339900
22.43309600 3.16170000 -5.48834800
-20.52140000 12.49940700 2.88807300
21.61952200 12.82212400 -4.51142800
-18.51043900 -3.90274600 9.06905300
21.55658300 5.61281400 -10.63987200
21.71361000 12.74001100 -3.86439000
22.07133500 12.77328500 -3.73545100
22.46114000 11.41893600 7.30427200
13.38869900 -9.93368500 17.49893000
12.75246000 -4.58277400 16.89521000
-17.10439500 -4.44405900 11.38478900
-17.71420900 -4.27397000 10.43565100
10.20908500 -9.52426300 -19.12507600
21.02850500 -3.53992000 -0.74448200
21.45915800 -1.85362500 0.60672200
20.61068500 -6.49610600 -3.75970900
-19.95395100 5.02905000 12.79055200
-12.98197900 -11.14356200 -17.97674800
-15.19550100 11.85549900 -17.35632500
-19.31521000 8.08023000 -14.52327500
-20.48894300 5.15123100 11.98753500
-17.42773800 -9.53227800 -12.08919300
-14.27047300 7.70949600 19.55663900
19.62567900 12.86356900 7.96707900
-21.29762300 0.52747700 -4.12550500
9.92501800 -8.49552900 19.07327700
14.19399500 12.88570200 -13.00468500
16.26894800 12.84916500 2.11650000
23.32869000 9.53332700 -6.61999700
23.86105200 9.27241300 -4.58944300
-16.87600100 12.28412100 -15.27899300
11.92998100 8.73889900 21.26243200
9.52920100 8.16176600 22.47992700
-13.89761600 1.75140400 -17.52171500
8.45571800 11.31705700 22.04044200
5.44742500 -0.03257300 21.30064400
-12.40369300 -10.89591400 -18.21604000
-14.74136400 5.77102300 18.87699900
-8.99970100 -9.59189200 19.34668900
-15.69218500 5.01680600 -17.82545100
-3.39053800 6.58039500 -23.95982400
-17.28194800 5.47347700 -16.47201300
11.06671600 12.00396200 20.45425600
-2.30699600 -4.59569100 -20.88594100
-4.96280300 1.91161400 21.91108100
20.83919000 12.84860200 -2.20865300
-24.09346400 7.25295800 0.58675300
18.25137500 -9.44389700 -11.70600400
19.89787700 12.86357900 -2.07551900
13.93864000 -8.11410700 16.31950400
21.52535800 12.84755900 -1.81540600
-19.72232800 -4.21294700 -5.77548900
20.36457400 12.76573800 0.06102800
20.81983800 12.85574700 -1.39487800
20.41833900 12.80565800 -1.32476200
10.40258400 -3.98345800 -18.14449700
22.78493500 12.66394200 -0.65075900
20.64335800 12.85228000 -0.65050800
21.42432000 12.83689300 0.21907200
2.08909700 10.18863100 23.90930900
17.72150000 12.85024800 4.00364100
-9.27499300 0.01472900 19.52095400
22.17546800 12.68697500 5.02619100
-14.44040900 -6.53155100 14.62646200
20.02109700 12.67433500 -0.46413100
-10.82599300 3.08458700 -20.32797800
17.55060800 -4.14730300 -11.50594600
-0.28021700 2.55514200 22.87239800
20.74698400 12.83948300 -1.76982200
21.20828800 12.84308800 -1.15764800
20.79093900 -1.80683200 -5.37126500
-1.19896900 -10.14721700 21.74155000
20.40497400 -2.72143500 5.99809700
-2.56112800 -0.30504100 -21.61778600
-22.21171000 10.16496800 8.40371500
-10.39628100 -0.13342500 -19.09986100
9.02872100 12.08246000 21.35937700
-20.19853800 6.61793400 13.09537600
12.42705600 11.02382100 -20.22791100
21.91513600 -10.10397500 1.79138300
-1.81125300 3.02428500 23.01395600
-23.24972200 9.14174800 5.92796700
18.03777300 10.23487900 15.95835500
-8.69868900 8.28565500 -22.63822700
-4.37143200 -10.60873200 -21.63864500
22.98242000 6.29471900 -7.62563200
8.21679700 -6.80682200 19.53347600
-20.96047000 -9.46601100 -1.17823700
-17.80616200 -10.27290500 11.74848800
20.32199900 -0.81343900 7.37048700
11.21653300 -10.83973900 -19.39001300
-12.89598600 -10.16267600 17.13688700
-13.40261900 -9.62759400 -16.68293000
-20.02587500 -7.71680300 -4.83783600
-11.83131000 12.66223700 -18.21892400
4.70256700 -1.88955900 21.11117000
0.79346300 -6.09022800 -21.00592400
3.40191300 -2.53214400 21.16750300
20.62325100 -3.54159100 -4.19168100
-10.21338200 -7.27772900 -18.25856600
19.48062500 -1.38213600 9.28429900
-10.80414700 -0.49098500 18.59167100
-17.24944700 2.75921600 14.84868000
-17.62917300 0.79393600 12.88586800
21.57768100 -10.08788300 4.27144300
-13.71089600 -2.06601000 16.12666500
21.44355200 3.15477000 8.62344000
19.12279300 -6.29018900 8.85502100
-18.26724400 10.25309200 -15.22555600
22.38153100 12.78085500 -0.55250000
2.29287300 4.85612500 23.72933600
-19.94945500 12.50953500 2.06905300
-21.14455800 11.17621800 9.85876800
-21.13853600 11.46038400 9.52577000
-20.91806400 12.49462700 2.03216000
14.85547100 -9.37774800 -15.78088300
-20.73144000 -3.03010100 1.92548100
12.26120400 12.76029600 19.02825900
-7.54484500 12.61374100 10.88537800
-1.97281800 -3.65306200 20.95442200
-4.69561400 -7.50166000 -20.56719200
22.09415400 -10.86292500 -3.57113600
-5.52507400 -6.52190700 -20.21209900
24.16197600 6.68669100 -2.58508300
5.27877700 -1.12738300 -20.94057800
-14.15926800 11.86864500 18.18681100
-23.76820400 9.99008200 -0.77367900
5.23101200 10.17107000 23.45521200
24.27719900 7.63760900 2.23946300
6.63774900 2.13515600 21.76853000
-20.03137600 -0.45012100 -7.49190800
15.79998200 5.40166300 18.14881100
16.38542200 11.19956200 17.13082100
-24.06688700 8.46142200 0.98712400
1.75845400 6.53386300 24.21039600
-20.49586500 -4.30362500 -0.88665200
-16.67261900 4.82197200 -16.80707900
20.33365100 12.77342400 8.76330000
-21.72712300 4.03497100 -8.45432100
-17.58444600 3.74014700 -15.18464000
-12.33506000 -2.85447300 16.98656300
-13.23534100 -5.61790100 -15.93468000
23.60711900 10.78380200 3.77288200
19.18473400 -1.16930200 9.93846000
-16.28003900 10.97656300 -16.97543000
22.97506300 3.02817600 -1.62750800
-5.07793200 12.76478600 -18.49210200
23.11288300 3.21896000 -0.59810400
23.87183600 5.69733200 -3.18098100
5.88039700 -4.38584400 20.31409500
9.02115500 3.43837200 21.54546500
-2.32256900 11.04327000 -23.52656900
-21.07565500 -10.03320900 -2.39145900
-4.67713900 4.86333800 23.32557700
0.68721100 -8.14751600 21.18713600
-23.64423900 4.93907100 0.22745600
-5.74004400 4.58337800 22.95896900
12.38097800 -1.24768100 17.89032400
20.03560600 8.94927200 13.87584200
23.30007200 10.30169500 -5.99364700
-23.81373000 7.59137800 -3.82176100
20.97325700 6.96890900 12.39601600
-21.74416500 6.43851500 10.23657000
22.21481300 9.10891900 9.89950000
-9.85996200 10.41173900 -21.68560800
-9.30333200 9.46928600 -22.22068800
18.67161400 4.14096900 14.39396800
-23.39617900 10.55285300 3.08413600
-14.52116400 3.80261200 18.16447600
-15.33913600 0.99641300 15.69188700
-8.62061100 10.95260600 -22.00022700
-2.42701100 -6.04585000 20.70452300
-13.92068900 -6.43973700 -15.35084200
21.63338700 12.72600900 5.30192100
7.24668500 -1.49497800 -20.27506800
19.26073500 9.54480600 14.75648300
0.44161700 12.61240200 22.61077900
18.32504700 -6.60390700 10.51166200
-21.53445400 0.58162500 2.82196700
16.84351000 -6.04878600 12.72060100
9.68378100 -0.49977600 19.65617600
-18.24980500 -5.30633200 -9.36978200
15.19981500 -1.90234100 15.40306100
17.62484700 0.11076200 13.04893100
10.54839700 -0.03348200 -19.08449900
17.67100100 -6.76948000 -11.39765800
18.31304400 -1.33709000 -11.29924600
23.81395100 5.18476500 2.39524400
23.54852700 5.17780900 4.22158200
-6.74321600 12.54772200 21.51871500
17.56978800 -9.58425100 -12.80441500
19.37944200 10.64788400 -14.03821100
17.89926000 -10.46191200 -13.07376800
-1.46209000 7.78474400 -24.27157000
20.02780300 -6.70429300 -6.25688600
-16.81855400 2.10846900 -14.89880000
-1.15480200 8.89809000 -24.22492400
7.50012200 -8.29410400 20.05342500
22.00312400 12.71950100 4.78668000
7.13125100 -0.34691600 -20.53233500
21.55091700 12.76656900 4.97333600
21.89366500 12.67524100 5.08680200
-16.59589400 7.77338200 17.58168200
-23.53587200 8.36506700 5.17047600
-14.52787400 8.72560900 19.28555100
-11.52563700 12.53865100 18.80821200
-14.92899300 8.98457500 18.93169600
-12.11484100 5.74363800 -20.69301600
-21.30792600 1.74944500 -6.29443800
-11.29179600 -5.74752900 17.24225200
-20.48446300 -8.10138100 2.45689100
14.10398500 -8.25116700 -16.01537700
0.97306800 -3.58148700 21.11278200
3.03124500 12.52153600 -22.62138900
-19.37243700 -5.18468400 -6.63136100
0.29073600 -2.58763300 21.33713900
0.59573300 11.99995600 23.14097400
1.80599300 12.54454600 22.68278100
23.94301200 10.64741500 -0.65494900
-8.80315300 5.62944000 -22.29571000
19.46870400 -8.98372500 9.48041300
-11.37721300 4.72066500 20.75368900
15.02240800 -6.44847200 -14.71364100
-10.90343600 5.52517400 21.29115700
-8.61213900 12.60127800 19.55803300
19.08371000 5.90858600 -14.73919500
22.00317200 0.66866000 -0.74637300
17.15277300 -4.43047800 12.27296600
-20.92990700 6.58468400 -11.89498500
-3.03144000 4.00323400 -23.23879100
22.98691700 8.23644400 8.16625500
14.83674400 -9.89106400 16.29209900
1.85059800 12.67936700 -5.32134200
21.63066300 10.52765300 -10.34365700
-6.46281700 3.04498200 -22.11200700
-8.93583700 -3.66977700 18.84169400
-6.46190000 -4.82541700 19.70958500
-20.18507600 11.75054200 -11.08282500
19.31132100 -4.79299500 -8.03294800
19.16283800 -4.09320500 -8.50445200
-6.14344900 8.94294500 23.42297700
19.16674200 -9.16287400 10.21997400
21.15130000 6.15571500 11.80524300
-1.02308500 -6.16604600 20.87513700
21.32493200 12.81665600 -5.58030500
22.89792800 3.02053200 2.47797400
-9.77654700 -8.57169700 18.59972400
-0.26018700 -8.54571000 -21.35411300
10.82258100 11.40852400 -20.91663900
10.88196000 10.33960000 -21.37245800
10.87993500 3.96908600 20.90900200
-19.04018800 12.55641000 -9.23819100
18.69933900 7.52444500 15.70708500
-15.35393100 12.57016800 -16.12179200
10.35881500 12.03898000 -20.76202200
-19.18919200 -8.66863400 7.93123900
10.92273700 12.29076200 -20.30052800
-19.94132200 -8.92145200 5.96215700
13.80227700 -7.37478100 16.23932500
-21.01752900 0.41331000 5.25346900
7.76027300 -3.37803000 19.87958700
23.46695900 11.48325200 -2.38000600
-19.16167600 -11.02130500 -10.51108400
7.59874400 -1.96865900 20.30137400
8.31883000 -0.56398400 20.25103200
20.82910000 12.84768500 -5.00158500
22.74848000 8.49900200 -8.73878900
11.07560600 -10.67506200 19.40840300
-14.87114000 -3.01303100 -14.83997200
18.35168600 12.55437900 13.76817200
-13.62126400 12.47362100 -17.91724600
-13.75797700 -1.27682400 -16.37329900
18.65053400 -5.60017300 -9.46736400
-15.23564900 -1.21648200 -14.94528700
-14.73435200 -1.76003100 -15.28585400
-15.10574500 -1.73273600 -14.98384000
-11.95738000 -1.08559200 -17.83368500
-10.29720900 -5.12001900 17.90170900
21.16508300 -8.31776800 2.62729100
-10.47398900 12.60342800 13.78879300
-7.55236900 -9.41618700 19.93597400
-3.60912400 12.64855400 12.79141600
17.72750100 -1.44551600 12.38420700
20.99057400 -9.25547800 5.40228700
-20.40234600 -7.50529600 -2.40493500
-19.87307000 -1.65701200 7.12021500
-20.20701600 -2.28596900 5.81833600
12.99061600 11.50483900 -19.60456500
-5.13718200 12.69692200 -12.31378900
-0.09341600 12.67696400 12.19985800
22.96638700 11.33699000 5.68021600
-0.90119200 12.66013100 10.66918300
0.91285700 0.80866200 -22.08721200
14.40903600 -1.20919300 16.26622200
20.42046400 -0.32386600 -7.37616000
6.32836200 9.60500000 23.35923800
-6.77051400 9.63357200 -23.11395600
20.79922100 12.80941400 4.11880200
5.88271200 9.13780600 23.57671900
-20.76602600 -9.55112100 -3.40172000
-11.42067300 10.83126400 -20.71536300
1.51226900 -6.79082500 20.95947500
20.14067100 -6.44888700 6.04890400
-5.60733200 -5.10745000 19.97100300
3.25792500 -8.54552800 -21.13645000
24.16312000 9.12121200 -2.74232100
21.75304000 12.81438600 -5.26849800
21.57380700 12.79406000 -4.79854200
-9.96032100 10.21488200 21.68904100
-4.17809100 -7.18248100 20.46808200
-16.13709300 -7.56590100 -13.07248400
0.11903100 -2.68061100 -21.35879300
20.77171700 12.85515800 2.28798500
19.66525700 12.86803200 2.25945900
-20.27445800 -3.88084200 -3.61674800
20.03479800 12.87954700 2.45425200
19.94223400 6.92380900 13.99362200
19.10031300 5.63555300 14.69770200
-14.47956600 -0.56456400 -15.92088200
0.55422700 8.43918600 24.33440200
-15.01897300 -1.50254000 -15.05234200
-15.30063200 -1.70923800 14.64332400
-16.63980500 12.49152900 14.24703900
20.38024300 -6.28325500 5.02414400
-22.55893100 11.55654000 -5.02445800
-15.94851600 -2.89497500 13.54258600
14.51141800 12.78781100 4.28296800
-17.43193200 -2.25359800 11.84375900
-14.08166300 8.75620300 -19.64178500
-13.50000200 -2.14637500 -16.45898100
23.04967700 12.01400900 3.42594100
-21.46184500 12.47849700 -0.33611500
20.85758400 12.74550800 5.53108100
-21.91672100 12.46637300 -1.82470400
19.76330600 -2.54800900 -7.91373700
23.01216100 4.22675800 5.09248000
22.71743600 7.04273600 -8.72407300
-20.36891400 9.33415400 -12.72091500
-7.82701300 -1.48123700 -20.03183000
-12.29296200 11.14930700 19.97733700
-11.49987200 10.88884500 20.59978100
-5.34668600 -2.78920100 -20.60749200
21.82994500 12.72745300 3.13734500
7.71526000 5.06426000 22.68695100
1.05422600 8.65423600 -24.26644300
22.03359600 12.64622300 3.37507000
9.85780200 -9.33129700 19.36643600
10.46480200 -5.42342600 18.37557600
21.49651300 12.76020800 3.68103000
22.97771100 3.20680100 -2.53641700
-22.80738100 3.81369800 4.27143300
20.57374800 -9.57081200 -6.91515100
-19.95450600 -4.38690000 4.70829500
3.83676200 0.58664000 -21.69504900
17.62472700 -9.60264800 13.02700200
-14.83534500 4.82246500 -18.48365800
16.74676300 -9.85379200 14.31611100
19.38287900 -0.03793000 10.05677200
8.80291800 -4.64613900 -18.98627700
15.82738300 -8.18382600 -14.28258100
22.11717200 3.07809900 -6.49482000
14.65691300 -4.17246700 -15.07818100
14.78417900 1.29844200 16.83522400
7.83611700 7.49527200 23.12650300
-22.42985900 10.21235500 -7.75537900
1.85939600 12.72793600 21.10722500
-21.88018000 10.51526100 -8.91467800
6.87312000 12.75770000 20.89678200
22.07979400 12.56683200 6.11232900
7.99533800 12.70744900 21.12238700
21.42200300 12.76732800 6.30016600
19.00519000 12.79353500 -0.63959800
19.66158500 12.77232400 -0.10542900
21.70090100 12.71984100 5.91229500
18.91167100 9.56097200 15.19684600
14.42871800 6.26839400 -19.41422800
17.63157300 11.98732800 -15.19556100
18.52466400 -4.52806900 9.97713600
-20.23673600 -2.89899400 -5.06346500
16.42175100 12.44340700 -16.07550400
-3.80109700 8.49905000 -23.98882100
0.72143400 -1.97179800 21.50428000
1.80705800 -0.60443700 -21.62853400
22.52385500 12.03920400 -5.89077500
-13.31086900 -5.92657400 15.66527700
-20.21230700 -7.66415400 3.71615600
20.83029000 -2.59909900 4.38780400
21.14405300 -1.79740600 3.81321400
-22.51910600 12.13706800 3.06038500
1.79965700 3.48220300 23.22604200
-2.58281600 -7.98814400 20.91058700
-4.81634800 2.80789200 22.40429300
5.22313900 -5.06237800 20.42266100
-6.60866400 -4.59125200 -19.86787200
21.09248200 -7.53015000 1.01561900
17.86133800 12.88515700 -10.32573900
-4.90512500 -4.81640200 -20.37258300
15.63505600 12.87651300 -12.08520700
16.01899100 1.24237300 -15.40095100
16.55715400 12.87641500 -12.05220500
-21.13100800 12.39385800 -7.68554300
16.17112200 12.85260200 -11.76061800
-7.53895400 -0.94511000 19.89087900
16.69942700 12.88539900 -10.86788700
-20.65432000 12.38464700 -8.90592800
6.88427600 3.84008500 22.46903200
-9.42536700 5.14574700 21.87606000
3.55131200 -9.32496300 -21.31229000
18.26625300 -1.83622800 11.47422800
-9.77317000 4.68934600 -21.57226200
24.34873600 8.31558200 -1.33156300
19.62847700 -7.76908500 8.26581000
14.91428700 6.98946800 19.30135200
-5.24226300 7.54160800 -23.72251900
24.10772900 9.66175800 2.37342200
13.49609300 8.03099300 20.36735700
6.38556600 2.11366200 -21.67714300
-20.80231300 -3.03436900 -0.68815300
15.34950400 -6.56849000 14.61096200
16.03848800 -6.43808000 13.81765700
23.78512800 9.11811800 5.09685700
9.37742100 12.78305100 7.04030100
-21.01162100 10.56089000 10.79240600
6.16391000 -4.67126800 -20.06423600
21.99322100 1.78000600 -4.44434600
20.70794700 12.76109700 8.79554900
12.25429300 -9.57066000 18.09941500
-14.03952200 12.57811000 0.09795900
-9.33065400 12.62351000 -5.98093300
11.27454500 -5.17971100 17.89160500
-10.31310900 -6.97252400 17.95707700
-17.28009800 -5.38233300 -11.13980500
-2.60359400 5.25805600 -23.74711800
17.62660400 12.84293000 3.69776300
-0.25223200 12.76028100 -22.27710300
16.07242600 12.79229500 3.34341100
11.07063900 5.50286900 -21.28830700
1.31785400 -10.92088500 22.20550500
3.64903000 -1.29189000 21.35700800
3.88849900 -11.01039900 22.01599300
2.06601700 -0.18824800 21.76302300
16.03858000 9.64010800 -18.10344700
-18.73162300 -1.46630300 -9.91187400
-16.42867700 -8.23151600 12.64942500
4.02558000 12.68188100 22.12924000
20.83092700 11.45016100 -11.06021600
-20.48837300 -4.38153400 0.78284300
-21.05689400 -10.08816700 2.44327400
-19.15942800 -2.23930700 8.72149100
20.74117700 -5.49735500 2.64127200
19.73201200 9.03802500 -14.20014200
-18.84079200 -2.83054300 9.02794300
13.56873400 -9.19456300 -16.81736800
-19.93056700 0.30447100 8.41806900
21.82542800 2.35918400 6.26450800
6.83950000 12.74590500 -6.82567300
21.79197300 4.09162400 -8.79089500
18.77135300 -3.59400100 -9.51424200
7.22190300 12.77254500 -8.76832400
-21.43139100 5.79519300 -10.59658400
-1.43364800 12.71115500 -10.95274600
-4.52946300 12.64543000 -7.41911300
2.68736500 -0.54667500 -21.54854200
-23.57964900 10.14536300 2.72361600
-23.70903600 9.93434500 2.04438500
15.29602000 0.02716400 15.77745100
15.87102700 -1.00553400 14.82647300
-17.05528800 10.50125300 16.43941700
-16.91034300 -2.13587900 -12.73824200
-17.50894400 10.67076700 15.85436200
-16.40172200 -10.55859200 13.92362400
-7.16710800 -6.42258900 19.45381500
16.12145200 -3.40211400 13.85729300
17.59738500 -5.42754200 11.56268100
-11.42263000 1.71940100 19.14633400
-16.74301000 12.61356000 -8.29241200
15.35063400 -3.89449600 14.60020900
-16.71954200 12.62006000 -9.77324800
-20.47490100 5.96307900 -12.44368600
-14.00386400 12.63511700 -9.28494900
-19.85343000 -6.90520000 -5.09458900
-19.93444400 -2.24616900 6.72966600
-3.24157800 -2.00370900 -21.26474000
20.30203400 12.85010900 5.43183800
-4.24379600 -1.68749500 -21.11116600
22.57889000 4.06749600 6.54860400
-22.98077800 6.07081500 -6.79357100
-3.26819500 -4.70187800 -20.73666600
10.54805900 4.06847500 -20.96326400
-10.67177300 -2.80815100 18.13294000
-0.84164700 9.44891000 -24.14816300
-11.54755000 -3.82875100 17.26536900
22.16371200 -10.58860200 -1.48955800
9.08314000 7.62412100 22.67019800
-12.42287900 0.71802900 -18.13509400
17.69364400 12.76835400 4.74573500
-6.63574900 12.60089500 6.40989900
19.94672800 -0.96848000 -8.19014900
-12.70236500 -7.08953400 -16.50787200
4.16632600 0.58856200 21.73739400
-7.04055800 -10.02069500 -20.55578200
19.96504200 -3.41296400 6.89003900
-4.63244100 8.21230300 23.85281600
20.47111500 1.25903300 -8.64896300
22.87966000 8.92832600 -8.28987100
4.70362800 -1.92080900 -20.99488400
-8.70164100 7.68292300 22.66034900
-18.19160800 -6.25109000 9.33167400
5.54391000 -4.14506700 -20.29887600
4.04129300 -6.75242400 -20.67034000
-16.71303900 4.64824200 16.64539900
14.18371900 -6.08438500 15.69464700
-14.33539300 -10.06723000 15.82436200
-15.92777200 -8.87802100 13.52189500
-16.05231100 -9.93305600 13.90813300
-21.17962600 -0.39198700 2.99906300
20.83192300 12.54252800 -9.63501000
-20.47699500 -7.08432900 -0.61342300
18.84440800 12.79605900 -12.42723300
19.66264200 12.79591900 -11.11709100
0.92176100 -10.17485600 -21.89820100
-0.76217100 -9.16230200 21.39959100
-17.72360400 2.67468900 14.20681700
-21.02253200 -0.77875400 -3.19884300
21.83843800 -10.42633600 4.00306500
21.79358500 -10.59489400 4.85519900
-6.27018200 -2.88315300 -20.30445700
-9.80593200 8.58527000 22.13983300
20.01256800 12.61523600 11.10455400
-22.05718400 8.84975100 9.57540400
20.06593100 -5.20638100 -5.80179500
-23.31860200 10.40904800 3.98841600
9.56523400 11.09718700 21.71548500
17.92570900 -8.49796500 11.93499900
-17.45299900 -7.46051400 -11.12584800
16.74608000 -6.53615600 -12.70158800
-22.29596500 7.35748300 9.18426600
12.74852500 3.25077500 19.47708100
9.40627400 -0.56959000 -19.51721200
0.98292600 11.38399500 23.47900600
4.60476700 12.68937500 5.07517900
-10.60904700 -10.24564400 -18.97020700
18.14377600 1.75347800 -13.17458100
17.35956800 8.24060800 -17.09557700
0.09393900 12.69991300 16.80656600
4.69424400 12.76677900 16.80768800
-10.47538000 1.63310300 19.64237200
6.81527900 -9.01880100 -20.39448500
-10.01743700 0.88993800 19.54009200
21.24722500 7.01354900 -11.85265100
-13.69145100 -7.93896800 -15.83722800
-3.02159300 1.03231100 21.95626800
-2.86961500 2.26415400 22.50632700
17.91746500 7.59994400 16.60229100
17.85027700 6.92180900 16.59872200
-12.88885200 -8.87172900 -16.80464900
-24.02368400 6.51341100 -0.26953200
-21.39270800 12.40624200 4.74834000
-16.77575100 -5.66244600 -11.91174100
-20.26152800 12.47618100 6.96461000
-18.50804100 12.54382900 2.74046300
-7.20358000 12.43000000 -21.62505000
11.49043700 -3.75192900 17.88918700
9.30143900 7.23646200 -22.47189900
-11.33914200 -0.19586700 -18.51579300
0.44592600 -10.74539600 -22.19929900
-17.81443600 12.53166600 9.88381000
-13.54314200 10.75918600 -19.40232700
-12.95935200 11.93613200 -19.06360200
-11.46908400 12.67528500 -17.88279200
-9.13239700 12.63018600 16.32156800
15.75282600 1.07671400 15.78247600
-12.07856100 12.61017400 -18.85298700
-12.00534400 9.00003200 20.93415300
-13.31088500 12.59904300 -17.79160500
15.82090300 -4.28713200 -13.81966000
20.25186700 12.85673300 -8.24713500
-5.82257100 12.65668700 -21.72050700
-21.91585000 4.66586500 8.64945600
-16.03503200 12.52497500 -15.74517600
-6.25992700 11.41191300 22.54309500
9.30089100 -6.68248400 -18.81455200
13.33998300 10.90561900 -19.71254200
-7.43709300 -5.18328900 -19.50651700
-18.06240300 12.54489700 -12.67454900
23.29244600 8.99125900 -7.04436500
-19.90212600 -4.65891400 -4.87247500
20.96441700 -9.72707700 6.29767500
-18.82696000 -6.28367300 -8.11283900
-1.75292100 -2.06532900 21.34807800
3.96683700 12.77288100 18.65167600
-18.88557600 -3.86088300 8.27043200
21.00432600 -8.97560500 -4.43812800
0.02672000 6.35946800 -24.17017200
19.78005800 12.38042800 11.76929200
-2.69657400 12.02467700 -22.95246500
-23.89785200 9.26007800 -1.85773100
-3.52966600 11.12521000 -23.33234400
-22.45497100 11.17954800 6.24858500
22.91739500 3.27244800 3.26458300
20.63288300 2.75487800 -9.90957500
22.62482500 12.07777000 5.39358200
-15.32719600 -5.80482800 13.61950500
22.40161100 1.82136400 -1.57079900
3.16114900 -10.63530500 -21.95131900
-19.58600000 10.92065400 12.96406800
-20.02599300 10.01542500 12.88791100
-11.94145400 6.64414200 20.99973700
9.05619000 -1.85852700 -19.48028400
-11.65643600 5.13526800 20.80167200
-17.49368700 0.64407400 -13.05323000
-11.83997400 5.77121900 20.86180300
-9.13858700 6.23911500 -22.30147600
21.89481200 1.53997300 4.43490000
-20.56316900 -8.01782400 1.50627500
1.84994300 1.62696900 -22.32758900
21.90945100 0.96210000 3.01477300
-20.63459000 -8.70522900 2.30148200
18.80075500 10.42550700 14.82603500
2.47863400 -9.21101200 21.37096600
2.21861800 -7.36650100 20.98565900
-22.21858400 8.19561400 9.36386500
19.55870600 -7.56610300 -7.99856600
23.85210200 5.06142000 1.41883600
20.72489000 -7.00848600 -3.45661300
-18.94370100 9.79635600 -14.58779300
9.57256400 -2.31602000 -19.01244700
-18.24820900 -0.37936000 -11.29639800
-21.09107400 3.97905200 9.87447700
-7.66619500 7.93983200 23.03365900
5.67667900 4.19866000 -22.84306000
14.00362000 -4.08752000 15.90345800
10.56156200 5.95317200 21.78805700
21.46261600 12.64830400 7.08964800
10.41238900 5.49685200 21.73842600
16.70105700 -10.36216900 14.74700000
21.15268100 12.67520700 7.01873400
-16.59480700 -5.52856200 11.99848100
20.99964000 12.73171600 6.84752800
10.89552700 0.60144700 19.36764000
21.45232800 -0.49869000 -3.03494300
-20.28434600 -5.71603000 2.21766100
12.94781200 11.56045300 19.63691100
21.72862200 0.88582300 -4.01292500
-19.37620000 2.13318300 -11.32067900
21.44280100 12.82073200 -3.39391000
20.97412300 12.85353300 -2.92764300
22.76186600 5.47778000 7.75727900
-9.49693500 -8.45311400 -18.91200400
-21.84149600 12.27843300 5.60817200
-9.41566000 -7.04479900 -18.67326700
-16.43906000 -3.76129500 -12.68387000
-17.23071300 -3.08622400 -11.84580600
21.17670100 -2.66029900 1.94544800
-18.13221900 -2.90259500 -10.45810500
11.15000000 -8.28638500 18.35137700
17.32157900 12.53859900 15.03929500
10.98309800 -1.81405600 -18.47283200
-17.19165600 -1.38158100 12.37857500
9.85927800 9.04719000 22.25702100
-11.07083000 12.50709200 19.53648200
15.40517600 8.94311300 -18.80372200
-21.40428000 10.32774000 -10.19137100
8.62484900 -10.37938500 -20.30381000
20.67462900 7.46614900 -12.88040900
-13.57086100 -2.88407400 15.97872400
23.42907300 4.81341300 -4.18207400
-12.84752800 -4.65855100 -16.31349400
20.60265200 -1.77032700 6.14686500
-17.86226700 12.32768200 13.87584100
-20.40774500 -5.83137100 0.19072300
-18.05266800 12.04728300 14.05462600
22.27333300 10.54388400 8.88276500
-17.62011900 12.28808600 14.30062100
19.74343300 10.61297600 13.55792900
9.71899300 -4.21178600 18.85009000
-9.17069900 -2.99785200 -19.07798400
21.17170300 -0.49262400 4.59550500
-4.61225100 4.79512200 -23.28237000
-19.50823800 6.94917300 14.18242100
-20.47061900 -9.50721000 4.56276100
17.45575300 12.77776300 4.25616700
-18.85652500 -2.20068200 -9.45065000
21.42941100 -1.83856700 -1.39805900
20.95798700 -1.93255900 -4.55441700
21.04081500 -2.56763300 -3.21838100
-2.25801600 -10.03462800 21.58079500
-23.89610100 8.70494100 2.78334000
13.82283000 9.22907800 20.02022000
-17.18167300 12.59122800 -12.73368900
13.74723100 -9.14410800 16.83158500
9.00143600 4.26792100 21.91299800
-21.34270100 1.71087700 6.10202600
15.38773400 -10.14751400 -15.72936100
4.88133700 8.29403100 23.88847000
17.88794700 8.71235300 -16.50490600
-1.32538500 -7.57667300 -21.11217100
10.46232400 12.79014400 4.41829000
18.59329600 -11.57497400 13.66776700
10.51386500 12.79352800 5.83127600
22.23441900 -10.59886000 1.05663800
22.02407500 7.58947500 10.50377400
22.28766600 12.71909300 -3.73668300
12.25194800 12.80999400 4.37573500
-13.48687800 4.13792500 -19.17608800
22.65645000 12.54120300 -3.57045100
-20.67633800 12.51994700 -1.39366900
22.49313000 12.67844400 -3.23491200
22.51182900 12.73405800 -2.27951500
14.94108900 12.84667600 -2.92750400
-11.50327300 12.69250100 -14.96761100
22.19827800 12.78708600 -2.66786000
17.60284600 -6.12924400 11.63295900
17.07066700 3.15186000 15.66937100
17.67613000 4.04121100 15.56220200
18.49938000 -8.50771000 -10.70048300
13.15464800 -6.03795400 16.57290600
21.97113600 3.84175200 8.10669500
-18.41696500 -7.65898800 9.17178400
-22.62238100 12.15731200 -2.30776500
20.06163000 -1.89893200 -7.60811200
-16.28369700 10.58248300 17.16974400
-22.90598300 11.69532400 -2.44928500
-20.10199500 3.03481800 -10.91765400
2.68802500 -5.42461100 20.81032000
9.62912000 8.52956800 -22.33740600
-14.34522300 -7.01284000 -15.00566500
-16.51667200 2.09330600 15.17188300
0.03875300 7.12840700 24.33139000
5.62283200 -10.65367700 -21.47708500
14.70754000 12.84987400 5.46364300
11.29857100 -4.61881100 -17.68903700
20.74693700 10.31595000 -12.12791500
-3.03173600 7.68203100 -24.12503400
9.83379900 11.31699800 -21.44035500
-19.96608400 -2.99183800 -5.99019200
-12.11960300 1.46514500 18.57576800
7.61459400 -7.20275400 19.80970600
-19.71164300 -2.13636800 -7.47929600
11.40089000 -0.08369600 -18.57366000
-22.12859300 2.84831300 5.35980200
5.68047800 -2.51708800 20.74898000
5.06112800 -9.60888900 -21.11275500
7.61933700 -9.29711000 20.28387100
-19.47803900 -5.57560200 6.11875000
-19.71056000 -5.50014100 5.31507300
-16.18570900 -8.31848700 -13.24964100
21.62669900 8.97431900 -11.14299800
3.97210400 5.72378700 23.78688800
21.10737600 9.03224200 -12.07609700
-22.80194700 9.51225500 -7.24235000
-20.35783000 12.49117700 2.55753400
-0.34215800 10.39706400 23.92101100
-0.79794100 10.52698900 23.90153700
21.16373300 12.80248300 -0.39340600
-0.57613900 10.78896900 23.76582000
20.12070800 12.86417400 -1.11608100
11.45712200 3.06356500 -19.97537600
-1.03471400 10.67817100 23.79195400
-11.28158900 -4.98467100 17.28226500
20.16775700 2.81291000 -10.89626100
-19.87674000 -10.79302200 -8.66728200
23.96767400 6.84463400 4.15235100
-19.49767700 1.38516900 10.33607200
21.64334900 -9.94968000 -3.03329200
18.58990100 10.54059600 15.13019400
-6.34827900 -5.57368700 19.72011400
-22.77974900 5.80648700 7.19533600
-23.26994500 8.55868000 -6.22973700
-12.43213200 -6.02638200 16.40435000
-21.20063000 -0.82946700 -1.43437800
22.79136100 10.31163600 -7.67077400
-21.59448800 0.27222900 -0.26409700
20.99284900 -3.51637300 -1.57504500
-21.38349300 12.45813000 -5.54875100
-21.12619000 12.45071800 -7.11638200
12.08208300 6.57243300 21.11327600
15.03554600 12.85867900 -15.18694400
11.49962800 7.05819800 21.52102700
20.12979100 12.27393200 11.38635700
11.73790000 6.63012100 21.30274600
11.49309300 5.67507900 21.23601000
16.86828200 6.32486200 -17.33113700
14.57785100 0.88911000 -16.60662500
0.75279800 10.80288100 -23.75874900
-17.75568800 -2.89220000 11.00720500
16.87472900 8.34113900 -17.55527100
2.12658400 10.91842100 -23.64406800
-21.54183600 0.79801000 -3.30068900
18.79609700 -0.84445700 10.76735900
-18.51812900 -8.81584000 9.49445900
20.31682400 -9.81870700 -7.96017600
5.89099900 -1.48657100 20.89116700
-5.09751500 7.37382900 23.76053800
5.50187900 -2.00340900 20.92854900
-5.73932900 7.45118400 23.60585800
21.28233100 4.02271600 -9.89287100
19.91589500 12.84685500 8.56531200
20.77553000 12.81052000 8.06548500
-3.84550000 10.13391300 23.65010500
16.71423300 -8.75508300 -13.45980600
4.74317900 11.91057600 -22.75644500
20.37181700 12.78663600 -4.54189600
20.29631200 12.87305500 -5.49284400
19.49050100 12.85871900 -5.36451600
19.83867500 12.86400800 -5.91810900
-17.75011300 -9.34255200 -11.46349000
-1.55538300 2.08436000 22.57152900
22.03377300 12.82738100 -1.55477000
-10.73981600 2.81402500 20.16006300
22.58223300 12.74593900 -1.31573500
12.98155200 6.88120700 -20.52264200
14.46788700 1.82226300 -17.16748800
21.76509700 0.03495200 1.38434100
14.17148500 9.11319200 -19.72443000
-20.01419600 -0.97593400 7.09758500
-3.87775400 -4.87756800 20.44659600
-21.15693100 -10.63698600 -3.84389200
-9.28071800 0.36280700 19.67230200
-15.58800700 12.53460500 -16.18212900
-10.68211800 6.29648500 -21.60757300
0.40351800 -6.50685900 20.96197100
3.11560200 12.68025200 0.17654900
-0.67662500 -7.44605000 21.02213300
6.75653500 12.72374200 -1.07506100
-3.28747400 12.50137300 -22.54315200
-1.61976800 -7.51858700 20.95078700
-16.44764700 -6.24991500 -12.41437500
4.03832100 -3.55204500 -20.75845900
-14.07947300 2.89417900 18.00361100
17.13787300 -0.93520000 -13.11780500
19.74369600 -5.87674600 7.14149100
-20.09725800 5.96373400 13.03444300
-22.77230800 11.34667600 4.57341300
3.12009200 8.99212100 24.09854100
19.02530900 -9.84203900 11.07956400
-14.49413300 -1.82801500 15.44733400
22.31522400 5.89199400 -9.15322800
-15.18378300 -2.19731100 14.68796400
-9.22507100 10.70626300 21.83644500
22.87104000 12.33477400 -3.16869000
3.12996500 -3.59483700 -20.91519200
-21.10649300 -1.28116100 -1.30700100
22.28873400 12.77124600 1.79301800
21.84525900 8.49666400 -10.81011600
7.91687500 12.86823500 -18.65063700
0.20862700 5.19197700 23.93302700
22.13578800 12.81724500 0.41349800
12.74454800 -5.32507000 -16.66163600
11.30242400 -2.50689800 -18.04035600
20.22427400 -9.05902900 7.73960900
-10.83752400 -1.30456200 18.35661700
21.65591800 12.83712400 1.09905400
22.21941200 12.80997700 1.02980100
21.40248300 1.48671100 6.33988900
-14.70438100 12.42758200 17.03333700
-15.79371300 -10.35047300 14.48596800
-13.75543700 12.53396800 16.75648700
-20.88264800 -1.11940700 3.62510200
20.85629800 12.72284100 6.14285000
20.55378300 12.84685500 1.48651400
13.53803600 -1.95453700 16.91423000
9.34783100 -9.72639100 19.76073800
19.84484300 1.21983700 10.05617600
-13.90465500 10.61517700 19.16753200
19.91851200 0.13320100 9.03408100
-0.78516700 12.68927200 15.67903700
-2.02832200 5.76368700 -23.94701000
20.33015300 -5.51553300 -4.79010800
-23.24285700 6.59508200 6.14067500
-15.30741300 -10.69977200 -15.56415700
19.88316000 12.87083100 -3.81371100
-11.02923300 12.59063300 -0.57356800
-14.78676800 -10.15094200 -15.70442500
24.25137100 9.53019000 -0.13071300
18.57970400 12.89283000 -4.99714300
-12.39876600 12.58061000 16.87309300
-19.57434300 -7.22671900 6.08398400
19.27809100 12.89144300 -5.15635900
-12.82186300 12.59094800 14.32723700
-12.59929700 -3.74650100 16.50353100
17.04426000 12.87195600 -5.32141500
-6.07750400 10.04424300 -23.19923600
18.11116800 12.86195200 -5.41952000
-1.40718300 -4.29430100 -21.00011800
17.66814200 12.87674900 -4.25730500
-14.21301400 7.31664800 -19.60461400
-13.09667100 -1.25987900 16.77018400
11.86480800 12.79761100 18.78959700
23.17865400 7.37764400 -7.48927600
6.32314800 -11.22654700 21.64757500
18.02101900 -2.62314200 11.50447000
5.95706200 -10.63207800 21.38109200
-6.90369000 8.53307500 -23.25081400
-4.54217700 -10.14318700 21.21473300
-19.17409100 12.55674000 -0.40284800
12.13292300 -6.71649600 -17.21660600
10.85861000 -6.73109800 -18.03001800
12.90251800 -6.74728800 -16.65181200
21.82140200 12.53516400 7.04865600
3.72210400 -0.58709800 -21.37867900
-18.03860700 3.64496300 -14.56900600
20.55688500 -1.40292900 -6.33616600
4.80303000 0.22282700 -21.38140100
19.68904300 1.67788400 -10.66531100
19.31410200 -6.03469600 -8.05349700
-15.50295800 4.60996100 -17.80786300
16.72497700 -10.29837000 -14.41605100
-22.61479900 11.12159200 -5.77033000
21.52373100 12.64454700 7.48369400
-22.52492000 10.68800200 -6.86669600
1.80097400 -6.80213600 -21.00015300
-13.59915400 -8.42830300 15.82015000
21.07204600 12.03602600 -9.86591100
-12.36876000 10.46837800 20.28177600
-23.16302900 4.70448200 -4.28663600
-20.95824400 -2.22280200 1.81244100
-22.41238800 7.97611900 -8.95550700
-6.02852600 6.71997100 -23.43931400
13.17370000 -0.63740900 -17.17883700
14.56892300 -1.40643200 -15.85240700
-13.46016800 12.40465200 -18.29504400
-17.99971400 -6.93704000 -10.02127200
-22.07189200 3.28668900 -6.35701300
-22.47868500 3.58745200 -5.29905000
23.71828800 10.25149200 4.11004300
19.72195600 11.34540400 13.02866000
-13.31237300 8.17637100 -20.23352200
23.73465900 11.18397500 -0.28785500
-11.60665100 -4.92506500 -17.23627300
7.64991900 6.44964800 -22.97055200
-11.71009800 -2.90108200 -17.59516700
-11.69988300 -3.70319000 -17.35481600
-0.10201100 -3.72364600 21.09084300
-2.47376000 0.29592800 21.77774800
21.82479500 12.69833000 6.33395300
6.19474500 -8.41328800 20.48675300
-21.25578500 -10.30781000 1.34188900
-21.23229800 -10.13616000 0.18078800
-8.90415100 3.85163900 -21.60118300
-24.11193800 7.91746400 0.17224300
2.72021600 4.07100100 23.38955700
21.48875800 0.05021500 3.75189900
16.84825500 10.93842900 -16.81353400
16.13522000 11.46687900 -17.14755600
13.95784400 12.84040100 7.40641000
9.39805500 -10.55841300 20.15609400
7.42084000 3.92088900 -22.21643600
16.15988500 4.93377700 -17.49192600
14.01290400 12.82759900 6.89619500
21.08023500 -8.68669500 3.99688000
16.87968400 4.98125500 -16.82282300
-15.42516500 -7.05387500 13.61635500
13.48837500 12.83774600 5.99433900
-15.70695700 0.38118100 -15.09588700
-14.38029800 -8.13563500 14.99136800
-12.35300400 -0.95417400 17.42047300
18.96854200 10.61883000 14.60528000
13.35435000 12.83379000 7.08740800
-0.41653400 -9.15954600 -21.51668200
-10.76064400 -2.08644400 -18.46662300
11.86226700 -4.07674300 -17.37034800
16.61564400 5.49970500 -17.31323600
-20.16762000 -5.88517100 -3.19784200
-6.54664900 5.65282200 -23.07403900
15.66981900 -3.50290700 14.34668700
15.17208300 -1.81535400 -15.21902300
20.62165300 9.34222400 -12.79483600
-22.57100500 5.15558700 -7.33062000
13.41879600 -2.37341100 -16.61016100
20.47183400 -8.46296700 6.34245800
17.36993800 10.44886000 -16.52744300
11.08215200 7.92712300 -21.68618600
7.73371100 -4.53054000 19.70578600
20.64487800 -4.60398600 3.47053800
10.26241300 -1.98626700 19.10941500
20.83956500 -6.10384100 -1.81272700
19.64225600 12.81458300 -1.15379800
-18.53732100 -0.54836700 10.62100700
3.27268600 4.45878100 23.47242000
0.92840400 12.80897700 -18.09931400
1.92892700 12.77841200 -16.66202500
14.65539800 -8.71171600 15.88833600
4.57923800 3.96288300 -22.99035500
15.31254400 -9.14584900 15.43750000
22.75979000 12.41311500 3.58966400
9.29441700 -9.92156000 -19.76413900
19.68530500 -10.57757800 10.70245100
-8.34319300 -0.60952700 -19.97945800
-0.71480400 9.34077300 24.19229100
-4.25665700 -1.18287700 21.00701500
18.18473400 -10.72002600 13.25205500
12.86284600 1.87495000 18.65550400
3.45708600 -5.23018500 -20.70860100
-21.42497800 6.56141400 -10.95789300
17.21956400 -2.55054500 12.74730200
15.98243300 12.87800400 5.62928900
-20.11432100 -7.19475400 -4.06595300
15.69370200 12.84170200 5.33537700
-12.32088100 -10.25921600 -17.86374900
18.20583500 -2.64793200 -11.00216500
19.90996700 -1.82340400 8.17232200
-19.31230000 4.71547500 -13.59186200
-22.66089400 2.76199800 1.54181600
18.02410300 -7.13467200 -10.92394200
22.94113500 12.39682200 2.17951200
19.90458700 -2.54315200 7.69059600
-19.16569100 3.90896500 -13.23198500
4.89668100 -1.26682900 21.14416900
12.88842200 4.22438200 -19.68734200
-8.50090900 9.31687400 22.57357200
14.30089800 4.89697800 -19.02067200
-4.15742400 12.65522400 15.27011300
-6.92926200 12.63853300 15.89297500
21.10458000 -8.16748800 -2.39150500
-3.78494800 2.90705000 22.66630700
24.10378800 6.05504600 1.88794700
-16.60762800 5.20103200 17.01357500
-1.89508200 -0.79563200 21.54029700
-7.17535700 12.59258700 2.77259300
-23.93993400 9.11851100 1.61622500
6.26683300 -9.15974200 20.66731600
6.88368500 1.37204500 21.37315000
-5.18916200 -2.01794100 -20.84977000
14.00953400 12.80983200 4.69918600
21.87109200 12.78782300 -5.59996200
22.05158000 12.74022300 -5.29314000
16.62884900 -10.59881000 15.03685600
13.31316400 -10.37074100 17.81308200
21.05131700 -1.34308100 4.50955600
-8.34025900 9.20082900 -22.66969900
-10.11031500 11.78375100 20.81843400
-12.76064500 -8.97008900 16.70537600
-0.72868100 -1.95445500 -21.51312800
-20.31051800 7.90060900 13.05898300
-7.17141200 -2.81651700 -20.00861900
19.64524700 12.69697200 -0.47398500
22.08016000 12.61391600 -5.97608600
-7.33735400 -2.01960300 -20.16070900
12.26584000 12.80435000 2.89751300
21.44648900 12.79944000 -6.85758700
21.67125100 12.80044400 -6.16133000
-15.73107100 -2.88334900 -13.93225100
13.51930000 12.87928600 13.26208700
14.62551500 12.85091200 15.74408900
20.92062400 10.63929000 11.65853100
2.28538600 -10.66283400 22.00257100
19.07526000 -1.44666600 -9.93295700
-9.52173500 4.33900500 21.51069300
-8.79101400 7.79075400 -22.61178000
-20.35081500 8.00545900 -13.03210300
-20.26457600 -4.79542800 -2.85918800
-19.56195800 -7.93889000 6.47335300
17.39483600 12.77354400 -14.52782600
0.34292800 11.29451200 -23.54213000
17.21649400 -3.53021400 -12.16938000
-14.87243000 4.04998000 -18.06429500
-20.31872000 0.99206900 8.16012000
-5.06356300 11.18902600 22.97411200
-12.45984100 12.57434300 4.75931000
-22.89556900 6.55480700 -7.38249800
-9.13461900 -0.74681000 -19.57869900
21.60800400 -0.54646800 -1.41843800
20.64205900 -7.66712800 -4.50585700
19.17924700 -9.18800200 -9.87234400
20.41895300 12.81711600 9.12728600
6.87063200 4.79108800 22.85195900
-14.51931700 5.51408900 -18.99272500
-18.06428700 10.76682700 -15.17261000
20.43655800 4.96401600 -12.28683900
-19.68453600 -9.53647400 -7.63120600
-18.47158600 -3.86824400 -9.26896400
-11.70156100 -10.96722600 -18.74440600
24.32219700 7.00412400 0.74940700
-4.48620600 -11.14193000 21.79329300
-11.48679700 -8.36501700 -17.68789300
-21.17159500 4.79560700 -10.47500600
23.75071000 11.03620500 1.52334700
-23.66541100 5.48738900 2.56610800
21.22353200 -0.02765400 -4.96800000
19.70590800 -4.58721100 -7.03140700
24.03275700 6.47005700 3.29820900
-7.78818900 5.75442200 -22.70639200
6.33081600 -1.91888500 20.72382900
2.65355200 7.82637500 24.23299400
-8.64532500 12.31619600 21.12107100
-21.03812200 -2.18362500 0.27539200
22.22870600 2.23425900 4.29816500
-13.72754600 -8.49958800 -15.96700000
-7.37187600 12.34137900 21.59796700
-21.96245000 9.03599900 -9.79357100
15.63707400 -8.81682200 -14.73268000
-22.43565800 12.35672400 0.53242100
-3.29668200 12.62661400 -1.16650400
7.12120300 3.00982100 -21.89473000
-20.29871400 -4.95067600 2.42174500
7.78675900 10.94463300 22.45951800
18.49886500 12.86183700 1.95505700
22.45182200 12.67520900 3.43371300
22.65569300 12.60705400 3.19078400
-20.62698200 0.04575900 -6.18804200
-8.03091000 -7.60629100 19.24067900
21.29158000 -10.06778300 -5.23061700
-2.97035900 12.65131800 -7.10887800
3.37982200 -9.24776800 21.27955800
-3.19627900 12.64843900 -4.85149900
3.21666700 -9.93546500 21.55510700
22.54232200 5.38218100 -8.18822300
-4.39663200 12.62028500 -1.97699500
21.55394900 -9.86639200 3.90665800
-5.29782800 12.63033300 -4.90912600
-2.69947100 -9.86020500 -21.58134300
8.86245500 -7.99645200 -19.29052200
19.86323400 12.87820200 -4.85922400
17.05950400 3.07299000 -15.48651700
-0.90416300 7.25897400 24.31617400
3.19146300 12.67568600 -1.97065300
-0.50940200 7.52931600 24.34816700
-13.17152500 -3.81257700 -16.18358600
-20.17209600 11.03416600 -11.86279500
20.54877100 12.85866200 4.49888600
20.34217300 12.85441800 4.25454100
11.52865400 10.30758700 21.10196500
-15.53607800 0.29382000 15.11921700
11.38287500 12.78458800 5.08223200
11.76587700 12.80704300 5.82978100
18.10428200 5.04402300 15.65050300
11.29839700 12.76243800 5.28138200
4.21472700 -7.09406700 20.70348200
-2.50151800 -9.34628300 -21.41819400
-20.63976500 -10.57329200 -6.03684400
15.47409700 -5.79132600 14.37590500
-15.93478400 3.84817000 16.95282900
-10.66649800 -9.71054800 18.47979700
-23.82765600 6.29756600 2.82596500
-21.71964800 11.87658700 7.37878000
22.62534700 12.73247100 0.98618900
-7.40421200 10.50511700 22.61547500
-2.25311700 1.38796700 -22.19386700
21.51763500 12.81515500 -0.51559200
-8.95619200 -10.08206400 -19.76573800
17.35914800 1.62407100 -14.10620700
2.37660600 12.67710100 8.78824600
-8.34451600 -9.26278300 -19.71120100
-19.68437400 12.53031300 2.74345400
5.91897500 -3.66513000 20.41007000
0.41717600 12.02726200 -23.13394500
15.35220400 12.32508500 17.22711200
-0.15724900 12.49322300 -22.82368700
11.45072500 -2.70677600 18.19871500
-19.57592400 -5.61707600 -5.91237100
20.42884400 -5.08179600 4.55594700
19.36205100 7.76457300 -14.80795700
23.90066100 5.11149400 -0.59581300
13.46989600 3.08374200 18.88880300
10.10230200 -10.09747500 -19.46161700
20.87122300 -5.86103500 1.23082800
-22.27334400 12.35919000 2.90360800
-19.77720300 11.58613200 11.99966700
9.49637100 -6.39666000 18.92645600
-17.66975000 -8.19755600 -11.02424000
-19.84809900 12.19037100 11.10749800
-8.98138700 -10.02577400 19.54940400
3.46408300 2.34725900 22.53846500
3.10535500 1.34216700 22.15220500
-19.64144700 -1.25877100 -7.96598400
-12.35323500 1.97721100 -18.79699900
-8.06854400 -4.82392400 19.08034700
20.93580100 12.84211700 3.70809100
-8.01516200 -5.72382400 19.06712500
20.80543900 12.84368300 3.48424500
3.57714100 5.38827000 -23.68702700
-17.56695900 -6.28240700 -10.68947500
20.93355600 -0.51935300 -5.56000700
8.25322200 12.83048400 -20.23298100
-8.44497100 0.20148600 19.90394800
-18.80780000 12.27049100 12.69086100
12.25226300 -7.04149300 17.37708700
-7.73958300 -1.47136300 19.74855800
-18.65374400 12.19953200 13.06042200
22.46178100 1.88589200 0.96967300
-18.92248700 12.39476200 12.19126800
-18.93375800 0.31988200 -10.54852500
-5.25745100 -1.14178500 20.71846600
-18.53098100 12.42312200 12.55409600
-16.30298000 6.42540300 -17.73176800
20.86235200 -7.89050200 4.02063100
-5.74107800 0.65978600 21.15173100
4.23975600 -9.23623500 21.14629700
17.15976300 8.86183400 -17.23497600
-13.20332500 -4.78628900 15.81419400
20.57653800 12.84681300 -3.14868100
-20.12783200 -5.52560300 3.38966300
20.36873600 12.86856800 -1.63062100
-3.13079700 -10.11642300 21.48712900
20.65594500 12.86596900 1.99268500
21.40994300 12.67725800 5.83113600
-9.81921600 -3.85888000 18.34037400
23.36114300 6.30145700 6.48549200
21.83536900 11.32230200 9.09289600
-5.41870300 -7.82147600 20.24719600
-12.64215100 -2.13844800 -17.16330000
8.64721200 11.39278600 -21.89996000
-22.00967200 11.54209700 -7.07135700
21.90493600 7.49077800 -10.68565000
-0.24456100 -6.09771400 20.92296200
-23.10030200 11.54641500 1.01497500
16.29110000 12.78160300 15.74438500
-23.39387300 10.96541000 1.11875000
14.43758800 12.53558900 17.81989500
15.18820300 12.69092900 16.96901700
21.47786700 -9.96057700 -4.10903300
-19.10184700 -1.25363700 9.15778600
8.36049700 8.26190800 -22.85715500
7.48459300 7.54639500 -23.16648100
-17.89434400 11.23917800 14.98674300
-12.02140400 5.21592000 20.58391800
6.27271100 7.39466400 -23.51482200
-11.14803400 -2.11215000 18.04599800
18.85912500 5.00979000 -14.59865400
-10.08014100 -1.33247800 18.78620300
18.37245600 6.22216600 -15.72730400
-11.72335800 -6.03340100 16.94460300
18.54344200 5.23516200 -15.10381900
14.44400400 -7.07244100 -15.38725800
-12.47733200 -6.97210600 16.45241700
-15.83016300 8.86528800 -18.22134600
23.12823700 7.61040200 7.77580500
21.64636400 12.74764600 4.19334200
-4.95544800 12.61457300 3.21035800
22.24900600 12.63545600 -4.96173500
22.69592700 12.37033100 -4.16322600
-18.91843400 -9.18680000 8.88490200
19.26243000 -10.87262900 -11.46590900
-19.60240000 -9.49067100 7.48498800
6.81009900 12.69449400 21.50121500
-13.60102000 -9.99543200 16.45242100
10.07385700 -2.85013400 18.96650100
24.27919200 8.47454500 -2.19342900
-15.50077800 -4.93989500 -13.63327500
16.12109600 12.81175200 4.71738500
-12.41622200 0.79388600 18.05313700
-14.17935800 -4.67660500 -15.10404000
-24.04236600 8.00988200 -1.82337100
15.86193000 12.84567100 4.51243600
-7.62719900 4.57586000 22.38259500
15.78642200 12.83039300 4.83700200
21.86652800 10.61913700 9.79194000
15.43295500 12.81834400 4.72160900
-20.65135000 -9.02315500 -3.05282300
12.67569800 -0.17157100 -17.69600500
19.72999400 12.82885200 -10.42189700
0.19434600 0.56449600 22.05870400
-0.37340400 -0.37923300 21.77905500
20.42808300 12.59017200 -10.35367200
20.23504600 12.43623700 -10.95966400
-12.94838300 -9.74114200 -17.11393700
-6.29685800 -10.23188600 -20.91482500
0.74456300 -7.56587600 -21.15739400
-5.22647900 -10.26489400 -21.24861900
-3.37644100 -6.90213300 -20.76551800
22.30103500 11.06849700 8.23990900
16.72516600 -1.25519000 13.77137900
19.04083100 1.74183300 -11.83124400
19.76115600 12.04702200 12.26524800
16.28675100 -5.04959800 -13.18840200
-0.66077700 2.82011500 22.98138200
0.60830200 2.70906200 22.93510100
12.31639000 9.41566700 -20.85571100
21.69367200 -9.63534200 1.72662300
11.30679800 9.24146800 -21.45478800
-15.85108800 -8.15393600 13.36567800
-2.57275200 -1.26040600 21.34703300
20.27902600 11.38360600 -12.10933200
7.66735600 12.77237900 -21.20879700
7.50402000 -6.30878300 19.76515600
-19.94741600 -2.96976700 6.04146900
-3.68738000 12.58728800 22.23774900
-4.13883100 -4.85119300 -20.55318800
-3.23503400 -3.60480600 -20.87849400
-21.34317000 -0.47166300 0.79416100
17.22278800 2.16590800 -14.63602400
4.93280100 -2.67242700 -20.75287400
-18.51910800 12.31967000 -13.08022000
-19.79934700 -10.14411700 7.65492900
1.07053000 -9.86422200 21.68634200
18.61201300 12.86513700 -2.22802400
-20.49554100 -2.85618100 3.93842900
1.79487400 9.14926700 24.19880100
17.38770100 12.86148300 1.51382600
-20.42608100 -2.12507700 5.11755700
23.00240700 12.43380700 -0.99378900
1.90725700 12.65857100 3.00681800
21.61073700 1.67352600 5.87028100
4.32741100 2.16468400 -22.21526500
4.65821800 1.54029500 -21.87644600
1.34634800 12.65870300 5.38521800
23.59186900 11.40723000 -1.29802000
5.48184100 2.01808700 -21.88539500
-7.23634300 11.48963400 -22.22739000
21.40413900 2.14640800 -7.25686700
5.22943500 3.01523900 -22.43202800
-8.01185600 11.31435000 -22.04999500
