-8.13910000 -1.64640000 0.13970000
-8.99340000 1.47030000 -2.62570000
-9.10700000 1.64590000 -2.62200000
-8.83000000 2.61550000 -0.06650000
-7.73350000 0.30340000 4.62120000
-9.05760000 1.77460000 -2.63130000
-8.76800000 1.81490000 -2.70090000
-7.92610000 -1.31820000 0.82300000
-8.67120000 2.00220000 -2.59890000
-8.17450000 -1.67080000 0.71420000
-6.48380000 -1.98640000 -4.39030000
-5.91950000 -2.20080000 -4.37290000
-6.85820000 -1.96590000 -3.92070000
-4.61090000 -2.58090000 5.13180000
-6.80220000 -1.99740000 -3.63880000
-8.91210000 1.92750000 -2.51070000
-6.81650000 -1.79940000 -4.35630000
-8.94510000 2.46010000 1.12650000
-8.22850000 1.27960000 -3.90620000
-8.08330000 1.12310000 -4.31740000
-7.27170000 -1.70210000 -3.83130000
-7.51120000 -1.95010000 -0.59580000
-7.79340000 -1.85530000 -0.11540000
-7.93700000 -1.76850000 -0.38770000
-8.24790000 5.36070000 -1.25210000
-8.30970000 5.41540000 -0.55860000
-8.80170000 2.74580000 1.70130000
-8.91840000 2.48930000 1.39570000
-6.67330000 -1.93870000 -5.04660000
-6.57670000 -1.94290000 -5.17780000
-6.57430000 -1.88450000 -4.87630000
-6.66800000 -1.87220000 -5.36540000
-6.50740000 -1.87980000 -5.27840000
-8.98910000 2.59220000 1.22840000
-8.92230000 2.70440000 1.47170000
-6.71140000 -1.95020000 -5.25260000
-6.78830000 -1.91740000 -5.17540000
-6.65970000 -5.31350000 -1.32200000
-9.12010000 2.72380000 1.26010000
-9.12270000 2.73230000 1.09980000
-6.74930000 -1.82550000 -4.89300000
-6.84840000 -1.80380000 -5.11800000
-6.96930000 -5.50660000 -1.55790000
-6.78950000 -1.86570000 -5.31580000
-9.03980000 2.73780000 1.39080000
-6.74340000 -1.54290000 -5.28980000
-6.95010000 -5.32620000 -1.46190000
-9.15190000 2.86510000 1.28960000
-7.83780000 -1.75960000 -1.00260000
-7.59070000 -1.88080000 -1.44270000
-6.83060000 -1.67510000 -4.89110000
-6.82080000 -1.67470000 -5.23680000
-9.00680000 2.92380000 1.45010000
-6.88770000 -1.49190000 -5.00970000
-8.04260000 -1.76660000 -0.76160000
-8.03420000 -1.77260000 -0.98050000
-7.85830000 0.73160000 -4.81330000
-7.94970000 1.38750000 -4.66700000
-7.95720000 5.59390000 -1.25700000
-6.70030000 -1.78400000 -4.66280000
-6.51160000 -1.88610000 -4.63690000
-8.80240000 2.80750000 0.40920000
-8.01340000 5.39590000 -2.20730000
-7.40840000 -0.34370000 5.63870000
-7.75190000 0.56700000 5.30620000
-7.15000000 -0.12140000 6.05800000
-8.07270000 5.53350000 -1.91170000
-8.90490000 2.58020000 0.81110000
-7.43850000 0.51290000 5.74060000
-8.16170000 1.46460000 -4.16370000
-8.11520000 1.43430000 -4.37400000
-8.97860000 2.65770000 0.97910000
-8.86380000 2.83460000 0.78120000
-7.68620000 -1.54450000 -1.05440000
-7.22890000 -1.87780000 -0.39900000
-6.95480000 -5.19650000 -1.03250000
-6.81470000 -4.99500000 -1.66690000
-8.20530000 -1.71020000 -0.65210000
-8.34150000 -1.72690000 -0.70860000
-8.23870000 -1.86900000 -0.83670000
-9.00970000 2.90570000 0.90560000
-7.05750000 0.17670000 6.22930000
-7.26460000 0.46470000 5.97700000
-6.37620000 -1.86490000 -5.11590000
-8.52650000 -1.32430000 -0.56520000
-8.48440000 -1.56730000 -0.78450000
-8.18770000 1.71000000 -3.95180000
-8.22350000 1.74940000 -4.24040000
-8.26250000 5.52760000 -0.96330000
-8.22120000 1.62580000 -4.31930000
-8.39110000 -1.45860000 -0.32860000
-8.19500000 -1.64900000 -0.43430000
-8.77690000 3.11670000 0.84380000
-8.59590000 3.26740000 0.51170000
-6.07890000 -1.81350000 -4.43700000
-7.78240000 2.02770000 -3.37530000
-8.43290000 -1.41890000 0.10530000
-9.16100000 2.86400000 1.05150000
-9.03410000 3.01850000 0.97970000
-8.19200000 5.69260000 -1.61340000
-8.35250000 5.70030000 -0.75020000
-6.52810000 -4.87490000 -0.76260000
-6.73590000 -1.54170000 -4.23340000
-9.13310000 3.01530000 1.14350000
-8.89300000 3.14490000 1.09720000
-7.85620000 -1.34640000 -0.02750000
-6.87570000 -1.59910000 -4.74850000
-8.05660000 -1.27090000 -0.76430000
-9.11980000 3.01460000 1.28890000
-7.01180000 -1.43660000 -4.74960000
-9.01680000 3.08030000 1.31810000
-6.83240000 -4.83890000 -0.32810000
-8.70810000 3.21530000 0.96710000
-8.62130000 6.07740000 -0.47700000
-8.50320000 6.04490000 -1.24130000
-8.10430000 2.09210000 -3.82880000
-6.55140000 -4.86230000 -0.22720000
-6.59590000 -5.23660000 0.27570000
-8.66240000 1.21840000 3.11020000
-8.75680000 0.37170000 2.74470000
-8.56310000 1.09650000 3.40140000
-7.73820000 1.17970000 -5.00380000
-8.83060000 0.78360000 2.44790000
-8.76520000 1.29900000 2.57100000
-8.90220000 0.93050000 2.29470000
-8.12160000 1.51940000 -4.58290000
-8.05030000 1.64790000 -4.75250000
-7.93020000 1.53400000 -4.73920000
-5.23640000 -2.27440000 4.78730000
-8.89860000 1.17120000 2.22800000
-8.63970000 1.53000000 2.94140000
-8.93020000 1.40860000 2.46060000
-6.64740000 -1.20490000 -5.00630000
-8.85060000 1.65280000 2.58920000
-7.92840000 0.96680000 5.15040000
-8.07700000 1.05450000 4.83390000
-4.92040000 -2.13460000 5.66330000
-7.68100000 1.68690000 -4.94780000
-7.36480000 1.28660000 -5.49820000
-9.14590000 6.48200000 0.08620000
-9.02860000 6.43500000 -0.78700000
-7.26700000 0.76010000 5.99910000
-7.87390000 1.66970000 -4.78450000
-7.94760000 1.80650000 -4.76910000
-7.79130000 1.92960000 -4.73920000
-7.47010000 0.69990000 5.16050000
-6.42770000 -4.50890000 -0.32580000
-8.77760000 -1.14640000 0.06870000
-8.67890000 -1.12730000 0.35370000
-7.32090000 -1.76060000 -3.43210000
-7.70400000 -1.50940000 -3.44040000
-8.89850000 -0.95240000 0.21750000
-9.02290000 -1.06380000 0.08530000
-8.43810000 -1.66400000 0.84150000
-8.38110000 -1.77950000 0.98040000
-7.92450000 -1.36490000 -3.38820000
-7.69910000 -1.39780000 -3.82270000
-8.30550000 -1.53760000 0.61970000
-5.19870000 -2.53840000 3.11530000
-8.40660000 1.70360000 3.89050000
-7.75310000 2.13500000 -4.63850000
-8.24810000 1.59930000 -4.46790000
-8.28640000 1.60760000 -4.59530000
-8.42470000 1.39820000 3.91940000
-7.38370000 1.19790000 5.82990000
-7.68040000 -1.26460000 -4.09050000
-8.23200000 1.63200000 -4.72100000
-8.28690000 1.76070000 -4.76590000
-8.17300000 1.74610000 -4.79980000
-8.36020000 1.78160000 -4.51570000
-6.84880000 -2.09040000 4.16240000
-6.43660000 -2.13420000 4.59730000
-6.84290000 -1.98210000 4.60650000
-8.34270000 1.70490000 -4.66970000
-6.57080000 -6.14230000 2.66940000
-8.30340000 1.86920000 -4.74570000
-7.80400000 -1.24020000 -4.53200000
-7.87710000 -1.19940000 -4.72420000
-7.57870000 -1.19980000 -4.62820000
-7.72280000 -1.14680000 -4.76590000
-7.28100000 -1.47920000 -4.34230000
-7.13880000 -1.17480000 -4.92210000
-7.87440000 1.26660000 5.13790000
-8.16210000 1.90020000 -4.21750000
-8.12260000 1.91450000 -4.08630000
-7.96830000 2.10190000 -4.37080000
-8.13240000 1.87480000 -4.79300000
-8.28970000 3.84370000 0.80520000
-8.33040000 3.58050000 1.17380000
-8.30220000 3.76320000 1.10300000
-8.47760000 -1.42580000 0.73970000
-8.54800000 -1.58110000 0.93000000
-7.36490000 -1.11730000 -4.03220000
-7.26200000 -1.34710000 -3.72190000
-6.88770000 -6.19210000 2.01950000
-8.26660000 1.94770000 -4.72200000
-8.24830000 3.68310000 1.79260000
-8.34390000 3.80050000 1.48870000
-8.10160000 2.01450000 -4.64180000
-7.95430000 1.94380000 -4.71200000
-7.94130000 2.04190000 -4.60820000
-8.39480000 3.87350000 1.25380000
-8.40540000 4.03390000 0.98130000
-8.51100000 -1.28590000 0.50700000
-8.13110000 2.04240000 -4.41950000
-8.46250000 2.17710000 3.40300000
-8.54050000 4.07600000 1.30270000
-7.48720000 1.02760000 5.09170000
-7.89210000 2.18640000 -4.28470000
-8.24530000 3.98720000 0.23740000
-8.35130000 3.60050000 0.13640000
-8.37870000 4.27970000 0.81790000
-8.28820000 4.46660000 0.65370000
-6.66520000 -6.19760000 1.62170000
-8.22080000 4.26050000 0.39930000
-7.94060000 1.20920000 4.15450000
-8.32040000 -0.99180000 0.61250000
-8.26740000 -0.96120000 1.35920000
-8.62880000 -1.23490000 1.05570000
-8.55410000 -1.60240000 1.09160000
-8.55740000 -1.34130000 1.16850000
-8.49180000 -1.59620000 1.17960000
-8.55830000 -1.29120000 0.80540000
-7.57130000 -1.29650000 -4.33510000
-7.42120000 -1.24040000 -4.58970000
-7.14810000 -6.04520000 1.26700000
-7.90960000 2.47760000 -4.01050000
-8.34550000 -1.51270000 1.28630000
-8.35890000 -1.37820000 1.42640000
-6.83660000 -6.06970000 2.07530000
-6.61490000 -5.86660000 2.15990000
-7.77630000 -1.20110000 -4.31420000
-8.66430000 -1.07720000 1.24580000
-7.59780000 1.57040000 4.79880000
-7.78990000 3.98930000 1.82520000
-7.91160000 3.77560000 0.79470000
-7.79230000 4.59860000 1.55750000
-8.71650000 -1.01540000 0.75130000
-5.36110000 -2.25750000 5.45190000
-4.54910000 -2.39160000 5.82700000
-8.89050000 -0.82870000 0.38170000
-7.27510000 -0.92210000 -5.08440000
-7.50520000 -1.07580000 -4.77490000
-7.72320000 -1.04530000 -4.81360000
-8.28230000 2.26250000 -3.26420000
-7.54550000 -0.92690000 -4.83450000
-7.45970000 -0.84410000 -4.91600000
-8.52550000 -0.69630000 0.98860000
-5.86140000 -2.25060000 4.77730000
-7.30370000 -0.87960000 -4.49810000
-6.55100000 -5.85950000 1.37520000
-8.20770000 2.44230000 -3.41920000
-9.21190000 1.67130000 2.39490000
-9.10920000 1.78080000 2.48410000
-8.32940000 2.43040000 -2.93990000
-7.78830000 1.80310000 4.34810000
-8.72300000 1.86190000 2.69470000
-5.79790000 -1.98560000 5.09000000
-8.72030000 -1.14370000 -0.29440000
-8.62920000 2.11950000 2.83590000
-6.36030000 -5.80940000 1.87300000
-7.67090000 4.14760000 2.43260000
-8.86720000 1.91630000 2.56230000
-8.90760000 2.03430000 2.43690000
-8.78420000 2.18270000 2.44670000
-6.36350000 -2.17610000 5.58940000
-6.24950000 -2.25320000 5.48870000
-6.18430000 -2.22440000 5.59440000
-6.25030000 -2.06500000 5.68860000
-6.40270000 -2.02940000 5.61880000
-6.21640000 -2.20220000 5.29080000
-5.99390000 -2.21410000 5.46920000
-8.30460000 -0.99710000 -1.01090000
-8.19590000 -1.11800000 -0.13650000
-8.59880000 -1.29110000 -0.80250000
-6.04540000 -2.16430000 5.15260000
-5.84360000 -2.19100000 5.34920000
-8.48150000 -0.74290000 -0.07650000
-7.93490000 3.77560000 -0.07830000
-6.35090000 -2.15740000 4.37290000
-7.29340000 1.30870000 5.39340000
-8.28510000 2.61390000 -3.04630000
-7.48500000 1.52270000 5.66900000
-8.29020000 2.55050000 -3.26930000
-7.82400000 1.51350000 5.26410000
-6.36710000 -2.20610000 5.40150000
-6.34420000 -2.12070000 5.24740000
-6.59640000 -5.60290000 0.88280000
-8.95100000 -1.00120000 -0.31760000
-9.01730000 -1.10220000 -0.18730000
-8.30420000 1.90850000 -4.39500000
-8.29760000 1.95580000 -4.55840000
-8.69720000 -1.23030000 -0.04400000
-6.28870000 -2.08660000 5.07210000
-6.44550000 -2.07650000 5.44630000
-6.43600000 -1.98820000 5.24890000
-6.44370000 -1.90280000 5.46750000
-6.40770000 -2.03790000 4.98300000
-8.03590000 1.96520000 3.45530000
-8.28800000 4.91320000 0.49740000
-6.31070000 -1.68310000 5.11640000
-6.03090000 -2.03880000 4.53660000
-6.77640000 -1.65510000 4.28190000
-8.22000000 2.12650000 2.66400000
-7.22970000 1.90670000 5.31500000
-6.85580000 -5.66420000 1.11220000
-6.56780000 -5.63010000 1.81830000
-5.64180000 -2.10270000 5.68690000
-5.26000000 -2.23100000 5.79230000
-7.98040000 2.73140000 -3.73440000
-5.79990000 -2.05060000 5.69720000
-5.98610000 -2.11470000 5.65650000
-6.85930000 -5.50300000 0.84460000
-5.46290000 -1.99630000 6.17970000
-5.83120000 -1.87870000 5.89520000
-5.71430000 -1.78070000 6.15010000
-6.75080000 -5.23470000 -2.30460000
-6.76750000 -5.45450000 1.15160000
-7.73610000 2.99520000 3.52180000
-6.90960000 -5.25800000 0.88310000
-5.48600000 -1.83130000 5.80540000
-7.72790000 2.70080000 -4.31430000
-9.24170000 1.85020000 2.31400000
-6.70960000 -4.90520000 0.96000000
-5.93410000 -2.32120000 -3.81690000
-8.14610000 2.59210000 -3.54250000
-6.60150000 -5.29850000 1.46340000
-7.85930000 4.96820000 0.97220000
-9.13030000 1.95630000 2.33440000
-8.31580000 2.63140000 -3.44530000
-8.21530000 2.72770000 -3.57330000
-8.04760000 2.81820000 -3.62560000
-8.38310000 2.78350000 -3.45090000
-6.06470000 -1.94560000 5.74060000
-8.94620000 -1.14550000 -0.05750000
-8.37370000 2.73980000 -3.25800000
-8.83360000 2.30850000 2.13290000
-8.28320000 2.84750000 -3.55570000
-8.74990000 -0.94230000 -0.91450000
-8.77260000 -0.98360000 -0.54730000
-6.21790000 -1.83560000 5.72450000
-8.16060000 3.02900000 -3.42310000
-8.01440000 2.95910000 -3.58370000
-8.70800000 2.58530000 2.36860000
-8.95840000 -0.81060000 -0.43880000
-6.15070000 -1.64850000 5.88240000
-8.89380000 -0.70740000 -0.63400000
-7.82690000 3.08930000 -3.75190000
-6.28710000 -3.93710000 -0.42640000
-6.32920000 -4.30220000 -0.19690000
-6.08690000 -1.41950000 6.24020000
-6.31510000 -4.12420000 -1.15430000
-8.54070000 2.66440000 2.91770000
-8.42430000 2.69290000 3.27450000
-8.45400000 2.99970000 2.88850000
-6.39080000 -5.55250000 1.49460000
-6.54260000 -2.18040000 -3.23580000
-6.60720000 -4.89190000 -2.34160000
-6.18830000 -5.37750000 1.81560000
-6.02820000 -5.43470000 2.08230000
-7.66980000 4.82000000 2.36580000
-6.17690000 -5.57300000 2.54150000
-6.45900000 -4.69420000 -2.71010000
-6.58190000 -4.30240000 -1.95570000
-6.47320000 -5.30630000 1.04870000
-6.18950000 -5.15860000 1.57460000
-7.81990000 2.32480000 3.96290000
-6.11090000 -1.48570000 5.71980000
-7.58290000 2.22230000 4.56580000
-7.46980000 -1.61390000 1.93540000
-5.92950000 -5.03900000 1.99500000
-8.29460000 1.71490000 4.30640000
-6.36320000 -2.46340000 2.56310000
-5.52750000 -2.68080000 3.35730000
-6.03600000 -2.41900000 3.64340000
-8.13090000 2.23120000 4.37420000
-8.24710000 1.46780000 4.41120000
-8.05920000 1.71110000 4.72690000
-8.26760000 2.41620000 3.93110000
-6.18650000 -3.66300000 -0.17840000
-6.26880000 -3.99360000 0.11910000
-6.38110000 -1.89280000 -3.59670000
-6.90330000 -1.58400000 -3.64720000
-6.21220000 -3.67270000 -0.97130000
-8.52570000 3.95430000 1.53130000
-8.15280000 2.62250000 4.21370000
-8.57940000 4.36500000 1.23050000
-6.22760000 -3.57170000 -0.58760000
-6.39440000 -4.72980000 -1.61020000
-8.62310000 4.29390000 1.54370000
-7.91660000 -1.27620000 2.04690000
-8.52500000 4.44500000 0.96270000
-6.11820000 -3.24560000 -0.54720000
-6.07970000 -3.27670000 -0.03000000
-6.71450000 -4.35940000 -1.23930000
-8.63850000 4.71890000 1.17410000
-8.51070000 -1.17470000 1.57470000
-8.52650000 4.04980000 1.76960000
-8.57020000 4.47060000 1.84050000
-8.34500000 -0.77200000 1.84860000
-8.15920000 -0.99540000 2.27630000
-7.20990000 -1.90440000 -3.13640000
-7.47700000 -1.73080000 -3.34110000
-6.22750000 -5.02640000 2.06050000
-7.88200000 2.59490000 4.74130000
-8.71720000 4.79230000 1.42040000
-8.66240000 4.79410000 1.75150000
-6.96300000 -1.77700000 -2.93320000
-7.80780000 2.14880000 5.17680000
-7.75250000 2.34910000 5.08030000
-8.42870000 4.55230000 2.14280000
-8.50880000 4.84820000 2.06040000
-8.01570000 -1.21360000 -1.79430000
-7.46520000 2.41480000 5.41660000
-7.52330000 2.90790000 5.06580000
-7.39140000 3.14850000 4.34130000
-8.51100000 -0.61050000 -1.22680000
-5.56410000 -5.14990000 2.69230000
-8.63800000 -0.41590000 -0.65090000
-8.69440000 4.98560000 1.54180000
-8.66900000 5.02310000 1.23560000
-8.44990000 4.77640000 0.72510000
-7.46660000 -1.46580000 -2.76000000
-5.57290000 -4.92010000 2.56960000
-9.17400000 -1.10170000 -0.08340000
-9.25290000 -1.03550000 0.04170000
-9.30810000 -1.00780000 -0.04430000
-9.18440000 -0.91120000 0.15480000
-7.78770000 -1.71660000 -3.25600000
-7.91820000 -1.52510000 -3.19520000
-7.74540000 -1.06770000 -3.15600000
-5.82620000 -4.75520000 1.92160000
-5.58790000 -2.77170000 2.89360000
-5.74380000 -2.90100000 2.35170000
-5.44340000 -2.87840000 2.90210000
-5.42880000 -4.66030000 2.63070000
-9.26840000 -0.78790000 0.11040000
-9.31380000 -0.93470000 -0.11520000
-8.90400000 -0.65010000 0.99720000
-8.97470000 -0.61490000 0.60550000
-6.61380000 -3.86870000 -0.06290000
-6.51850000 -3.27940000 0.01270000
-6.64050000 -3.89640000 -0.60890000
-6.51570000 -3.20500000 -0.94490000
-8.83750000 -0.63200000 1.58460000
-6.54930000 -1.78260000 -5.37010000
-6.47560000 -2.99710000 -0.27140000
-6.40840000 -4.55120000 -0.88260000
-6.44330000 -1.58820000 -5.40950000
-6.60670000 -1.54280000 -5.38470000
-5.70130000 -4.36580000 2.79170000
-5.46050000 -4.94990000 3.31930000
-6.20320000 -3.63840000 0.15440000
-6.18800000 -3.95880000 0.56480000
-8.31520000 5.15750000 0.01160000
-6.11990000 -3.50090000 0.33030000
-6.58060000 -1.33250000 -5.47780000
-9.01330000 -0.57580000 0.34920000
-8.55270000 4.98350000 0.91370000
-6.55140000 -1.19020000 -5.63150000
-6.20690000 -1.29290000 -5.92680000
-8.32060000 2.63260000 4.05900000
-8.38530000 2.61250000 3.89740000
-8.39660000 5.06280000 0.68540000
-6.80130000 -1.26810000 -5.30180000
-8.05180000 2.80790000 4.32780000
-8.38300000 5.16610000 0.78750000
-8.93870000 -0.40110000 1.20860000
-8.35380000 5.25190000 0.63860000
-9.05580000 -0.39620000 0.76680000
-9.09780000 -0.28550000 0.41500000
-6.06820000 -4.16230000 -2.43320000
-8.36450000 2.62330000 3.66400000
-9.05810000 -0.21720000 0.78780000
-8.44860000 2.75220000 3.84730000
-9.16460000 -0.99340000 -0.27710000
-8.32770000 2.88950000 3.61700000
-8.37060000 5.47250000 0.33260000
-8.38370000 2.82180000 3.45310000
-8.47080000 2.88940000 3.82380000
-9.19750000 -0.92370000 -0.28880000
-9.19250000 -0.79200000 -0.26830000
-8.43610000 2.83970000 4.09990000
-8.22000000 2.88930000 4.19870000
-6.24270000 -4.21000000 -1.85880000
-8.28930000 3.05300000 3.67930000
-9.04530000 -0.72160000 0.25660000
-8.27800000 3.02740000 3.48460000
-8.33520000 3.06300000 3.37680000
-9.02600000 -0.61390000 -0.39870000
-8.08770000 3.25400000 3.57860000
-8.98530000 -0.44110000 -0.52000000
-8.29390000 3.11290000 3.85000000
-8.08770000 3.17340000 3.96130000
-8.50610000 2.86860000 4.01240000
-8.67370000 -0.29290000 0.01920000
-8.38160000 3.01950000 4.06200000
-5.91000000 -4.15750000 2.29650000
-9.31070000 -0.72160000 -0.02710000
-9.28030000 -0.73440000 -0.15300000
-8.46420000 3.01440000 3.88480000
-9.13000000 -0.54900000 -0.22040000
-9.15540000 -0.52150000 0.00510000
-8.30480000 3.18170000 3.22500000
-9.10210000 -0.56860000 0.19760000
-6.26000000 -1.05780000 -5.64520000
-5.38180000 -4.47490000 3.31130000
-9.07150000 -0.40040000 0.17140000
-9.05740000 -0.39690000 -0.22970000
-8.09100000 3.05340000 4.15550000
-7.93020000 3.05450000 4.43350000
-5.82490000 -2.45810000 2.22750000
-5.47170000 -2.55950000 1.38720000
-5.47380000 -3.85020000 2.99230000
-7.91210000 3.22840000 4.18380000
-9.04070000 -0.15820000 -0.46280000
-7.70650000 3.21850000 4.69750000
-7.70160000 3.35050000 4.42950000
-8.54450000 5.11210000 1.08440000
-6.61580000 -5.40160000 0.68410000
-7.91050000 3.32460000 3.86040000
-7.73890000 3.61140000 3.78230000
-7.45700000 3.66070000 4.57520000
-5.80040000 -2.32250000 3.56820000
-6.15630000 -1.10770000 -6.21940000
-6.36920000 -1.16540000 -6.10590000
-8.62440000 -0.53840000 0.79230000
-6.56780000 -2.18070000 1.79340000
-6.92180000 -5.39970000 0.57570000
-6.57380000 -1.06250000 -5.80760000
-6.46440000 -1.12140000 -5.95690000
-8.71910000 -0.25070000 0.51340000
-6.95180000 -5.34810000 0.73750000
-6.31370000 -1.11730000 -6.24890000
-8.56520000 -0.33970000 1.33280000
-7.02460000 -5.14170000 0.68850000
-6.47500000 -1.09930000 -6.39180000
-6.29130000 -0.99300000 -6.37050000
-5.99670000 -1.03120000 -6.40960000
-6.45170000 -4.46520000 -2.76220000
-6.41790000 -4.17510000 -2.64050000
-8.47880000 5.16480000 1.60410000
-8.35930000 5.20820000 1.16580000
-6.94580000 -5.19950000 0.57460000
-6.83580000 -5.00480000 0.38790000
-6.46770000 -5.10830000 0.65060000
-6.37000000 -2.24210000 3.75610000
-8.30870000 5.29070000 1.16640000
-8.28370000 5.28650000 1.80080000
-8.25250000 5.49710000 1.54290000
-6.33440000 -5.03080000 1.07710000
-8.32600000 5.46290000 0.95640000
-6.35110000 -3.89850000 -2.55660000
-6.43440000 -3.80190000 -2.14620000
-6.88030000 -4.96710000 0.86320000
-6.19010000 -3.77210000 -1.62920000
-6.66270000 -4.15190000 0.43450000
-6.56640000 -3.50390000 0.47040000
-6.61850000 -3.99910000 0.26620000
-6.50290000 -3.35210000 0.32900000
-6.23590000 -0.87320000 -6.44220000
-5.96520000 -0.92370000 -6.57390000
-6.04420000 -3.28370000 0.49470000
-5.99470000 -3.51720000 0.97250000
-6.48760000 -4.90010000 0.36560000
-6.09520000 -3.74300000 -2.06230000
-7.95140000 5.48650000 0.86480000
-7.86230000 5.22490000 1.52070000
-6.68230000 -1.11050000 -6.34200000
-6.56490000 -1.13500000 -6.34860000
-6.63560000 -1.12880000 -6.18170000
-6.83900000 -4.84910000 0.53260000
-6.68640000 -1.03110000 -6.43190000
-6.96440000 -2.03570000 3.28570000
-7.34020000 -1.96520000 2.59240000
-8.07320000 5.88350000 1.58620000
-8.13570000 5.91280000 0.72800000
-6.78700000 -0.99830000 -6.23640000
-6.77370000 -0.89500000 -6.34470000
-8.80140000 2.65760000 1.99670000
-8.62020000 4.99910000 1.82740000
-6.70920000 -1.05190000 -6.11460000
-8.32540000 5.02020000 2.25810000
-6.23780000 -4.71940000 0.94400000
-8.78680000 2.71230000 2.17550000
-8.64910000 5.08310000 1.45610000
-6.69770000 -0.91990000 -5.95960000
-8.77050000 2.83560000 2.09590000
-8.63940000 2.80470000 2.34740000
-8.66140000 2.90900000 2.19520000
-6.75380000 -0.83320000 -5.83920000
-8.47570000 5.11780000 1.99480000
-6.50890000 -0.95420000 -6.47550000
-8.80360000 2.83600000 1.59440000
-8.68630000 3.03470000 1.51770000
-8.65640000 3.04910000 1.75890000
-6.48290000 -0.73400000 -6.43100000
-6.31210000 -0.73090000 -6.46910000
-6.06290000 -4.78710000 1.40890000
-6.67210000 -0.90600000 -6.46340000
-8.55810000 3.06100000 2.03540000
-6.66200000 -0.75740000 -6.37280000
-9.10440000 -0.00380000 0.26150000
-8.47670000 3.11690000 2.26660000
-5.90700000 -3.26010000 0.98690000
-6.49280000 -0.53230000 -6.35900000
-8.71280000 0.13980000 0.91080000
-8.31610000 5.65480000 1.11140000
-6.55660000 -3.66250000 -1.54020000
-8.12900000 5.74270000 2.33200000
-8.69650000 -0.11190000 -0.43700000
-8.68570000 0.25810000 -0.18210000
-8.71580000 0.39080000 0.16890000
-9.07310000 0.33980000 -0.03570000
-8.30810000 3.35200000 2.70170000
-8.37830000 3.39440000 2.02720000
-6.03290000 -3.03700000 -0.06380000
-8.73930000 0.51120000 0.67530000
-8.82620000 2.99170000 1.47600000
-8.37800000 6.09790000 2.26650000
-8.45170000 5.83180000 0.90850000
-8.59330000 3.23320000 1.55390000
-5.95250000 -3.02770000 0.46330000
-5.94390000 -2.97690000 -0.02930000
-8.60880000 3.22180000 1.25160000
-8.49600000 3.35880000 1.13440000
-5.73830000 -2.98570000 0.50540000
-6.79200000 -0.69960000 -5.36450000
-9.20700000 0.01350000 1.17830000
-9.37970000 0.11270000 1.00930000
-9.14510000 0.00820000 0.96900000
-6.34890000 -0.43370000 -6.07620000
-9.44620000 0.08580000 1.17260000
-6.85850000 -0.89230000 -5.59000000
-8.79170000 3.14490000 1.26760000
-9.52730000 0.26330000 1.04880000
-9.54750000 0.24400000 1.18280000
-9.35120000 0.23560000 0.90110000
-7.06900000 -0.44570000 -5.64890000
-6.14310000 -3.31160000 -1.16540000
-7.37250000 -0.49300000 -5.26060000
-6.01480000 -4.35150000 1.38330000
-9.09650000 0.08050000 0.71040000
-9.05620000 -0.08920000 1.04450000
-5.84770000 -4.37880000 1.73170000
-7.95260000 4.59600000 2.67990000
-8.08070000 4.87460000 2.47230000
-8.06150000 4.57080000 2.44710000
-9.17280000 0.15160000 0.81220000
-6.23900000 -4.47690000 0.77830000
-6.43140000 -4.60940000 0.09690000
-9.13920000 0.30470000 0.40700000
-9.19430000 0.35310000 0.72460000
-6.36310000 -3.18090000 -1.99890000
-6.55880000 -2.13850000 4.03220000
-9.08100000 0.53470000 0.20410000
-7.24470000 -0.36780000 -4.97910000
-7.77540000 5.41640000 2.27330000
-7.55000000 5.05060000 2.92970000
-6.64930000 -1.89350000 3.46130000
-6.38350000 -2.11840000 3.20360000
-8.28270000 4.70570000 2.32540000
-6.10500000 -4.10070000 0.92350000
-9.22930000 0.52070000 0.85020000
-9.38000000 0.43970000 0.94200000
-7.05650000 -5.14050000 0.75830000
-7.02420000 -5.00590000 0.81220000
-7.02580000 -4.88190000 0.72590000
-6.77660000 -0.84070000 -6.14530000
-6.97430000 -2.02800000 3.94770000
-6.71190000 -0.72030000 -6.23560000
-6.72510000 -0.75760000 -6.06020000
-9.17640000 0.60050000 0.72940000
-6.66960000 -4.32270000 0.82790000
-8.09910000 5.17190000 2.40290000
-7.87700000 5.08000000 3.06600000
-6.91240000 -4.58050000 0.80620000
-6.96430000 -4.63330000 0.73020000
-6.65220000 -0.54810000 -6.14120000
-6.73470000 -0.40590000 -6.06010000
-8.24950000 5.20020000 2.18250000
-8.72180000 -0.92290000 1.53140000
-8.48370000 -1.19810000 1.94800000
-7.82410000 5.51500000 3.38240000
-6.71780000 -4.05520000 0.54280000
-8.16080000 5.29700000 2.21090000
-6.85170000 -4.20260000 0.65880000
-6.86590000 -4.23950000 0.76100000
-6.86690000 -4.11170000 0.71700000
-8.07010000 5.53520000 2.43790000
-6.40050000 -4.47860000 -2.89290000
-6.29970000 -4.34240000 -3.08850000
-6.42290000 -4.32830000 -2.94170000
-6.38110000 -4.41110000 1.35520000
-6.47110000 -3.97900000 0.93080000
-7.26670000 -1.65850000 2.65220000
-6.15400000 -4.07990000 -3.16590000
-7.49750000 4.73410000 3.14620000
-7.09620000 -0.02350000 -5.84210000
-6.07980000 -3.00780000 -0.77340000
-7.55700000 5.48830000 3.24710000
-7.35490000 5.28180000 3.72640000
-6.09610000 -3.10190000 -1.19170000
-8.10800000 3.85050000 2.29200000
-6.43370000 -2.85040000 -0.59660000
-6.31420000 -2.84870000 -1.64530000
-6.79410000 -0.16910000 -5.68100000
-8.24150000 3.80710000 1.96920000
-5.99660000 -2.95970000 -0.93290000
-8.40990000 3.91090000 1.80800000
-5.74100000 -2.90920000 -1.75010000
-5.74130000 -2.94590000 -0.59890000
-8.24370000 4.05210000 2.17430000
-8.41580000 4.09140000 1.98440000
-8.94960000 -0.20090000 1.57970000
-8.87990000 -0.51500000 2.00220000
-8.91400000 -0.19220000 2.10120000
-6.99040000 0.15120000 -5.53020000
-6.37890000 0.36990000 -6.25950000
-6.40460000 -4.09230000 -2.79570000
-6.34540000 -4.10380000 -2.93820000
-8.22020000 -1.90870000 -1.02660000
-8.10220000 -1.81300000 -1.13740000
-6.23290000 -3.94940000 -2.92620000
-7.96010000 -1.76290000 -1.26210000
-8.13780000 -1.75220000 -1.29330000
-8.35690000 -1.92530000 -0.94490000
-8.44510000 -1.80970000 -0.84900000
-8.43330000 -1.85090000 -1.10020000
-6.03210000 -3.57450000 -3.18360000
-8.06130000 3.40570000 3.29860000
-8.51670000 -1.76180000 -0.99120000
-8.47550000 -1.62200000 -1.18900000
-8.29750000 -1.70480000 -1.29070000
-8.30660000 -1.53570000 -1.42550000
-8.32590000 -1.92280000 -1.10410000
-8.53600000 -1.51030000 -1.03060000
-7.89630000 5.84120000 2.43040000
-8.50420000 -1.37230000 -1.28740000
-8.61680000 -1.21220000 -1.16850000
-5.70690000 -3.64270000 -3.17450000
-5.27440000 -3.00340000 0.06020000
-8.06650000 -1.92730000 -3.01420000
-8.10020000 -1.88610000 -2.89510000
-8.03550000 -1.76220000 -3.05840000
-7.99720000 3.75140000 2.88830000
-7.70720000 3.80040000 3.69430000
-8.50210000 -1.27070000 -1.91350000
-8.30690000 -1.38730000 -2.26460000
-8.25610000 -1.43580000 -2.04280000
-7.93330000 3.97930000 2.75580000
-7.94810000 -1.67120000 -1.94830000
-7.57990000 -1.90630000 -1.98100000
-8.03510000 -1.68100000 -1.45140000
-6.27660000 -3.64780000 -2.57540000
-4.69680000 -3.13390000 1.61680000
-4.64080000 -3.10060000 1.02180000
-4.41580000 -3.15990000 1.31290000
-7.45730000 3.93090000 4.39670000
-8.18810000 -1.54100000 -1.63500000
-8.46190000 -1.26710000 -1.56210000
-7.77840000 4.17180000 3.29630000
-5.13630000 -3.10410000 1.60260000
-5.25410000 -3.06940000 1.08150000
-7.70800000 -1.46510000 -1.70400000
-5.92750000 -3.34950000 -2.51020000
-8.98170000 0.14850000 1.89630000
-6.09940000 -3.38610000 -1.89310000
-8.05390000 -1.92800000 -2.78610000
-8.07140000 -1.70370000 -2.76510000
-7.97140000 -1.75230000 -2.61220000
-7.88490000 -1.88130000 -2.66840000
-9.01010000 -0.05050000 1.35380000
-8.05790000 -1.61180000 -2.62020000
-8.08150000 -1.62430000 -2.94630000
-8.12550000 -1.44360000 -2.89930000
-9.17560000 0.10110000 1.41540000
-9.07740000 0.16720000 1.52140000
-8.18780000 -1.39830000 -2.68170000
-7.75290000 -1.81570000 -2.51730000
-7.84290000 -1.73920000 -2.33430000
-8.98930000 0.13350000 1.63370000
-7.92250000 -1.11960000 -2.58290000
-7.97860000 -1.63250000 -3.09570000
-8.94360000 0.38750000 1.98760000
-9.41040000 0.12150000 1.32660000
-9.27910000 0.25060000 1.48330000
-9.53520000 0.23950000 1.30940000
-8.17250000 -1.22700000 -3.07440000
-9.45830000 0.25980000 1.43300000
-8.50530000 -1.72860000 1.05900000
-9.41470000 0.37290000 1.44960000
-8.40550000 -1.73630000 1.14690000
-8.21140000 -1.67390000 1.24290000
-9.12390000 0.35810000 1.55140000
-9.00320000 0.66350000 1.79750000
-9.14270000 0.50650000 1.48720000
-9.41470000 0.51250000 1.32910000
-6.51150000 -3.68530000 0.82320000
-7.80330000 5.69370000 3.45840000
-6.73450000 -3.79680000 0.75450000
-6.77670000 -3.79890000 0.66390000
-8.09620000 6.08730000 3.21510000
-7.64250000 -1.85140000 2.60490000
-7.47140000 -1.87670000 3.09820000
-7.71900000 5.92230000 3.99180000
-6.22650000 -3.79380000 1.45970000
-7.74200000 -1.70600000 3.22470000
-6.41220000 -3.45190000 0.87050000
-6.57250000 -3.49890000 0.74540000
-7.94290000 -1.66250000 2.52630000
-6.27180000 -3.33940000 1.12560000
-7.95560000 4.20620000 2.58030000
-5.67100000 -4.52390000 2.16130000
-6.81760000 -2.35990000 1.66690000
-7.36960000 -1.98780000 2.02400000
-8.17710000 4.33800000 2.31310000
-5.44330000 -3.30000000 -3.56040000
-8.41450000 -1.08460000 -2.62010000
-7.96840000 -1.70650000 1.49800000
-5.73350000 -3.27010000 -2.91530000
-7.81110000 -1.76350000 1.97870000
-7.43590000 4.14380000 3.44330000
-8.48470000 -1.25560000 -2.30150000
-8.52040000 -1.10540000 -2.45390000
-5.96700000 -3.20340000 -3.13710000
-5.69870000 -3.33690000 -3.75210000
-7.19290000 4.10850000 4.10040000
-7.29970000 4.73360000 3.77580000
-5.69540000 -3.11320000 -3.64090000
-5.58600000 -3.04440000 -2.83610000
-5.42380000 -3.12860000 -3.35250000
-5.70180000 -2.80770000 -3.32170000
-5.44520000 -4.17840000 2.48940000
-8.86930000 0.30630000 2.38350000
-5.11660000 -3.95180000 2.96530000
-8.86890000 0.57380000 2.22770000
-5.36610000 -2.88670000 -2.49940000
-5.50730000 -2.92570000 -2.73410000
-8.46240000 4.37340000 2.07850000
-8.15980000 -0.78440000 -2.56880000
-4.60800000 -3.07250000 0.32320000
-7.16640000 -1.80130000 -2.10310000
-6.27240000 -3.29760000 -2.47620000
-6.06400000 -2.87810000 -2.65120000
-5.39690000 -3.99210000 2.45000000
-8.14440000 6.26310000 2.41520000
-8.25430000 -0.93290000 -1.79320000
-5.63480000 -3.98200000 2.00280000
-5.62260000 -3.71400000 1.99050000
-9.00310000 -1.19390000 -2.31160000
-8.81870000 -1.14890000 -2.38690000
-8.75370000 -1.24210000 -2.25250000
-5.38680000 -3.61360000 2.32810000
-6.06620000 -3.10300000 -1.60770000
-8.34410000 6.26810000 1.07210000
-8.68850000 0.66110000 1.47030000
-8.65450000 -1.25200000 -2.09970000
-8.70630000 6.20790000 1.31640000
-5.94690000 -3.04700000 -2.06690000
-8.75480000 6.73410000 1.42680000
-8.83100000 -1.18380000 -2.00010000
-8.73290000 -1.06810000 -1.79600000
-5.88450000 -2.93320000 -1.72700000
-8.98480000 -1.21520000 -2.15690000
-7.69570000 4.61360000 3.57430000
-9.13180000 -1.06920000 -2.30070000
-9.08950000 -1.12620000 -2.10640000
-9.03790000 -1.09630000 -2.38070000
-8.80630000 -0.94900000 -2.47570000
-9.04930000 -0.93140000 -2.38900000
-5.87120000 -3.07840000 -2.41240000
-9.15420000 -0.99280000 -2.17640000
-9.09000000 -0.85610000 -2.31680000
-9.13950000 -0.88760000 -2.16890000
-8.94650000 -1.06600000 -1.93260000
-8.84530000 -0.91840000 -1.77630000
-9.06940000 -0.99350000 -1.99810000
-7.70290000 5.89410000 3.25590000
-8.95230000 -0.80580000 -1.93450000
-9.02570000 -0.74510000 -2.12090000
-8.86980000 -0.62480000 -1.95110000
-8.72690000 -0.93040000 -1.39100000
-8.64040000 -1.06550000 -1.62920000
-7.57300000 5.09230000 3.96610000
-6.35410000 -2.71100000 -1.31410000
-6.17000000 -2.69840000 -2.13620000
-8.11670000 -1.49090000 2.83210000
-8.25870000 -1.38130000 2.51230000
-8.88410000 1.93500000 -1.57530000
-8.89710000 2.13960000 -1.11570000
-8.02270000 -1.40960000 3.32330000
-8.26350000 -1.42960000 2.97210000
-6.29150000 -2.58520000 -1.81340000
-8.45680000 -1.30040000 2.70040000
-8.39620000 -1.39260000 2.79410000
-8.55840000 -1.41520000 3.04970000
-8.71570000 -1.39860000 3.01700000
-7.99520000 5.49220000 0.11480000
-5.72610000 -3.45430000 2.47030000
-8.14420000 -1.38170000 3.22150000
-8.66260000 2.42290000 -1.80100000
-8.89130000 1.83200000 -1.80190000
-8.90930000 2.29940000 -1.30750000
-8.83400000 2.26080000 -1.53350000
-8.41150000 -0.66820000 -1.86090000
-8.37430000 -1.36500000 3.09480000
-8.53730000 -1.31700000 3.21910000
-8.81680000 -0.79590000 -1.68970000
-8.36320000 -1.23670000 3.24780000
-8.33410000 -1.13240000 3.32830000
-8.25430000 -1.44150000 1.88370000
-6.00230000 -2.60340000 -2.72200000
-5.70260000 -2.61900000 -3.37540000
-8.32950000 2.28400000 -1.14490000
-8.20930000 2.89520000 -0.22030000
-5.82300000 -3.64980000 1.51360000
-5.85430000 -2.48550000 -3.34770000
-6.05370000 -2.50950000 -2.80270000
-6.51340000 -2.32720000 -2.60110000
-8.91090000 2.37120000 -1.13920000
-8.92430000 2.39020000 -1.42250000
-8.90620000 2.49050000 -1.54760000
-8.91920000 -0.47880000 -1.33680000
-9.37880000 0.54140000 1.02470000
-9.22030000 0.69490000 1.04210000
-8.81560000 2.49140000 -0.86250000
-9.29510000 0.63300000 1.20190000
-9.18440000 0.64620000 1.32030000
-9.16100000 0.78740000 1.08120000
-9.10710000 0.71900000 1.40000000
-8.89260000 2.59440000 -1.06600000
-8.83250000 -0.56780000 -1.79860000
-9.03780000 2.53730000 -1.37060000
-9.05360000 2.60910000 -1.25880000
-9.02780000 2.70040000 -1.17570000
-8.66000000 2.81750000 -0.80510000
-8.77020000 2.73710000 -1.00700000
-8.93050000 2.78310000 -1.13160000
-8.60300000 2.98900000 -1.16430000
-8.91500000 1.93060000 -2.31210000
-9.10970000 1.80940000 -2.35980000
-8.96140000 1.78790000 -2.09200000
-8.78240000 2.00210000 -2.29390000
-8.67780000 2.11760000 -2.25350000
-5.81520000 -2.37180000 -2.19370000
-5.40890000 -2.30140000 -3.40100000
-8.61250000 -1.00600000 -2.51580000
-8.47580000 2.43650000 -2.50400000
-8.64140000 -0.82320000 -2.54730000
-6.02090000 -3.36930000 1.80820000
-6.41290000 -2.48410000 -1.79780000
-8.72610000 2.53250000 -1.67950000
-8.46800000 -0.72830000 -3.09040000
-8.59510000 2.82280000 -1.70280000
-6.04830000 -3.15350000 1.61120000
-8.59780000 -0.65280000 -2.66750000
-8.37820000 2.92370000 -2.21710000
-8.93560000 2.65160000 -1.57960000
-8.77110000 2.70680000 -1.63250000
-9.05650000 2.68600000 -1.47800000
-8.95950000 2.82980000 -1.49020000
-8.75000000 2.84580000 -1.56340000
-8.79520000 2.90380000 -1.42370000
-8.77610000 2.85300000 -1.15180000
-8.92950000 2.85840000 -1.26750000
-8.97920000 -0.41460000 -0.91090000
-8.65130000 2.97040000 -1.33400000
-7.84140000 -1.19950000 3.03550000
-8.58350000 -0.32220000 -1.55190000
-7.87380000 -2.01670000 -2.98820000
-8.02530000 -2.00180000 -2.87540000
-7.85870000 -1.89150000 -3.13090000
-8.72830000 0.04330000 -0.77290000
-5.76190000 -3.31870000 1.54730000
-5.75680000 -3.19490000 1.32290000
-8.51480000 -1.08420000 2.52260000
-8.58680000 -1.07330000 2.66740000
-5.57620000 -3.37890000 1.95930000
-8.61660000 2.94560000 -1.52080000
-8.43800000 3.16780000 -1.55230000
-8.70290000 0.10680000 -1.27770000
-8.29660000 3.11530000 -2.02800000
-5.31840000 -3.31820000 2.40990000
-8.37560000 5.64090000 0.21960000
-8.51570000 3.16750000 -0.85080000
-5.52360000 -3.22040000 1.98960000
-5.31740000 -3.18270000 2.15960000
-9.00230000 -0.15920000 -1.24990000
-5.50970000 -3.14910000 1.58210000
-5.66420000 -3.10590000 1.05240000
-9.04410000 2.78430000 -1.37570000
-8.09470000 -0.96200000 2.89850000
-5.07380000 -3.14730000 2.12090000
-9.08340000 0.17250000 -0.69960000
-5.39120000 -3.13390000 1.92310000
-5.55740000 -3.25710000 2.61390000
-8.61730000 3.09420000 -0.09890000
-5.76900000 -3.07960000 2.23270000
-8.69280000 -1.37810000 3.17080000
-8.82430000 -1.32710000 3.14630000
-5.49320000 -3.01720000 2.73380000
-8.83230000 -1.25800000 2.96680000
-8.71580000 -1.35040000 2.90590000
-8.86000000 -1.19790000 3.18950000
-8.90690000 -1.17700000 3.08970000
-5.59920000 -3.21300000 1.73820000
-8.73040000 -1.24980000 3.29250000
-9.12160000 0.09080000 -1.18870000
-9.19040000 0.19710000 -1.01120000
-8.74290000 -1.09920000 3.27190000
-8.53710000 -1.11890000 3.30360000
-6.55960000 -3.42430000 0.57990000
-8.14450000 5.86500000 0.00000000
-6.40980000 -3.25050000 0.62080000
-8.66430000 -1.19410000 2.75640000
-5.83920000 -3.08400000 0.85510000
-8.72080000 0.42650000 -0.91720000
-6.28570000 -3.04580000 0.94600000
-8.84220000 -1.07850000 2.90950000
-6.05120000 -2.89440000 1.61250000
-8.76100000 -0.93620000 2.86990000
-6.30510000 -2.76450000 0.99480000
-6.05110000 -2.76560000 1.91530000
-8.62520000 -0.89930000 3.22380000
-8.46180000 -0.89370000 3.31920000
-8.88390000 -1.03520000 3.13190000
-8.13480000 5.87540000 -0.76910000
-8.74080000 -0.86860000 3.04530000
-8.82490000 -0.74850000 -2.44140000
-8.85520000 -0.63870000 -2.35310000
-8.70390000 -0.59910000 -2.50590000
-8.92110000 -0.64330000 -2.20660000
-8.80130000 -0.50500000 -2.14300000
-8.54700000 5.93210000 0.19410000
-8.72380000 -0.79050000 2.07540000
-8.55530000 -1.02090000 2.21390000
-8.82320000 -0.36140000 -2.07240000
-8.60630000 -0.83720000 2.60000000
-6.31280000 -2.10970000 -2.86120000
-8.63260000 -0.40920000 -2.99510000
-8.81950000 -0.41020000 2.36210000
-8.72260000 -0.60220000 2.38570000
-7.10670000 -2.02360000 -2.64240000
-6.36340000 -2.64840000 1.43040000
-6.89470000 -2.26980000 -1.41740000
-8.31130000 -0.37420000 -2.65950000
-8.77300000 6.16980000 0.71600000
-8.68560000 0.64540000 -0.85690000
-8.57240000 0.84300000 -1.46580000
-6.62030000 -2.11210000 -1.91660000
-8.23120000 6.08130000 0.04970000
-8.38000000 6.29190000 0.47010000
-9.08200000 0.58440000 -0.34860000
-9.18110000 0.33100000 -0.85830000
-9.11880000 0.46050000 -0.71690000
-9.35580000 0.31140000 -1.05870000
-9.42180000 0.45460000 -1.03690000
-9.46200000 0.35110000 -1.16030000
-9.20920000 0.49160000 -0.85650000
-9.08720000 0.75130000 -0.79490000
-9.45050000 0.64640000 -1.16780000
-9.49850000 0.53350000 -1.23420000
-9.27960000 0.62670000 -0.94060000
-7.43910000 -2.10720000 3.72970000
-7.60980000 -2.12730000 3.85880000
-7.57620000 -2.13050000 3.70190000
-7.73090000 -2.03990000 3.74290000
-7.62250000 -1.99910000 3.56240000
-7.72200000 -2.01170000 3.94470000
-7.77680000 -1.84720000 3.85830000
-7.74180000 -1.84850000 3.61530000
-7.42850000 -2.05530000 3.91720000
-9.00640000 0.14480000 -1.60300000
-7.21860000 -2.01420000 3.84440000
-7.58970000 -2.06630000 3.96690000
-7.18590000 -2.05910000 -2.15810000
-7.26580000 -1.96090000 3.98610000
-7.41980000 -1.91340000 4.03340000
-7.62660000 -1.99310000 4.01750000
-7.70100000 -1.69770000 3.97590000
-7.58070000 -1.81920000 4.02400000
-7.39890000 -1.75860000 4.14470000
-8.22170000 2.85310000 -2.86670000
-8.28670000 2.81850000 -3.04430000
-7.16120000 -1.93020000 4.11230000
-7.22420000 -1.75710000 4.47440000
-6.65580000 -1.96990000 4.93270000
-8.74700000 6.68840000 0.05320000
-5.16550000 -4.64480000 3.62300000
-8.09970000 3.09350000 -2.93400000
-7.15800000 -1.68470000 4.83140000
-8.28930000 6.21630000 -1.10890000
-8.86600000 6.79240000 -0.46090000
-5.07770000 -4.45810000 3.74060000
-7.44610000 -1.54000000 4.52580000
-8.71790000 6.71330000 -1.25080000
-8.21770000 3.15680000 -2.35330000
-7.78650000 -1.68530000 3.74220000
-6.96790000 -2.03570000 -1.00140000
-8.67490000 0.85210000 -0.39280000
-7.73570000 -1.39760000 4.18230000
-7.77870000 -1.15490000 4.45740000
-7.55700000 -1.37320000 4.88520000
-7.36880000 -1.37580000 5.05330000
-6.96480000 -1.57110000 5.18720000
-8.75200000 0.97010000 0.18590000
-7.55470000 -1.34360000 5.01840000
-7.60320000 -1.32880000 4.72800000
-7.75360000 -1.29200000 4.89250000
-7.80490000 -1.29840000 5.12980000
-7.94400000 -1.26900000 5.08760000
-7.94970000 -1.16700000 5.24100000
-7.93220000 -1.16790000 4.87450000
-7.76440000 -1.13490000 4.64270000
-9.18310000 0.23770000 -1.41260000
-8.15760000 3.38030000 -1.94630000
-9.11180000 0.33000000 -1.65490000
-8.98630000 0.42090000 -1.83830000
-9.53720000 6.71960000 -0.21000000
-7.87550000 -0.92500000 4.61030000
-6.55070000 -1.79370000 5.25310000
-9.61360000 6.81050000 -0.47930000
-9.40250000 6.66390000 -1.12770000
-9.33330000 6.74630000 -1.85440000
-9.50310000 6.81310000 -1.38430000
-5.28370000 -4.33530000 3.55500000
-5.19250000 -4.21210000 3.62050000
-4.91960000 -4.19070000 3.78310000
-6.51160000 -1.66580000 5.52500000
-6.35680000 -1.76620000 5.63650000
-5.34560000 -4.21120000 3.33820000
-8.99460000 6.47440000 -1.47080000
-9.07330000 0.75380000 -1.50800000
-9.12380000 0.81650000 -1.17350000
-9.01780000 0.87050000 -1.41380000
-7.48630000 -1.91560000 -2.49700000
-9.36690000 0.26770000 -1.27500000
-8.56500000 1.00270000 -1.07870000
-9.47180000 0.38980000 -1.32250000
-9.68590000 7.01230000 -0.35880000
-5.16510000 -4.08180000 3.50960000
-9.57760000 7.07320000 -1.39590000
-9.27330000 0.42770000 -1.54570000
-9.33810000 0.70480000 -1.06810000
-9.45810000 0.50940000 -1.37760000
-8.40580000 2.89430000 -3.26870000
-8.30780000 2.94350000 -3.15140000
-9.40610000 0.61920000 -1.36170000
-5.05090000 -3.88050000 3.52070000
-9.27720000 0.74930000 -1.19640000
-7.61480000 -1.91860000 -3.11910000
-8.31550000 3.00710000 -3.28010000
-7.48680000 -1.96390000 -2.94220000
-9.14320000 0.55360000 -1.65250000
-9.21250000 0.66340000 -1.46440000
-8.17790000 2.98590000 -3.06670000
-9.54050000 7.27710000 -0.83000000
-9.46260000 7.25770000 -0.00810000
-9.33290000 7.21800000 -1.32690000
-8.09470000 3.09960000 -3.22150000
-6.70230000 -1.27840000 5.24320000
-9.12000000 0.81650000 -0.96390000
-7.45860000 -1.94830000 -2.71700000
-8.31100000 2.96650000 -3.41460000
-9.67930000 7.21060000 -0.82020000
-9.69100000 7.28550000 -0.32130000
-9.61140000 7.27540000 -0.93450000
-6.78610000 -1.19360000 5.74980000
-9.02300000 0.98370000 -1.08910000
-7.95880000 3.13100000 -3.42500000
-7.87830000 -2.02100000 -2.84240000
-4.64820000 -3.58040000 3.51950000
-7.09080000 -1.37260000 4.49520000
-7.94120000 3.37010000 -2.87440000
-7.71600000 -1.94520000 -2.73090000
-7.78880000 3.41110000 -3.36480000
-8.00600000 -1.15580000 -3.67560000
-7.81210000 3.88880000 -2.95620000
-7.53270000 3.69820000 -3.87590000
-7.86020000 -1.08510000 -4.19960000
-7.90940000 -0.97640000 -4.09560000
-8.09920000 -0.97020000 -3.77910000
-8.01360000 -0.88540000 -3.95580000
-6.52710000 -1.46410000 5.76070000
-9.36370000 6.63310000 1.24520000
-9.45070000 6.78210000 2.05920000
-9.58990000 6.82110000 1.07180000
-6.28310000 -1.33410000 6.06650000
-8.13070000 -0.67590000 -3.96090000
-8.41100000 -0.42200000 -3.57460000
-8.56170000 1.32640000 -1.02800000
-8.00950000 -1.13370000 -4.46730000
-7.99130000 -1.20230000 -4.65910000
-7.99980000 -1.07690000 -4.76070000
-9.69910000 7.29300000 1.33090000
-9.65520000 7.14910000 1.59380000
-9.52730000 7.23440000 2.36280000
-9.44950000 7.29200000 2.55920000
-8.05910000 -1.11330000 -4.69380000
-8.08380000 -1.02710000 -4.50070000
-8.04490000 -0.94210000 -4.63910000
-7.82700000 -0.92200000 -4.78220000
-8.43680000 6.70810000 2.87480000
-7.74900000 6.24480000 3.66640000
-8.69390000 6.36790000 2.13710000
-8.21790000 6.37770000 3.64170000
-7.96850000 -0.95820000 -4.27880000
-6.42480000 -1.18140000 6.15870000
-7.74750000 -0.72010000 -3.77790000
-6.43560000 -1.00090000 6.34120000
-6.37810000 -1.01740000 5.92150000
-7.67670000 -0.74270000 -4.79170000
-7.08750000 -0.96840000 5.05940000
-7.82150000 -0.65580000 -4.64530000
-5.93320000 -1.20240000 6.24410000
-7.70570000 -0.40430000 -4.79600000
-8.49320000 6.66160000 4.19880000
-8.97640000 6.62150000 2.79650000
-7.65290000 -0.42840000 -4.29680000
-5.19410000 -3.67020000 2.75910000
-7.08460000 -1.19050000 5.52270000
-7.35700000 -1.06290000 5.33890000
-8.00570000 -0.81930000 -4.45500000
-7.94710000 -0.72320000 -4.26540000
-7.30130000 -0.71120000 5.56200000
-7.90590000 -0.67220000 -4.49640000
-5.16410000 -3.60240000 3.30940000
-7.91710000 -0.51060000 -4.42090000
-7.45730000 -1.22190000 5.14950000
-4.99740000 -3.47530000 3.00970000
-7.71200000 -1.21500000 5.20480000
-7.54930000 -1.09110000 5.24610000
-8.00300000 -0.17720000 -4.46220000
-8.70140000 6.79110000 2.06260000
-7.58520000 -0.92880000 5.29090000
-7.78180000 -1.02420000 5.29570000
-8.00280000 -0.05450000 -3.85630000
-7.50400000 -0.02470000 -4.75880000
-7.42220000 -0.84720000 5.39010000
-7.61530000 -0.73060000 5.27770000
-8.35870000 0.91220000 2.60730000
-8.24350000 -0.28280000 -3.97290000
-7.03350000 -0.79510000 5.87840000
-9.10330000 6.46970000 1.06090000
-4.80430000 -3.39910000 3.67360000
-6.59470000 -0.65410000 6.44670000
-6.76900000 -0.65060000 5.68560000
-5.16980000 -3.20430000 -3.95050000
-8.37550000 -0.04690000 -3.88890000
-8.24410000 0.08350000 -4.07530000
-5.14950000 -3.02370000 -3.78910000
-8.08640000 0.28510000 -4.33610000
-5.23050000 -2.90360000 -3.44180000
-5.00170000 -2.86830000 -3.54160000
-4.79810000 -3.23440000 3.25710000
-8.39540000 0.17500000 -3.98450000
-8.76740000 0.10550000 -3.76640000
-8.56000000 0.08990000 -3.85890000
-6.94500000 -0.35580000 6.25080000
-5.23880000 -2.81610000 -4.06380000
-5.46700000 -2.94830000 -3.82660000
-4.48390000 -3.18670000 3.51770000
-8.69220000 0.23420000 -3.95320000
-5.02240000 -2.91800000 -3.79240000
-8.91460000 7.11960000 2.86660000
-8.49720000 7.10070000 3.91420000
-7.40380000 -1.98460000 3.46740000
-7.21110000 -1.96250000 3.41310000
-7.30260000 -2.03160000 3.60690000
-7.46160000 -1.88030000 3.33130000
-7.05940000 -1.99860000 3.70120000
-9.26320000 7.02020000 3.23910000
-9.24900000 6.79210000 2.92440000
-8.84210000 6.81980000 4.15790000
-8.85060000 6.92060000 4.33810000
-5.29370000 -2.59200000 -4.01830000
-7.99430000 -0.44150000 -3.61830000
-7.59010000 -1.85360000 3.44090000
-4.75000000 -3.09340000 2.89490000
-9.27180000 7.27250000 2.53660000
-8.90360000 7.31070000 3.76410000
-9.12870000 7.35460000 3.69020000
-9.21480000 7.28450000 3.60370000
-7.29960000 -1.50850000 3.54660000
-9.51600000 7.03600000 2.23880000
-9.19480000 7.14340000 1.71190000
-6.26500000 -2.35670000 -0.94330000
-5.33630000 -3.35840000 3.01250000
-8.22720000 -0.08510000 -3.26480000
-8.44100000 1.61120000 -1.75320000
-5.05680000 -3.26480000 2.90320000
-5.09930000 -3.13660000 3.26920000
-5.02660000 -2.94360000 3.42260000
-9.53920000 7.30950000 1.53550000
-7.80960000 -1.59330000 3.61180000
-8.96160000 1.57210000 -1.77510000
-5.45480000 -2.47040000 -3.97380000
-9.02290000 1.66080000 -2.07470000
-8.00280000 -1.32270000 3.66160000
-7.79490000 -1.52930000 3.88890000
-7.56010000 -1.23730000 3.77980000
-7.77040000 0.18070000 -4.34020000
-8.01240000 -1.02210000 4.03270000
-5.17240000 -3.19880000 2.54390000
-5.08080000 -3.13050000 2.48460000
-4.90170000 -3.13060000 2.98750000
-7.66620000 -0.03520000 -5.03630000
-7.90760000 2.51240000 -2.62460000
-8.30450000 -0.99240000 3.45910000
-7.82330000 -0.97460000 3.64100000
-7.38950000 -0.10030000 -5.45860000
-7.57270000 0.01440000 -5.23870000
-8.15140000 2.47400000 -1.68350000
-8.94980000 6.91690000 0.49010000
-7.31160000 -1.11500000 4.55910000
-7.82900000 -0.13390000 -4.82160000
-7.90510000 0.13310000 -4.75890000
-7.70020000 0.29480000 -5.14040000
-7.42630000 0.35840000 -4.93510000
-7.54420000 0.20390000 -5.71310000
-7.25680000 0.14700000 -5.78180000
-7.44830000 0.04560000 -5.57260000
-6.84620000 0.26350000 -6.22090000
-7.68630000 0.25620000 -5.62940000
-7.62150000 0.12630000 -5.39190000
-7.72140000 0.30280000 -5.45810000
-7.60540000 0.37050000 -5.74240000
-7.38640000 0.37820000 -5.78270000
-6.40320000 -2.82780000 0.06370000
-6.96500000 0.46500000 -5.54690000
-7.19660000 0.50350000 -5.85930000
-6.58620000 -0.27350000 6.09070000
-9.11930000 7.03160000 -0.59320000
-9.30700000 7.19810000 0.87510000
-8.04710000 -1.10940000 5.17750000
-8.05640000 -1.16170000 5.08390000
-7.98190000 -0.96580000 4.88690000
-8.03750000 -0.94560000 5.05270000
-7.39950000 0.68020000 -4.86230000
-9.13850000 7.07740000 -1.19180000
-7.89350000 -0.76560000 4.74780000
-7.90610000 -0.74210000 4.99990000
-7.92540000 -0.95780000 5.23580000
-7.43840000 0.58790000 -5.70490000
-6.46680000 -2.65800000 -0.42400000
-7.36350000 0.86700000 -5.59180000
-7.91480000 -0.82850000 5.17190000
-7.73610000 -0.65910000 5.16270000
-9.68970000 6.99650000 0.54310000
-6.44660000 -2.60790000 -0.98380000
-6.65350000 -2.51150000 -0.17280000
-9.75550000 7.20610000 0.28530000
-7.68220000 1.62730000 5.43670000
-7.80760000 1.71850000 5.28430000
-6.65860000 -2.23590000 -0.23700000
-7.80060000 1.75140000 5.50890000
-7.65290000 1.77010000 5.64510000
-7.91130000 1.84470000 5.43760000
-6.32970000 -2.82600000 0.66900000
-6.44770000 -2.65950000 0.45070000
-7.86240000 1.95580000 5.09280000
-6.26170000 -2.39870000 0.64030000
-7.84860000 1.88140000 5.25470000
-8.01270000 1.92740000 5.59180000
-8.02310000 2.05340000 5.50380000
-7.88200000 2.08600000 5.31390000
-7.74520000 0.41270000 -5.56900000
-7.68130000 0.48800000 -5.65070000
