-64.22230000 -25.70260000 -12.54970000
-45.02040000 28.39180000 -41.92190000
-46.82260000 31.57750000 -43.78750000
-46.09710000 30.32970000 -42.60630000
-47.12650000 29.19390000 -43.71200000
-23.50920000 -5.21250000 -37.37580000
-45.87250000 29.06430000 -42.00200000
-44.75550000 31.79100000 -41.68750000
-63.07250000 -23.79490000 -19.57690000
-45.80450000 32.70470000 -41.57890000
-43.10670000 31.84960000 -42.78280000
-63.85700000 -24.01220000 -16.67040000
-64.20840000 -23.86100000 -17.81590000
-51.86160000 4.24700000 -21.14280000
-37.84880000 29.40210000 -44.65340000
-36.84800000 25.59420000 -44.98850000
-40.03440000 31.65530000 -43.70530000
-19.71210000 -16.84920000 -43.06690000
-36.87490000 28.57720000 -43.93800000
-38.70660000 31.27100000 -42.78090000
-26.00130000 15.70200000 -43.38270000
-43.34190000 15.72170000 -36.30910000
-35.91490000 32.57580000 -44.58660000
-39.24270000 34.48720000 -42.40220000
-62.97430000 -22.25890000 -18.57310000
-64.68650000 -24.32950000 -14.40950000
-41.27990000 17.59300000 -38.12770000
-54.86320000 -8.72830000 -16.00120000
-41.59490000 34.78950000 -42.94000000
-39.67520000 33.77550000 -42.98720000
-49.23860000 30.62460000 -42.89670000
-63.08650000 -24.21460000 -12.43360000
-21.17540000 -12.97720000 -43.22810000
-55.54510000 1.06490000 -17.94260000
-42.34460000 18.47260000 -40.60160000
-41.47500000 18.94700000 -41.94770000
-39.66360000 17.21010000 -41.77490000
-41.64120000 19.10400000 -39.16370000
-40.39230000 17.57460000 -40.13570000
-62.58470000 -22.89570000 -13.44610000
-38.78000000 17.16210000 -40.78390000
-33.01790000 29.81390000 -46.14890000
-62.92610000 -22.75880000 -16.41700000
-63.42960000 -17.39340000 -14.60870000
-63.53060000 -19.99870000 -16.84700000
-16.00630000 -8.49920000 -38.51610000
-60.85410000 -25.10350000 -6.81240000
-23.29900000 -13.29240000 -43.36780000
-36.94500000 17.88930000 -42.30370000
-37.57020000 17.81530000 -43.28160000
-40.57750000 21.17280000 -43.73670000
-60.99350000 -25.20440000 -9.99140000
-36.03830000 19.62280000 -43.19060000
-60.60860000 -25.09010000 -8.34500000
-10.36290000 -3.41740000 -50.19800000
-3.33100000 6.31660000 -51.08580000
-5.62110000 12.84130000 -50.99080000
-22.91210000 -11.41840000 -44.50010000
-60.53610000 -22.25910000 -7.49100000
-60.40730000 -23.86210000 -4.87290000
-1.46520000 18.16460000 -51.57450000
-61.16590000 -21.10020000 -6.65060000
-60.33910000 -21.99430000 -5.49290000
-19.15790000 -7.63340000 -43.63990000
-36.24560000 0.28080000 -28.42220000
-40.34570000 0.67080000 -20.94670000
-61.48200000 -21.47300000 -9.54480000
-16.14590000 -12.90010000 -44.10300000
-62.65650000 -19.07420000 -11.51910000
-30.41080000 11.42750000 -44.36690000
-29.88110000 5.65660000 -43.99800000
-21.33450000 -8.34910000 -43.98440000
-2.16170000 11.57620000 -46.17250000
-29.02320000 13.18300000 -45.27180000
-25.74950000 10.43480000 -44.68800000
-61.60120000 -18.06830000 -8.36300000
-20.18150000 -6.45620000 -37.79980000
-35.51110000 39.29110000 -45.94830000
-38.63600000 36.32990000 -43.53170000
-57.25710000 -23.00900000 -21.21290000
-26.59190000 15.24280000 -47.01700000
-50.57580000 -22.18720000 -22.13970000
-53.62140000 -21.59790000 -19.28400000
-27.86790000 37.65360000 -47.78490000
-57.33100000 -21.59230000 -19.82980000
-27.77380000 31.35920000 -47.69080000
-24.51340000 22.25000000 -48.07420000
-31.06890000 16.60970000 -45.61980000
-6.65450000 15.66890000 -46.79070000
-55.71140000 -18.82890000 -18.53200000
-32.25570000 39.53190000 -46.50750000
-48.55040000 -19.08200000 -22.25810000
-50.24470000 -15.96090000 -19.56480000
-28.52260000 11.38490000 -44.01540000
-27.17250000 8.04420000 -43.53800000
-53.90280000 -15.57760000 -18.11310000
-60.00560000 -23.54040000 -8.60820000
-29.93280000 40.44090000 -47.62450000
-30.87320000 41.34100000 -46.76210000
-59.69150000 -23.26730000 -2.89540000
-40.67450000 43.66390000 -46.30440000
-34.48330000 43.23300000 -47.07190000
-60.20020000 -21.42170000 -2.89290000
-30.41100000 42.80580000 -48.36330000
-60.26970000 -18.25750000 -6.16830000
-34.21560000 43.82450000 -48.81900000
-29.71690000 43.20580000 -50.74280000
-30.33620000 43.20720000 -52.98120000
-29.23840000 14.71610000 -42.22730000
-25.67570000 7.59840000 -41.71790000
-60.66210000 -16.35050000 -6.59470000
-60.34940000 -17.47870000 -2.10390000
-34.72620000 44.97700000 -50.50490000
-59.86530000 -16.43980000 -4.56330000
-43.60320000 46.13210000 -46.20290000
-34.68420000 47.35770000 -51.37070000
-61.06530000 -20.37720000 -20.37150000
-48.97310000 12.06540000 -34.96800000
-46.21260000 10.12990000 -35.56510000
-48.40550000 10.38860000 -33.85930000
-46.41730000 10.85060000 -36.18180000
-62.39780000 -17.39150000 -18.75060000
-46.53680000 11.17040000 -12.34840000
-43.73820000 -0.34750000 -11.92680000
-49.19710000 13.74490000 -34.79190000
-46.69070000 12.39340000 -35.78710000
-63.41370000 -17.82870000 -17.80260000
-44.40410000 11.51130000 -37.39120000
-62.85440000 -14.91880000 -17.08840000
-63.60910000 -12.36550000 -15.32000000
-32.53510000 21.77780000 -41.97350000
-33.80210000 17.15610000 -38.57890000
-30.32930000 45.03380000 -53.87380000
-28.64560000 23.38140000 -43.24290000
-46.04250000 14.92220000 -36.54960000
-30.01310000 7.28900000 -38.33080000
-46.09490000 34.74960000 -41.02720000
-50.20450000 5.90300000 -21.88680000
-44.73780000 16.75400000 -35.46130000
-46.02680000 24.10970000 -40.84690000
-46.04200000 25.32890000 -41.46100000
-43.96170000 21.55040000 -41.65730000
-63.76370000 -10.94110000 -12.04180000
-54.91630000 8.33940000 -25.77180000
-54.79130000 6.09860000 -24.11340000
-56.56340000 4.68650000 -21.77190000
-44.03670000 24.47050000 -39.45640000
-46.46900000 25.96100000 -39.01880000
-55.59800000 8.60040000 -24.51160000
-57.40620000 7.36740000 -22.43340000
-47.49640000 26.40770000 -40.84800000
-49.02400000 25.65160000 -39.93230000
-49.24510000 26.55690000 -41.50690000
-59.48500000 -19.72640000 -20.95140000
-35.83100000 -15.71820000 -14.95890000
-52.64520000 9.26520000 -28.32890000
-52.98280000 11.42700000 -29.49950000
-51.02410000 10.47510000 -29.95560000
-52.10570000 7.31900000 -24.92550000
-53.71780000 5.88250000 -23.53050000
-53.13820000 8.14790000 -26.20820000
-52.54130000 14.01770000 -31.77540000
-50.83460000 12.96230000 -31.82640000
-57.81710000 -18.53060000 -19.44690000
-60.72620000 -16.24250000 -19.58470000
-55.54660000 11.07780000 -25.15640000
-50.99220000 9.72850000 -25.77860000
-50.19420000 11.01180000 -27.99980000
-47.70030000 33.52050000 -43.36610000
-59.41390000 -12.72600000 -18.39500000
-47.73460000 34.69760000 -41.86830000
-54.67140000 13.29160000 -27.51420000
-55.46170000 4.55120000 -19.44650000
-57.84980000 3.36560000 -16.22960000
-44.59850000 35.68530000 -41.99280000
-42.97580000 20.47950000 -40.07210000
-55.33920000 15.03820000 -26.74690000
-54.75400000 14.57750000 -28.83180000
-42.07090000 21.40760000 -39.15680000
-57.01690000 -13.14270000 -17.64960000
-44.19410000 23.53720000 -37.35820000
-58.01660000 3.91160000 -18.68740000
-58.09140000 5.11950000 -20.95570000
-48.26270000 35.68080000 -40.59870000
-45.99890000 36.88720000 -41.37490000
-47.19930000 41.42270000 -43.31470000
-49.85900000 36.89390000 -40.91010000
-43.36980000 37.98260000 -42.69310000
-43.08460000 23.41200000 -43.20140000
-43.37970000 22.42560000 -40.98070000
-52.94970000 6.21700000 -21.67870000
-53.25150000 16.14920000 -31.52560000
-53.71680000 16.27050000 -29.69930000
-42.41110000 23.30800000 -39.31270000
-40.93560000 35.79530000 -42.21000000
-54.94400000 18.59710000 -28.45350000
-59.33670000 3.90940000 -15.58590000
-11.62360000 -13.07740000 -36.94650000
-56.37420000 15.32970000 -24.20490000
-36.87310000 19.43030000 -44.54180000
-8.33540000 -14.54370000 -36.33930000
-36.44050000 21.56230000 -44.69040000
-61.04600000 -11.69420000 -18.09850000
-37.40540000 22.72680000 -45.07640000
-40.38670000 24.31560000 -44.56060000
-53.74720000 20.58900000 -30.81090000
-58.40170000 8.23670000 -20.49060000
-57.34050000 11.77840000 -22.57280000
-57.35940000 10.18550000 -21.94900000
-57.80980000 11.58290000 -20.19500000
-35.95380000 22.75120000 -43.05850000
-36.62160000 23.30260000 -43.28830000
-58.43900000 13.04600000 -20.93170000
-57.14210000 12.98680000 -23.60300000
-33.80650000 23.58800000 -44.53140000
-55.12670000 11.48520000 -22.35480000
-56.69630000 13.92020000 -22.17830000
-60.31990000 7.78150000 -17.09980000
-58.16630000 8.58580000 -18.97920000
-57.71670000 14.26560000 -20.69190000
-57.18490000 16.04940000 -21.64440000
-4.64760000 -15.07500000 -37.01640000
-44.51450000 25.89170000 -42.01450000
-56.94850000 10.31980000 -18.84340000
-60.31640000 13.84140000 -16.47530000
-59.10330000 10.68520000 -17.37320000
-61.05150000 13.98680000 -15.32170000
-56.15230000 9.46370000 -22.45840000
-58.34080000 13.06170000 -18.91050000
-54.61030000 11.19480000 -23.03410000
-58.61590000 15.32730000 -20.06520000
-60.23170000 15.07330000 -17.25880000
-49.74270000 37.79190000 -23.28790000
-46.08530000 25.61430000 -20.45030000
-43.96600000 39.48610000 -33.31160000
-59.27980000 16.10530000 -18.24710000
-59.35880000 9.40540000 -16.37860000
-57.28480000 9.77250000 -17.65670000
-60.83900000 -16.58100000 -7.79550000
-62.08040000 -14.48480000 -8.89400000
-59.64470000 -14.82600000 -5.90900000
-50.54790000 8.10990000 -22.67020000
-55.54030000 12.40700000 -23.98930000
-60.37050000 -12.43930000 -6.38100000
-49.06430000 7.75570000 -23.17100000
-1.48380000 -15.75850000 -36.58980000
-62.52960000 -8.46050000 -7.92810000
1.40580000 -15.95820000 -35.31210000
-36.30680000 25.79830000 -43.37720000
-57.45400000 18.49970000 -21.72050000
-60.43290000 17.69270000 -16.04200000
-59.68660000 19.54000000 -16.72380000
-63.43620000 -10.03180000 -15.60210000
-58.11570000 20.01580000 -19.73550000
-60.97730000 -7.36720000 -4.50490000
-38.12240000 30.06380000 -37.74300000
-41.43240000 22.39330000 -28.66550000
0.30520000 -8.62010000 -40.13960000
-6.95160000 -9.98120000 -39.47220000
2.51490000 -11.42230000 -37.94810000
-39.22850000 37.01840000 -38.54030000
-56.17280000 20.38400000 -26.28610000
-55.89560000 20.81720000 -23.54110000
-59.74610000 -8.57550000 -15.32510000
-57.02810000 -7.35190000 -15.53920000
-56.69840000 19.22360000 -21.35030000
-34.83590000 27.72960000 -41.04860000
-33.06710000 33.17400000 -42.02740000
-54.84210000 20.41150000 -20.82190000
-56.02020000 20.84030000 -19.65090000
-58.26600000 21.00010000 -17.01410000
-54.61450000 21.51880000 -22.17600000
-58.05630000 23.55190000 -20.12650000
-36.26640000 41.68050000 -41.45500000
-47.68980000 8.49570000 -32.69730000
-46.09330000 8.77060000 -30.89340000
-48.65430000 9.75740000 -32.32250000
-48.86810000 11.86660000 -33.17530000
-47.35880000 9.47460000 -26.98030000
-47.07490000 10.47120000 -30.78280000
-46.06370000 -25.92680000 -30.72030000
-42.71960000 -26.35790000 -32.43770000
-48.47080000 11.17250000 -25.99730000
-47.05080000 12.91670000 -30.65970000
-13.12490000 -12.73860000 -37.62430000
-50.00680000 12.06300000 -30.42360000
-49.05620000 13.51110000 -31.34440000
-45.13970000 -23.85130000 -30.62020000
-40.85490000 -26.47030000 -33.27440000
-48.39090000 -29.56900000 -28.77830000
-49.97550000 13.29580000 -33.81160000
-13.40510000 -7.45320000 -39.75860000
-47.62020000 13.80450000 -30.55520000
-47.40500000 -28.67790000 -28.55600000
-48.08480000 -25.86130000 -28.58270000
-49.09720000 11.49570000 -26.02550000
-47.48140000 13.80690000 -28.81310000
-48.74320000 -24.45910000 -27.53980000
-15.71310000 -9.23000000 -46.59910000
-45.81920000 -21.81910000 -28.01630000
-47.12830000 -22.24550000 -26.04290000
-50.58180000 14.73280000 -34.70090000
-49.18930000 -23.08810000 -25.85950000
-50.03420000 17.06190000 -35.42210000
-47.96540000 15.43510000 -34.88590000
-51.91710000 19.53670000 -34.07620000
-49.70010000 18.63450000 -34.92760000
-43.27870000 -22.57070000 -30.54280000
-48.72960000 19.64940000 -35.81440000
-41.63680000 42.95340000 -38.08900000
-45.96530000 17.91990000 -36.70400000
-44.69350000 19.38550000 -35.55720000
-45.68800000 44.32270000 -35.14930000
-42.89310000 46.72520000 -39.79740000
-38.13270000 46.75410000 -42.90820000
-27.60890000 31.11260000 -44.14970000
-39.63530000 -27.20290000 -35.13600000
-49.70770000 47.00680000 -43.37760000
-4.70430000 -5.02680000 -45.70060000
-7.56260000 -13.55720000 -46.75020000
-29.44230000 -27.17940000 -44.12370000
-26.55040000 -28.89060000 -44.05960000
-6.95690000 -6.85450000 -46.50800000
-37.57880000 -24.48170000 -39.00540000
-44.41600000 47.71050000 -45.91910000
-38.93330000 -24.65850000 -36.89560000
-39.60430000 -24.29900000 -34.27490000
-27.82430000 -22.70060000 -44.50600000
-54.54510000 20.46770000 -28.31580000
-53.09330000 21.69070000 -30.22210000
-55.46630000 21.40730000 -26.15140000
-53.82960000 21.70180000 -26.97470000
-55.32030000 22.76220000 -26.90800000
-54.92720000 22.02750000 -23.94430000
-56.67740000 23.06660000 -24.91480000
-58.01510000 25.27410000 -26.49590000
-55.54810000 25.96890000 -27.82080000
-53.77200000 23.26600000 -27.24780000
-46.71190000 -16.31430000 -23.35710000
-57.38780000 24.91600000 -22.73620000
-59.16330000 25.22450000 -24.70880000
-58.81270000 25.35430000 -23.64570000
-59.86900000 26.28050000 -21.59980000
-62.46860000 26.85860000 -19.21290000
-61.68480000 26.51960000 -21.73640000
-31.13670000 -0.49510000 -44.03160000
-63.30870000 30.02520000 -23.42570000
-61.05100000 28.71100000 -24.23990000
-64.65130000 27.82560000 -20.49670000
-64.51890000 29.70850000 -23.16720000
-57.79830000 27.10680000 -26.53660000
-57.02640000 26.92900000 -28.85290000
-58.07940000 28.19380000 -28.27500000
-32.26260000 45.04470000 -43.98710000
-55.84770000 28.59700000 -30.02360000
-58.54500000 29.73490000 -27.23860000
-58.77020000 27.09150000 -25.38450000
-26.75410000 41.16430000 -44.64630000
-60.44200000 30.65740000 -26.52130000
-36.69120000 14.02950000 -33.55130000
-51.31470000 20.92710000 -34.29450000
-52.11340000 21.73510000 -32.83910000
-49.93720000 22.44050000 -34.73520000
-50.57430000 22.98480000 -36.54230000
-51.90680000 23.26810000 -34.46130000
-34.01910000 49.04660000 -47.34290000
-45.63760000 26.37020000 -36.97650000
-12.81690000 -19.90520000 -45.55040000
-51.56400000 22.22720000 -30.46240000
-50.55530000 22.79710000 -33.22960000
-51.77070000 24.20950000 -32.71630000
-53.38350000 24.01650000 -29.08980000
-46.66700000 20.02970000 -37.20470000
-4.12870000 -20.82070000 -46.84360000
-29.98170000 47.18020000 -45.94790000
-48.27720000 21.82110000 -36.09700000
-46.43540000 22.59070000 -35.44740000
-48.44060000 23.44450000 -34.55850000
-48.60200000 24.31220000 -35.86560000
-26.70450000 31.34370000 -48.33280000
-23.12540000 32.74740000 -49.23050000
-25.00550000 34.58640000 -48.55560000
-22.27200000 -4.99500000 -44.77730000
-47.24310000 24.86450000 -34.66520000
-53.29790000 25.68620000 -35.21140000
-51.78080000 23.39440000 -36.15150000
-53.79020000 25.04390000 -33.35100000
-49.59030000 24.06190000 -38.24280000
-50.70380000 25.94200000 -39.61870000
-51.86880000 27.15370000 -38.60420000
-54.74530000 27.34520000 -32.93920000
-21.30060000 -4.13170000 -39.40360000
-54.15370000 27.79590000 -32.13690000
-23.65940000 0.10820000 -40.10870000
-22.18580000 35.58080000 -49.07950000
-54.66230000 28.77460000 -31.36400000
-20.29340000 35.17300000 -49.49410000
-22.45270000 0.69160000 -40.41120000
-19.19010000 0.23710000 -41.47150000
-27.57280000 -0.66830000 -44.65980000
-24.07320000 0.04060000 -44.25050000
-23.85770000 38.21100000 -48.51910000
1.71150000 -13.03680000 -47.38450000
-47.52800000 26.10440000 -38.77650000
5.47730000 -14.02800000 -47.27020000
-52.59350000 21.67770000 -28.00150000
-16.09350000 18.55320000 -48.44300000
-38.12060000 -15.66650000 -8.94580000
-42.37540000 -9.73380000 -4.62170000
-22.10590000 39.21680000 -49.43470000
-12.61440000 -11.84540000 -47.68690000
-19.78870000 38.65230000 -48.35190000
-19.86600000 40.08640000 -49.35490000
-26.43240000 40.93940000 -49.36840000
-22.15980000 41.78390000 -49.75070000
-10.33940000 -10.69330000 -47.79150000
-47.61720000 27.19000000 -42.72640000
-17.64190000 36.24380000 -48.17780000
-40.92650000 -9.44930000 -10.71170000
-50.19520000 35.40920000 -41.95220000
-57.03940000 30.30610000 -33.51510000
-55.58490000 29.46270000 -33.15620000
-58.14920000 29.43060000 -30.49110000
-56.49970000 33.26740000 -34.40390000
-56.15580000 32.19110000 -35.19410000
-57.28870000 31.74100000 -32.21850000
-15.88510000 38.27100000 -48.76630000
-65.87100000 29.86620000 -21.19380000
-64.54420000 31.77740000 -24.69570000
-17.57790000 38.95770000 -48.29430000
-65.77520000 31.14460000 -21.39300000
-62.82140000 32.00720000 -26.75830000
-65.32520000 33.55200000 -22.80340000
-9.14420000 -7.55060000 -47.50200000
-8.28470000 35.28020000 -51.39330000
-9.67200000 -6.26810000 -49.27420000
-63.63010000 33.71390000 -25.76510000
-66.11670000 36.76400000 -24.31270000
-11.08190000 38.31720000 -50.34790000
-12.45570000 35.80060000 -49.48890000
-61.24040000 31.52940000 -28.01200000
-13.50840000 38.16240000 -48.81750000
-61.30980000 33.74060000 -27.93250000
-59.31480000 29.75700000 -28.48700000
-59.64920000 31.60560000 -28.84750000
-57.90460000 30.73370000 -30.02940000
-60.53930000 33.25860000 -29.28460000
-14.03700000 41.84500000 -45.99500000
-19.10460000 40.16440000 -48.51190000
-64.09950000 37.65750000 -27.29450000
-13.76440000 -4.08350000 -49.57690000
-15.40090000 41.49320000 -49.31760000
-20.53890000 42.03770000 -49.13990000
-65.27980000 38.71640000 -25.89920000
-19.62390000 43.48540000 -50.55670000
-15.91880000 43.72380000 -51.24860000
-13.08590000 43.20110000 -52.79440000
-10.63150000 42.29450000 -56.06200000
-10.57170000 42.14220000 -52.05770000
-13.17110000 40.10250000 -48.84470000
-60.87680000 37.92520000 -29.65520000
-62.45810000 38.29200000 -28.69930000
-10.68940000 41.03740000 -50.66260000
-53.22110000 28.98350000 -38.95520000
-53.87700000 29.22980000 -36.74080000
-16.71730000 44.96800000 -46.12650000
-26.40560000 42.78400000 -53.63960000
-27.70520000 43.98550000 -54.61230000
-52.68860000 31.08280000 -39.68230000
-55.28200000 30.17990000 -36.77320000
-24.46180000 45.05130000 -53.53310000
-27.32180000 42.89030000 -49.11680000
-24.65650000 42.79490000 -51.00970000
-27.40450000 43.26350000 -50.40010000
-55.43140000 31.86710000 -36.53750000
-54.15130000 31.24380000 -37.15740000
-21.47470000 44.80130000 -52.23420000
-52.42710000 33.50830000 -39.79720000
-53.57940000 36.26350000 -39.29930000
-55.99770000 35.00060000 -36.66040000
-29.17460000 47.83410000 -53.96600000
-55.66620000 36.87160000 -36.22930000
-55.12240000 37.36510000 -38.06840000
-25.37140000 48.66000000 -53.40650000
-21.02440000 47.84090000 -52.55170000
-20.41120000 21.96560000 -48.16190000
-20.38460000 23.21230000 -48.73820000
-24.73030000 47.43490000 -47.33140000
-22.49220000 49.67210000 -50.13720000
-61.67860000 -9.07230000 -15.65450000
-62.55230000 -7.73140000 -12.17090000
-63.80120000 39.79090000 -26.53020000
-16.46950000 45.84550000 -52.28300000
-12.90750000 45.01300000 -54.55640000
-59.11960000 -5.92270000 -14.18900000
-61.76340000 -2.78360000 -8.23720000
-14.38950000 47.72270000 -53.26650000
-66.40340000 42.17670000 -23.38840000
-57.75560000 -2.80200000 -14.42970000
-18.12280000 47.51740000 -47.25600000
-17.58280000 49.94930000 -51.84180000
-17.09440000 48.89620000 -52.36600000
-59.72150000 -0.86030000 -10.38060000
-27.30630000 49.86610000 -53.01600000
-59.14450000 0.89810000 -12.22970000
-14.99290000 49.05410000 -48.42110000
-60.39240000 2.32230000 -9.44700000
-59.41520000 3.01330000 -13.56220000
-63.57980000 2.94480000 -13.15590000
-62.35940000 1.99730000 -12.40940000
-64.15560000 3.16310000 -11.47690000
-15.76180000 49.99630000 -50.00350000
-63.40080000 5.16440000 -13.94680000
-12.50670000 49.93120000 -54.00660000
-4.75400000 49.59200000 -54.44190000
-7.57610000 48.74740000 -50.47160000
-60.70080000 5.33130000 -17.82920000
-59.80560000 3.93480000 -18.10560000
-61.16370000 4.04670000 -16.77300000
-61.10030000 2.51560000 -14.47210000
-12.32210000 45.91130000 -46.56220000
-4.91420000 45.58720000 -48.54440000
-61.59510000 9.67160000 -15.15910000
-63.82680000 7.98400000 -12.46780000
-61.52070000 8.24060000 -16.20130000
-61.82600000 11.94260000 -15.19410000
-16.87620000 -2.22490000 -41.63260000
-37.62860000 49.21090000 -49.37950000
-41.56790000 47.78890000 -47.83640000
-42.43180000 48.78150000 -46.97240000
-31.52130000 49.50070000 -52.69990000
-46.91080000 48.18710000 -44.16680000
-46.37910000 48.71910000 -43.31380000
-52.09310000 16.17030000 35.32340000
-52.31050000 16.89860000 40.30060000
-51.05080000 16.64310000 37.83000000
-50.04040000 16.63930000 35.39820000
-59.61900000 14.14570000 22.97880000
-58.21160000 13.56650000 21.27470000
-56.68430000 13.82130000 23.52100000
-62.32060000 15.85530000 20.17620000
-59.86070000 35.02710000 7.18670000
-63.15700000 40.06950000 3.02730000
-62.47210000 41.53090000 9.28850000
-48.93490000 17.71430000 38.16620000
-17.02780000 41.66690000 50.60550000
-15.66420000 36.71150000 48.75540000
-10.86200000 37.99610000 48.47500000
-48.54980000 18.83740000 38.07860000
-50.66240000 18.15980000 35.50560000
-59.35870000 -17.69740000 -0.77100000
-58.81990000 39.72620000 15.76040000
-60.67960000 17.05120000 23.79150000
-56.88970000 16.21830000 27.10220000
-10.11230000 32.48510000 45.43170000
-11.34900000 30.52330000 45.97890000
-7.97460000 24.48710000 44.36620000
-64.03440000 11.46240000 5.93400000
-62.75710000 4.75870000 7.22100000
-61.61980000 6.04360000 11.16770000
-6.47500000 29.79880000 45.86750000
-52.21670000 15.23280000 41.19950000
-49.21270000 14.11160000 41.43120000
-51.53340000 16.46930000 41.94040000
-62.69110000 13.89380000 9.91590000
-51.10670000 17.43720000 42.21300000
-49.54300000 17.41550000 42.88610000
-48.53610000 14.84150000 42.16190000
-6.90720000 37.14810000 48.13190000
-49.01990000 16.74890000 43.53230000
-62.37600000 42.22060000 12.01050000
-59.31200000 -15.44550000 2.82890000
-49.26890000 18.34120000 40.90000000
-2.12660000 31.64120000 48.25000000
-50.03430000 19.07740000 43.96820000
-48.72480000 18.65950000 45.04630000
-48.78040000 18.70090000 42.19850000
-68.45970000 34.11640000 -17.77630000
-66.99150000 35.31510000 -21.06400000
-2.02360000 19.12500000 44.64530000
-48.46810000 19.87340000 42.98940000
-52.68750000 20.01040000 35.22600000
-54.31440000 20.52220000 34.73380000
-55.21810000 18.50130000 31.36790000
-56.47260000 22.60520000 31.78220000
-59.48690000 -14.74530000 -2.76130000
-55.69400000 24.23430000 33.41880000
-59.37410000 12.29580000 16.46170000
-61.51540000 16.86800000 13.30700000
-67.72590000 28.80170000 -16.40100000
-68.58320000 31.87100000 -16.26780000
-67.62540000 29.31890000 -15.26650000
-67.55670000 31.35820000 -14.98230000
-64.18550000 16.42350000 14.39550000
-66.29200000 17.16860000 14.94850000
-65.97040000 17.65090000 11.78830000
-63.82720000 16.72020000 12.44820000
-67.83600000 19.53380000 12.28180000
-64.59840000 19.15710000 10.38620000
-50.36060000 21.11570000 37.51950000
-68.29620000 34.70110000 -16.54370000
-69.77140000 35.09400000 -13.28520000
-69.75930000 32.80290000 -9.63720000
-67.63570000 20.04570000 9.55820000
-54.10370000 23.01960000 35.38080000
-52.88260000 20.96420000 36.71990000
-63.48520000 16.96970000 5.11910000
-51.79000000 21.91860000 38.52360000
-52.90950000 23.24190000 38.62370000
-51.64900000 25.06290000 39.85640000
-66.01830000 18.53200000 4.68850000
-65.30840000 16.07260000 3.21190000
-50.24590000 24.45170000 38.48830000
-69.39350000 38.13660000 -18.19910000
-48.65970000 22.70300000 37.99960000
-48.44040000 20.87130000 38.48620000
-69.02350000 39.40530000 -17.90390000
-71.64960000 40.12580000 -12.11760000
-12.09760000 35.11600000 47.42730000
-67.89970000 40.07140000 -21.99020000
-56.58620000 -13.86730000 10.03480000
-46.99990000 14.31510000 33.88930000
-47.53350000 13.00800000 35.17910000
-49.56950000 13.97260000 34.24060000
-47.21940000 15.43140000 31.91060000
-48.62340000 13.11110000 29.45300000
-45.96660000 12.77090000 34.55240000
-62.42600000 18.88310000 10.58410000
-61.18070000 16.86810000 16.25180000
-6.85020000 40.80310000 50.34590000
-50.61170000 12.92750000 26.03950000
-49.84280000 17.03460000 29.51630000
-72.98540000 37.99100000 -6.09210000
-70.86690000 33.32530000 -4.89170000
-48.98900000 16.52890000 31.58850000
-62.93240000 20.40520000 7.89270000
-63.61900000 16.31170000 17.74880000
-59.96740000 -9.55760000 4.36070000
-1.08190000 32.08000000 40.43050000
-10.86740000 33.89610000 41.00120000
-3.49550000 38.87720000 42.75880000
-56.74390000 -10.01270000 14.69740000
-58.59540000 15.68480000 18.07980000
-57.06830000 -10.02420000 9.38800000
-2.14890000 38.53430000 50.46170000
-73.35080000 42.86670000 -7.03120000
-58.46870000 15.13810000 19.45830000
-65.53230000 18.12960000 18.20550000
-62.36970000 20.33100000 23.08130000
-61.49900000 18.91510000 23.30510000
-64.45980000 21.81510000 19.40360000
-61.28350000 -2.26480000 -0.67160000
-59.56760000 19.93880000 23.84710000
-2.33430000 43.16670000 52.38150000
-68.54870000 40.81040000 -20.25110000
-46.10920000 20.00150000 41.38410000
-46.06310000 20.17000000 39.78320000
-70.15070000 42.14960000 -16.29090000
-25.52710000 37.38480000 40.63550000
-19.21340000 33.99670000 40.79350000
-26.54640000 31.14880000 37.83790000
-44.52620000 21.36660000 43.27620000
-46.53180000 21.45810000 38.64490000
-44.09120000 21.33460000 40.85360000
-68.33550000 44.82700000 -20.47230000
-67.91200000 21.69070000 14.09280000
-45.69440000 23.28430000 40.35750000
-41.35520000 22.14180000 42.71900000
-65.93710000 23.07030000 16.89230000
-3.83250000 11.58320000 35.08900000
-4.78030000 12.35200000 35.86860000
2.91440000 17.29280000 36.87410000
-26.32040000 41.13470000 43.34440000
-16.47410000 39.22180000 43.30470000
-62.56370000 21.50090000 21.63340000
-62.22880000 23.10100000 21.02650000
-61.03790000 23.11170000 24.49690000
-1.09600000 23.08360000 38.50240000
-71.12270000 45.18090000 -13.90050000
-60.74650000 23.08270000 20.76400000
-60.09280000 22.92510000 21.68100000
-59.59400000 -8.15890000 6.54920000
-72.75590000 45.33550000 -7.93330000
-10.69060000 44.20550000 46.69050000
-20.16910000 42.75780000 45.93210000
-58.90110000 -6.57520000 9.62800000
-58.14120000 -8.04400000 13.42760000
-59.62540000 -5.78770000 12.70550000
-40.01220000 26.41250000 45.05360000
-69.02640000 46.19470000 -15.64100000
-73.65210000 45.23000000 -0.07000000
-67.13000000 45.96980000 -14.43950000
-48.47070000 30.63140000 41.73620000
-42.72080000 32.08530000 45.39650000
-69.94690000 32.01730000 -0.84320000
-73.95730000 38.84820000 0.88690000
-47.52310000 0.83580000 9.20890000
-46.93980000 1.13280000 6.78180000
-49.13310000 5.05120000 9.28370000
-57.77690000 20.53600000 24.85820000
-49.12440000 7.02220000 9.08810000
-59.52270000 21.56620000 25.48630000
-57.87690000 22.30700000 25.16980000
-60.62970000 21.79600000 25.15330000
-56.84370000 21.48200000 27.15270000
-58.42480000 18.80740000 26.33550000
-55.57260000 23.14950000 24.33180000
-55.39460000 22.61660000 25.01590000
-56.29690000 24.37110000 24.38150000
-62.88130000 5.40500000 2.59460000
-72.71890000 37.52760000 3.37830000
-55.72720000 23.49780000 26.95900000
-61.06540000 -2.56560000 9.43050000
-57.62150000 17.66830000 27.31540000
-57.01430000 19.88270000 29.18960000
-57.59740000 22.69070000 28.67680000
-18.99140000 42.85510000 52.06100000
-21.57650000 41.18370000 53.03250000
-20.59660000 36.55460000 50.57670000
-50.08910000 10.02760000 6.91770000
-49.26050000 7.86420000 1.09200000
-74.58100000 42.77170000 -0.49080000
-23.27520000 40.02280000 52.52330000
-23.00360000 43.01920000 53.31870000
-51.07230000 13.51080000 6.94290000
-57.75840000 24.80110000 29.01680000
-57.62670000 25.17480000 31.15080000
-20.50650000 44.03060000 53.17080000
-59.80010000 23.63500000 22.71820000
-59.01250000 23.86750000 25.90020000
-60.93960000 25.18780000 23.40170000
-60.03240000 25.51860000 26.78770000
-74.04690000 39.96390000 5.86340000
-59.28490000 25.01550000 28.05370000
-57.55610000 25.06870000 27.25850000
-74.30240000 43.06310000 4.99580000
-59.22300000 -7.38380000 16.40770000
-56.25880000 -8.61410000 17.13530000
-58.23060000 -5.96700000 17.94920000
-56.98180000 25.08380000 25.41890000
-58.63420000 24.86920000 21.27520000
-61.52000000 25.68590000 21.95080000
-60.05660000 25.11730000 21.20530000
-9.82540000 43.87590000 51.48060000
-69.81040000 45.26820000 -1.08510000
-66.78210000 43.48920000 -1.07780000
-65.62140000 43.39710000 -5.82500000
-55.21230000 -4.50490000 18.62710000
-60.53580000 25.97320000 24.94220000
-59.69020000 26.37910000 25.91090000
-16.49550000 44.34040000 51.45680000
-65.66760000 43.70790000 5.46910000
-60.74980000 29.08590000 25.05270000
-58.35100000 24.14010000 20.70170000
-58.71160000 26.71600000 29.03810000
-23.33790000 44.34340000 47.21490000
-55.50360000 24.95890000 27.09740000
-55.47940000 25.53930000 25.98200000
-59.68500000 -6.87490000 15.37940000
-56.91110000 26.30710000 31.50830000
-21.47350000 45.24890000 49.11170000
-72.60280000 37.75850000 5.10590000
-73.57930000 37.00070000 6.18770000
-73.64700000 36.78300000 8.63460000
-24.58680000 42.51300000 52.70030000
-23.69940000 44.37190000 53.04280000
-60.17310000 -1.96180000 16.01860000
-24.89390000 44.44610000 51.89650000
-59.04250000 28.60150000 27.62700000
-22.62310000 45.43930000 52.26300000
-60.08310000 -0.28650000 14.38290000
-19.02740000 45.42610000 52.35630000
-26.38640000 44.99100000 51.97070000
-73.06630000 40.30480000 11.51800000
-54.64350000 24.40070000 25.46550000
-16.57150000 46.07560000 51.48120000
-18.27070000 24.52290000 47.78410000
-18.81650000 18.63480000 47.75600000
-16.69050000 25.66780000 48.22240000
-16.22900000 20.08490000 48.00770000
-59.00620000 -2.16060000 18.69060000
-55.18040000 25.17110000 24.69820000
-49.98630000 13.58150000 -5.35960000
-54.35550000 24.03750000 -3.06490000
-19.51420000 25.66610000 48.51170000
-8.21840000 46.52140000 49.10660000
-55.90810000 25.18540000 3.55770000
-73.10130000 43.59200000 10.57560000
-71.26470000 42.44760000 14.56530000
-13.96140000 20.67510000 47.11300000
-18.24700000 31.26100000 49.40480000
-15.02450000 32.45340000 48.09900000
-71.40700000 44.83370000 12.73990000
-55.41410000 1.58470000 19.99280000
-55.56950000 28.22810000 34.39170000
-53.81940000 28.23110000 37.94110000
-52.55360000 25.93370000 39.94010000
-9.76280000 19.67400000 44.80250000
-52.64450000 28.48080000 39.27880000
-51.79120000 29.63470000 39.41640000
-72.98100000 45.24310000 7.09490000
-59.02960000 1.33870000 17.94620000
-69.17340000 45.33820000 7.35280000
-64.23720000 44.55980000 12.92860000
-3.58270000 25.66880000 45.25600000
-1.66300000 22.89710000 45.28850000
-1.23500000 24.06230000 46.17760000
-1.27650000 25.59250000 46.01580000
-58.63720000 4.91010000 17.00950000
2.26150000 24.19440000 46.70960000
-0.76930000 26.44910000 46.64540000
-67.42850000 45.13650000 17.50490000
-56.24550000 31.44400000 33.59960000
-54.27510000 30.08860000 36.04230000
-56.28680000 5.25780000 19.65410000
-44.00480000 -8.52550000 10.26290000
-42.18710000 -10.67090000 7.57030000
-45.75270000 -4.02600000 7.48190000
-54.40320000 35.02100000 39.16860000
7.29780000 43.60060000 45.63910000
-45.86190000 -4.75670000 10.72930000
-56.74700000 38.02510000 35.47570000
-43.92470000 -6.26360000 12.61650000
-41.11930000 -12.84020000 0.96110000
-8.39490000 46.05380000 52.16920000
-46.15450000 29.11890000 27.00010000
-47.16720000 20.47430000 23.13860000
-49.10280000 25.31000000 22.19300000
-66.04540000 36.39730000 -23.39900000
-41.07270000 15.61500000 27.29670000
-66.36500000 39.39170000 -24.01920000
-38.43290000 19.39290000 29.79680000
-50.06590000 11.40280000 13.61960000
-48.62040000 3.80700000 11.23680000
-48.09260000 5.82260000 15.05810000
-61.87310000 41.36080000 -9.01410000
-58.49990000 34.66980000 -6.17070000
-55.49800000 36.64430000 -13.78920000
-48.70090000 12.93850000 18.29820000
-62.74860000 39.79520000 -2.11040000
-44.57030000 -5.87700000 2.28260000
-50.71760000 10.44180000 8.11730000
-51.13220000 10.99170000 9.49200000
-40.91160000 -13.21880000 9.54050000
-64.08010000 44.25160000 -11.90450000
-51.20100000 13.54680000 8.79640000
-4.81370000 47.18090000 52.18550000
-65.30420000 14.08710000 -8.81740000
-65.60370000 15.78550000 -9.45160000
-65.48050000 12.97360000 -9.92490000
-66.08730000 14.19880000 -7.56210000
-65.62190000 10.67920000 -8.15640000
-66.54930000 13.62210000 -5.00120000
-41.02600000 -8.07810000 16.54460000
-33.98780000 21.45410000 43.66460000
-34.88280000 20.65580000 44.35750000
-33.77300000 19.71950000 43.17110000
-64.61270000 12.08360000 -10.28750000
-63.36570000 12.95620000 -13.01890000
-64.48680000 15.86640000 -10.55050000
-32.91510000 19.59890000 41.67150000
-53.62910000 6.11170000 21.61340000
-55.17660000 10.54950000 21.61430000
-62.78320000 15.73180000 -13.70780000
-28.12960000 22.16260000 43.50810000
-51.72910000 7.24360000 23.65950000
-31.22840000 25.12990000 45.79630000
-44.74810000 36.75920000 31.88620000
-38.54800000 30.58080000 32.75720000
-48.67480000 20.26500000 44.83440000
-50.99990000 10.07340000 24.79320000
-47.07450000 20.34710000 45.72210000
-65.77910000 16.80910000 -7.55220000
-46.01610000 15.86650000 44.28310000
-44.93350000 19.15430000 46.14140000
-47.03100000 5.75940000 16.41360000
-44.10520000 17.14370000 45.06680000
-41.40580000 20.46620000 44.37160000
-43.24100000 21.15490000 44.24090000
-49.23490000 8.48290000 26.23790000
-49.41460000 7.83650000 26.82290000
-66.35080000 18.32880000 -7.06820000
-65.65950000 18.60030000 -8.33930000
-63.39580000 18.72050000 -11.34400000
-22.83240000 20.64670000 35.86990000
-33.86490000 18.32260000 31.79270000
-39.71570000 17.82490000 45.25230000
-64.24950000 19.53240000 -7.80530000
-46.84940000 0.99490000 12.98580000
-56.70820000 13.21390000 20.92390000
-38.56990000 18.72340000 44.40890000
-38.09790000 21.37040000 44.04010000
-63.23490000 20.49200000 -8.75160000
-54.62380000 14.24400000 23.19070000
-66.92570000 16.44720000 -4.26820000
-65.85250000 14.07280000 -3.34080000
-65.92700000 14.81930000 -2.16660000
-66.80270000 14.75620000 0.12420000
-53.05700000 16.27660000 27.41750000
-55.33750000 15.88120000 27.32520000
-66.32860000 18.47850000 -2.82730000
-65.95460000 19.85110000 -5.61330000
-66.82390000 16.86470000 1.32080000
-66.39190000 18.83430000 -0.72880000
-53.16210000 37.19250000 41.48760000
-67.59490000 19.16580000 2.70850000
-51.88760000 20.53740000 16.61570000
-49.46340000 18.43440000 19.58590000
-67.79570000 20.25990000 0.71550000
-65.41370000 20.53390000 -0.49250000
-52.31250000 16.29840000 25.85970000
-64.11960000 20.61050000 -5.49260000
-63.18960000 20.29720000 -2.84900000
-46.29250000 11.60200000 21.12360000
-44.60500000 7.59760000 20.68740000
-62.86190000 20.78160000 -1.83630000
-63.95520000 21.48630000 -0.37270000
-64.34690000 22.79070000 -1.83070000
-67.45740000 22.97980000 0.06690000
-69.91340000 22.06910000 2.24180000
-69.90880000 24.98440000 2.19820000
-68.44360000 25.68720000 1.67760000
-42.60160000 9.78770000 24.51900000
-63.03250000 21.34820000 -6.99220000
-65.33710000 39.50630000 -24.44630000
-66.01990000 26.14890000 -7.07700000
-61.00330000 21.11020000 -12.26890000
-40.02160000 11.24910000 27.58040000
-65.52780000 23.63410000 0.04470000
-49.82210000 37.18210000 43.19780000
-65.89700000 25.91690000 1.21660000
-47.39900000 -7.90130000 20.12520000
-46.78440000 -4.26260000 22.99180000
-45.68030000 40.88560000 45.98910000
-52.20130000 15.65120000 9.03870000
-66.53220000 27.20150000 -16.56760000
-53.90790000 22.98420000 9.51540000
-64.39030000 26.85460000 -16.18580000
-64.53420000 26.41940000 -18.41450000
-66.05350000 28.26310000 -14.79930000
-52.69440000 17.46250000 12.22110000
-50.22200000 -0.97320000 20.63230000
-32.12940000 -2.35100000 27.05980000
-53.02590000 18.65290000 11.56270000
-61.14850000 23.21780000 -14.95390000
-52.16230000 17.98180000 10.05960000
-52.86130000 20.58930000 11.83870000
-48.07280000 -2.31860000 21.36320000
-29.84000000 -2.34350000 28.44090000
-36.89580000 37.35280000 36.96920000
-66.10330000 28.32990000 -12.02890000
-30.99440000 2.65260000 29.18100000
-26.58060000 -1.52050000 29.01970000
-27.59970000 -1.92230000 29.50810000
-28.69430000 0.84460000 29.76490000
-53.97300000 23.77570000 11.81380000
-54.71810000 23.97140000 12.73150000
-45.04730000 -3.25140000 31.90280000
-27.84010000 2.52150000 29.69710000
-55.28230000 29.01590000 13.54080000
-34.01940000 3.84460000 28.14370000
-47.43450000 -0.15360000 24.48020000
-46.70660000 -1.72720000 27.32040000
-47.81780000 -0.76580000 26.97160000
-48.32150000 0.39700000 24.63950000
-35.38370000 0.09980000 26.34820000
-68.91250000 32.03560000 -7.91510000
-63.36600000 25.23570000 -11.91700000
-35.23440000 3.30540000 28.19280000
-45.93210000 -1.45130000 30.27580000
-46.99780000 -1.11730000 28.94490000
-46.76860000 1.74660000 30.67830000
-54.11420000 23.98540000 14.96060000
-31.42070000 6.02370000 29.72030000
-52.13580000 24.38690000 19.12360000
-37.22590000 19.03920000 44.66600000
-35.90550000 20.07350000 45.18650000
-36.05900000 23.80040000 45.45900000
-64.03090000 19.77600000 6.06280000
-67.50140000 20.36800000 6.78070000
-54.55680000 27.29280000 15.54650000
-69.66680000 21.50670000 6.32030000
-52.95520000 27.42970000 17.92970000
-51.40640000 25.16430000 19.23800000
-71.08900000 24.72190000 4.55020000
-36.92700000 6.01920000 28.14850000
-33.96800000 7.62600000 29.12520000
-32.70940000 5.47560000 29.82330000
-36.84470000 10.33220000 28.68790000
-71.08700000 26.57660000 6.91600000
-65.74070000 20.17980000 8.39250000
-34.62290000 3.64260000 47.85590000
-35.12520000 2.86780000 46.71980000
-31.99740000 4.03310000 48.55080000
-68.68510000 24.50770000 11.77990000
-34.52930000 33.76660000 50.49590000
-45.19170000 -3.23700000 32.95610000
-29.84630000 6.68140000 48.20100000
-44.99380000 -0.62370000 16.09960000
-35.24140000 6.41330000 46.88750000
-33.95090000 5.55560000 47.98210000
-42.86920000 -2.80830000 38.31390000
-32.14700000 7.36810000 47.65130000
-34.87960000 7.73850000 47.81030000
-33.35770000 8.06410000 48.25420000
-44.40330000 -0.84880000 33.91340000
-27.77790000 8.70620000 47.29480000
-43.26890000 -0.82010000 38.07900000
-43.23590000 -0.09410000 40.54460000
-26.71750000 9.20580000 46.54460000
-42.28700000 0.94440000 20.99170000
-72.11980000 28.85510000 3.22300000
-45.35950000 2.66790000 31.87890000
-36.50870000 7.28340000 45.61700000
-35.68700000 9.55590000 47.88130000
-39.11580000 38.78220000 51.22330000
-30.51730000 10.48570000 47.79760000
-33.01520000 9.67040000 47.95160000
-42.75590000 3.04280000 48.74300000
-44.43160000 2.75570000 47.13790000
-42.78370000 2.20180000 46.82050000
-44.55870000 3.96440000 48.01950000
-69.90260000 27.00940000 8.98260000
-60.80580000 35.47500000 1.17930000
-34.78730000 10.68120000 46.83330000
-36.92650000 -1.58150000 25.40800000
-42.77260000 2.97380000 44.41830000
-45.00040000 5.07100000 44.53130000
-33.16960000 10.48360000 46.76860000
-34.45860000 11.01940000 45.70130000
-44.83440000 6.60660000 45.43570000
-42.10440000 8.26260000 48.92680000
-32.76610000 12.61380000 46.22600000
-28.97710000 9.68210000 48.33200000
-42.81440000 -0.15150000 35.97320000
-41.85690000 -2.88430000 37.11200000
-67.71440000 27.91270000 1.56480000
-42.17860000 -1.69950000 39.58520000
-28.40000000 13.39780000 43.29370000
-28.03450000 12.01420000 45.16830000
-24.54560000 8.85330000 46.06050000
-41.38800000 -1.64720000 40.79300000
-28.55940000 11.86070000 47.48500000
-28.05960000 34.43950000 49.60970000
-39.93240000 -0.62330000 42.33570000
-66.96690000 26.53010000 14.07290000
-41.23730000 -0.02840000 41.50700000
-42.33210000 -0.72480000 37.20790000
-41.99720000 1.51540000 39.41240000
-42.88950000 0.98670000 40.18320000
-39.19790000 4.47220000 26.22110000
-26.03040000 27.40890000 46.10560000
-65.92690000 26.73180000 13.06560000
-67.48670000 26.51040000 11.27880000
-42.60690000 0.49360000 42.12320000
-65.52730000 27.47020000 16.94110000
-67.15940000 30.40210000 15.12840000
-43.89860000 4.77250000 34.40070000
-44.05150000 3.38800000 35.61010000
-42.16470000 2.37380000 38.44520000
-63.47230000 26.69940000 19.69270000
-23.18080000 30.18650000 47.19360000
-23.26930000 20.99840000 46.48620000
-41.40770000 4.02350000 40.23880000
-42.66880000 4.88250000 37.47160000
-65.18830000 30.29480000 17.75040000
-63.70740000 27.48100000 20.33100000
-20.86360000 29.28470000 48.85770000
-41.32790000 5.39850000 39.10500000
-24.41260000 33.03020000 47.43580000
-70.19760000 29.49590000 9.25500000
-66.81480000 29.43040000 10.19530000
-65.00710000 28.95050000 11.12290000
-43.55180000 3.26850000 43.33700000
-41.07610000 0.11200000 42.57060000
-41.88770000 2.05320000 43.08910000
-68.08260000 30.32480000 12.88780000
-66.45580000 29.23370000 12.04480000
-40.00060000 2.12040000 43.03940000
-38.69290000 1.20810000 44.31390000
-39.67890000 3.95020000 45.59130000
-41.22730000 2.12620000 46.65780000
-40.55920000 2.64410000 44.17070000
-67.05920000 32.26090000 11.95140000
-65.27010000 30.73760000 11.05870000
-41.36280000 6.24030000 49.89790000
-40.56020000 5.10140000 49.08450000
-64.83340000 29.84210000 18.76590000
-23.23560000 36.07440000 49.95570000
-62.16640000 26.76950000 23.33680000
-62.53960000 29.01110000 19.61750000
-64.51290000 32.76290000 18.92340000
-45.96220000 4.15690000 17.86480000
-62.24450000 28.03280000 21.86710000
-63.12830000 28.05150000 20.44350000
-22.73910000 10.26120000 46.25780000
-36.82180000 5.06580000 45.01690000
-61.92570000 30.55720000 23.18810000
-61.48040000 27.81250000 23.45160000
-61.93910000 30.12980000 21.67850000
-63.36870000 32.12320000 19.85360000
-49.54070000 2.31300000 21.74800000
-25.71220000 41.41380000 51.05880000
-71.53560000 28.23490000 2.25520000
-69.93850000 29.74690000 0.54080000
-48.48580000 3.30790000 25.62540000
-65.23480000 34.98920000 18.01090000
-64.01140000 35.70100000 18.97710000
-65.61050000 35.95820000 16.31830000
-67.77070000 34.96400000 14.05900000
-65.78470000 38.39340000 18.11450000
-67.37460000 39.98080000 18.41900000
-43.08300000 3.12170000 41.83070000
-71.03450000 31.20280000 1.06370000
-49.05780000 2.64750000 23.03420000
-71.52190000 30.85700000 2.49880000
-43.79730000 4.59780000 41.80850000
-73.07350000 30.80950000 5.04980000
-72.28570000 32.57560000 8.74820000
-38.28040000 4.61240000 43.74810000
-41.80660000 5.42290000 40.22070000
-45.24230000 7.05540000 40.27250000
-43.16860000 6.09630000 39.97000000
-72.75810000 31.70960000 2.89020000
-20.73010000 18.24360000 47.65820000
-47.66430000 4.72270000 29.56360000
-46.29910000 4.89690000 31.08490000
-47.75230000 5.50970000 28.15390000
-42.95840000 41.40040000 48.65360000
-71.40070000 38.10020000 14.35520000
-66.61920000 42.32600000 20.33910000
-42.30100000 6.75450000 49.59090000
-36.47220000 41.85830000 41.00320000
-51.45750000 4.01590000 22.05600000
-28.73540000 10.59570000 31.54420000
-72.92620000 33.19770000 2.33570000
-61.34250000 27.14990000 24.62500000
-43.21130000 7.84310000 46.20140000
-71.20320000 33.94600000 1.12010000
-52.69500000 5.75430000 22.72900000
-41.18860000 8.53920000 45.76890000
-39.95110000 9.71960000 46.39090000
-71.78990000 35.44090000 3.38430000
-37.08400000 6.29520000 43.93140000
-49.24990000 5.26050000 24.59730000
-73.29760000 34.23860000 4.71450000
-37.82360000 7.85990000 47.31030000
-58.52140000 31.10350000 29.63300000
-60.79120000 32.68110000 25.44450000
-59.18400000 31.87200000 27.34290000
-57.46470000 32.42780000 30.75560000
-48.39570000 7.50250000 28.62890000
-62.49070000 33.25550000 22.16710000
-36.75040000 8.27850000 47.48830000
-69.87770000 31.74920000 10.47100000
-62.55110000 35.54240000 22.41720000
-45.93630000 4.73100000 32.34730000
-46.74470000 5.66170000 31.63100000
-72.53110000 35.40220000 11.85760000
-60.30960000 38.92320000 28.17370000
-70.15780000 35.18360000 13.54400000
-40.15000000 42.67350000 52.28040000
-47.12770000 7.03910000 31.79780000
-45.79290000 7.54290000 34.79430000
-44.66230000 4.20280000 18.91590000
-35.29480000 41.19080000 53.23720000
-66.68360000 31.46090000 10.73700000
-46.29530000 8.20740000 31.82720000
-46.26940000 9.98440000 34.41580000
-37.10040000 42.95650000 53.37420000
-36.33010000 9.57150000 40.44560000
-36.77910000 10.21540000 42.34960000
-35.96490000 10.83850000 39.32980000
-67.96220000 33.72430000 14.26110000
-36.81440000 12.44350000 38.72740000
-37.93320000 9.92640000 39.26530000
-33.18170000 43.33600000 53.94200000
-35.73430000 12.48000000 40.02270000
-46.33880000 9.46940000 36.37710000
-38.93910000 44.39610000 51.95330000
-34.25450000 44.57700000 53.47100000
-42.84690000 44.66300000 47.31270000
-36.47730000 14.28810000 41.01400000
-37.67440000 14.31590000 43.97600000
-45.58040000 9.14500000 40.48600000
-36.07190000 13.23730000 47.21050000
-50.07450000 13.44500000 37.32560000
-34.27260000 13.36470000 45.02290000
-47.49540000 13.28990000 39.62000000
-46.32130000 13.02660000 41.76000000
-47.23640000 14.47190000 43.30650000
-33.52200000 14.86310000 44.65910000
-32.25340000 14.32520000 45.25900000
-30.49760000 13.86520000 44.88430000
-30.37500000 13.17080000 47.40470000
-44.25240000 6.17090000 33.71220000
-30.03520000 13.80460000 43.09230000
-31.52670000 16.65240000 41.64890000
-32.19450000 15.12300000 42.22020000
-43.88720000 7.62750000 35.79260000
-43.11140000 6.53360000 37.31820000
-44.78760000 7.79820000 37.39790000
-44.37650000 6.25060000 39.17240000
-27.22450000 16.15100000 43.61080000
-36.72960000 14.31060000 38.79790000
-38.03300000 12.66940000 38.26570000
-37.61430000 14.67260000 39.67420000
-37.92170000 15.36840000 42.35170000
-32.89320000 16.80410000 44.02730000
-32.97850000 17.35520000 42.32670000
-34.22220000 16.19410000 46.51510000
-37.24950000 17.84450000 44.09590000
-45.66360000 10.40220000 33.69270000
-36.35380000 17.88860000 45.80230000
-58.52840000 41.82670000 31.74210000
-61.25140000 19.73130000 -13.91350000
-46.38500000 12.15330000 37.06880000
-59.25740000 20.22190000 -14.10690000
-33.78530000 18.49160000 45.52340000
-26.06440000 43.81390000 46.78070000
-33.71030000 43.34800000 44.90970000
-37.99150000 9.64500000 28.70880000
-30.94770000 19.18710000 41.50620000
-61.69590000 -0.03840000 -4.28810000
-54.03350000 35.45790000 21.12480000
-49.93540000 37.84150000 28.28850000
-31.86250000 41.22760000 53.62820000
-29.46770000 41.21550000 52.81010000
-44.76190000 11.02060000 40.82450000
-43.75390000 9.80320000 42.81700000
-41.12600000 10.47760000 41.46210000
-42.39600000 12.13630000 41.13900000
-41.48920000 8.82930000 42.82490000
-40.06660000 8.33860000 42.94410000
-62.34190000 2.58130000 -8.83970000
-38.03990000 8.76120000 42.81020000
-54.92470000 40.08820000 23.53560000
-61.49360000 3.16090000 -6.37640000
-63.78870000 4.74390000 -7.51700000
-62.64590000 6.35970000 -5.40920000
-62.78150000 8.19850000 -2.51020000
-39.84700000 13.24880000 39.65840000
-30.61130000 43.31440000 54.43820000
-31.00090000 44.40070000 53.89740000
-28.78100000 44.10420000 53.39750000
-38.41700000 12.28950000 45.44830000
-30.68320000 44.65740000 50.70120000
-51.32410000 27.79780000 -12.70890000
-37.71190000 13.89110000 46.48540000
-38.52530000 12.15860000 48.06100000
-38.40870000 15.56590000 46.07820000
-45.46260000 12.41870000 39.67690000
-44.53630000 13.52580000 41.38870000
-42.33470000 13.73710000 41.45980000
-43.56050000 14.91160000 43.98600000
-45.82590000 40.46840000 34.10380000
-45.97090000 42.83900000 38.22030000
-52.46640000 43.50280000 31.75960000
-64.89420000 6.84790000 -8.19080000
-42.69120000 15.31790000 42.66330000
-39.85000000 14.89710000 40.29930000
-64.96250000 6.11490000 -10.49030000
-42.98190000 17.38780000 46.07790000
-62.68060000 41.06410000 24.19090000
-38.25390000 14.03220000 38.17970000
-64.40860000 7.60950000 -6.91330000
-64.37070000 8.77150000 -4.16900000
-65.19870000 9.24490000 -5.27020000
-40.69330000 15.67230000 44.06670000
-41.30920000 16.59320000 45.69670000
-40.03120000 16.01230000 42.21460000
-38.75950000 15.31680000 44.85660000
-35.96910000 15.90910000 47.10620000
-63.40730000 10.44690000 -3.51880000
-65.45410000 9.49950000 -9.50100000
-64.78000000 9.61640000 -10.99680000
-38.33350000 16.82050000 45.92330000
-39.09490000 8.98410000 50.29280000
-39.80100000 10.24270000 49.98230000
-37.36650000 10.90530000 48.90080000
-63.95170000 12.11810000 0.88820000
-60.71200000 44.56630000 27.09030000
-67.86170000 43.85250000 18.86150000
-55.65380000 44.55620000 29.89310000
-58.21540000 43.49200000 22.76970000
-65.39690000 12.14580000 -4.12170000
-63.81020000 13.75380000 -3.28140000
-65.94100000 13.02680000 0.62120000
