-10.27040000 4.95080000 -4.43500000
-9.65470000 5.68730000 -5.42440000
-10.05370000 6.17220000 -4.42880000
-8.75790000 5.70380000 -3.76610000
-8.49290000 5.40550000 -4.44870000
-8.53680000 6.93360000 -3.74820000
-8.21500000 6.79480000 -4.47660000
-11.11230000 5.10260000 1.03780000
-11.17030000 5.01220000 0.31790000
-11.14550000 5.13430000 -0.43950000
-10.98670000 6.06840000 0.38310000
-11.10780000 4.96660000 -1.31330000
-10.74460000 6.60630000 -1.85400000
-10.87950000 6.51670000 -0.84800000
-10.65940000 6.31610000 -2.57390000
-10.43220000 6.14650000 -3.45080000
-8.65630000 7.42950000 -3.04720000
-10.22990000 7.02960000 -3.58000000
-10.44520000 7.07600000 -2.86060000
-10.28330000 7.51030000 -2.83720000
-9.91080000 6.95410000 -4.39100000
-9.78550000 7.54190000 -4.14720000
-9.99280000 7.78930000 -3.43460000
-10.70830000 7.16930000 -1.08810000
-10.55540000 7.21420000 -2.16390000
-10.46030000 7.52140000 -1.94440000
-10.29320000 7.91280000 -2.10710000
-10.36300000 8.01360000 -1.44210000
-10.05620000 8.07020000 -2.86360000
-10.14000000 8.14210000 -2.07370000
-9.78030000 8.18400000 -3.15120000
-9.86910000 8.10320000 -3.41050000
-9.67710000 8.02060000 -3.96810000
-9.59520000 8.15660000 -3.89460000
-9.61340000 4.79190000 0.79600000
-9.41670000 5.86240000 1.29800000
-10.84060000 6.47740000 1.24960000
-9.00850000 6.41160000 2.81350000
-9.14760000 6.93760000 1.74260000
-8.95130000 7.29220000 2.34820000
-9.39770000 6.38250000 0.39370000
-9.49030000 5.80930000 -0.48420000
-9.22000000 7.06730000 1.06510000
-9.28220000 6.92000000 -0.56710000
-9.22850000 7.41240000 0.08680000
-9.18020000 7.49600000 0.60990000
-10.62730000 6.82360000 2.17790000
-10.60580000 7.37730000 1.37750000
-10.48440000 7.38200000 2.12720000
-10.02610000 7.78260000 3.31880000
-10.24220000 7.87120000 2.35070000
-10.41870000 7.88240000 1.44430000
-9.99340000 8.08230000 2.63670000
-10.14380000 8.11720000 1.66650000
-9.79670000 8.15770000 1.64760000
-10.72930000 7.23410000 0.66770000
-10.79490000 7.05710000 -0.18460000
-10.59180000 7.58050000 -0.50390000
-10.47640000 7.91620000 0.56300000
-10.49610000 7.91360000 -0.38100000
-10.37610000 8.05890000 0.63170000
-10.37070000 8.07760000 -0.75930000
-10.17780000 8.14860000 -0.82840000
-8.92550000 7.70070000 2.03470000
-9.06560000 7.69480000 1.15440000
-9.11140000 7.81460000 0.90120000
-8.98330000 7.85610000 1.90220000
-9.16440000 8.07360000 2.20440000
-9.06410000 7.97010000 1.88730000
-9.40010000 8.09450000 0.69920000
-9.22070000 7.70850000 -0.13250000
-9.18440000 7.92640000 0.76380000
-10.32290000 8.04200000 1.42840000
-9.28080000 8.14720000 2.69310000
-9.78760000 8.17260000 -0.33190000
-9.60730000 8.17330000 -0.96720000
-8.71020000 7.43800000 3.05440000
-8.21570000 7.48460000 4.32110000
-8.33250000 7.58930000 4.09010000
-8.50630000 7.63950000 3.51610000
-8.47850000 7.82290000 3.68610000
-8.39280000 7.83990000 4.03260000
-8.35270000 7.99390000 4.24900000
-8.73610000 7.79010000 2.79680000
-8.74930000 7.93850000 3.05010000
-8.84280000 8.08630000 3.47600000
-8.16890000 7.87630000 4.48390000
-9.22030000 6.76340000 -1.48060000
-9.16170000 7.44490000 -0.55970000
-8.96450000 6.92810000 -2.54530000
-8.93520000 7.42900000 -2.12020000
-9.03160000 7.49490000 -1.53440000
-9.07960000 7.65050000 -1.11150000
-9.13440000 7.56630000 -0.58680000
-8.29470000 7.59180000 -3.87210000
-8.90340000 7.84810000 -2.02310000
-8.77680000 7.77980000 -2.38770000
-8.57160000 7.73250000 -3.05520000
-8.52660000 7.89270000 -3.31920000
-9.11440000 8.01900000 -1.80990000
-8.66290000 8.01560000 -3.22670000
-8.83740000 8.12410000 -3.18330000
-9.23340000 7.83600000 -0.74700000
-9.26430000 7.89530000 -0.29200000
-9.43210000 8.09760000 -0.39620000
-9.13540000 7.78810000 -1.10800000
-9.33190000 8.03050000 -0.56790000
-9.32800000 8.12190000 -1.58600000
-9.28540000 8.22400000 -3.26000000
-9.10340000 8.19920000 -3.01580000
-8.96330000 4.04780000 -6.82810000
-9.20130000 4.53470000 -6.43730000
-8.76520000 5.00470000 -6.93370000
-8.38600000 4.57330000 -7.47920000
-8.08870000 5.50720000 -5.13710000
-7.61540000 5.88140000 -5.73080000
-7.13610000 5.86770000 -6.33610000
-7.96710000 5.86070000 -7.66680000
-7.25010000 6.23560000 -8.29520000
-6.07350000 6.27620000 -7.31110000
-6.54530000 6.71280000 -6.76500000
-9.25330000 5.75150000 -6.06230000
-8.82030000 6.12090000 -6.57410000
-7.57740000 6.82330000 -5.50140000
-7.62750000 7.33460000 -5.19590000
-7.91760000 7.64350000 -4.56350000
-8.95490000 6.88410000 -6.14230000
-8.37440000 6.92540000 -6.89970000
-7.50020000 6.86410000 -7.87670000
-7.89990000 7.33810000 -7.23570000
-7.03370000 6.92540000 -6.17690000
-6.70070000 7.53720000 -6.30230000
-7.22800000 7.76580000 -5.57240000
-7.14490000 5.31580000 -8.59400000
-6.42980000 6.83800000 -8.81210000
-6.18260000 6.52390000 -9.08850000
-5.47220000 6.59240000 -7.72650000
-4.92680000 7.08160000 -7.99250000
-5.84670000 7.44020000 -7.18410000
-4.58020000 6.90740000 -9.95220000
-3.92270000 6.66840000 -10.32940000
-4.86400000 7.42350000 -9.60240000
-5.63440000 7.25560000 -9.19820000
-6.94740000 7.34860000 -8.16550000
-5.45950000 7.78130000 -9.15460000
-4.77910000 7.97390000 -9.53700000
-6.95130000 7.92080000 -7.97340000
-6.13610000 7.77830000 -8.63060000
-5.13380000 7.67110000 -7.65360000
-7.49720000 7.83930000 -7.47610000
-7.42610000 8.12580000 -7.41560000
-6.69630000 8.14960000 -6.83460000
-7.62510000 8.17740000 -5.63840000
-6.73400000 8.04810000 -6.47350000
-6.03550000 8.06660000 -7.13340000
-6.46290000 8.25560000 -7.56870000
-7.61770000 8.24470000 -6.26420000
-6.68980000 8.06330000 -8.13250000
-7.01980000 8.22740000 -7.56650000
-6.59670000 8.18110000 -8.07320000
-5.63280000 8.21730000 -7.80520000
-5.48330000 8.15850000 -8.94310000
-6.10970000 8.06600000 -8.50230000
-5.83850000 8.21060000 -8.56730000
-4.78700000 8.23240000 -9.26700000
-4.82680000 8.27620000 -8.89880000
-5.37190000 8.04040000 -9.12950000
-3.26030000 8.26860000 -9.26250000
-4.82040000 8.13520000 -9.43140000
-9.46730000 6.85800000 -5.32250000
-9.30160000 7.53210000 -5.16580000
-8.93030000 7.51810000 -5.79370000
-9.36770000 7.74740000 -4.80720000
-9.36480000 8.09790000 -4.35090000
-9.21160000 8.07660000 -4.70850000
-9.12320000 8.21550000 -4.42270000
-8.93030000 8.19830000 -5.11460000
-9.02320000 8.08490000 -5.26170000
-8.68790000 8.17110000 -5.72830000
-8.52870000 8.20850000 -4.35590000
-8.26360000 8.12390000 -4.44400000
-8.41640000 8.23530000 -5.79800000
-8.23920000 7.66390000 -6.68350000
-8.60490000 7.95440000 -6.06930000
-7.62760000 8.02930000 -5.23170000
-8.30690000 8.06850000 -6.44280000
-8.05880000 8.18630000 -6.64020000
-7.95240000 8.02610000 -6.91990000
-6.62610000 7.84530000 -6.33500000
-7.12970000 7.89770000 -5.76410000
-4.43810000 7.55390000 -8.14970000
-4.20190000 7.82850000 -8.22810000
-3.29050000 7.84430000 -8.72950000
-3.78730000 8.01090000 -8.52210000
-4.76970000 7.94460000 -7.91590000
-4.04900000 8.14710000 -8.54090000
-3.49840000 8.23060000 -8.99660000
-4.78890000 8.20110000 -8.25040000
-6.14160000 7.80730000 -6.81550000
-5.60880000 7.86360000 -7.30060000
-5.45820000 8.01210000 -7.50620000
-6.16080000 7.93410000 -6.84870000
-8.25660000 7.83980000 -3.90210000
-7.79640000 7.83960000 -4.78240000
-8.24270000 7.98890000 -4.14040000
-0.89590000 2.78890000 -11.44080000
0.06860000 3.45380000 -11.50510000
-1.22390000 4.21760000 -11.44170000
-2.07070000 4.12600000 -11.30700000
-0.57280000 4.21310000 -11.50140000
-2.93610000 4.99910000 -10.97380000
-0.28030000 5.36780000 -11.34860000
-1.16430000 5.60090000 -11.25630000
-2.05700000 4.62760000 -11.25290000
-1.76300000 5.97460000 -11.10120000
-2.83950000 6.13010000 -10.81930000
-2.22770000 6.69950000 -10.87100000
-3.19740000 6.72610000 -10.58570000
-2.30400000 7.05870000 -10.71480000
-3.72920000 7.38750000 -10.15980000
-2.90000000 7.28320000 -10.46540000
-3.05940000 7.68540000 -10.33220000
0.64660000 3.46470000 -9.92490000
0.60680000 5.08390000 -9.78700000
2.74640000 4.90220000 -9.45860000
0.95520000 4.15740000 -11.49430000
1.38350000 4.42440000 -11.43850000
2.29050000 4.17240000 -11.30420000
0.22910000 4.36150000 -11.50870000
1.53500000 5.23390000 -11.28400000
2.23430000 5.11470000 -11.18410000
0.45590000 5.22850000 -11.37830000
3.06730000 5.60120000 -10.90700000
0.17600000 6.19760000 -9.68470000
1.14030000 6.32130000 -9.60590000
0.73100000 5.86770000 -11.24660000
0.62480000 6.26860000 -11.21280000
-0.38240000 6.65390000 -11.12760000
1.41000000 6.67100000 -11.05510000
2.32050000 6.38430000 -10.97000000
0.30110000 6.69860000 -11.13630000
3.07360000 5.95740000 -9.23380000
2.18280000 6.36230000 -9.42710000
3.52510000 6.91180000 -8.89490000
4.22090000 6.79520000 -8.60340000
5.17870000 6.59730000 -8.11410000
2.67430000 6.69850000 -9.23720000
1.70090000 7.12000000 -9.37660000
0.84660000 7.59750000 -9.35940000
2.59470000 7.35420000 -9.09670000
4.31180000 7.48660000 -8.35460000
3.34670000 7.73550000 -8.75080000
2.54360000 7.63700000 -9.02510000
2.49860000 7.81710000 -9.01450000
3.00730000 7.96730000 -8.90150000
4.20140000 7.71040000 -8.34430000
3.66170000 7.88580000 -8.63200000
4.49730000 7.86780000 -8.20420000
3.62290000 8.07120000 -8.81470000
4.26730000 7.99410000 -8.40270000
4.41780000 8.12950000 -8.53070000
3.80890000 8.20730000 -8.94970000
2.69970000 8.22580000 -9.35770000
2.77140000 8.09690000 -9.09490000
2.36030000 7.34840000 -10.69160000
1.69710000 7.34930000 -10.80610000
0.83830000 7.08470000 -10.97610000
3.93050000 6.09430000 -10.54300000
4.68390000 6.55430000 -10.14900000
3.34890000 6.66090000 -10.64150000
3.98610000 6.90060000 -10.34360000
5.50270000 6.50240000 -9.73230000
5.31450000 6.97400000 -9.68920000
6.38270000 6.56680000 -9.14310000
4.75190000 7.30060000 -9.86840000
5.92770000 7.28280000 -9.18450000
5.43420000 7.70920000 -9.37960000
3.01190000 7.42860000 -10.50030000
3.64510000 7.84050000 -10.20980000
4.01800000 7.44960000 -10.13760000
3.11960000 8.03220000 -10.34280000
2.07310000 7.96940000 -10.61860000
3.39900000 8.18160000 -10.12470000
2.71370000 8.11630000 -10.40460000
2.52770000 8.24420000 -10.20220000
4.49620000 7.96850000 -9.82230000
5.22330000 8.03910000 -9.41950000
4.18330000 8.12400000 -9.85550000
4.71750000 8.19230000 -9.49990000
5.03070000 8.24330000 -9.07090000
1.99240000 8.27930000 -10.00420000
3.03880000 8.26730000 -9.50230000
5.18000000 8.23600000 -8.39100000
-1.36300000 6.01900000 -9.57840000
-0.51330000 6.19100000 -9.65790000
-2.26180000 6.76300000 -9.26610000
-0.28360000 7.32620000 -9.45330000
-1.07500000 7.27990000 -9.39690000
-1.18590000 6.59030000 -11.09060000
-1.15690000 7.02750000 -10.93330000
-0.11540000 7.35210000 -10.90440000
-1.30750000 7.43170000 -10.78150000
0.59110000 6.77370000 -9.57930000
1.13940000 7.76860000 -10.78930000
0.08090000 7.80650000 -10.78890000
0.06310000 7.80650000 -9.34220000
-0.83610000 7.88050000 -9.29020000
0.98000000 7.92850000 -9.30960000
-0.10070000 8.00450000 -9.36840000
0.36740000 8.09750000 -10.63420000
0.48600000 7.90870000 -10.73030000
-0.19050000 8.15360000 -10.61450000
-0.05050000 8.23830000 -10.48730000
0.76950000 8.18560000 -10.59400000
0.93190000 8.25390000 -10.44160000
-1.68400000 7.10220000 -9.34180000
-2.61400000 7.53740000 -8.98750000
-1.88090000 7.70540000 -9.14160000
-2.77010000 7.82300000 -8.95300000
-2.04830000 7.89930000 -9.11090000
-2.43640000 7.84060000 -10.46130000
-0.91540000 8.26630000 -9.78740000
-2.15830000 8.20460000 -9.36220000
-1.00650000 8.03890000 -9.33240000
-2.07150000 8.09030000 -9.20380000
-0.59560000 8.19690000 -9.57420000
-1.90960000 7.89320000 -10.60180000
-0.98210000 7.85150000 -10.76340000
-1.14140000 8.04840000 -10.68520000
-0.89040000 8.17430000 -10.61650000
-1.72680000 8.15480000 -10.52270000
-1.15770000 8.23680000 -10.45180000
-3.12760000 7.96750000 -10.24490000
-2.40510000 8.10800000 -10.36300000
-2.19540000 8.20380000 -10.32100000
-2.66270000 8.26010000 -9.96110000
-1.56970000 8.28050000 -10.03910000
0.48240000 8.09170000 -9.44720000
-0.57720000 8.06750000 -10.71280000
1.25880000 8.24420000 -9.68140000
1.60570000 7.68770000 -9.24900000
1.94930000 7.96830000 -9.19410000
1.69500000 8.06260000 -9.29900000
1.68130000 8.17690000 -9.44610000
0.86620000 8.05410000 -10.71060000
1.44590000 8.06140000 -10.68370000
1.78510000 8.15480000 -10.55830000
-4.21620000 7.64550000 -9.87360000
-4.13490000 8.00180000 -9.84560000
-4.15660000 8.17740000 -9.71480000
-2.80040000 8.01580000 -8.99660000
-2.89320000 8.15060000 -9.08650000
-3.13910000 8.19880000 -9.91900000
-3.35240000 8.10180000 -10.07530000
-3.86350000 8.24610000 -9.62640000
2.27670000 -8.07610000 9.78610000
2.74930000 -8.17140000 9.42770000
3.55420000 -8.12870000 9.30590000
3.24110000 -8.03520000 9.54240000
2.96290000 -7.94860000 9.70490000
1.60220000 -8.15880000 9.72890000
6.75630000 -8.12640000 3.69060000
7.04420000 -8.16170000 4.64300000
5.91670000 -8.13650000 5.65450000
5.85420000 -8.15550000 3.80640000
5.29340000 -8.18780000 4.25050000
6.32190000 -8.15550000 2.77900000
6.83000000 -8.12890000 7.12860000
7.78160000 -8.06750000 6.35350000
7.03530000 -8.04820000 7.17910000
7.60970000 -7.92540000 6.72160000
7.18210000 -7.84450000 7.23120000
7.74060000 -8.17440000 5.52570000
6.20610000 -8.19310000 6.26050000
8.14230000 -7.89690000 6.15160000
7.77150000 -8.14600000 6.07510000
7.69090000 -7.58410000 6.75710000
8.10620000 -7.67920000 6.27080000
7.34540000 -7.41790000 7.15760000
8.38780000 -8.09240000 5.54230000
8.40520000 -7.98640000 5.77230000
8.87820000 -8.11340000 4.48840000
8.84360000 -8.02140000 5.00390000
8.82690000 -7.84330000 5.25150000
8.52740000 -7.79070000 5.74000000
8.08160000 -8.19720000 3.79190000
8.98200000 -8.13380000 3.39650000
9.25870000 -7.88980000 4.35340000
9.35120000 -7.68470000 4.27670000
8.95550000 -7.43750000 5.12300000
8.66030000 -7.51860000 5.60230000
8.53170000 -6.68950000 5.89750000
9.10330000 -6.95610000 4.86290000
9.02110000 -6.56650000 5.11840000
1.88430000 -8.18000000 7.48680000
2.80660000 -8.11950000 7.02870000
2.53350000 -8.14890000 7.98810000
1.62640000 -8.15400000 7.99890000
1.08910000 -8.20200000 7.79110000
3.60690000 -8.19110000 8.22750000
4.72650000 -8.18590000 8.45020000
2.05020000 -8.20160000 9.15720000
1.14030000 -8.16790000 8.71440000
3.96020000 -8.11390000 6.52300000
3.19450000 -8.14930000 5.82510000
4.46390000 -8.15400000 5.55490000
2.71300000 -8.11720000 6.40950000
4.91240000 -8.19290000 7.55190000
5.18330000 -8.15860000 6.87800000
3.31120000 -6.78980000 7.27780000
3.45610000 -6.89840000 6.91840000
2.78550000 -6.86310000 7.36520000
2.53650000 -6.93630000 6.80710000
2.69450000 -6.99210000 5.82940000
3.11410000 -6.44510000 7.69710000
4.38220000 -6.66190000 6.82360000
4.21990000 -6.86490000 6.63350000
4.07960000 -6.37270000 7.28520000
4.66710000 -7.96010000 9.03430000
5.33330000 -8.04390000 8.56720000
5.18030000 -7.87930000 8.79310000
6.06890000 -8.15780000 7.33130000
6.15800000 -8.06520000 7.87140000
6.42430000 -7.89700000 7.86190000
5.53680000 -8.12800000 8.23120000
6.74710000 -7.56820000 7.71800000
6.28760000 -7.58180000 8.12250000
4.62010000 -8.13400000 8.81980000
5.74950000 -7.81560000 8.45940000
5.79730000 -7.18730000 8.51170000
5.11600000 -7.23750000 8.90520000
6.36910000 -6.96870000 8.09030000
3.98970000 -8.06160000 9.24670000
4.47270000 -7.65850000 9.19150000
3.58420000 -7.72350000 9.56190000
4.04650000 -7.90300000 9.33350000
3.91180000 -7.34700000 9.42240000
4.55630000 -6.77060000 9.21100000
2.39090000 -7.84250000 9.90980000
2.76230000 -7.54000000 9.81150000
3.09730000 -7.21820000 9.67580000
3.83440000 -6.57440000 9.50250000
4.90640000 -5.94490000 7.11970000
3.95650000 -6.01390000 7.64360000
6.57540000 -6.33210000 7.96970000
5.56620000 -6.22910000 8.72720000
6.06750000 -5.68670000 8.54070000
6.66370000 -5.59020000 8.12160000
4.77960000 -6.07470000 9.18640000
5.53730000 -5.53070000 8.93070000
4.75690000 -5.45990000 9.36430000
5.63650000 -4.64820000 9.03150000
5.56940000 -8.22100000 2.81430000
6.27680000 -6.85350000 4.89980000
6.93170000 -6.68140000 4.34700000
6.86110000 -6.87100000 3.96520000
5.05460000 -7.00330000 4.76170000
4.79410000 -6.94720000 5.91340000
6.03540000 -6.98490000 4.32470000
6.25820000 -6.94810000 4.56250000
5.42900000 -6.86090000 5.73830000
6.42480000 -6.54450000 5.25240000
6.17120000 -6.99540000 2.54190000
4.67950000 -7.02970000 3.98150000
2.88610000 -6.97670000 4.96600000
4.85150000 -6.79310000 6.34980000
5.59970000 -6.48620000 6.12190000
4.29380000 -6.93240000 3.30200000
5.38150000 -6.97490000 2.32250000
7.35760000 -6.71200000 7.22720000
7.53510000 -6.13170000 7.17360000
7.26540000 -5.68930000 7.58130000
6.12970000 -6.17020000 5.96300000
6.72990000 -6.08600000 5.39340000
6.94240000 -6.43940000 4.75570000
7.43360000 -6.01280000 4.45970000
7.24360000 -5.73560000 4.99280000
7.14390000 -5.15280000 5.45290000
8.13170000 -6.29370000 6.50330000
8.67350000 -6.19350000 5.79140000
8.52340000 -5.42160000 6.31780000
8.99600000 -5.57890000 5.56700000
7.99130000 -5.33250000 6.97780000
8.71710000 -3.88650000 6.49620000
9.12600000 -4.29910000 5.79490000
5.24250000 -6.18700000 6.71400000
5.91420000 -5.77140000 6.44400000
6.51300000 -5.38890000 6.06600000
5.68280000 -5.36390000 6.85880000
6.26890000 -4.50070000 6.68620000
4.80520000 -5.35280000 7.47510000
5.67210000 -4.23470000 7.27000000
7.05530000 -4.14440000 8.12520000
7.74350000 -3.84230000 7.58150000
6.75570000 -3.48600000 8.50040000
7.01410000 -4.35850000 5.97590000
8.36680000 -3.43430000 7.04920000
-0.17080000 -8.19950000 9.24030000
0.20730000 -8.18060000 9.64410000
-0.21600000 -8.12090000 9.82270000
1.14290000 -8.12080000 9.87380000
0.55160000 -8.06380000 9.98220000
-0.20730000 -7.98470000 10.00100000
0.75480000 -7.89240000 10.11550000
-0.88540000 -8.04850000 9.83420000
0.35350000 -7.76860000 10.14730000
1.38980000 -7.99830000 10.00800000
1.56730000 -7.75180000 10.08040000
2.28410000 -7.20150000 9.93150000
1.50070000 -7.32600000 10.09190000
0.82090000 -7.49740000 10.16330000
0.06350000 -7.54020000 10.15190000
1.13790000 -6.75580000 10.15210000
1.97680000 -6.59880000 10.04220000
-0.68090000 -7.79010000 10.03740000
0.23770000 -7.01920000 10.15780000
-0.38870000 -7.14630000 10.10330000
-0.16610000 -6.49580000 10.19000000
-1.25790000 -6.21670000 10.11890000
-0.54450000 -5.97670000 10.27310000
0.40350000 -6.21370000 10.26380000
1.26150000 -6.22390000 10.19290000
-0.13750000 -5.55070000 10.42530000
0.98240000 -5.45270000 10.41690000
2.14310000 -5.61930000 10.22050000
-1.80660000 -5.79100000 10.16570000
-1.02900000 -5.86960000 8.71790000
-1.39560000 -5.31680000 8.91580000
-1.78140000 -4.84590000 10.38350000
-0.85400000 -5.28850000 10.44100000
-1.71680000 -4.12980000 9.22810000
0.14130000 -3.64260000 10.81790000
-0.65640000 -4.13460000 10.67120000
-2.04320000 -3.80160000 10.52270000
-1.35680000 -3.77010000 10.64380000
-1.18230000 -3.06110000 10.83930000
-0.39640000 -3.03390000 10.92510000
0.94920000 -3.75130000 10.75830000
-0.68280000 -2.24270000 11.05110000
1.72030000 -6.89700000 7.49790000
0.55040000 -6.86140000 7.79700000
1.25550000 -6.80430000 7.88620000
0.13850000 -6.77620000 8.02090000
1.76600000 -6.71350000 7.92050000
0.60780000 -6.62910000 8.19190000
1.29830000 -6.37430000 8.32350000
2.16540000 -6.48350000 8.02400000
1.59180000 -6.04670000 8.51680000
2.69990000 -6.12280000 8.13670000
1.82560000 -5.73560000 8.62360000
2.61810000 -6.75660000 7.61050000
3.28440000 -5.75010000 8.10530000
2.40360000 -5.64000000 8.50000000
0.27880000 -6.34910000 8.45040000
-0.36730000 -6.65000000 8.17570000
0.01910000 -5.79720000 8.82700000
0.82080000 -5.82940000 8.76140000
2.04420000 -5.11540000 8.82420000
0.41630000 -5.21540000 9.07880000
-0.36810000 -5.41870000 8.99070000
1.08300000 -5.20400000 9.00540000
1.26690000 -4.50290000 9.18150000
0.35810000 -4.46250000 9.31310000
3.34610000 -6.11770000 9.75250000
4.26230000 -5.52400000 9.57860000
2.52030000 -6.14980000 9.98140000
2.87940000 -5.52120000 10.06560000
3.66110000 -5.36030000 9.86090000
4.16670000 -4.52610000 9.80140000
3.29090000 -4.29630000 10.17360000
3.62270000 -5.11990000 8.21070000
2.75820000 -5.05820000 8.60360000
3.83840000 -4.22910000 8.39650000
4.71200000 -3.67310000 9.70580000
5.72120000 -3.19520000 9.20690000
2.37450000 -3.59340000 10.56020000
1.78640000 -3.90090000 10.62020000
2.40360000 -4.28320000 8.96880000
1.72370000 -3.67760000 9.35580000
2.93320000 -2.64530000 10.61240000
3.79680000 -3.28400000 10.19750000
3.16160000 -4.26930000 8.68640000
3.15580000 -3.51510000 8.94990000
4.09790000 -3.28140000 8.56190000
4.79440000 -4.39870000 7.79380000
3.89360000 -2.17650000 8.88600000
3.03010000 -2.74730000 9.15650000
5.25190000 -3.28960000 7.87360000
6.33770000 -2.84790000 7.21050000
6.75050000 -3.66240000 6.61710000
7.19070000 -3.71680000 6.12730000
6.82500000 -3.06720000 6.75300000
7.44080000 -3.09180000 6.11460000
6.99620000 -2.26900000 6.75940000
4.75230000 -2.54810000 8.35960000
5.49570000 -2.31990000 7.93840000
5.20580000 -0.85860000 8.35150000
4.29690000 -0.99720000 8.82190000
-1.01510000 -4.72700000 9.16820000
-0.38450000 -4.66010000 9.25040000
-0.82260000 -3.65580000 9.55260000
-0.16970000 -3.58280000 9.61740000
0.46860000 -3.63010000 9.58780000
0.99620000 -3.65520000 9.52110000
-2.49060000 -3.25290000 9.31550000
-1.65370000 -3.34410000 9.52310000
-2.12240000 -3.00770000 9.49770000
-1.15610000 -2.92650000 9.67040000
-0.08630000 -2.63030000 9.79410000
0.78120000 -2.93230000 9.70980000
-0.43830000 -1.83860000 9.87560000
1.16650000 -2.51540000 10.96580000
1.70210000 -2.96730000 9.55580000
1.90080000 -2.26870000 10.90750000
2.16900000 -1.76310000 10.89350000
2.36840000 -3.05750000 9.34810000
1.62490000 -2.21940000 9.68730000
3.67830000 -2.26290000 10.43030000
3.29680000 -1.78560000 9.22180000
2.76720000 -1.60380000 9.44160000
3.06990000 -1.84110000 10.67020000
3.80890000 -1.70810000 10.42790000
0.61640000 -1.94270000 9.86340000
0.19230000 -2.26290000 11.08150000
0.68280000 -1.14580000 11.18050000
0.17930000 -1.58630000 11.14000000
1.63500000 -1.04920000 11.07920000
1.58100000 -0.41960000 11.19210000
1.84650000 -0.84590000 11.06450000
2.30310000 -0.63780000 11.06690000
1.26400000 -1.48350000 9.82410000
1.08450000 -0.66260000 9.87700000
2.01530000 -1.36070000 9.68800000
2.77250000 -1.06880000 10.87630000
3.68430000 -1.14040000 10.59280000
2.51920000 -0.42840000 9.60320000
3.29210000 -0.17080000 9.34280000
2.48110000 -0.32720000 11.17360000
1.85890000 -0.25490000 9.78400000
2.38280000 0.23810000 9.66590000
3.19680000 1.15470000 9.37100000
4.67320000 -2.37610000 9.96730000
6.47920000 -2.36180000 8.91240000
8.17790000 -2.47500000 7.50160000
7.45410000 -2.69940000 8.13560000
7.03930000 -2.10240000 8.57630000
7.82420000 -2.15660000 7.89850000
7.40860000 -1.89330000 8.28240000
8.26060000 -1.84470000 7.47420000
7.62330000 -1.20020000 8.23850000
8.12600000 -1.20500000 7.79750000
5.83320000 -2.07250000 9.35410000
5.86750000 -1.76660000 9.35230000
4.55320000 -1.89270000 10.07320000
5.46190000 -1.34470000 9.68600000
6.37650000 -1.12200000 9.20160000
6.13160000 -1.72600000 7.60150000
7.24900000 -1.25090000 8.55650000
6.68050000 -1.05660000 7.26030000
5.86360000 -0.69810000 7.93280000
6.30990000 -0.24400000 7.63680000
6.92640000 -0.72660000 8.90370000
7.13210000 -0.29860000 8.75170000
6.78010000 -0.39350000 9.13080000
6.92240000 -0.26550000 8.95760000
7.81760000 -0.70450000 8.16200000
7.55820000 -0.25060000 8.51220000
7.40830000 0.05490000 8.68130000
7.97850000 -0.07130000 8.27330000
7.98150000 0.10960000 8.11850000
4.11230000 -0.75660000 10.49270000
3.28110000 -0.65580000 10.81280000
3.41750000 -0.48020000 10.85210000
3.55690000 -0.23080000 10.86080000
4.32970000 -0.49850000 10.41000000
3.84330000 0.08350000 10.68040000
4.25200000 -0.16870000 10.46780000
3.07030000 -0.12990000 11.08470000
2.35270000 -0.02190000 11.28390000
2.71200000 0.05740000 11.16970000
3.17480000 0.07300000 10.99580000
3.44380000 0.17690000 10.80770000
4.09440000 0.35510000 10.50100000
3.31820000 0.39880000 10.75700000
5.82440000 -0.67190000 9.64840000
4.78960000 -0.51920000 10.16760000
5.40980000 -0.49170000 9.94820000
4.69230000 -0.25840000 10.29490000
4.64310000 0.36700000 8.77200000
5.96030000 -0.31940000 9.76590000
6.39770000 -0.33240000 9.47120000
6.34930000 -0.14240000 9.53040000
5.48650000 -0.27860000 10.04150000
5.41750000 -0.07360000 10.12070000
4.63390000 -0.00040000 10.40440000
6.00140000 -0.04750000 9.77370000
5.53960000 0.01770000 10.03080000
5.77330000 0.26730000 9.67450000
4.98610000 0.26390000 10.14990000
5.27300000 0.06180000 8.40350000
5.51330000 0.59700000 8.23730000
6.30330000 0.82620000 7.63810000
6.86570000 0.06180000 9.00750000
6.83350000 0.16390000 9.01630000
7.10790000 0.34080000 8.70090000
6.20890000 0.39650000 9.30630000
7.72120000 0.38320000 8.13410000
6.92580000 0.56490000 8.73870000
6.34300000 0.73610000 9.15020000
7.12730000 1.39980000 8.67100000
6.53130000 1.44690000 9.11820000
4.72900000 0.13260000 10.36780000
3.96650000 0.18900000 9.07570000
4.64900000 0.48010000 10.17990000
4.42940000 0.71910000 10.22680000
3.38520000 0.77790000 10.65440000
3.87870000 2.30180000 10.57340000
4.68430000 1.27460000 10.14530000
4.09640000 1.21050000 9.01950000
5.40600000 0.76100000 9.75470000
5.84350000 1.68600000 9.57010000
4.71610000 1.39240000 8.72400000
5.73320000 1.45680000 8.09990000
5.27220000 1.88930000 8.43830000
4.71740000 2.20270000 8.77390000
7.09550000 2.44200000 8.77610000
6.38780000 2.69240000 9.31090000
5.68770000 2.57740000 8.18080000
5.39910000 2.49270000 9.90390000
5.78240000 3.14230000 9.70690000
-2.75480000 -2.30940000 10.61110000
-1.59490000 -2.21050000 10.92640000
-2.79960000 -1.45940000 10.69990000
-1.40360000 -1.78390000 10.98930000
-2.10660000 -1.15040000 10.95180000
-3.77560000 -2.07140000 10.32140000
-4.42340000 -1.67120000 10.08370000
-3.97280000 -1.40180000 10.30640000
-4.72400000 -0.97360000 10.07430000
-4.72070000 -0.23090000 10.12000000
-3.94120000 -0.71600000 10.40810000
-3.03310000 -0.69960000 10.77380000
-3.86600000 -0.33220000 10.57570000
-3.38090000 -0.44290000 10.76630000
-3.02750000 -0.24570000 10.94010000
-1.38410000 -1.04660000 11.08630000
-5.04220000 -0.37280000 10.01960000
-4.50440000 0.09590000 10.31110000
-5.42210000 -0.00810000 9.88150000
-3.65650000 -0.10140000 10.74880000
-3.31940000 0.07230000 10.85940000
-2.72500000 -2.59490000 9.36180000
-3.12130000 -1.96330000 9.30220000
-2.13150000 -2.08230000 9.61080000
-2.63120000 -0.94800000 9.52330000
-3.11530000 -0.74860000 9.37750000
-1.37760000 -1.89560000 9.76200000
-1.73710000 -0.87320000 9.74330000
-3.80820000 -0.84000000 9.06340000
-4.12520000 0.41870000 8.99040000
-2.28680000 -0.57910000 11.01540000
-0.90690000 -0.43120000 9.89950000
-1.26530000 0.32650000 9.87120000
-2.41850000 0.22810000 9.64250000
-2.48870000 -0.26330000 11.03630000
-2.47780000 0.11840000 11.02460000
-3.13480000 0.48620000 9.42380000
-2.31590000 0.88020000 9.64580000
-0.54340000 -1.73360000 11.09620000
-0.37760000 -1.10700000 11.21530000
-0.24750000 -1.09860000 9.93320000
-0.83000000 -0.71560000 11.24840000
-1.97810000 -0.35180000 11.07070000
-0.06260000 -0.61380000 11.31220000
-0.40020000 -0.48950000 11.36890000
-1.44290000 -0.37310000 11.22490000
-0.92390000 -0.34430000 11.38880000
0.69790000 -0.43610000 11.31890000
1.07380000 -0.37850000 11.23170000
1.18340000 -0.06050000 11.30420000
1.90220000 -0.11150000 11.31420000
1.22480000 0.11150000 11.33200000
1.79330000 0.08520000 11.33610000
-0.33340000 -0.25400000 11.47810000
0.21180000 -0.31320000 11.42620000
-0.39680000 -0.08850000 11.50870000
0.04670000 0.08080000 11.37810000
0.58350000 -0.08110000 11.36280000
0.62050000 0.23880000 11.28460000
1.42990000 0.31110000 11.23870000
0.05380000 -0.11930000 9.94990000
-0.47730000 0.17320000 9.95920000
1.06170000 0.52220000 9.90350000
1.76780000 0.61760000 9.79840000
1.43740000 0.54070000 11.11950000
0.79890000 0.70540000 11.13870000
0.03340000 0.99450000 9.93660000
0.83760000 1.54960000 9.90630000
1.47310000 1.23260000 9.81500000
-1.99190000 0.00180000 11.17150000
-0.77010000 -0.13490000 11.48920000
-1.35140000 -0.08740000 11.36650000
-1.16470000 -0.01440000 11.42270000
-1.02950000 0.10180000 11.39170000
-1.82230000 0.17820000 11.20610000
-1.94150000 0.40490000 11.04430000
-1.57370000 0.68500000 11.04800000
-2.95830000 0.63100000 10.71150000
-2.82200000 0.80030000 10.73960000
-1.01010000 0.35580000 11.22080000
-0.76140000 0.54720000 11.17230000
-0.81800000 0.80510000 11.13840000
-1.52360000 2.07480000 11.16360000
-0.74030000 1.51470000 11.21040000
-0.34170000 0.03660000 11.47380000
-0.28880000 0.25650000 11.33570000
0.07870000 0.46260000 11.20960000
0.05190000 0.89480000 11.17320000
-0.70960000 1.21050000 9.92040000
-1.79040000 1.30480000 9.77250000
0.99730000 1.31670000 11.16670000
-0.10350000 2.20090000 9.98240000
0.34000000 2.06650000 11.27590000
-0.27910000 2.51770000 11.30590000
0.90280000 2.28990000 9.93520000
2.40270000 1.13720000 9.61060000
1.65270000 2.39630000 9.82880000
2.40560000 2.19030000 9.65820000
1.20300000 3.49100000 9.86180000
0.65120000 3.59590000 9.90380000
-5.03680000 0.17260000 10.00750000
-4.37030000 0.41730000 10.31420000
-4.66930000 0.64140000 10.04240000
-5.45970000 0.63940000 9.64590000
-4.20390000 1.00660000 10.27530000
-4.69590000 0.94930000 8.72240000
-3.91520000 0.22730000 10.59110000
-3.07770000 0.39370000 10.75940000
-3.33350000 0.23750000 10.79420000
-3.68030000 0.47250000 10.53960000
-3.47880000 1.52010000 9.28910000
-2.84580000 1.27030000 9.49410000
-3.93780000 0.68570000 10.40830000
-3.33900000 2.06380000 10.70900000
-4.25860000 1.78360000 10.34180000
-4.09880000 1.91980000 9.05510000
-2.47100000 2.54450000 9.66230000
-5.26730000 1.15040000 9.79550000
-6.02190000 1.54560000 9.41490000
-5.55520000 2.50540000 9.76650000
-4.91880000 2.98900000 10.13980000
-4.15200000 2.86710000 10.47640000
-5.21960000 1.59180000 8.43390000
-4.69040000 2.49180000 8.78680000
-5.34470000 2.81710000 8.39060000
-3.43730000 2.64630000 9.36020000
-3.00400000 3.23630000 9.48680000
-4.45030000 3.17800000 8.90590000
-3.74700000 4.06220000 9.15590000
-2.25610000 1.64600000 10.97920000
-0.82480000 2.89830000 11.30670000
-1.71220000 2.37050000 9.81800000
-0.99210000 2.48750000 9.92840000
-1.08060000 3.29310000 9.89280000
-1.75340000 3.93830000 9.74320000
-0.04840000 2.90690000 9.97180000
-1.70140000 3.15750000 11.20350000
-0.59540000 3.68800000 11.35340000
-2.66760000 3.67580000 11.00770000
-2.45720000 4.57190000 9.55740000
-4.00010000 3.79500000 10.57680000
-3.07040000 4.76140000 9.35800000
-1.59280000 3.79330000 11.25590000
-0.57560000 4.53780000 11.29600000
-1.63840000 4.84600000 11.15660000
-2.40760000 5.05830000 10.98650000
-0.32500000 4.05460000 9.88770000
-0.95740000 5.10420000 9.75060000
0.34850000 5.32670000 9.77160000
-1.79200000 5.51330000 9.59550000
2.10670000 0.27750000 11.16990000
2.42840000 0.50940000 10.97150000
1.98340000 0.79740000 11.00350000
2.75310000 0.77940000 10.83710000
2.63020000 2.15810000 10.95490000
3.24510000 2.69490000 10.81630000
1.91400000 2.14520000 11.10420000
1.39340000 2.43370000 11.20780000
0.55040000 3.44090000 11.33760000
3.24220000 2.36870000 9.41220000
4.57780000 2.65060000 10.30870000
4.15320000 2.41180000 9.04550000
3.50570000 3.69150000 9.25760000
4.84820000 3.31890000 8.67090000
4.88550000 3.62810000 10.20840000
3.89900000 3.61620000 10.64410000
4.23520000 4.29720000 8.90070000
2.67710000 3.24780000 9.57400000
2.03690000 3.42860000 9.72060000
1.88800000 4.86060000 9.62290000
2.58300000 4.99510000 9.45030000
3.12880000 3.68660000 10.90140000
3.52420000 4.60440000 10.71250000
2.05190000 3.68040000 11.16130000
2.71630000 4.49900000 10.95720000
4.27170000 4.66760000 10.41830000
5.27660000 4.08880000 9.97010000
6.20100000 3.86490000 9.45190000
5.13750000 4.79820000 10.01440000
5.00130000 5.69960000 9.97250000
4.10240000 5.72100000 10.37860000
1.17300000 3.75700000 11.29410000
0.32040000 4.21760000 11.32220000
1.26350000 4.90630000 11.18200000
0.25440000 5.60300000 11.18350000
-1.09380000 5.18830000 11.19490000
-0.43150000 6.11330000 11.11520000
1.96940000 4.49340000 11.11460000
1.27170000 5.05640000 9.71350000
2.78100000 6.07370000 10.76750000
3.40830000 5.96720000 10.59930000
1.83250000 6.09720000 10.96400000
3.25290000 5.35050000 9.21670000
2.85530000 6.43390000 9.19890000
2.04840000 6.40370000 9.42720000
0.87440000 5.84390000 11.12660000
-0.30580000 6.45910000 9.62260000
1.35570000 6.83940000 10.93130000
0.47080000 6.95080000 10.98240000
1.35950000 6.78920000 9.48160000
0.58920000 6.66120000 9.58530000
1.77370000 7.18230000 10.78430000
3.01650000 6.96760000 10.55890000
2.30080000 7.47250000 10.58620000
1.90240000 7.11470000 9.32300000
1.98310000 7.80370000 10.56200000
3.97050000 6.93650000 10.22270000
3.17880000 7.67420000 10.31170000
2.52360000 7.86660000 10.38290000
-6.34770000 2.94660000 9.30100000
-5.19590000 3.80770000 10.03820000
-5.93880000 3.97670000 9.59430000
-5.97970000 3.32350000 7.91160000
-5.14130000 4.78870000 8.34330000
-5.75120000 4.49350000 7.94360000
-4.52140000 4.19340000 8.77370000
-5.31310000 4.79380000 9.90520000
-4.53280000 4.53470000 10.30890000
-6.94800000 4.41730000 8.83710000
-6.61590000 4.97900000 9.05900000
-7.25900000 5.79960000 8.39490000
-6.65400000 5.96960000 8.86530000
-6.09570000 5.52950000 9.34210000
-5.13750000 5.55010000 9.89920000
-5.31920000 6.65170000 9.61700000
-3.79010000 4.58570000 10.61510000
-3.15440000 5.19200000 10.77310000
-4.28940000 5.92630000 10.25360000
-2.73580000 6.25530000 10.75120000
-2.03690000 6.22260000 10.92230000
-3.55810000 6.45320000 10.45690000
-4.31780000 7.27460000 9.97520000
-3.84700000 5.19020000 9.00950000
-4.53280000 5.72340000 8.58040000
-5.96920000 5.71630000 7.61330000
-6.64570000 5.96900000 6.95480000
-6.30640000 7.01030000 7.01220000
-5.45190000 6.66500000 7.80170000
-4.15750000 6.86050000 8.57550000
-4.65420000 7.19690000 8.22560000
-2.64490000 5.53360000 9.44740000
-3.24990000 5.74750000 9.17790000
-2.74640000 6.84500000 9.14120000
-2.21350000 6.47740000 9.35670000
-1.35810000 6.81740000 9.46680000
-0.61230000 7.40880000 9.42850000
-1.65750000 7.52030000 9.27570000
-3.39520000 7.06150000 8.86950000
-3.57960000 7.20950000 10.29080000
-2.66670000 7.05760000 10.61610000
-1.48970000 7.03270000 10.86210000
-1.72720000 7.53150000 10.68920000
-2.86820000 7.54090000 10.41780000
-2.46930000 7.80480000 10.45510000
-3.69770000 7.79600000 10.07190000
-2.66300000 7.62140000 9.00780000
-3.34140000 7.74950000 8.76260000
-4.11160000 7.65620000 8.42590000
-2.68670000 7.83960000 9.03350000
-3.77990000 7.95840000 8.75350000
-1.95490000 7.73260000 9.19540000
-0.75300000 7.64880000 9.38150000
-0.94570000 7.77710000 9.38970000
-1.39070000 7.87340000 9.39110000
-2.13460000 7.96640000 9.33740000
-3.77360000 8.05610000 8.94490000
-2.79460000 8.07970000 9.41400000
-1.30610000 8.02200000 9.61460000
-1.01540000 8.07190000 9.83860000
-3.87210000 8.09310000 9.25840000
-6.27380000 6.88650000 8.97210000
-7.67960000 7.15190000 7.68150000
-6.94790000 7.22240000 8.33610000
-7.27250000 7.50780000 7.88810000
-5.41120000 7.31590000 9.40060000
-6.06920000 7.48040000 8.91990000
-6.35330000 7.84760000 8.57320000
-5.50950000 7.81750000 9.17200000
-5.89050000 7.96250000 8.83650000
-6.25230000 8.02990000 8.44610000
-5.61750000 8.03580000 8.89600000
-5.07350000 8.07420000 9.03630000
-7.03440000 8.09700000 7.35630000
-5.89300000 8.10660000 7.93450000
-6.67530000 7.66810000 6.46180000
-6.01920000 7.69690000 7.10590000
-7.01920000 7.98920000 6.30740000
-6.15550000 8.03050000 7.36760000
-6.26260000 7.90320000 6.98540000
-6.85390000 7.84390000 6.30180000
-5.37060000 7.62860000 7.65010000
-4.94800000 7.77400000 7.93780000
-5.63210000 7.82970000 7.52230000
-5.34890000 7.99200000 7.89730000
-5.15570000 8.07030000 8.27460000
-5.01650000 7.88370000 7.97550000
-7.95210000 7.53330000 7.20230000
-7.70040000 7.42230000 7.49370000
-7.46970000 7.75230000 7.36590000
-7.36310000 7.63580000 7.55600000
-7.75720000 7.78050000 7.19190000
-8.00030000 7.92680000 6.93090000
-7.28390000 8.01390000 7.32300000
-7.13580000 7.69390000 7.81440000
-6.97320000 7.94550000 7.69330000
-6.64690000 8.05220000 7.95790000
-6.74830000 7.89110000 8.16040000
-7.74310000 8.05840000 6.97180000
-4.59520000 7.79330000 9.68910000
-3.93020000 7.95440000 9.88600000
-5.15340000 7.92650000 9.32190000
-4.67100000 8.01670000 9.44950000
-2.97120000 8.04490000 10.03430000
-2.83730000 7.94590000 10.26660000
-4.40990000 7.77230000 8.30180000
-4.17150000 7.87790000 8.47150000
-4.61770000 7.93970000 8.37850000
-0.84160000 6.68580000 11.00720000
-0.56770000 7.56930000 10.81260000
0.60730000 7.41740000 10.84950000
0.60100000 7.48230000 9.46350000
1.10880000 7.57380000 9.39620000
0.30530000 7.64490000 9.45780000
0.70380000 7.85320000 9.54130000
0.49170000 7.97450000 10.63090000
-0.35140000 8.04140000 10.53130000
-0.67330000 7.97270000 10.64770000
0.00550000 7.78360000 9.45740000
-0.29700000 7.90370000 9.53390000
0.52290000 7.99810000 9.67800000
1.14290000 8.05720000 9.79940000
0.04200000 8.07220000 10.23630000
1.12110000 7.83410000 10.68890000
1.66180000 7.92470000 10.55380000
1.22400000 7.84000000 9.45430000
1.70400000 7.94890000 9.46430000
2.74330000 7.95810000 10.26500000
1.36150000 8.02850000 10.43050000
3.06640000 8.05000000 10.00990000
-0.35190000 7.85640000 10.74520000
-1.74550000 8.03920000 10.38440000
-1.89470000 7.92270000 10.53200000
-1.27990000 7.87410000 10.66350000
8.78800000 -8.19530000 2.15830000
7.44680000 -8.12780000 2.85770000
8.23890000 -8.14810000 1.90190000
8.18240000 -8.07500000 0.07400000
8.68940000 -8.14950000 1.07510000
8.01140000 -8.08420000 1.45160000
9.79280000 -8.08230000 0.29210000
9.97170000 -8.02890000 1.24140000
9.57180000 -8.13020000 1.86230000
9.37260000 -8.14940000 1.02400000
9.03170000 -8.14160000 0.38760000
7.50540000 -8.07960000 1.46480000
7.09750000 -6.93120000 3.12120000
7.56120000 -6.92810000 0.44850000
7.68400000 -6.87080000 1.83850000
7.42160000 -6.85390000 2.87230000
7.80280000 -6.69420000 2.36360000
8.19650000 -6.46750000 1.59830000
8.06090000 -6.27270000 2.73470000
8.33760000 -6.13100000 2.07130000
7.83290000 -6.85450000 1.04700000
8.04590000 -6.70880000 0.56100000
8.49680000 -6.10900000 1.13950000
9.29130000 -8.02660000 4.02630000
9.71050000 -7.90040000 3.27580000
9.41510000 -8.05130000 3.48600000
9.65300000 -8.06070000 2.71440000
9.81910000 -7.74060000 3.18920000
9.53640000 -7.12150000 3.92240000
9.93180000 -8.00010000 1.97100000
10.13070000 -7.88410000 1.53460000
10.12590000 -7.88280000 0.65380000
9.92740000 -7.91130000 2.54740000
10.10210000 -7.67970000 2.32550000
10.06980000 -7.46920000 2.63640000
9.94430000 -7.16640000 2.96920000
10.26800000 -7.61320000 1.49920000
10.28940000 -7.24170000 1.80370000
10.17540000 -7.04970000 2.24580000
9.59100000 -6.24330000 4.04910000
9.33730000 -5.83340000 4.82140000
10.01990000 -6.60410000 2.82960000
10.19640000 -6.73920000 2.13390000
10.32680000 -6.07570000 2.07360000
10.14010000 -5.92630000 2.91320000
10.35350000 -5.69210000 2.40340000
9.97350000 -5.39520000 3.71660000
10.27300000 -5.20880000 3.08550000
9.20970000 -8.11540000 -0.68250000
8.31530000 -8.13930000 -1.09330000
9.41650000 -8.08710000 -0.07880000
9.96210000 -8.00080000 0.45820000
10.01030000 -7.99280000 -0.01100000
10.23800000 -7.80000000 1.08960000
10.29510000 -7.67420000 0.75560000
10.11060000 -7.90260000 -0.34080000
9.80560000 -8.04090000 -1.19310000
9.94860000 -7.96270000 -1.12730000
10.17130000 -7.75650000 0.15440000
10.26310000 -7.51160000 0.24520000
10.24380000 -7.57340000 -0.33990000
10.19210000 -7.78900000 -0.44740000
10.26150000 -7.11080000 -0.52390000
10.33770000 -7.36700000 0.64110000
10.21390000 -7.41250000 -0.93320000
10.32150000 -6.88660000 0.49900000
9.85380000 -7.93630000 -2.26980000
10.06680000 -7.79620000 -1.62660000
9.62270000 -8.02940000 -2.66340000
9.70020000 -7.78130000 -3.12780000
9.94950000 -7.79930000 -2.29790000
10.04090000 -7.60700000 -2.13870000
9.83500000 -7.61690000 -2.93210000
10.15080000 -6.97830000 -1.81890000
10.01500000 -7.16240000 -2.50460000
10.05380000 -7.80690000 -1.16320000
10.16650000 -7.63060000 -0.91110000
10.35260000 -6.30260000 -0.31610000
10.33270000 -6.14640000 -1.28580000
10.17140000 -6.26880000 -2.19720000
7.81680000 -6.86580000 -0.21120000
7.90950000 -6.78390000 -0.78900000
8.09440000 -6.57480000 -1.00210000
8.36880000 -6.22370000 -0.98910000
8.33840000 -6.38970000 -0.25530000
8.30340000 -6.45110000 0.68330000
8.49790000 -6.15670000 0.34630000
8.72040000 -5.51710000 1.68010000
8.90200000 -5.27400000 0.74170000
8.76740000 -5.58800000 -0.07110000
8.05880000 -6.33660000 -2.10380000
8.49410000 -5.78440000 -1.57980000
8.34620000 -5.67240000 -2.34970000
8.76900000 -5.00180000 -1.88630000
10.58980000 -5.32340000 -0.29930000
8.80380000 -5.29580000 -1.08220000
8.96740000 -5.07150000 -0.25180000
10.34090000 -7.40410000 1.26420000
10.30440000 -6.93000000 1.38850000
10.35130000 -6.43610000 0.98380000
10.31560000 -6.39010000 1.65320000
10.53080000 -5.61310000 0.99680000
10.52200000 -5.51120000 1.73900000
10.69610000 -4.51740000 1.60810000
10.43240000 -4.51460000 2.97280000
10.60570000 -4.38840000 2.37310000
10.79380000 -4.29900000 -0.37020000
10.60020000 -5.10820000 -1.24360000
10.84400000 -4.09780000 0.67060000
5.11620000 -6.91190000 2.10140000
7.44930000 -6.68380000 3.36060000
7.36760000 -6.51080000 3.94530000
7.72170000 -6.18840000 3.72790000
7.78790000 -6.40030000 3.25880000
8.25160000 -5.66510000 3.14380000
8.04700000 -5.52000000 3.80020000
7.70310000 -5.26500000 4.61240000
8.25850000 -4.62710000 4.02480000
7.97290000 -4.39100000 4.70030000
9.87700000 -4.48460000 4.36620000
9.50220000 -4.41230000 5.11650000
8.60650000 -5.46390000 2.32290000
8.59700000 -5.04750000 2.88290000
8.74330000 -4.62470000 2.76150000
8.43320000 -4.84920000 3.49310000
10.33960000 -3.72410000 3.70080000
8.78150000 -3.76610000 3.53240000
9.08200000 -3.65990000 2.83430000
7.58240000 -4.46440000 5.21560000
7.76450000 -3.70580000 5.41720000
8.30650000 -3.19940000 4.84600000
8.40680000 -3.86080000 4.30050000
7.88020000 -2.98200000 5.58910000
8.76670000 -2.89860000 4.14800000
9.15980000 -3.02050000 3.21560000
8.93190000 -1.95730000 4.12670000
9.15800000 -2.29350000 3.54340000
8.44550000 -2.26820000 4.95350000
9.21240000 -4.34680000 0.46810000
9.09860000 -4.49230000 -0.74160000
9.11920000 -4.09620000 -1.64860000
9.46890000 -3.38400000 -0.93060000
8.87070000 -5.26040000 1.30900000
8.97770000 -4.67350000 1.75190000
9.13720000 -4.46160000 1.05440000
9.21890000 -3.92670000 1.92110000
9.44570000 -3.60030000 1.12520000
10.64770000 -3.29710000 3.03390000
10.84190000 -2.96500000 2.41000000
9.39450000 -3.30850000 2.09190000
9.59840000 -2.98150000 1.36080000
9.48410000 -3.55060000 -0.06810000
9.62730000 -3.10200000 0.61460000
9.70210000 -2.87400000 -0.01520000
9.82730000 -2.12830000 0.28280000
9.73020000 -2.53380000 -0.62980000
10.89750000 -3.58560000 1.52830000
11.02720000 -3.08780000 0.64750000
11.05140000 -2.56610000 1.33660000
10.97500000 -3.40540000 -0.29030000
9.41100000 -2.90690000 2.45750000
9.42600000 -1.99120000 2.88000000
9.67690000 -2.01820000 1.87630000
9.62400000 -1.64090000 2.35360000
9.75600000 -2.27470000 1.03680000
9.80590000 -1.43680000 1.37100000
9.87790000 -0.91440000 1.06180000
9.80270000 -0.78390000 1.81220000
10.14490000 -3.37000000 4.35200000
9.66430000 -3.40480000 5.25540000
9.19980000 -3.33300000 6.01130000
8.80870000 -2.37160000 6.77780000
9.40410000 -2.56630000 5.92710000
9.80490000 -1.84820000 5.39720000
9.86630000 -2.54210000 5.19330000
10.18030000 -2.15230000 4.66670000
10.11400000 -1.36520000 4.99740000
10.67920000 -2.40290000 3.32730000
10.99600000 -1.85000000 2.14220000
10.42000000 -2.36960000 4.10400000
10.38950000 -1.62400000 4.32780000
10.60870000 -1.58100000 3.73420000
10.81180000 -1.53460000 3.04680000
9.32040000 -1.35710000 3.32900000
10.55830000 -0.80920000 4.12630000
10.76190000 -0.71920000 3.44640000
11.09720000 -0.99200000 2.00290000
11.17570000 -1.45810000 1.23270000
10.78210000 -0.33960000 3.29430000
11.15110000 -0.57410000 2.16050000
10.92530000 -0.29330000 2.92570000
11.30660000 -0.22800000 2.06790000
11.06520000 -0.12850000 2.77250000
9.84140000 -7.24610000 -3.06450000
9.66580000 -6.82310000 -3.49520000
10.04190000 -6.34730000 -2.74970000
9.85080000 -6.21100000 -3.29030000
9.83230000 -5.71490000 -3.74050000
10.40360000 -5.41060000 -2.12990000
10.10520000 -5.51290000 -3.14930000
8.28580000 -5.18160000 -3.16450000
8.70210000 -4.61330000 -2.57300000
10.38490000 -4.85120000 -2.62830000
10.63630000 -3.96510000 -2.13930000
10.27770000 -4.11040000 -3.33230000
9.93560000 -4.44660000 -4.11490000
9.55390000 -4.62420000 -4.89900000
10.56790000 -2.96410000 -3.08420000
10.12640000 -3.58250000 -4.16270000
10.85400000 -3.67810000 -1.19720000
8.69420000 -3.96120000 -3.30450000
8.47310000 -3.90140000 -3.83640000
9.00970000 -3.51750000 -2.89300000
9.20510000 -3.59110000 -2.08700000
9.33590000 -2.82120000 -2.44830000
9.60080000 -2.62180000 -1.43270000
8.32290000 -3.53510000 -4.48160000
8.73710000 -3.11350000 -3.93870000
8.50070000 -2.72440000 -4.65450000
10.43320000 -2.26070000 -3.86140000
9.07440000 -2.65760000 -3.41660000
9.51900000 -1.97390000 -2.26430000
8.74390000 -2.36860000 -4.32030000
9.29650000 -2.01360000 -3.07440000
9.05570000 -1.77180000 -3.79120000
9.33800000 -1.04770000 -3.17670000
10.96110000 -2.57710000 -1.68750000
11.12400000 -2.37110000 -0.35740000
11.23210000 -1.43600000 0.41940000
11.14480000 -1.73180000 -1.12650000
11.24630000 -1.25590000 -0.22500000
10.87530000 -1.87100000 -2.54620000
11.04220000 -1.72740000 -1.89350000
10.98590000 -1.26380000 -2.58960000
11.15400000 -1.23290000 -1.85310000
9.81600000 -1.91850000 -0.64380000
9.74890000 -1.64900000 -1.45630000
9.86380000 -1.01770000 -0.84480000
9.89420000 -1.07790000 0.02530000
9.59460000 -0.97360000 -2.29850000
9.79140000 -0.78910000 -1.57390000
9.78400000 -0.12910000 -1.87750000
11.22050000 -1.17510000 -1.01630000
11.26520000 -0.67090000 -0.85740000
11.34060000 -0.30660000 0.17800000
11.19640000 -0.78310000 -1.91270000
10.93670000 -0.80070000 -2.99530000
11.32920000 -0.52000000 -1.62020000
11.24410000 -0.47950000 -2.34430000
11.39230000 -0.33640000 -1.82160000
11.35110000 -0.35810000 -0.87320000
11.42900000 -0.28550000 -1.36340000
11.42770000 -0.14690000 -1.46080000
11.37080000 -0.22770000 -1.99490000
11.32090000 -0.07380000 0.04500000
11.41230000 -0.07190000 -0.83880000
11.35700000 0.16190000 -0.42670000
11.27760000 0.11500000 -1.47550000
11.33340000 -0.08670000 -1.90560000
11.19410000 0.33080000 -1.25990000
11.16860000 0.60570000 -0.46780000
11.24460000 0.37970000 -0.38510000
9.81020000 -3.60790000 -4.91240000
10.11420000 -2.19950000 -4.74360000
9.65920000 -2.69300000 -5.48520000
9.88660000 -1.55790000 -5.47490000
10.16850000 -1.17760000 -5.10840000
10.62290000 -1.26970000 -3.77950000
9.28860000 -1.93960000 -6.31170000
9.52520000 -1.39610000 -6.16550000
8.54920000 -1.24690000 -4.98960000
8.85710000 -0.96820000 -4.47480000
10.52050000 -0.70340000 -4.28680000
9.31530000 -0.68970000 -6.58880000
9.56900000 -0.83990000 -6.27480000
9.17750000 -0.52180000 -6.79230000
9.06360000 -0.39710000 -7.06730000
9.65380000 -0.48340000 -6.24630000
9.36470000 -0.19500000 -6.57490000
9.51190000 -0.19790000 -6.32240000
9.40620000 0.02350000 -6.43960000
9.19860000 -0.07020000 -6.90660000
9.96030000 -0.81970000 -5.65140000
10.24690000 -0.74700000 -5.15910000
10.46480000 -0.56120000 -4.68370000
10.37890000 -0.43640000 -5.18830000
10.04130000 -0.50690000 -5.76880000
10.49130000 -0.26050000 -4.94060000
10.15660000 -0.28020000 -5.58440000
10.50290000 -0.08420000 -4.75350000
10.16390000 -0.13090000 -5.43600000
10.42230000 0.14090000 -4.55210000
9.99430000 0.07070000 -5.45530000
9.98250000 0.32240000 -5.30460000
9.79220000 -0.25250000 -6.00460000
9.55170000 0.18690000 -6.10180000
10.96230000 -0.43180000 -3.15730000
11.23390000 -0.30120000 -2.52460000
11.02740000 -0.24700000 -3.02190000
10.76520000 -0.47940000 -3.58920000
10.75230000 -0.16400000 -3.87430000
10.85010000 -0.09490000 -3.31320000
10.87390000 0.09080000 -3.14170000
11.08880000 -0.03070000 -2.63310000
10.77210000 0.09550000 -3.66380000
10.59140000 0.28050000 -3.92800000
10.79560000 0.45570000 -3.07390000
10.59980000 0.59180000 -3.73020000
11.04870000 0.30530000 -2.17930000
11.00530000 0.62070000 -2.16720000
11.14290000 0.63920000 -1.28620000
10.63250000 -0.24020000 -4.50560000
10.65510000 -0.01300000 -4.29150000
10.29770000 0.48640000 -4.59780000
11.27930000 -0.78810000 1.03510000
