-9.25526400 -0.00000400 -4.22673300
-9.67510600 0.27666800 -4.41846900
-9.69867000 0.75897500 -4.42923100
-9.43272900 1.31605900 -4.30778100
-9.10282900 2.03765200 -4.15712200
-8.97154200 2.89010200 -4.09716600
-9.07589900 3.61542400 -4.14482500
-9.14659100 4.08650800 -4.17711000
-9.22065000 4.53142700 -4.21093200
-9.27368600 5.54487800 -4.23515400
-10.08823700 6.76447500 -4.60714900
-11.30697900 8.27669600 -5.16373100
-11.84970100 9.49281600 -5.41158600
-12.12582200 10.57146400 -5.53768700
-13.01131300 11.73471000 -5.94208000
-13.90632800 12.29518300 -6.35081900
-13.42073500 12.82393100 -6.12905800
-10.07117100 -0.00000100 -1.44801200
-10.52802400 0.27667200 -1.51369700
-10.55366500 0.75897900 -1.51738500
-10.26428100 1.31606300 -1.47577800
-9.90529700 2.03765500 -1.42416600
-9.76243700 2.89010500 -1.40362700
-9.87599200 3.61542800 -1.41995400
-9.95291700 4.08651100 -1.43101500
-10.03350500 4.53143000 -1.44260300
-10.09121600 5.54488000 -1.45090200
-10.97757500 6.76447800 -1.57834200
-12.30375600 8.27669900 -1.76902100
-12.89432100 9.49282200 -1.85393300
-13.19478500 10.57146900 -1.89713400
-14.15833700 11.73471500 -2.03567400
-15.13225300 12.29518800 -2.17570200
-14.60385100 12.82393700 -2.09973000
-10.07116900 0.00000300 1.44802000
-10.52802200 0.27667500 1.51370500
-10.55366300 0.75898300 1.51739100
-10.26427900 1.31606700 1.47578300
-9.90529600 2.03765900 1.42416800
-9.76243500 2.89010900 1.40362600
-9.87599100 3.61543100 1.41995200
-9.95291600 4.08651500 1.43101200
-10.03350400 4.53143400 1.44259800
-10.09121500 5.54488400 1.45089400
-10.97757300 6.76448200 1.57833100
-12.30375500 8.27670300 1.76900600
-12.89432100 9.49282600 1.85391400
-13.19478500 10.57147300 1.89711300
-14.15833700 11.73471900 2.03565000
-15.13225100 12.29519300 2.17567700
-14.60385100 12.82394200 2.09970400
-9.25526300 0.00000600 4.22674000
-9.67510400 0.27667900 4.41847500
-9.69866800 0.75898600 4.42923500
-9.43272800 1.31607000 4.30778300
-9.10282700 2.03766200 4.15712200
-8.97154100 2.89011200 4.09716400
-9.07589700 3.61543500 4.14482100
-9.14659000 4.08651800 4.17710500
-9.22065000 4.53143800 4.21092600
-9.27368500 5.54488800 4.23514500
-10.08823600 6.76448600 4.60713700
-11.30697900 8.27670800 5.16371600
-11.84969900 9.49283000 5.41156600
-12.12582100 10.57147700 5.53766500
-13.01131300 11.73472500 5.94205400
-13.90632800 12.29519900 6.35079300
-13.42073500 12.82394800 6.12902900
-7.68955100 0.00001000 6.66303500
-8.03836700 0.27668200 6.96528600
-8.05794500 0.75899000 6.98225000
-7.83699400 1.31607300 6.79079400
-7.56290300 2.03766500 6.55329200
-7.45382700 2.89011500 6.45877400
-7.54052800 3.61543800 6.53390200
-7.59926200 4.08652100 6.58479300
-7.66079300 4.53144000 6.63811000
-7.70485700 5.54489100 6.67629000
-8.38161000 6.76448900 7.26269900
-9.39417800 8.27671200 8.14009100
-9.84508700 9.49283400 8.53080400
-10.07449700 10.57148200 8.72958700
-10.81019100 11.73473000 9.36706800
-11.55379600 12.29520300 10.01140300
-11.15035100 12.82395200 9.66181600
-5.50087700 0.00001200 8.55953200
-5.75041000 0.27668500 8.94781300
-5.76441600 0.75899200 8.96960600
-5.60635400 1.31607600 8.72365600
-5.41027700 2.03766700 8.41855400
-5.33224600 2.89011800 8.29713500
-5.39427000 3.61544000 8.39364500
-5.43628600 4.08652400 8.45902200
-5.48030400 4.53144300 8.52751400
-5.51182600 5.54489400 8.57656300
-5.99595600 6.76449200 9.32988100
-6.72031700 8.27671500 10.45700500
-7.04288300 9.49283800 10.95892700
-7.20699700 10.57148500 11.21429100
-7.73329100 11.73473300 12.03321800
-8.26524300 12.29520600 12.86095100
-7.97663100 12.82395500 12.41186100
-2.86655200 0.00001300 9.76258700
-2.99658600 0.27668600 10.20544100
-3.00388400 0.75899400 10.23029700
-2.92151700 1.31607700 9.94977900
-2.81934000 2.03766900 9.60179400
-2.77867800 2.89011900 9.46331000
-2.81099900 3.61544200 9.57338500
-2.83289400 4.08652500 9.64795200
-2.85583200 4.53144400 9.72607100
-2.87225800 5.54489500 9.78201200
-3.12454200 6.76449400 10.64121000
-3.50201300 8.27671600 11.92675500
-3.67010600 9.49284000 12.49922300
-3.75562700 10.57148700 12.79047800
-4.02988300 11.73473500 13.72450700
-4.30708700 12.29520800 14.66858000
-4.15668900 12.82395600 14.15637000
0.00000300 0.00001400 10.17473500
0.00000300 0.27668700 10.63628600
0.00000300 0.75899500 10.66219100
0.00000300 1.31607800 10.36982900
0.00000300 2.03766900 10.00715400
0.00000200 2.89011900 9.86282300
0.00000200 3.61544200 9.97754600
0.00000200 4.08652600 10.05526100
0.00000200 4.53144500 10.13667800
0.00000200 5.54489500 10.19498000
0.00000200 6.76449500 11.09045200
0.00000200 8.27671700 12.43027000
0.00000200 9.49284000 13.02690600
0.00000200 10.57148700 13.33045900
0.00000200 11.73473500 14.30391700
0.00000200 12.29521000 15.28784800
0.00000200 12.82395800 14.75401200
2.86655500 0.00001300 9.76258600
2.99658900 0.27668600 10.20544100
3.00388700 0.75899400 10.23029600
2.92152000 1.31607700 9.94977700
2.81934200 2.03766900 9.60179300
2.77868000 2.89011900 9.46330800
2.81100100 3.61544200 9.57338400
2.83289600 4.08652500 9.64795100
2.85583400 4.53144400 9.72606900
2.87226000 5.54489500 9.78201200
3.12454400 6.76449400 10.64121000
3.50201500 8.27671600 11.92675500
3.67010700 9.49284000 12.49922300
3.75562700 10.57148700 12.79047800
4.02988300 11.73473500 13.72450700
4.30708800 12.29520800 14.66858000
4.15669000 12.82395600 14.15637000
5.50087600 0.00001200 8.55953100
5.75041000 0.27668500 8.94781200
5.76441500 0.75899200 8.96960500
5.60635300 1.31607600 8.72365500
5.41027600 2.03766700 8.41855300
5.33224600 2.89011800 8.29713400
5.39427000 3.61544000 8.39364500
5.43628600 4.08652300 8.45902200
5.48030300 4.53144300 8.52751400
5.51182500 5.54489400 8.57656200
5.99595400 6.76449200 9.32988000
6.72031500 8.27671500 10.45700600
7.04288200 9.49283800 10.95892800
7.20699500 10.57148500 11.21429200
7.73328800 11.73473300 12.03321900
8.26524000 12.29520600 12.86095200
7.97662700 12.82395500 12.41186200
7.68955100 0.00001000 6.66303300
8.03836800 0.27668200 6.96528300
8.05794700 0.75899000 6.98224700
7.83699500 1.31607300 6.79079100
7.56290300 2.03766500 6.55328900
7.45382700 2.89011500 6.45877300
7.54052900 3.61543800 6.53390000
7.59926200 4.08652100 6.58479100
7.66079300 4.53144000 6.63810800
7.70485600 5.54489100 6.67628800
8.38161000 6.76448900 7.26269700
9.39417800 8.27671200 8.14009000
9.84508700 9.49283500 8.53080300
10.07449600 10.57148200 8.72958700
10.81019100 11.73473000 9.36706800
11.55379400 12.29520300 10.01140300
11.15034900 12.82395200 9.66181600
9.25526400 0.00000600 4.22673400
9.67510500 0.27667900 4.41846900
9.69866900 0.75898600 4.42923000
9.43272900 1.31607000 4.30777800
9.10282900 2.03766200 4.15711700
8.97154200 2.89011200 4.09716000
9.07589800 3.61543500 4.14481700
9.14659000 4.08651800 4.17710000
9.22065000 4.53143800 4.21092200
9.27368500 5.54488800 4.23514100
10.08823600 6.76448600 4.60713300
11.30697900 8.27670800 5.16371100
11.84969900 9.49283000 5.41156200
12.12582100 10.57147700 5.53766100
13.01131300 11.73472600 5.94205100
13.90632800 12.29519900 6.35078900
13.42073500 12.82394800 6.12902600
12.49738900 12.95866200 -5.70738100
13.59910700 12.95866700 -1.95527000
13.59910900 12.95867300 1.95524100
11.92610300 12.72601300 -5.44648300
12.97746000 12.72601800 -1.86589100
12.97746100 12.72602300 1.86586200
11.01525400 9.53409200 -1.58376500
11.01525400 9.53409600 1.58374300
10.12286400 9.53408900 -4.62296800
5.69256800 6.21201500 -2.59971500
6.19440100 6.21201700 -0.89062700
6.19440200 6.21202000 0.89061400
4.72955600 6.21201300 -4.09819000
3.38338400 6.21201200 -5.26465500
1.76311000 6.21201100 -6.00461000
-0.00000100 6.21201100 -6.25810600
-1.76311100 6.21201100 -6.00460900
-3.38338500 6.21201200 -5.26465400
-4.72955700 6.21201300 -4.09819000
-5.69256900 6.21201500 -2.59971500
-6.19440200 6.21201700 -0.89062600
-6.19440200 6.21202000 0.89061500
-5.69256800 6.21202100 2.59970300
-4.72955700 6.21202300 4.09817700
-3.38338500 6.21202500 5.26464200
-1.76311000 6.21202600 6.00459700
0.00000200 6.21202600 6.25809400
1.76311100 6.21202600 6.00459700
3.38338400 6.21202500 5.26464200
4.72955700 6.21202300 4.09817700
5.69256900 6.21202100 2.59970100
10.38320600 12.95865800 -8.99711400
9.90856500 12.72601000 -8.58583500
8.41037900 9.53408600 -7.28764600
7.42783700 12.95865500 -11.55795500
7.08829300 12.72600700 -11.02961400
6.01653500 9.53408400 -9.36192300
3.87070900 12.95865400 -13.18244100
3.69377000 12.72600500 -12.57984100
3.13526800 9.53408200 -10.67775400
-0.00000100 12.95865300 -13.73896600
-0.00000100 12.72600500 -13.11092400
-0.00000100 9.53408200 -11.12853800
-3.87071100 12.95865400 -13.18244100
-3.69377100 12.72600500 -12.57984100
-3.13527000 9.53408200 -10.67775400
-7.42783900 12.95865500 -11.55795500
-7.08829400 12.72600700 -11.02961400
-6.01653700 9.53408400 -9.36192300
-10.38320800 12.95865800 -8.99711500
-9.90856600 12.72601000 -8.58583500
-8.41038100 9.53408600 -7.28764600
-12.49739000 12.95866200 -5.70738100
-11.92610500 12.72601300 -5.44648300
-10.12286600 9.53408900 -4.62296700
-13.59910900 12.95866700 -1.95527000
-12.97746100 12.72601900 -1.86589100
-11.01525700 9.53409200 -1.58376400
-13.59910900 12.95867300 1.95524300
-12.97746100 12.72602300 1.86586400
-11.01525600 9.53409600 1.58374500
-12.49739100 12.95867700 5.70735200
-11.92610500 12.72602700 5.44645500
-10.12286500 9.53410100 4.62294700
-10.38320800 12.95868000 8.99708300
-9.90856800 12.72603000 8.58580500
-8.41038100 9.53410400 7.28762400
-7.42784000 12.95868400 11.55792500
-7.08829700 12.72603300 11.02958500
-6.01653800 9.53410600 9.36190300
-3.87071100 12.95868500 13.18241200
-3.69377100 12.72603500 12.57981300
-3.13526900 9.53410800 10.67773400
0.00000200 12.95868500 13.73893700
0.00000200 12.72603500 13.11089700
0.00000200 9.53410800 11.12851900
3.87071000 12.95868500 13.18241300
3.69377100 12.72603500 12.57981200
3.13526900 9.53410800 10.67773400
7.42783700 12.95868400 11.55792700
7.08829200 12.72603300 11.02958600
6.01653500 9.53410600 9.36190300
10.38320600 12.95868000 8.99708300
9.90856600 12.72603000 8.58580500
8.41038000 9.53410400 7.28762300
12.49739100 12.95867700 5.70734900
11.92610500 12.72602700 5.44645200
10.12286500 9.53410100 4.62294400
5.79344600 1.16611300 -0.83297200
5.79344600 1.16611500 0.83297100
5.32409600 1.16611700 2.43143100
4.42341900 1.16611900 3.83291400
3.16438300 1.16612000 4.92387600
1.64898700 1.16612100 5.61593400
0.00000100 1.16612100 5.85302400
-1.64898700 1.16612100 5.61593600
-3.16438400 1.16612000 4.92387700
-4.42342100 1.16611900 3.83291600
-5.32409800 1.16611700 2.43143500
-5.79344900 1.16611500 0.83297400
-5.79344900 1.16611300 -0.83297000
-5.32409900 1.16611100 -2.43143200
-4.42342200 1.16610900 -3.83291400
-3.16438600 1.16610800 -4.92387500
-1.64899000 1.16610700 -5.61593400
-0.00000200 1.16610700 -5.85302200
1.64898500 1.16610700 -5.61593400
3.16438100 1.16610800 -4.92387600
4.42341800 1.16610900 -3.83291500
5.32409500 1.16611100 -2.43143400
8.45286100 0.58305300 -3.86029300
9.19803100 0.58305600 -1.32247700
9.19803100 0.58305900 1.32247600
7.02289000 0.58305000 -6.08537100
5.02396700 0.58304800 -7.81744700
2.61803100 0.58304600 -8.91620100
-0.00000200 0.58304600 -9.29261600
-2.61803600 0.58304600 -8.91620000
-5.02397200 0.58304800 -7.81744600
-7.02289500 0.58305000 -6.08536800
-8.45286500 0.58305300 -3.86029000
-9.19803400 0.58305600 -1.32247400
-9.19803300 0.58305900 1.32248100
-8.45286300 0.58306200 3.86029500
-7.02289300 0.58306500 6.08537200
-5.02397000 0.58306700 7.81745000
-2.61803200 0.58306900 8.91620400
0.00000200 0.58306900 9.29262000
2.61803400 0.58306900 8.91620200
5.02396900 0.58306700 7.81744800
7.02289200 0.58306500 6.08536800
8.45286300 0.58306200 3.86029000
10.43576000 0.00069100 -1.50043500
10.63684000 0.27667400 -0.00000000
10.20597200 0.27667000 -2.99674400
10.61920500 0.55316600 -1.52681100
10.66274600 0.75898100 -0.00000100
10.23083000 0.75897700 -3.00404400
10.48733300 0.96497900 -1.50785200
10.37037100 1.31606500 -0.00000100
9.95029800 1.31606100 -2.92167200
10.04104900 1.66755800 -1.44368700
10.00767700 2.03765700 -0.00000200
9.60229600 2.03765300 -2.81949100
9.77008200 2.40807800 -1.40472800
9.86334000 2.89010700 -0.00000300
9.46380500 2.89010300 -2.77882700
9.75542900 3.37181400 -1.40262200
9.97806900 3.61543000 -0.00000400
9.57388800 3.61542600 -2.81115100
9.99646000 3.85840600 -1.43727800
10.05578900 4.08651300 -0.00000400
9.64845900 4.08650900 -2.83304800
9.90938000 4.31455100 -1.42475800
10.13721000 4.53143200 -0.00000500
9.72658200 4.53142900 -2.85598700
10.15757000 4.74973100 -1.46044300
10.19551800 5.54488200 -0.00000600
9.78252700 5.54487900 -2.87241500
10.02692900 6.34054600 -1.44166200
11.09103800 6.76448100 -0.00000700
10.64177300 6.76447600 -3.12471400
11.92931500 7.18914200 -1.71518400
12.43092800 8.27670100 -0.00000900
11.92738800 8.27669800 -3.50220600
12.67635400 9.36351700 -1.82259500
13.02759700 9.49282400 -0.00001000
12.49988700 9.49281900 -3.67030800
13.11155900 9.62178400 -1.88516800
13.33116500 10.57147100 -0.00001100
12.79115900 10.57146600 -3.75583400
13.27966300 11.52136600 -1.90934000
14.30467800 11.73471700 -0.00001300
13.72523800 11.73471200 -4.03010600
15.03703600 11.94655800 -2.16201200
15.28866000 12.29519000 -0.00001300
14.66936000 12.29518500 -4.30732700
15.22371200 12.64373900 -2.18885300
9.59031700 0.00068700 -4.37975100
8.94827900 0.27666600 -5.75071000
9.75890000 0.55316300 -4.45674100
8.97007200 0.75897400 -5.76471600
9.63771100 0.96497500 -4.40139700
8.72411000 1.31605800 -5.60664700
9.22758300 1.66755500 -4.21409800
8.41899300 2.03765000 -5.41056100
8.97856800 2.40807500 -4.10037700
8.29756900 2.89010000 -5.33252800
8.96510200 3.37181100 -4.09422900
8.39408600 3.61542300 -5.39455600
9.18660600 3.85840300 -4.19538700
8.45946800 4.08650600 -5.43657500
9.10658000 4.31454800 -4.15884000
8.52796300 4.53142500 -5.48059500
9.33466300 4.74972800 -4.26300400
8.57701500 5.54487600 -5.51211900
9.21460600 6.34054200 -4.20817800
9.33037400 6.76447200 -5.99627500
10.96287300 7.18913900 -5.00658500
10.45756200 8.27669300 -6.72067600
11.64939100 9.36351100 -5.32011000
10.95951100 9.49281500 -7.04326100
12.04933900 9.62177800 -5.50275900
11.21489000 10.57146100 -7.20738400
12.20382500 11.52136200 -5.57331200
12.03386100 11.73470800 -7.73370600
13.81882300 11.94655300 -6.31085900
12.86163900 12.29518100 -8.26568800
13.99037800 12.64373400 -6.38920500
7.96792200 0.00068400 -6.90424500
6.96564800 0.27666300 -8.03878600
8.10798500 0.55315900 -7.02561100
6.98261300 0.75897100 -8.05836600
8.00729800 0.96497200 -6.93836700
6.79114700 1.31605500 -7.83740500
7.66655200 1.66755200 -6.64310800
6.55363400 2.03764700 -7.56329900
7.45966300 2.40807200 -6.46383800
6.45911300 2.89009800 -7.45421800
7.44847600 3.37180800 -6.45414400
6.53424500 3.61542100 -7.54092600
7.63250700 3.85839900 -6.61361000
6.58514000 4.08650400 -7.59966300
7.56601900 4.31454500 -6.55599900
6.63846000 4.53142300 -7.66119800
7.75551800 4.74972500 -6.72020100
6.67664300 5.54487300 -7.70526400
7.65577200 6.34053900 -6.63377200
7.26308400 6.76447000 -8.38205500
9.10828400 7.18913500 -7.89238200
8.14052600 8.27668900 -9.39467800
9.67866500 9.36350800 -8.38662200
8.53126100 9.49281100 -9.84561100
10.01095300 9.62177500 -8.67455100
8.73005700 10.57145800 -10.07503400
10.13930400 11.52135700 -8.78577000
9.36757200 11.73470400 -10.81076800
11.48109400 11.94654900 -9.94843800
10.01194200 12.29517800 -11.55441200
11.62362700 12.64373000 -10.07194400
5.70001400 0.00068200 -8.86939700
4.41870100 0.27666100 -9.67560900
5.80021200 0.55315700 -9.02530900
4.42946300 0.75896900 -9.69917600
5.72818400 0.96496900 -8.91323200
4.30800600 1.31605300 -9.43322200
5.48442300 1.66755000 -8.53393400
4.15733800 2.03764500 -9.10330600
5.33642100 2.40807000 -8.30363800
4.09737800 2.89009600 -8.97201300
5.32841800 3.37180600 -8.29118400
4.14503900 3.61541800 -9.07637600
5.46006900 3.85839700 -8.49603900
4.17732400 4.08650200 -9.14707200
5.41250500 4.31454200 -8.42203000
4.21114800 4.53142000 -9.22113600
5.54806700 4.74972200 -8.63296800
4.23537000 5.54487100 -9.27417500
5.47671200 6.34053700 -8.52193900
4.60738300 6.76446800 -10.08877100
6.51579500 7.18913200 -10.13878500
5.16399300 8.27668700 -11.30757900
6.92382900 9.36350500 -10.77370000
5.41185800 9.49280900 -11.85033000
7.16153800 9.62177200 -11.14358200
5.53796500 10.57145500 -12.12646700
7.25335700 11.52135400 -11.28645800
5.94237700 11.73470100 -13.01200700
8.21323400 11.94654500 -12.78005500
6.35113800 12.29517500 -13.90706800
8.31519600 12.64372600 -12.93871400
2.97032500 0.00068000 -10.11600300
1.51377800 0.27666000 -10.52857100
3.02253900 0.55315500 -10.29382900
1.51746500 0.75896800 -10.55421500
2.98500400 0.96496800 -10.16599900
1.47585600 1.31605200 -10.26481600
2.85797900 1.66754800 -9.73339000
1.42423900 2.03764400 -9.90581600
2.78085300 2.40806800 -9.47072600
1.40369800 2.89009500 -9.76294900
2.77668300 3.37180400 -9.45652400
1.42002600 3.61541800 -9.87651000
2.84528800 3.85839600 -9.69016900
1.43108600 4.08650100 -9.95344000
2.82050200 4.31454100 -9.60575800
1.44267400 4.53141900 -10.03403300
2.89114500 4.74972100 -9.84634400
1.45097200 5.54487000 -10.09174800
2.85396100 6.34053600 -9.71970900
1.57841800 6.76446700 -10.97815500
3.39543600 7.18913000 -11.56380500
1.76910400 8.27668600 -12.30440800
3.60806600 9.36350300 -12.28795800
1.85402000 9.49280800 -12.89500400
3.73193800 9.62177000 -12.70982800
1.89722200 10.57145400 -13.19548600
3.77978600 11.52135200 -12.87278300
2.03576700 11.73470000 -14.15909100
4.27998600 11.94654300 -14.57630800
2.17580200 12.29517200 -15.13305700
4.33311900 12.64372400 -14.75726700
-0.00000200 0.00067900 -10.54307300
-1.51378300 0.27666000 -10.52857100
-0.00000200 0.55315500 -10.72840400
-1.51746900 0.75896800 -10.55421300
-0.00000200 0.96496700 -10.59517800
-1.47586000 1.31605200 -10.26481600
-0.00000200 1.66754700 -10.14430600
-1.42424300 2.03764400 -9.90581500
-0.00000200 2.40806800 -9.87055300
-1.40370200 2.89009500 -9.76294800
-0.00000200 3.37180400 -9.85575100
-1.42002900 3.61541800 -9.87651100
-0.00000200 3.85839500 -10.09926000
-1.43109000 4.08650100 -9.95344100
-0.00000200 4.31454000 -10.01128400
-1.44267700 4.53141900 -10.03403200
-0.00000200 4.74972000 -10.26202800
-1.45097500 5.54487000 -10.09174800
-0.00000200 6.34053500 -10.13004600
-1.57842100 6.76446700 -10.97815500
-0.00000200 7.18912900 -12.05199600
-1.76910700 8.27668600 -12.30440800
-0.00000100 9.36350200 -12.80671800
-1.85402100 9.49280800 -12.89500400
-0.00000100 9.62176900 -13.24639900
-1.89722400 10.57145400 -13.19548600
-0.00000100 11.52135200 -13.41623500
-2.03576900 11.73470000 -14.15909300
-0.00000100 11.94654200 -15.19168000
-2.17580400 12.29517200 -15.13305900
-0.00000100 12.64372300 -15.38027600
-2.97033000 0.00068000 -10.11600300
-4.41870600 0.27666100 -9.67560700
-3.02254400 0.55315500 -10.29382800
-4.42946800 0.75896900 -9.69917400
-2.98500900 0.96496800 -10.16599800
-4.30801000 1.31605300 -9.43322200
-2.85798300 1.66754800 -9.73339000
-4.15734300 2.03764500 -9.10330400
-2.78085800 2.40806800 -9.47072500
-4.09738200 2.89009600 -8.97201200
-2.77668700 3.37180400 -9.45652300
-4.14504200 3.61541900 -9.07637400
-2.84529200 3.85839600 -9.69016900
-4.17732800 4.08650200 -9.14707100
-2.82050600 4.31454100 -9.60575800
-4.21115200 4.53142100 -9.22113600
-2.89114800 4.74972100 -9.84634400
-4.23537300 5.54487100 -9.27417400
-2.85396300 6.34053600 -9.71970900
-4.60738500 6.76446800 -10.08877000
-3.39543900 7.18913000 -11.56380500
-5.16399600 8.27668700 -11.30757800
-3.60806800 9.36350300 -12.28795800
-5.41186100 9.49280900 -11.85033000
-3.73194000 9.62177000 -12.70982800
-5.53796800 10.57145500 -12.12646700
-3.77978700 11.52135200 -12.87278400
-5.94237900 11.73470100 -13.01200700
-4.27998800 11.94654300 -14.57630900
-6.35114000 12.29517500 -13.90706800
-4.33312100 12.64372400 -14.75726700
-5.70001900 0.00068200 -8.86939500
-6.96565200 0.27666300 -8.03878500
-5.80021700 0.55315700 -9.02530600
-6.98261800 0.75897100 -8.05836400
-5.72818800 0.96496900 -8.91322900
-6.79115200 1.31605500 -7.83740200
-5.48442800 1.66755000 -8.53393100
-6.55363800 2.03764700 -7.56329800
-5.33642500 2.40807000 -8.30363500
-6.45911700 2.89009800 -7.45421600
-5.32842200 3.37180600 -8.29118300
-6.53424900 3.61542100 -7.54092300
-5.46007300 3.85839700 -8.49603800
-6.58514500 4.08650400 -7.59966200
-5.41250900 4.31454200 -8.42202800
-6.63846400 4.53142300 -7.66119600
-5.54807100 4.74972200 -8.63296700
-6.67664700 5.54487300 -7.70526300
-5.47671500 6.34053700 -8.52193700
-7.26308800 6.76447000 -8.38205300
-6.51579900 7.18913200 -10.13878300
-8.14052900 8.27668900 -9.39467600
-6.92383200 9.36350500 -10.77369900
-8.53126400 9.49281100 -9.84561100
-7.16154000 9.62177200 -11.14358200
-8.73005900 10.57145800 -10.07503400
-7.25335900 11.52135400 -11.28645700
-9.36757400 11.73470400 -10.81076700
-8.21323600 11.94654500 -12.78005500
-10.01194500 12.29517800 -11.55441200
-8.31519900 12.64372600 -12.93871400
-7.96792600 0.00068400 -6.90424300
-8.94828200 0.27666600 -5.75070700
-8.10799000 0.55315900 -7.02560900
-8.97007500 0.75897400 -5.76471500
-8.00730300 0.96497200 -6.93836500
-8.72411300 1.31605800 -5.60664500
-7.66655600 1.66755200 -6.64310600
-8.41899600 2.03765000 -5.41055900
-7.45966600 2.40807200 -6.46383600
-8.29757200 2.89010000 -5.33252600
-7.44847900 3.37180800 -6.45414300
-8.39408900 3.61542300 -5.39455400
-7.63251200 3.85839900 -6.61360800
-8.45947000 4.08650600 -5.43657300
-7.56602200 4.31454500 -6.55599800
-8.52796600 4.53142500 -5.48059300
-7.75552200 4.74972500 -6.72020000
-8.57701700 5.54487600 -5.51211800
-7.65577500 6.34053900 -6.63377200
-9.33037700 6.76447300 -5.99627400
-9.10828700 7.18913500 -7.89238100
-10.45756300 8.27669400 -6.72067600
-9.67866700 9.36350800 -8.38662100
-10.95951300 9.49281500 -7.04326100
-10.01095500 9.62177500 -8.67455000
-11.21489000 10.57146100 -7.20738400
-10.13930500 11.52135700 -8.78577000
-12.03386200 11.73470800 -7.73370600
-11.48109600 11.94654900 -9.94843800
-12.86164100 12.29518100 -8.26568800
-11.62362800 12.64373000 -10.07194400
-9.59032000 0.00068700 -4.37974800
-10.20597600 0.27667000 -2.99674100
-9.75890300 0.55316300 -4.45673800
-10.23083300 0.75897700 -3.00404000
-9.63771400 0.96497500 -4.40139400
-9.95030100 1.31606100 -2.92166900
-9.22758600 1.66755500 -4.21409600
-9.60229800 2.03765300 -2.81948800
-8.97856900 2.40807500 -4.10037500
-9.46380700 2.89010400 -2.77882400
-8.96510500 3.37181100 -4.09422700
-9.57389000 3.61542600 -2.81114900
-9.18660900 3.85840300 -4.19538500
-9.64846200 4.08650900 -2.83304500
-9.10658300 4.31454800 -4.15883800
-9.72658500 4.53142900 -2.85598500
-9.33466600 4.74972800 -4.26300200
-9.78253000 5.54487900 -2.87241300
-9.21461000 6.34054200 -4.20817600
-10.64177600 6.76447600 -3.12471200
-10.96287500 7.18913900 -5.00658400
-11.92739000 8.27669800 -3.50220400
-11.64939300 9.36351100 -5.32010900
-12.49988900 9.49281800 -3.67030700
-12.04934100 9.62177800 -5.50275900
-12.79116100 10.57146700 -3.75583400
-12.20382500 11.52136200 -5.57331200
-13.72524000 11.73471200 -4.03010600
-13.81882600 11.94655300 -6.31085800
-14.66936300 12.29518500 -4.30732500
-13.99037900 12.64373400 -6.38920500
-10.43576200 0.00069100 -1.50043200
-10.63684200 0.27667400 0.00000300
-10.61920600 0.55316600 -1.52680800
-10.66274700 0.75898100 0.00000300
-10.48733500 0.96497900 -1.50784800
-10.37037300 1.31606500 0.00000200
-10.04105200 1.66755800 -1.44368400
-10.00767800 2.03765700 0.00000100
-9.77008400 2.40807800 -1.40472500
-9.86334200 2.89010700 -0.00000000
-9.75543100 3.37181400 -1.40262000
-9.97807100 3.61543000 -0.00000100
-9.99646100 3.85840600 -1.43727600
-10.05579100 4.08651300 -0.00000200
-9.90938100 4.31455100 -1.42475600
-10.13721200 4.53143200 -0.00000300
-10.15757100 4.74973100 -1.46044100
-10.19551800 5.54488200 -0.00000400
-10.02693100 6.34054600 -1.44166000
-11.09103900 6.76448100 -0.00000600
-11.92931700 7.18914200 -1.71518300
-12.43092800 8.27670100 -0.00000800
-12.67635600 9.36351700 -1.82259400
-13.02759700 9.49282400 -0.00000900
-13.11156200 9.62178400 -1.88516700
-13.33116800 10.57147100 -0.00001100
-13.27966500 11.52136600 -1.90934000
-14.30467800 11.73471700 -0.00001200
-15.03703600 11.94655800 -2.16201200
-15.28866000 12.29519000 -0.00001300
-15.22371400 12.64373900 -2.18885300
-10.43576000 0.00069500 1.50044000
-10.20597300 0.27667700 2.99674800
-10.61920500 0.55317000 1.52681500
-10.23083000 0.75898500 3.00404600
-10.48733400 0.96498200 1.50785400
-9.95029800 1.31606900 2.92167300
-10.04105100 1.66756200 1.44368700
-9.60229600 2.03766000 2.81949000
-9.77008300 2.40808200 1.40472600
-9.46380600 2.89011100 2.77882400
-9.75543100 3.37181800 1.40261800
-9.57388800 3.61543300 2.81114600
-9.99646100 3.85841000 1.43727300
-9.64846000 4.08651700 2.83304200
-9.90938100 4.31455500 1.42475200
-9.72658400 4.53143600 2.85598000
-10.15757100 4.74973500 1.46043600
-9.78252900 5.54488600 2.87240600
-10.02693000 6.34054900 1.44165000
-10.64177400 6.76448400 3.12470100
-11.92931700 7.18914700 1.71517100
-11.92738900 8.27670500 3.50219000
-12.67635500 9.36352000 1.82257600
-12.49988900 9.49282800 3.67028900
-13.11156000 9.62178800 1.88514900
-12.79116100 10.57147500 3.75581300
-13.27966500 11.52137000 1.90931600
-13.72524000 11.73472300 4.03008200
-15.03703600 11.94656400 2.16198700
-14.66936200 12.29519700 4.30730100
-15.22371200 12.64374500 2.18882600
-9.59031800 0.00069800 4.37975500
-8.94828000 0.27668100 5.75071200
-9.75890100 0.55317400 4.45674300
-8.97007400 0.75898800 5.76471700
-9.63771200 0.96498600 4.40139800
-8.72411200 1.31607200 5.60664600
-9.22758400 1.66756600 4.21409700
-8.41899500 2.03766400 5.41055800
-8.97856900 2.40808500 4.10037400
-8.29757100 2.89011400 5.33252200
-8.96510300 3.37182100 4.09422400
-8.39408700 3.61543700 5.39454800
-9.18660700 3.85841300 4.19538100
-8.45947000 4.08652000 5.43656700
-9.10658100 4.31455800 4.15883300
-8.52796500 4.53143900 5.48058600
-9.33466500 4.74973800 4.26299500
-8.57701700 5.54489000 5.51210800
-9.21460800 6.34055300 4.20816500
-9.33037600 6.76448800 5.99626100
-10.96287500 7.18915100 5.00657000
-10.45756300 8.27671000 6.72065700
-11.64939300 9.36352400 5.32008900
-10.95951300 9.49283200 7.04324000
-12.04934000 9.62179200 5.50273800
-11.21489200 10.57148100 7.20735900
-12.20382700 11.52137600 5.57328700
-12.03386200 11.73472800 7.73367800
-13.81882600 11.94656900 6.31083200
-12.86164100 12.29520100 8.26565700
-13.99037900 12.64375000 6.38917600
-7.96792400 0.00070200 6.90424700
-6.96564900 0.27668400 8.03878900
-8.10798800 0.55317700 7.02561300
-6.98261500 0.75899100 8.05836800
-8.00730100 0.96498900 6.93836600
-6.79115000 1.31607500 7.83740500
-7.66655400 1.66756900 6.64310700
-6.55363600 2.03766600 7.56329700
-7.45966500 2.40808900 6.46383400
-6.45911600 2.89011700 7.45421300
-7.44847900 3.37182400 6.45413900
-6.53424700 3.61543900 7.54092000
-7.63251000 3.85841600 6.61360300
-6.58514300 4.08652200 7.59965600
-7.56602200 4.31456100 6.55599100
-6.63846200 4.53144200 7.66118900
-7.75552100 4.74974100 6.72019100
-6.67664600 5.54489200 7.70525400
-7.65577400 6.34055600 6.63375900
-7.26308700 6.76449100 8.38204100
-9.10828600 7.18915500 7.89236700
-8.14052700 8.27671400 9.39465900
-9.67866700 9.36352900 8.38660000
-8.53126300 9.49283600 9.84559000
-10.01095500 9.62179700 8.67452900
-8.73005900 10.57148300 10.07501000
-10.13930600 11.52137900 8.78574200
-9.36757400 11.73473100 10.81074100
-11.48109600 11.94657300 9.94841100
-10.01194500 12.29520500 11.55438300
-11.62362800 12.64375500 10.07191300
-5.70001700 0.00070400 8.86940000
-4.41870400 0.27668600 9.67561200
-5.80021500 0.55318000 9.02531100
-4.42946500 0.75899300 9.69917700
-5.72818600 0.96499200 8.91323100
-4.30800800 1.31607700 9.43322200
-5.48442600 1.66757100 8.53393200
-4.15734000 2.03766800 9.10330300
-5.33642300 2.40809100 8.30363300
-4.09738000 2.89011800 8.97200900
-5.32842100 3.37182700 8.29118000
-4.14504100 3.61544100 9.07636900
-5.46007100 3.85841900 8.49603200
-4.17732600 4.08652400 9.14706400
-5.41250700 4.31456400 8.42202200
-4.21115000 4.53144400 9.22112700
-5.54807000 4.74974400 8.63295900
-4.23537200 5.54489400 9.27416600
-5.47671400 6.34055800 8.52192600
-4.60738400 6.76449300 10.08875700
-6.51579800 7.18915700 10.13877100
-5.16399500 8.27671600 11.30756100
-6.92383100 9.36353200 10.77367900
-5.41186100 9.49283800 11.85030800
-7.16154000 9.62180000 11.14356000
-5.53796800 10.57148600 12.12644200
-7.25336100 11.52138300 11.28643100
-5.94238100 11.73473400 13.01198000
-8.21323700 11.94657700 12.78002800
-6.35114000 12.29520800 13.90704000
-8.31519900 12.64375800 12.93868500
-2.97032600 0.00070600 10.11600700
-1.51377700 0.27668700 10.52857500
-3.02254000 0.55318100 10.29383100
-1.51746400 0.75899400 10.55421800
-2.98500500 0.96499300 10.16600000
-1.47585500 1.31607800 10.26481700
-2.85798000 1.66757300 9.73339000
-1.42423800 2.03766900 9.90581400
-2.78085400 2.40809200 9.47072200
-1.40369700 2.89011900 9.76294400
-2.77668400 3.37182800 9.45651900
-1.42002500 3.61544200 9.87650500
-2.84528800 3.85842000 9.69016400
-1.43108600 4.08652500 9.95343400
-2.82050200 4.31456500 9.60575100
-1.44267300 4.53144500 10.03402500
-2.89114500 4.74974500 9.84633600
-1.45097100 5.54489500 10.09173800
-2.85396100 6.34056000 9.71969600
-1.57841700 6.76449500 10.97814200
-3.39543700 7.18915900 11.56379200
-1.76910400 8.27671700 12.30439100
-3.60806700 9.36353400 12.28793800
-1.85401800 9.49284000 12.89498400
-3.73193900 9.62180200 12.70980700
-1.89722100 10.57148700 13.19546400
-3.77978700 11.52138400 12.87275700
-2.03576600 11.73473500 14.15906500
-4.27998600 11.94657900 14.57628200
-2.17580100 12.29520900 15.13303000
-4.33311900 12.64376000 14.75723800
0.00000300 0.00070600 10.54307600
1.51378300 0.27668700 10.52857400
0.00000300 0.55318200 10.72840800
1.51746900 0.75899400 10.55421700
0.00000300 0.96499400 10.59517800
1.47586000 1.31607800 10.26481600
0.00000300 1.66757300 10.14430500
1.42424300 2.03766900 9.90581400
0.00000300 2.40809300 9.87055000
1.40370100 2.89011900 9.76294400
0.00000200 3.37182800 9.85574600
1.42002900 3.61544200 9.87650500
0.00000200 3.85842100 10.09925400
1.43109000 4.08652500 9.95343300
0.00000200 4.31456600 10.01127600
1.44267700 4.53144500 10.03402500
0.00000200 4.74974600 10.26201900
1.45097500 5.54489500 10.09173800
0.00000200 6.34056000 10.13003400
1.57842100 6.76449500 10.97814100
0.00000200 7.18916000 12.05198100
1.76910700 8.27671700 12.30439100
0.00000200 9.36353400 12.80670000
1.85402200 9.49284000 12.89498400
0.00000200 9.62180200 13.24637900
1.89722400 10.57148700 13.19546300
0.00000200 11.52138500 13.41621100
2.03576900 11.73473500 14.15906500
0.00000200 11.94658000 15.19165200
2.17580500 12.29520900 15.13303000
0.00000300 12.64376200 15.38024800
2.97032900 0.00070600 10.11600600
4.41870400 0.27668600 9.67561100
3.02254300 0.55318100 10.29383100
4.42946600 0.75899300 9.69917600
2.98500800 0.96499300 10.16599800
4.30800900 1.31607700 9.43322100
2.85798200 1.66757300 9.73338900
4.15734000 2.03766800 9.10330300
2.78085700 2.40809200 9.47072200
4.09738000 2.89011800 8.97200800
2.77668600 3.37182800 9.45651800
4.14504100 3.61544100 9.07636900
2.84529100 3.85842000 9.69016300
4.17732700 4.08652400 9.14706400
2.82050500 4.31456500 9.60575000
4.21115000 4.53144400 9.22112700
2.89114700 4.74974500 9.84633500
4.23537100 5.54489400 9.27416500
2.85396300 6.34056000 9.71969600
4.60738400 6.76449300 10.08875600
3.39543800 7.18915900 11.56379100
5.16399400 8.27671600 11.30756100
3.60806800 9.36353400 12.28793800
5.41185900 9.49283800 11.85030900
3.73194000 9.62180200 12.70980700
5.53796600 10.57148600 12.12644300
3.77978700 11.52138400 12.87275700
5.94237800 11.73473400 13.01198000
4.27998700 11.94657900 14.57628200
6.35113900 12.29520800 13.90704000
4.33312100 12.64376000 14.75723800
5.70001700 0.00070400 8.86939800
6.96564900 0.27668400 8.03878800
5.80021500 0.55318000 9.02530900
6.98261600 0.75899100 8.05836700
5.72818600 0.96499200 8.91323100
6.79115000 1.31607500 7.83740300
5.48442500 1.66757100 8.53393200
6.55363500 2.03766600 7.56329700
5.33642200 2.40809100 8.30363300
6.45911500 2.89011700 7.45421300
5.32842000 3.37182700 8.29117900
6.53424700 3.61543900 7.54091900
5.46007000 3.85841900 8.49603200
6.58514200 4.08652200 7.59965500
5.41250600 4.31456400 8.42202100
6.63846100 4.53144200 7.66118900
5.54806900 4.74974400 8.63295900
6.67664500 5.54489200 7.70525300
5.47671200 6.34055800 8.52192600
7.26308600 6.76449100 8.38204100
6.51579700 7.18915700 10.13877100
8.14052700 8.27671400 9.39466000
6.92382900 9.36353200 10.77367900
8.53126100 9.49283600 9.84559000
7.16153800 9.62180000 11.14356100
8.73005700 10.57148300 10.07501100
7.25335700 11.52138300 11.28643300
9.36757200 11.73473100 10.81074200
8.21323400 11.94657700 12.78003000
10.01194200 12.29520500 11.55438400
8.31519600 12.64375800 12.93868700
7.96792400 0.00070200 6.90424500
8.94828200 0.27668100 5.75070700
8.10798900 0.55317700 7.02561000
8.97007600 0.75898800 5.76471300
8.00730100 0.96498900 6.93836400
8.72411300 1.31607200 5.60664200
7.66655400 1.66756900 6.64310400
8.41899600 2.03766400 5.41055400
7.45966500 2.40808900 6.46383200
8.29757200 2.89011400 5.33252000
7.44847900 3.37182400 6.45413800
8.39408900 3.61543700 5.39454600
7.63251000 3.85841600 6.61360100
8.45947000 4.08652000 5.43656400
7.56602200 4.31456100 6.55598900
8.52796600 4.53143900 5.48058300
7.75552100 4.74974100 6.72019000
8.57701600 5.54488900 5.51210500
7.65577400 6.34055600 6.63375700
9.33037600 6.76448800 5.99625800
9.10828600 7.18915500 7.89236500
10.45756400 8.27671000 6.72065500
9.67866600 9.36352900 8.38660000
10.95951400 9.49283100 7.04323700
10.01095400 9.62179700 8.67452800
11.21489200 10.57148100 7.20735700
10.13930400 11.52137900 8.78574200
12.03386300 11.73472800 7.73367700
11.48109500 11.94657300 9.94841000
12.86164100 12.29520100 8.26565600
11.62362600 12.64375500 10.07191300
9.59031900 0.00069800 4.37974900
10.20597400 0.27667700 2.99674200
9.75890300 0.55317400 4.45673700
10.23083000 0.75898500 3.00404000
9.63771400 0.96498600 4.40139200
9.95029800 1.31606900 2.92166800
9.22758400 1.66756600 4.21409200
9.60229700 2.03766000 2.81948500
8.97856900 2.40808500 4.10037000
9.46380700 2.89011100 2.77881900
8.96510500 3.37182100 4.09422000
9.57388800 3.61543300 2.81114100
9.18660900 3.85841300 4.19537600
9.64846000 4.08651700 2.83303700
9.10658100 4.31455800 4.15882900
9.72658200 4.53143600 2.85597600
9.33466500 4.74973800 4.26299100
9.78252800 5.54488600 2.87240200
9.21460800 6.34055300 4.20816200
10.64177300 6.76448400 3.12469700
10.96287500 7.18915100 5.00656600
11.92738800 8.27670500 3.50218600
11.64939300 9.36352400 5.32008600
12.49988800 9.49282800 3.67028500
12.04934000 9.62179200 5.50273500
12.79116100 10.57147500 3.75580900
12.20382600 11.52137600 5.57328400
13.72523800 11.73472300 4.03007800
13.81882600 11.94656900 6.31082800
14.66936200 12.29519700 4.30729700
13.99037800 12.64375000 6.38917300
10.43576000 0.00069500 1.50043500
10.61920500 0.55317000 1.52681000
10.48733400 0.96498200 1.50784900
10.04105000 1.66756200 1.44368300
9.77008200 2.40808200 1.40472200
9.75543100 3.37181800 1.40261500
9.99646100 3.85841000 1.43726900
9.90938000 4.31455500 1.42474800
10.15757100 4.74973500 1.46043200
10.02692900 6.34054900 1.44164700
11.92931500 7.18914700 1.71516800
12.67635500 9.36352000 1.82257400
13.11155900 9.62178800 1.88514600
13.27966300 11.52137000 1.90931400
15.03703600 11.94656400 2.16198500
15.22371200 12.64374500 2.18882400
14.75479700 12.82394000 -0.00001400
14.15712400 12.82393500 -4.15692100
13.98280000 13.00315000 -2.01043700
13.73967000 12.95867000 -0.00001400
13.18311600 12.95866600 -3.87092600
13.25214800 12.87798300 -1.90538500
12.73519500 12.53137200 -1.83105800
11.12910900 9.53409400 -0.00001000
10.67830200 9.53409100 -3.13544300
9.28816800 6.53648900 -1.33544400
5.46812100 6.13257900 -0.00000600
5.24662300 6.13257700 -1.54055400
12.41252600 12.82393000 -7.97706100
12.84999700 13.00314600 -5.86841100
11.55854600 12.95866100 -7.42824000
12.17853900 12.87797800 -5.56176600
11.70346600 12.53136700 -5.34480700
9.36240200 9.53408700 -6.01686100
8.53569500 6.53648700 -3.89812900
4.60007600 6.13257500 -2.95629500
9.66233700 12.82392600 -11.15094700
10.67616300 13.00314200 -9.25096200
8.99757000 12.95865700 -10.38376400
10.11829500 12.87797400 -8.76756700
9.72359000 12.53136400 -8.42555300
7.28801700 9.53408500 -8.41083100
7.09171200 6.53648300 -6.14501100
3.58085700 6.13257400 -4.13253600
6.12936400 12.82392300 -13.42145000
7.63741000 13.00313700 -11.88405500
5.70766400 12.95865400 -12.49805700
7.23832800 12.87797100 -11.26307200
6.95596800 12.53136000 -10.82371200
4.62319800 9.53408300 -10.12340500
5.07319900 6.53648100 -7.89406100
2.27153900 6.13257300 -4.97398400
2.09982600 12.82392100 -14.60462900
3.97991900 13.00313600 -13.55437600
1.95535800 12.95865400 -13.59983400
3.77195400 12.87797000 -12.84611300
3.62481400 12.53135900 -12.34499900
1.58383700 9.53408200 -11.01584200
2.64368700 6.53647900 -9.00358200
0.77819400 6.13257200 -5.41247000
-2.09982800 12.82392100 -14.60462900
-0.00000100 13.00313600 -14.12660300
-1.95536000 12.95865400 -13.59983400
-0.00000100 12.87797000 -13.38843600
-0.00000100 12.53135800 -12.86616900
-1.58383900 9.53408200 -11.01584200
-0.00000100 6.53647900 -9.38368700
-0.77819500 6.13257200 -5.41246900
-6.12936600 12.82392300 -13.42145000
-3.97992000 13.00313600 -13.55437600
-5.70766600 12.95865400 -12.49805700
-3.77195500 12.87797000 -12.84611300
-3.62481500 12.53135900 -12.34499900
-4.62320000 9.53408300 -10.12340500
-2.64369000 6.53647900 -9.00358200
-2.27154000 6.13257300 -4.97398400
-9.66234000 12.82392600 -11.15094600
-7.63741100 13.00313700 -11.88405500
-8.99757200 12.95865700 -10.38376400
-7.23832900 12.87797100 -11.26307200
-6.95596900 12.53136000 -10.82371200
-7.28801900 9.53408500 -8.41082900
-5.07320200 6.53648100 -7.89406000
-3.58085800 6.13257400 -4.13253600
-12.41252700 12.82393000 -7.97706100
-10.67616400 13.00314200 -9.25096300
-11.55854700 12.95866100 -7.42824200
-10.11829700 12.87797400 -8.76756700
-9.72359200 12.53136400 -8.42555300
-9.36240500 9.53408700 -6.01686100
-7.09171400 6.53648300 -6.14501000
-4.60007600 6.13257500 -2.95629500
-14.15712600 12.82393500 -4.15692100
-12.84999700 13.00314600 -5.86841100
-13.18311800 12.95866600 -3.87092600
-12.17853900 12.87797800 -5.56176600
-11.70346800 12.53136700 -5.34480700
-10.67830400 9.53409100 -3.13544200
-8.53569900 6.53648700 -3.89812800
-5.24662400 6.13257700 -1.54055300
-14.75479700 12.82394000 -0.00001400
-13.98280000 13.00315000 -2.01043700
-13.73967000 12.95867000 -0.00001400
-13.25215000 12.87798300 -1.90538500
-12.73519600 12.53137200 -1.83105800
-11.12911100 9.53409400 -0.00001000
-9.28817100 6.53648900 -1.33544300
-5.46812100 6.13257900 -0.00000600
-14.15712600 12.82394500 4.15689400
-13.98280000 13.00315500 2.01040900
-13.18311800 12.95867400 3.87089900
-13.25215000 12.87798900 1.90535800
-12.73519600 12.53137600 1.83103200
-10.67830400 9.53409900 3.13542400
-9.28816900 6.53649200 1.33543200
-5.24662300 6.13258100 1.54054200
-12.41252800 12.82394900 7.97702900
-12.84999800 13.00315900 5.86838200
-11.55854800 12.95867800 7.42821000
-12.17854000 12.87799300 5.56173700
-11.70346800 12.53138000 5.34477900
-9.36240500 9.53410300 6.01683900
-8.53569600 6.53649500 3.89811600
-4.60007600 6.13258200 2.95628300
-9.66234000 12.82395300 11.15091800
-10.67616600 13.00316300 9.25093100
-8.99757300 12.95868100 10.38373400
-10.11829800 12.87799600 8.76753700
-9.72359300 12.53138400 8.42552300
-7.28801900 9.53410500 8.41080900
-7.09171400 6.53649800 6.14499700
-3.58085800 6.13258400 4.13252400
-6.12936700 12.82395600 13.42142100
-7.63741300 13.00316800 11.88402600
-5.70766800 12.95868400 12.49802800
-7.23833200 12.87800000 11.26304300
-6.95597100 12.53138700 10.82368200
-4.62320100 9.53410700 10.12338400
-5.07320200 6.53650100 7.89404800
-2.27154000 6.13258600 4.97397100
-2.09982500 12.82395800 14.60460300
-3.97992000 13.00316900 13.55434800
-1.95535800 12.95868500 13.59980700
-3.77195600 12.87800100 12.84608400
-3.62481500 12.53138900 12.34497100
-1.58383600 9.53410800 11.01582200
-2.64368800 6.53650300 9.00356900
-0.77819300 6.13258600 5.41245700
2.09982800 12.82395800 14.60460100
0.00000200 13.00316900 14.12657400
1.95536000 12.95868500 13.59980500
0.00000200 12.87800100 13.38841000
0.00000200 12.53138900 12.86614200
1.58383900 9.53410800 11.01582200
0.00000200 6.53650300 9.38367400
0.77819600 6.13258600 5.41245700
6.12936400 12.82395600 13.42142300
3.97992000 13.00316900 13.55434800
5.70766500 12.95868400 12.49802900
3.77195500 12.87800100 12.84608400
3.62481500 12.53138900 12.34497100
4.62319900 9.53410700 10.12338400
2.64368900 6.53650300 9.00356900
2.27154000 6.13258600 4.97397100
9.66233700 12.82395300 11.15091900
7.63741000 13.00316800 11.88402800
8.99757000 12.95868100 10.38373500
7.23832700 12.87800000 11.26304400
6.95596700 12.53138700 10.82368300
7.28801600 9.53410500 8.41080900
5.07320000 6.53650100 7.89404800
3.58085800 6.13258400 4.13252400
12.41252700 12.82394900 7.97702900
10.67616400 13.00316300 9.25093100
11.55854700 12.95867800 7.42820900
10.11829600 12.87799600 8.76753700
9.72359200 12.53138400 8.42552300
9.36240400 9.53410300 6.01683800
7.09171300 6.53649800 6.14499600
4.60007700 6.13258200 2.95628200
14.15712600 12.82394400 4.15689000
12.84999800 13.00315900 5.86837900
13.18311800 12.95867400 3.87089500
12.17853900 12.87799300 5.56173400
11.70346700 12.53138000 5.34477600
10.67830200 9.53409900 3.13542000
8.53569700 6.53649500 3.89811300
5.24662400 6.13258100 1.54054000
13.98280000 13.00315500 2.01040800
13.25214800 12.87798900 1.90535600
12.73519500 12.53137600 1.83103000
9.28816800 6.53649200 1.33542900
12.58048400 12.72601500 -3.69397700
13.11159700 12.72602100 -0.00001400
11.03017600 12.72601200 -7.08867900
8.58627000 12.72600800 -9.90909800
5.44675300 12.72600600 -11.92674200
1.86597400 12.72600500 -12.97815500
-1.86597600 12.72600500 -12.97815300
-5.44675400 12.72600600 -11.92674200
-8.58627200 12.72600800 -9.90909800
-11.03017800 12.72601200 -7.08867900
-12.58048600 12.72601500 -3.69397700
-13.11159700 12.72602100 -0.00001400
-12.58048600 12.72602500 3.69395100
-11.03017900 12.72602800 7.08864800
-8.58627200 12.72603200 9.90906800
-5.44675700 12.72603400 11.92671300
-1.86597400 12.72603500 12.97812700
1.86597600 12.72603500 12.97812600
5.44675300 12.72603400 11.92671400
8.58626900 12.72603200 9.90907000
11.03017800 12.72602800 7.08864700
12.58048600 12.72602500 3.69394700
4.90701600 1.16611200 -1.44083100
5.11417700 1.16611400 -0.00000000
8.09295400 1.02034800 -1.16359200
4.30231900 1.16611100 -2.76493400
7.43731100 1.02034600 -3.39650800
3.34907300 1.16610900 -3.86503800
6.17914100 1.02034300 -5.35425700
2.12450400 1.16610800 -4.65202000
4.42037300 1.02034100 -6.87823900
0.72782100 1.16610800 -5.06212200
2.30349300 1.02034000 -7.84498400
-0.72782600 1.16610800 -5.06212300
-0.00000300 1.02033900 -8.17617600
-2.12450900 1.16610800 -4.65201900
-2.30349800 1.02034000 -7.84498400
-3.34907700 1.16610900 -3.86503600
-4.42037900 1.02034100 -6.87823700
-4.30232200 1.16611000 -2.76493200
-6.17914600 1.02034300 -5.35425600
-4.90702000 1.16611200 -1.44082900
-7.43731500 1.02034600 -3.39650400
-5.11417900 1.16611400 0.00000100
-8.09295700 1.02034800 -1.16358900
-4.90701900 1.16611600 1.44083200
-8.09295700 1.02035100 1.16359400
-4.30232100 1.16611700 2.76493400
-7.43731300 1.02035400 3.39650900
-3.34907500 1.16611900 3.86503900
-6.17914400 1.02035700 5.35425800
-2.12450800 1.16612000 4.65202100
-4.42037700 1.02035800 6.87824000
-0.72782300 1.16612000 5.06212400
-2.30349500 1.02036000 7.84498600
0.72782400 1.16612000 5.06212300
0.00000200 1.02036000 8.17617800
2.12450600 1.16612000 4.65202000
2.30349600 1.02036000 7.84498500
3.34907300 1.16611900 3.86503800
4.42037500 1.02035800 6.87823800
4.30232000 1.16611700 2.76493100
6.17914200 1.02035700 5.35425500
4.90701700 1.16611600 1.44082900
7.43731200 1.02035400 3.39650400
8.09295400 1.02035100 1.16359000
9.76309400 -0.00000200 -2.86670300
9.67024600 0.14576300 -1.39037100
10.17526400 0.00000100 0.00000000
8.55997600 -0.00000600 -5.50116300
8.88681900 0.14576000 -4.05847500
6.66338000 -0.00000900 -7.68995200
7.38343700 0.14575700 -6.39778500
4.22695600 -0.00001000 -9.25574600
5.28189000 0.14575500 -8.21878400
1.44808900 -0.00001200 -10.07169400
2.75243700 0.14575300 -9.37394600
-1.44809400 -0.00001200 -10.07169400
-0.00000200 0.14575300 -9.76968600
-4.22696100 -0.00001000 -9.25574500
-2.75244200 0.14575300 -9.37394500
-6.66338500 -0.00000900 -7.68995000
-5.28189500 0.14575500 -8.21878200
-8.55998000 -0.00000600 -5.50116100
-7.38344000 0.14575700 -6.39778200
-9.76309700 -0.00000200 -2.86670000
-8.88682300 0.14576000 -4.05847200
-10.17526700 0.00000100 0.00000400
-9.67024900 0.14576300 -1.39036800
-9.76309500 0.00000500 2.86670800
-9.67024700 0.14576700 1.39037600
-8.55997800 0.00000800 5.50116600
-8.88682100 0.14577000 4.05847800
-6.66338300 0.00001100 7.68995500
-7.38343800 0.14577300 6.39778700
-4.22695900 0.00001300 9.25575000
-5.28189400 0.14577600 8.21878700
-1.44808800 0.00001400 10.07169900
-2.75243800 0.14577700 9.37395000
1.44809300 0.00001400 10.07169700
0.00000300 0.14577800 9.76969100
4.22695900 0.00001300 9.25574800
2.75244100 0.14577700 9.37394900
6.66338200 0.00001100 7.68995400
5.28189200 0.14577600 8.21878500
8.55997900 0.00000800 5.50116100
7.38343800 0.14577300 6.39778400
9.76309500 0.00000500 2.86670200
8.88682200 0.14577000 4.05847200
9.67024600 0.14576700 1.39037100
8.91666700 0.58305400 -2.61817000
9.29310300 0.58305800 -0.00000000
7.81785500 0.58305100 -5.02423200
6.08568800 0.58304900 -7.02325900
3.86049300 0.58304700 -8.45330400
1.32254400 0.58304600 -9.19851200
-1.32254900 0.58304600 -9.19851200
-3.86049800 0.58304700 -8.45330200
-6.08569300 0.58304900 -7.02325700
-7.81785900 0.58305100 -5.02422900
-8.91667100 0.58305400 -2.61816700
-9.29310500 0.58305800 0.00000300
-8.91666900 0.58306100 2.61817400
-7.81785700 0.58306400 5.02423300
-6.08569000 0.58306600 7.02326200
-3.86049600 0.58306800 8.45330700
-1.32254400 0.58306900 9.19851600
1.32254800 0.58306900 9.19851500
3.86049500 0.58306800 8.45330500
6.08568900 0.58306600 7.02325900
7.81785700 0.58306400 5.02422800
8.91666800 0.58306100 2.61816800
12.84677000 12.87797900 -3.77216600
13.38912500 12.87798600 -0.00001400
0.00000100 5.64873100 -0.00000500
11.26364700 12.87797500 -7.23872100
9.37443700 0.14576900 2.75258100
8.76801100 12.87797200 -10.11883900
5.56204300 12.87796900 -12.17918900
1.90547000 12.87796800 -13.25285700
-1.90547200 12.87796800 -13.25285600
-5.56204400 12.87796900 -12.17918900
-8.76801300 12.87797200 -10.11883800
-11.26364900 12.87797500 -7.23872100
-12.84677300 12.87798100 -3.77216500
-13.38912500 12.87798500 -0.00001400
-12.84677100 12.87798900 3.77213900
-11.26365000 12.87799200 7.23869000
-8.76801400 12.87799600 10.11880900
-5.56204600 12.87799900 12.17915900
-1.90547000 12.87799900 13.25283000
1.90547200 12.87799900 13.25282800
5.56204300 12.87799900 12.17916000
8.76801100 12.87799600 10.11881000
11.26364900 12.87799200 7.23868900
12.84677100 12.87798900 3.77213500
-0.00000200 1.16611600 0.00000000
7.66809100 1.02034700 -2.25155600
7.99181600 1.02035000 -0.00000100
6.72314300 1.02034400 -4.32070300
5.23352600 1.02034200 -6.03981300
3.31991800 1.02034100 -7.26961300
1.13735200 1.02034000 -7.91047200
-1.13735700 1.02034000 -7.91047200
-3.31992400 1.02034100 -7.26961200
-5.23353100 1.02034200 -6.03981100
-6.72314700 1.02034400 -4.32070200
-7.66809500 1.02034700 -2.25155200
-7.99181800 1.02035000 0.00000200
-7.66809300 1.02035300 2.25155800
-6.72314600 1.02035500 4.32070300
-5.23352900 1.02035700 6.03981400
-3.31992200 1.02035900 7.26961400
-1.13735200 1.02036000 7.91047200
1.13735500 1.02036000 7.91047100
3.31992100 1.02035900 7.26961200
5.23352700 1.02035700 6.03981200
6.72314500 1.02035500 4.32069900
7.66809200 1.02035200 2.25155200
9.37443600 0.14576200 -2.75258300
9.77019900 0.14576500 0.00000000
8.21921400 0.14575900 -5.28216800
6.39811900 0.14575600 -7.38382300
4.05868500 0.14575400 -8.88728600
1.39044200 0.14575300 -9.67075100
-1.39044700 0.14575300 -9.67075100
-4.05869100 0.14575400 -8.88728300
