-5.35990524 13.29299164 56.27995300
-10.80260849 7.33306456 -58.92445374
30.36865807 -27.42019844 24.73033142
-59.94779205 0.49785197 -18.36759949
10.39614487 -18.41711807 -34.79292297
15.47751617 19.65823364 -58.43846130
-2.33155823 -29.59791565 12.13444519
53.05136108 34.25154114 -12.90223694
-36.41567993 30.38414001 -46.71351624
-56.73590088 -2.15580034 -26.08497620
-49.95490265 23.40163422 48.11326599
-28.54387856 -18.12517357 26.28916931
31.16091537 29.94586945 -50.45277405
38.95690918 -6.04446840 56.75010681
-60.18669891 39.02207184 -14.60789490
41.12030792 -38.52939987 -31.89759827
-7.41660690 -14.66872406 49.06321716
34.12395096 -19.04249573 -3.72080994
-27.63389397 -19.90456581 14.11399841
4.06211662 21.55812073 -51.74913025
36.70698547 37.53817749 -50.23524475
19.01677704 -12.09186745 -53.65245056
50.38500595 22.15970612 -50.32786560
-10.04022980 -26.53460693 38.36582947
-49.10727692 7.33138609 35.93724060
-52.16552734 34.67599487 15.11143494
10.99278927 28.98709488 51.60242081
62.44608307 34.42847443 5.75596619
-56.85050964 7.73722410 -37.65666199
-47.33300781 -23.25879097 -17.36442566
57.24560547 -19.93347168 12.78117371
-49.79578400 -26.87920952 -6.39909363
-46.81918335 -4.40871096 -51.03074646
5.26932621 -38.38184357 -51.55754089
5.81543159 -37.73188782 52.47978210
-0.38446808 -29.50538063 -1.08103943
-36.79842377 31.21246338 47.68028259
-12.46820641 9.74515915 58.01432800
49.22683716 21.49879837 -54.87492371
32.29485321 5.68765974 -51.79042053
-47.84323120 21.97008514 55.55662537
55.79663086 -7.90313005 -21.82911682
17.74846458 -20.67665100 17.43727112
-31.33254433 -38.58687592 31.83567810
-37.84388733 22.25379181 55.48545837
-22.56525230 36.36173248 -49.55384827
52.08448029 -34.72443008 5.01478577
45.59210205 -0.95305669 52.70567322
40.14084244 1.57548487 -48.26023865
54.25328827 32.84769440 4.09870911
26.90184212 -35.64533997 46.71867371
66.09262848 1.19624674 22.81449890
18.66559601 17.40879822 60.08067322
39.43569183 -29.10987854 6.54505920
-27.15159416 -14.84904289 42.55888367
-25.72456551 2.65384626 64.59648132
-48.68037415 0.69153941 50.07560730
25.06929398 -16.81601334 35.46568298
-49.50224304 -19.65084267 -30.91975403
33.17586517 13.04612350 -44.15757751
-1.34115410 -30.72458649 41.92900085
62.13204956 4.93017149 -1.81864929
-51.41327667 17.55775070 47.45780945
37.39807892 -27.25829506 2.06166077
-3.74203300 -15.79965401 45.11540222
26.24888229 -23.52275467 43.30723572
-13.29840279 -39.21636581 -42.93058777
-2.31655312 -29.31201553 -3.89802551
37.64516068 -17.14750290 49.17124939
26.40176010 -27.19285393 -24.12544250
33.36758423 -27.78328133 -20.83464050
35.50864792 -14.34157753 -54.47325134
-63.22930145 35.79685211 -3.05906677
36.17601013 25.35182953 -52.49662781
63.09526443 -0.88503301 -3.68278503
3.77746201 20.62879562 52.80955505
-32.28491211 15.25347900 44.61479187
58.32541656 36.08114624 -24.42988586
54.32241058 0.82328761 31.75730896
-49.55296326 32.22951508 -19.17942810
27.07496643 2.10988569 -56.43522644
54.81867981 38.65937042 31.65184021
-10.69230080 38.97475433 -60.18128967
31.68532944 -13.63437843 -44.29042053
34.38020325 7.67181730 59.43632507
59.36425781 38.79236603 11.79399109
-42.44570923 -12.77547836 35.39201355
-24.49000740 -15.55525398 58.37944031
28.46662521 -34.15653992 -30.03541565
-14.84122276 -25.06669617 -46.92961121
-14.26572990 -28.21007156 21.22209167
-35.85456848 4.46308851 -50.12995911
22.82925224 -23.78992653 -43.90269470
12.61356258 25.67735291 50.85050964
47.91656876 38.55404663 -33.58399963
48.45449066 22.51802826 -53.63414001
22.34448242 -39.16619110 -36.54158020
-9.35484314 -28.35780907 -22.59312439
-26.38064003 -14.07375526 46.01725769
50.28897095 17.60165787 -39.02290344
-46.46735382 39.33365631 -39.48115540
-25.59533882 -26.99849892 -21.86869812
-46.40943909 12.54840469 -31.67744446
6.87637806 -11.44355011 56.39628601
-18.30442619 -26.53817749 -32.93354797
-68.00547791 4.29166365 -13.57038879
-21.12369347 -26.64881134 -32.44316101
34.75688934 -12.57668877 -43.83619690
-36.69342422 -7.40031862 -58.01658630
18.43184471 -9.66065216 64.88475037
67.12682343 2.78392768 -18.37712097
14.25483227 -21.65808296 -9.14082336
-37.38716888 -26.53869820 35.14616394
15.57593346 -18.78476524 -30.82908630
-52.89482880 14.76701355 -15.08009338
61.90286255 6.59199476 30.56132507
51.48062897 10.82678223 -45.78373718
65.88459778 6.21999311 -19.66633606
-5.49774933 -16.99933815 61.40916443
36.87154388 -27.24607849 5.02107239
41.64290619 20.49028397 -55.21394348
55.39640045 -8.20044327 40.06352234
27.21373177 -39.31211090 -35.02476501
-35.53009415 24.38607025 52.69541931
16.23169708 16.38254166 52.06974792
-10.96441841 9.23379517 -66.29020691
-26.90277672 -13.22447395 47.12895203
45.00198746 21.23694992 28.02482605
-34.07726288 30.63916016 -39.46034241
-48.19369507 -14.01562500 22.50267029
-39.84246063 -38.14683533 -17.23210144
-30.94239616 -17.46721649 -29.34236145
-53.90521240 35.17008972 -30.96122742
9.35188675 -22.12635040 7.91560364
-52.70829773 -6.30854845 -30.30586243
53.86905670 29.00428009 -25.19050598
-20.55850029 -21.19309807 -10.04240417
5.44746304 -21.47666550 19.04502869
0.75777245 -29.31225204 6.55931091
19.54638672 13.10781479 -61.76136780
7.09510612 8.46647644 -58.66661072
22.81779671 -35.55728149 48.95695496
50.02524567 32.67079163 -19.20338440
50.22496033 -12.91823196 -19.73191833
40.35995483 -2.94961953 -47.51002502
52.59901047 26.92351532 3.38575745
17.91525078 -34.63987350 50.70463562
-48.51300049 22.22554016 37.79490662
-38.26074219 -28.07923317 13.90815735
56.60142517 15.51401520 29.32035828
-36.65056610 -35.59679031 40.56578064
-6.65526485 -4.81559181 60.70642853
39.94019318 -33.90335464 -31.16706848
45.09340286 20.79629517 40.79838562
66.40750122 7.48586988 17.95884705
29.12420654 -6.42345476 -62.40419006
64.78155518 -13.72013474 11.20994568
47.61035919 -15.37861061 42.76255798
62.77230835 38.45872498 4.58036804
13.23156452 -19.37731934 29.68754578
9.53170872 -31.96298218 51.22392273
22.40423012 -13.44059181 61.19444275
7.72641277 -26.43849754 -37.67768860
-10.77210236 26.19939423 58.41545105
-36.60687256 22.30426025 55.00334167
53.87322998 38.62501526 -24.69837952
5.10406590 -22.06378174 8.73173523
50.00537872 -23.05772781 11.82341003
-37.66412354 22.11969757 -35.83149719
43.77017593 25.45066071 -53.62913513
-40.74913406 24.10036469 -31.82539368
46.62788391 -38.70434189 -23.56489563
39.04687500 -31.47438431 -10.52854919
6.26397228 -16.84506798 61.48405457
-22.31768990 -21.14519501 48.47434998
52.13241196 28.98055267 10.21961975
-65.60476685 -7.68277407 -19.91899109
-43.02280426 2.55361128 55.43742371
27.46929932 -7.06724596 62.62712097
-50.75484467 -14.98923683 -2.75874329
-50.27327728 15.78781509 -20.77336121
-26.33285713 -26.95490265 -23.13343811
48.49327850 30.74598694 -34.74983215
7.94147301 -16.02422142 43.75163269
4.19621086 23.65511322 52.18931580
59.67745972 -8.23409271 3.55274963
0.77310371 37.03084564 55.48954773
-47.95516968 -3.38691759 -39.19267273
21.26454926 -27.60717964 -25.23094177
-48.67462158 -33.29097366 19.06370544
26.19345856 -20.22262192 11.87617493
-56.69318390 36.38194275 -27.89167786
-27.27534676 -24.86546898 -41.04136658
-29.28568077 -2.17600298 -63.00111389
-56.16419220 -7.70074511 39.46226501
54.05862427 -3.11434984 -43.69285583
-7.59888458 39.03829193 -58.06462097
48.73236084 3.66918516 -49.73017883
29.74891663 -15.51378536 37.92041016
59.24304962 -13.75755882 28.30851746
54.68432617 -11.61239815 -17.54145813
-38.03607178 -18.55604744 -4.64424133
23.51363373 -30.27192879 -32.62675476
-65.62651825 -1.52719152 -23.45237732
-36.67828751 -30.17415619 -17.85557556
-41.33928299 39.05023193 47.25737000
-51.36073303 -10.46390343 26.65605164
10.49968052 -9.37283325 -67.13868713
-44.23692322 -38.64806366 -20.50489807
3.30126762 -22.20133591 -5.99760437
51.07217407 38.84973907 30.25151062
-29.18364525 -37.76836777 45.14347839
-37.24160767 -12.77954102 40.67643738
-5.32303619 -21.95125389 11.79438782
-38.01347733 -26.33993340 4.63496399
63.32394791 1.17865789 0.03038145
20.27901649 39.39834595 58.54502869
-50.88868713 24.05506134 -30.68669128
29.69640923 -17.15394974 -54.68098450
-26.36157799 -35.89165115 -45.64436340
-9.97379112 -22.01435471 2.86390686
-41.27415466 10.80796051 -39.79560852
10.36438274 -23.95020676 49.50737000
-60.64119720 18.11956787 -12.96809387
-51.78534698 26.44733429 28.93296814
-69.88261414 0.60842097 -0.10472107
49.48513794 -28.47837639 8.00111389
20.06940269 -17.19398499 58.13108826
35.50713348 16.09400177 -54.14308167
14.17514133 28.11122131 57.94078064
-51.43003082 -21.58541298 -16.29234314
-19.79658699 21.99069214 -47.87803650
-7.22517586 -20.46579552 -24.68925476
5.65499020 -36.25832748 -52.20652771
-27.11730385 -17.01215172 -34.90644836
-40.48970795 27.44809723 -32.06001282
48.58377838 -24.62838173 10.84693909
33.94667053 -30.02296829 37.75590515
33.55959320 -19.57125092 -47.97779846
-3.16322327 -16.60909271 42.27989197
45.72683716 -7.95152330 -38.48262024
-21.79236412 -18.73013306 28.36381531
-25.39495277 -26.37010765 30.07597351
49.86579132 24.92710114 -31.69075012
-50.05466461 19.61261749 18.18742371
-59.08245087 6.97703886 -34.62174988
46.67943573 24.36297607 37.70005798
-14.02626991 -19.36400604 -30.42677307
61.89526367 4.77527189 2.10350037
69.23424530 4.27076292 6.68544006
-32.37765503 28.93029022 50.50694275
25.44942474 37.13395691 -48.74952698
-41.63176346 10.73313141 56.74845886
60.16571808 -6.58173800 -7.24058533
-21.17433357 13.43761063 52.22837830
-34.19937134 -26.39081764 15.53547668
56.12416840 -12.45821571 -7.84718323
29.66353607 -2.93862200 -54.93037415
-43.33464432 -23.43232918 -25.24726868
1.22135162 -38.41680145 44.73448181
3.78412056 -20.20570374 28.17680359
46.71765900 38.26389313 -39.94447327
36.55330276 -39.39834976 -25.76542664
-34.86450958 23.43264771 53.73387146
-49.76693726 24.11370850 50.36686707
-39.87359619 0.05829203 -48.15022278
-26.35629463 31.24615479 -53.22557068
27.95460892 -20.27794075 1.71418762
-60.89068604 -5.69236803 -7.48625183
41.82494354 -6.19085741 -54.80592346
-13.39474678 27.76938629 -49.52995300
11.41149235 24.32863617 -57.96199036
39.56147766 -31.69926262 10.25489807
-20.19266319 -20.56932259 -17.69828796
-21.96072960 28.76820374 47.54997253
27.23329544 38.82614899 -53.95179749
34.61549759 -7.59854937 -59.24671936
34.29479599 20.93432999 -52.47367859
-26.10309410 -30.66036415 45.43510437
23.27852058 -13.21977615 -50.40815735
-23.62945747 -28.94759560 33.73051453
46.88838196 24.85186768 -43.20744324
-56.02587891 39.13217163 -26.36878967
-12.67814827 36.69898987 -60.87532043
49.70936966 23.96778870 -44.55680847
48.29903412 -37.61744308 21.75541687
-43.44479370 21.19839859 57.01548767
14.31705284 -31.03331947 -37.74223328
-45.65737152 27.46999359 -37.36009216
-59.14979553 20.10655594 15.40110779
38.98822021 -37.55744934 35.89683533
15.41119385 12.07660675 -63.69514465
3.82272530 -19.54817390 -31.04267883
-24.39750862 -33.33920670 -44.43186951
-38.92082977 13.35446167 56.68803406
-11.68196297 -18.30003738 -36.54820251
58.43255234 38.47447205 24.70420837
-20.51312828 -19.90010452 21.94053650
-53.97554016 -13.46592140 0.81370544
-11.31584167 -14.64819145 48.91227722
10.76360703 -28.98791695 21.55082703
43.31120682 -34.66500473 27.63163757
-64.88221741 7.99622679 22.07701111
42.52335358 -21.97073555 -31.21342468
3.07766342 -24.46857262 -49.21299744
50.09208679 -34.25885773 12.44071960
10.85682201 -21.68791962 51.23832703
-59.12241364 -7.15396166 12.67378235
-49.29586792 36.67365265 39.77030945
14.14354897 -21.01321983 17.88932800
50.71934509 21.99053955 -46.75056458
-67.62267303 -8.02388763 11.48875427
-50.34506989 23.27469635 49.69981384
-15.84171104 -19.32150459 28.82255554
42.07954407 -10.67720985 -39.34962463
38.57093811 -35.70315552 36.59049988
39.42399597 -29.89429855 -7.21250916
33.16955948 27.45208740 -50.37983704
-42.61505127 -17.26481628 6.53407288
-50.03242493 29.34275055 15.87040710
37.20566559 -28.39706039 14.06040955
31.70931816 -32.80948257 26.80760193
-13.92045784 -27.67220879 38.31230164
40.03023911 -24.00374985 -29.06657410
-63.95388031 -0.32605779 28.36253357
-60.90824127 34.98161316 14.08665466
35.85595322 33.21343231 50.01957703
-44.19643402 33.98429108 -30.13163757
35.47019577 38.75952911 52.40934753
-20.60379982 37.15319061 59.75254822
45.11824799 -9.47098160 -50.80424500
-62.47027588 9.71298981 -25.52473450
41.29936218 -10.24638176 40.05216980
9.03331852 16.36343765 -52.70799255
-38.48694611 -26.20297813 -6.70338440
39.77374649 -15.21692848 30.36465836
3.71825218 -18.30429840 36.23716736
-68.21883392 8.02869034 -4.79570007
-50.67704773 28.33535767 12.92491150
-4.63499260 -14.99838829 47.94303894
-47.33267975 3.87682676 52.97544861
33.38463593 -14.56271744 39.99632263
-19.85931969 39.72236633 55.34117126
-12.27079964 -18.86174583 57.22807312
3.61207008 -13.75526047 52.85630798
-48.82124329 20.49225616 43.04130554
-20.31818199 4.15910673 -65.86317444
-13.86755562 -14.21889114 50.12272644
15.41193485 30.72296906 -49.56040955
-31.45806313 -14.50078773 -56.50144958
-46.71458435 -2.95086336 -41.00920105
44.17881775 37.89832306 -35.17576599
-10.72926140 -32.80357361 51.63658142
-42.81958389 25.50387573 53.41056824
39.97793579 -16.74825478 -15.36647034
13.69735336 -8.35572815 57.73313904
8.75893021 -14.59508133 -51.63215637
50.81806183 19.25463104 -55.14149475
38.27136993 -38.59795761 -35.09980774
53.21901703 -18.50922966 -28.72322083
13.44349289 -17.50524521 37.86119080
27.20780754 3.09311247 63.92185974
54.72247314 36.71350098 33.43510437
32.92244720 -17.17262459 26.69139099
-52.01220703 33.44714355 -13.50248718
57.67177582 23.96679688 -14.57167053
10.17382145 39.39430237 57.64176941
49.73697281 13.07023239 -24.35472107
-1.99976158 -14.44223404 64.31388855
35.66152191 -27.64539528 3.30790710
50.92703247 14.60738373 -50.45948792
42.06612396 7.56839323 54.40879822
43.64359283 -35.55765915 29.33244324
1.02164650 -39.08396530 -48.64024353
45.78866577 21.02745438 -55.76884460
-39.86241531 -5.68577242 -45.75468445
62.29586029 -10.55006409 26.09855652
-27.94079018 -39.02309036 -35.05152893
20.34148026 -34.37900925 -46.35758972
-37.32945633 -34.26298141 -35.59288025
-48.36177063 32.89778137 22.93199158
45.13706970 29.09494019 39.83940125
-23.50557899 -27.74059296 -16.41712952
-48.49673462 17.09180450 45.40287781
0.16219711 -25.51942635 -49.16349792
-45.70420074 -16.13241196 -10.74085999
27.91092873 -20.22070122 8.45460510
17.55578613 -14.53530312 -49.78678894
-52.20494843 -38.13201141 2.10508728
50.80395508 -13.10509109 19.16123962
-57.73100281 29.01428986 14.55613708
-38.03553772 38.21121979 -49.40586853
-6.30303001 -35.73210144 -52.04689026
28.07475090 16.93143082 -56.81471252
42.59425735 -37.30580521 1.31874084
52.44272614 -35.38938522 -8.82420349
-48.47846985 38.66057587 -29.75328064
40.02159882 27.93479156 -46.47535706
-45.22454071 0.55245554 -43.15266418
36.79868317 -28.71163559 15.61289978
19.25601768 39.46192932 56.38169861
58.76345062 -4.90001726 -36.71846008
-51.96368408 -36.18770218 14.12135315
-34.07555008 23.50471497 53.29624939
-52.35169983 6.39141417 -31.11497498
51.62197876 -34.64432907 -4.28141785
-41.06761932 -17.36788750 45.72129822
8.84162045 -17.15685272 40.03800964
5.21078396 -32.25054932 -50.00825500
7.43091488 38.57174683 62.71617126
32.28903198 22.62277222 -52.09278870
62.87698364 -0.75245321 30.36607361
24.45727348 3.48422956 64.98423767
-36.80101013 9.07780457 59.47862244
-47.28946686 22.29274750 22.70268250
-34.94433594 -19.19872665 -5.14067078
-30.07544136 -26.36256790 22.79539490
26.19683075 31.39324951 -45.18293762
-19.40028191 9.76579666 64.91221619
33.82139206 -16.44731903 28.72950745
3.35951233 23.26947021 -59.23475647
33.10789871 -23.90726662 -36.53910828
-15.22955894 -21.95736122 0.73881531
58.56661987 32.42782593 -16.69172668
-15.40543556 0.92956889 67.84989929
-36.95713806 19.73564911 -48.29161072
34.05397797 -27.51561737 -6.27754211
29.74333191 3.85670805 -54.40757751
-39.26226807 -9.03453064 43.98698425
-37.46982574 39.77203369 46.80039978
-22.09778404 -17.77076530 -34.69010925
25.67274857 36.51272583 -56.76451111
43.07928467 28.73693848 30.72752380
33.32505417 -27.61900711 -9.35990906
37.34825897 -27.06583405 -5.39729309
-8.20909309 35.28107452 -53.10050964
29.93624687 18.21800613 44.66905212
57.77169800 2.51518965 24.52354431
-49.61244202 21.70840454 52.65916443
5.15762520 -16.96290398 40.68858337
-52.06665039 23.34670258 -3.78630066
49.02987671 18.43688965 -56.80961609
17.98926163 -16.79622078 38.85057068
-42.96843338 26.84078979 47.40440369
-59.34752655 -8.50938797 -1.58030701
3.89307976 -15.82724380 -63.43348694
62.88323212 1.73574412 4.68528748
52.14201736 15.48649979 -47.96110535
-14.43743324 -38.36545181 42.41954041
31.11242676 -39.05755997 30.63133240
-13.29963112 17.77404022 61.23295593
-5.18874168 -29.56526947 -2.59410095
-49.84886932 -25.01400757 -3.95005798
-18.39407921 -17.26727867 36.72929382
-9.77725983 34.46050262 53.22306824
8.87038136 -15.29687881 46.76774597
-23.11237907 -20.35140038 16.07286072
46.26201630 16.37952423 -56.81245422
-47.94300842 31.11400604 36.00279236
-51.26381683 -22.58758926 -4.60633850
-39.18863678 -3.10104418 48.26042175
-49.53022766 16.24254227 43.80064392
36.26089096 -24.60984039 34.43357849
50.25366974 23.91328430 32.93437195
58.10917664 -20.10123062 -2.24989319
49.55596161 -35.31260681 -18.43275452
1.88732338 -11.53320885 -66.86167908
52.95652771 -11.20835114 -23.28739929
69.43109894 1.15643656 -7.19395447
35.13521576 28.99958038 39.67893982
-47.11901855 18.31983185 -39.79267883
39.37449646 30.95085144 -34.60713196
-2.64819145 -22.10552406 -7.77769470
40.43867493 -19.38196754 -42.73472595
31.25203323 -39.35045242 31.41398621
52.95669556 30.36027527 -5.02531433
56.84856415 28.06734467 20.04331970
60.22348785 31.73027039 11.49122620
47.16814041 19.62984085 -57.39073181
15.83873749 -38.47251129 -49.26435852
8.58751774 24.82118225 -58.36518860
-49.63934326 17.39482880 45.14030457
31.77386093 -18.49884415 19.72856140
42.20641327 15.80175400 -33.44102478
-28.70046425 -27.52827835 -8.51329041
-24.31435204 -27.60828018 -31.48838806
-0.85077286 -20.45531845 55.11924744
10.30021763 -20.21394920 26.14884949
29.29365158 -37.05507278 44.99192810
2.22142601 -29.61349678 0.73103333
-2.44417763 3.14995909 -69.07765198
-47.67887878 -38.55681992 12.02043152
-14.99744225 -27.27722549 -36.13584900
5.95114422 -18.46463013 35.52293396
-44.49684143 -34.75444412 -28.12074280
-17.87950325 -14.76531792 46.33805847
-6.61288452 -20.36827850 26.79692078
-39.96857452 -34.71625519 -34.01005554
18.95220184 -38.71111298 40.03544617
49.65604401 38.27176666 30.24858093
-9.18771362 -21.46810913 17.44279480
50.21787262 -38.72902298 -15.67292786
-46.16741943 -13.68085861 -28.56687927
49.49377441 20.58898163 -55.97605896
-38.30838776 13.80661011 -52.17649841
-46.78414917 39.50374603 39.84355164
10.80462933 8.32942963 59.65727234
-56.55602264 12.72227859 -2.78254700
-57.06230927 38.37126160 0.93180847
58.59146118 38.51615906 3.97767639
-58.26934814 8.87746811 14.11192322
-47.73664856 14.61447144 -43.02690125
23.09480286 -3.44437051 -57.84770203
39.91973877 -21.45053101 -36.37556458
60.38897324 37.03810120 -17.90498352
-35.32833099 26.22434998 -37.39741516
-32.53754807 35.19509125 52.85032654
54.22717285 23.46221924 -24.09080505
43.90988922 8.82504654 -54.58241272
-28.90559959 -6.42657518 62.46403503
-10.01852036 -13.56906319 -64.74986267
-42.63508606 37.52243042 -45.84712219
-32.46806717 31.08724976 41.65531921
52.63698578 -11.89756584 -21.00453186
26.28666687 35.84159851 57.29716492
-33.75204468 -26.99708748 2.77043152
51.98487854 0.66051829 35.63359070
53.24161530 -14.19153023 -3.81495667
-69.52281189 -3.00657320 -5.61405945
13.86944389 -15.87814331 -62.01698303
-57.07681274 0.38426554 -25.71910095
-52.27060699 37.68761444 -20.53620911
49.97006607 21.38510895 -51.17854309
52.54903412 -3.91579485 32.16062927
35.77810287 11.08954620 -58.09785461
-28.50152016 -14.18311882 -45.34461975
-52.53503418 -36.90073776 -7.59269714
62.41174316 -0.66471136 9.62452698
48.31436920 36.21573639 -26.98143005
-43.77190399 -13.97093773 48.04655457
3.27031708 -21.94392014 15.20149231
27.20422935 -11.81807137 -50.17796326
55.19960403 -7.52266216 23.30707550
-9.91702652 1.82476008 -61.63960266
-54.48780060 35.27349854 5.26921082
1.65059662 15.33570862 -63.28630066
-3.12734222 -19.90078354 -28.64805603
-1.43047714 -39.00382233 -43.06285095
-31.60922050 36.72239685 -53.90696716
-1.22593880 23.79951477 59.80467224
16.52957153 13.41843414 63.68681335
-52.44087982 16.33329391 50.82072449
-48.05754852 -9.55096817 33.51683044
-47.02643585 18.09719849 58.81126404
-50.77739716 -21.38290977 18.94071960
60.77661133 -7.92406511 -31.88777161
42.95986176 -39.65032959 -6.69639587
-49.66400146 15.69678116 44.45890808
-16.10858345 2.33496070 60.69157410
54.01792908 31.94378662 -26.98594666
-46.12741089 -1.07123983 -42.26448059
23.93585205 26.01900482 -45.24906921
12.60778046 18.19739914 61.15641785
-35.70639801 -38.74825668 -25.20903015
-21.19390678 -27.30588531 34.65269470
8.09234428 23.71173859 59.40623474
-47.66429901 24.07945251 45.23100281
38.07765961 -1.50711095 48.78288269
-45.12983704 17.35696411 58.85874939
16.46825218 9.36878204 -65.09040833
68.17801666 7.00960875 -7.65135193
59.28922272 30.86936188 14.15840149
35.02767944 14.06123734 -56.43504333
47.81562042 -24.88910484 -13.07536316
40.69559479 -33.37181473 30.75944519
-38.10185623 -27.73493385 -13.34202576
49.29298401 19.13602448 -38.11845398
-35.68265533 -16.37931824 28.16093445
-51.99819946 -6.32244158 45.38957214
51.63346863 17.70820618 15.73811340
-59.17424774 4.10172224 20.34471130
-1.24328804 -22.07817841 -3.35545349
8.18860054 29.84112358 52.18951035
-46.20010376 37.64041901 43.34135437
50.04641342 -4.57632875 35.49443054
-52.19827271 12.69379807 44.82914734
-53.75502014 2.42705488 32.65446472
18.47438431 -19.93392754 -21.64842224
30.87552261 -20.67983437 -46.81776428
12.74563408 -17.55809593 37.82359314
-42.87935638 31.33302307 -41.40248108
-6.34471321 -34.47092819 -50.46266174
35.65064240 37.04741669 -42.27473450
-21.11884117 30.59996796 -55.28410339
55.12719727 1.86354792 30.04411316
-59.85250854 21.18771362 -8.38819885
52.41501617 16.98546219 -11.42219543
-48.17153931 12.72480011 55.69926453
51.82009125 18.31420135 -32.07295227
-68.23122406 -5.83174944 -11.61375427
43.08845520 -39.41015625 2.59617615
50.82365417 -8.18835068 45.63053894
-29.49936867 19.80248642 -43.39530945
45.79788971 -34.33005142 -22.83821106
-62.94815826 38.36650085 3.34159851
-41.09360504 -14.59775162 -32.81816101
9.24363422 -10.76929092 -57.01564407
-1.72281837 -7.22035265 -60.08973694
-36.21909332 -38.50461960 32.97538757
43.81606293 -39.78202057 -2.05644226
45.98904419 31.50275421 -26.04460144
38.09063721 -34.73206329 35.14372253
27.59175873 27.21898651 -52.26115417
-36.13596344 -18.47733879 47.66777039
-51.38186646 17.52862167 56.12059021
-3.62861824 36.29030609 -61.90132141
50.89779663 23.19199371 -49.73875427
52.65349197 -6.77570391 -29.78306580
49.24814606 15.59981537 -43.45509338
-10.93169403 35.31934357 -60.26380920
-4.32764626 -32.28049850 52.43785095
-30.77108955 -4.56436586 -61.99769592
-37.97112274 11.35887146 57.87211609
29.83740616 1.35741007 55.16575623
-0.14469147 -10.04160309 58.04228210
-50.15692902 -0.45915258 48.40556335
-7.99471664 -21.31407356 -18.23722839
19.00619316 -15.32895660 44.25309753
-2.69099236 -17.11293983 40.73020935
-38.70622253 -22.22670174 34.69908142
1.39686394 -11.81629372 56.21989441
-54.52077484 39.36575317 24.15898132
63.10560608 37.31305695 -2.81346130
-53.23122406 18.12665939 7.56669617
-34.68419266 -33.76588440 -37.49757385
48.40779495 -1.58879888 -39.99122620
35.12672043 -20.68243790 44.08415222
27.97133446 -17.09727669 32.26914978
35.61402512 -27.47445107 6.94419861
-36.58800507 -21.69520950 38.42942810
-36.59059906 11.84574127 44.44273376
38.13089752 -28.56176567 -10.98027039
28.59040833 27.96446991 52.46049500
6.83691597 -13.24557686 53.65983582
-13.38301277 -21.84334373 49.92716980
-11.87608147 -21.85432053 -7.90205383
14.85807228 -8.34080124 -66.74632263
-10.41175461 39.31097412 56.73350525
-42.21598816 -35.44429398 34.50578308
18.57485199 -31.48770714 37.33396912
32.32316208 -27.25535202 21.95359802
47.75010681 15.06000900 -55.39701843
-20.14241600 -21.45179749 -4.70930481
20.35848808 -37.51914978 49.51683044
-9.62793732 -12.94148064 -52.13352203
-47.18496704 13.97326279 29.71202087
17.80624199 -22.51932716 47.96482849
-47.70075226 1.21052897 -50.42759705
13.05816650 -27.07573891 33.29759216
-45.50876617 24.42700195 55.31852722
51.75746155 -38.82734299 -8.99171448
20.80743027 -11.82052994 52.48033142
-32.49277496 -17.39716339 -28.00401306
-26.45426750 -19.82855988 16.70252991
12.02428532 -26.75029755 -35.02223206
-21.92803955 -6.95974731 55.98194885
-69.09230804 -6.20970201 -2.94429016
-67.76625061 -7.90573549 -10.44813538
31.28893852 21.20754623 42.67161560
22.84123611 -20.06610298 18.88963318
20.77029610 -28.23019791 -33.92247009
5.38601685 -28.77082062 -22.20866394
-15.96925926 38.54439545 -59.75361633
-62.01533508 4.92137861 4.99971008
-30.06392860 -26.89706230 17.57987976
-24.49152946 30.87256622 54.63084412
35.57719803 -35.58419800 39.83256531
7.58521175 -20.63053322 24.71525574
38.78648376 -14.61475945 -51.91987610
-26.92661858 -22.05214500 44.32914734
18.74203682 -28.26042175 23.07695007
-20.31407356 -16.63711357 -59.25074768
54.38376617 -20.91857910 -14.95765686
-47.42512512 -26.47786522 -15.54881287
-3.08717918 -15.77235603 45.36210632
50.15294647 -38.99485397 14.60041809
38.24079514 14.55217361 -54.92771912
25.91808510 13.73625565 49.52970886
44.95010376 7.69448423 -53.80964661
-18.71018791 21.90911865 57.38078308
-4.79985046 2.78463697 -62.10868835
49.54413605 -23.92218208 6.81614685
0.58978653 -26.47539902 39.15867615
-48.49935150 4.38437223 39.13426208
49.64129257 -24.64948845 0.00645447
-9.57133293 -24.46548462 -48.35801697
-28.93836021 -26.73112488 -20.40705872
-54.32019806 -10.20644569 40.07975769
-3.39872360 -13.12135315 54.12669373
23.03180313 -1.08467901 -58.37605286
-45.69239807 36.86417389 31.29167175
9.41519451 -22.23703003 0.49415588
52.49042892 -36.04086685 10.37913513
25.92135429 -33.19674301 44.88346863
-22.41654396 22.36515045 47.37773132
-1.75361633 19.18278122 53.41947937
-58.27575684 6.46435118 19.73374939
54.66292572 8.70913696 40.97660828
38.45562744 -14.15432930 52.23539734
32.89947510 -33.55938339 -24.85038757
-24.79582787 23.61170959 54.49455261
-34.78232574 -34.54086685 41.74858093
-33.77741623 -35.03026199 -40.31333923
22.37688065 -29.42849350 12.72889709
-40.10971832 27.56347656 47.40434265
42.50352478 -11.78474236 37.13237000
58.79868317 -9.33147049 -6.40870667
15.58076859 -21.82568169 3.00767517
3.92776871 -29.63486862 5.07527161
19.27618980 -27.54316521 -28.96025085
-28.31024742 22.08815002 -43.45634460
-12.16047859 -37.25379944 52.77452087
17.77477455 6.34194899 58.75822449
39.91838837 39.26451874 47.08952332
49.45993042 20.84592819 -41.70295715
-60.77760315 38.76715088 -14.94578552
-28.55614662 7.62998152 53.60343933
-58.25112915 37.15666962 -24.59617615
47.96257401 -6.62580538 -49.43440247
2.55184937 -30.08481979 -4.84501648
-46.76580048 38.64884186 -41.14921570
-62.76927185 36.28259277 -8.99272156
42.19887924 -39.38488007 9.79371643
-21.41736794 -27.88375282 17.18339539
-54.14774323 16.56504440 4.44651794
53.66503525 17.73778915 2.38792419
42.19466782 28.31652069 -43.76771545
37.65715027 38.63181305 -44.02217102
-39.22744751 -28.05303764 10.76927185
46.02444458 21.86148071 -54.88475037
49.05066681 -23.62414742 11.45893860
-6.42606735 -26.58184624 35.59696960
36.06229401 21.52074432 38.73008728
23.00133324 11.32067871 53.00480652
63.80780792 -10.17119598 22.74052429
3.69209862 38.21971130 63.11466980
-10.52928162 -7.26992083 -67.81199646
22.05235672 -26.96005249 45.70597839
-60.41419983 -11.27879333 29.08555603
49.95174408 8.08105087 -49.48298645
-29.38956261 -18.58438873 -52.40403748
-20.85400581 -38.86583328 -38.14512634
-17.20936775 -15.43902016 -47.07334900
-43.89747620 -15.13171387 -26.62449646
-32.31938171 -28.58429146 25.26280212
-48.14649963 -25.02539635 15.09111023
-28.94553566 -26.66804314 -26.22151184
43.12738800 -12.53503036 50.10105896
-7.49340630 -38.55918503 -42.21342468
59.17208862 6.78121519 -13.51454163
1.83888245 -7.71169710 59.57389832
-21.35401344 -35.89364243 50.38536072
44.54965973 28.38202667 -26.75517273
17.15582275 14.69694138 52.78880310
42.65341187 28.92469788 31.60997009
28.92490196 36.63132477 56.59349060
19.66898727 -26.87066460 -31.64204407
-39.00227356 12.55593872 41.39622498
-42.77627563 7.92449903 56.13896179
42.04851913 -15.86321735 23.30331802
9.57721710 37.14578247 62.61491394
45.17100525 -17.44909286 -42.26155090
60.70188904 -4.45967150 -11.34498596
54.56269073 -14.46188545 -35.56098938
-56.60263824 38.38668823 -7.42927551
-22.38128853 3.90666914 58.29405212
-55.25017548 38.04836273 30.89201355
-41.01821899 -31.79050255 -6.80509949
17.74376297 -39.28708267 -39.36735535
59.67620850 17.46131516 -15.92588806
59.33296967 29.34233856 -8.83305359
-55.46194458 4.72404814 28.32835388
41.78384399 26.12191010 -51.66706848
8.46912670 -39.22574615 -42.10862732
33.59812546 11.81427383 57.56230164
-46.71801758 23.39746857 55.97496033
63.58610916 14.93041229 -4.23762512
-45.12228394 -38.17359543 25.81071472
52.86793137 -22.27411652 3.41447449
-50.16277313 -12.76348686 -23.88557434
-62.50236511 35.61754608 8.97911072
-20.04726219 33.36841583 -56.82579041
-42.95994568 -15.12951756 25.60269356
56.85213470 30.90009308 -19.57225037
15.33998203 38.53913879 -59.82038879
40.33356094 -36.12420654 -33.75917053
-60.94415283 -3.70988512 12.97227478
-6.07960320 -3.39586306 68.99589539
16.70632172 -36.15215683 -49.67832947
-39.90505219 28.54158020 33.69651794
-14.45393944 35.89850616 60.79734802
-30.87675667 -27.11806107 -10.22999573
-10.41476059 -0.59651983 61.56266785
-25.72298241 34.66988373 56.12297058
46.49346924 30.28680420 26.49205017
46.26285553 -37.75851440 25.49833679
55.24294281 34.74438477 1.25221252
18.99668312 -10.08724022 -55.31050110
21.70782661 38.64560699 -52.68235779
49.09862518 16.87155533 39.30650330
36.86626053 -12.19871140 42.67137146
39.19327545 -36.34015656 15.91413879
-3.80304909 19.20768356 61.61619568
-2.69397354 19.08830261 -60.85594177
-34.42383194 39.22846985 52.29472351
61.05860138 16.23985672 -13.84709167
-51.58843994 -37.70088959 12.25041199
-24.85371208 35.87369537 48.76322937
-30.64964104 6.70434523 53.01341248
-3.78515244 -29.32641792 7.73518372
11.31024551 -28.81179619 -38.13435364
-28.46973228 13.72837448 59.42161560
3.90166283 30.85256958 59.88407898
-3.96313858 -37.17849731 -52.18104553
21.82302475 -27.33506584 -27.17277527
52.33394623 29.91774750 30.54411316
42.40729904 -23.62029076 27.56700134
25.82333565 -38.54827499 -34.12010193
-53.12477875 12.42673111 42.78324890
-15.45074654 -33.07367325 50.55162048
-61.75395966 -17.43117332 2.10447693
-35.57264709 -10.13847160 57.26976013
-24.52484703 -19.79510117 -20.40852356
-54.16518402 26.97035217 24.33097839
-37.23783112 -17.49059296 -20.65168762
10.97628403 -22.17621422 0.32896423
0.11265564 31.27777100 53.05473328
50.98650360 27.55615997 14.17100525
-37.56810760 8.05216980 47.11924744
-47.32907867 -33.63449478 -20.27064514
-30.40868568 -20.12394714 -4.91545105
-50.99583435 36.78407288 -36.89176941
50.55941010 38.63888550 -33.80625916
-16.91744423 -19.16503525 -30.25904846
33.30319214 16.55162430 53.73863220
-19.02763557 -26.45525932 32.72819519
64.10906982 -15.66839027 2.33106995
-48.96130371 20.38282013 44.31578064
67.95940399 -8.64430618 8.11015320
36.05594635 -32.81317902 36.26463318
58.94731522 -9.53150177 1.78285217
65.95021820 -10.81233215 -14.61851501
36.38703918 -6.93145037 58.20347595
23.94813728 -28.00426292 32.55784607
28.38163185 28.85221291 -43.07746506
-62.68038177 11.28735733 23.68534851
8.08002472 31.01636505 -58.76799011
-49.03082275 -22.99090195 -13.10813904
30.10420227 15.75702667 -44.52171326
38.49690628 24.84751129 -53.45362854
29.60033226 -33.17504120 42.33116150
-49.44974518 -16.90517044 -37.93519592
21.88374710 -28.04731941 -21.04240417
-39.70238113 17.04984665 -35.84538269
-47.89826202 -23.76825714 16.63722229
-47.17370605 -11.87539864 31.04051208
9.79759598 11.85352325 -55.28749084
2.47215462 -21.89393616 8.16084290
-50.17908478 -14.49291801 13.46723938
-66.73770142 -11.29507256 -6.18394470
31.15545273 17.09251404 -56.27348328
16.80503845 1.57767451 -67.34278870
-50.02439117 23.28075409 51.74192810
6.99135303 -18.88978386 -33.84709167
-30.59198189 -10.92638016 59.59342957
-59.64057159 31.47374725 -8.67185974
-53.30346680 9.42716217 26.30863953
-50.65238190 31.85164642 -32.19767761
2.05090523 -9.25201416 67.60466003
18.43295479 -29.15993500 -11.23100281
-9.34403801 -20.88940239 -54.85997009
27.20445251 -32.98899078 43.93168640
44.83072662 37.04453278 45.52653503
-25.62463188 -33.83187485 34.25218201
61.48588943 5.37538481 -31.13117981
58.25214767 -5.32114458 -18.84260559
-60.55568695 -13.75934029 -24.47438049
58.48767853 -9.79237366 5.68290710
-34.17935944 -38.99197769 -28.81016541
41.24685669 31.56400299 -43.78825378
12.69803429 -39.17012787 -40.97395325
38.38705444 18.32019806 48.76066589
-43.18222046 38.56955719 36.69273376
6.07256794 35.92252350 -53.70121765
52.56918335 10.84278870 -22.06632996
20.69952583 -35.35339355 37.41789246
-48.20258331 5.49967909 52.51512146
-44.58481598 19.76422501 57.36491394
-1.77376556 -1.82812917 -69.50807190
-9.39602280 -16.20550346 -45.56294250
59.06037903 -7.95087481 -10.27388000
12.62805939 35.17594910 60.89659119
-28.36773109 -16.70618057 33.44163513
42.82275391 -39.81429672 -11.30879211
8.62990665 -20.09925270 27.63688660
47.68812943 -12.35615158 46.03703308
-6.66039085 -22.13274765 -2.98246765
50.61399460 15.35055923 -45.22129822
62.66283417 38.38203430 -1.56919861
-47.11464691 36.20002747 -41.26750183
-43.54335022 -32.84872437 29.30381775
-2.73665428 8.14286423 60.56535339
9.09027290 -37.50741196 43.19377136
37.05084991 -39.58739853 24.56407166
-49.39875793 11.33049011 53.40995789
31.75734329 5.10030317 61.56864929
-62.92604065 0.45296824 -0.97154236
-35.08995438 38.72396088 44.49211121
-14.49757195 30.66439056 50.71905899
-10.17855358 -9.99263000 56.95509338
43.42237091 12.28354645 35.92747498
-43.41789246 -17.56852913 43.14750671
-17.13336372 33.51382446 50.87779236
-17.10374260 -2.68362474 59.55918884
-30.87719917 -37.96144867 31.38542175
34.66399384 39.34718323 50.07646179
-64.75081635 12.34642410 14.69621277
65.09439087 -3.39714479 24.61363220
-41.35028076 -37.70771790 34.06132507
11.69726753 -16.49080086 41.87608337
30.91914749 38.66571045 -52.52586365
54.46173859 5.60210752 -42.08464050
39.29634094 -27.82692337 -1.56019592
13.39145184 -17.20835686 38.98112488
9.30627632 -19.15312386 -31.63398743
-36.77796173 -26.51536179 -7.26353455
-6.04135704 -21.86484528 8.02113342
-49.39281464 18.19370651 40.63517761
-52.98146820 36.29745483 15.52827454
49.43250275 -38.81656265 17.47300720
47.47723770 -6.72451401 36.66091537
16.75070763 -17.62441254 36.39866638
5.05292225 36.12309265 62.59007263
1.34010124 38.16868591 -61.90303040
19.64459610 -21.44884300 -0.69749451
-53.35126495 32.17443085 -1.47822571
-29.02625084 -24.03204155 41.92564392
-47.81715393 -21.20856667 26.16056824
14.27250671 -20.92815208 -17.16032410
46.77981567 23.71392822 -54.87059021
-22.17638588 -37.49731445 49.13114929
-44.95230865 -15.67511368 18.39994812
-10.05142593 -15.67212486 62.31199646
17.73104858 38.51358032 60.73942566
-59.37142944 28.60064697 -3.19065857
-45.81882477 24.32666016 -24.26216125
-42.67158127 39.58565521 40.71366882
-26.26995277 4.90862989 -55.37934875
-47.43869781 -6.27953768 -49.93342590
47.26176453 26.46305084 -37.27763367
-15.36429405 -1.00434148 -67.78034973
-5.34076691 -25.40776253 -48.86653137
-61.31894684 4.77944899 11.00193787
8.05773258 28.21727753 59.05790710
-0.04311562 -20.95025063 24.01499939
47.53610229 27.09552002 36.55992126
58.67848206 -7.34139681 35.73252869
-20.99534035 6.92780638 57.30931091
-2.75135040 36.93924713 -62.08448792
27.51888847 -15.39135551 -39.73365784
-15.39195442 -21.90551186 5.72630310
-43.13175964 -15.86375427 -21.39610291
21.23800659 -15.57484245 42.24497986
51.01936340 29.51296234 15.16236877
15.93280602 19.61589813 -49.87684631
30.69444466 -16.15355873 34.21789169
42.35586548 21.36830521 -55.46394348
-50.99259186 4.04331541 -35.24034119
33.11067200 34.50087738 43.78208923
-55.68030548 -0.12437856 -28.61836243
50.60001755 19.57019424 -33.94850159
8.61046410 -38.68814087 48.92314148
-21.27128792 -26.73966217 -28.54862976
39.60725403 35.48680878 -47.78990173
-33.46776199 3.00497031 53.08439636
35.09149170 -27.63060760 0.50492859
-28.84431267 6.06549406 62.61705017
-6.26048279 7.26814222 68.38920593
67.95284271 -7.20506334 -11.17210388
57.41766357 -18.93230629 18.59519958
16.27387047 38.30792236 54.46665955
18.09391403 -39.25992203 -45.67521667
49.96054077 22.52276611 -42.61100769
-66.87727356 -4.06960726 -18.88258362
41.93056107 32.93218231 34.63853455
26.98671341 22.31956482 -53.92945862
10.74372864 -17.18457413 -39.99110413
32.04312134 -27.53533936 15.65321350
31.18889999 -21.84648895 -42.96369934
45.92724991 -23.64399338 20.86112976
65.79669189 11.64681625 -6.43339539
61.18775177 1.00054896 33.69474792
51.20492554 -8.74533558 -29.64984131
-27.19252586 -18.31951332 -28.06346130
-1.05370712 -2.94403100 -62.40132141
-14.49125862 -13.27144623 -64.09181213
49.61835861 15.49491501 -44.03993225
50.60329437 17.48711014 -38.23713684
10.50813675 -33.87652206 -49.42771912
-38.14373779 -13.37870598 -39.39753723
35.44594955 -27.82685280 17.16853333
6.83394527 1.75824702 62.33567810
52.38205719 34.67851257 34.58256531
-48.60448456 -8.72914505 -33.18580627
4.19942665 -27.87434578 -29.64073181
-5.68727684 -29.01759529 17.54637146
-25.40595818 35.55273438 -47.64442444
8.80920219 -7.35538149 67.75920105
43.33696365 -39.65047836 -3.50617981
-60.05404663 32.40130615 9.54240417
56.96105194 -12.98995781 33.52909851
-9.21876144 39.05624390 61.91032410
39.18025970 -33.02133560 -11.66130066
8.77216625 -14.61817360 49.98619080
17.70916748 10.12045670 -54.82923889
19.30672646 -38.77189255 -38.09550476
61.12055969 0.90648234 -15.72810364
56.57765961 -10.14035034 14.35954094
60.40407562 20.04446030 -6.03593445
-44.83517456 -38.26823807 -26.67835999
-50.82893372 15.87847137 20.37565613
33.33522415 -27.73405075 -6.08222961
-52.19140625 19.29166794 33.70249939
50.74080276 -0.13091695 -47.59623718
-18.69528770 4.48387861 -58.52650452
35.47408676 -15.63082314 32.40577316
-20.86215019 -26.36514664 33.39939880
51.02171326 18.87970352 -47.25068665
-45.32153320 25.11901855 40.81382751
3.30140305 -29.97421074 6.38850403
-0.08492851 -17.26984978 -41.87818909
-30.12548256 -37.53707123 44.88902283
31.85657501 2.27006865 -53.84910583
-45.41429138 -3.29372072 52.68809509
43.63941193 1.27867091 54.42472839
-50.91000366 -32.33755493 -6.18305969
23.08474922 23.03189087 47.20640564
38.39513016 -33.83544540 -14.99635315
43.23664093 -16.78833389 8.75276184
26.05270576 -13.53498840 47.60069275
-59.62445831 30.28897858 5.57795715
60.26774597 -17.64606667 14.93290710
1.45075226 -29.58858109 4.79188538
10.07694912 -27.45144463 -31.88371277
52.46618271 34.43901062 -32.57716370
33.55622101 -27.47986221 -11.43281555
-41.21259308 4.03662443 56.75675964
-17.19064522 16.31200027 -50.68785095
-49.36411285 -6.57012224 35.27098083
54.14025879 10.13330078 -42.56245422
23.66420555 -38.39358139 -46.00788879
53.44010162 25.66467285 27.40757751
34.62870026 28.16050720 48.80583191
5.26514626 -26.48788834 38.19047546
-25.53337669 -25.23484039 -42.11656189
-33.26270294 2.69598365 -52.62434387
-32.11713791 15.39508438 58.58830261
37.88972855 13.42316818 -55.41108704
59.79932404 9.82553864 31.84458923
35.07906723 34.80066681 51.65354919
48.89999771 3.46096754 49.62376404
-68.32428741 1.15107691 14.97883606
-11.06139946 29.24778748 -57.83476257
-22.54836845 37.09957886 -58.15287781
-13.88969994 12.84625244 -53.73112488
-10.73676872 -17.23662186 39.32658386
-50.99639130 -8.50750732 -29.61820984
-0.79158974 0.03335154 62.16856384
2.80246544 25.22253418 -58.86967468
-68.39553833 8.09008408 3.02723694
-47.01625824 23.96147919 42.80729675
-24.87329674 -16.19997787 -39.69429016
-52.97454834 18.78145599 31.86338806
1.02801514 -21.63287735 -16.71653748
45.20161438 2.48602271 -52.82789612
-60.20229340 39.01677704 3.30073547
49.02638245 -21.46114349 25.76298523
18.93052864 -29.39723587 -8.25779724
7.80504513 2.61452055 -61.91007996
-42.31568909 -2.60303926 -45.39070129
-40.94191742 4.34839582 47.06864929
-52.59509277 18.54494095 -9.65437317
34.98947144 -27.39597511 8.33021545
25.61398125 27.36605072 45.99717712
37.43078995 -27.60342789 10.41477966
-45.82929993 -7.82486010 -38.08134460
-25.09240532 -13.32072449 -48.47358704
61.52790451 36.42914581 18.30271912
16.38127136 29.38043213 -48.93738174
42.38366699 -22.93730545 -27.90055847
-52.72064209 -6.32838106 30.42143250
10.12027359 8.19187164 -58.45976257
-59.67670441 34.91387939 -17.95829773
-35.97612000 -35.10438156 -38.49513245
51.09304810 14.68191528 -46.44062805
-60.24864960 3.23636198 -34.38832092
-28.98366356 -34.76075745 -30.28248596
25.87922287 5.52102613 -63.51817322
-27.88812065 -20.17399788 11.30851746
60.92512131 16.72032166 15.05485535
-34.32100677 -0.11706579 52.48600769
-46.67750549 -36.21632385 -25.44560242
-22.91384315 -38.45019913 38.42509460
-49.34980774 16.99787521 45.74223328
52.59117889 16.91329575 -49.99122620
-53.39041138 -11.48822212 -19.44190979
-21.21145058 12.51562119 -51.63987732
-36.07968903 -12.43148041 -55.56962585
-11.86370659 19.69420242 51.91728210
17.00180244 -26.81062317 33.47532654
54.42342377 38.45226288 21.63902283
-45.28318024 -16.60673714 3.11109924
5.14487934 -38.53384018 44.48802185
13.21302795 39.58710480 58.12425232
-42.60547638 -11.71659088 51.21018982
-26.32846260 -11.37329483 -49.72642517
45.83772659 -36.00879288 26.58390808
13.45123863 28.50528526 -49.66180420
44.47062683 38.70304108 44.94798279
-3.25346756 -29.68413162 -1.18656921
19.53825569 -2.67557955 -59.40312195
-34.22159576 -27.42266464 21.58152771
-59.57392120 4.20979643 -17.60319519
11.48437023 -12.04002953 -65.61692810
-10.92641830 -29.54085922 3.22569275
40.32562256 3.34564924 -56.29920959
-36.59751129 11.49766922 -43.32807922
-31.99487495 -26.31646729 21.22355652
-21.60899544 16.70603943 -48.82560730
43.91555405 23.52761841 -27.49955750
-10.87565613 -22.96403694 -49.41209412
-36.30969238 13.14498901 57.45347595
-35.78408051 18.79473877 39.70756531
56.66720581 14.88351440 -28.22273254
-8.17438698 39.77798462 58.71006775
-62.21092224 -16.78612518 -6.57585144
-15.52524376 -17.01173782 38.70835876
7.06186199 -22.29826546 -51.66188049
36.20693588 -10.17777061 -45.76908875
-12.37074852 27.58667755 50.83927917
9.62225342 -19.86245346 -27.41941833
-44.28456879 -35.99033737 -29.22895813
-1.44658661 -29.87006760 2.33894348
-21.90608025 -27.09292793 -24.73374939
-10.52736473 36.41571808 -53.39970398
-29.77583885 35.12262726 -44.84007263
10.28874302 18.27478790 -60.36689758
17.09991646 0.04669917 -60.38008118
8.11885452 -22.22622490 -4.89430237
2.86867142 4.02971220 -61.74946594
9.33935070 -20.50147820 54.53477478
-26.67561913 25.18988037 -52.60218811
-49.76761627 23.23955536 35.72276306
58.98256683 38.67948151 -13.54771423
-21.47361565 39.75575256 54.02110291
37.96692657 -17.16875839 19.99040222
43.10245895 -35.53089523 -30.06864929
-55.71858978 -10.52383995 15.43748474
-27.69581795 -0.30235708 56.13591003
-8.08528709 6.73275328 60.80076599
23.19145584 19.96927261 47.84202576
49.14973831 16.53314590 -43.73707581
-13.31091118 38.24589539 54.59593201
50.36783218 20.44000244 -48.25282288
-10.07541275 21.75446701 -58.96632385
-15.39163399 -34.48476791 52.36479187
36.47295380 30.77546692 -37.42738342
-10.80652237 6.62142134 67.99717712
43.58773041 21.39593887 -55.54792786
45.18541718 32.20370483 -39.95481873
-51.79716492 -33.36212921 2.24894714
36.91107559 -15.09425449 34.21241379
-40.93195343 -38.57194519 -15.45207214
55.04049683 7.75080061 -41.70903015
50.53602600 -31.92649460 6.08476257
19.32649612 2.42003202 -66.53312683
-23.91896248 -24.49274826 45.07145691
45.53330612 -11.59281731 32.29472351
-3.59438896 0.54573023 -62.41169739
-16.95420265 18.54042435 59.75059509
-3.34443855 -10.55767250 -67.30244446
53.88636017 14.41368866 -34.40388489
-52.78263092 -34.56359863 -5.34028625
8.54265308 -19.63691139 30.02647400
-12.63064003 -8.83144379 -66.91139221
-50.44067383 -37.30913162 -15.69160461
-19.11701775 -26.74354744 -30.45545959
-36.91781616 31.97609711 47.69456482
-51.93797302 -35.49694061 -11.96009827
27.65096474 -20.16715622 -5.60896301
-27.19905663 -33.99686050 46.29045105
44.99279785 18.47941208 29.36143494
39.98089600 -15.85831356 25.91552162
-50.66764832 -14.78314209 4.45771790
-16.71846199 37.82905579 53.31846619
51.23482132 -35.56942749 14.82127380
19.35695457 -39.02869415 40.62376404
-27.72156715 -33.36437225 45.22398376
13.55167389 -13.09758759 -64.54408264
-64.46452332 -11.63445854 -17.33720398
-26.74148750 -15.41731262 39.50834656
-61.97685242 38.89901733 -0.84736633
-40.83554840 -13.87176514 34.54380798
-36.20211792 -18.87820053 -7.02915955
1.68110657 10.89661789 -66.35719299
8.93693352 -17.73492622 38.02629089
-42.43545532 -32.46851730 -28.09901428
57.10017014 37.44451141 2.38224792
-7.64611626 -11.98334885 55.35289001
-45.07537842 -26.78362656 23.91941833
41.26746368 -0.39097250 -47.50675964
-61.82217407 -0.15068090 11.83930969
-33.74819946 -12.13151169 -45.18949890
27.76622772 -15.91769218 37.56962585
6.67310619 17.83428192 62.38133240
-42.81746674 -17.35840416 1.96736145
-18.31908607 -20.50218773 -20.02729797
14.42317009 -27.37690735 -30.87825012
46.46679688 -28.38338852 -17.93919373
40.11550903 -30.34364891 -2.92829895
-8.18583298 12.54647827 -64.78364563
-43.55519867 -22.99068642 -25.72190857
40.94169235 -17.52012444 3.34605408
-61.28246307 36.32053375 -16.24000549
-38.59685135 -33.91513443 36.91404724
-34.19804764 -15.79172897 -34.48844910
-41.30648041 17.61882019 57.91691589
28.48631668 -4.49689531 -54.93067932
-32.60214233 38.14248657 54.18138123
-37.39687347 -15.73604774 -31.40818787
37.41037750 26.76257324 -48.89363098
-6.61541557 -17.08840942 40.38127136
66.08635712 -13.15550804 -4.58161926
14.84426117 17.51290512 -50.86442566
-39.18713760 -21.38036537 36.91117859
38.83914566 -16.03576279 26.39503860
39.43178177 -16.00660133 25.76187706
-36.18321991 -0.52149999 -50.91096497
-51.97135925 -37.98300934 -6.69355774
26.67221832 -0.36852682 56.33171082
-22.50483513 27.96948242 -46.24104309
-38.69201660 -26.34359932 -3.25715637
-13.40777397 -13.89319229 -50.42509460
23.45070648 37.66570282 -50.27043152
43.46348953 26.77026367 -44.31809998
17.33134842 7.44913054 66.48381042
-48.31204224 -0.93032110 39.81816101
61.07360840 36.88317108 -15.90000916
-67.06006622 3.90759993 18.77189636
54.47099304 12.25705338 16.76826477
31.08986664 28.69427490 -41.00587463
-51.66757202 -11.70592499 -42.02433777
-32.39825821 -36.65187073 -27.70991516
19.69326782 28.36405182 48.88865662
28.39421082 -5.32740450 53.73863220
49.12591171 -9.02585030 -32.41265106
-22.64574242 7.18185377 -64.14363098
-52.90886688 13.48521805 -17.70143127
49.16156769 19.95393753 -18.49821472
-56.15134430 8.72903824 -19.62461853
53.57287598 -13.19858360 38.33561707
28.76086044 29.93038940 52.75804138
59.25360107 -1.48178136 20.70359802
-47.82005310 -26.43671799 16.94285583
22.25152016 33.59944153 49.49961853
48.37905121 -2.21838045 39.16233826
54.71251678 -20.24932289 -18.55097961
31.31957245 -26.83839989 -22.10725403
-28.43908501 15.25811005 -46.03849792
-61.29556274 -17.44951630 7.65547180
-21.48856163 -15.12441063 -46.89537048
51.08682632 -0.84157979 36.49198914
48.78111267 21.76217270 -18.49925232
-43.36953735 8.45625305 41.65269470
-12.13608742 -15.18780899 -48.75563049
39.49014282 -16.10112000 25.11837578
-27.26114845 -27.63736534 11.46861267
-66.82796478 -7.49536180 16.42060852
-21.93109322 38.33171082 59.18571472
-58.67003632 -12.14865685 31.23960876
4.64418888 -15.58643913 45.99003601
-8.37693024 -17.01329994 -42.73027039
-40.95075607 -13.89562416 -50.66731262
-1.51745033 -33.33868790 52.96873474
