2.99860000 -0.48210000 -1.53120000
2.92500000 -0.41330000 -1.67600000
2.96080000 -0.34680000 -1.71860000
2.72520000 -1.10220000 -1.16580000
2.89390000 -1.10900000 -1.12670000
3.02240000 -1.57060000 -0.78550000
3.20970000 -0.34000000 -1.58940000
3.24980000 -0.37860000 -1.52340000
3.12830000 -0.41520000 -1.54380000
3.09520000 -1.49620000 -0.74400000
3.04680000 -0.41000000 -1.55860000
3.11080000 -0.32030000 -1.66390000
3.13060000 -1.40990000 -0.70770000
3.31670000 -0.26560000 -1.55400000
3.23900000 -0.26910000 -1.64270000
3.08350000 -1.31810000 -0.73350000
3.17910000 -1.31950000 -0.65450000
3.31630000 0.94480000 -3.01870000
3.17640000 0.61050000 -3.05990000
2.99610000 -1.43450000 -0.88360000
3.04370000 -1.40390000 -0.81980000
3.87610000 1.02400000 -1.51010000
3.03650000 -1.30290000 -0.82110000
3.03630000 -1.27470000 -0.91830000
3.01600000 -1.31240000 -0.95670000
3.96950000 1.23700000 -1.37350000
3.23780000 -0.20950000 -1.79680000
4.05350000 1.27080000 -1.12880000
3.24010000 -1.23910000 -0.61260000
3.25180000 0.24130000 -2.69030000
3.79550000 0.41440000 -0.89920000
4.00710000 0.63010000 -0.42720000
4.37610000 1.04550000 -1.34030000
4.48060000 1.08820000 -1.02630000
4.50410000 1.01700000 -0.78310000
2.99810000 -0.20770000 -2.19040000
3.90070000 0.97100000 -2.24130000
3.68410000 1.00750000 -2.62550000
4.49880000 1.15810000 -0.89990000
4.48360000 1.24460000 -1.02200000
4.47310000 1.22090000 -1.14820000
3.12700000 -1.21930000 -0.69810000
4.39100000 1.13720000 -1.33870000
3.06620000 -1.24110000 -0.80700000
3.08120000 -1.23390000 -0.87060000
3.11390000 -1.22820000 -0.82750000
4.27880000 1.06320000 -1.63460000
3.14060000 -1.18740000 -0.80380000
3.10690000 -1.18870000 -0.73730000
4.32780000 1.32590000 -1.42490000
4.41680000 1.21800000 -1.27180000
3.46050000 1.05010000 -2.97600000
3.38230000 -0.09650000 -1.91800000
2.04350000 -0.48320000 -1.75090000
3.29710000 1.02530000 -3.13140000
3.28550000 -1.06700000 -0.66680000
4.44530000 1.29890000 -1.25660000
4.39760000 1.32070000 -1.31370000
2.99140000 0.46350000 -3.17100000
3.33540000 0.47710000 -2.80170000
3.20040000 -1.11340000 -0.71540000
3.15890000 -1.20130000 -0.85140000
3.14860000 -1.09760000 -0.76330000
3.54820000 1.09420000 -2.90310000
3.75800000 1.08900000 -2.62030000
3.13930000 -1.10670000 -0.79960000
3.47060000 1.14590000 -2.99410000
3.81470000 1.17740000 -2.54840000
3.49620000 1.25480000 -2.91990000
3.22840000 -0.91820000 -0.84600000
4.14810000 1.41640000 -0.76220000
4.09070000 1.07300000 -0.86080000
2.99820000 -1.25300000 -1.03310000
2.62080000 0.43450000 -3.48250000
3.10080000 -1.21130000 -0.92620000
2.90210000 0.74660000 -3.36910000
2.99460000 -1.14680000 -1.10010000
2.87500000 0.05780000 -1.85670000
3.18180000 0.09120000 -1.44730000
3.12660000 0.16240000 -1.84440000
3.06090000 -1.09650000 -1.05700000
3.13310000 -1.13190000 -0.95530000
3.10180000 -1.05690000 -0.98880000
2.48420000 -0.00680000 -2.06650000
2.97520000 -1.05720000 -1.08730000
3.34050000 1.26060000 -2.52250000
2.88810000 -1.06560000 -1.13130000
2.79800000 -1.05310000 -1.22010000
2.88820000 -1.03710000 -1.17160000
2.96990000 -0.99700000 -1.12290000
3.07660000 -1.00240000 -0.96040000
3.03640000 -1.03020000 -1.04020000
2.36700000 -0.42350000 -2.49990000
2.49340000 -0.42820000 -2.46290000
2.43170000 -0.44840000 -2.40140000
2.55470000 -0.40180000 -2.40200000
3.02500000 -0.97980000 -1.02410000
3.06730000 -0.93350000 -1.02130000
3.07000000 -0.91780000 -1.15000000
3.17710000 -1.15600000 -0.84340000
2.48590000 -0.40060000 -2.54520000
3.15530000 -1.09490000 -0.91790000
3.16680000 -1.10400000 -0.85310000
2.42050000 -0.36200000 -2.59940000
2.56900000 -0.37080000 -2.52700000
3.13120000 -1.03430000 -0.87560000
2.48910000 -0.29720000 -2.66010000
3.19360000 -0.98770000 -0.82230000
3.97520000 1.50610000 -1.38280000
3.12120000 -0.98980000 -0.88650000
2.34970000 -0.33210000 -2.63280000
3.51920000 0.28580000 -2.37460000
2.91820000 1.14150000 -2.97820000
3.14360000 -0.91860000 -0.94060000
3.27660000 -0.87790000 -0.76990000
3.66390000 0.50630000 -2.35940000
3.16170000 1.19020000 -2.73090000
2.65070000 -0.31710000 -2.43140000
3.15010000 -0.85390000 -1.02700000
3.16240000 -0.72840000 -1.03960000
2.73110000 -0.20940000 -2.55760000
2.59330000 -0.24130000 -2.65540000
4.55760000 1.05090000 -0.53330000
2.91200000 -1.01170000 -1.28700000
2.98750000 -0.97510000 -1.26250000
3.05660000 1.39140000 -2.85790000
2.98310000 -0.94430000 -1.34470000
2.89110000 -0.98630000 -1.36920000
2.91480000 -0.87220000 -1.49630000
2.73710000 -0.99770000 -1.37370000
2.79410000 -0.89980000 -1.51670000
4.47990000 1.36520000 -0.84900000
4.53450000 1.22370000 -0.50030000
4.53060000 1.34180000 -0.43000000
3.01570000 -0.86040000 -1.36630000
3.08050000 -0.82960000 -1.22570000
4.53290000 1.43540000 -0.54250000
3.34850000 1.47390000 -2.51070000
4.51210000 1.30850000 -1.09610000
4.49330000 1.30770000 -1.20020000
4.49290000 1.36240000 -1.21720000
4.48280000 1.43800000 -0.97570000
4.50030000 1.35630000 -1.01730000
4.51100000 1.42430000 -1.06290000
4.51250000 1.41440000 -1.14900000
4.45660000 1.45560000 -1.23110000
4.47720000 1.48480000 -1.15230000
4.49690000 1.50850000 -0.89900000
3.97810000 1.03330000 -2.22790000
3.96770000 0.84460000 -2.02410000
2.79940000 -0.01750000 -1.49500000
3.06650000 -0.06420000 -2.48450000
2.23030000 -0.49830000 -1.10600000
2.29740000 -0.55940000 -1.19280000
3.95540000 1.11690000 -2.32690000
4.60170000 1.59410000 -0.65970000
4.60640000 1.53750000 -0.36200000
4.56830000 1.48210000 -0.33160000
4.54360000 1.56100000 -0.84170000
2.12690000 -0.48030000 -0.88700000
2.58080000 -1.11000000 -1.16990000
4.60770000 1.67880000 -0.59490000
4.64660000 1.62300000 -0.36210000
2.64960000 -1.07710000 -1.22080000
2.56920000 -1.02480000 -1.28890000
4.15080000 1.03930000 -1.90310000
3.42180000 0.04050000 -2.18920000
4.53020000 1.65540000 -1.03280000
4.00310000 1.20410000 -2.21580000
4.13330000 1.12200000 -1.97290000
4.21550000 1.22720000 -1.72780000
4.50490000 1.73980000 -0.94630000
2.44230000 -0.90990000 -1.22530000
2.38200000 -0.69610000 -1.02000000
3.97780000 1.27830000 -2.29860000
3.90510000 1.23050000 -2.44060000
3.35250000 0.14350000 -2.45260000
4.47940000 1.52590000 -1.10710000
4.49140000 1.58340000 -1.13420000
4.02620000 1.40860000 -2.11740000
4.42360000 1.61530000 -1.39310000
4.26990000 1.79420000 -1.49700000
3.98580000 1.32500000 -2.35430000
4.39110000 1.75770000 -1.33150000
3.93540000 1.29930000 -2.45080000
3.97900000 1.36380000 -2.41420000
2.95630000 0.18730000 -2.17630000
3.98890000 1.40870000 -2.23020000
3.99270000 1.39410000 -2.29640000
4.46340000 1.70900000 -1.22640000
2.52680000 0.07670000 -2.39890000
3.97840000 1.48350000 -2.30850000
3.98290000 1.45880000 -2.36730000
2.73340000 0.19310000 -2.47080000
3.05920000 0.31980000 -2.27550000
3.73360000 1.31910000 -2.61340000
3.82880000 1.29280000 -2.53200000
3.31690000 -0.31500000 -1.46180000
3.39190000 -0.21300000 -1.50730000
3.79490000 1.43680000 -2.55130000
4.41880000 1.41570000 -1.28290000
4.37140000 1.48560000 -1.34650000
4.17070000 1.36160000 -1.79540000
2.50470000 -0.97490000 -1.29780000
2.62620000 -0.94920000 -1.48870000
3.79300000 -0.00820000 -1.31140000
3.65840000 -0.14650000 -1.15740000
3.60810000 -0.08900000 -1.50100000
4.19380000 1.48190000 -1.77610000
3.89090000 1.34710000 -2.51900000
3.95640000 1.41760000 -2.45360000
3.63050000 0.00890000 -1.73740000
2.55080000 -0.94040000 -1.49380000
3.85710000 1.39350000 -2.53890000
3.90100000 1.43800000 -2.51310000
3.90990000 1.51280000 -2.45860000
3.74810000 0.11480000 -1.72040000
2.34490000 -0.83920000 -1.63170000
2.46050000 -0.92430000 -1.43330000
2.32570000 -0.79930000 -1.51340000
2.27390000 0.13550000 -2.82510000
2.45570000 -0.84600000 -1.83860000
2.46600000 -0.89240000 -1.69450000
2.42400000 0.22560000 -2.85160000
2.59070000 -0.88340000 -1.72690000
3.58800000 1.44000000 -2.16770000
2.82170000 -0.82960000 -1.62910000
2.72060000 -0.87730000 -1.63360000
3.73810000 0.31820000 -2.05000000
3.88820000 0.23360000 -1.63000000
3.78710000 1.24090000 -1.80020000
3.80120000 1.45370000 -1.78940000
2.68620000 -0.81600000 -1.82470000
2.78080000 -0.83890000 -1.70550000
4.00820000 1.56330000 -2.22310000
2.33380000 -0.71670000 -1.35640000
3.40160000 0.17440000 -1.31030000
3.44880000 1.42230000 -2.95660000
4.36270000 1.54450000 -1.42920000
3.55750000 0.26090000 -1.23380000
3.34490000 0.27530000 -1.74740000
3.71240000 1.48120000 -2.62910000
3.66490000 0.37060000 -1.22250000
3.71780000 1.56090000 -2.65390000
3.40120000 1.52640000 -3.02870000
2.21440000 -0.55060000 -1.52790000
3.84420000 1.49240000 -2.51940000
2.26560000 -0.77570000 -1.70810000
3.93850000 1.57810000 -2.38810000
4.16940000 1.54560000 -1.88500000
4.25950000 1.59470000 -1.78310000
3.83920000 1.56310000 -2.50970000
2.77750000 0.34540000 -2.65490000
4.03150000 1.63050000 -2.25530000
3.52830000 0.49620000 -1.75060000
3.64710000 0.46480000 -1.44090000
4.23330000 1.66600000 -1.89370000
4.35830000 1.67380000 -1.59760000
3.65710000 1.62680000 -2.80980000
3.83870000 1.64640000 -2.56940000
4.31610000 1.73660000 -1.63570000
3.35450000 0.38620000 -1.92340000
3.74770000 1.70860000 -2.70370000
4.00950000 1.71890000 -2.29260000
4.16950000 1.77300000 -1.88920000
4.09220000 1.74510000 -2.11480000
3.69980000 1.75320000 -2.73310000
4.15140000 1.80250000 -1.66390000
3.02100000 0.89390000 -3.30290000
3.95640000 0.16080000 -1.30650000
4.13180000 0.40050000 -1.24450000
3.07130000 -0.62150000 -1.27840000
3.21880000 -0.51370000 -0.80090000
4.08880000 0.19360000 -0.91520000
3.24580000 1.11220000 -3.24880000
3.75600000 0.73430000 -1.54530000
3.10290000 -0.49460000 -1.23660000
3.23180000 -0.40780000 -0.86190000
3.00430000 0.99110000 -3.38370000
3.06240000 1.06260000 -3.41070000
3.16450000 -0.39330000 -1.13970000
3.00730000 -0.62010000 -1.45190000
4.11550000 1.65740000 -0.93870000
4.11070000 1.72840000 -1.08620000
4.18480000 1.70070000 -0.69420000
3.99620000 1.67460000 -1.35450000
3.98760000 0.41630000 -1.66090000
3.22990000 -0.41430000 -1.44120000
3.15300000 -0.43800000 -1.49320000
4.20860000 1.65120000 -0.46240000
3.73640000 0.89860000 -1.74030000
3.18520000 1.33750000 -3.26030000
3.05990000 -0.51160000 -1.39600000
3.11470000 -0.44690000 -1.33120000
3.07270000 -0.47100000 -1.44040000
3.14500000 -0.44180000 -1.39090000
3.20730000 -0.36410000 -1.26140000
4.22100000 1.74680000 -0.74330000
4.25800000 1.72890000 -0.35630000
3.19600000 0.42100000 -2.21670000
4.29030000 1.78510000 -0.88950000
4.30640000 1.77320000 -0.36440000
3.28010000 -0.35100000 -1.37440000
3.54970000 0.75750000 -1.99100000
3.29900000 -0.73410000 -0.63100000
4.27550000 0.63960000 -1.07600000
4.18310000 0.63300000 -1.38780000
4.12140000 1.77780000 -1.30700000
3.07390000 1.21840000 -3.42310000
3.33760000 -0.61390000 -0.41530000
4.08920000 0.69610000 -1.67270000
3.11020000 1.36170000 -3.35040000
3.06910000 1.31910000 -3.45040000
3.01030000 1.26150000 -3.51090000
3.08630000 1.43410000 -3.42460000
3.34180000 -0.54160000 -0.37670000
3.05630000 1.53290000 -3.44900000
3.95010000 1.75250000 -1.60890000
3.13780000 1.53500000 -3.32150000
3.39200000 -0.44030000 -0.24100000
3.36840000 -0.47090000 -0.33410000
3.84880000 1.70480000 -1.71840000
3.06300000 1.44200000 -3.50270000
3.42820000 -0.43710000 -0.34960000
3.45160000 -0.40630000 -0.21780000
3.02370000 1.35270000 -3.55130000
3.32950000 -0.45720000 -0.48240000
3.66100000 1.03200000 -1.97420000
3.42310000 -0.39360000 -0.45270000
3.47730000 -0.39100000 -0.42630000
3.37780000 -0.36500000 -0.56910000
2.19230000 -0.51280000 -1.44380000
3.53720000 -0.35820000 -0.23320000
3.50990000 -0.39840000 -0.36150000
3.80640000 1.64120000 -1.76540000
3.63610000 -0.28200000 -0.30260000
3.58960000 -0.31050000 -0.40010000
3.74470000 1.77680000 -2.11550000
3.61460000 1.73030000 -2.18090000
3.23430000 -0.59530000 -0.74290000
3.41510000 1.58870000 -3.06320000
3.30030000 -0.38880000 -0.65360000
3.26740000 -0.35690000 -0.92080000
3.38960000 1.65330000 -3.15310000
3.42060000 1.69850000 -3.12220000
3.57840000 -0.28330000 -0.50210000
3.43330000 -0.29870000 -0.86960000
3.93820000 1.78990000 -2.27860000
3.58610000 1.78510000 -2.83590000
3.61140000 -0.22720000 -0.81340000
2.46350000 0.31160000 -2.93200000
3.64360000 -0.26060000 -0.16880000
3.77840000 -0.17210000 -0.37910000
2.50080000 0.43210000 -3.00970000
3.97910000 -0.05670000 -0.10430000
3.90520000 0.52270000 -1.94950000
3.07340000 1.61290000 -2.83450000
3.35600000 1.66960000 -2.51280000
3.04670000 1.68040000 -2.88010000
3.14360000 1.72600000 -2.81570000
3.58190000 1.65560000 -2.17400000
3.87910000 -0.08740000 -0.61660000
4.08710000 0.08270000 -0.47960000
2.38280000 0.67630000 -3.27200000
2.66940000 0.68780000 -3.03760000
4.22630000 0.94430000 -1.52700000
4.11620000 0.07100000 -0.01230000
3.37500000 0.08980000 -0.87530000
3.92360000 0.42280000 -0.03370000
3.72560000 0.23820000 -0.41990000
2.78690000 0.57130000 -2.85530000
4.05350000 0.65920000 0.05860000
3.79130000 0.32050000 -0.58040000
3.37470000 1.75680000 -2.60420000
3.88860000 0.43360000 -0.48970000
4.10550000 0.97670000 -1.86850000
3.29470000 -0.31040000 -1.20520000
3.45450000 1.79420000 -2.69020000
4.15980000 0.13960000 -0.24620000
3.87250000 1.80620000 -2.24710000
4.25290000 0.32800000 -0.54250000
4.29230000 0.32690000 -0.05640000
3.53680000 1.80800000 -2.77580000
3.34640000 -0.28110000 -1.34100000
2.49520000 0.89130000 -3.28200000
3.46250000 -0.22120000 -1.29230000
2.76830000 1.36500000 -3.13400000
4.15250000 0.91200000 0.19130000
4.16110000 0.96120000 -0.19880000
4.39220000 0.54430000 -0.02540000
2.81970000 1.01230000 -3.04340000
4.36360000 0.50560000 -0.34380000
4.52870000 0.95110000 0.39720000
2.74140000 1.63660000 -3.16260000
2.30790000 0.52680000 -3.76330000
4.59750000 1.07200000 0.38870000
4.59380000 1.03180000 0.22720000
4.56360000 1.14430000 0.56470000
4.60720000 1.20020000 0.42990000
2.97180000 1.76030000 -3.07920000
4.50930000 0.91670000 -0.01180000
4.47640000 0.89660000 -0.35600000
4.54830000 0.98130000 -0.27910000
4.57780000 0.99940000 -0.03060000
2.50990000 0.66140000 -3.66660000
2.76890000 0.59140000 -3.43920000
3.65250000 0.24700000 -0.85340000
4.29720000 0.47330000 -0.71440000
4.59870000 1.06460000 -0.05500000
2.99630000 1.56440000 -3.51460000
3.02430000 1.60300000 -3.48350000
2.26320000 0.70050000 -3.86920000
4.62180000 1.17800000 0.32540000
3.17010000 1.61900000 -3.36130000
3.12910000 1.67200000 -3.41890000
4.60170000 1.17840000 0.18530000
4.62420000 1.24360000 0.22440000
4.58030000 1.16880000 -0.11450000
3.94310000 -0.00130000 -0.81310000
3.13950000 1.75280000 -3.37740000
4.41660000 0.69720000 -0.42030000
3.37270000 1.76490000 -3.12840000
4.19420000 1.11640000 0.35210000
2.26920000 0.81450000 -3.87820000
4.38100000 0.73070000 -0.72200000
4.57390000 1.22870000 0.50760000
3.18400000 1.80270000 -3.23260000
4.21350000 1.18680000 -0.06030000
4.44120000 0.94230000 -0.76830000
4.22140000 1.36250000 0.23650000
2.47290000 0.93920000 -3.77740000
4.64160000 1.25980000 0.40700000
4.66740000 1.27990000 0.31370000
4.60140000 1.34510000 0.16620000
2.41820000 1.77540000 -3.72590000
2.78770000 1.79300000 -3.59030000
4.30550000 0.86920000 -1.18090000
4.39420000 0.97390000 -1.09560000
4.13090000 0.95980000 -0.50010000
4.05580000 0.79040000 -0.61740000
2.49600000 -0.78760000 -1.95270000
2.49540000 -0.72580000 -2.07270000
2.46730000 1.10240000 -3.36190000
2.72280000 0.96950000 -3.60780000
4.17890000 1.15590000 -0.44880000
2.47870000 1.02040000 -3.84540000
2.83220000 1.06350000 -3.61410000
2.33240000 1.05660000 -3.97420000
2.64540000 1.10120000 -3.76950000
2.95620000 1.15450000 -3.53920000
2.29660000 1.10550000 -4.00350000
2.37000000 1.20760000 -3.93790000
2.62950000 1.27150000 -3.74600000
2.72580000 1.41490000 -3.66380000
2.83640000 1.26870000 -3.61830000
2.84740000 1.47410000 -3.61030000
2.88690000 1.40620000 -3.62030000
2.92630000 1.27750000 -3.58370000
2.95800000 1.38900000 -3.60490000
2.99610000 1.48580000 -3.56230000
1.70910000 -0.17320000 -0.70960000
1.92380000 -0.15120000 -0.64900000
2.09040000 1.01720000 -3.60540000
2.01850000 1.26990000 -4.12340000
2.45380000 1.40120000 -3.85190000
2.19940000 1.38880000 -4.01100000
2.19040000 1.26980000 -3.57270000
4.23420000 1.60540000 0.08840000
1.98360000 1.33100000 -3.70130000
4.21360000 1.52040000 -0.36110000
4.56170000 1.33980000 -0.00240000
4.59910000 1.47690000 0.15740000
2.09140000 1.59480000 -3.63840000
1.89840000 1.35080000 -4.18600000
4.60300000 1.51340000 -0.01230000
1.84070000 1.46410000 -4.25120000
1.97640000 1.44900000 -4.13720000
1.89540000 1.53240000 -4.20240000
2.04610000 -0.14970000 -0.41460000
2.26590000 1.52050000 -3.98850000
1.77970000 1.52460000 -4.28430000
1.83930000 1.60980000 -4.27510000
2.16180000 1.58580000 -4.08970000
2.49840000 1.34630000 -3.35710000
1.81470000 1.69980000 -4.29170000
2.18900000 1.65560000 -4.11430000
4.64480000 1.56860000 -0.19400000
2.47750000 1.61700000 -3.91940000
4.19300000 1.62900000 0.62590000
2.22840000 1.71320000 -4.07950000
2.46240000 1.58750000 -3.38950000
2.09810000 1.67010000 -3.64740000
4.23510000 1.70760000 0.50310000
4.30550000 1.75210000 0.19000000
4.25960000 1.71260000 0.08740000
2.67290000 1.54890000 -3.72510000
2.93820000 1.48380000 -3.59600000
2.90530000 1.56580000 -3.57900000
4.24330000 1.67640000 -0.16030000
2.76120000 1.63690000 -3.72760000
2.86160000 1.69930000 -3.65370000
2.48580000 1.68470000 -3.93390000
4.58030000 1.38820000 0.50870000
4.61030000 1.32270000 0.47990000
2.63550000 1.73830000 -3.80840000
2.13430000 1.77640000 -4.01550000
4.53200000 1.40800000 0.63420000
2.32290000 1.76820000 -3.97010000
2.81690000 1.77490000 -3.63220000
4.66980000 1.32620000 0.39560000
4.67820000 1.36080000 0.33830000
4.63950000 1.42420000 0.42310000
4.65680000 1.34360000 0.24850000
4.64010000 1.46500000 0.31100000
4.61810000 1.42900000 0.22260000
4.61620000 1.48620000 0.42090000
4.57030000 1.50260000 0.58180000
4.63250000 1.54660000 0.38300000
4.65550000 1.57990000 0.11680000
4.63400000 1.60920000 0.49420000
4.61580000 1.56450000 0.60490000
1.81160000 1.64350000 -3.79720000
1.90010000 1.75540000 -4.20790000
-2.41940000 -1.50970000 2.14100000
-2.37140000 -1.54000000 2.13140000
-2.36150000 -1.56170000 2.22470000
-2.43940000 -1.45860000 2.08060000
-2.44190000 -1.43990000 2.23530000
-2.49270000 -1.40390000 2.11380000
-2.36370000 -1.48570000 2.06800000
-4.02290000 -0.14000000 0.20470000
-3.88700000 -0.24340000 0.33380000
-3.94000000 -0.17360000 0.61740000
-2.43940000 -1.31020000 1.97640000
-2.50020000 -1.33320000 2.04540000
-2.55390000 -1.26200000 2.21250000
-2.55780000 -1.23300000 2.10990000
-3.07210000 1.63270000 3.56620000
-2.86390000 1.56230000 3.72400000
-2.62220000 1.62550000 3.90760000
-1.26910000 -0.60460000 2.33510000
-0.60110000 -0.59940000 2.68950000
-1.03470000 -0.62920000 2.51460000
-2.50140000 -1.22250000 1.94650000
-2.56200000 -1.18180000 2.00890000
-2.94690000 1.72380000 3.63050000
-4.12220000 -0.03760000 0.42490000
-2.59120000 -1.13150000 1.86270000
-2.56240000 -1.06500000 1.71860000
-4.25770000 0.11190000 0.19740000
-4.16910000 0.05270000 0.66930000
-2.72940000 -1.02210000 1.82420000
-2.68280000 -1.04300000 2.02060000
-2.61080000 -1.09330000 2.08720000
-1.20850000 -0.68220000 2.47220000
-2.90370000 1.45890000 3.29530000
-2.94460000 1.19440000 3.24830000
-3.20880000 1.30870000 3.00330000
-1.65870000 0.13750000 3.24830000
-1.45440000 0.14420000 3.37090000
-1.42800000 0.10020000 3.23600000
-1.54240000 0.08600000 3.13770000
-2.83050000 -0.90350000 1.97940000
-2.79250000 -0.95700000 1.90770000
-1.00560000 -0.58350000 2.41800000
-2.75140000 -0.95220000 2.12550000
-3.74650000 0.22580000 0.74860000
-3.64720000 0.13300000 0.50170000
-3.71940000 0.15780000 0.11230000
-2.19750000 0.43020000 3.41150000
-1.97480000 0.31640000 3.41640000
-2.52340000 0.32900000 3.05240000
-2.87990000 -0.85790000 1.78340000
-2.75570000 -0.97850000 1.66490000
-2.68930000 -0.98260000 1.60940000
-2.77800000 -0.90790000 1.40600000
-2.59770000 -0.95870000 1.58130000
-2.45920000 -1.08960000 1.77380000
-3.18170000 1.55940000 3.02000000
-2.79890000 1.64790000 3.36940000
-2.72680000 -0.84820000 1.33300000
-2.55300000 -0.86560000 1.51240000
-2.85440000 -0.93310000 1.56140000
-3.04300000 1.72420000 3.16230000
-2.88870000 -0.89490000 1.66570000
-2.90540000 -0.89670000 1.38260000
-4.28760000 0.21530000 0.62930000
-4.20620000 0.21400000 1.06360000
-2.69350000 0.51370000 3.11460000
-2.32340000 0.54550000 3.42920000
-2.81410000 -0.84760000 2.09350000
-2.92700000 -0.74460000 1.90300000
-3.91610000 0.36830000 0.71440000
-3.83590000 0.38600000 1.10950000
-2.83880000 1.80500000 3.45820000
-2.66590000 1.78380000 3.55640000
-2.91920000 -0.78880000 1.85790000
-1.81960000 -0.52240000 0.60900000
-2.80220000 -0.72620000 2.11890000
-2.71750000 0.73400000 3.26810000
-3.03680000 -0.78310000 1.62120000
-3.05150000 -0.70720000 1.67830000
-4.05080000 0.59350000 0.87370000
-2.42210000 0.77130000 3.51780000
-2.67570000 1.72720000 3.48970000
-2.78010000 0.92150000 3.32120000
-1.02840000 -0.56850000 2.25530000
-1.19690000 -0.52930000 1.40570000
-3.22730000 1.74950000 2.98640000
-1.64240000 -0.55400000 1.68510000
-3.02530000 -0.84490000 1.34240000
-2.99830000 -0.85350000 1.54900000
-2.00370000 0.62740000 3.69270000
-3.14250000 1.56820000 3.49630000
-3.32680000 1.57980000 3.32570000
-3.11440000 -0.78620000 1.37000000
-4.42430000 0.40930000 0.32350000
-3.21390000 -0.70080000 1.31480000
-3.87280000 0.27420000 0.23020000
-2.83680000 1.79480000 3.69310000
-3.06290000 1.79080000 3.51500000
-4.02050000 0.41810000 0.07760000
-3.07040000 1.82220000 3.45450000
-2.63590000 1.82160000 3.73740000
-4.01570000 0.44320000 0.47850000
-3.09040000 -0.58160000 1.66310000
-3.12600000 -0.77840000 1.05080000
-3.31060000 -0.74720000 0.70000000
-3.19510000 -0.75710000 0.74440000
-3.22750000 -0.74710000 1.03790000
-3.36360000 -0.69890000 0.84250000
-1.64550000 -0.65050000 2.16990000
-3.36840000 -0.72360000 0.69590000
-3.35650000 1.64400000 3.30090000
-3.21210000 1.72430000 3.40040000
-3.42740000 1.73050000 3.17090000
-3.23030000 -0.52970000 1.48710000
-3.15260000 -0.50210000 1.62950000
-3.22940000 -0.49090000 1.57590000
-3.30390000 -0.48000000 1.50530000
-3.26620000 -0.39660000 1.70250000
-3.30120000 -0.43530000 1.65360000
-3.34750000 -0.44790000 1.59740000
-1.75210000 -0.57020000 1.88070000
-2.96960000 -0.80260000 1.11640000
-3.43510000 0.04350000 0.58740000
-2.84840000 -0.73520000 1.03000000
-3.48460000 0.09700000 0.94830000
-2.83990000 -0.55870000 2.05530000
-3.22220000 1.79310000 3.05040000
-3.57500000 0.21050000 1.27770000
-2.89420000 -0.44410000 2.01450000
-2.71830000 -0.73970000 1.19630000
-2.42840000 -0.76680000 1.56490000
-3.37190000 1.80800000 3.18950000
-3.11790000 -0.41270000 1.76090000
-2.93080000 -0.39150000 2.06210000
-3.18760000 -0.35910000 1.81860000
-2.59840000 -0.62420000 1.20030000
-2.34000000 -0.64710000 1.54860000
-3.38940000 1.83580000 3.07040000
-3.29760000 -0.17530000 2.23990000
-3.33910000 -0.28730000 1.83860000
-3.09770000 -0.30550000 2.14980000
-3.38040000 -0.34800000 1.70780000
-3.44170000 -0.35090000 1.62220000
-3.41080000 -0.41500000 1.52470000
-3.61320000 -0.40140000 -0.62850000
-3.57880000 -0.39370000 -0.48620000
-3.72800000 -0.31810000 -0.59810000
-3.62320000 -0.36870000 -0.36720000
-3.53580000 -0.29420000 1.47210000
-3.51260000 -0.25280000 1.67780000
-3.52430000 -0.14880000 1.93320000
-3.29450000 1.81810000 3.03160000
-3.76790000 -0.30830000 -0.19860000
-2.40050000 1.71010000 3.67900000
-2.45850000 1.42050000 3.63610000
-2.31470000 1.76990000 3.78070000
-3.02470000 -0.75950000 0.92040000
-4.01050000 -0.16030000 -0.11590000
-3.85750000 -0.26110000 0.13030000
-2.92760000 -0.71380000 0.88300000
-3.46620000 -0.00100000 2.35980000
-2.60770000 1.72250000 3.88000000
-3.09960000 -0.73240000 0.59560000
-2.97250000 -0.69220000 0.70230000
-2.81700000 -0.62760000 0.91560000
-3.91960000 -0.20170000 -0.54800000
-2.91680000 -0.63680000 0.71570000
-2.48670000 1.79050000 3.91720000
-2.54360000 -0.58880000 1.11460000
-4.02780000 -0.11670000 -0.57660000
-4.12910000 -0.04680000 -0.13910000
-2.82600000 -0.59280000 0.74640000
-3.68170000 -0.00660000 1.98770000
-2.31710000 1.80170000 3.83680000
-1.98590000 1.80790000 4.08750000
-3.07270000 -0.67570000 -0.01790000
-3.02300000 -0.67840000 0.38750000
-3.16890000 -0.72940000 0.07150000
-3.80940000 -0.05240000 1.59920000
-3.83400000 -0.13580000 1.26980000
-4.17870000 0.02580000 -0.37720000
-3.02840000 -0.62980000 0.08510000
-2.93140000 -0.60510000 0.38340000
-2.97280000 -0.59060000 0.00610000
-3.78830000 -0.28290000 -0.73640000
-3.72900000 -0.33710000 -0.80660000
-3.63800000 -0.43580000 -0.75390000
-3.59830000 -0.44690000 -0.69640000
-2.87800000 -0.56680000 -0.16660000
-3.42180000 -0.72570000 0.33370000
-3.37470000 -0.74720000 0.14880000
-3.45620000 -0.68980000 0.30230000
-3.42560000 -0.59160000 0.73460000
-3.51220000 -0.57550000 0.41130000
-3.74130000 -0.27850000 -0.93870000
-3.65750000 -0.37630000 -0.88690000
-3.25600000 -0.74930000 -0.18880000
-1.83040000 1.79840000 4.11060000
-2.09190000 1.78750000 4.12120000
-1.56490000 -0.16530000 -0.06320000
-3.89490000 -0.15620000 -1.01630000
-3.75620000 0.11410000 2.04780000
-3.62050000 -0.31660000 -1.05230000
-3.50210000 -0.40750000 -0.98070000
-3.62700000 -0.23540000 -1.46940000
-3.48010000 -0.32450000 -1.40040000
-3.64990000 0.22040000 2.37750000
-1.90620000 -0.60700000 2.97810000
-1.75440000 -0.68200000 3.10330000
-1.59950000 -0.55180000 3.17000000
-2.00740000 -0.49080000 2.87670000
-1.70720000 -0.48140000 3.10490000
-1.78100000 -0.41860000 3.08380000
-1.63010000 -0.47540000 3.19980000
-3.87810000 0.27580000 2.04550000
-3.44860000 -0.69810000 -0.11530000
-2.17590000 -0.45120000 2.76360000
-1.90290000 -0.35930000 3.09820000
-2.14530000 -0.39660000 2.82780000
-1.78250000 -0.38310000 3.14080000
-3.93310000 0.11180000 1.67030000
-1.72790000 -0.37110000 3.29130000
-3.34090000 -0.74130000 -0.36390000
-3.35540000 1.63900000 2.81550000
-1.33320000 0.02650000 3.02020000
-3.50340000 -0.60940000 0.20400000
-1.58060000 -0.00360000 2.77150000
-1.39460000 -0.03330000 2.70700000
-4.13240000 0.03100000 -0.79540000
-1.87870000 -1.74390000 3.15780000
-2.03010000 -1.78930000 3.02960000
-1.97460000 -1.71230000 3.12420000
-1.73620000 0.04650000 2.89090000
-3.94240000 -0.01900000 -1.39340000
-2.04510000 -1.82490000 2.90120000
-1.66800000 0.11050000 3.13270000
-2.14800000 -1.76770000 2.89670000
-2.07190000 -1.69970000 3.04980000
-4.06000000 1.61370000 2.36840000
-3.87770000 1.61800000 2.66880000
-3.86940000 1.67350000 2.65800000
-2.12500000 -1.81460000 2.82660000
-4.10040000 0.09760000 -1.19550000
-4.27560000 0.30120000 -0.99770000
-4.00160000 1.72120000 2.39880000
-3.70050000 1.74750000 2.82610000
-4.18660000 1.64320000 2.12220000
-2.15100000 -1.67220000 2.95840000
-2.20830000 -1.66690000 2.83630000
-2.06130000 -1.54500000 3.06570000
-2.12480000 -1.53370000 2.98320000
-2.18980000 -1.55510000 2.87120000
-1.97280000 -1.55500000 3.14650000
-3.85030000 1.81070000 2.58800000
-4.04710000 1.81090000 2.26850000
-2.16410000 -1.80590000 2.64480000
-2.17680000 -1.79460000 2.71090000
-2.20710000 -1.74630000 2.76460000
-3.91750000 1.84390000 2.39520000
-2.14880000 -1.77250000 2.49220000
-2.20400000 -1.75320000 2.50760000
-2.26410000 -1.68120000 2.45230000
-2.27090000 -1.59030000 2.63400000
-2.26960000 -1.65230000 2.58050000
-3.59520000 1.80260000 2.93410000
-0.90330000 0.03930000 3.27510000
-0.90160000 -0.01140000 3.03170000
-3.73400000 1.83200000 2.71530000
-2.79930000 -0.57420000 0.39340000
-2.24640000 -1.55410000 2.73160000
-0.78580000 -0.07080000 2.59740000
-2.35330000 -0.53150000 -0.40120000
-3.80510000 1.84040000 2.39360000
-4.38960000 0.32150000 -0.05580000
-2.13290000 -1.44250000 2.88150000
-2.01070000 -1.39170000 2.99710000
-2.10560000 -1.33500000 2.87180000
-2.20730000 -1.38500000 2.74880000
-4.31300000 0.22560000 -0.46580000
-2.23060000 -1.11600000 2.83000000
-2.35150000 -1.09560000 2.69880000
-2.19820000 -1.28850000 2.78280000
-1.95750000 -1.25930000 3.00520000
-1.97710000 -1.11270000 3.03770000
-1.14840000 0.10750000 3.40640000
-1.30310000 0.18900000 3.54850000
-2.39850000 -0.55930000 0.74030000
-2.94580000 -0.61630000 0.52670000
-1.83060000 -1.64520000 3.21250000
-1.73030000 -1.65720000 3.23650000
-4.42670000 0.39060000 -0.37800000
-1.68310000 -1.58570000 3.24710000
-4.05730000 0.12450000 1.36790000
-4.18020000 0.35000000 1.42920000
-1.76900000 -1.54850000 3.22810000
-1.67330000 -1.47150000 3.20160000
-0.55820000 0.09110000 3.55110000
-4.28130000 0.37060000 1.12460000
-1.87480000 -1.54310000 3.19400000
-4.05680000 0.28760000 1.66350000
-1.93530000 -1.45990000 3.11120000
-0.81280000 0.18570000 3.70050000
-3.11430000 -0.75990000 -1.21050000
-2.99570000 -0.75660000 -1.21470000
-3.10150000 -0.72790000 -0.89020000
-1.78110000 -1.42130000 3.15570000
-1.89470000 -1.34160000 3.05980000
-2.94160000 -0.82380000 -1.44920000
-1.74610000 -1.33550000 3.13300000
-4.26680000 0.54620000 1.42070000
-1.57720000 -1.35510000 3.18170000
-4.38420000 0.55240000 0.99750000
-1.46500000 -1.38540000 3.17480000
-3.42290000 -0.69080000 -0.46450000
-3.36520000 -0.71220000 -0.69770000
-1.48400000 -1.13120000 3.25600000
-1.72360000 -1.23850000 3.15100000
-3.43080000 -0.60030000 -0.71220000
-3.49090000 -0.57090000 -0.21880000
-1.46100000 -1.26400000 3.20400000
-1.35890000 -1.31710000 3.13990000
-3.50300000 -0.48430000 -0.45020000
-3.50420000 -0.49710000 -0.64450000
-1.36220000 -1.20610000 3.18100000
-2.50400000 -0.12270000 -0.42570000
-4.35830000 0.30410000 -0.61070000
-4.44010000 0.49290000 -0.74190000
-4.47810000 0.52390000 -0.53090000
-1.52320000 -0.05460000 2.42840000
-3.20180000 -0.73670000 -0.92110000
-3.29350000 -0.72510000 -0.95470000
-4.42720000 0.79870000 1.05450000
-3.26960000 -0.70680000 -1.12690000
-1.97520000 -0.07260000 1.77750000
-3.30530000 -0.60380000 -1.11850000
-4.34020000 0.84760000 1.42420000
-3.10090000 -0.77750000 -1.37950000
-3.13110000 -0.66700000 -1.52150000
-4.39540000 0.56000000 -0.97110000
-1.58400000 -1.08290000 3.24590000
-1.74650000 -1.04530000 3.18470000
-3.39400000 -0.53270000 -0.94020000
-3.17800000 -0.54000000 -1.46020000
-4.05920000 0.43160000 1.85310000
-1.91620000 -0.90910000 3.08590000
-3.30470000 -0.43640000 -1.28030000
-4.12030000 0.69600000 -0.74700000
-3.93280000 0.44480000 -0.89550000
-3.98290000 0.60330000 -1.11230000
-1.60180000 -0.78460000 3.21190000
-1.48400000 -0.91650000 3.29440000
-4.20880000 0.63570000 1.66320000
-3.47450000 -0.50880000 -0.81260000
-3.56150000 -0.42820000 -0.10740000
-3.54830000 -0.49760000 0.14890000
-3.39310000 -0.45680000 -1.04150000
-3.52690000 -0.49200000 -0.74100000
-3.74530000 0.65220000 1.87570000
-3.60850000 0.45190000 1.84210000
-3.83300000 0.58880000 1.58720000
-3.68450000 -0.35240000 0.09260000
-3.61780000 -0.41900000 0.17530000
-2.03870000 -0.97450000 3.01190000
-2.29790000 -0.91320000 2.77800000
-3.57080000 -0.45540000 -0.84150000
-2.20040000 -0.76190000 2.82210000
-3.45360000 -0.38240000 -1.10220000
-1.87750000 -0.03240000 2.44070000
-3.28040000 -0.39000000 -1.48790000
-2.04210000 0.00230000 2.53230000
-3.93250000 0.82220000 1.67450000
-3.99770000 0.71120000 1.33450000
-1.31380000 -1.25610000 3.12680000
-1.21020000 -1.20420000 3.21750000
-1.18690000 -1.24650000 3.18350000
-1.25440000 -1.21130000 3.14080000
-1.26680000 -1.11370000 3.18140000
-1.21870000 -1.09440000 3.19170000
-1.20860000 -1.14650000 3.19750000
-1.17280000 -1.22850000 3.24240000
-3.32770000 -0.00950000 0.16170000
-3.11560000 -0.05580000 -0.13590000
-3.09640000 -0.04480000 -0.75960000
-1.17900000 -1.16180000 3.26800000
-1.10650000 -1.11500000 3.29620000
-1.13570000 -1.04970000 3.25460000
-3.85570000 0.49660000 1.34990000
-1.33660000 -1.06130000 3.27610000
-3.38770000 0.01410000 -0.39180000
-2.36140000 -0.10240000 0.63610000
-1.24920000 -1.04140000 3.24090000
-1.03190000 -1.08970000 3.29360000
-0.99800000 -1.01920000 3.26660000
-1.07780000 -1.02540000 3.26330000
-0.94070000 -0.99930000 3.28370000
-3.56540000 0.07710000 0.01940000
-1.02310000 -0.93570000 3.33610000
-0.90180000 -0.93720000 3.37710000
-1.09730000 -0.97280000 3.27280000
-1.13600000 -0.93680000 3.32850000
-1.05370000 -0.88860000 3.37450000
-0.81710000 -0.89400000 3.40550000
-0.83050000 -0.82340000 3.40410000
-1.32650000 -0.96580000 3.32490000
-2.54120000 -0.21660000 2.99460000
-2.11680000 -0.25900000 3.23490000
-2.21980000 -0.13610000 3.38660000
-1.27540000 -0.84760000 3.34630000
-3.59100000 0.10500000 -0.50410000
-3.76740000 0.21010000 -0.46760000
-2.53800000 -0.09030000 3.22340000
-2.27040000 0.04770000 3.56700000
-4.15590000 0.90860000 1.95460000
-4.08330000 0.65980000 1.97760000
-1.40430000 -0.66920000 3.25720000
-1.09360000 -0.73560000 3.34980000
-2.73060000 0.02620000 3.21930000
-3.01190000 0.15760000 3.09970000
-2.77330000 0.24060000 3.38080000
-3.01670000 0.31080000 3.22080000
-1.26740000 -0.60040000 3.26440000
-2.72070000 -0.75110000 -1.40550000
-2.92210000 -0.69970000 -1.09130000
-2.87100000 -0.75760000 -1.29020000
-0.85960000 -0.61310000 3.35160000
-2.54550000 0.12830000 3.46270000
-3.87550000 0.86200000 1.84820000
-2.97400000 -0.67460000 -0.84240000
-1.18040000 -0.50190000 3.27110000
-2.51980000 0.38910000 3.66140000
-2.83920000 -0.61760000 -1.09540000
-3.88590000 1.05170000 1.94050000
-3.77550000 0.87880000 2.04440000
-2.93930000 -0.61500000 -0.77280000
-2.79650000 -0.57570000 -1.04300000
-2.88190000 -0.57090000 -0.64480000
-4.02580000 1.04840000 1.61770000
-3.20630000 -0.02580000 0.61350000
-3.03330000 -0.05170000 0.35400000
-2.78850000 0.45630000 3.50540000
-2.67940000 -0.63930000 -1.35560000
-2.60330000 -0.57890000 -1.36030000
-4.15000000 0.89660000 1.07970000
-4.08770000 0.96070000 1.38500000
-2.82310000 -0.08940000 -0.05200000
-2.78510000 -0.02710000 1.42930000
-2.65960000 -0.00820000 1.79020000
-2.28430000 -0.02710000 2.01550000
-2.47810000 -0.54180000 -1.12590000
-1.93300000 -0.07380000 3.63100000
-1.83200000 -0.21650000 3.47000000
-1.59390000 -0.17830000 3.64930000
-0.91770000 -0.47900000 3.34040000
-0.39750000 -0.60520000 3.43100000
-0.59760000 -0.50390000 3.42450000
-1.62450000 -0.01020000 3.85350000
-0.42350000 -0.55080000 3.45130000
-0.45780000 -0.50390000 3.51070000
-0.37410000 -0.51690000 3.48360000
-0.56770000 -0.46310000 3.47450000
-2.63110000 -0.06350000 1.11150000
-1.91670000 0.13770000 3.84600000
-2.57890000 -0.56110000 -1.28980000
-2.96200000 -0.02650000 1.13150000
-3.26870000 0.01420000 -1.03360000
-4.39290000 0.44820000 0.75860000
-0.83580000 -0.41820000 3.40040000
-0.54160000 -0.44230000 3.58390000
-0.68880000 -0.38410000 3.51520000
-0.62070000 -0.36850000 3.61260000
-0.94880000 -0.35150000 3.52720000
-0.71200000 -0.26110000 3.76670000
-3.47780000 0.09110000 -0.96640000
-3.01460000 0.02730000 1.59280000
-3.02180000 -0.01090000 1.28390000
-3.21080000 0.15210000 1.82960000
-2.86410000 0.06440000 2.02090000
-2.21380000 0.29740000 3.79950000
-1.54100000 -0.61700000 3.19890000
-1.39100000 -0.55240000 3.24120000
-1.44010000 -0.51280000 3.24860000
-1.55890000 -0.49710000 3.23870000
-1.50240000 -0.49050000 3.27520000
-1.59710000 -0.44100000 3.34400000
-1.66080000 -0.43570000 3.28130000
-1.28530000 -0.46000000 3.27290000
-1.15000000 -0.41810000 3.31150000
-1.38950000 -0.41320000 3.35610000
-1.27340000 -0.39460000 3.34210000
-1.46770000 -0.42630000 3.37000000
-1.55160000 -0.38870000 3.41260000
-4.48670000 0.65810000 0.55320000
-1.28540000 -0.34340000 3.44980000
-3.72260000 0.24020000 -0.95070000
-1.33120000 -0.14560000 3.80840000
-1.66170000 -0.31810000 3.42950000
-1.28290000 -0.03410000 3.95470000
-1.36040000 0.09790000 4.03860000
-4.52530000 0.70050000 0.10020000
-1.65200000 0.19960000 4.01230000
-4.12340000 0.59250000 0.35580000
-2.16190000 -0.34020000 2.99060000
-1.78760000 -0.30880000 3.33840000
-3.39800000 0.13390000 1.39400000
-1.59820000 -0.26990000 3.50520000
-1.45010000 -0.30120000 3.50970000
-4.19830000 0.79880000 0.64280000
-3.77260000 0.43370000 2.39790000
-1.15620000 -0.27520000 3.64110000
-3.92700000 0.32560000 -0.20290000
-1.22810000 0.22050000 4.16600000
-3.96980000 0.48890000 2.09800000
-1.45790000 0.36250000 4.17720000
-1.22080000 0.43160000 4.27540000
-4.20650000 0.73390000 0.12860000
-3.90670000 0.63290000 2.30760000
-1.63810000 0.25690000 3.52400000
-4.47340000 0.75860000 0.79050000
-1.31370000 0.39910000 3.83530000
-1.01740000 0.34040000 3.86750000
-1.29490000 0.27220000 3.69700000
-3.14020000 -0.71210000 -0.37010000
-1.90800000 0.37610000 4.00940000
-3.03730000 -0.65340000 -0.42890000
-3.01100000 -0.60750000 -0.25390000
-1.76850000 0.45310000 4.10220000
-4.07930000 0.50730000 -0.13620000
-1.59010000 0.60270000 4.21520000
-4.00600000 0.84970000 2.21040000
-4.52370000 0.92230000 0.76250000
-4.57250000 0.90950000 0.23320000
-4.15000000 0.63690000 -0.30470000
-3.84470000 0.90010000 2.51260000
-4.03750000 0.96950000 2.27930000
-3.91150000 0.35930000 -0.64250000
-1.63200000 0.38770000 3.69600000
-4.25110000 1.01560000 1.90540000
-4.26270000 0.93690000 1.74460000
-4.10390000 1.04030000 2.22310000
-1.61190000 0.55590000 3.83580000
-4.03030000 0.48540000 -0.51290000
-0.98570000 -0.13540000 3.92220000
-0.86090000 -0.03750000 4.05460000
-4.26670000 1.00070000 0.65930000
-4.26910000 0.91490000 0.41180000
-4.16460000 1.09180000 2.09630000
-4.16050000 1.18900000 1.99320000
-4.35300000 1.13910000 1.57760000
-3.10820000 0.57880000 3.28590000
-2.90400000 0.67870000 3.50490000
-1.20530000 0.51160000 3.95380000
-2.96120000 -0.59300000 -0.51330000
-2.96200000 0.87720000 3.52350000
-2.60070000 0.69570000 3.73690000
-2.66250000 0.87440000 3.74960000
-2.29540000 0.53190000 3.87570000
-4.21300000 0.84560000 -0.57860000
-2.92900000 0.94800000 3.60940000
-2.43220000 0.89950000 3.91720000
-2.68290000 0.97280000 3.82250000
-2.24860000 -1.64840000 2.26250000
-2.14370000 -1.70270000 2.32690000
-2.25050000 -1.67250000 2.33270000
-2.17960000 0.69320000 3.98660000
-2.55080000 1.05410000 3.93580000
-2.35220000 0.97690000 4.03550000
-2.22150000 -1.58770000 2.17550000
-2.31030000 -1.59340000 2.39260000
-2.31720000 -1.48860000 2.44220000
-2.82860000 1.10970000 3.71720000
-3.02080000 1.03210000 3.58810000
-2.78360000 1.04960000 3.77550000
-4.16320000 1.09910000 1.24860000
-4.25810000 1.11580000 0.83990000
-2.34010000 1.15930000 4.01890000
-2.53640000 1.25030000 3.86460000
-2.24290000 -1.50140000 2.10070000
-2.20040000 -1.40860000 2.08390000
-4.41980000 0.94280000 1.29020000
-2.85480000 1.22310000 3.66000000
-4.40290000 1.00720000 1.49560000
-4.51600000 1.00580000 1.11150000
-2.35270000 -1.35690000 1.99340000
-2.07040000 0.90460000 4.12160000
-4.48480000 1.08170000 1.28660000
-2.04260000 0.97400000 4.19880000
-2.19370000 1.04380000 4.14880000
-1.95580000 1.03770000 4.26290000
-1.97650000 1.15190000 4.24370000
-4.33590000 1.07900000 1.71750000
-2.25740000 0.88570000 3.68240000
-2.10580000 1.22000000 4.13880000
-1.84930000 1.16570000 4.31660000
-1.91220000 1.24920000 4.31540000
-1.98830000 1.30030000 4.22380000
-1.95680000 1.34360000 4.28580000
-3.97860000 1.37330000 1.78720000
-2.26870000 -1.41020000 2.61080000
-2.29510000 -1.38890000 2.51160000
-2.28640000 1.07370000 3.71900000
-2.03660000 1.29870000 3.88400000
-1.96800000 1.05940000 3.89160000
-2.36090000 -1.47310000 2.35160000
-2.38700000 -1.38890000 2.33310000
-2.31800000 -1.35190000 2.42160000
-1.98090000 0.81610000 4.11710000
-2.28720000 -1.30700000 2.49040000
-2.30650000 -1.23780000 2.48310000
-2.38520000 -1.29470000 2.38530000
-2.34190000 -1.21660000 2.46300000
-2.45890000 -1.24670000 2.41920000
-2.46330000 -1.28880000 2.33820000
-2.39220000 -1.22150000 2.45500000
-2.28480000 -1.28950000 2.64480000
-2.28630000 -1.29720000 2.57560000
-2.41840000 -1.07960000 2.59560000
-2.36150000 -1.14420000 2.57000000
-1.67210000 0.87400000 4.26790000
-2.39470000 -1.11010000 2.50270000
-2.25930000 1.36460000 4.03910000
-2.04170000 1.36820000 4.16450000
-1.87560000 0.76570000 3.83290000
-1.95290000 1.44390000 4.24830000
-2.04030000 1.46980000 4.18110000
-2.49360000 -1.33020000 2.26320000
-2.52150000 -1.20530000 2.37740000
-2.58700000 1.40580000 3.83920000
-1.59830000 0.81580000 3.97810000
-4.37950000 1.27850000 1.37400000
-1.22420000 0.80510000 4.09940000
-2.84370000 1.49690000 3.68810000
-2.36150000 1.47710000 4.00320000
-1.62870000 0.95610000 4.01680000
-2.29920000 1.57050000 4.10280000
-2.51560000 1.56810000 3.97280000
-2.12710000 1.51610000 4.15860000
-2.00980000 1.64200000 4.24450000
-1.99710000 1.56290000 4.25590000
-2.24220000 1.66000000 4.12420000
-1.86680000 1.73330000 4.24770000
-4.10440000 1.32930000 1.45810000
-1.87860000 -1.13510000 2.27430000
-1.54630000 -0.97980000 2.45170000
-1.65750000 0.97830000 4.35240000
-4.25050000 1.29600000 1.70790000
-1.71280000 1.07130000 4.35530000
-1.38750000 -0.82870000 2.47270000
-3.22950000 0.42730000 3.09500000
-3.49490000 0.47450000 2.82190000
-3.23880000 0.24710000 2.94370000
-3.41090000 0.64830000 3.00230000
-1.89730000 -0.94740000 2.17980000
-4.10620000 1.27920000 2.07650000
-4.27660000 1.42580000 1.68030000
-4.10190000 1.44100000 2.11340000
-1.55070000 -0.78900000 2.34420000
-4.20370000 1.57240000 2.05680000
-4.33840000 1.51540000 1.60060000
-4.13200000 1.50100000 2.08950000
-3.54580000 0.32480000 2.63600000
-3.71820000 0.63800000 2.60630000
-1.61210000 1.18240000 4.06580000
-2.62660000 -0.10980000 -1.02330000
-2.68500000 -0.08210000 -1.46810000
-2.31000000 -1.20320000 1.94090000
-2.41200000 -1.20830000 1.90060000
-2.53840000 -0.40360000 2.70170000
-2.64500000 -0.29940000 2.77130000
-2.64110000 -0.40060000 2.65880000
-2.78610000 -0.34530000 2.42850000
-2.46340000 -0.45740000 2.63070000
-2.59360000 -0.45840000 2.61280000
-2.55080000 -0.48700000 2.54540000
-2.48480000 -0.51440000 2.54900000
-2.58180000 -0.49820000 2.44190000
-2.23790000 -0.98270000 1.89890000
-2.40240000 -1.00550000 1.75080000
-2.66290000 -0.43210000 2.55770000
-2.64720000 -0.43900000 2.49530000
-2.73550000 -0.39980000 2.30020000
-2.66130000 -0.42500000 2.40210000
-2.67310000 -0.50440000 2.28520000
-2.77860000 -0.32430000 2.56890000
-2.77330000 -0.27000000 2.69330000
-4.37010000 1.58190000 1.65690000
-3.58980000 0.75200000 2.81770000
-2.86090000 -0.12520000 2.88500000
-1.94250000 -0.77920000 2.04600000
-2.96630000 -0.25650000 2.46370000
-4.57480000 1.02570000 0.87550000
-4.53910000 1.12040000 1.07890000
-4.49510000 1.18710000 1.17190000
-4.58060000 1.12530000 0.82750000
-4.56070000 1.23940000 1.04900000
-4.56280000 1.21320000 0.96620000
-4.62140000 1.00440000 0.49150000
-2.45630000 -0.31520000 2.85960000
-2.36420000 -0.36870000 2.77110000
-4.57870000 1.22020000 0.40970000
-4.62930000 1.12960000 0.25640000
-4.63420000 1.06980000 0.52610000
-1.91370000 -0.62060000 1.92310000
-3.28150000 0.88000000 3.21920000
-4.54510000 1.32620000 0.84900000
-4.56910000 1.30170000 0.91540000
-4.54500000 1.28090000 0.68640000
-4.54120000 1.28680000 1.11120000
-3.05860000 0.85130000 3.02140000
-3.02730000 0.65810000 2.92290000
-3.32950000 0.90090000 2.74770000
-4.58780000 1.33310000 1.01700000
-4.53740000 1.37670000 1.11140000
-2.31930000 -0.43070000 2.68690000
-4.57430000 1.37860000 0.94110000
-3.13070000 0.99700000 3.02360000
-4.56650000 1.41690000 1.01930000
-2.44190000 -1.19050000 2.46930000
-2.48570000 -1.15810000 2.44810000
-4.53990000 1.42760000 0.69070000
-2.39940000 -1.14400000 2.47590000
-2.14390000 0.10680000 2.87220000
-1.97950000 0.06520000 2.84350000
-2.35420000 0.03830000 2.47340000
-4.54350000 1.45000000 0.91940000
-2.55160000 -1.15130000 2.33630000
-2.51300000 -1.10690000 2.39860000
-2.46680000 -1.08360000 2.43880000
-2.52140000 -1.03670000 2.37850000
-2.52000000 -1.00190000 2.44520000
-4.22650000 1.24990000 1.03670000
-3.30840000 -0.64380000 1.12340000
-2.89680000 -0.00830000 3.03380000
-2.47850000 -0.91130000 2.58350000
-2.63070000 -0.91400000 2.35360000
-3.28390000 0.94720000 3.27880000
-2.66500000 0.22040000 2.73420000
-2.36230000 0.13790000 2.79910000
-2.73260000 0.12730000 2.41840000
-2.56270000 -1.11720000 2.25860000
-3.33640000 1.03420000 3.29550000
-3.11440000 1.16860000 3.52170000
-3.21500000 1.15120000 3.38900000
-3.17030000 1.20960000 3.46880000
-2.58660000 -1.05840000 2.21490000
-4.16560000 1.53660000 1.20310000
-3.33580000 1.10620000 3.27770000
-3.20330000 1.26360000 3.39970000
-2.64980000 -0.97400000 2.23480000
-2.33490000 0.24870000 3.06920000
-3.19030000 1.10800000 2.99630000
-2.50810000 -0.71880000 2.50540000
-3.57880000 0.91380000 2.90630000
-3.62900000 -0.29640000 1.09340000
-3.77880000 -0.22980000 1.02590000
-3.75640000 -0.29860000 0.64250000
-3.54490000 0.99660000 3.04750000
-2.13080000 -0.59310000 1.65940000
-4.28860000 1.36050000 0.67640000
-3.24760000 -0.55990000 1.38610000
-2.17330000 -0.55860000 1.31810000
-3.32960000 -0.44770000 1.30230000
-3.39580000 -0.47390000 0.97790000
-3.39150000 -0.40600000 1.42500000
-3.39200000 -0.38980000 1.28750000
-4.46300000 1.37090000 1.18850000
-3.43230000 -0.40240000 1.02130000
-4.43260000 1.47620000 1.26380000
-2.53450000 -0.58520000 2.46480000
-2.41390000 -0.57420000 2.57700000
-3.48460000 -0.33480000 1.30280000
-3.54940000 0.69600000 2.27920000
-3.25420000 0.59730000 2.60980000
-3.45620000 0.53940000 2.24520000
-4.51520000 1.47010000 1.08600000
-3.44730000 0.81680000 2.55300000
-3.55270000 -0.35560000 0.88950000
-4.49100000 1.60330000 1.28520000
-4.51470000 1.53780000 1.09960000
-3.61590000 0.92420000 2.35480000
-3.12830000 -0.01290000 0.93510000
-3.26740000 0.03690000 1.13240000
-2.19250000 -0.58570000 2.75160000
-4.55240000 1.51020000 0.74660000
-3.51090000 -0.50370000 0.54850000
-4.54470000 1.52460000 0.94330000
-3.57200000 -0.49510000 0.41800000
-3.60240000 -0.41910000 0.55640000
-3.68710000 -0.42330000 0.46160000
-2.26820000 -0.01540000 2.24040000
-4.57990000 1.58660000 0.87320000
-3.51440000 -0.41850000 0.70040000
-3.60490000 -0.36560000 0.67080000
-2.14850000 -0.72370000 1.82250000
-3.44610000 0.97970000 2.64380000
-4.25230000 1.71040000 0.71820000
-4.13160000 1.70320000 1.28850000
-3.57290000 -0.50080000 0.28980000
-3.68320000 -0.41560000 0.26810000
-3.63980000 -0.46930000 0.34810000
-3.75260000 -0.38430000 0.35900000
-3.52090000 1.14990000 2.59160000
-3.78030000 -0.32310000 0.23240000
-4.17480000 1.75300000 1.17540000
-4.30930000 1.78470000 0.58270000
-4.23000000 1.80960000 1.18660000
-4.36680000 1.81640000 0.53740000
-3.80750000 -0.31280000 0.46060000
-4.49320000 0.55620000 -0.06920000
-3.75750000 1.16700000 2.21220000
-3.38810000 1.38310000 2.80010000
-3.10990000 -0.01770000 2.80070000
-4.52710000 0.75000000 -0.42820000
-3.67490000 1.04120000 2.90650000
-3.79740000 0.98780000 2.69320000
-3.35280000 0.07520000 2.62890000
-4.56410000 0.90710000 -0.45140000
-3.63430000 1.08960000 2.93990000
-3.86680000 1.09160000 2.62350000
-3.48250000 1.06200000 3.14250000
-3.04710000 -0.03100000 0.72700000
-4.57280000 0.89530000 -0.14170000
-3.52440000 1.19890000 2.99340000
-3.22340000 -0.08200000 2.57030000
-3.23390000 1.34350000 3.33360000
-4.63150000 0.98190000 -0.22480000
-4.64810000 1.01030000 0.14060000
-4.65940000 1.04370000 -0.10870000
-3.18530000 1.34180000 3.47560000
-4.50680000 0.69760000 -0.68870000
-3.69270000 1.29670000 2.76080000
-3.46830000 1.33810000 3.05230000
-4.51340000 0.89450000 -0.75730000
-4.47820000 0.80070000 -0.80950000
-4.37930000 0.66840000 -1.15470000
-3.20750000 1.46790000 3.37420000
-3.34130000 1.44710000 3.21120000
-3.31610000 1.51360000 3.27510000
-3.53390000 1.57440000 3.09810000
-4.53330000 0.95660000 -0.91410000
-3.56640000 1.49970000 2.98820000
-3.64030000 1.65010000 2.98270000
-4.61070000 1.01150000 -0.64040000
-4.64600000 1.07820000 -0.44830000
-3.90990000 1.01980000 2.55660000
-4.64270000 1.12850000 -0.24070000
-4.64900000 1.18240000 -0.44740000
-2.74210000 0.40600000 2.95600000
-3.95300000 1.12310000 2.48430000
-3.81780000 1.21060000 2.61320000
-3.95830000 1.25110000 2.48980000
-4.01010000 1.20740000 2.42670000
-4.54680000 1.09310000 -0.99010000
-4.57830000 1.05110000 -0.90980000
-4.60730000 1.12290000 -0.64760000
-4.63490000 1.20930000 -0.53190000
-4.57950000 1.23220000 -0.64960000
-4.47050000 1.24550000 -1.03440000
-3.84940000 1.32650000 2.56600000
-2.87750000 0.30680000 2.67430000
-3.92680000 1.34410000 2.51420000
-4.65810000 1.08450000 0.08810000
-4.63470000 1.20960000 -0.30080000
-4.66800000 1.26230000 -0.39590000
-4.61780000 1.31460000 -0.58130000
-4.67670000 1.30000000 -0.49120000
-4.66450000 1.35520000 -0.51880000
-4.04350000 1.16370000 2.33470000
