-18.54225159 -0.49754101 -17.03141022
-8.06461334 -8.47186470 -14.77925205
-0.41461411 7.65683413 -25.07915115
-20.66246033 2.23808217 -17.21500015
-17.07424164 -3.10016346 7.90519667
-19.76461220 6.90742493 -14.81183815
-19.96419716 6.85657644 -14.80855083
-18.26461220 -0.73905033 -17.03610039
14.73458862 -1.39058435 19.42305756
-22.47921753 3.57481170 18.82018852
-20.09543228 6.87916946 -14.51587868
-1.42578006 8.85864449 -21.11507225
-18.56461143 -2.88242340 -14.19591331
-17.26313972 -1.31635320 -14.40412712
-19.76461220 6.98270893 -14.51598167
-17.66461182 -1.33785546 -13.99249554
-18.80820274 -2.97089076 -13.86884117
15.49104500 -1.24115968 18.95329094
-17.81461143 6.62720060 21.87815094
13.30539513 5.23337650 -22.58505440
15.12675953 -1.43706334 18.90838242
-0.76253343 8.87312889 -21.08589172
-18.13829422 -2.68686008 -14.80940342
-17.65730476 6.48849344 22.32183647
-15.50582409 -1.49056566 -15.63614941
-22.17613602 3.55985641 19.19721031
-23.40897751 6.93256521 -13.93136215
-23.36461258 6.82783127 -14.10643768
-18.32327461 -2.75744486 -14.54888916
16.02495193 -1.02800548 18.84460640
-5.15935946 7.69370747 -21.76743317
-14.91517448 -1.48116541 -16.09111214
-10.97826099 -7.51134348 7.43742323
-4.76461363 7.73623133 -21.77762222
-15.26644516 -1.42266989 -15.94085979
5.61014175 -5.29940176 -7.40224028
17.30145264 -6.56691074 -3.49849534
-16.76461220 -0.54013830 -18.51316833
-5.06461382 7.46713018 -22.06128311
-23.90532494 6.84525394 -13.30496025
-4.74972630 7.56522465 -21.99440956
-19.72408867 2.59966946 -16.64496994
-23.29782295 3.52563882 19.92113113
-19.48935509 6.86262369 23.06571198
-17.06200600 -0.57134402 -18.24793053
13.83707714 5.20169687 -22.25197601
15.48538399 -1.11370230 19.20894051
-8.36461353 -12.22309017 16.37473679
-19.46461296 6.83720827 23.10647011
15.70915413 -0.93735123 19.35225868
-4.01461363 7.60684013 -21.99407959
-4.21247482 7.77336264 -21.77694321
-16.49862480 -0.60133201 -18.65851212
-19.14847755 6.85358953 23.36687469
-15.86576271 -1.58550334 -15.18523312
-4.46461391 7.55698490 -22.00649452
-8.66461277 -18.39107895 -9.26340866
-8.44415474 -18.43986893 -9.45970726
-19.90357208 9.32715034 -13.76170063
-15.56461143 -1.57673848 -15.44377899
15.81386280 -8.86633968 7.52252245
-20.10562515 9.34292889 -13.51089764
-4.16461372 7.51922846 -22.06456184
-15.21953297 2.23645949 -21.41269684
-15.56461143 -1.71917725 -15.17087746
-14.83957863 2.12087154 -21.57400894
-5.03425550 -3.13645148 17.36259842
-20.06461334 9.14013958 -13.74993515
-23.06461334 3.66687679 20.25695801
-8.97019291 -18.64766502 -9.29633713
-23.21925163 6.88389826 -14.23989868
17.07842636 -6.59805679 -3.81194091
-15.26461124 -1.64192605 -15.53292751
-16.61461067 -2.69772029 -16.16138840
-22.76461220 3.67324448 20.59463501
-8.06461334 -11.90746498 16.61366463
-14.89914989 -1.84847605 -15.42081261
14.79196930 5.22324610 -21.65784836
-17.02450180 -2.79490137 -15.70438480
16.53538322 -1.18493283 17.86075020
16.38575363 -1.40153039 17.55372429
-18.79939079 6.87242889 23.66628265
-18.53157425 7.16331244 23.62598610
-3.86461377 7.86657715 -21.71879005
-16.76461220 -2.94458318 -15.69496727
16.84428787 -1.13261044 17.40813065
-18.56461143 6.88276529 23.83057404
-20.96461296 9.63688183 -12.57881451
-3.71461391 7.58162355 -22.06509781
-3.56461382 7.88254166 -21.74297714
-16.66019249 -2.83295059 -15.92928982
-21.26461220 9.68971252 -12.28154564
-16.46461105 -2.86489439 -16.03294563
-18.86461067 6.82739401 23.64366341
-5.33980703 -3.07811737 17.66405678
-13.03221512 2.15978408 -22.57229424
17.13538361 -6.49826765 -4.04884958
-21.11075401 9.42133427 -12.26466084
-20.96461296 9.40862083 -12.46673393
-10.33467865 -7.54264307 7.12577391
12.69531536 5.28734207 -21.50325203
-20.96461296 9.20251942 -12.55148888
-16.10458755 -3.10325313 -15.98507881
-8.36461353 -11.98512077 16.47251511
-24.00165558 6.96588135 -13.07065678
-16.56124878 -1.45290744 -14.81191063
-17.36514282 -3.09171057 8.07927036
-22.48242950 3.71510243 20.93835258
-24.24840546 6.99013853 -12.68511868
-23.96931458 7.12098312 -12.91771603
-4.14432526 -4.43468380 -8.01371956
16.25262833 -1.29175985 18.00517654
12.98769474 5.22164154 -21.34185982
12.93480301 5.51452541 -21.32779312
-16.15184021 -1.49676812 -15.10060978
-20.37172699 9.36482430 -13.16288471
-3.36768413 7.60536575 -22.06998062
-14.05838966 2.18128300 -22.06143188
-20.66461182 9.60938835 -12.87767982
-22.21636009 3.71704793 21.24594498
-18.36977959 6.89126587 23.96568871
-13.62083054 2.16944051 -22.28965950
-16.51386070 -1.56365669 -14.61021137
-2.96461391 7.61326694 -22.07048035
-20.64811707 9.38475227 -12.84614563
-17.06461143 -2.81518030 -15.64684677
-16.07442093 -0.46392751 -16.79313278
13.23538399 5.25293684 -21.18596268
16.70439529 -6.68581009 -4.04221869
-9.86217594 -18.32066536 -8.65714741
5.06279325 -5.31323290 -6.81174278
-16.48833466 -0.46228859 -16.47103882
-20.66461182 9.30209637 -12.85834599
-17.15557098 -3.03490448 -15.23839569
-17.27140617 6.75554800 21.86877060
-17.08103752 6.79876566 21.88105011
11.59919739 -5.94751310 -11.89892101
-14.80621243 2.44885945 -21.75396347
-16.76461220 6.92412615 21.85947227
-16.16461182 -0.67099470 -16.43919563
15.33538437 -9.17943954 7.41868544
-15.56461143 -0.27523741 -17.42719650
13.53299904 5.28081656 -20.95702744
-24.42115021 7.04706573 -12.34816742
-20.89212799 9.40249825 -12.56406975
-15.61472511 -0.50102007 -17.08666611
-10.61461258 -7.49067974 6.83493853
-21.84988213 3.59155202 19.60735703
18.63538361 -1.36373281 19.67556190
-16.76461220 -1.56705451 -14.34853172
-3.81305408 -4.44704008 -8.36219978
-17.10781479 6.68998957 22.12848282
-16.87779045 -1.69661403 -13.96776772
13.93625641 5.27474213 -20.71736145
13.84173298 5.53991556 -20.72478104
-15.25144482 -0.51762539 -17.35062408
-10.16229916 -18.32826042 -8.68313599
-8.66501713 -12.29318619 16.16676712
14.43538380 -1.28224409 19.97102737
-17.36461067 -3.07924104 7.75976753
-14.93658829 -0.47688001 -17.62098885
15.03538418 -9.48697376 7.30835724
-16.49914551 6.85999155 22.19028091
14.27633953 -1.23692310 20.21808434
-16.39972115 -1.75369382 -14.29656315
-2.36516881 7.59332180 -22.13097763
-2.66461372 7.62413836 -22.07116318
-21.55529404 3.66483998 19.91474724
-11.06461239 -7.48416376 6.98482513
-24.64758682 9.91380596 -7.69179821
15.19089985 5.08945990 -21.39546204
-24.83767509 9.89876652 -7.30990934
-14.82313347 -0.74453431 -17.33634758
-15.19430256 -0.75992882 -17.03478622
15.02863121 -0.98312879 19.91883278
-17.37479591 6.49704218 22.51078987
4.98538494 -5.34333229 -7.12744427
-22.16461182 6.81444645 -11.95035362
-16.76461220 6.65920496 22.47732162
14.73527527 -0.97087198 20.25194931
-21.11461258 3.66020727 20.38741875
14.14492035 5.29745388 -20.57187653
-19.48233986 -2.68806720 -13.62644863
-2.06461382 7.63233471 -22.11265945
-22.16461182 9.72881413 -11.08163452
-1.61461413 7.59750605 -22.14241982
-21.41672134 6.62591839 -13.90468788
-16.88541794 6.50750446 22.81874275
-8.57971382 -11.92204380 16.38192558
-15.71461105 -0.58333743 -16.89560127
-11.33793449 -7.45483923 6.89825010
-20.97760201 3.46367335 20.56332779
-9.52547550 -18.62882805 -8.99692822
-22.46461296 9.71331024 -10.62976837
-20.88203239 6.81160784 -13.77805233
-16.40106392 6.77450895 22.45532227
-5.53163052 -2.89800119 21.55372047
-16.17365837 6.85242701 22.46318817
-19.16461182 -2.95764422 -13.55269051
-22.18526077 9.51354408 -10.79906654
14.43538380 -0.96862352 20.55248070
-21.56461334 6.74280834 -13.29851532
-19.46461296 -2.93600917 -13.24889565
-13.46461105 -7.86522102 -6.66818714
-3.26461387 -4.59698629 -8.67736435
14.13538456 -0.95330882 20.85210991
-22.42969894 9.53765488 -10.41577244
-21.26461220 6.75160217 -13.59966183
17.74733925 -6.10468149 -4.23608875
15.33488369 5.24939775 -21.27729797
-16.32413101 6.66155767 22.81813812
-9.26555443 -18.19732666 -8.73184395
-9.25651264 -18.78114319 -9.25307941
-21.22545815 6.83781290 -13.23040485
-21.86461258 3.73744130 21.61498451
-22.76461220 9.73192310 -10.18005085
-20.97478867 6.96225786 -13.07624626
-21.65025711 3.74050593 21.82207108
-1.61461413 7.65727854 -22.07324791
-23.06593132 9.81454468 -9.88550758
-9.55512238 -18.31052971 -8.70898438
-20.37331963 6.93423367 -13.92673874
-15.86461163 6.98777866 22.45665169
-1.16461408 7.59898233 -22.11894417
-11.34494209 1.85693216 -23.20982742
-14.36461163 -0.61785060 -19.99204063
-20.81461334 6.73395538 -14.19973755
-22.76461220 9.55284977 -9.86818981
-12.37504673 2.15822959 -22.86616135
-19.01461220 -1.33435714 -12.64004803
-15.94276237 6.81793451 22.77150917
-11.96461296 1.99505556 -22.97696495
-20.66461182 6.84177685 -13.90592861
15.71868896 5.25870657 -21.02271843
-22.60106468 9.55319405 -10.16880608
-3.53227091 -4.48768187 -8.60642815
-15.56461143 6.96247101 22.75883865
-13.90637875 -0.66522092 -20.21718788
-18.12907982 -3.14489579 9.53085327
-18.50410843 -1.33725595 -13.13467598
-0.56659681 -8.26043701 7.69279575
-0.71461409 -8.25727654 7.48435545
-1.01461411 7.63420486 -22.07179642
-20.06461334 6.97154379 -14.21468544
-20.31694603 6.90197992 -14.13422585
15.93538380 5.12227726 -20.87384796
-13.41397095 -7.92058992 -6.94000006
-8.94210529 -11.93900490 16.11234665
-19.92595863 7.09703302 -14.02011108
-17.83103561 -1.47903895 -13.54505444
4.15180063 -5.32480335 -6.81189537
-21.56461334 9.58085155 -11.67351151
-6.04603815 -2.80068183 21.88138199
-0.44874060 7.63597870 -22.06487465
-21.56461334 9.28157520 -11.65468121
-11.43741894 -7.48765182 7.72794771
-13.16461182 -0.66653132 -20.60478020
-17.51461220 -2.41633868 -11.67019463
-17.33633232 -1.49623144 -13.96609402
-21.28905487 9.43796349 -12.00037384
-20.40813065 3.71415234 21.17033005
-0.27402601 -8.28753853 6.98177290
4.29382563 -5.36623430 -7.12453318
14.76671505 -8.85032845 7.83094835
-12.89505005 -0.75613981 -20.64963913
-20.52933693 7.05478811 -13.39802361
-21.67046356 9.46969509 -11.49601269
-18.49956512 -3.06013656 9.81485653
-20.75536728 6.94139338 -13.45988083
-17.81461143 -1.63905358 -13.22206306
14.73538399 -9.16479397 7.54145145
-16.19148827 -2.38370705 -13.08677197
-20.26708984 7.22720051 -13.29386520
14.79020309 5.32784748 -20.13670349
14.58538437 5.56760788 -20.22299194
-20.10816956 3.72297597 21.47146988
11.02685547 -6.22308111 -11.55883980
-16.46461105 -2.42882562 -12.72148514
18.33538437 -1.27732766 20.13619804
-16.07798767 6.66075659 23.05616379
-11.06661606 2.17236328 -23.50687790
-19.76173973 3.47389078 21.80075073
-0.71461409 -8.26899719 7.18450022
18.61426544 -1.17741179 19.94032288
-10.83429909 1.97960579 -23.49268150
-21.86461258 9.67344856 -11.37874413
-9.97987652 7.50672674 -20.67627144
15.03538418 5.33018208 -19.95819473
-18.30202675 -1.45756078 -13.10659790
-13.46461105 -0.74965560 -20.37444687
-8.96461296 -12.29947948 15.88481331
-15.58367443 6.71325064 23.37208557
-15.29580784 -2.41884589 -13.73175335
-20.06343079 7.20890808 -13.58914566
-9.54609489 7.75655842 -20.57123375
18.07193565 -1.13822579 20.56315422
17.88538361 -0.91943669 21.00027847
17.74078941 -1.17229950 20.87316513
-22.00430870 9.49668312 -11.06702995
-15.11461163 -2.53121209 -13.46652603
-21.86461258 9.48518848 -11.24975491
-15.40161228 6.86387348 23.10180092
-8.93501091 7.67941570 -20.85502815
-14.96461105 7.01815987 23.05592918
-9.30817604 7.58771896 -20.84934235
15.28435135 5.34113598 -19.78408623
-14.96461105 -2.60009313 -13.31189537
-15.15421677 6.84249353 23.36577034
-21.89493179 6.68893433 -13.05809212
-10.46461296 2.09120178 -23.66237450
-16.09030914 -2.49201751 -12.83586502
-14.96191692 6.89146948 23.37495422
-21.56461334 6.79069042 -13.00093460
18.33506203 -0.93732959 20.55185127
-6.10453176 -2.83416152 21.60942841
-15.58475208 -2.48795462 -13.22023201
-21.86461258 6.77363443 -12.69926834
14.43538380 -9.16602516 7.54152822
-13.43277740 -7.98190260 -7.25240326
15.63538456 5.35764790 -19.52165031
14.43538380 -8.85324669 7.82557535
-21.71461296 6.82669163 -12.55230999
-8.81461334 7.45574808 -21.15878868
-11.61053848 -7.44799662 7.45494986
10.82048512 -6.13653612 -12.03732586
-15.56481743 -2.63098526 -12.71098423
-19.74680138 9.42966843 -12.14796448
-9.87161922 -18.69331932 -8.95181370
-21.25896835 6.98243189 -12.55426121
-20.11356163 9.45690346 -11.69695377
-7.92496777 7.66650248 -21.16692352
4.98538494 -5.36017227 -7.42697763
-15.61227798 6.59695578 23.75256348
-19.46013832 -1.24369228 -12.38874912
17.49804688 -6.03699970 -4.74494934
-14.96462154 -2.67536545 -13.00662708
-15.09705734 -2.64916968 -13.00821495
-7.76461315 7.50419092 -21.46243095
15.94336128 5.44505548 -19.24708939
-13.76461124 -7.67781019 -7.28116417
-15.26460552 -2.64219928 -12.89553547
17.44148445 -0.83498043 21.54939842
17.34052658 -1.08798516 21.36168861
-14.51461124 -0.93578672 -19.62040710
-19.17406082 -1.41397142 -12.31005764
-15.05863857 6.78706741 23.65653992
-10.16461277 -18.62107849 -8.87374210
-8.21461296 7.61074448 -21.14799118
-10.17304993 -18.89425087 -9.04970264
-15.33741856 6.60741138 24.00066757
-20.53320694 9.50422478 -11.12191296
-0.59222221 -8.31568432 6.60902977
17.13538361 -1.12026894 21.51461792
17.30191231 -6.26309729 -4.45572472
-21.71461296 6.88411999 -12.25532913
-12.08382130 2.21581411 -21.73852158
-8.64732075 7.73986340 -20.87112617
-20.67076492 3.78725719 22.81627274
-18.66384125 -1.47863972 -12.67807579
-8.36617470 7.79370832 -20.89277840
16.37505341 5.29425430 -20.52927208
-18.26461220 6.94945908 24.00120354
-12.34090424 2.21217513 -21.62132072
-16.95931625 -2.41746354 -12.23411083
16.53538322 5.19925213 -20.41563988
-17.96699905 6.91630793 24.27236748
-18.86568642 -1.45444345 -12.51558495
-21.11461258 7.15115213 -12.27213001
16.83538437 -0.86645848 22.04901886
16.57390594 -1.07428205 22.06209373
11.14177227 -6.01407623 -12.18635941
-6.67198801 -2.76652431 21.87044525
-12.11461258 -7.42738247 7.73273611
-21.53936005 7.00035763 -12.06282711
-17.88308334 -3.17890310 9.25455284
16.83538437 -1.08444905 21.79356003
-20.28759193 3.83628845 23.18613434
-19.41081619 -1.39231229 -12.14217567
-16.08380318 -2.61219740 -12.40958881
-12.90065670 -0.27348179 -19.01220512
-13.76461124 -7.68464947 -7.58132744
-13.49337387 -7.98559332 -7.49196196
-16.47972488 -2.54252815 -12.33593178
-11.81461239 2.15559101 -21.82200623
-20.02445030 4.14454412 23.44582367
-8.05358887 7.90582609 -20.87068176
-12.54304409 -0.60221100 -18.84826851
-20.96371460 9.56814671 -10.45006466
-20.77115440 7.11140442 -12.89522266
-19.81014442 3.92604899 23.63458252
16.87143898 5.31815386 -20.14937401
-16.16461182 -2.66801620 -12.10525036
-12.43047428 -0.82509720 -20.81539345
-11.40310669 2.19470906 -22.03593063
14.10305691 -9.15770912 7.49777412
17.14245796 -0.90253502 21.74269104
14.13538456 -8.85308266 7.82816601
-1.69431984 -5.11947346 -9.48443031
-21.30926514 9.56882858 -9.89903927
-16.84004021 -2.52959180 -11.97068787
17.21269035 5.32805109 -19.85104561
-17.62132835 6.92687750 24.53174782
-10.66139412 2.17529058 -22.32912636
16.80722618 -6.48693371 -4.49498558
-17.08616257 -2.57000303 -11.55666351
-17.33848381 7.20251083 24.50722504
-9.14458656 -12.30722046 15.70487404
-9.29189396 -12.27309990 15.57985306
-11.06461239 2.18437505 -22.18146896
-9.79281425 7.69868755 -20.53419876
4.83538485 -5.37180996 -7.72683907
-16.76454735 -2.65407038 -11.50509930
-20.71091461 9.51088047 -10.84136105
17.43538475 5.34771872 -19.67945862
-19.47612381 3.61607218 22.07477951
13.78072453 -8.85214710 7.83131218
-17.51461220 6.88427830 24.64718628
-16.46461105 -2.66026139 -11.80514526
-19.16461182 3.99704576 22.34422112
-19.16394806 3.78413320 22.35664368
17.68540001 5.36028671 -19.47968864
0.03538590 -8.33438206 6.13653660
-16.16461182 -2.75343490 -11.64898586
-24.79667854 7.04354286 -11.80112743
-24.54421425 7.24131346 -11.87957287
-24.91219902 6.98265600 -11.66034317
-24.86461067 7.16167593 -11.52130985
-10.46435928 2.02175665 -22.31950378
-1.15404809 -5.17801094 -9.90727425
-0.85717440 -5.12950611 -10.30914211
-12.12091351 -7.39796114 7.42029095
14.73538399 -9.48604774 7.32306051
-15.86655712 -2.62027478 -12.53732967
-0.09831060 -8.32840157 6.53903341
-23.36461258 9.79816341 -9.28243828
-15.71461105 -2.70807838 -12.25302696
-17.10525322 6.94923496 24.88709068
-16.80080986 7.00578690 25.03763390
-18.86461067 3.80137467 22.63118744
-13.81545067 -7.70187378 -6.64879131
-23.96461105 9.87157536 -8.68587112
4.26504946 -5.39582396 -7.43524837
-15.71461105 -2.76911092 -11.94859314
16.26463127 5.39234400 -18.99000931
16.24387550 5.66942596 -18.92034912
-7.31461334 7.80761480 -21.18092728
-1.41762245 -5.12327051 -9.87980938
10.38538456 -6.35232353 -11.57285976
-25.21099472 7.14399958 -10.91901016
-25.14117050 7.08108664 -11.20396137
14.43538380 -9.48536205 7.33396006
-23.36272240 9.63443756 -8.93221474
17.06145859 -6.29344368 -4.66292286
-15.26461124 -2.71595883 -12.55312347
-14.96504974 -2.83350444 -12.23555946
-7.48570108 7.61529016 -21.37611961
-11.66826248 -0.36008820 -19.55568504
-23.66461182 9.71971226 -8.67631817
-14.42904663 -1.64238393 -16.11696243
19.31016922 -2.35331368 3.40024114
-23.61748314 9.65115738 -8.61171818
-18.59475136 2.37333989 -19.13543892
19.55461502 -2.23562860 3.42421389
19.83175468 -2.11524010 3.10704160
16.73062515 5.41911840 -18.59460258
-18.54677773 3.82479382 22.92117500
-24.81805038 7.34608364 -11.23231888
-6.59230947 7.63003016 -21.61328888
-6.95078421 7.65898609 -21.47216988
-16.67356873 6.96661377 25.16332245
-14.36461163 -1.69465017 -16.07419968
-23.06461334 9.73241711 -9.57889462
-14.75916767 -1.64760602 -15.88468170
-17.43318367 2.34253669 -19.97048950
-9.24506950 -11.92888069 15.83136749
-22.94992256 9.59087181 -9.56998920
-11.96461296 -0.60521609 -19.12450409
-19.50142670 3.86837077 23.89635277
-17.96388054 2.36336064 -19.62109756
-17.66461182 2.33393550 -19.80427170
-12.23630810 -0.68309790 -18.89840698
-23.08505821 9.60542488 -9.31516647
-18.26461220 -3.14295030 9.26674080
-8.36461353 -18.79814911 -9.88805485
-8.20533276 -18.68534088 -9.89515209
-13.91461182 -1.79773414 -16.21800995
-11.71317101 -0.67518783 -19.17514992
-17.32747841 2.07343841 -19.91225433
-13.76013756 -7.69731665 -7.13648319
17.10469627 5.43257904 -18.30212593
19.33513832 -2.31424141 4.04758930
-11.36046886 -0.60121888 -19.42660522
-16.48494530 7.02883959 25.46164894
19.82899857 -2.08566380 3.67859125
17.43558311 5.45308685 -17.99602127
19.91024399 -2.05222893 3.93953371
-19.14195061 3.80744243 24.17679214
-25.74676895 7.13039446 -10.01146603
-16.48442841 7.05397129 25.75901222
19.56701279 -2.20856786 3.79727793
-18.28070831 2.36126399 -19.40034485
-25.78970528 7.18376064 -9.71847248
-8.36409569 -18.24250984 -9.31706715
-8.12426853 -18.36709595 -9.61458206
-18.68656540 -3.07763100 9.26263142
19.57107735 -2.20233083 4.09678793
-25.16460991 7.33274221 -10.63029289
-12.95576477 -2.50618291 -15.13358784
-25.50942612 7.18100262 -10.32015228
-25.45870781 7.09196997 -10.53810215
-6.26461363 7.62650537 -21.68153000
-6.41461372 7.77064848 -21.47919655
-18.26461220 2.16999650 -19.32327652
-11.06461239 -0.40095061 -19.79443741
-18.21761131 3.82574844 23.18331337
18.00578117 5.36908484 -19.19541931
20.13538361 -1.97692227 3.03122187
-5.72214222 7.87805080 -21.48668098
-22.23958015 9.69261074 -8.52431488
-16.53728294 7.02312708 26.06154633
-16.44017601 7.28205633 26.05309105
-13.76461124 -2.51973724 -14.51932430
-11.12191296 -0.65089858 -19.46889496
-23.96461105 9.78003120 -8.37951946
20.13421631 -1.95356131 3.48256969
18.29290009 5.39736557 -18.92319107
18.60861015 5.41402149 -18.62559319
-10.76283455 -0.66076708 -19.62082672
-24.26461029 9.83892345 -8.08263016
-14.51461124 -2.53138494 -13.91740513
-10.91461277 -0.75109410 -19.44008827
4.30013514 -5.40465403 -7.74569893
-8.06461334 -18.34741783 -9.64074421
-8.06461334 -18.58290863 -9.90159798
-23.96104050 9.66953850 -8.10761738
-5.99911022 -2.91101646 21.03195190
-17.71178055 3.86349320 23.60923386
-16.35966301 2.25455022 -20.74783897
-16.16461182 2.26389790 -20.91745567
-10.46459961 -0.66834301 -19.74689293
18.64262772 5.13390398 -18.61215401
-16.45400620 7.02186823 26.36151886
-16.16461182 2.04587150 -20.78061295
-23.79573631 9.66621780 -8.37235832
-13.61461163 -2.61855006 -14.21251392
-16.76710701 2.32876301 -20.49679375
-17.38574791 3.88433766 23.87965202
-9.54696846 -11.94343662 15.53440475
-14.06516075 -2.54463625 -14.21694946
-17.07935524 2.30691838 -20.23366928
-25.39259338 7.43401814 -10.03297710
-10.19249249 -0.71815109 -19.79358292
-23.66461182 9.53812122 -8.36429882
-13.46462727 -2.47006774 -14.93816280
19.83855820 -2.08822060 4.40322638
10.53418636 -6.23578262 -11.90930176
-14.08824158 -7.58009386 -6.88754416
17.73542213 5.47222567 -17.69687653
-13.17159653 -2.56327176 -14.78236294
-17.05051994 3.89696980 24.12274170
-24.26461029 9.73977089 -7.68024015
-0.56461412 -8.34844398 6.13742113
18.03538322 5.51684427 -17.42968750
-14.66315746 6.96721792 23.36543846
19.51420021 -2.23308110 4.63039589
-12.56461143 -2.59076405 -14.96574497
-14.36461163 7.03696966 23.35533524
-12.86026287 -2.61374831 -14.72430229
-18.61974144 -3.12361550 8.89252090
-11.66835117 -7.40125036 6.81661844
-1.76317859 -5.00536776 -9.96790218
-23.96461105 9.52829361 -7.76249552
-24.26339722 9.70312977 -7.51977968
-26.98525620 7.26905584 -8.25179768
-18.84017181 3.91477895 24.43368149
-5.62468290 -12.26892662 15.32802200
-0.22207080 -1.98318207 -22.60468292
-13.74482250 -0.41921759 -18.40889168
-27.24333763 7.29181576 -7.89008236
-8.60146904 -18.70057678 -9.59166718
13.68538380 -9.17789841 7.44317532
14.09685993 -9.48821163 7.31495953
6.33538485 -5.19034529 -7.88855219
-0.00761790 -1.97803235 -22.61365891
-14.66461182 -0.28862911 -17.99841309
-15.86820507 2.31467724 -21.13122940
-15.58736420 2.14015746 -21.19146919
-18.44406509 3.93399119 24.75137520
0.33591479 -8.35859108 5.99615860
18.34085846 5.56742716 -17.13720131
16.54050446 -6.65234900 -4.35703564
-18.87281609 -2.95684552 10.10549355
-14.75993824 -0.53646243 -17.65003204
-0.24261060 -2.31826615 -22.28279495
-14.97391319 6.72411346 23.97573853
-14.30247784 -0.55301851 -17.91316986
18.63544655 5.53375149 -16.83185196
0.03231000 -2.29179025 -22.30810928
-22.04758835 9.63796234 -8.82147026
-14.28138256 -0.80295509 -17.61585999
0.54438722 -1.98920643 -22.60464478
-27.41865921 7.30862951 -7.62284565
-27.13864326 7.61277914 -7.64286518
-12.56752396 -2.70604825 -14.45186043
-14.06461143 7.00981045 23.65763664
-14.04660416 -0.56002682 -18.06300926
-22.46510696 9.65949821 -8.10589504
-14.36467934 -7.46980000 -7.09408426
5.88538504 -5.23724890 -8.03589725
0.35859811 -2.28998899 -22.29451752
-18.03308105 3.96257854 25.07421303
-14.17882347 6.86679173 24.05732727
16.38538361 -6.52814150 -4.79845381
-12.89990711 -2.75165272 -14.07715797
-13.76461124 6.98355770 23.95988083
-13.91461182 -0.72677553 -17.93865204
0.68975788 -2.32351470 -22.25516129
-12.29224777 -2.85416913 -13.99790859
18.96667480 5.43319464 -18.34999275
-22.68990707 9.73549366 -7.74628687
-18.86945534 -3.00582147 9.55924511
-22.78987503 9.71966171 -7.52287102
-12.08871841 -2.58603382 -15.24890995
0.97558647 -2.16430449 -22.40103149
-26.36461067 7.01598358 -9.17415142
-14.99105167 2.19621968 -20.11593437
-20.81461334 7.82143927 -15.92141914
-13.47977352 -0.40868220 -18.56091690
-22.72975922 9.45269585 -7.42378044
-25.95161629 7.19560575 -9.41929054
-25.68388367 7.43243885 -9.43419266
-12.92831898 -0.68663847 -18.55361748
-17.66461182 3.97280049 25.35593987
-26.33270454 7.21611071 -9.09336662
-26.06460953 7.20262098 -9.30779743
-2.11897922 -4.97632694 -9.45965385
-13.58527470 -0.57802498 -18.31062889
-11.60398674 -2.57596779 -15.51837254
19.26446152 5.44982052 -18.05659103
-19.77294922 7.92866135 -16.81346703
-13.46461105 -0.69319618 -18.24135780
-11.55484200 -2.66953707 -15.10511208
1.48325849 -2.04885626 -22.45758629
-16.68884087 2.31812429 -19.03378296
-20.06944275 7.97373056 -16.39522743
16.12810898 -6.77344894 -4.41011572
-17.31426048 3.99707580 25.58890724
-20.17403412 7.85408258 -16.54523087
-11.81461239 -7.38024187 6.67769384
-14.47064018 6.73607492 24.28707695
19.53538322 5.60141134 -17.73560143
1.38538527 -2.17691135 -22.35631180
-26.61002159 7.23327732 -8.82047653
-21.98509407 9.87651253 -9.13707161
19.58717346 5.33504534 -17.73930550
-10.98364449 -2.57786179 -15.91218472
-26.73196793 7.33796978 -8.52647114
-26.66460991 7.20046043 -8.77838612
-16.44311523 2.43684530 -19.29265213
-21.56769943 9.60989952 -9.55239582
-10.70264435 -2.70735502 -15.48633957
19.83538246 5.61638498 -17.43595123
-10.31461239 -2.62941265 -16.01539040
-16.76461220 3.90710211 24.31167603
-13.77842426 6.89286804 24.19255638
-20.36461258 8.11837006 -15.78980350
-20.21461296 8.04996872 -16.06902313
-14.10247231 6.74025869 24.51059341
0.02918370 -8.37191772 5.69770670
-14.73707008 -7.39009762 -6.69952011
5.97057772 -5.19015408 -8.33910751
-10.07671356 -2.72396278 -15.72114849
-16.49590492 3.91701746 24.49850655
-15.56461143 2.57686830 -19.97356415
-20.63750648 7.98346472 -15.75949574
-15.83893108 2.33274770 -19.63317490
-16.17514610 3.93486094 24.75287628
19.85825539 5.48783112 -17.45241547
16.83538437 -6.30875254 -4.89064312
-21.78873825 9.61201572 -9.23715115
10.93221664 -5.91968203 -12.61965847
20.12282372 5.46487427 -17.12582588
17.20506477 -6.08774900 -4.97645712
-20.00792122 8.28334141 -15.77378654
-14.72309113 -7.37765121 -7.02279329
-0.41461411 -8.36319256 5.83775759
20.42666245 5.47763681 -16.83454704
-13.53249931 6.90825129 24.27305984
-9.99345016 -2.81387329 -15.40259838
1.98538530 -2.03983736 -22.43430901
-15.26461124 2.25163198 -19.96957397
2.43538523 -2.06121612 -22.36359024
-6.35891724 -2.88230109 20.98702621
1.98538530 -2.14067459 -22.35859299
-13.19520760 6.88070297 24.48499870
-21.01398087 8.03868008 -15.22711372
-5.67824841 -11.96713924 15.48485661
-10.46393204 -2.82079029 -15.16842556
-15.81271553 3.94848394 25.01233673
-21.26461220 7.81390667 -15.47005463
-13.65470600 6.80058527 24.51105118
5.41092587 -5.30864191 -7.87042570
-15.56461143 3.96078873 25.16501617
-20.74102974 8.07896996 -15.46757793
-19.12639618 -2.94565892 9.76854515
2.97817087 -2.03571272 -22.34743118
-12.04084301 -2.65005684 -15.00270176
-21.41461182 7.91434002 -15.02548504
-12.10448933 -2.74779058 -14.57575130
-12.93740368 7.03370810 24.27503204
-2.65418077 -4.80854321 -9.11540413
-11.92033863 -2.78639483 -14.53024387
-15.29067516 3.92897868 25.34449768
-25.16460991 9.94448757 -6.88689852
17.59315109 -9.60295582 5.46486616
3.34568000 -2.01895738 -22.29726982
-12.13992214 -7.37503624 7.11602783
-12.76819992 6.92183781 24.57379150
-12.57354355 6.96339798 24.57186890
19.21369362 5.56555271 -16.20915222
3.63443232 -1.89629161 -22.36957550
-24.83036804 9.77961922 -6.72601223
-11.40159225 -2.76309490 -14.81900978
-21.44970512 8.04096222 -14.62064743
-19.61461258 2.50526047 -18.27307701
-24.56460953 9.70037651 -6.87154102
-21.24097443 8.05399036 -14.84842300
-14.06461143 -7.53981495 -7.28984642
-19.44123268 2.42127442 -18.41602707
-21.11050606 8.17046833 -14.73731136
-13.48476219 6.67795277 24.96863937
-25.16460991 9.88323879 -6.58245373
-0.27537331 -8.37365341 5.62958336
-17.06461143 3.99800038 25.75647354
-21.12524223 8.26375103 -14.45171261
-25.46461105 9.95666885 -6.28647995
-12.52413177 -7.32569981 6.88503504
17.78341866 -9.36379719 5.18196917
-16.54467201 4.00547791 26.12548447
-11.36461258 -2.84770203 -14.49869061
-22.51282120 6.78978205 -11.48377609
-19.13918304 2.40600610 -18.71225357
-18.86461067 2.38857412 -18.93579292
-8.66461277 -0.75702780 -22.38990402
16.94252205 -6.08145189 -5.27678442
-12.89869690 6.77909088 24.87281418
19.49895477 5.58633518 -15.88674355
-22.82428741 6.81958485 -10.87006092
-11.99933815 -2.83669162 -14.26813889
-12.41461182 6.80427933 25.02323914
-22.17899323 7.10198116 -10.97104931
-25.15958786 9.80358601 -6.15687513
-22.46461296 6.87807322 -11.20287323
-12.92963123 6.67712402 25.19386292
-24.56460953 9.60876846 -6.56518459
-12.55917072 6.65275478 25.46025658
-7.76461315 -0.91311842 -22.49136734
-20.66461182 8.23058605 -15.19567680
-24.86461067 9.70928860 -6.27091599
-22.46461296 6.97877169 -10.90861607
-8.14974594 -0.86369252 -22.43893433
3.17473173 -2.31413841 -22.04903603
-11.55510139 -2.90366483 -14.19554234
3.66637254 -2.26576900 -21.90981865
-16.34931374 4.02595568 26.25976562
-25.76461029 9.99264908 -5.68755817
17.72316551 -9.62358665 5.13696766
-8.01498604 -18.74479103 -10.17358494
3.92706394 -2.07994533 -22.07379913
-10.12257957 -0.79290152 -21.83941269
-9.82327747 -0.85032117 -21.89031601
-22.79929733 6.94213247 -10.44065285
-7.28005505 -2.72757697 21.86385345
-26.06460953 10.04928780 -5.08993387
20.70290947 5.54588032 -16.52973557
-25.77221107 9.88570404 -4.92783451
6.33723307 -5.12212944 -8.41481590
-10.96054268 -2.81419373 -14.86231804
-22.01461220 7.27419233 -10.77690601
-22.44916916 7.16591930 -10.40341091
-25.76461029 10.08721638 -6.06072712
-12.11461258 7.06741333 24.55579376
-12.26461124 -7.35466671 6.82638264
16.61025238 -6.38549185 -4.95772457
-9.26517963 -0.84347880 -22.11094284
-17.46790695 2.41509938 -18.51415062
-25.45640755 9.89024925 -5.97789288
-15.03548050 3.84127593 25.49435425
24.33214378 -2.22523737 3.28562164
17.73650169 -8.93026543 5.70500326
17.70579910 -9.29235458 5.45093870
17.86099625 -9.00413895 5.42719221
-25.46229553 9.83969879 -5.61392784
-8.98938751 -0.86221743 -22.19299126
-6.97945166 -2.79450655 21.55430222
-12.27574062 6.90759659 24.81617165
-17.91663551 2.43626165 -18.18186188
20.94138336 5.59247112 -16.21649361
-18.31230545 2.42028356 -17.84420204
-2.93139291 -4.68814516 -9.02602291
-10.08938694 -2.90523028 -15.00329590
-25.16460991 9.72807980 -5.67091131
-14.06461143 -7.49292183 -7.59338999
-15.93361568 4.04789209 26.54963684
-10.46461296 -2.93163061 -14.64370632
4.27524090 -2.05026388 -22.04876900
-23.09399796 6.87666798 -10.00743675
19.90499496 5.62145233 -15.38556480
-24.86461067 9.63274097 -5.96550751
4.87880135 -1.98517108 -21.98908997
-11.06720448 -2.92944479 -14.26074314
24.32976151 -2.22832704 3.58976912
-22.10500717 8.03158283 -13.90400124
-10.80729008 -2.93141913 -14.39860153
10.51157093 -6.07271481 -12.44155502
-23.06770325 7.01746225 -9.52173424
-11.66461277 6.99899149 24.86068916
-22.76461220 7.87341404 -13.53154469
-11.36461258 7.09159708 24.85486603
-22.46461296 7.29044485 -10.02644539
-22.68070984 7.13224649 -10.05231285
-25.76020813 9.93269539 -5.37009907
-11.81461239 6.94688177 24.91188622
20.13816833 5.72969055 -15.04867363
-14.27995682 -7.43340826 -7.54297495
-2.46934557 -4.75720119 -9.70466805
-22.46461296 7.98386574 -13.67718887
-10.26713181 -7.47301388 6.53805637
-25.46461105 9.80034924 -5.22456884
-11.76700401 6.84713268 25.16856956
-22.41260147 8.09526634 -13.38922691
6.04878664 -5.11997080 -8.69056988
-25.16460991 9.67267227 -5.36683273
4.95610094 -2.15592957 -21.79639053
-14.66461182 -2.57966995 -13.61377525
5.46023178 -2.01309109 -21.83057022
-18.62645149 2.47296071 -17.59446335
-14.17824650 4.03186560 25.97092628
-25.16596031 9.58545494 -4.91320181
20.43538284 5.67383194 -14.74048424
-21.57145309 7.04559183 -11.88911152
16.50296402 -6.32380581 -5.18874836
-14.60318756 -2.66470289 -13.31458473
-13.76461124 3.87292314 26.15733337
-21.40561295 7.20140743 -11.72719574
-21.87778473 7.13429737 -11.26021767
24.34745789 -2.22250199 4.28700399
-14.19618797 -2.67365670 -13.56879520
-11.23154736 6.96269512 25.16879272
-18.56461143 2.26889634 -17.52593803
-22.76461220 7.98492765 -13.07606983
-21.97170639 6.93590927 -11.70066738
24.35706520 -2.18262053 4.63200998
-14.14097786 -2.74591255 -13.29300022
-10.91461277 7.04263449 25.15853882
-22.76461220 8.06550312 -12.78054619
-13.58312035 -2.69135165 -13.91728115
-19.39976311 2.61459517 -16.94650078
-13.54065418 4.02912378 26.26841736
-10.76461220 -7.44153881 6.53125429
20.73978806 5.63333368 -14.41658020
5.73538494 -2.15143204 -21.60643196
-6.58630419 -0.82642257 -22.96003723
-26.01113701 9.93406010 -4.48149824
-13.68351841 -2.77593517 -13.49068356
-22.41157913 8.21064854 -12.84049988
16.29071808 -6.37207603 -5.25782681
6.03538513 -1.95906365 -21.73656082
-26.05378914 9.97296524 -4.69034290
-22.31469917 8.20084953 -13.07177925
21.21434784 5.58355427 -15.93091965
-19.46461296 2.52106929 -16.82984352
21.41569901 5.44821405 -15.69322395
9.91882515 -6.29745579 -12.02942467
-11.95816040 6.69496298 25.56758499
24.51147842 -2.01828361 4.98767948
-26.36461067 10.13569069 -4.34388638
-26.06502914 9.92903614 -4.21016407
-13.11724281 4.05524826 26.52648926
21.42773628 5.60239553 -15.63151169
24.33538055 -2.12830806 5.29519510
-7.77285051 -2.68593311 21.87346649
-11.21461296 6.79812241 25.62481117
-22.13852692 7.02837992 -11.19270992
24.18425941 -2.28864670 5.00468922
-14.90984917 -2.72888041 -12.80580521
5.28538513 -5.24163103 -8.63680744
-23.06461334 8.03690147 -12.47815228
-21.56045532 7.36962223 -11.19577408
-14.42099285 -2.77578139 -12.93133163
-25.76461029 9.79524803 -4.17217255
-22.49285889 8.27185631 -12.51722527
21.62785721 5.58806324 -15.33001804
-26.11412239 9.92401218 -3.92502117
6.21844912 -2.25574136 -21.37905121
-23.05991554 8.12375546 -12.20075417
18.02742195 -9.39483929 4.60720015
-7.61461306 -2.74752951 21.56618309
-25.76461029 9.74767208 -3.71828961
-15.56467247 4.06336689 26.79541588
-13.89144421 -2.84734249 -13.00984383
-6.83976507 -1.06556034 -22.67518616
-10.91461277 6.97437763 25.28672981
6.63538456 -2.01604629 -21.49715805
-25.61461067 9.79505730 -4.62305021
-11.06461239 6.86658335 25.47020912
-22.00436020 8.51801205 -12.50154400
-10.76461220 6.87224579 25.62014961
-22.46461296 8.37827873 -12.19903755
-15.26461124 4.07262278 26.94256592
-25.46461105 9.70151615 -4.46686697
5.79838610 -5.14998531 -8.72984314
-14.96461105 4.23106813 27.07207489
-6.03325701 -0.85740632 -23.06525803
21.91404724 5.63710785 -14.95788479
-10.46588802 6.96976995 25.46139717
-10.18123722 7.02463531 25.46255493
18.02311516 -9.00445938 5.12112856
18.13943291 -9.04181385 4.82837534
-21.56094170 8.11557102 -14.31849766
-17.08449554 2.38757396 -18.79628181
-9.56461334 -12.29259491 15.26999378
-13.16682339 -2.72782040 -14.02930737
24.33538055 -2.08126378 5.62973356
-14.76902962 4.02090693 27.18869781
-21.56461334 8.25780964 -13.99501801
-13.26585197 -2.86853123 -13.32615471
6.88755560 -1.97897875 -21.46698570
18.20168877 -9.06065083 4.52896833
-10.46461296 6.86496067 25.77090263
-21.86461258 7.96265745 -14.27704144
-13.76461124 -7.70627642 -7.88055944
-24.57072067 10.20006847 -4.23892879
-16.97905350 2.14909744 -18.73947906
22.30475616 5.68394852 -14.43585587
-12.68450832 -2.87724161 -13.63313389
9.48538399 -6.42588282 -11.86882591
-5.36461401 -1.10270464 -22.97472000
-26.36511230 9.99263477 -3.24175835
-26.36461067 10.04572678 -3.73704171
-14.19087982 4.11085272 27.48531151
5.14117336 -5.20065546 -8.94951344
-2.05106211 -4.87032747 -10.11246395
-19.17929840 -2.98836803 9.11812496
-23.37960625 6.93164301 -9.15394688
23.99419975 -2.30471301 6.20807171
20.98006821 5.67818308 -14.06373978
24.03538132 -2.17208076 6.65061712
-10.52213764 6.68754530 26.34821510
-23.35366440 7.05872059 -8.75780296
7.20007133 -2.23545122 -21.07295799
-26.06460953 9.83709145 -3.12272882
-10.16824818 6.73062515 26.37959671
24.28587532 -2.05182719 6.04186583
24.33538055 -1.95775115 6.18624353
17.84167671 -9.64062977 4.86605072
-10.59862137 -7.43475246 6.27334785
-13.75370598 4.28917933 27.66534042
-22.78929901 7.22829199 -9.49069405
-26.66460991 10.15434074 -2.99239206
7.53538465 -2.00178123 -21.20571709
24.33209419 -1.89767754 6.51038837
-22.76461220 7.38953018 -9.13089943
-23.05944824 7.14480305 -9.11099911
7.81108904 -1.95740998 -21.13024330
-16.13093948 7.06080103 26.66036034
-21.95032883 8.20488548 -13.68748951
-13.93975067 2.26924682 -20.83248138
21.07051468 5.79542303 -13.84009743
17.98177338 -9.33205700 4.80497885
-13.46871376 -8.04904652 -7.89914131
-26.66635132 10.09893703 -2.61236072
-21.37965584 8.36900043 -13.89440155
-13.76461124 2.18438649 -20.87067795
-26.39104652 9.97893906 -3.04677629
-12.86461163 4.05329370 26.63533020
-21.76154518 8.37821293 -13.33162785
-26.34220505 9.90000439 -2.49631953
-12.56461143 4.05989027 26.74018478
-14.40677834 2.28642654 -20.55937195
21.31083107 5.73641300 -13.50133705
-7.25362873 -2.81112909 21.28461266
0.02841510 -8.40461636 5.41521883
-11.06461239 -7.40977716 6.38080359
-6.25676441 -0.51091683 -21.32032204
-13.47161770 4.12570477 27.81833267
24.20133209 -2.01415443 6.64068127
-5.97636938 -0.52349043 -21.38259697
-15.86461163 7.07124949 26.82644081
-14.51461124 2.24725556 -20.46224213
-0.21656550 -1.72438896 -20.27562141
-15.60549736 7.08141613 26.98803139
-15.56461143 7.28548479 26.90741920
24.03149414 -2.07751799 7.15528631
-5.31707954 -0.75415891 -21.24345207
-23.08327866 7.22849131 -8.84957123
-6.78961325 -2.85168457 21.12184525
-12.17394733 -2.97052240 -13.58918381
-14.06461143 2.33292627 -20.80291176
0.12122100 -1.88891375 -19.98192215
-12.89032364 4.13707781 28.09246063
-23.21191216 7.25211430 -8.52106953
22.72314835 5.71541739 -13.83506393
17.97293282 -9.65946674 4.56664228
-11.36472225 -7.42590427 6.59239006
0.45752099 -1.69183052 -20.31540298
-24.53069687 9.97204494 -3.61749387
24.06044388 -1.96469998 7.56900787
-0.56461412 -8.40623474 5.23927784
-13.73189545 -7.71687460 -8.18909359
-15.16589355 7.09847498 27.25917816
16.60000229 -6.08550310 -5.63294458
-2.36461377 -4.71824598 -10.17270088
-14.96461105 7.10352373 27.33944702
-23.37812996 7.32710743 -7.93204403
5.00528526 -5.34938049 -7.93020487
-24.85367584 10.16832924 -3.12835383
-23.69581795 7.01841640 -8.19994736
-19.44047546 -2.93561220 9.31734753
-15.26461124 7.04160023 27.23806000
-24.59532547 9.95943642 -3.29722714
-13.38579559 2.29543519 -21.11639786
-2.35699534 -0.90085709 -23.58831024
-23.36748314 7.27728891 -8.08991241
22.88895416 5.74542618 -13.52076435
-24.83756828 10.05126286 -2.68531489
1.04180670 -1.68051124 -20.27536011
-23.66461182 7.12118912 -7.91164637
-2.05751467 -0.89984310 -23.61623764
-13.16461182 2.18601608 -21.16028214
23.09275055 5.70369196 -13.22307396
-1.76461375 -0.91231620 -23.62400436
-12.26531982 4.06139135 26.85478973
-24.53297424 9.73519802 -2.84994769
0.93538529 -1.86084604 -19.97145462
-0.27699959 -8.43101311 4.89226341
-24.00464249 7.05289078 -7.30616236
9.78331184 -6.19015837 -12.48484230
-11.96461296 4.07482004 26.97749329
-19.76461220 8.23021317 -12.51179123
-9.83826351 -11.96677971 15.23256493
21.67848587 5.79158497 -12.99332428
-24.55013657 9.75132275 -7.11523247
-12.79004478 2.23403096 -21.39216995
-19.82471085 -2.92104959 9.04451084
-23.60956573 7.24004269 -7.64421654
-1.39974809 -0.91324198 -23.63799095
-14.66461182 7.10493374 27.36182785
1.68538535 -1.81584775 -19.97428703
-24.26461029 9.61189461 -7.16656733
-9.85912418 -12.30192852 14.95305824
-9.86461258 -11.99815941 15.17209435
-20.22339439 7.93597412 -12.17683697
-13.66176701 -7.77055073 -8.61685848
-0.97789019 -0.93022740 -23.63601875
-14.36245155 7.07964039 27.27981758
-0.41461411 -2.10216761 -19.54845810
-18.32849884 -2.49713635 -10.54059792
21.93538284 5.79125500 -12.62967491
-13.46461105 -8.05470943 -8.45982361
0.03538590 -2.04415298 -19.65932846
-11.59472942 4.05621433 27.14286423
4.98538494 -5.31937408 -8.33132362
-13.77861977 7.08996487 27.15622330
-14.14890957 7.12887049 27.25726509
-13.76461124 7.26614904 27.24863052
-7.95504761 -2.76999092 21.23856544
-18.27541351 -2.32596803 -11.07140827
-4.76356268 -0.87940413 -23.25068283
-5.28767109 -0.89117187 -23.15838051
-17.94194031 -2.51008296 -10.94820213
-11.33802700 3.92070007 27.26746750
-23.33016968 9.78339386 -6.50988340
-17.63076019 -2.52883649 -11.21372604
-23.42500687 9.74464417 -6.25162172
22.20557594 5.78180456 -12.21433735
0.60187560 -2.02093172 -19.66083336
-5.05999374 -1.08353817 -23.03703880
-25.76461029 8.23439693 -8.58286953
-13.42553806 -8.07553291 -8.76580811
-17.95635033 -3.17296028 8.87887573
-4.48864937 -0.86277121 -23.31018257
-25.46578598 8.15175915 -8.57910728
-10.05470657 -12.01103687 14.93933773
-13.46461105 7.09328365 27.17669868
-13.46461105 7.29102373 27.24706459
16.08542442 -6.24667978 -5.73327398
-10.81333637 4.10554028 27.46577263
-17.38022614 -2.55523920 -11.35180187
-13.16461182 7.09907436 27.26872253
-23.02059555 9.74676609 -7.09207296
-23.09939957 9.68825626 -6.87077904
-9.88594532 1.98496616 -23.81986809
23.30110741 5.77192831 -12.93684006
-17.36461067 -2.66517568 -10.90305614
-24.56460953 8.21763420 -8.58181477
23.41999245 5.84944820 -12.71972942
1.23538530 -1.86269307 -19.93823814
-26.06460953 8.25777054 -8.28374672
-10.46461296 4.11286926 27.58225441
0.93538529 -2.00491309 -19.66179657
-7.71691751 -18.77171707 -10.78706360
-25.76461029 8.33413506 -8.28855038
-9.30811787 2.11362982 -24.10184479
-27.58060265 7.38291550 -7.04300594
-27.56430054 7.32084084 -7.29238081
18.13120842 -9.37889671 4.24839735
-26.06460953 8.33719730 -7.98815012
18.07284546 -9.65994072 4.30223894
-27.59059715 7.43322611 -6.71429110
-9.04886818 2.06058431 -24.14904022
-25.76461029 8.30294323 -7.98599625
-7.66467953 -18.81186295 -11.07694721
1.23517954 -1.99204445 -19.66281128
-12.86461163 7.10838556 27.41669083
-17.96461105 -2.61011815 -10.60592651
-2.68169570 -4.58743525 -9.95307446
9.42761707 -6.33470297 -12.24065208
-17.96461105 -3.16295242 8.36621952
-13.77507496 -7.63648367 -8.69146633
-26.36461067 8.28549767 -7.68430471
1.68538535 -1.87796521 -19.86141968
-12.27366352 7.12342072 27.65285301
-12.56461143 7.28589487 27.54797935
4.25016403 -5.40179443 -8.03245354
-3.86972284 -0.94120562 -23.36999321
-18.11461067 -2.68083453 -10.15058899
-9.24186993 1.74550557 -23.93679619
-12.25540352 4.11583328 28.35607529
-26.06460953 8.31733036 -7.68630743
-3.58500910 -1.02213717 -23.34429169
1.83526409 -1.96853244 -19.66401482
-17.66479874 -2.68951821 -10.60117626
-17.10939407 -2.77674294 -10.62761974
-11.81511593 4.13963699 28.53432846
-27.64702797 7.40740156 -6.41420650
-23.62595177 9.83553505 -5.92675638
-8.03708458 1.88754272 -24.34898758
-7.48034382 -18.41759109 -10.52904987
-7.43151283 -18.46769905 -10.80230713
-5.66461372 -2.97828245 20.82921791
-27.48431778 7.67986679 -6.15964222
8.88538456 -6.43408012 -12.31919861
18.14930534 -9.69714165 3.96782660
-3.08628631 -0.89163089 -23.49840927
-23.67957497 9.78568459 -5.70821571
-7.75996447 1.80247891 -24.39612198
-27.83340263 7.23837423 -6.14477634
-19.23471069 -2.33300734 -9.76929092
-11.57761669 4.17692423 28.63801384
18.17799759 -9.39773369 3.94899011
-3.28494692 -1.18484914 -23.25772667
-2.92845535 -1.14583051 -23.32263184
-8.36461353 1.90251386 -24.27259636
-11.36461258 4.18481588 28.72582245
-18.25982094 -3.16560626 8.87646103
-24.58007812 8.33578300 -7.98849964
2.28538537 -1.77467644 -19.97687531
-18.84977722 -2.45550847 -9.97638130
-24.56124496 8.59794807 -7.43185091
-24.56398964 8.51451397 -7.61529827
-11.88053322 7.13365412 27.84393501
-11.96461296 7.34267330 27.84499741
-5.07089186 -0.52551270 -21.57145691
-23.96461105 9.93268871 -5.25587749
-18.41259956 -2.58279538 -10.15801620
2.88538527 -1.70276189 -19.98139954
15.86798954 -6.64753962 -4.94479036
-11.06461239 4.19148350 28.83178520
-27.86461067 7.45463324 -5.56389189
-4.75784826 -0.57745051 -21.56406021
22.79837036 -1.95324659 11.89723015
22.53538322 6.03785229 -11.45060444
-10.61461258 4.20237827 29.00497437
23.43735504 -1.60860658 11.86611557
23.14744949 -1.68722999 11.88313198
-24.84296417 8.46090317 -7.16234207
-27.86581612 7.31480503 -5.81677723
-5.06461382 -0.76489800 -21.28089333
-23.85906601 9.85458755 -5.37827921
3.37150240 -1.60316730 -20.03250504
-19.38528442 -2.38127756 -9.41795158
-10.76461220 4.01793814 28.95595360
18.22353363 -9.07948875 4.22956038
-4.77017689 -0.77351308 -21.31666183
-11.66461277 7.14645100 28.02173615
-11.66461277 7.28896427 28.14897156
2.13538527 -1.87549889 -19.82222176
-11.55607414 7.15498590 28.15740204
-0.56461412 -5.07760048 -10.60098267
22.83538055 -1.64431679 12.51908112
2.43538523 -1.87249136 -19.77439308
-23.41247940 8.08019733 -11.73223209
-14.10888672 -7.43771076 -7.89745617
-10.45097446 -7.46329403 5.90112066
-19.16412544 -2.40313101 -9.65644264
-27.88375854 7.48932266 -5.22946835
23.13537979 -1.50588810 12.16967678
22.93911934 -1.67514956 12.19171906
22.81947517 6.16325665 -10.84703922
2.28538537 -1.93853760 -19.66597557
-5.59607744 2.01641011 -24.99017715
-4.17796755 -0.61779571 -21.56839561
-24.25705338 10.12486935 -4.94439220
22.82226372 5.86274195 -11.07779884
-19.16461182 -2.62111139 -9.10227013
-27.86461067 7.46568823 -5.12639904
-4.46455097 -0.79226309 -21.32543945
-23.65093613 8.08267307 -11.27938938
-24.11161232 9.89226151 -4.77946234
-7.16445827 2.21311808 -24.73673248
2.03221321 -2.08769512 -19.33687210
-4.01461363 -0.91183770 -21.23353195
22.93838501 5.90378714 -10.84098339
-11.70381355 7.40441895 28.43893623
-27.69936752 7.47816229 -4.92817402
-27.56460953 7.58875370 -4.93512964
-7.61461306 2.03604817 -24.53900909
-18.84533691 -2.61466599 -9.48789406
-18.26461220 -3.17551804 8.36701107
-23.65308762 8.17088032 -10.98896122
2.73538542 -1.86857069 -19.71212959
-11.68260193 7.47662878 28.81262589
-23.96526337 9.60285664 -4.67143917
2.94318390 -1.86595476 -19.67053986
3.03538537 -1.85452414 -19.67125893
18.25048065 -9.09832573 3.93015170
-3.85975146 -0.74042821 -21.46409416
-22.65392685 8.42426777 -11.71454716
-11.44056702 7.12736893 28.41373825
-27.24932289 7.75287771 -4.99459410
-3.40916824 -0.75261033 -21.51887894
-11.42368126 7.18106461 28.75577164
-7.41140032 -18.52931404 -11.09974480
23.13537979 6.22343683 -10.23540974
23.84664536 -2.06247473 7.99940634
-6.86121225 1.99614930 -24.73575974
9.09362698 -6.33929205 -12.47927284
-22.98378372 8.22216797 -11.92943001
23.25589371 5.94146109 -10.24216652
-10.09749222 4.12279844 27.69674683
24.00558090 -1.82826567 8.35433197
2.88538527 -2.01188517 -19.36076736
-24.26058960 9.92440987 -4.39219856
-24.29652596 9.88677979 -4.17793131
23.13764000 5.89994669 -10.49760914
-2.86817765 -0.78286618 -21.54205132
-10.11282349 -12.30705643 14.67126465
-10.28465557 -12.03433704 14.64256477
-6.56475401 1.72650838 -24.67807579
23.66513062 -2.13439059 8.33668518
-9.50851536 4.13718319 27.89737701
-5.96461391 -2.98260260 20.52889442
-8.97514534 4.16543674 28.04916000
-24.26491737 9.65860081 -3.74591899
-11.36461258 7.22465086 29.02669907
-18.55382347 -3.15064311 8.55897141
-24.60414124 7.19349527 -4.90107918
-23.12431335 8.29564381 -11.33526707
15.64066219 -6.72438812 -4.93989229
23.42069626 6.24630404 -9.62317657
-27.56460953 7.48573399 -4.80783701
-6.07723951 2.01022792 -24.89041519
-14.06461143 -7.44414949 -8.12956810
3.33535719 -1.86209226 -19.58259392
23.43141937 5.92746258 -9.91788960
-22.76461220 8.47928429 -11.30361366
23.78533936 -1.96479392 8.60511398
-0.86461413 -5.01958656 -10.75492859
-17.06461143 -2.65459204 -11.20431519
-27.56460953 7.35071659 -4.61956120
-23.06461334 8.43241405 -11.00007057
23.79043961 -1.92059672 8.89424801
3.63538504 -1.85469604 -19.49154091
-17.01301575 -2.72684550 -10.89231014
-11.06634712 7.20006418 29.35917282
-27.40665245 7.49699926 -4.62876415
-27.26461029 7.59761572 -4.63509512
18.25699806 -9.72393703 3.45328474
3.48538494 -1.93481135 -19.36561394
-8.45700645 4.15344286 28.18646431
18.22560692 -9.41657066 3.64958167
-10.46461296 7.48025417 29.31689835
-26.90982056 7.76946974 -4.64590645
-1.17571497 -5.02377892 -10.58949184
23.99990082 5.79404783 -11.76164627
-27.29723740 7.53720045 -4.33127832
-26.96461105 10.25708771 -1.79648435
3.93538499 -1.70705104 -19.68053818
-7.50042772 -18.69506454 -11.40214157
-8.04851532 3.87499237 28.36560249
-26.90649223 7.77553940 -4.36006069
-26.96461105 10.18639755 -1.34114695
4.25077963 -1.62039185 -19.72547150
-10.31812286 -7.48591328 5.56343508
-10.76461220 7.23716116 29.46354485
-5.65893936 2.22236490 -23.84372330
23.76181030 -1.87801194 9.18715668
4.02648783 -1.84701693 -19.37114716
4.31038523 -1.81149089 -19.33784485
-26.96544838 10.13690662 -0.89098561
18.27361488 -9.43540764 3.35017323
-10.46461296 7.23621368 29.44847107
-7.54194164 -18.76048660 -11.69083977
-27.56460953 7.37359333 -3.86951756
-10.20215702 7.25170898 29.41549301
-7.83128595 4.11830282 28.37760544
-27.29705429 7.55840588 -4.03144121
23.67843437 -1.86242282 9.45649433
24.37220764 5.71910954 -11.12995720
-26.91331863 7.83629370 -4.04929209
-23.39545250 8.35408592 -10.68185616
-10.94614315 -7.38860083 5.95430326
3.90660262 -1.99580967 -19.05414581
-27.30242348 7.62187719 -3.71726227
-14.03250599 -7.43447590 -8.50655460
