-5.95839167 3.57693148 1.53359163
-5.68460560 3.69823194 1.86036122
-5.67503834 3.46387076 1.55118835
-5.27583504 3.41659355 1.80234873
-5.24668360 3.42387938 1.66343760
-5.27070475 3.54691386 0.93950188
-5.17724180 3.45981336 1.23529649
-4.89208603 3.53115559 0.92663550
-4.61740065 3.54717565 1.09908807
-4.30593157 3.59022713 0.99502558
-4.25357294 3.64906645 0.63736290
-3.92631125 3.62527442 0.79498142
-7.01002932 3.21888661 3.15483689
-7.24064255 3.44126511 2.65468597
-7.02725506 3.38450670 2.68708801
-6.82237148 3.39642382 2.90916204
-6.65342808 3.39220238 3.04228354
-6.71998501 3.34056187 2.85962343
-6.62927675 3.35580206 3.14120793
-6.38737965 3.32413626 3.12780237
-6.61154556 3.07923079 2.57042313
-6.82166386 3.42595649 2.33091879
-6.52040195 3.14792752 2.59807229
-6.27896595 3.26357841 2.73548317
-6.30055523 3.32616997 3.25470161
-6.25767374 3.26126337 3.43371987
-6.40599060 3.00567579 2.78496099
-6.67571354 3.65073323 2.20603061
-6.32348347 3.42030978 2.65186954
-6.28501701 3.77157211 2.10983849
-6.08727264 3.24350524 3.29295516
-5.96728373 3.25656462 3.47017145
-6.15768003 3.72586060 2.29640675
-6.13550377 2.99395347 2.90075636
-6.31869650 3.56402612 2.53731036
-5.86777258 3.41661310 2.90240359
-6.00061131 3.06497431 2.92878342
-5.88793707 3.18101001 3.37506986
-6.00321007 2.93999290 3.05409908
-5.97650385 3.67865062 2.54053807
-5.71568775 3.19078684 3.45649099
-6.10277605 3.79751635 1.98829985
-5.70414400 3.77376652 2.25369930
-5.77053976 2.94346237 3.11231899
-5.78161144 3.53467655 2.85362935
-5.62385082 3.61522532 2.79143643
-5.27202606 2.99980021 3.34250689
-5.50364637 3.71202278 2.54347706
-5.47842121 2.95397377 3.25132322
-5.28767920 3.68328142 2.73298740
-5.17015457 3.72451401 2.46766496
-5.05771208 3.58694172 3.02937341
-5.11949539 3.50622201 3.14634085
-5.23074436 3.73177719 2.32534289
-4.97131062 3.67224431 2.74926782
-5.52184296 3.75048566 2.08209372
-5.20068121 3.57423663 2.04235101
-5.29239750 3.69474220 2.10905790
-4.66751575 3.69060445 2.46577644
-4.79736137 3.43198180 2.16183090
-4.69415140 3.57456398 2.28818393
-5.00017595 3.39331675 1.99222863
-4.30921078 3.66364527 2.82921267
-4.33490181 3.35684109 2.27612472
-4.65938854 3.34940529 2.06210041
-4.65614557 3.66650963 2.38880658
-4.23958302 3.58516550 2.46143246
-3.97218800 3.64101505 2.75489497
-3.96550298 3.31974149 2.28868270
-4.08922386 3.42886114 2.41678643
-3.92440438 3.62908459 2.65173817
-3.71596646 3.60905409 2.65948009
-3.74253845 3.53903461 2.55708265
-3.79182625 3.34882808 2.42383432
-3.45452285 3.46156073 2.56106877
-3.36814117 3.57191610 2.66398263
-3.59495664 3.31168628 2.30547667
-3.06196690 3.54147649 1.12697935
-3.14906430 3.31374717 2.31945729
-3.23551369 3.35176325 2.50801682
-2.87141061 3.52455473 1.30909896
-2.76547384 3.34907722 2.51877809
-2.48827982 3.31701779 2.47388291
-2.29180646 3.30086756 2.26750565
-1.87099588 3.29568720 2.29059935
-1.55327070 3.32381701 1.91177726
-6.03525639 3.17373085 3.65863347
-5.76376057 3.20225191 3.55286813
-5.82763243 3.22327375 3.61261702
-5.60323429 3.17254210 3.63425899
-5.56868076 2.93082070 4.13200235
-5.54243040 3.15242028 3.74988818
-5.28133059 3.08445001 3.80751634
-5.25901985 2.92189646 3.64365458
-5.24450636 3.10541558 3.92974949
-5.10456944 2.99873495 4.20143652
-5.10205364 2.95873451 3.83075309
-4.97622061 2.86277676 3.58076763
-4.95806456 3.03328180 4.05126667
-4.56303167 2.80890036 4.68150568
-4.85503912 3.00116110 3.51921940
-4.90671015 2.87028360 3.85999441
-4.78249598 2.92066193 4.11914921
-4.85392094 2.98683691 4.26629782
-4.75663996 2.84993696 4.51912212
-5.14955521 2.85894060 3.56246161
-4.66056871 2.94632149 4.32470560
-4.74967480 3.19437385 3.50054789
-4.57051992 2.88136888 4.29196692
-4.58232021 2.80490732 4.08540869
-4.46002293 3.51519299 3.29907060
-5.08760166 3.40557170 3.24492049
-4.62241364 2.81227422 3.87613177
-4.34688330 3.22254920 3.62408829
-4.27532053 2.79067445 3.90945029
-4.46070623 3.41582274 3.44641018
-4.23184156 2.69203448 4.30057192
-4.14238214 3.33802342 3.60013747
-4.01604223 2.64765859 4.28602743
-4.42181778 2.91584015 3.70767522
-3.82700467 3.51015878 3.36059570
-4.03348494 3.41967154 3.51608753
-3.74418831 2.98236513 3.81547046
-4.06555843 2.92153978 3.79525495
-3.52728367 3.58781886 3.12299991
-3.34894466 3.31668019 3.71341252
-3.37116790 3.37634873 3.61309314
-3.05665255 3.50602984 3.29394174
-3.47575474 2.88843322 3.89415216
-3.44917250 2.79238224 4.00436115
-3.08170176 2.81174350 4.00941086
-3.18849421 3.57053995 3.01308990
-3.00634623 3.57770514 2.82024240
-2.67733431 3.28554964 3.75490260
-3.13603950 2.95418811 3.87590456
-2.93940187 3.48700166 2.63089800
-2.76874804 2.96161771 3.85911965
-2.62663651 3.43108797 3.44888592
-2.77223039 3.15363622 3.82820225
-2.84118605 3.54711747 2.73071074
-2.57628369 3.50953054 3.18775010
-2.33935070 3.53165770 2.88920164
-2.39678931 2.83066225 3.90436268
-1.90254509 3.40345407 3.31237340
-2.12974644 3.32221341 3.59410930
-2.11115742 2.93845654 3.78278732
-2.17333055 3.24072170 3.71072006
-1.51810169 3.13037968 3.62000036
-1.31036580 3.27543235 3.40274453
-1.53873897 3.24059105 3.55884027
-1.56509244 2.96508050 3.64408684
-1.29456806 2.88479638 3.57970953
-1.09583127 3.14671135 3.43909764
-0.85981560 2.94301653 3.36380839
-0.65230352 2.86178780 3.30710602
-0.77295297 3.12377644 3.28933263
-0.69619590 3.22464561 3.18546391
-0.41843221 3.15251708 3.03563213
-0.54023939 2.98604465 3.17050362
-0.39867929 2.84356165 3.22801971
-0.22867259 2.99219918 2.92717838
19.12457848 -2.74406719 -2.08328462
19.25754166 -2.83604336 -2.44659925
19.22300339 -2.85015059 -2.65641141
19.32903481 -2.76738548 -2.11344695
19.40872192 -2.87865782 -2.77648520
19.59141541 -2.82617044 -2.55047822
19.72886848 -2.64744282 -2.12300396
19.89450264 -2.60317039 -2.40568709
20.01400375 -2.45298600 -2.38180828
19.89395523 -2.69750643 -2.75950408
20.00521088 -2.58959198 -2.72322989
19.95982361 -2.71191955 -3.24835253
20.17393875 -2.46321607 -3.09745860
20.02885056 -2.60667300 -3.53010178
20.11927032 -2.58455300 -3.27714658
20.28794861 -2.32543683 -3.44386983
20.26899338 -2.37690520 -3.80387378
-4.17494774 2.72636724 4.91190481
-4.40535259 2.87483191 4.51018715
-4.31187248 2.83181238 4.68862391
-4.04578114 2.73071551 4.76989126
-1.85805571 2.66338849 4.15353966
-1.59975481 2.50267911 4.38507843
-1.20283234 2.64317489 4.00199795
-1.14150119 2.81131959 3.61035180
-1.17503786 2.38166380 4.51712656
-0.74342489 2.32726884 4.59501982
0.28370729 2.58418751 3.64486718
1.86468446 2.44300413 2.99163723
2.25256610 2.25903273 3.16230822
2.84724021 2.06328130 3.27682495
3.22558713 2.17097282 2.80008769
3.68483424 1.85344923 3.48864770
4.86507845 1.66599238 3.12551045
5.34622526 1.54202223 3.08308101
5.99425507 1.36770868 3.02144551
19.40357208 -2.40762687 -1.08887756
19.27517319 -2.63772893 -1.52178955
19.08456993 -2.69375157 -1.97399604
19.56796837 -2.24510884 -0.84692192
19.52153778 -2.45545387 -1.03396618
19.28461838 -2.73636842 -1.83195567
19.71259880 -2.30449319 -0.90914702
19.68555069 -2.47382975 -1.12042105
19.80597305 -2.09683228 -0.79244637
19.78839874 -2.38962770 -1.16476715
19.68114471 -2.55373144 -1.51887119
19.88718987 -2.39880657 -1.65076196
19.84466934 -2.52205300 -1.84671664
-1.08784175 2.15341139 4.89776802
3.37869787 1.43501461 4.58708572
3.76909137 1.44985831 4.28426123
4.09752226 1.18558049 4.73968792
3.74068975 1.64544117 3.86977506
4.03459358 1.41736054 4.29655647
4.09590006 1.62697053 3.88983440
4.36898708 1.52695465 3.91736031
4.43392611 1.60848475 3.67315102
4.46529055 1.33026421 4.20701504
4.99983168 1.25025511 3.94216919
5.17891693 1.39135051 3.62228966
4.77184010 1.37630129 3.88207293
5.42890787 1.40821624 3.44101071
5.51896143 1.15882289 3.74123740
5.70880032 1.27604544 3.50981998
6.08551455 0.94675648 3.77928305
5.99628639 1.27283192 3.31979060
6.18729973 1.14087355 3.44805503
6.73852777 0.91447377 3.49636793
6.45609903 1.20265734 3.05536985
6.80103922 0.74350500 3.68481660
6.82155323 1.24303710 2.76878762
6.68493462 1.02358079 3.31346726
7.22303438 0.64689392 3.64696741
7.25712204 1.03317153 2.97268176
7.64287043 0.37898880 3.91633582
7.21357489 0.81445771 3.35092330
7.82487917 1.06647599 2.68009639
8.99034786 0.47935021 3.35471869
9.21874714 0.59331149 3.09650397
19.70455360 -2.04379225 -0.62456250
3.39315152 1.25862455 4.95549536
3.80534434 1.19440436 4.80498743
4.32225132 1.05916953 4.78796721
6.20271921 0.70205492 4.16255856
8.34375286 0.33535379 3.72312427
8.38619614 -0.17565151 4.46245813
8.52321911 0.14005379 4.00219917
8.75943756 -0.19497150 4.42666483
8.64724541 -0.07181160 4.25288820
9.03285694 -0.05737200 4.11497068
9.52317238 -0.13960920 4.19344711
9.37638092 0.14333311 3.79007673
9.94492722 0.12155160 3.71038651
9.75261879 0.22162470 3.55197430
10.24404335 -0.20150819 4.10696363
9.65048218 -0.04333590 3.98447585
10.10360432 0.03845610 3.80622983
10.25000477 0.35838419 3.23158288
10.58667850 -0.07487340 3.82993865
10.88601398 -0.28462410 4.05692148
11.07872677 0.17114760 3.32968736
11.15096188 -0.43200931 4.20899963
11.25650787 0.00132420 3.58651614
11.47935295 -0.46436760 4.12850571
11.42679977 -0.82030469 4.36365271
11.51026821 -0.32773229 3.94574261
11.27774143 0.32020861 2.91048717
11.63890457 -0.52290690 4.05079412
11.51581001 -0.66151887 4.23175049
11.59475327 -0.67518657 4.07509279
11.40991592 0.35646689 2.90630722
11.58746147 -0.12390510 3.55955553
11.53830147 0.08914650 3.21017575
11.70531368 0.10608030 3.28664708
11.70419598 -0.57473493 3.89055371
11.72856045 -0.29699731 3.77075934
11.77866745 -0.48396480 3.90132952
11.72931767 -0.10721460 3.47759247
11.86292362 0.29992169 3.35024667
11.83462143 -0.48510689 3.94277406
11.87878227 -0.48104310 3.78206110
11.87695217 -0.19932599 3.65796995
11.96980095 0.05139840 3.64081597
11.99221134 -0.30047640 3.89450455
12.11006546 -0.49397999 4.15224934
12.03749466 -0.47038981 3.97881079
12.11398983 -0.20887470 4.00697660
12.32110405 0.35972041 2.59055901
19.50193214 -1.79461145 1.55478275
19.46685028 -1.71046591 1.39634824
19.46816063 -1.96050966 1.33272564
19.44120979 -1.58626711 1.07932675
19.58284187 -1.81320095 1.70906615
19.55267525 -2.03925371 1.60349703
19.68145752 -1.95385623 1.73897517
19.47673225 -1.96348441 1.07968795
19.50936508 -1.76518619 0.95826209
19.52768517 -2.07731795 1.33066714
19.57159424 -2.04763675 1.04162645
19.73359680 -2.12494779 1.42936885
19.78712082 -2.08689880 1.68779814
19.64291573 -2.11724401 1.19985211
20.02540779 -1.67319536 1.85628235
20.08050919 -2.08001471 1.64227533
19.81954002 -2.06422329 0.98193932
20.11784363 -2.12000942 1.27201855
20.08564949 -2.04941559 0.99922591
20.30654335 -1.98028231 1.72201622
20.29909325 -2.03138876 1.09809005
20.19363976 -1.93824029 0.97207677
20.29831886 -2.08203912 1.33388221
20.39683723 -2.07265615 1.37893915
12.16326904 -0.44753999 4.25194311
12.18812656 -0.16976370 4.06224442
12.34383774 -0.58442402 4.48140907
12.32806301 0.06135930 3.83119583
12.23169327 -0.69924903 4.27760649
12.27779579 -0.39911431 4.36154556
12.40748501 -0.81044787 4.52611303
12.40200996 -0.37281179 4.35593987
12.51191616 -0.96855092 4.52963781
12.63867283 -0.85221809 4.70882225
12.61324310 -0.70061398 4.62144804
12.84827614 -0.90664321 4.75972605
12.77151108 -1.04649508 4.67316580
12.90028095 -1.04671741 4.73103666
13.03838158 -0.95986408 4.79742765
13.20382595 -0.84335011 4.73330832
13.52312565 -0.29890141 4.39656067
13.15014076 -1.07990336 4.71638823
13.32601738 -0.97817218 4.80510855
13.46602821 -0.90494162 4.78695583
13.53807163 -1.00108862 4.78836155
13.65749550 -0.81178951 4.76017618
13.55821514 -0.04206900 4.16234970
13.72821331 -0.96984631 4.70860147
14.34311104 -0.36588421 4.58151913
13.93918610 -0.80582583 4.75811195
14.01130009 -0.87219238 4.70421886
14.08601093 -0.62984550 4.69879484
14.25796413 -0.68712842 4.71061897
14.49714375 -0.53040808 4.68454790
14.52258015 -0.67246050 4.63569880
14.89628220 -0.47814959 4.68699694
14.85806656 -0.37037489 4.66171980
14.95656872 -0.53590977 4.66629219
20.24332619 -1.80625558 1.88140738
20.11369324 -2.00074291 1.83639872
20.32779694 -1.57103848 1.81547546
15.23789310 -0.33759269 4.69843245
15.47023296 -0.44082960 4.75107431
15.27602196 -0.51601529 4.68380022
15.95363045 -0.43263450 4.86632061
15.82871342 -0.48986670 4.85726404
16.05139923 -0.56304330 4.86440325
16.49801826 -0.56519789 4.81732368
-8.68124104 0.19215269 -11.69967747
-8.38755989 0.32550359 -12.04485226
-8.24298286 0.55241817 -11.79056644
-8.43830872 0.05795070 -12.19977951
-8.22694111 0.01456140 -12.38580799
-8.14486408 0.29408219 -12.16548824
-7.92049551 0.49165019 -12.01859856
-7.99801397 0.14580929 -12.32367325
-7.66478586 0.60419190 -11.91990852
-7.89572001 0.06168780 -12.38282108
-7.72837496 0.24348959 -12.21190929
-7.53895187 0.49423590 -11.95877075
-7.66259718 -0.10057470 -12.38536930
-7.49564648 0.09280530 -12.14393330
-7.34902334 -0.11145330 -12.07631874
-0.81953490 -1.84287095 -13.79500961
-9.84352016 0.70261621 -9.99469852
-9.86876011 0.59155470 -10.21002483
-9.71039009 0.98334962 -10.08767605
-9.60671043 1.16814423 -10.02361774
-9.46263599 1.22608984 -10.10703278
-9.62606525 0.80427122 -10.39230442
-9.27254105 1.15729046 -10.30724525
-9.41049004 0.89534730 -10.49436760
-9.60043526 0.56172001 -10.72786522
-9.20330429 0.91288888 -10.58475590
-9.39491653 0.62713617 -10.82334328
-8.81643486 1.17810571 -10.26559162
-9.27470303 0.45371491 -10.99744987
-8.96728802 0.91739160 -10.56325340
-9.14508152 0.13495800 -11.22447586
-9.06012440 0.67606592 -10.80880260
-8.52941227 1.06210625 -10.33800697
-8.92588139 0.12738030 -11.17554951
-8.78367424 0.53422171 -10.83335304
-8.62965584 0.81271142 -10.56824780
-8.63609505 0.55810320 -10.84941864
-8.63495255 0.45913410 -11.00528336
-8.65247059 0.33499771 -11.31155968
-8.75270367 0.05175180 -11.36637020
-8.08128357 1.61027455 -10.46934128
-8.50316525 0.71284378 -11.11897659
-8.54988766 0.50028598 -11.39306736
-8.13158703 1.31247485 -10.87923336
-8.31505203 0.96369028 -11.17198563
-8.50528145 0.38558641 -11.74577045
-8.04135323 1.17008460 -11.16378021
-8.36433601 0.78154111 -11.40619946
-8.20080662 0.71659082 -11.63687325
-8.09905815 1.01237011 -11.34501934
-7.75318193 1.24676847 -11.28451633
-7.97908878 0.82664973 -11.67665863
-7.96573114 1.08158517 -11.32709980
-7.70750713 1.44915330 -10.98083401
-7.56782579 1.08881998 -11.46615887
-7.70277786 0.90150541 -11.65184784
-7.33248281 1.21119392 -11.26485062
-7.49573565 0.75424743 -11.76566505
-7.38146114 1.09241402 -11.38688278
-7.41145134 0.79204112 -11.66603184
-7.33263683 0.67450291 -11.66212463
-6.86638927 1.36525619 -10.58355236
-7.32209587 0.69414240 -11.68876076
-7.15988827 0.65828490 -11.46855927
-7.13685608 0.53307331 -11.50461674
-7.08606863 0.51749909 -11.46503448
-6.82035732 1.06130970 -10.72767353
-7.18384314 0.28606740 -11.75625038
-7.07700920 0.28137061 -11.54444599
-7.20539141 0.01996320 -11.84561920
-6.96548986 0.12282480 -11.41740322
-6.68324900 0.51332521 -10.75459766
-6.70814562 0.34939829 -10.89228344
-6.84769154 0.20046391 -11.16743279
-6.78372002 0.15507960 -11.09598827
-6.94835567 -0.21912390 -11.46255302
-6.79126358 -0.14111701 -11.27244186
-6.68898106 -0.17251500 -11.25867653
-6.52957869 -0.31568700 -11.39492130
-5.83920622 0.20057730 -11.21958828
-5.32339001 -0.17131470 -11.73799229
-5.49832201 -0.45129779 -11.85229397
-5.30770445 -0.62044412 -11.93780899
-4.83209944 0.16124310 -11.58364677
-4.99137592 -0.51919830 -11.93573093
-4.99706364 -0.75002879 -11.97268772
-5.05125284 -0.25147471 -11.83579922
-4.73875570 -0.30923340 -11.88719559
-4.39232397 0.11762910 -11.63023949
-4.59578657 -0.63140911 -12.00335312
-4.39555836 -0.27796409 -11.86371040
-4.29347897 -0.59816492 -12.04346943
-4.13451242 -0.41578320 -11.98171616
-3.86026502 -0.83838689 -12.15189075
-3.24659276 -0.70235008 -12.12548637
-3.23915219 -1.19469178 -12.28681374
-2.59731030 -0.59871483 -12.06395721
-2.91575789 -1.12960315 -12.35141087
-2.79172015 -1.02456868 -12.20711803
-2.76403475 -0.92025840 -12.14322948
-2.42955661 -1.01594400 -12.23087597
-2.09178758 -0.41936460 -11.93351555
-2.56829667 -1.13820505 -12.50184155
-2.39080048 -0.94868368 -12.13614368
-2.15144753 -1.12034249 -12.55179214
-2.80195689 -1.36294198 -12.81659126
-2.21310210 -1.02439106 -12.25894451
-1.87717080 -0.91943163 -12.01728535
-2.26502562 -1.24858534 -12.76510334
-2.06386113 -1.33765948 -12.88357544
-1.82168400 -1.22256029 -12.78712368
-1.69625854 -1.01119173 -12.19673443
-1.45517969 -1.13000464 -12.63002968
-1.94987428 -1.42741466 -12.92947292
-1.65574956 -1.30120742 -12.88487816
-1.78962362 -1.65298533 -12.96467686
-1.12545025 -1.03990769 -12.16570187
-1.45699108 -1.22898960 -12.79973221
-1.36167455 -1.55296624 -12.89778137
-1.06598485 -1.08055198 -12.36108398
-1.17573965 -1.18636143 -12.64965153
-1.03645468 -1.16791081 -12.49250793
-1.11224341 -1.46055782 -12.78236008
-0.86438638 -1.28896439 -12.36752415
-1.10866857 -1.56110215 -12.87651920
-0.94288802 -1.37335110 -12.60779381
-1.13502300 -1.59115291 -13.09560585
-0.73604220 -1.40490663 -12.60992718
-0.85535610 -1.49198008 -12.84831429
-1.02923191 -1.55171943 -13.31435966
-0.57747030 -1.27524841 -12.75475597
-0.77185768 -1.42567408 -13.00999355
-0.73282683 -1.40897429 -13.10989094
-0.45938191 -1.17963505 -12.51912975
-0.38535210 -1.28690517 -12.88861179
-0.80278921 -1.64295685 -13.57550049
-0.24820560 -1.36866355 -13.18114948
-0.50025988 -1.82630253 -13.84513569
-0.04071390 -1.30581665 -12.82782650
-0.21798420 -1.63869572 -13.66246605
0.08598540 -1.38237536 -12.96868992
0.04439310 -1.39415908 -13.14391232
0.27159330 -1.30629444 -12.82045650
0.14869620 -1.45378566 -13.35926533
0.33731279 -1.26966572 -12.74354553
-0.12574799 -1.88683617 -13.90264320
0.36530101 -1.44002104 -12.94497585
0.43033919 -1.49309611 -13.31623363
0.37452090 -1.47445560 -13.07163048
0.44627100 -1.54477954 -13.44377518
0.71914917 -1.59905493 -13.26925468
0.63533640 -1.37976956 -12.93846321
0.73057169 -1.62093925 -13.12824345
0.70009559 -2.02187014 -13.87048244
0.74212378 -1.55704379 -13.02942276
0.87782103 -1.66988730 -13.08093166
0.87000632 -1.43525159 -12.97571087
0.83555669 -1.69871008 -13.46833420
1.02445197 -1.61447096 -12.96864223
1.12765086 -1.56692278 -12.92632008
1.10508418 -1.75489533 -12.94145870
1.17044580 -1.74965036 -12.83942986
1.11214924 -1.79407561 -13.06307793
1.21214128 -1.46374679 -12.97578812
1.30998659 -1.40328515 -12.95177174
1.38232744 -1.55719352 -12.98886108
1.23678124 -1.90059185 -13.47847366
1.26857364 -1.83521938 -13.29998684
1.32971585 -2.01104283 -12.89036655
1.38088858 -1.92580318 -13.16356850
1.40405548 -1.99347961 -13.05488205
1.50110817 -1.54006290 -12.99889946
1.74768186 -1.52278805 -13.01815128
1.40947080 -2.08297563 -13.56179810
1.55775988 -2.14929533 -12.92128563
1.48200417 -2.00451088 -13.30430508
1.71227133 -2.31746364 -13.49348068
-9.70418930 1.04582286 -8.46183968
-9.71751690 1.96677995 -8.01227856
-9.54861832 2.23034191 -8.44362068
-9.68150616 1.80419075 -8.27245235
-9.57976818 1.48237145 -8.41556549
-9.55737400 2.10609698 -8.69438839
-9.66564751 1.70993733 -8.84552956
-9.59112835 1.92694914 -8.85769749
-9.68522739 1.58986914 -8.77830696
-9.59014225 1.35455644 -8.24199581
-9.65390396 1.38967085 -8.85538483
-9.63388824 1.62259018 -9.27067184
-9.58850670 1.78537107 -9.12168312
-9.69221210 0.80950862 -8.77481747
-9.41934395 1.97914112 -9.04210186
-9.74916935 1.16497767 -9.58646107
-9.66719818 1.32521665 -9.63452911
-9.53758717 1.76317024 -9.28089142
-9.64710045 1.15947235 -9.12783623
-9.54053593 1.00281274 -8.83336735
-9.75246239 1.06765139 -9.81946564
-9.57733154 1.41382647 -9.67397690
-9.68527222 0.90347278 -9.41319752
-9.39947796 1.78062332 -9.43485355
-9.09475231 1.75201559 -9.64002132
-9.34978485 1.59194756 -9.73152924
-9.23125267 1.46740830 -9.96439362
-9.05834579 2.03480816 -9.19232655
-8.85112286 1.65781534 -9.72373390
-9.00950623 1.41160858 -10.07080936
-8.60905647 1.73816371 -9.47819138
-8.41125774 1.79325545 -9.40778255
-8.65273380 1.40713525 -9.93142796
-8.50121689 1.57730305 -9.68291092
-8.63603592 1.09017777 -10.27671432
-8.44505215 1.46618485 -9.86966896
-8.40085411 1.38410401 -10.06816292
-8.23248196 1.63406336 -10.10239601
-6.59314060 1.14438331 -10.19528866
-6.63063288 1.33083177 -10.15506935
-6.78350878 1.15728450 -10.63149643
-6.51029873 1.15279770 -10.05813980
-6.38936710 1.20000505 -9.94941998
-6.62973881 0.81788909 -10.48391628
-6.59532547 0.49741110 -10.68206596
-6.40299129 0.86580688 -10.29776764
-6.50563717 0.27934980 -10.86407280
-6.29459953 0.15641791 -11.04238033
-5.12331057 0.93255508 -10.76730824
-4.30558729 0.54953158 -11.30273438
-3.65114903 0.26540610 -11.59707069
-2.75700641 0.37497479 -11.54810333
-1.69611692 -0.42029551 -11.83835125
-1.82961297 -0.60198212 -11.92385769
-1.44025707 -0.43788630 -11.78141308
-1.85416675 -0.80290771 -11.95115471
-1.54615045 -0.93199080 -11.86132717
-1.33575177 -0.86773741 -11.73780632
-1.07123375 -1.08352888 -11.44896126
-1.50705695 -0.99761069 -11.90886116
-1.40205777 -1.02629125 -11.99299812
-1.12552345 -1.28678668 -11.61837673
-1.09768653 -1.05914187 -12.01223946
-1.13959885 -0.47879821 -11.68575668
-1.09368300 -1.10146677 -11.73738575
-1.13716769 -1.02019954 -11.62843037
-0.90412652 -0.55196577 -11.57212353
-0.98312402 -1.05311728 -11.51510334
-1.03857958 -1.19522071 -11.59957218
-0.84924328 -0.93754619 -11.32904243
-0.93037260 -0.98506349 -11.48572063
-0.92113888 -0.85587633 -11.51122093
-0.94030291 -1.16205573 -11.64732742
-0.73538607 -0.22071780 -11.49158669
-0.60990059 -0.76327169 -11.12934399
-0.88563091 -1.16924465 -12.11910343
-0.71285337 -0.66545463 -11.37614822
-0.82010251 -1.28927076 -11.65102196
-0.45310080 -0.64782780 -11.12323666
-0.80294281 -1.24693525 -11.60208225
-0.77751511 -1.17982292 -11.78578281
-0.83851469 -1.13937962 -11.90223408
-0.57249600 -0.34399951 -11.40460777
-0.72738183 -1.29181409 -11.62888145
-0.28535941 -0.53415662 -11.11287689
-0.49051890 -0.48745260 -11.29406357
-0.79200453 -1.34491587 -12.42300415
-0.69755882 -1.16754568 -12.06398392
-0.47574690 -1.15454674 -12.15461159
-0.20361330 -0.37100130 -11.16815186
-0.55514431 -1.40606785 -11.65409851
-0.59898090 -1.26517856 -11.69819546
-0.60132152 -1.21933293 -12.33043289
-0.46612230 -1.30240107 -11.66341591
-0.40984949 -1.43437803 -11.64267826
-0.35404050 -1.22163868 -11.84719372
-0.30285481 -1.31449199 -11.68925381
-0.22461900 -1.42916214 -11.58706856
-0.35334569 -1.58295357 -11.73957443
-0.05680470 -1.67619336 -11.76821327
-0.14596350 -1.57478285 -11.72292805
-0.18759930 -1.19965529 -12.56484509
0.16180620 -1.21697605 -12.15727615
-0.05030550 -1.37599647 -11.63433838
0.15376800 -1.44960332 -11.57542801
0.21621090 -1.55671561 -11.45242405
0.00150270 -1.54624498 -11.58418083
0.36461160 -1.62278247 -11.40918541
0.32191291 -1.69985604 -11.79340458
0.16272870 -1.31936097 -11.83135986
0.42934799 -1.52365768 -11.48408318
0.54400498 -1.24943852 -12.11155796
0.59784478 -1.78551126 -11.34751034
0.69268918 -1.53584635 -11.46283531
0.15389790 -1.21273053 -12.32146645
0.70074058 -1.79779232 -11.86742973
0.97078711 -1.87431514 -11.22339916
0.76173091 -2.07573271 -11.94616127
0.77537757 -1.89113367 -11.98819923
1.05644524 -1.22553515 -12.28229141
0.90640199 -1.82784176 -12.04196072
0.95860022 -1.83926404 -12.13999367
1.24904644 -2.15035510 -12.40073967
1.18109524 -1.86034465 -12.44252396
1.70287347 -1.20620275 -12.08516598
1.13932526 -1.22180665 -12.45047474
1.34741068 -2.04422998 -12.65735054
1.28535354 -1.69612980 -12.77905750
1.30030048 -1.78361428 -12.65796185
1.33336890 -1.93656361 -12.67221737
1.22810614 -1.89127982 -12.84763432
1.10774040 -1.34899199 -12.89962578
1.44971728 -2.16170692 -12.73456001
2.19204831 -1.18653274 -11.83537769
1.88157296 -1.27342618 -12.68015099
1.92161071 -1.42137516 -12.94314861
2.06791282 -1.21158898 -12.41581726
1.94669735 -1.33840144 -12.81847000
2.33320165 -1.18925154 -12.16467094
2.18880296 -1.56897426 -13.02483940
2.69649625 -1.22859216 -11.85248661
1.97390795 -1.59775615 -13.03940582
2.50177765 -1.25698590 -12.40810680
2.44311953 -1.46349335 -12.86778736
2.17714548 -1.66373706 -13.04747963
2.46104288 -1.38198268 -12.73069477
2.84984875 -1.32503700 -12.29514694
2.77436709 -1.25343180 -12.02839088
2.83017516 -1.42971361 -12.60384178
2.61338997 -1.61799085 -12.95143223
3.13581491 -1.37812412 -12.04577160
2.53525949 -1.71588695 -13.02936077
2.92409468 -1.59846485 -12.78525543
2.67056060 -1.78152478 -13.01890373
2.81978989 -1.74533975 -12.94600105
2.82424951 -1.85556626 -13.00072956
3.13997221 -1.82854593 -12.84583187
3.31292009 -1.75133705 -12.65840626
3.13786173 -1.98758852 -12.90084553
3.35510826 -1.63455296 -12.45325184
3.37070060 -1.97647023 -12.83570671
3.78613710 -1.89093184 -12.29771614
3.36434197 -2.08304548 -12.81679249
3.28104877 -1.98697197 -12.89153099
3.70715499 -2.29902029 -12.60566235
3.68518615 -1.97858667 -12.55430698
3.57810450 -2.10964108 -12.79096413
3.87850976 -2.13889503 -12.51511478
4.03382826 -2.52032733 -12.34190655
3.79010272 -2.26814818 -12.67078400
4.06289053 -2.46250582 -12.41046715
-10.62854004 1.24438024 -6.85950041
-10.36695766 1.36147738 -6.96442556
-10.56091690 1.01242626 -7.28079081
-10.02394772 2.54265237 -6.62568474
-9.98203182 2.40607858 -6.65009737
-10.21000671 1.33379340 -7.34842777
-10.15587997 1.48930025 -7.15146446
-9.98417091 1.64617586 -7.05003071
-9.83382034 1.82463634 -6.95411205
-9.83218575 2.42939377 -7.41717196
-9.84255028 2.32628918 -7.44596052
-9.87232876 2.28817868 -7.13912821
-9.67587376 2.17370224 -8.25715733
-9.78254700 2.12879038 -7.57446098
-9.68526268 1.65621805 -7.58825970
-9.71082973 1.83213329 -7.29088545
-9.73046684 1.48124552 -7.78217459
-9.73676586 2.06982303 -8.08681679
-9.71988869 2.09769440 -8.19350433
-9.62310600 1.71973169 -7.79608297
-9.63688087 1.78954017 -7.91397381
-9.73447514 1.30160761 -8.06409550
-9.55903244 1.39371479 -8.34100437
0.36823499 -0.42856470 -10.83387661
0.76378471 -1.71536911 -11.27303123
1.01126218 -1.60079312 -11.30900192
1.03811038 -1.74300659 -11.18505764
1.16273069 -1.62269044 -11.23507214
1.27345741 -1.48858893 -11.45270443
1.32756388 -1.74262834 -11.08908463
1.54318500 -1.78267050 -11.01248264
1.49473834 -1.49976540 -11.31402493
1.41175592 -1.65290308 -11.06020641
1.66781044 -1.64905107 -10.95691681
1.98788524 -0.71671653 -10.79251003
1.60282195 -1.55347526 -11.09609413
2.12111974 -1.73286569 -10.79962063
1.95039093 -1.58115208 -10.86816216
1.97168672 -1.66630018 -10.81031132
2.41586947 -0.90399480 -10.86933899
2.05100965 -1.40885305 -11.13004303
2.02263904 -1.47320580 -10.95613861
2.46705532 -1.00012684 -10.81881714
2.63386226 -0.98827499 -10.90552616
2.35730910 -1.38180268 -11.16197300
2.31315994 -1.61200619 -10.68152618
2.18898845 -1.24478340 -11.54032707
2.28714156 -1.45323932 -10.83291340
2.48790145 -1.12970042 -10.61128139
2.56489801 -1.61569226 -10.60640049
2.58426070 -1.78582895 -10.68438625
2.43681669 -1.23303986 -11.56068134
2.33437538 -1.54099143 -10.66881466
2.54920340 -1.21548784 -10.66057014
2.53316617 -1.45706582 -10.70538521
2.60198140 -1.23991859 -10.61446381
2.58943748 -1.39799786 -10.93966579
2.62972713 -1.30225825 -10.48607635
2.62216902 -1.40752172 -10.68200874
2.64452839 -1.46503055 -10.56500340
2.66773677 -1.13466060 -10.89060974
2.86421800 -1.71204305 -10.51705456
2.63757229 -1.39722395 -11.14938354
2.70310950 -1.31998563 -10.88320065
2.86851454 -1.44171596 -10.46119308
3.01606441 -1.22789073 -10.94040585
2.81656194 -1.33546674 -10.97018719
3.21707368 -1.92304826 -10.49446964
2.89112520 -1.32222176 -11.45132256
2.88976598 -1.41717148 -11.05329704
3.28817677 -1.53471935 -11.06487846
3.02746916 -1.45654202 -11.17021656
3.43330598 -1.21181130 -10.85783386
3.61439490 -1.63483441 -11.04050064
3.29987335 -1.41733885 -11.72951889
3.42305112 -1.51150084 -10.98400497
3.47096467 -1.55437922 -12.06598091
3.50803924 -1.61185682 -11.16303825
3.60350990 -1.55500019 -11.45771980
3.85147929 -1.76822519 -11.16875172
3.79654384 -1.65965760 -11.46844864
3.97750282 -1.82762194 -11.05940819
3.86065149 -1.78938901 -11.88996983
4.32621574 -2.07516980 -11.08915234
4.23261166 -2.50673389 -10.65976048
4.12203264 -1.94453466 -11.47816658
4.20527506 -2.10406375 -11.70993137
4.19653988 -2.01986861 -11.21100426
4.44796991 -2.30951667 -11.37170792
4.46600866 -2.23883009 -11.11662006
4.14963293 -2.67727089 -12.07599545
4.27148438 -2.31887698 -11.95601177
4.63607502 -2.31178761 -11.00914288
4.58804512 -2.36730790 -11.10695076
4.63826036 -2.27980566 -10.99810123
4.65162611 -2.14028549 -10.97293091
4.31415939 -2.43960953 -12.00339699
4.63433933 -2.35922694 -10.95812321
4.64956999 -2.30410385 -10.98602581
4.65248489 -2.32102990 -11.02387905
4.66252899 -2.28793645 -10.98849773
4.30761099 -2.75427175 -11.90291786
4.58069086 -2.48088908 -11.24564266
4.63752317 -2.50559211 -11.06628990
4.59142685 -2.69456816 -10.91166306
4.44928455 -2.49001408 -11.59402275
4.52629137 -2.67481208 -11.34197140
4.57066298 -2.78920507 -11.05523682
4.68937683 -2.40150905 -11.02872658
4.75266266 -2.32957268 -10.98801231
-10.69339275 1.54789984 -6.10075617
-10.29850388 2.60796666 -5.08916569
-10.45787430 1.87874973 -5.56235456
-10.10166931 2.26548576 -5.45138025
-10.72140503 1.27411020 -6.54718781
-10.23924637 2.76211357 -5.62341022
-10.52143002 1.54415643 -6.34182596
-10.18659973 2.63680983 -5.72893190
-10.09146309 2.58155441 -6.23806000
-10.04902267 2.09223819 -5.90157843
-10.45063305 1.50998223 -6.60629177
-10.03349686 2.29445720 -5.76863432
-10.14632225 1.85488832 -6.30002785
-10.02068710 1.88779676 -6.45102978
-9.90514755 1.95123720 -6.58027601
-9.94649410 2.28963470 -6.29929399
-9.83941936 2.15290332 -6.71574306
-9.84479141 2.06406951 -6.59623957
3.28232169 -1.81043518 -10.41642857
3.42741561 -1.67189574 -10.39454079
3.35913563 -1.57536185 -10.38461685
3.70627570 -1.24110150 -10.78402901
3.61314774 -1.92865169 -10.37077999
3.88313580 -1.85374355 -10.36593246
3.60693693 -1.56694293 -10.22836208
3.73359895 -2.12639332 -10.42092133
3.84582305 -2.08155894 -10.37793732
3.99197435 -1.72319365 -10.96700096
4.03642130 -2.21557260 -10.46092510
4.30553293 -1.97295785 -10.44824982
4.20469904 -2.02985573 -10.47874832
4.49724817 -2.36917353 -10.71890736
4.38255835 -2.48889422 -10.68170834
4.65193081 -2.01150537 -10.92609978
4.57970667 -2.46326089 -10.81902504
4.58218479 -2.25434184 -10.68970680
4.66028118 -2.36464047 -10.89503193
4.75816488 -2.25943613 -10.96888924
4.80246258 -2.37707758 -10.90885830
4.81270218 -2.00929189 -10.85288715
4.97602320 -2.37567401 -10.98009300
5.02964020 -2.47020698 -10.95254803
5.15556765 -2.58018780 -10.84688473
5.31382132 -1.83572376 -10.55518341
5.27585888 -2.46808958 -10.94622803
5.44903374 -2.43900847 -10.89083481
5.35751486 -2.72077608 -10.82992840
5.51573658 -2.81671429 -10.81877804
5.64803457 -2.88475299 -10.68166828
5.89895105 -2.88509798 -10.83028126
5.94684076 -2.94557524 -10.75660896
6.01677942 -2.62126231 -10.80050564
6.17942333 -2.73292446 -10.78146553
6.53995371 -2.45226502 -10.45508575
6.23870897 -2.94000268 -10.74106884
6.18508291 -2.51641750 -10.68124962
6.43431711 -2.81328392 -10.71911526
6.91056299 -2.52933598 -10.39284706
6.60182333 -2.71699500 -10.61505699
6.64630747 -2.85015512 -10.65828133
6.90741825 -2.79124737 -10.55833626
7.21967363 -2.87786818 -10.31135559
7.22990084 -2.69015074 -10.35581779
-11.12498856 1.84489560 -3.68684816
-10.79132271 2.01352501 -3.72239208
-11.01468372 1.82495999 -3.96063876
-10.55194473 3.02474380 -3.95379400
-10.64692020 2.97322369 -3.49662089
-10.45842075 2.48571897 -3.59818792
-10.60391426 2.06204677 -4.26114988
-10.40488720 2.12171125 -4.70039988
-10.25182915 2.14945388 -5.08036900
-10.38464165 2.88754869 -4.88911724
-10.35619450 2.48822069 -4.33091211
-10.37290382 2.73853350 -4.92053604
-10.32619762 2.39412069 -4.30871677
-10.25634289 2.29775214 -4.70710611
-10.17314529 2.18699670 -5.26936150
6.49722433 -1.56783092 -9.77214909
6.66238880 -2.01309609 -10.06366634
6.91187811 -1.86093152 -9.85393333
7.54928780 -2.58729291 -10.11243916
7.39447689 -2.72036219 -10.28091812
7.44079876 -2.81163239 -10.20856667
7.56620455 -2.70556259 -10.15410328
7.78147888 -2.54131794 -9.92837906
7.67318392 -2.75943971 -10.01893520
7.84583139 -2.73457599 -9.77713203
7.83322048 -2.59977126 -9.91739941
8.03731155 -2.67811942 -9.43512821
8.01987267 -2.48107553 -9.73125935
8.32214260 -2.12502146 -9.27324486
8.44852543 -2.10555696 -9.14651680
8.31460857 -2.52237511 -9.18066311
-11.05127525 2.00611567 -2.12051606
-10.80939579 3.07444882 -2.35549474
-10.75499916 3.17428136 -2.59352016
-10.78846931 2.92278099 -2.14975834
-10.74773598 2.88719797 -2.57781053
-10.72913361 2.81033301 -2.31400013
-10.55488396 2.50014830 -2.54831767
-10.65528297 3.16875458 -3.09443784
-10.70851803 2.80199242 -2.76090550
-10.57480621 2.32160044 -2.69702649
-10.63905907 2.24117875 -2.86203504
-10.71271133 2.94069600 -3.06690717
-10.55543804 2.53327870 -2.90067101
-10.58588505 2.66583610 -3.37093019
-10.53007889 2.27627230 -3.39438319
-10.52418709 2.39463091 -2.90318632
-10.48318958 2.44909239 -3.32218385
-10.44387245 2.30758953 -3.71724653
-10.53286076 2.19037509 -3.79714346
-10.39680672 2.33714151 -3.91871309
8.29024696 -2.58560348 -9.02780724
8.44639111 -2.42648911 -8.74810696
8.62092400 -2.03090096 -8.87511158
8.56485939 -2.29640126 -8.78767395
8.69766998 -2.11880422 -8.67976189
8.78500175 -2.03775454 -8.53547668
8.88900280 -1.94608319 -8.38018131
-10.67833233 3.17019606 -0.77256417
-10.76801205 3.16310644 -1.31834006
-10.74932575 3.02865911 -0.89872831
-10.81127930 3.11308980 -1.65579331
-10.79188156 3.01470566 -1.38631916
-10.69337273 2.85432410 -1.05160832
-10.75586033 3.19962335 -2.00767899
-11.05352974 2.02492881 -1.57800186
-10.82250977 3.07068968 -2.04312563
-10.61320972 3.25914693 -1.76266527
-10.56851482 2.73758078 -0.80187839
-10.52525616 2.62389326 -1.10980284
-10.72020721 2.82087660 -1.53443074
-10.59768486 2.27390361 -0.90372568
-10.49368382 3.26834154 -1.87027347
-10.63013077 2.28357863 -1.62716699
-10.52498341 2.38082123 -1.26705420
-10.56148911 2.61443496 -1.59600055
-10.50309181 2.47751689 -1.39204204
-10.79799271 2.14030957 -2.44839931
-10.51107979 2.53977990 -1.50875044
-10.22073650 3.22059011 -1.54436398
-10.59072208 2.34518981 -1.95391774
-10.65233040 2.24715900 -2.35876441
-10.54570770 2.46251559 -1.99127364
-9.85370541 3.30678630 -0.81669539
-10.57129002 3.08455014 0.06020850
-10.69585609 3.06914020 -0.41701680
-10.69725037 3.12523508 -0.57467133
-10.43471909 2.97891212 0.45779371
-10.59513950 2.97850418 -0.09746610
-10.41283989 2.86052799 0.30623999
-10.68462944 2.96431899 -0.60578787
-10.72421646 2.05876398 0.23678251
-10.40056229 3.22010589 -0.06091650
-10.64292717 3.22618747 -1.14333689
-10.45263767 2.72649550 -0.23479380
-10.49371910 3.23237157 -0.76440388
-9.95753670 3.20315933 0.62724090
-10.28920555 3.22432208 -0.36523020
-10.26152611 2.66562080 0.28853849
-10.11613560 2.57522798 0.57837421
-10.33262825 2.38524580 -0.10568010
-10.48163700 2.66147017 -0.65917379
-10.37526894 3.24241948 -1.12019432
-10.19076252 2.47792053 0.26263499
-10.29342556 2.53850722 -0.08497470
-10.43155956 2.40419197 -0.62871569
-10.44907951 2.50039387 -0.91721070
-10.10382938 3.20682383 -0.69526768
-9.94600773 3.20421815 -0.57149643
-10.03400707 3.21809530 -1.17711568
-10.36040401 3.04474235 0.64017570
-10.48080635 3.17986488 0.06347490
-10.38160419 3.13002038 0.51373827
-10.06257248 2.99646091 1.30807614
-10.25683498 2.83731365 0.71723372
-10.13518715 2.86661005 1.07954586
-10.10966206 3.11304808 1.13031721
-10.16982174 3.18892312 0.71362531
-9.75704956 2.89622545 1.82441103
-9.92619133 3.14849591 1.38978326
-9.87518120 3.18163562 1.11833489
-9.85425472 3.08265901 1.64379537
-9.76051712 2.75144577 1.69090950
-10.03617001 2.73097301 1.06799817
-9.70149803 3.14260435 1.56530523
-9.95501137 2.56759238 1.01625335
-10.17798710 2.36395407 0.53373033
-10.04814816 2.51390696 0.71636909
-9.99656296 2.44129324 0.88893813
-9.76666927 2.57634211 1.43242049
-9.89755154 2.29664111 1.39087260
-9.76763153 2.43631840 1.37374651
-9.59010410 3.26306486 0.24352710
-9.28636932 3.22294021 0.93491793
-9.41863060 3.27081108 0.61610669
-9.14643097 3.15206718 1.31647742
-9.03373146 3.25928140 1.26470971
-9.71683216 3.00757194 1.94343781
-9.60548687 3.10427332 2.02972555
-9.48466396 3.06181931 2.27009869
-9.46652222 2.96725106 2.30872321
-9.38031197 3.01626205 2.44981098
-9.47106075 3.14079094 1.96218777
-9.25640965 2.93495464 2.56339884
-9.45813751 3.15663123 1.63027024
-9.61760330 2.23160768 2.00263047
-9.35947227 2.73985672 2.26513338
-9.18821144 3.00209761 2.68376827
-9.29641247 3.05779886 2.46052718
-9.33650684 2.21864820 2.41453505
-9.03161621 2.92193460 2.87918401
-9.47363663 2.56755471 1.93013525
-9.27266121 3.09086299 2.34324551
-9.34405708 2.42330527 2.07615972
-9.58086681 2.36297607 1.76762736
-9.17676735 2.64064288 2.39654469
-8.99616432 3.02990103 2.84413719
-9.22966766 2.10434079 2.75177073
-8.93828392 2.63473129 2.70693874
-8.99569225 3.08870721 2.62974548
-8.85020733 2.81185412 2.98354197
-9.06376076 2.47272897 2.45892072
-8.70313072 3.03306603 2.97199798
-9.10974693 2.30342841 2.47049332
-8.85087395 2.26844215 2.80741715
-8.58043575 2.39011478 2.95375681
-8.79654121 3.09917903 1.87559283
-8.45703602 2.45643353 3.10125160
-8.83541870 2.36571932 2.70882154
-8.77816486 3.18742371 1.69330895
-8.54886436 3.06188464 2.33670139
-8.48194885 3.16938114 2.06769991
-8.31646252 3.05682564 2.39839768
-8.86662960 2.97836304 3.02559423
-8.79232693 2.88479757 3.12231445
-8.71739674 2.98108292 3.11528611
-8.71056461 2.79310060 3.12802839
-8.54963493 2.84488106 3.33990622
-8.59299183 3.05411029 2.77092099
-8.56057549 2.63890505 3.13808560
-8.56870174 2.93203354 3.30620480
-8.34500885 2.81544638 3.50115609
-8.64552116 2.22365856 3.05974054
-8.21295452 2.70690799 3.54439640
-8.02783775 2.76934838 3.75963545
-8.34561253 3.00487590 3.05010009
-8.13452244 2.55761099 3.53213501
-8.20359325 2.88838863 3.57353306
-8.03264236 2.31638432 3.45423770
-8.10107803 2.98564291 3.17090821
-8.24646187 3.00491333 2.64088821
-7.96420097 2.39113879 3.54765940
-7.95522594 2.77097917 3.77444410
-8.07289791 2.26295257 3.41624665
-8.17558289 2.93655753 3.49170280
-7.94895887 2.51472640 3.65712142
-7.68371058 2.70540261 3.99886894
-7.84234715 2.85899448 3.81896448
-7.69588375 2.79106641 3.99313927
-7.71881914 2.93178010 3.51754928
-8.05314064 3.09176040 2.56393027
-7.54811239 2.48629761 3.99979138
-7.56551027 2.86737967 3.88980007
-7.48248863 2.28269958 3.90027785
-7.91603804 2.99153638 2.85635257
-7.73431540 2.94059730 3.17089772
-7.52805138 3.02435708 3.07731605
-7.57168150 2.93778729 3.19777870
-7.19632006 2.96819162 3.35417104
-6.51046038 3.08890676 3.55175710
-6.73292685 2.95194817 3.60005879
-7.17712879 2.40996265 4.25361395
-7.36431885 2.74511933 4.21458149
-7.22870064 2.58434939 4.31242943
-7.13808393 2.81798100 4.09381342
-7.11529875 2.68774676 4.39685917
-7.00540781 2.57308888 4.48718166
-7.01617527 2.68458867 4.41418648
-7.75625610 2.15514565 3.72839808
-7.11797047 2.03004241 4.27181149
-6.97584200 2.18002748 4.22830391
-6.84010124 2.68189836 4.59025145
-7.07319880 2.31489992 4.23125601
-6.97629166 2.45536089 4.44053602
-6.80340290 2.48219252 4.59093809
-6.70303822 2.23437595 4.47409487
-7.05933666 2.12284422 4.18399763
-6.71702957 2.74843717 4.47061729
-6.52858448 2.59671426 4.76600266
-6.85381508 2.86634159 3.68396664
-6.57045364 2.24309063 4.60534477
-6.47923803 2.66277862 4.68417025
-6.27028084 2.48081636 4.93757963
-6.00795317 2.64356232 4.79743385
-6.21415091 2.11680460 4.79273701
-6.52704525 2.07608247 4.54990482
-6.23479509 2.69773674 4.50821400
-6.25338125 2.31162477 4.89858198
-5.71346235 2.53905487 5.06503391
-5.96565056 2.97117639 3.89530897
-5.93677998 2.71934795 4.25051498
-5.92319059 1.96050394 4.96291447
-6.16148949 2.79395771 4.03413773
-5.39815044 2.78175426 4.35838461
-5.09457350 2.63850355 4.64250517
-6.13093424 2.56517768 4.95757818
-5.61176777 2.33779383 5.30553246
-5.87978506 2.03157115 5.01463366
-5.73554659 2.23772407 5.22888327
-5.73855305 2.49441266 5.15786362
-5.79059124 1.86224043 5.12971687
-5.33571196 2.52174759 4.92934561
-5.19138622 2.04855728 5.58217287
-5.51141405 1.93649995 5.28768969
-5.43498802 1.73916328 5.43039608
-5.02824450 1.59528244 5.76263618
-5.26781178 2.33522129 5.44892502
-5.17530155 2.14700603 5.59525967
-4.99100590 2.16504431 5.68693304
-5.09192181 1.75499904 5.59665871
-4.62527657 1.48520672 6.04730749
-4.90245104 2.24189878 5.62245464
-4.89735937 2.33595037 5.40983057
-4.69689941 1.71624935 5.89839125
-4.78931379 2.48811769 4.96205282
-4.67772579 2.35724187 5.23501062
-4.45140219 2.13732600 5.78789663
-4.19279051 2.30254054 5.39880991
-4.14779758 2.17759371 5.58554983
-4.12565136 2.68116117 4.55849934
-3.75590920 2.59229541 4.99834538
-3.89687133 2.65756702 5.05646467
-3.59447122 2.33467650 5.60179520
-3.44072008 2.38420534 5.59058857
-3.56854320 2.54139066 5.27267933
-3.54211283 2.51273012 5.17551374
-3.76146293 2.51329541 4.78707218
-3.25754690 2.37998605 5.49061203
-3.48461127 2.42587852 5.12462664
-3.45242071 2.39844680 4.89080572
-3.37828612 2.34908199 5.09007883
-3.05040717 2.20414400 5.45117569
-3.00437975 2.18747902 5.31432152
-3.39856148 2.42810965 4.78515434
-2.80917311 2.24910903 5.13689852
-4.17807817 1.63181698 6.33903122
-4.37437344 1.46483135 6.15989113
-4.52371120 1.81282377 6.07048273
-4.51503038 1.89698255 6.06953573
-4.51728916 1.99636984 5.99941730
-4.26256132 1.95591271 6.09278774
-4.38596869 1.55243635 6.13431501
-3.99798965 1.77992368 6.39757013
-3.89116287 1.90746057 6.18208456
-3.53733087 1.36940575 6.89636087
-3.86004877 1.62923193 6.58902454
-3.51826620 1.56127918 6.83052492
-3.42424202 1.71623218 6.55429745
-3.14979601 2.15488863 5.95056820
-3.54954529 2.03767323 5.90525436
-3.46385241 1.63944328 6.73806286
-3.10295892 1.68053675 6.52142668
-3.05635929 1.52291155 6.92653465
-3.19958067 2.32197118 5.68875742
-2.98357081 2.22276711 5.65229416
-3.08570290 1.82966697 6.29415655
-2.70624161 1.44597185 6.87512207
-2.88342237 2.19710612 5.84381676
-2.84560490 2.10966849 6.05440760
-2.57978153 2.01546550 6.01322603
-2.67236304 1.66255856 6.58703995
-2.73492789 2.03983045 5.56484509
-2.48159361 1.87986207 5.97282934
-2.58966398 2.02627707 6.16839981
-2.40272069 1.87991130 6.44868231
-2.53973770 1.91444373 5.76151943
-2.57479405 1.92464340 5.82939863
-2.15012980 1.73322904 6.36307716
-2.22314668 1.83444846 6.41503763
-2.15633750 1.65859675 6.24948120
-2.03372550 1.57083476 6.21449184
-1.70854378 1.32565677 6.70469522
-1.75207114 1.35160625 6.43408489
-2.12416148 1.72679102 5.93396187
-1.74052799 1.31919539 6.55606174
-1.59145296 1.51175940 6.16685247
-1.48040402 1.18663955 6.57638693
-1.44850469 1.88619995 5.54311752
-1.31879365 1.22890317 6.53155518
-1.31625056 1.47676444 6.18872261
-1.33780885 2.23090625 4.85371447
-1.14536035 1.52985811 6.02374315
-0.98446381 1.44451380 6.13219023
-0.94485807 1.75012505 5.72105169
-1.11985254 1.96452928 5.34165764
-0.83065712 1.61791646 5.94351053
-0.97575629 1.92984414 5.28984404
-0.60787767 1.53099573 6.05441666
-0.77992678 1.94707322 5.25672913
-0.29559749 1.70020592 5.62642241
-0.66809130 2.05447650 5.08629465
-0.73489678 1.75514996 5.60104990
-0.29130331 1.51225948 5.90989876
0.00899400 1.43166625 5.97110891
0.33800250 1.53305006 5.75253487
0.24851190 1.66679430 5.53507280
-3.11448359 1.32110250 7.22664070
-2.94674611 1.31752801 7.29002857
-2.84056711 1.37177634 7.16214418
-2.58220959 1.15945828 7.47484064
-2.04306769 1.68672001 6.72251129
-1.94641745 1.05564153 7.40030241
-2.42611790 1.41351175 6.91259193
-2.11966348 1.64179409 6.79880476
-1.78011417 1.50442767 6.95942068
-1.84380722 1.56816840 6.71012592
-1.63313615 1.38771808 7.07154942
-1.59104943 1.23354089 7.33081102
-1.48012173 1.26255512 7.22076416
-1.66150832 1.41767132 6.88758516
-1.34103930 1.09009326 7.46173668
-1.38766050 1.15323901 7.24150896
-1.21159232 0.91042203 7.68199730
-1.35417151 1.04148781 7.21561384
-1.47234511 1.07495284 6.93282270
-1.21126556 0.94118971 7.50130844
-1.39406490 1.01025057 6.83096838
-1.11684155 0.78430891 7.04111242
-1.08270955 1.11972356 6.58394384
-0.78690720 1.24717891 6.43728113
-0.52303559 1.22022331 6.41350126
-0.50565058 1.00283432 6.67368793
-0.34636590 0.81131703 6.93207884
-0.16400459 1.17396355 6.43725967
-0.20577361 1.03120470 6.65620852
0.14520660 1.23334980 6.26666689
0.23755890 0.87782311 6.75273561
0.48174059 0.91684622 6.60373402
0.55864739 1.26356518 6.10535288
1.00605965 0.82705468 6.62361908
1.28749204 1.07775176 6.19880533
1.77496886 0.73303533 6.60569382
1.94577837 0.88880312 6.33066320
2.46350789 0.78886980 6.29480600
3.31467366 0.71634358 5.99238491
3.60172105 0.96016622 5.35252476
3.68475270 0.62143350 5.89415455
3.85901952 0.71073240 5.72879553
3.88590574 0.46201739 6.07640505
3.73755121 0.92544150 5.36361694
3.94257331 0.97653693 5.23614740
4.06652641 0.88402349 5.29912615
4.12434721 0.56059349 5.71250868
4.33073235 0.39197549 5.84954166
4.23634577 0.10476900 6.27503777
4.29341698 0.72037351 5.35721540
6.00770807 0.41252130 4.81830931
6.93830347 0.14370990 4.63761520
7.82660866 -0.31417739 4.78397703
8.13026524 -0.64876622 5.07286119
8.76451206 -0.54181772 4.82005453
11.02985001 -1.54865789 4.58919191
11.21956539 -1.21592069 4.49401665
11.40057182 -0.88454759 4.23391104
3.90082979 -0.11216460 6.73216343
4.01305151 0.07675260 6.49477911
4.43085527 -0.18108900 6.50230598
4.65452003 -0.46183890 6.69687462
4.89595652 -0.39996991 6.52518368
6.81638670 -1.04532182 6.13547325
9.19662762 -1.66614866 5.74772644
10.15487576 -0.91288078 4.95712900
10.72597504 -1.25095975 5.14511633
10.64545155 -1.88041675 5.46736670
10.69781494 -1.66994584 5.36642170
10.87257004 -1.51480591 5.20663118
11.11178875 -0.67350543 4.50539303
10.96791840 -0.97394371 4.82265234
11.03803062 -1.45086992 5.06007576
11.12575340 -1.12882292 4.83936977
10.91634655 -2.03605390 5.06449175
10.87893867 -1.96071756 4.80841303
11.08026791 -1.55090880 5.03226852
10.99939632 -1.83079052 5.04999828
11.19141102 -1.27451611 4.81988764
11.10060406 -1.52334511 4.84764338
10.97235680 -1.88956738 4.90374374
11.25043583 -1.17421198 4.64362860
11.35921764 -0.67042828 4.37491131
11.30716896 -0.90139890 4.54549456
-8.05647850 -1.63020360 -13.08395863
-10.03074455 -0.18696600 -10.92156124
-10.17636490 -0.70307189 -11.08324814
-10.15415001 -0.65321219 -11.19647789
-9.93566990 -0.22994040 -11.13668156
-10.03580475 -0.45384929 -11.20189285
-10.14231300 -0.96455222 -11.50064087
-9.77680588 0.05487900 -11.08543873
-10.00543404 -0.58830363 -11.39996815
-9.86910057 -0.43320930 -11.35362816
-10.04934120 -0.85198802 -11.56463051
-9.90142632 -0.68256390 -11.51655960
-10.02610874 -1.07209349 -11.68707752
-9.60240746 -0.30272040 -11.44057941
-9.87200069 -0.88810742 -11.68974972
-9.40899086 -0.09711960 -11.37812233
-9.65812874 -0.80304569 -11.75201797
-9.27702713 -0.25518599 -11.48828697
-9.37445450 -0.64253998 -11.70186424
-9.50765514 -1.10027313 -11.92864132
-8.99677658 -0.27611160 -11.43813992
-9.42075920 -1.29296553 -11.99218750
-9.16484737 -0.73767418 -11.68970966
-9.11637974 -0.81574082 -11.69187546
-8.95580864 -0.55489200 -11.57662201
-8.89094543 -0.47904149 -11.62206650
-8.77958584 -0.04907730 -11.70092487
-9.03235149 -0.90572309 -11.72218037
-8.86690044 -0.38312069 -11.90596581
-9.09856129 -1.18041325 -11.85209846
-9.01645947 -1.04399335 -11.87412834
-8.96505928 -0.84429717 -11.89710140
-8.99307728 -0.84693599 -12.09126759
-8.83778000 -0.50802571 -12.24338341
-9.11339951 -1.33787787 -12.28929138
-8.96216583 -0.76723588 -12.23578453
-8.68313885 0.08115240 -11.87761784
-8.71836185 -0.20431051 -12.11424065
-8.99651623 -0.99354059 -12.42229271
-8.94072342 -1.11268318 -12.59546566
-8.65604591 -0.33244860 -12.34685993
-8.76145840 -0.92485380 -12.69579601
-8.62666893 -0.58680272 -12.59593010
-8.49471569 -0.23969370 -12.42768478
-8.29473209 -0.32223091 -12.59396553
-8.03129864 -0.27016169 -12.61659431
-8.27101612 -0.44395861 -12.69201756
-7.84605312 -0.28611961 -12.57360744
-7.78664112 -0.57215160 -12.63777924
-7.66422129 -0.92713833 -12.63978291
-7.92440748 -1.66749394 -13.01193047
-7.52310562 -0.82086933 -12.46111679
-7.39349031 -0.66048902 -12.24716187
-7.48739243 -1.51294565 -12.46652889
-7.26384974 -1.16303945 -12.11132908
-7.01541948 -1.36818242 -11.98145676
