-2.54020000 0.11154700 -8.42197000
3.45388000 2.23335000 -4.45486000
4.79722000 3.24623000 6.55101000
6.56638000 2.21181000 4.63233000
6.57352000 2.38388000 4.50284000
6.57595000 2.28985000 4.70912000
6.56515000 2.23539000 4.77003000
3.60698000 -0.43712700 4.67476000
-2.64630000 -4.74149000 -2.12576000
8.15663000 0.69253000 -3.05127000
7.93153000 2.45611000 -2.98480000
-1.09565000 1.01987000 -4.59747000
-1.29416000 1.08942000 -4.62132000
2.49608000 3.64756000 1.16467000
2.54390000 3.62907000 1.19037000
4.71485000 1.87949000 2.59629000
4.86311000 1.71815000 2.65160000
-1.98027000 2.23004000 -5.50745000
-1.98333000 2.27740000 -5.49858000
7.27885000 -0.50685000 1.48957000
7.28279000 -0.34192400 1.59691000
-7.91492000 0.07760370 1.40122000
0.00125598 3.09423000 4.76771000
-0.03708270 3.25166000 4.80000000
0.02802400 3.03182000 4.84338000
0.01571540 2.99301000 4.69185000
-9.81875000 2.92447000 -2.24525000
-9.81303000 3.05463000 -2.20055000
-9.77234000 3.09014000 -2.29886000
2.95544000 2.76899000 0.82849000
3.11523000 2.53075000 -4.37956000
3.38597000 2.38264000 -4.40635000
3.20000000 2.50175000 -4.38234000
7.82747000 -0.66742700 0.32341400
7.90638000 -0.52115200 0.33261400
-3.48506000 0.26840200 -8.09900000
-3.47653000 0.22898000 -8.15847000
-1.10402000 2.48202000 4.32793000
-1.10402000 2.48202000 4.32793000
-0.89598300 3.51011000 4.51252000
1.93320000 -3.92787000 1.90883000
1.86428000 -4.01655000 1.81669000
8.19090000 2.43883000 -2.66891000
8.18031000 2.50400000 -2.63817000
4.69714000 3.20956000 6.70224000
3.43771000 -2.30106000 -4.69269000
2.44602000 2.26592000 3.03103000
2.45052000 2.40327000 3.03006000
-3.08873000 -0.36095200 -8.62685000
-3.02885000 -0.12953800 -8.57103000
-3.39772000 2.35270000 4.86117000
4.29791000 3.27236000 2.75070000
-4.80928000 -4.08654000 -0.86419100
-4.94503000 -4.01390000 -0.69447700
-5.18226000 -3.85317000 -0.67328300
3.69432000 1.91519000 6.23605000
6.26381000 2.30125000 7.04687000
2.56048000 1.85409000 1.83032000
1.92494000 0.30572100 5.64950000
1.73067000 0.43138100 5.65097000
-8.64047000 1.14975000 -3.24672000
-8.56380000 1.06444000 -3.28134000
-9.42735000 2.46228000 -2.87594000
-9.44925000 2.46817000 -2.78237000
-9.48846000 2.46997000 -2.81162000
-9.42666000 2.39793000 -2.78449000
-8.75912000 1.03147000 -1.90774000
0.18233700 2.82440000 5.35511000
0.23796100 2.78183000 5.45330000
-8.59547000 1.02142000 -3.20953000
-8.67198000 1.11518000 -3.17568000
1.27030000 1.56366000 -3.95617000
1.32964000 1.47312000 -4.03893000
-3.64934000 -2.45548000 3.02229000
6.39264000 2.01573000 3.97307000
6.36157000 2.05698000 3.90827000
6.44240000 2.10277000 4.04831000
-4.58542000 1.14898000 4.89363000
4.73455000 3.04159000 4.49142000
4.75301000 3.08160000 4.47670000
4.75039000 3.03790000 4.44542000
-1.61368000 -0.85977900 -7.14318000
-1.73264000 -0.89579500 -7.35081000
-1.84811000 -0.91391200 -7.53577000
-6.27822000 0.38167600 3.96369000
-6.07890000 0.34996200 4.09629000
3.58973000 3.24812000 5.35913000
-0.01400420 0.48036400 4.09441000
8.83112000 2.91445000 0.79209800
8.79803000 2.87522000 0.86189900
-1.70493000 -0.90127400 -7.55244000
-1.72543000 -0.90147800 -7.42298000
-1.78941000 -0.90736500 -7.55441000
1.55372000 1.15048000 3.51619000
0.77055800 1.47524000 3.13581000
0.86877500 1.62892000 2.95111000
-0.04953260 3.07879000 -2.58505000
8.90755000 1.10039000 -0.87744200
-0.83166100 1.08647000 4.77381000
-0.72328600 0.94986500 4.75698000
4.61605000 -2.87432000 1.76575000
-0.11531400 3.43177000 5.01437000
2.00052000 2.99456000 6.54292000
1.98454000 2.93599000 6.53918000
-8.84529000 3.42188000 2.20149000
-8.95153000 3.44059000 2.21661000
-8.92130000 3.44631000 2.19421000
0.77217500 1.68836000 2.98896000
-9.78647000 3.22116000 0.63010800
-9.69148000 3.24590000 0.93086800
-9.63037000 3.25719000 1.09956000
-1.96210000 2.01977000 -5.60865000
-1.95592000 1.83804000 -5.68076000
-2.68720000 -1.22397000 4.36636000
6.24453000 -2.70757000 -3.03785000
8.71755000 2.05994000 -1.62575000
-2.22319000 2.92225000 -5.36164000
-2.25244000 2.93830000 -5.34813000
-2.30773000 2.88633000 -5.39494000
-2.37981000 2.85804000 -5.41695000
-2.39835000 2.91004000 -5.38774000
-7.55054000 -0.62477000 -2.42894000
-7.55617000 -0.53066600 -2.55142000
0.63544600 1.93069000 5.54731000
6.45076000 2.74186000 4.34083000
6.46857000 2.69333000 4.42946000
-3.00571000 -3.71917000 2.28084000
-0.85208700 -2.34257000 -4.85330000
-7.33530000 -1.01405000 -2.27247000
3.31446000 -2.57697000 2.99653000
-0.10231500 0.09931640 -7.49958000
0.68592100 0.73721200 5.02590000
0.49011400 0.94300400 5.04930000
-2.15058000 1.77129000 -5.71597000
-2.07070000 1.72432000 -5.73705000
6.23461000 1.30882000 4.59641000
-4.10815000 -3.20260000 2.40507000
-2.88327000 -0.82888200 -5.72335000
-2.66173000 -0.88241900 -5.74062000
5.93991000 2.46776000 2.98020000
6.94125000 -1.06772000 -3.74507000
4.08477000 2.56218000 6.24086000
4.09628000 2.67669000 6.18806000
4.12188000 2.77882000 6.13157000
3.10869000 2.89738000 7.10788000
-1.21944000 3.40505000 4.25128000
-1.21944000 3.40505000 4.25128000
-1.23006000 3.33249000 4.24178000
-2.72456000 -0.94578300 -5.62863000
-2.57340000 -1.02667000 -5.58302000
-2.74648000 -0.99837700 -5.56133000
6.83782000 -1.08903000 -3.83218000
2.94422000 -3.99993000 -3.41453000
4.99234000 3.25758000 6.35198000
4.91323000 3.16433000 6.28981000
2.96007000 0.46077100 -4.78460000
3.15142000 0.35385600 -4.83112000
-1.95722000 1.78997000 -5.70306000
1.16701000 2.17100000 6.19054000
-1.39030000 -0.09755810 -4.97527000
-7.06593000 3.59029000 3.99826000
-7.17253000 3.55407000 3.87328000
-1.23315000 3.50102000 4.32848000
-1.26544000 3.46201000 4.31435000
-8.81342000 1.86712000 1.41977000
2.43076000 3.72501000 0.81867800
2.43463000 3.71999000 0.87818000
2.45255000 3.68215000 0.80800200
8.37897000 0.75611400 0.61114300
8.40089000 0.67769400 0.46141500
-1.60385000 2.95175000 -5.23790000
-1.47475000 2.91486000 -5.24141000
-1.65149000 2.87828000 -5.29077000
2.47616000 3.66092000 0.78671300
-7.46855000 2.18469000 -4.30566000
5.11872000 3.11032000 6.11509000
5.05041000 3.13013000 6.14267000
-6.63974000 2.85391000 4.56741000
4.58052000 2.88679000 6.26367000
3.25937000 2.61739000 7.18358000
3.25097000 2.60206000 7.16761000
3.37166000 2.59163000 7.29057000
4.72197000 -1.78286000 -4.73070000
4.61195000 -1.90830000 -4.71979000
4.22842000 2.45308000 6.99305000
4.34179000 2.23121000 6.95991000
4.45351000 2.24377000 6.93468000
4.32078000 2.17072000 6.95177000
1.92361000 3.44643000 2.38735000
6.79096000 2.14242000 2.91186000
8.04779000 -0.03475920 -2.26220000
2.44372000 3.77738000 0.27841900
4.12782000 2.34653000 6.30824000
4.22209000 2.29174000 6.30246000
4.38295000 2.24721000 6.31017000
4.31571000 2.29473000 6.30148000
4.34673000 2.19523000 6.31460000
3.28036000 2.66281000 7.20101000
3.17657000 2.61333000 7.10692000
-8.55559000 2.75800000 2.86628000
-8.56423000 2.78238000 2.91468000
-8.72785000 2.79755000 2.73150000
-8.70912000 2.77954000 2.74857000
-6.61450000 -1.21214000 1.94469000
-6.58418000 -1.14779000 2.05470000
-4.14411000 -0.16655800 -7.23374000
0.70647200 2.73274000 -1.48218000
3.71044000 3.30142000 6.25968000
3.62847000 3.32475000 6.37575000
-2.27492000 1.88791000 -4.68959000
-0.74746400 -0.77671200 -6.35241000
-0.90859000 -0.81762600 -6.33785000
8.46651000 -0.17575800 -0.80060700
6.51910000 3.29801000 6.03150000
6.57069000 3.29845000 5.96078000
6.46719000 3.32088000 6.02119000
-1.11342000 2.62653000 4.87065000
-1.03095000 2.66457000 4.89792000
-2.23068000 0.55826600 4.59914000
4.37815000 0.24843200 3.60668000
-0.10671100 -0.49812100 -6.64470000
-0.09341330 -0.52399400 -6.54441000
-0.01133520 -0.47257700 -6.56925000
5.63491000 2.85642000 8.18797000
5.66286000 2.86991000 8.20671000
2.23908000 1.44260000 6.35955000
5.74566000 3.22466000 3.85777000
-0.01915370 2.38582000 3.37048000
0.03621930 2.38204000 3.28798000
0.03913940 2.34452000 3.29930000
1.17421000 3.62218000 0.75063500
-2.53361000 1.79909000 -5.74440000
-2.26718000 1.73479000 -5.75346000
-2.85094000 2.27801000 -5.66198000
-3.18949000 2.17118000 -5.70203000
5.71864000 2.79480000 8.17618000
1.77760000 3.33610000 -4.23125000
1.59977000 3.31661000 -4.25695000
3.22521000 3.38685000 7.01467000
3.39229000 3.37737000 7.14223000
-1.65605000 -0.18039000 4.41749000
-1.78399000 -0.18808300 4.42589000
-1.85114000 0.02733320 4.47729000
-0.08374230 2.38257000 3.43048000
3.71853000 3.31675000 6.21379000
-0.05618930 -0.48647200 -7.00839000
-0.08722760 -0.50360000 -6.94229000
-0.12481300 -0.51044500 -7.00013000
5.19075000 -1.12506000 -4.54579000
-1.34581000 2.15975000 4.46965000
0.62046900 -0.14241200 -6.05340000
0.64893200 3.39649000 -1.47450000
5.02182000 -1.16597000 -4.59972000
1.95989000 -4.79955000 -0.02271750
1.81506000 -4.82872000 -0.02909160
1.99003000 -4.82575000 -0.16046700
-6.85762000 3.55652000 4.45432000
-6.86641000 3.53412000 4.48539000
4.51018000 -0.82850600 3.45559000
4.73967000 -0.76055700 3.38602000
0.52840500 -2.18969000 -4.96934000
5.72790000 1.62918000 6.63180000
5.59105000 1.51813000 6.64508000
5.65267000 1.55482000 6.58920000
-4.48205000 -3.41642000 1.83941000
-4.61828000 -3.13892000 2.14128000
-4.57061000 -3.31197000 1.92603000
2.88627000 2.88966000 0.53087000
4.14999000 2.11395000 -4.15167000
4.29703000 2.08657000 -4.19495000
-3.71488000 0.13975900 -8.26025000
-3.76157000 0.06250060 -8.36106000
3.88917000 3.20163000 -2.97560000
4.02208000 3.24757000 -3.11051000
4.59344000 3.23549000 5.56006000
4.59941000 3.23557000 5.47719000
-2.46902000 -2.24451000 3.55326000
-2.60458000 -2.01966000 3.66789000
6.45780000 1.90736000 -4.13540000
6.44668000 1.74389000 -4.17222000
6.61288000 1.74958000 -4.10157000
-2.57146000 2.36221000 -4.73270000
-2.30375000 0.37776700 -7.71354000
-2.29045000 0.36567800 -7.75112000
-0.97631800 0.33222200 -7.64919000
-0.97616200 0.37128300 -7.57948000
-0.88915400 0.25188600 -7.74787000
3.84351000 2.83066000 7.00875000
3.96787000 2.64862000 7.02156000
3.88209000 2.67605000 7.01415000
3.92102000 2.77226000 7.02048000
0.18174000 2.30656000 4.22520000
0.25215300 2.09596000 4.37193000
1.51717000 3.67454000 -0.69009700
1.53155000 3.69176000 -0.64120800
1.54785000 3.72536000 -0.64937200
-5.01911000 -1.78861000 3.28344000
-1.64816000 -4.24902000 -3.54960000
-6.32977000 -1.91008000 -2.66848000
4.79306000 -0.14271000 5.21144000
5.81582000 1.72367000 -4.34209000
5.89259000 1.62396000 -4.35203000
5.96505000 1.75031000 -4.31056000
-1.18867000 -0.53700900 -8.46290000
-1.23605000 -0.53782500 -8.47816000
-1.23605000 -0.53782500 -8.47816000
-1.18867000 -0.53700900 -8.46290000
6.33492000 2.62389000 6.66723000
6.33989000 2.62112000 6.72424000
6.31316000 2.59780000 6.73865000
4.56479000 2.91508000 4.93913000
4.59284000 2.84091000 5.09561000
-3.58115000 -1.30336000 -4.73879000
0.03595240 2.96673000 4.80670000
3.89086000 -4.43509000 -2.46691000
4.23918000 -4.31113000 -2.38623000
3.40087000 1.93642000 6.95427000
4.49701000 0.44918500 6.01877000
-3.13236000 2.27195000 -4.91059000
0.26892100 3.43403000 -3.38723000
0.06078930 1.56110000 -4.00197000
-4.67330000 1.01660000 -5.90237000
2.05974000 0.18797300 4.46467000
1.96915000 0.23378500 4.45616000
3.51104000 2.52943000 -3.67198000
3.30193000 2.40349000 -3.71324000
3.52636000 2.44316000 -3.75977000
3.32859000 2.33778000 -3.78409000
4.93141000 2.62399000 5.69118000
4.87718000 2.67650000 5.63510000
4.82693000 2.70487000 5.57646000
-4.48229000 1.07108000 -5.96718000
-4.45440000 1.01372000 -6.02105000
7.13849000 -0.57589700 1.59617000
7.16005000 -0.41877400 1.67475000
8.92011000 3.14079000 -1.41508000
8.93754000 3.09149000 -1.45915000
-9.95774000 3.10085000 0.01926360
-9.96891000 3.06501000 -0.06975390
-8.94459000 3.40530000 2.38637000
-8.94391000 3.42064000 2.33497000
-8.99721000 3.37450000 2.35136000
-8.92768000 3.34274000 2.51324000
-8.90664000 3.37765000 2.51494000
-9.28896000 2.05264000 0.13512700
-9.33681000 2.03803000 -0.24303200
3.02323000 -4.54020000 -0.08273750
0.81971400 0.76825000 3.55881000
-2.78193000 -1.56777000 3.89053000
3.40461000 2.56226000 -3.59166000
3.11285000 2.43757000 -3.59833000
3.31511000 2.59257000 -3.51625000
4.55069000 3.01742000 6.15754000
4.52964000 2.94488000 6.21382000
4.55826000 2.99957000 6.18501000
-0.10825000 3.47926000 3.55866000
0.06827810 3.47014000 3.56330000
0.15983900 3.45050000 3.49893000
-0.23132000 3.37860000 -3.50284000
-0.04822950 3.39982000 -3.50182000
0.16062400 3.42130000 -3.37963000
-6.17837000 2.89814000 -5.65601000
0.16676200 3.43515000 3.51087000
4.44247000 0.44188400 5.68906000
7.01300000 3.15195000 3.80357000
6.98295000 3.18709000 3.81808000
-0.56891100 0.93667700 -4.51761000
1.03119000 1.74226000 -3.77393000
4.55108000 2.92398000 7.94943000
4.43067000 2.84429000 7.91908000
4.36231000 2.77493000 7.90465000
-7.68801000 2.67647000 3.73173000
-9.84545000 2.46991000 -1.72598000
-2.17091000 -0.35079500 -8.69978000
-2.16882000 -0.47039500 -8.69366000
-8.22037000 0.36052800 -3.13355000
-8.20940000 0.42843000 -3.21571000
4.14758000 3.28317000 3.77936000
4.21866000 3.28408000 3.90601000
4.24684000 3.28754000 3.83128000
3.76066000 3.28898000 3.55743000
3.89581000 3.28978000 3.69659000
-7.04798000 -1.69767000 -2.52415000
2.23340000 3.73407000 1.04325000
-0.89785100 0.19131700 -7.99489000
6.70398000 -1.46095000 -3.29239000
-8.81192000 2.04936000 -2.88350000
3.98789000 0.82823900 -4.73004000
-7.88159000 2.81217000 3.59564000
-7.79260000 2.80212000 3.68118000
4.30869000 -4.18591000 -2.72444000
3.38770000 3.33685000 2.67354000
3.35494000 3.32142000 2.89263000
3.45695000 3.32562000 2.77056000
6.38368000 3.22497000 6.29868000
6.35982000 3.28088000 6.26747000
4.35882000 1.43643000 7.00310000
4.42343000 1.49047000 7.14579000
4.53631000 1.53531000 7.30442000
1.31667000 -3.89626000 2.61141000
-4.36363000 0.09543860 -7.56749000
-4.33454000 0.15646300 -7.60823000
-4.34392000 0.04439880 -7.58504000
-4.36011000 0.00014130 -7.53131000
7.88468000 2.77975000 2.46789000
7.80907000 2.66387000 2.48577000
5.96250000 1.18621000 5.21900000
4.99342000 3.05243000 8.18593000
-2.20082000 -2.44457000 3.46570000
-2.30062000 -2.34665000 3.51741000
3.82411000 -1.73865000 -5.04682000
2.51938000 0.51697600 -5.09677000
7.26368000 3.00488000 -3.75887000
7.28059000 2.94174000 -3.77267000
7.21532000 2.95263000 -3.79735000
-3.56534000 2.75199000 -5.26120000
-3.28589000 2.71750000 -5.17866000
4.32990000 1.61407000 -4.43043000
4.44972000 1.57884000 -4.45593000
5.89377000 2.82515000 7.76309000
3.01466000 3.00344000 3.41585000
2.86360000 2.95503000 3.24953000
2.92822000 2.92065000 3.31129000
2.93425000 2.98350000 3.31823000
3.60591000 3.32657000 2.62969000
6.31316000 3.33942000 6.24100000
-4.98270000 0.64064300 -5.65890000
-5.01378000 0.75539200 -5.68473000
-5.11467000 0.79690200 -5.63441000
2.54797000 3.53095000 -1.40856000
2.48574000 3.54991000 -1.32130000
2.58417000 3.53256000 -1.49706000
-3.12844000 0.11220600 -8.43017000
-3.06399000 0.15977600 -8.31856000
0.63318500 3.34026000 -1.47646000
0.67731700 3.37081000 -1.39808000
-2.55637000 1.97000000 -4.74480000
-2.40444000 2.08166000 -4.65293000
-3.34627000 -2.61239000 3.41720000
-3.35057000 -2.42185000 3.57729000
-5.03468000 -3.45915000 0.08799690
-4.82525000 -3.53266000 0.31536000
-4.82415000 -3.58304000 0.13767100
-6.86770000 3.07170000 -5.23989000
-3.92144000 0.64175700 -7.12163000
-3.80519000 0.65375200 -7.20383000
-3.51333000 -2.63627000 3.33833000
-5.40596000 -1.53554000 -3.88723000
-5.30691000 -1.68942000 -3.84395000
-5.48479000 -1.71190000 -3.70929000
-5.32718000 -1.81211000 -3.74151000
1.87596000 3.80547000 -1.51050000
1.81107000 3.82619000 -1.48367000
-7.15003000 3.55922000 4.22103000
-7.18386000 3.53556000 4.26026000
-7.07586000 3.55043000 4.32237000
-7.09929000 3.58313000 4.17832000
6.91921000 1.03097000 -3.98630000
7.95500000 0.98489100 -3.38535000
3.55608000 3.23136000 4.38168000
3.52842000 3.23526000 4.26861000
-0.34979000 2.51464000 -5.19535000
-0.24442900 2.38589000 -5.22330000
-7.12756000 1.52144000 -4.76405000
-6.99184000 1.45673000 -4.83195000
-7.06502000 1.65955000 -4.88067000
0.40320000 2.33742000 3.72393000
6.81652000 -0.08014710 -3.90953000
-1.39425000 -0.21204000 -8.59812000
-1.50947000 1.33870000 -5.92102000
-1.49436000 1.39721000 -5.88035000
-1.32989000 1.48676000 -5.79651000
-1.33870000 1.38066000 -5.86030000
8.21595000 2.58716000 2.02018000
8.18025000 2.63247000 2.08659000
8.13581000 2.71473000 2.15837000
0.96404100 3.47645000 2.45869000
1.08867000 3.48185000 2.42027000
1.03750000 3.50134000 2.39220000
1.11413000 3.49942000 2.30240000
1.11054000 3.48338000 2.37843000
1.17147000 3.49507000 2.35950000
-3.71358000 3.42029000 4.90068000
2.76047000 3.52484000 -2.83159000
3.92956000 2.83936000 -3.55195000
4.81079000 3.13431000 6.32914000
4.77479000 3.10426000 6.35854000
3.42427000 -0.13807900 4.78942000
3.49066000 -0.15684000 4.69040000
2.02663000 -3.00472000 -4.85261000
1.98324000 -2.88672000 -4.92452000
3.43040000 -3.89636000 1.20926000
3.21331000 -3.99781000 1.17721000
8.08628000 2.42247000 2.04724000
8.11946000 2.52802000 2.07701000
-4.00368000 -0.19364000 -8.15560000
-3.98396000 -0.13404400 -8.16095000
-4.00990000 -0.18709400 -8.14021000
-4.02500000 -0.17968300 -8.13052000
8.17714000 2.57450000 -3.16089000
-3.90526000 0.48008200 -6.53278000
-3.90526000 0.48008200 -6.53278000
4.55633000 3.32740000 7.00743000
4.46227000 3.32898000 7.04440000
2.09075000 2.93541000 2.86862000
-0.71970700 -3.03080000 3.45766000
-2.73214000 -4.18330000 -2.77455000
-1.91036000 3.41293000 4.59405000
-1.74595000 3.42201000 4.53513000
-1.73879000 3.38150000 4.51499000
-2.58934000 1.98035000 -4.74325000
-2.43633000 2.04324000 -4.67230000
-2.59152000 2.01415000 -4.73439000
-2.71980000 1.98559000 -4.77562000
0.08953550 0.52506100 -6.31210000
0.13382400 0.49653500 -6.33331000
0.23127300 0.41549300 -6.35142000
-2.76686000 -4.39581000 -2.26888000
4.81302000 3.14735000 6.37963000
1.31462000 -2.70927000 3.14253000
-8.64775000 2.92198000 -3.51335000
-8.72741000 2.92412000 -3.41480000
-1.47306000 2.68842000 4.95938000
-1.32537000 2.69365000 4.94471000
7.76990000 3.30072000 -3.12442000
7.67209000 3.30451000 -3.15936000
7.78077000 3.30127000 -3.07994000
7.78077000 3.30127000 -3.07994000
5.92567000 3.25584000 5.91215000
-2.45145000 2.86901000 -4.94720000
-2.34750000 2.86755000 -4.88246000
7.07269000 -0.68705100 1.91917000
-5.92836000 -1.67551000 2.24845000
-2.31040000 -0.80539600 -8.63434000
-2.32398000 -0.86605900 -8.54120000
-2.27670000 -0.85414300 -8.54489000
-7.80804000 3.45573000 3.33508000
-7.78161000 3.48874000 3.37374000
-7.68875000 3.42704000 3.42287000
-7.75040000 3.35654000 3.35057000
-2.64974000 -0.96487300 -8.10589000
1.31035000 3.58398000 -0.83736000
1.38880000 3.63877000 -0.71722600
-0.72377300 0.62511600 -6.78730000
-6.91606000 -1.21875000 -2.74640000
5.30040000 2.22190000 8.11220000
5.38521000 2.24743000 8.14297000
0.57052800 3.02840000 1.81164000
0.56737200 3.10730000 1.75798000
2.85963000 0.08283170 5.86235000
2.67809000 0.11328900 5.83990000
3.75518000 3.34578000 2.21490000
-0.20083100 2.91227000 -2.84328000
-0.22825800 2.97331000 -2.87484000
-0.28100900 2.93454000 -2.95539000
0.89766300 -4.17390000 -4.05441000
0.72473000 -4.23483000 -4.00029000
7.56380000 -0.51757300 -2.85688000
-2.18986000 -0.77338400 -6.95991000
5.93027000 2.41540000 7.72552000
5.92217000 2.36474000 7.72508000
6.60162000 2.86215000 6.14421000
6.60162000 2.86215000 6.14421000
6.01505000 3.01661000 -3.77629000
5.86491000 3.05774000 -3.76864000
-0.14156400 3.03805000 5.53096000
-0.06761870 3.06465000 5.63256000
3.37710000 -0.79640000 3.20651000
3.53496000 -0.80454800 3.16510000
-4.08940000 0.33934900 -6.69670000
8.29401000 2.65484000 1.97170000
7.43371000 -1.81176000 0.23149200
7.34959000 -1.93359000 0.17960500
-4.43013000 0.20367200 -5.87560000
4.75023000 3.06802000 5.73665000
4.72899000 3.09308000 5.77266000
4.84559000 3.03727000 5.85069000
5.74765000 3.02187000 8.11429000
5.76042000 3.07283000 8.08597000
4.91612000 3.03611000 5.94399000
4.86296000 3.05325000 5.92938000
4.80992000 3.06449000 5.87490000
-0.51510800 -5.06616000 -0.66117800
8.43829000 2.82540000 1.82439000
4.24484000 0.87332800 6.35407000
3.17720000 -2.27183000 2.87107000
2.89528000 -2.71070000 -4.86797000
3.08771000 -2.66457000 -4.85261000
3.15038000 -2.71189000 -4.81353000
-1.18888000 2.64696000 4.25068000
3.29872000 -2.35326000 2.78858000
3.49922000 -2.35782000 2.71269000
-1.74380000 -4.70453000 -2.84644000
5.75605000 -3.51850000 -0.38902300
8.01711000 3.23260000 -3.05948000
7.87628000 3.22452000 -3.20252000
2.85647000 3.34291000 6.84412000
2.96371000 3.34413000 6.86174000
-5.74990000 -3.21584000 -1.81338000
6.41410000 2.55026000 -3.88673000
6.35066000 2.59337000 -3.87086000
6.23921000 2.59942000 -3.89152000
-4.08500000 -3.68675000 1.04391000
-4.11162000 -3.77910000 0.78884800
-2.49930000 -0.76372900 -6.13291000
-2.61575000 -0.71788500 -6.16986000
7.54488000 2.88041000 2.91363000
4.06844000 3.29032000 5.75031000
3.90330000 3.29994000 5.88554000
3.92639000 3.30120000 5.94263000
-7.92307000 -1.30813000 -0.50404000
1.44166000 3.49578000 2.18929000
0.05160500 2.63449000 4.84798000
-0.30465300 0.47319000 -7.07754000
-0.29689700 0.43136600 -7.11645000
1.30033000 3.21499000 6.74198000
1.45467000 3.16276000 6.80768000
1.36754000 3.23048000 6.76339000
-0.91177700 -1.47920000 -5.43529000
-9.99623000 2.90315000 -1.23254000
-10.00000000 2.94417000 -1.09801000
-9.99375000 3.02954000 -1.18465000
0.08586180 2.87462000 5.06429000
0.05410120 2.82218000 5.01823000
0.07761940 2.71374000 5.04198000
3.01074000 3.22983000 0.21113000
1.47185000 3.47328000 2.37017000
1.47182000 3.45394000 2.42115000
-1.04130000 -0.57253700 -8.32592000
-1.07289000 -0.59467400 -8.34410000
-7.07932000 3.09729000 4.41484000
2.14998000 3.46716000 -3.77302000
2.08272000 3.44475000 -3.83111000
2.03305000 3.46413000 -3.79175000
2.14154000 3.47540000 -3.70400000
0.37442300 2.55626000 5.55261000
0.28815300 2.76018000 5.52101000
0.31168700 2.68707000 5.51753000
2.09166000 3.60604000 2.02957000
2.02288000 3.58260000 2.09753000
1.14792000 1.60544000 3.46918000
0.99605300 1.88766000 3.40408000
1.91088000 3.66987000 1.76091000
1.89276000 3.70424000 1.69621000
1.88266000 3.66295000 1.78947000
1.84922000 3.64836000 1.81705000
5.89495000 1.94163000 5.71834000
5.85012000 1.98611000 5.75346000
5.65785000 1.79372000 5.79430000
1.97339000 3.63202000 1.86861000
1.95171000 3.62235000 1.87908000
1.96168000 3.63486000 1.82608000
6.03425000 2.87492000 5.72694000
6.13520000 2.85220000 5.61566000
-1.51834000 0.74842100 -6.73856000
-1.59263000 0.73063400 -6.80942000
-4.30169000 -0.27760200 -7.70321000
-1.59360000 0.62882100 -7.11638000
8.70922000 1.18793000 -0.86832000
6.06896000 2.45787000 5.74261000
5.99169000 2.38978000 5.77527000
-3.39089000 -3.48983000 -3.81148000
-1.12537000 3.19888000 -4.84208000
-0.97598900 3.21565000 -4.79681000
-0.95867200 3.20164000 -4.91637000
-1.15313000 3.16360000 -4.99099000
-3.78310000 0.07827880 4.73720000
3.15980000 -4.04665000 -3.70356000
2.73764000 1.93625000 -4.63961000
-2.23143000 -0.94898500 -8.27055000
-2.23597000 -0.95162300 -8.21255000
-6.23667000 1.54542000 4.45348000
-6.02719000 1.34369000 4.49902000
-6.03970000 1.57220000 4.55476000
-5.86427000 1.31493000 4.56507000
3.74868000 3.48493000 -3.39382000
3.77481000 3.48121000 -3.45452000
1.41434000 0.73088500 5.71036000
1.56154000 0.56635200 5.66066000
-4.25123000 0.39747000 -6.12752000
-1.52320000 -4.69574000 1.13339000
1.77386000 3.49217000 1.97870000
1.75491000 3.49294000 2.09153000
4.55887000 3.02458000 2.68760000
4.56987000 3.13888000 2.76295000
-2.02977000 -2.51809000 3.43866000
-1.61822000 -2.65060000 3.39013000
-2.69159000 0.29397700 -7.96685000
-2.67773000 0.29961300 -7.88387000
1.31832000 3.63817000 0.89045700
1.31936000 3.60018000 0.91016000
-4.94266000 -3.58776000 -0.33757500
-4.95067000 -3.59704000 -0.51892300
-1.69720000 -0.86507000 -7.18873000
1.06604000 2.71439000 -0.09942630
1.23125000 2.63853000 0.47890400
1.15903000 2.66376000 0.32774700
1.91970000 -4.43001000 1.73805000
2.14887000 -4.44591000 1.63277000
1.21919000 3.71471000 0.58833100
0.60544400 2.41933000 3.41948000
3.50215000 3.32318000 2.82425000
3.33040000 3.29393000 3.13395000
3.41193000 3.30440000 3.18923000
3.27667000 3.31735000 3.01447000
1.21214000 3.64332000 -0.04975240
1.22076000 3.69228000 -0.06462000
1.22500000 3.61533000 -0.13928800
1.24238000 3.59417000 -0.27446300
0.73094800 1.96113000 -5.15067000
0.80322900 1.79132000 -5.19764000
0.79326000 2.21206000 -5.02014000
-8.68695000 2.86225000 -4.07281000
-8.88097000 2.83474000 -3.86683000
-8.47703000 2.81634000 -4.26535000
-2.81082000 0.80869300 -6.67832000
-2.81768000 0.83965200 -6.63638000
3.68110000 3.10178000 4.88704000
2.00536000 -5.19609000 -1.20191000
-1.71606000 3.17218000 4.95929000
-1.82413000 3.32815000 4.97034000
-1.98112000 3.25702000 5.02218000
2.90812000 2.46349000 1.22508000
-2.09070000 0.04689510 -8.51763000
-2.13232000 0.06918870 -8.47337000
3.38604000 -1.30201000 -5.19127000
3.67505000 -1.08463000 -5.17128000
-5.09272000 2.77128000 4.70533000
-5.13819000 2.51891000 4.66833000
-5.20374000 2.78786000 4.68244000
-4.36044000 -3.75104000 1.32484000
-4.50714000 -3.72259000 1.22279000
4.78918000 3.22466000 2.95896000
1.28162000 3.57150000 -0.35550400
-4.24830000 0.39513100 -7.09348000
6.35496000 2.13230000 5.34809000
-7.18708000 -1.46157000 0.39616700
-7.16067000 3.60296000 4.06700000
-7.09929000 3.58313000 4.17832000
-7.06107000 3.59495000 4.14895000
-6.99415000 3.58751000 4.24965000
4.46960000 -1.54806000 -4.68112000
4.88268000 -1.29724000 -4.61220000
-3.79024000 -3.08303000 2.27523000
8.71185000 3.09840000 -1.36253000
8.65406000 3.13437000 -1.42538000
-3.52573000 1.15880000 -6.17897000
-3.00835000 0.76041600 -6.87850000
-3.37326000 0.73953500 -6.99443000
-4.90480000 -3.84678000 -1.78110000
1.08956000 -4.52538000 -3.18583000
2.68892000 -4.45553000 1.36705000
1.26836000 -0.36090500 4.47309000
1.16539000 -0.45147700 4.41770000
3.50514000 2.70456000 1.57454000
3.38561000 2.55023000 1.51595000
-4.08990000 -0.36269500 4.59267000
-6.28816000 3.42185000 4.41636000
2.32507000 -5.10910000 -1.87784000
1.22185000 -4.55490000 -3.11308000
5.63632000 2.69015000 -4.19900000
5.82923000 2.68726000 -4.18206000
5.88053000 2.71023000 -4.17992000
5.74462000 2.74864000 -4.21343000
-3.63646000 0.65136600 -6.58275000
-3.67640000 0.63948100 -6.54360000
-3.72030000 0.65563600 -6.65745000
-3.80834000 0.65119300 -6.71618000
5.39899000 2.66274000 -4.21291000
3.97274000 -2.06354000 3.03245000
4.19371000 -2.07370000 2.93761000
1.32854000 -0.30330300 4.51365000
-0.43824200 -4.55306000 -3.09730000
5.17163000 2.34431000 -4.32761000
-4.49668000 0.81605600 -6.02282000
8.82062000 2.81022000 -2.27847000
8.83616000 2.84254000 -2.23854000
-4.42638000 1.07144000 -6.03120000
2.91500000 2.62341000 6.49263000
2.97792000 2.66197000 6.46230000
3.00884000 2.51037000 6.46246000
2.87493000 2.77113000 6.50981000
2.94503000 2.76007000 6.47012000
2.90004000 2.70209000 6.49574000
5.77706000 0.84084600 3.98668000
3.36767000 3.17163000 3.91653000
-6.16997000 2.95277000 4.81140000
-6.12379000 2.97273000 4.84763000
-6.17936000 2.99675000 4.85979000
-9.32075000 1.97815000 -0.41254200
-9.34425000 2.04282000 -0.40863200
-9.35816000 2.04114000 -0.52105800
-9.35738000 2.02942000 -0.77376100
-0.33237900 -3.95434000 -3.91758000
-0.34311700 -4.03623000 -3.83411000
-0.23293700 -4.11152000 -3.76693000
2.74722000 2.64328000 3.16409000
6.34305000 1.33689000 5.45492000
6.10612000 2.83157000 7.50885000
-6.25544000 3.41747000 4.82434000
1.51355000 -2.48034000 3.22494000
4.94265000 2.04903000 -4.45070000
5.06732000 2.08883000 -4.43465000
-6.26706000 2.86209000 4.75166000
-6.29834000 2.93718000 4.75923000
-0.19075200 -4.20834000 -3.65420000
1.25445000 -2.90118000 -4.95902000
8.97355000 3.14021000 -0.68114800
5.84642000 -0.36428100 2.58166000
5.91735000 -0.40001300 2.53908000
4.76078000 2.06762000 7.74472000
4.79659000 1.95622000 7.70019000
4.70021000 2.15190000 7.76125000
6.35889000 3.19229000 7.02719000
6.34080000 3.22409000 6.97017000
6.32371000 3.24501000 7.02851000
6.36867000 3.13993000 6.96334000
-3.59381000 -4.61002000 -1.13881000
8.94254000 3.14164000 -0.67606100
3.41431000 -4.34042000 1.09102000
2.15661000 2.35348000 -3.28264000
2.12819000 2.26349000 -3.38511000
2.44864000 2.51428000 -3.18888000
2.34515000 2.43773000 -3.25058000
0.71457300 -4.59292000 1.71497000
6.71570000 -2.41482000 -0.76858000
2.81213000 3.51438000 1.04183000
2.74861000 3.53661000 0.92925100
-1.78280000 -4.67833000 0.50207700
3.48864000 0.68389600 3.26042000
3.38915000 0.83522500 3.20720000
-6.80715000 2.39868000 3.85828000
4.34521000 3.27413000 4.46298000
7.89230000 2.51492000 2.29492000
3.35745000 0.78087300 3.22673000
-6.62710000 -1.49702000 -3.41221000
-6.76747000 -1.36294000 -3.38320000
3.36836000 3.47834000 -3.69469000
3.43314000 3.48256000 -3.63929000
3.47290000 3.46866000 -3.68596000
3.37060000 3.48656000 -3.64829000
3.35602000 3.48725000 -3.54079000
0.25151000 0.42031300 -6.51217000
0.25151000 0.42031300 -6.51217000
2.75714000 1.25221000 2.35939000
2.83250000 1.33060000 2.29921000
2.73153000 1.34512000 2.29574000
4.54036000 2.16607000 2.51846000
4.44750000 2.27090000 2.47084000
2.55064000 3.36779000 2.67459000
-1.47015000 2.37965000 -4.18319000
-1.32328000 2.52397000 -4.04863000
0.45698700 2.80446000 3.38280000
0.41764400 2.76084000 3.44669000
0.37225600 2.79736000 3.48306000
-4.04761000 -0.29606500 -7.27916000
6.76061000 1.80355000 3.73686000
-1.44624000 2.20525000 -4.22790000
7.77042000 -1.07397000 -1.00971000
7.65966000 -1.25095000 -1.06625000
-0.42896300 0.95465300 4.77482000
-2.58089000 2.68740000 4.76179000
2.20539000 0.05981590 5.47388000
4.86721000 2.59017000 8.02593000
4.93321000 2.59173000 8.09465000
5.67391000 -3.30985000 -2.79694000
5.62568000 -3.28622000 -2.90927000
5.31867000 3.28777000 8.10336000
5.40256000 3.28974000 8.05630000
5.40256000 3.28974000 8.05630000
2.62562000 2.60333000 6.89693000
2.73941000 2.65231000 6.92150000
2.70809000 2.58339000 6.90945000
-7.05286000 3.49140000 3.93466000
-6.94846000 3.49501000 4.00814000
-7.44242000 3.51644000 3.65634000
-7.99639000 -1.03471000 0.62612100
-7.96640000 -1.12845000 0.40086100
3.97143000 2.95114000 6.22271000
4.01762000 2.95422000 6.20329000
3.91471000 2.99935000 6.23464000
-8.50697000 3.13767000 -4.11162000
2.01729000 3.78559000 -1.05466000
5.13554000 2.79928000 -4.24389000
-2.52813000 -0.42034400 -8.78955000
3.83211000 2.53112000 6.37854000
3.87626000 2.36306000 6.42682000
7.17345000 0.48791600 2.12475000
7.32857000 0.65279400 2.06735000
7.36758000 0.58335400 2.00170000
6.71799000 0.32385400 -4.31414000
6.85889000 0.50885900 -4.22651000
6.17319000 -2.86514000 -0.42010900
5.99095000 -3.04502000 -0.56963300
5.58821000 2.48903000 8.20843000
5.69164000 2.40920000 8.13255000
2.20006000 0.14834700 5.64620000
2.20780000 1.52449000 2.26517000
2.22317000 1.45378000 2.32433000
2.79337000 1.03342000 3.18455000
2.73280000 1.11953000 3.16976000
-3.43103000 -0.82338800 -7.86341000
-6.16738000 -2.66983000 -0.90703600
0.75200100 2.45847000 2.16810000
1.69701000 1.69987000 2.29195000
1.76046000 1.59787000 2.36995000
1.84304000 3.33205000 6.59426000
-7.63071000 -0.45204200 -3.16472000
-7.49374000 -0.68994000 -3.11154000
-1.43260000 -0.55897300 -8.57079000
1.26070000 2.81961000 -1.08838000
1.59212000 2.86451000 -0.89150900
1.10991000 2.91420000 6.27634000
1.20404000 2.90834000 6.32857000
5.62172000 2.37094000 8.16720000
5.69277000 2.35030000 8.10854000
7.33634000 2.62818000 -3.44384000
4.22856000 3.46364000 -3.25931000
1.36330000 -1.56195000 -5.29104000
1.22191000 -1.51590000 -5.30517000
2.93118000 -0.27991000 5.20948000
2.84251000 -0.28743000 5.11966000
-1.47596000 1.28130000 -5.95900000
-1.71044000 1.30458000 -5.98552000
-1.60847000 1.27106000 -5.99010000
4.72761000 -4.05051000 0.02009560
6.25781000 0.86169500 4.19126000
6.30567000 0.92579700 4.19504000
6.30678000 0.93339600 4.13479000
6.39374000 1.05329000 4.20453000
2.43256000 1.26879000 3.16809000
2.56675000 1.22219000 3.15984000
4.49414000 2.67007000 5.40675000
4.63683000 2.69718000 5.37905000
5.63719000 0.63701600 4.78316000
-2.37697000 1.72044000 -5.77296000
6.64497000 -2.85154000 -0.90747500
-9.20380000 2.92679000 -3.47907000
-9.27547000 2.90373000 -3.38651000
-9.26698000 2.97789000 -3.39626000
-9.26418000 2.79863000 -3.38630000
5.88430000 2.84573000 7.64294000
2.12835000 -4.24073000 -3.38671000
1.10124000 3.47527000 -3.46739000
1.10495000 3.48686000 -3.35632000
7.06659000 2.67983000 3.68177000
8.94835000 1.54677000 0.68857400
5.31307000 2.55701000 -4.25615000
5.21754000 2.54491000 -4.25597000
4.93324000 3.42948000 -3.88482000
5.49630000 -2.71200000 -3.76179000
5.68859000 -2.66498000 -3.65772000
-6.01544000 -2.05872000 -3.45270000
-0.47031600 0.22558900 -7.63953000
-0.51933100 0.26749200 -7.65368000
2.21008000 1.59920000 2.18842000
3.98374000 1.52749000 6.20715000
4.28094000 1.49667000 6.12371000
-7.07078000 0.73901700 -4.38426000
-6.74711000 -0.07586110 -4.19729000
6.29813000 3.25950000 7.08522000
6.29965000 3.28284000 6.99278000
6.25957000 3.31244000 6.98410000
6.28238000 3.31818000 6.83140000
-4.25817000 0.38216300 -7.51844000
-4.21332000 0.13553600 -6.91309000
-4.19321000 0.15288400 -6.88488000
-4.18831000 0.20726800 -6.87613000
2.24878000 3.61513000 1.91100000
2.24137000 3.62645000 1.87111000
2.19075000 3.62543000 1.88302000
4.88346000 1.91356000 7.69332000
2.53860000 -0.54595800 4.40289000
7.68796000 3.30988000 -3.17023000
6.23065000 -2.19393000 1.56963000
6.10879000 -2.36593000 1.51283000
-1.23287000 3.26246000 4.23787000
5.44776000 0.79423300 -4.58510000
1.06987000 0.14435900 4.77945000
0.98936500 0.24929600 4.82628000
4.13831000 -4.00778000 1.13870000
-5.12004000 0.81897600 -4.94827000
-5.39075000 1.09482000 -4.94507000
0.21051800 2.15796000 5.54792000
-7.58383000 0.29865600 2.15127000
-4.26528000 0.08906450 -7.04874000
-4.21348000 0.07173200 -7.02336000
7.62826000 2.65971000 -3.60875000
7.68294000 2.65608000 -3.61554000
7.68445000 2.64961000 -3.56078000
7.62755000 2.64277000 -3.68306000
-4.15163000 -4.14400000 -2.10951000
-4.23037000 -3.99938000 -2.34829000
3.71846000 -2.62482000 -4.70123000
3.89698000 -2.64498000 -4.62423000
5.82337000 0.79705900 4.31741000
5.89553000 0.85908900 4.44049000
-5.05401000 -1.47901000 -4.43492000
-5.21841000 -1.34430000 -4.42473000
-5.04146000 -1.29711000 -4.52887000
-1.24009000 -4.05755000 2.40815000
0.99503300 -0.47799400 -5.54108000
7.96156000 2.22569000 2.10747000
8.03857000 2.34642000 2.06732000
1.67722000 -1.39282000 -5.29062000
2.30251000 -1.64472000 -5.23554000
7.59282000 2.65300000 -3.61938000
7.56672000 2.63443000 -3.60227000
7.45705000 2.64171000 -3.66152000
-2.09090000 3.47862000 4.88910000
-2.06772000 3.49042000 4.81499000
2.53982000 3.60486000 -0.29184200
2.61898000 3.56012000 -0.30837400
-5.98024000 -1.14230000 -3.77369000
3.20266000 2.93103000 3.66361000
3.16340000 2.99073000 3.63521000
0.55423200 2.42019000 3.47135000
3.55445000 0.65660900 6.05515000
3.82552000 2.53489000 -4.33667000
4.12477000 2.48118000 -4.33152000
3.84113000 2.41391000 -4.36999000
-8.51875000 0.99941300 1.22186000
3.20984000 2.99276000 3.68611000
3.20982000 3.04108000 3.68637000
-7.94508000 0.28449500 -3.40492000
4.51537000 2.86088000 7.93712000
4.60832000 2.92715000 7.96966000
-9.09417000 2.18080000 -2.24393000
-9.11330000 2.30181000 -2.28351000
-7.06864000 -0.12864400 2.44545000
-3.28016000 3.01882000 5.23718000
-3.43062000 3.06291000 5.24094000
6.25759000 -1.91593000 -3.39459000
6.34620000 -1.89810000 -3.31164000
6.94763000 -1.71132000 0.67441300
-8.20221000 3.01273000 -4.51282000
2.44653000 3.73777000 0.61539800
2.39369000 3.76647000 0.60571100
-9.93392000 3.06232000 -1.66226000
-4.25098000 -2.11628000 -4.47376000
7.44789000 2.59212000 -3.68366000
-0.28220200 -2.74221000 3.32219000
-9.46812000 3.19194000 -2.48293000
-9.48755000 3.19158000 -2.54087000
-9.41779000 3.18985000 -2.70972000
6.86425000 -1.72127000 0.80965000
6.84572000 -1.67218000 0.90892000
7.71093000 1.93151000 2.26203000
7.59728000 1.79168000 2.31241000
7.55497000 2.08754000 2.45164000
7.52605000 1.82169000 2.38397000
1.41297000 2.70448000 2.87344000
1.34344000 2.74114000 2.87616000
5.87002000 2.82253000 7.65046000
5.86251000 2.82683000 7.68222000
5.87369000 2.81736000 7.72831000
1.35153000 -4.93869000 -0.22526000
1.35153000 -4.93869000 -0.22526000
1.12145000 3.27345000 2.80921000
0.94204600 3.33442000 2.86423000
6.33890000 1.58894000 4.89398000
-4.05668000 -2.92409000 -3.62926000
-2.69608000 -0.03535580 4.47900000
-2.55094000 -0.28721100 4.41401000
-3.16880000 2.80140000 -5.54277000
-3.07284000 2.64181000 -5.58795000
-3.16861000 2.73860000 -5.57613000
-3.10638000 2.78102000 -5.55293000
-4.02453000 -3.01534000 -3.56065000
8.35483000 -0.35790700 0.01106830
-0.13627400 -4.67673000 1.56300000
-3.39569000 -0.46681600 -5.94319000
-3.38144000 -0.45205800 -5.98495000
-3.39569000 -0.46681600 -5.94319000
-3.26933000 -0.53504600 -5.94115000
-3.39607000 -0.51134000 -5.86455000
2.05487000 -2.90088000 3.22102000
3.43745000 -0.47187100 4.57333000
3.55899000 -0.48242100 4.50679000
1.68029000 2.84714000 6.48136000
1.78867000 2.77456000 6.52711000
4.30942000 1.80412000 6.82125000
1.93085000 -0.93367800 3.58494000
8.28038000 -0.29581400 -2.05828000
8.21353000 -0.38092200 -2.17355000
3.59985000 2.69046000 5.85653000
1.05251000 -5.03859000 -1.66296000
1.21750000 2.56169000 0.86784900
8.09947000 -0.77693200 -1.85604000
7.97014000 -1.03142000 -1.85971000
3.88526000 2.81636000 7.77778000
3.89647000 2.71809000 7.77960000
-7.88161000 2.94770000 -4.80667000
-9.92433000 2.52784000 -0.40483300
-0.23483600 1.91389000 3.84120000
-6.48361000 -0.62148900 -3.73102000
-6.64439000 -0.42080000 -3.72963000
0.85225900 3.33672000 6.17012000
0.70642500 3.37199000 6.10071000
5.88085000 0.52592500 5.12638000
5.81246000 0.44846200 5.10657000
-9.32378000 2.03591000 -1.25340000
-9.29507000 2.08802000 -1.33708000
-9.29854000 2.08414000 -1.26582000
-2.30549000 2.02834000 -4.64407000
-2.28032000 2.00478000 -4.66933000
5.33103000 3.25642000 3.41868000
2.19669000 -0.72046000 4.20927000
8.82155000 3.22420000 -1.62687000
8.74454000 3.23009000 -1.59878000
8.74454000 3.23009000 -1.59878000
-4.09458000 0.40037400 -6.83987000
4.71675000 -3.60147000 -2.75838000
4.17366000 1.92215000 6.50309000
4.11768000 2.02033000 6.46434000
3.43072000 3.28141000 3.83398000
-6.66565000 0.24042600 -4.41278000
-6.55531000 0.28628400 -4.50153000
2.36535000 3.75435000 1.17512000
2.34502000 3.74069000 1.27821000
0.50383500 2.69429000 -1.84685000
0.46899800 2.65726000 -1.93892000
-9.18380000 2.21843000 0.64134900
-9.17050000 2.17148000 0.65503900
-9.12876000 2.17435000 0.79159600
-3.08404000 -0.66364300 -8.47199000
-3.04702000 -0.63083000 -8.57202000
-3.10457000 -0.64285600 -8.48834000
4.60617000 -2.35482000 2.21159000
-1.79677000 0.13231700 -8.20833000
-1.79165000 0.08937850 -8.27171000
-1.77264000 0.00034539 -8.38699000
0.78958600 3.30223000 0.52900200
-0.06116610 3.39758000 -3.04414000
-0.03794620 3.40064000 -2.92896000
0.00530651 3.41087000 -2.94629000
0.00530651 3.41087000 -2.94629000
-0.06116610 3.39758000 -3.04414000
-4.59908000 2.80766000 -5.43586000
-4.51373000 2.79004000 -5.42684000
-4.53901000 2.80606000 -5.45868000
-4.63836000 2.79052000 -5.40917000
0.41219600 2.84057000 -1.92632000
-9.89706000 2.47894000 -0.62180300
-9.89115000 2.46120000 -0.78082600
-9.84592000 2.46815000 -0.60040400
0.59148700 0.73400900 4.97499000
-7.23106000 2.43302000 -5.20813000
0.74441800 3.44003000 -3.83191000
0.89012700 3.45336000 -3.75346000
8.80396000 3.18698000 -1.17790000
4.89312000 2.90462000 5.72713000
-9.90910000 2.49979000 -0.42717400
4.96113000 3.48878000 -3.67449000
4.89053000 3.51405000 -3.67589000
4.90828000 3.53562000 -3.61874000
4.83482000 3.51956000 -3.71080000
2.99885000 1.73108000 1.99437000
3.11446000 1.73086000 2.01696000
-7.72487000 -1.45770000 -1.21415000
5.05429000 3.44307000 -3.67278000
-1.55953000 -4.61231000 1.30849000
1.99495000 3.63474000 1.79259000
1.78371000 3.90680000 0.16197400
-0.99146900 3.42929000 4.80388000
-0.88959300 3.46125000 4.77234000
4.91819000 -0.30223500 3.86466000
5.00038000 -0.27862300 3.80296000
4.93747000 -0.26124300 3.94159000
-9.52604000 2.46836000 -2.74326000
-9.49555000 2.45517000 -2.70566000
-9.57176000 2.47464000 -2.64463000
-9.58793000 2.49498000 -2.65682000
-8.44951000 2.45812000 -4.12725000
-8.39590000 2.42881000 -4.09836000
-8.46036000 2.44228000 -4.04858000
6.45601000 3.22070000 4.15700000
6.44744000 3.21445000 4.18118000
6.40908000 3.21026000 4.13868000
6.41902000 3.22364000 4.12144000
0.86381400 2.87732000 3.05366000
0.64585500 2.86854000 3.19346000
0.59604000 2.87514000 3.24816000
8.15640000 2.65539000 -3.15871000
8.25634000 2.66047000 -3.06322000
3.70722000 3.29327000 3.48121000
-0.75113700 0.12559800 -7.88369000
-0.68841700 0.03854280 -7.95616000
-0.63436300 -0.11019600 -8.01386000
4.94028000 1.97334000 6.60088000
4.94252000 2.10351000 6.64128000
5.72760000 0.56024500 -4.70767000
5.59069000 0.30638000 -4.76300000
-6.63476000 2.00815000 3.92490000
3.84309000 3.29507000 3.15173000
3.72623000 3.29721000 3.26218000
3.64670000 3.29330000 3.38689000
4.93381000 2.09277000 6.57875000
-2.20363000 1.13080000 -4.83401000
-6.47511000 2.05145000 4.05119000
-2.28365000 -0.75898700 -8.66581000
4.90723000 3.08843000 -3.62806000
4.85828000 2.98678000 -3.74204000
4.88117000 2.96036000 -3.78577000
-3.67639000 -2.02175000 3.36208000
6.96394000 3.22102000 3.73970000
6.98641000 3.16301000 3.66587000
1.77080000 1.60203000 6.57010000
1.68909000 1.79431000 6.62048000
6.29744000 2.44492000 7.16986000
6.31287000 2.49415000 7.13064000
0.43808500 3.07422000 -4.76050000
-0.49972200 0.39374900 -4.75000000
-0.69851200 0.34167300 -4.79080000
-9.17479000 3.16676000 1.44943000
-9.24123000 3.08688000 1.25389000
-0.51942500 0.02673660 -4.87930000
-0.44411400 0.13793800 -4.83886000
-4.93502000 0.48077300 -5.60723000
-1.90401000 -0.81962000 -6.46004000
-1.74622000 -0.82936900 -6.55911000
-1.69995000 -0.82020100 -6.80807000
-1.72416000 -0.82250800 -6.68304000
-8.08080000 -1.05513000 -1.07235000
5.04299000 3.05009000 4.10805000
4.99823000 3.11332000 4.13510000
4.44903000 3.03345000 6.88668000
5.18910000 1.62150000 7.48110000
-2.15560000 -0.78357300 -6.41346000
-6.38983000 -2.48277000 -2.27016000
-6.22441000 -2.60716000 -2.32621000
-9.85972000 3.19653000 -1.05777000
-9.89677000 3.17976000 -1.12813000
1.94279000 2.59709000 -4.54951000
1.84084000 2.60948000 -4.56405000
1.93519000 2.62626000 -4.54642000
5.40089000 1.93372000 7.75384000
1.77328000 3.46560000 -3.82588000
1.85309000 3.45194000 -3.82604000
-2.06655000 -0.59348100 -8.72002000
-2.07817000 -0.66361100 -8.68830000
-2.06655000 -0.59348100 -8.72002000
-2.08087000 -0.50005200 -8.75143000
-3.37249000 -4.36350000 -0.24532400
7.31313000 0.77599000 -3.92589000
7.16257000 0.64047000 -4.02590000
2.24701000 3.67570000 1.71314000
2.11108000 3.68981000 1.63144000
2.16231000 3.70856000 1.68982000
-4.41143000 -1.11647000 3.69769000
3.06094000 0.78497000 -4.97854000
8.02546000 -1.10845000 -0.97214200
-4.00795000 3.46870000 5.20890000
-3.78511000 3.44745000 5.21152000
9.11520000 2.81951000 -1.04527000
4.52976000 2.72426000 -4.23745000
-3.70093000 -4.26098000 -0.58804900
-0.76115400 2.73348000 5.00914000
-0.57924100 2.75722000 5.09026000
-0.77663400 2.78940000 5.00623000
5.37915000 3.26562000 6.21172000
7.34982000 2.51159000 -3.52646000
3.32242000 -2.85057000 2.46330000
3.17495000 -3.00618000 2.39578000
3.41301000 -2.95139000 2.34657000
7.42287000 -0.68064600 1.15498000
7.33629000 -0.72780800 1.23753000
-0.83883600 2.71399000 4.97673000
-0.77663400 2.78940000 5.00623000
-8.73592000 0.73827900 1.36540000
-8.68634000 0.74826400 1.48174000
-8.59481000 0.44829000 1.37683000
2.04768000 0.55810900 3.74347000
8.66987000 3.10109000 -2.30517000
-0.74867300 2.70523000 5.00706000
-0.65246500 2.72797000 5.05120000
-0.74867300 2.70523000 5.00706000
6.03219000 -2.86399000 -2.24834000
-9.01319000 1.42709000 -2.83011000
-3.39725000 1.77682000 -4.98947000
-3.64921000 1.77264000 -5.03096000
-3.12435000 1.83892000 -4.92709000
-3.46700000 1.83253000 -4.99265000
1.55369000 -1.89711000 3.46934000
1.85654000 -1.81972000 3.42780000
1.72400000 -1.99066000 3.39640000
-6.49705000 2.45157000 -5.58533000
-6.37070000 2.42096000 -5.60667000
-6.42833000 2.39170000 -5.55772000
4.64249000 -3.64380000 1.30534000
4.51642000 -3.67581000 1.37156000
-3.82329000 1.87409000 -5.03256000
-3.98842000 1.93634000 -5.03996000
-4.52725000 1.63073000 4.69087000
-4.65704000 1.57551000 4.65607000
-4.78353000 1.77113000 4.66715000
-7.30046000 3.56004000 3.80169000
-7.23653000 3.54172000 3.82645000
-9.32422000 2.23509000 -1.20305000
-9.36683000 2.36403000 -1.14843000
-5.07481000 2.92063000 5.07924000
-4.97130000 2.87473000 5.08489000
-4.87037000 2.79513000 5.08552000
6.59340000 1.24796000 4.67778000
-9.35722000 2.36725000 -1.27103000
4.77965000 3.27791000 3.30606000
6.29582000 2.95478000 4.06370000
6.32816000 2.92448000 4.10042000
6.33678000 2.88060000 4.08458000
6.35295000 2.84926000 4.11374000
-6.31344000 2.37904000 -5.58332000
-5.60289000 2.88498000 4.99496000
-5.24474000 2.93401000 5.05729000
5.70944000 -3.63497000 -1.16861000
5.55811000 -3.73909000 -1.12363000
-0.94046000 2.82661000 4.05031000
-0.82087600 2.89889000 3.93539000
-3.79464000 1.85054000 -5.04715000
-3.74903000 1.86221000 -5.04281000
-8.48295000 1.65203000 1.87652000
3.81298000 3.28865000 4.04194000
3.90237000 3.29247000 4.08146000
3.88413000 3.29316000 4.20104000
-4.75130000 -3.44962000 -2.17978000
2.08864000 0.92857600 2.76676000
0.57489200 -0.39754800 3.94757000
0.50077400 -0.52101100 3.96019000
-4.99072000 2.73343000 -5.75828000
-5.11414000 2.75984000 -5.75985000
-5.06118000 2.78891000 -5.74300000
-4.99072000 2.73343000 -5.75828000
0.45347100 -3.92334000 2.72542000
-7.18988000 -0.26226400 2.17909000
-7.22208000 -0.33016500 2.07076000
-0.74192200 2.89941000 3.86152000
-0.73791800 2.78576000 3.88345000
-5.61778000 2.27855000 -5.73658000
-5.34464000 2.25501000 -5.77276000
5.43816000 3.37704000 -3.68185000
-0.26677000 0.79916300 -6.11017000
-0.14245900 0.79508100 -6.04898000
-0.01785060 0.77456100 -6.00439000
-0.81979200 -0.86053300 -6.11283000
-0.63778500 -0.83437700 -6.06778000
3.60564000 2.79587000 -4.30037000
3.42640000 2.81290000 -4.30011000
3.16775000 2.76260000 -4.34418000
-7.52316000 -1.49041000 0.85150600
-7.65683000 -1.36627000 0.80479900
-2.56369000 -2.60741000 -4.73529000
3.48672000 3.29386000 -2.56326000
3.52974000 3.28641000 -2.64003000
3.40050000 3.26113000 -2.39212000
8.93411000 3.13531000 -0.04025410
8.94829000 3.14483000 -0.07984880
-3.57814000 -0.47224800 -8.40836000
-3.57968000 -1.89219000 -4.53088000
-3.21907000 -2.13570000 -4.53450000
-8.35965000 1.53345000 1.98594000
4.88899000 -0.58209900 2.85735000
1.38859000 1.54813000 3.35472000
3.90093000 -2.41619000 2.51612000
-7.42966000 -1.34336000 -0.52848400
1.12289000 -0.01736390 4.68062000
9.06018000 3.08912000 -0.26884200
-9.32395000 3.20643000 1.90092000
-9.19872000 3.22888000 2.11974000
-3.21025000 0.39715600 -7.62203000
-3.20788000 0.39968300 -7.56387000
-3.19637000 0.37326100 -7.74652000
-9.20333000 3.13998000 2.09130000
3.50314000 -4.52857000 -1.03916000
3.47250000 -4.53359000 -0.91931300
-4.22629000 1.24954000 -6.02957000
-4.27822000 1.16126000 -6.06198000
4.58162000 -0.62651300 2.93203000
4.88577000 -0.47895100 2.87396000
-9.23508000 3.04232000 2.02296000
-9.38928000 3.14765000 1.78397000
-4.31937000 2.37687000 -5.20118000
-4.30698000 2.28506000 -5.16051000
-4.23932000 -0.34837700 -7.81741000
-9.15832000 2.57099000 1.88604000
-9.20555000 2.60213000 1.82012000
-8.06207000 2.28359000 2.74857000
-8.24819000 2.27737000 2.50896000
-8.38976000 2.25236000 2.31144000
0.77314800 -0.21648300 -5.77191000
-3.99530000 0.09689870 -6.61775000
-4.07865000 0.20536800 -6.73992000
-4.04525000 0.18618300 -6.71607000
4.79802000 2.62641000 8.03878000
0.05735110 3.24114000 -4.73871000
-1.14548000 -3.93433000 -4.04883000
-2.76147000 -4.61636000 -0.55341500
6.42177000 3.13501000 6.33408000
6.42894000 3.17180000 6.29188000
6.44285000 3.21483000 6.23058000
2.54100000 -0.08152860 5.44127000
8.35850000 2.75805000 2.11734000
-9.65126000 3.09482000 -2.63911000
-0.12379200 -1.80833000 4.08083000
2.23338000 -5.15938000 -1.55685000
0.32253500 0.08360100 -6.85131000
0.37247600 0.16288500 -6.72592000
