-121.03400000 13.71270000 25.71710000
-121.65300000 13.62080000 22.11880000
-122.14200000 13.50920000 18.49560000
-123.75900000 15.00020000 18.84520000
-122.55900000 13.39350000 14.83560000
-124.13900000 14.90170000 15.13230000
-122.90100000 13.28260000 11.15330000
-124.47900000 14.81240000 11.40630000
-123.18100000 13.18100000 7.44550000
-124.75600000 14.76040000 7.64690000
-123.38100000 13.09060000 3.69610000
-124.95300000 14.71680000 3.85240000
-123.39200000 13.05200000 -0.06859800
-125.04800000 14.64450000 0.03820200
-123.35900000 12.98450000 -3.83530000
-125.00100000 14.63480000 -3.79780000
-123.22800000 12.90970000 -7.62020000
-124.86700000 14.56800000 -7.64720000
-122.91700000 12.85040000 -11.40840000
-124.56300000 14.46540000 -11.48880000
-122.48100000 12.75870000 -15.17490000
-124.08700000 14.36620000 -15.32060000
-121.92800000 12.65030000 -18.91250000
-123.49000000 14.26730000 -19.11810000
-121.31300000 12.52870000 -22.63950000
-122.78300000 14.17110000 -22.89190000
-120.48000000 12.48540000 -26.30770000
-121.97800000 14.10870000 -26.61730000
-119.64700000 12.39640000 -29.96590000
-121.08600000 14.02770000 -30.31700000
-118.59600000 12.37230000 -33.54850000
-120.07100000 13.94760000 -33.95710000
-117.49600000 12.31630000 -37.08900000
-118.96200000 13.89640000 -37.55360000
-116.31600000 12.26560000 -40.59210000
-117.77900000 13.83820000 -41.10040000
-115.06200000 12.16060000 -44.06020000
-116.44900000 13.77410000 -44.58700000
-113.64300000 12.11240000 -47.45530000
-114.97400000 13.68880000 -48.00840000
-112.18500000 12.06880000 -50.81570000
-113.47200000 13.60740000 -51.39490000
-110.64900000 12.01460000 -54.12260000
-111.89900000 13.59420000 -54.73360000
-108.97800000 11.97990000 -57.35310000
-110.24500000 13.56400000 -58.02160000
-107.25400000 11.92310000 -60.54500000
-108.46800000 13.54950000 -61.23000000
-110.16600000 14.68180000 -62.17350000
-106.60800000 13.49680000 -64.37160000
-108.24700000 14.65280000 -65.35020000
-109.52700000 16.58320000 -66.11530000
-106.25000000 14.60590000 -68.47230000
-107.53100000 16.46790000 -69.28760000
-109.25600000 17.57070000 -70.38520000
-105.42900000 16.38660000 -72.39060000
-107.10300000 17.50960000 -73.52320000
-103.18700000 16.42970000 -75.38960000
-104.86200000 17.47760000 -76.60560000
-100.93300000 16.38960000 -78.37310000
-102.56900000 17.47090000 -79.63160000
-98.63840000 16.29110000 -81.32340000
-100.20900000 17.43450000 -82.60490000
-96.21200000 16.30930000 -84.16650000
-97.77860000 17.41590000 -85.50810000
-93.79440000 16.29450000 -86.99290000
-95.26270000 17.37400000 -88.34630000
-91.31480000 16.26310000 -89.78600000
-92.68330000 17.36330000 -91.11700000
-88.67010000 16.41880000 -92.41060000
-90.04250000 17.36450000 -93.83680000
-86.01490000 16.54040000 -95.01930000
-87.37030000 17.38130000 -96.52140000
-83.32000000 16.66240000 -97.59960000
-84.68200000 17.39750000 -99.19940000
-80.56470000 16.78290000 -100.12300000
-81.93150000 17.38610000 -101.82500000
-77.72880000 16.87240000 -102.55100000
-79.05570000 17.36680000 -104.31200000
-74.81800000 16.90850000 -104.88600000
-76.07290000 17.36940000 -106.66400000
-71.80100000 16.87130000 -107.08200000
-72.97100000 17.34580000 -108.86300000
-68.66980000 16.93440000 -109.10800000
-69.80460000 17.33550000 -110.94900000
-65.49720000 16.94180000 -111.05300000
-66.57200000 17.32470000 -112.91700000
-62.25990000 16.91580000 -112.86800000
-63.27870000 17.36510000 -114.76100000
-58.95900000 16.86630000 -114.56100000
-59.89700000 17.35710000 -116.43700000
-55.60450000 16.84980000 -116.12600000
-56.48320000 17.34830000 -118.01700000
-52.24700000 16.84570000 -117.64900000
-53.05980000 17.36360000 -119.57300000
-48.87040000 16.85670000 -119.13200000
-49.63460000 17.36890000 -121.10200000
-45.46780000 16.96110000 -120.55500000
-46.19200000 17.38530000 -122.59400000
-42.04730000 17.01860000 -121.96300000
-42.69700000 17.41300000 -123.99800000
-43.29530000 17.34690000 -125.86500000
-39.16640000 17.47420000 -125.27100000
-39.67330000 17.37440000 -127.06700000
-40.14300000 17.11930000 -128.74900000
-36.01340000 17.34330000 -128.14300000
-36.42920000 17.10540000 -129.83900000
-36.79990000 16.68600000 -131.37300000
-32.69420000 17.11280000 -130.80500000
-33.01640000 16.67100000 -132.32700000
-33.24750000 15.68440000 -133.49500000
-29.20690000 16.68500000 -133.18700000
-29.39190000 15.68370000 -134.32500000
-29.38380000 14.17260000 -134.59700000
-25.54030000 15.75140000 -135.13800000
-25.52210000 14.25440000 -135.42800000
-25.37150000 12.75800000 -134.97200000
-21.65770000 14.36070000 -136.12400000
-21.52150000 12.88910000 -135.69400000
-21.30510000 11.68280000 -134.70400000
-17.65210000 13.03430000 -136.29400000
-17.47210000 11.82420000 -135.36400000
-17.23420000 11.03110000 -133.91200000
-13.62760000 11.95710000 -135.93800000
-13.42520000 11.08620000 -134.52500000
-13.19880000 10.47640000 -132.90300000
-9.61530000 11.19320000 -135.07600000
-9.42800000 10.55970000 -133.40800000
-9.24580000 9.63222000 -131.87300000
-5.66080000 10.65950000 -133.81900000
-5.51770000 9.69832000 -132.24600000
-5.37850000 8.35022000 -131.00100000
-1.76590000 9.85302000 -132.47300000
-1.65680000 8.45022000 -131.20700000
-1.55860000 6.59422000 -130.75900000
2.06460000 8.55652000 -131.24600000
2.15800000 6.69432000 -130.77900000
2.24570000 4.70782000 -130.66600000
5.86540000 6.78272000 -130.68200000
5.94450000 4.78912000 -130.59800000
6.06690000 2.61622000 -130.43500000
9.66120000 4.88562000 -130.42200000
9.76290000 2.68762000 -130.21800000
9.88700000 0.25582100 -130.13000000
13.45190000 2.73052000 -129.96000000
13.54640000 0.27622100 -129.68400000
13.67940000 -2.28098000 -129.67500000
17.21690000 0.27062100 -129.35000000
17.33460000 -2.26368000 -129.25500000
17.46250000 -4.83878000 -129.17500000
20.97350000 -2.24288000 -128.73600000
21.10520000 -4.80358000 -128.69200000
21.22060000 -7.39108000 -128.54700000
24.72760000 -4.74918000 -128.14100000
24.81990000 -7.32238000 -127.88800000
24.95380000 -9.94088000 -127.89500000
28.39910000 -7.23968000 -127.19400000
28.53430000 -9.86108000 -127.20200000
28.64810000 -12.49610000 -127.11300000
32.06940000 -9.76108000 -126.32200000
32.18700000 -12.40420000 -126.27900000
32.33430000 -15.04740000 -126.35600000
35.70230000 -12.30860000 -125.34200000
35.82330000 -14.96210000 -125.33200000
35.94060000 -17.61010000 -125.31300000
39.30790000 -14.87530000 -124.30100000
39.42260000 -17.52910000 -124.28200000
39.53950000 -20.17540000 -124.27500000
42.86840000 -17.45550000 -123.14700000
42.98760000 -20.10270000 -123.15400000
43.08150000 -22.73650000 -123.10200000
46.39530000 -20.03430000 -121.92400000
46.50820000 -22.66800000 -121.93500000
49.76930000 -19.97500000 -120.59900000
49.87860000 -22.60420000 -120.61200000
53.11930000 -19.92090000 -119.21200000
53.24440000 -22.54510000 -119.27300000
56.41500000 -19.87390000 -117.69200000
56.52680000 -22.49810000 -117.73000000
59.70630000 -19.83830000 -116.16000000
59.78120000 -22.46300000 -116.12600000
62.91250000 -19.80770000 -114.45000000
62.97680000 -22.43590000 -114.40400000
66.01640000 -19.79060000 -112.55800000
66.09500000 -22.42040000 -112.54600000
69.21740000 -19.80070000 -110.83700000
69.24670000 -22.42420000 -110.73600000
72.27130000 -19.81310000 -108.84900000
72.35940000 -22.43390000 -108.84600000
72.38480000 -25.04460000 -108.73300000
75.35100000 -22.44910000 -106.75700000
75.43270000 -25.05980000 -106.72800000
75.48500000 -27.66020000 -106.64200000
78.36730000 -25.08760000 -104.56500000
78.42030000 -27.69200000 -104.47700000
81.30080000 -25.13080000 -102.41200000
81.35130000 -27.74210000 -102.32000000
84.11100000 -25.18120000 -100.11500000
84.18780000 -27.80270000 -100.05000000
86.85060000 -25.24100000 -97.75590000
86.93880000 -27.87590000 -97.69360000
89.43370000 -25.31080000 -95.25030000
89.56200000 -27.96160000 -95.22390000
92.04130000 -25.39190000 -92.79590000
92.12100000 -28.06000000 -92.71250000
94.58570000 -25.49230000 -90.30720000
94.66570000 -28.17600000 -90.21340000
96.94820000 -25.60470000 -87.66610000
96.99050000 -28.30330000 -87.53520000
99.21180000 -25.72380000 -84.97460000
99.37280000 -28.44270000 -84.93840000
101.46800000 -25.83840000 -82.32620000
101.58000000 -28.59050000 -82.22770000
103.60600000 -25.94910000 -79.63900000
103.73400000 -28.73300000 -79.52520000
105.62900000 -26.06130000 -76.91310000
105.76100000 -28.86970000 -76.77690000
103.48800000 -23.14850000 -79.70640000
105.55100000 -23.23120000 -77.03170000
103.47900000 -20.34280000 -79.78540000
105.49500000 -20.39170000 -77.07360000
107.37800000 -20.45040000 -74.34650000
105.49200000 -17.54500000 -77.05940000
107.37900000 -17.55480000 -74.33310000
109.14000000 -17.57050000 -71.66330000
107.43300000 -14.66380000 -74.22910000
109.21500000 -14.62140000 -71.49900000
110.87500000 -14.58770000 -68.87050000
109.34600000 -11.70510000 -71.20360000
111.04500000 -11.61570000 -68.51090000
112.62800000 -11.60850000 -65.84290000
111.35000000 -8.73429000 -67.95410000
113.06700000 -8.76429000 -65.02770000
114.65200000 -8.86719000 -62.18320000
114.02900000 -11.62630000 -63.37140000
116.01100000 -9.17509000 -59.61750000
115.23800000 -11.76710000 -61.16070000
117.02900000 -9.71939000 -57.67290000
116.18200000 -12.03810000 -59.37330000
117.78900000 -10.37380000 -56.30590000
116.93400000 -12.39860000 -58.02980000
118.50600000 -10.94370000 -55.46580000
118.84400000 -8.84679000 -54.01400000
119.69200000 -9.75579000 -53.25310000
120.87200000 -10.43750000 -52.89550000
119.67900000 -11.57290000 -54.92110000
120.08200000 -7.92959000 -51.21560000
113.61200000 -6.11729000 -64.07090000
111.70800000 -6.01139000 -67.34440000
112.06300000 -3.44259000 -66.75790000
114.14000000 -3.62749000 -63.13180000
112.35700000 -1.02469000 -66.26030000
114.49000000 -1.11619000 -62.50880000
112.57300000 1.15911000 -65.94750000
114.75400000 1.03741000 -62.06180000
117.00200000 0.63700900 -57.69250000
114.89400000 3.09051000 -61.85830000
117.04600000 2.80251000 -57.67370000
118.92400000 2.46461000 -53.70900000
118.94800000 0.19370900 -53.56280000
120.59300000 2.31111000 -49.84190000
120.64200000 0.07670800 -49.63180000
122.19300000 2.16861000 -45.76810000
122.30800000 -0.03959300 -45.40070000
122.44300000 -2.28759000 -45.00880000
122.56900000 -4.49319000 -44.61020000
123.69900000 -0.31439300 -41.48930000
123.81300000 -2.71499000 -41.13300000
123.94400000 -5.21889000 -40.84210000
123.97800000 -7.56549000 -40.70080000
122.64100000 -6.64889000 -44.53000000
124.91600000 -3.14209000 -37.68230000
124.98100000 -5.81749000 -37.51850000
124.98900000 -8.51019000 -37.56850000
125.82900000 -6.31519000 -34.38780000
125.90000000 -9.13629000 -34.58990000
126.69800000 -6.75149000 -31.33650000
126.68300000 -9.60110000 -31.54680000
127.38600000 -7.02999000 -28.21710000
127.41600000 -9.88930000 -28.38050000
126.77700000 -3.89409000 -31.32810000
127.46400000 -4.14059000 -28.21280000
128.10300000 -4.26200000 -25.09570000
127.36600000 -1.32249000 -28.25790000
128.03400000 -1.42520000 -25.15810000
128.58300000 -1.45590000 -22.04670000
128.00000000 1.14880000 -25.27240000
128.56600000 1.12880000 -22.14300000
129.06100000 1.18570000 -19.01080000
128.57300000 3.53430000 -22.24350000
129.07600000 3.62080000 -19.07640000
129.54400000 3.78770000 -15.87930000
129.11400000 5.84970000 -19.11530000
129.58000000 6.05490000 -15.87030000
129.96900000 6.31830000 -12.58420000
129.61100000 8.16780000 -15.86600000
130.03200000 8.42060000 -12.53550000
130.30800000 8.70740000 -9.13810000
130.25100000 6.62040000 -9.21550000
130.64200000 8.99520000 -5.69860000
130.49200000 6.93700000 -5.79620000
130.63800000 9.26240000 -2.16880000
130.48200000 7.25280000 -2.29960000
130.65700000 9.46740000 1.45290000
130.62200000 7.52660000 1.29230000
130.61600000 9.61850000 5.16150000
130.42100000 7.78700000 5.01950000
130.33300000 9.77240000 8.99460000
130.22700000 7.96270000 8.85150000
129.86300000 9.87310000 12.92940000
129.84700000 8.09220000 12.83120000
129.35700000 9.91730000 16.93640000
129.40400000 8.15220000 16.94040000
128.77900000 9.87780000 20.95570000
128.81500000 8.14130000 21.04010000
128.08400000 9.78160000 24.91920000
128.08700000 8.05640000 25.05270000
127.34700000 9.64570000 28.76640000
127.27700000 7.93630000 28.89370000
127.21300000 6.14170000 29.04470000
126.38300000 7.79009000 32.60070000
126.30400000 5.99979000 32.74350000
126.23100000 4.11979000 32.91600000
125.30900000 5.87869000 36.30780000
125.24200000 3.96679000 36.44950000
124.23400000 5.79389000 39.79850000
124.16100000 3.87489000 39.90610000
123.05100000 5.76659000 43.21030000
123.03100000 3.77239000 43.29900000
121.81100000 5.77719000 46.58180000
121.89300000 3.68349000 46.70020000
121.90700000 1.33399000 46.76830000
120.55700000 3.55519000 50.03210000
120.49500000 1.22839000 50.05990000
120.52700000 -1.25551000 50.10570000
119.01300000 1.16199000 53.35890000
119.04000000 -1.27571000 53.40590000
119.09000000 -3.88261000 53.44390000
117.50000000 -1.30171000 56.70790000
117.54300000 -3.88481000 56.75590000
117.60600000 -6.57251000 56.80220000
115.92300000 -3.92441000 60.04620000
116.02300000 -6.60441000 60.12640000
115.94500000 -9.28371000 60.10830000
114.32600000 -6.64671000 63.39140000
114.23200000 -9.31871000 63.37560000
114.42700000 -11.99100000 63.51550000
112.52700000 -9.38231000 66.63660000
112.48400000 -12.06840000 66.64450000
112.59800000 -14.75130000 66.74970000
110.61900000 -12.14510000 69.80340000
110.79600000 -14.82790000 69.95100000
110.81400000 -17.52410000 70.00980000
108.79400000 -14.91600000 73.01640000
108.76700000 -17.62170000 73.04250000
108.83100000 -20.32680000 73.13690000
106.66600000 -17.71680000 76.01740000
106.73700000 -20.43350000 76.12090000
104.56700000 -17.81330000 78.98130000
104.66000000 -20.53000000 79.09980000
102.37500000 -17.90370000 81.86900000
102.41800000 -20.62190000 81.95050000
100.05500000 -17.99220000 84.64570000
100.15500000 -20.70780000 84.77880000
97.73910000 -18.06870000 87.42380000
97.79190000 -20.79570000 87.51260000
95.38830000 -18.14560000 90.16500000
95.41850000 -20.87890000 90.23020000
92.91350000 -18.21810000 92.77970000
92.96450000 -20.95310000 92.86490000
90.21100000 -18.29390000 95.14580000
90.31720000 -21.03110000 95.28370000
87.71170000 -18.34510000 97.72750000
87.71970000 -21.08160000 97.75710000
85.02760000 -18.37740000 100.12500000
85.05870000 -21.11030000 100.17700000
82.20380000 -18.39450000 102.37200000
82.24840000 -21.11980000 102.44200000
79.37110000 -18.39200000 104.62500000
79.34430000 -21.11380000 104.59400000
76.41220000 -18.37100000 106.72200000
76.45400000 -21.08580000 106.78300000
73.48640000 -18.33190000 108.88200000
73.48670000 -21.04700000 108.88200000
70.43370000 -18.28130000 110.87000000
70.45790000 -20.99440000 110.90500000
67.35090000 -18.21310000 112.82000000
67.35950000 -20.92930000 112.83000000
64.19070000 -18.13090000 114.65700000
64.21190000 -20.84360000 114.69100000
60.97990000 -18.04090000 116.42500000
61.03160000 -20.74570000 116.51600000
57.68660000 -17.94630000 118.07000000
57.72420000 -20.63710000 118.14500000
54.30860000 -17.84660000 119.59400000
54.32960000 -20.52280000 119.64700000
54.35760000 -23.20380000 119.70400000
50.90740000 -20.40340000 121.14200000
50.92740000 -23.06370000 121.20000000
50.95880000 -25.73280000 121.26400000
47.45000000 -22.92760000 122.63900000
47.47760000 -25.57570000 122.70900000
47.50880000 -28.23230000 122.76100000
43.94550000 -25.42170000 124.09700000
43.97900000 -28.06130000 124.16600000
43.98690000 -30.70560000 124.12200000
40.36790000 -27.89740000 125.41500000
40.39690000 -30.52770000 125.42800000
40.42400000 -33.15950000 125.36700000
36.74680000 -30.36520000 126.59700000
36.78170000 -32.98600000 126.58600000
36.82560000 -35.60790000 126.51000000
33.07620000 -32.82590000 127.64400000
33.11390000 -35.43150000 127.57700000
33.19340000 -38.03590000 127.60300000
29.35900000 -35.27540000 128.55200000
29.40860000 -37.86180000 128.50300000
29.47750000 -40.43820000 128.49500000
25.60850000 -37.71780000 129.37100000
25.66850000 -40.28000000 129.38200000
25.69860000 -42.82820000 129.17500000
21.82990000 -40.16940000 130.08700000
21.87140000 -42.70930000 129.97600000
21.89860000 -45.23220000 129.76200000
18.01370000 -42.62500000 130.55400000
18.03540000 -45.13960000 130.37300000
18.06150000 -47.63770000 130.29800000
14.16610000 -45.08320000 130.88500000
14.18370000 -47.56980000 130.85700000
14.12840000 -50.01060000 130.51700000
10.26880000 -47.53470000 131.19000000
10.20510000 -49.96110000 130.89200000
10.11550000 -52.36530000 130.57400000
6.26570000 -49.94680000 131.11300000
6.16880000 -52.34530000 130.79900000
6.03770000 -54.71820000 130.44800000
2.20980000 -52.35290000 130.86500000
2.08220000 -54.72220000 130.51600000
1.92670000 -57.08000000 130.20200000
-1.87660000 -54.78710000 130.53200000
-2.02200000 -57.13700000 130.13100000
-2.17740000 -59.49900000 129.91600000
-5.96530000 -57.26050000 130.13000000
-6.11910000 -59.60070000 129.72400000
-6.27600000 -61.89260000 129.21400000
-10.03340000 -59.74030000 129.40700000
-10.18830000 -62.04140000 128.88100000
-10.29760000 -64.08100000 127.79000000
-14.06120000 -62.23710000 128.47700000
-14.16080000 -64.25290000 127.31100000
-14.20340000 -65.61960000 125.48100000
-17.99630000 -64.44690000 126.66300000
-18.00310000 -65.74990000 124.80700000
-17.90350000 -66.38340000 122.67200000
-21.68250000 -65.89670000 123.90500000
-21.43410000 -66.42490000 121.77600000
-21.30930000 -66.53400000 119.62400000
-24.86670000 -66.83470000 120.73700000
-24.62880000 -67.26120000 118.70600000
-28.27140000 -68.29600000 119.80400000
-25.11130000 -66.16850000 122.72600000
-28.66250000 -66.92830000 121.41100000
-31.90340000 -67.76270000 120.00300000
-28.93790000 -65.56680000 123.24200000
-32.25760000 -66.04440000 121.79900000
-35.36130000 -66.42910000 120.45600000
-34.81640000 -68.18480000 118.79100000
-38.44100000 -66.65340000 119.25000000
-37.82960000 -68.30180000 117.78600000
-41.51800000 -66.66610000 118.15400000
-41.02000000 -68.16690000 116.80700000
-44.61370000 -66.73660000 116.96600000
-43.99430000 -68.16060000 115.68500000
-47.50760000 -67.05080000 115.41700000
-46.84740000 -68.55540000 114.45600000
-50.27160000 -67.47270000 113.72800000
-49.53050000 -69.11420000 112.91100000
-52.99910000 -68.09250000 112.03200000
-52.18340000 -69.99010000 111.36900000
-55.64860000 -68.52090000 110.31900000
-54.84000000 -70.62960000 109.85700000
-58.47550000 -68.80240000 108.69700000
-57.69780000 -70.91720000 108.25600000
-61.33780000 -68.84060000 107.09800000
-60.81770000 -70.86720000 106.55400000
-59.45830000 -66.89300000 110.19900000
-62.28530000 -66.92190000 108.51600000
-60.69220000 -65.02500000 112.13600000
-63.48460000 -65.11240000 110.46700000
-66.33300000 -65.11570000 108.74300000
-64.26380000 -62.59770000 112.00200000
-67.16210000 -62.65840000 110.25400000
-70.05090000 -62.67740000 108.38600000
-67.40160000 -59.75390000 110.87700000
-70.33140000 -59.79950000 109.04500000
-67.54120000 -56.85890000 111.38000000
-70.44270000 -56.90170000 109.49100000
-67.64210000 -53.98370000 111.83300000
-70.57700000 -54.04370000 109.97300000
-67.71660000 -51.13410000 112.22700000
-70.66610000 -51.19630000 110.36500000
-67.73210000 -48.29460000 112.51000000
-70.67060000 -48.36020000 110.61500000
-67.73590000 -45.47690000 112.76000000
-70.66690000 -45.53600000 110.83900000
-67.71290000 -42.67070000 112.95900000
-70.65840000 -42.73170000 111.04100000
-67.66810000 -39.87580000 113.11800000
-70.62540000 -39.93820000 111.20300000
-67.61530000 -37.09250000 113.26300000
-70.60190000 -37.15600000 111.38400000
-67.56020000 -34.31860000 113.40800000
-70.56070000 -34.37890000 111.54300000
-67.46660000 -31.55070000 113.49400000
-70.44460000 -31.60840000 111.58800000
-67.32090000 -28.78740000 113.49600000
-70.34190000 -28.84140000 111.65900000
-67.21020000 -26.02690000 113.55900000
-70.23780000 -26.07720000 111.73300000
-67.10980000 -23.26980000 113.64500000
-70.11340000 -23.31550000 111.77200000
-66.98180000 -20.51470000 113.67700000
-69.98080000 -20.55750000 111.79400000
-66.81540000 -17.76450000 113.63900000
-69.84260000 -17.80050000 111.80000000
-66.66340000 -15.01860000 113.62100000
-69.67840000 -15.04740000 111.76200000
-66.49800000 -12.27700000 113.58000000
-69.49160000 -12.29810000 111.68400000
-66.35330000 -9.53862000 113.56000000
-69.29710000 -9.55012000 111.59200000
-66.19260000 -6.81642000 113.51100000
-69.24630000 -6.81142000 111.71800000
-72.21300000 -6.80712000 109.80500000
-69.10120000 -4.09682000 111.68400000
-72.08280000 -4.07722000 109.79500000
-75.01050000 -4.07242000 107.83500000
-71.97580000 -1.45822000 109.80700000
-74.92480000 -1.40992000 107.88300000
-71.88260000 1.00438000 109.82700000
-74.80250000 0.98858200 107.85400000
-71.80310000 3.25008000 109.84800000
-74.73120000 3.21968000 107.87800000
-71.74050000 5.34598000 109.87600000
-74.67190000 5.34208000 107.90500000
-71.69230000 7.30378000 109.92600000
-74.63460000 7.32638000 107.95500000
-77.51290000 7.32808000 105.91400000
-74.60530000 9.21888000 108.00900000
-77.49550000 9.22618000 105.96700000
-80.31820000 9.24768000 103.85500000
-77.51990000 11.05610000 106.07000000
-80.35740000 11.08560000 103.95400000
-83.14550000 11.09860000 101.79700000
-80.80030000 12.65560000 104.59000000
-83.61680000 12.65470000 102.41100000
-86.36480000 12.65340000 100.15200000
-84.53970000 13.58410000 103.57000000
-87.30510000 13.57400000 101.27300000
-89.98900000 13.51790000 98.90980000
-88.30270000 14.22770000 102.46500000
-91.00290000 14.19040000 100.03200000
-93.63770000 14.18040000 97.56300000
-91.91100000 15.02030000 101.04800000
-94.58570000 14.97850000 98.54970000
-97.25030000 14.95640000 96.03700000
-95.11710000 16.27350000 99.08790000
-97.73970000 16.32240000 96.49380000
-100.36200000 16.45410000 93.89410000
-97.80770000 17.79430000 96.53370000
-100.43800000 17.95430000 93.91700000
-102.95500000 18.01860000 91.22730000
-100.00000000 19.24130000 93.46720000
-102.49200000 19.29430000 90.77220000
-104.81500000 19.25260000 87.90860000
-105.32500000 17.98080000 88.39810000
-107.05300000 19.14550000 84.94780000
-103.75300000 19.71100000 86.97110000
-105.99300000 19.66550000 84.04930000
-108.15700000 19.61720000 81.07960000
-104.71600000 19.80150000 82.97470000
-106.85800000 19.74960000 80.03910000
-108.92200000 19.71180000 77.02930000
-105.44400000 19.82840000 78.91140000
-107.48900000 19.79600000 75.93440000
-109.48200000 19.75480000 72.88690000
-110.92300000 19.66480000 73.94060000
-111.38000000 19.70440000 69.75220000
-112.83400000 19.62340000 70.76620000
-113.18700000 19.65640000 66.53820000
-114.66100000 19.58800000 67.51290000
-114.88600000 19.61590000 63.22230000
-116.40400000 19.55950000 64.17550000
-116.49900000 19.56890000 59.83070000
-113.27000000 19.41790000 62.22300000
-114.85500000 19.34130000 58.87040000
-116.36400000 19.24440000 55.46500000
-113.47700000 17.98650000 58.05830000
-114.98900000 17.89700000 54.70950000
-116.47500000 17.78340000 51.33620000
-113.90400000 16.09040000 54.10230000
-115.36200000 16.01590000 50.75450000
-116.69600000 15.92180000 47.34540000
-117.88000000 17.63580000 47.90940000
-117.86600000 15.78440000 43.85570000
-115.03100000 14.54830000 46.58040000
-116.24700000 14.38180000 43.17390000
-117.35300000 14.18500000 39.72520000
-115.40300000 12.38760000 42.78810000
-116.61000000 12.19190000 39.40240000
-117.66600000 12.03980000 35.96370000
-118.35600000 14.04570000 36.25440000
-118.63600000 11.90140000 32.50210000
-119.30800000 13.93720000 32.76550000
-119.55000000 11.77230000 29.01350000
-120.21500000 13.82070000 29.25800000
-120.37400000 11.64880000 25.48300000
-119.56400000 9.53249000 28.94040000
-120.35200000 9.40890000 25.40020000
-121.04800000 9.30270000 21.83130000
-121.04000000 11.53940000 21.90960000
-121.64600000 9.18280000 18.22740000
-121.63100000 11.40690000 18.31470000
-122.16000000 9.05390000 14.59910000
-122.13100000 11.27890000 14.68750000
-122.52100000 8.90770000 10.93590000
-122.49300000 11.15320000 11.02310000
-122.77700000 8.76350000 7.23820000
-122.76800000 11.02100000 7.32600000
-122.91600000 8.63590000 3.51740000
-122.93700000 10.91490000 3.59590000
-122.97100000 8.52900000 -0.21949900
-122.97900000 10.83570000 -0.14819800
-122.91200000 8.43820000 -3.96200000
-122.92000000 10.75570000 -3.89640000
-122.73400000 8.35490000 -7.71530000
-122.75900000 10.68230000 -7.65880000
-122.45500000 8.28220000 -11.46520000
-122.48900000 10.60620000 -11.42190000
-122.04200000 8.22200000 -15.20120000
-122.09300000 10.52730000 -15.16810000
-121.51400000 8.17950000 -18.91590000
-121.55000000 10.45560000 -18.88560000
-120.90900000 8.13510000 -22.61190000
-120.90400000 10.38850000 -22.58290000
-120.15600000 8.09410000 -26.26890000
-120.14700000 10.32380000 -26.24850000
-119.27700000 8.04910000 -29.88840000
-119.30100000 10.26860000 -29.88000000
-118.29100000 8.02111000 -33.46780000
-118.29800000 10.22680000 -33.46120000
-117.18500000 7.97551000 -37.00230000
-117.19900000 10.17140000 -36.99770000
-116.01500000 7.90631000 -40.49740000
-116.03400000 10.09490000 -40.49730000
-114.73600000 7.87251000 -43.93990000
-114.78000000 10.02210000 -43.95320000
-113.36100000 7.89441000 -47.33310000
-113.39900000 10.01710000 -47.35170000
-111.91200000 7.89171000 -50.68040000
-111.93600000 10.00890000 -50.69620000
-110.32600000 7.84821000 -53.95620000
-110.36900000 9.96321000 -53.98140000
-108.66200000 7.76811000 -57.18390000
-108.71600000 9.87721000 -57.21370000
-106.89800000 7.70311000 -60.34570000
-106.97100000 9.82111000 -60.38520000
-105.06800000 7.66481000 -63.45980000
-105.12800000 9.78731000 -63.49220000
-105.39000000 11.88200000 -63.64520000
-103.22300000 9.77121000 -66.54480000
-103.46000000 11.85690000 -66.68570000
-104.64300000 13.45760000 -67.44890000
-101.47100000 11.82280000 -69.69280000
-102.59900000 13.42190000 -70.46330000
-104.19900000 14.52580000 -71.55570000
-100.47600000 13.43260000 -73.42290000
-102.04400000 14.51860000 -74.56550000
-98.28910000 13.40780000 -76.34160000
-99.80840000 14.47060000 -77.50560000
-95.98050000 13.40780000 -79.15640000
-97.45510000 14.48680000 -80.35840000
-93.65430000 13.41270000 -81.94430000
-95.12120000 14.42460000 -83.21510000
-91.27160000 13.44170000 -84.67210000
-92.65840000 14.54470000 -85.94650000
-88.81760000 13.48600000 -87.34020000
-90.18490000 14.58830000 -88.67840000
-86.30010000 13.52940000 -89.94090000
-87.62580000 14.69560000 -91.32220000
-83.72750000 13.58150000 -92.49790000
-85.02650000 14.77480000 -93.92140000
-81.09650000 13.64690000 -94.98460000
-82.34160000 14.92210000 -96.45030000
-78.40660000 13.73100000 -97.42130000
-79.60820000 15.04930000 -98.92280000
-75.62210000 13.77600000 -99.73080000
-76.77030000 15.16100000 -101.27900000
-72.73490000 13.82390000 -101.94600000
-73.84890000 15.20130000 -103.50900000
-69.78170000 13.83970000 -104.03600000
-70.83200000 15.25660000 -105.61900000
-66.78430000 13.83310000 -106.07200000
-67.77320000 15.27450000 -107.66000000
-63.70410000 13.87500000 -107.96900000
-64.66720000 15.27440000 -109.61200000
-60.59710000 13.87830000 -109.78100000
-61.46760000 15.28320000 -111.39800000
-57.41950000 13.88920000 -111.48100000
-58.25440000 15.24190000 -113.14000000
-54.21080000 13.90970000 -113.06600000
-54.96020000 15.26800000 -114.71100000
-50.93810000 13.90960000 -114.54100000
-51.66780000 15.23350000 -116.26400000
-47.65890000 13.89200000 -115.97900000
-48.31580000 15.24720000 -117.69200000
-44.34820000 13.91700000 -117.35300000
-44.94890000 15.28560000 -119.07100000
-41.00930000 13.98030000 -118.64500000
-41.55320000 15.39220000 -120.37000000
-37.66300000 14.02140000 -119.91900000
-38.12820000 15.59890000 -121.58500000
-38.59320000 17.12940000 -123.24500000
-34.69530000 15.75500000 -122.74000000
-35.07870000 17.18140000 -124.36400000
-35.57060000 17.48360000 -126.34200000
-31.52690000 17.17940000 -125.30000000
-31.95560000 17.49280000 -127.26600000
-32.34190000 17.37630000 -129.13500000
-28.29900000 17.54850000 -128.06000000
-28.63530000 17.41760000 -129.95900000
-28.94050000 17.14660000 -131.66400000
-24.91580000 17.45760000 -130.65000000
-25.16510000 17.17970000 -132.40200000
-25.39340000 16.71500000 -133.94600000
-21.38680000 17.21850000 -133.01500000
-21.56470000 16.75430000 -134.58900000
-21.67540000 15.81100000 -135.77000000
-17.72320000 16.82800000 -135.13500000
-17.80710000 15.91470000 -136.35800000
-17.77350000 14.47740000 -136.69800000
-13.91580000 15.95980000 -136.68700000
-13.88070000 14.60720000 -137.07500000
-13.77890000 13.20050000 -136.78300000
-9.98370000 14.78740000 -137.42500000
-9.89380000 13.40410000 -137.16100000
-9.77250000 12.15390000 -136.40200000
-6.01030000 13.59630000 -137.44400000
-5.91730000 12.35960000 -136.79100000
-5.79570000 11.35030000 -135.51400000
-2.04630000 12.54880000 -137.02600000
-1.96000000 11.48450000 -135.78600000
-1.86430000 10.77270000 -134.12100000
1.88730000 11.58470000 -135.89900000
1.94090000 10.85760000 -134.22100000
1.99200000 9.95962000 -132.53700000
5.74280000 10.87440000 -134.13300000
5.74470000 10.02740000 -132.44300000
5.77950000 8.63522000 -131.13200000
9.48080000 10.13290000 -132.19100000
9.50530000 8.64272000 -131.06300000
9.56790000 6.86752000 -130.48800000
13.21520000 8.72102000 -130.77100000
13.26870000 6.92882000 -130.22700000
13.36140000 4.95472000 -130.12200000
16.93660000 6.97542000 -129.76900000
17.04470000 4.94142000 -129.79000000
17.10850000 2.73382000 -129.42700000
20.67160000 4.91182000 -129.13300000
20.75790000 2.67572000 -128.95900000
20.85750000 0.27792100 -128.83900000
24.37510000 2.63702000 -128.32200000
24.47580000 0.28972100 -128.20600000
24.59340000 -2.20368000 -128.13600000
28.07070000 0.29472100 -127.46100000
28.18760000 -2.14898000 -127.42300000
28.31260000 -4.66098000 -127.39800000
31.74400000 -2.07738000 -126.54100000
31.85320000 -4.53108000 -126.48500000
31.95010000 -7.13028000 -126.35500000
35.37860000 -4.41718000 -125.52600000
35.47900000 -7.01388000 -125.43800000
35.58870000 -9.65658000 -125.38200000
38.97830000 -6.92098000 -124.42300000
39.08360000 -9.56068000 -124.36500000
39.19180000 -12.21810000 -124.32000000
42.54420000 -9.48768000 -123.24000000
42.64850000 -12.14350000 -123.19600000
42.75820000 -14.80200000 -123.16800000
46.07020000 -12.09240000 -121.96700000
46.17620000 -14.74200000 -121.94400000
46.28200000 -17.39130000 -121.92000000
49.56720000 -14.69420000 -120.64000000
49.66850000 -17.33710000 -120.61500000
52.92360000 -14.65410000 -119.24600000
53.01920000 -17.28940000 -119.21800000
56.23490000 -14.61480000 -117.74800000
56.36070000 -17.24680000 -117.79100000
59.52490000 -14.57700000 -116.19700000
59.60840000 -17.20800000 -116.16100000
62.68220000 -14.54970000 -114.39100000
62.83180000 -17.17730000 -114.48100000
65.90320000 -14.53270000 -112.68600000
66.03990000 -17.16230000 -112.75900000
69.04640000 -14.54300000 -110.83900000
69.10990000 -17.17330000 -110.80100000
72.12340000 -14.55290000 -108.88000000
72.19970000 -17.18820000 -108.87400000
75.09560000 -14.57990000 -106.77200000
75.20260000 -17.21090000 -106.80800000
75.28000000 -19.83250000 -106.79100000
78.21190000 -17.22450000 -104.75600000
78.25660000 -19.85540000 -104.69100000
78.34890000 -22.47710000 -104.68400000
81.15420000 -19.88120000 -102.49300000
81.25020000 -22.50910000 -102.49000000
83.96320000 -19.91560000 -100.20200000
84.00230000 -22.55100000 -100.12700000
86.67930000 -19.94840000 -97.82240000
86.75200000 -22.59750000 -97.78640000
89.37460000 -19.99640000 -95.43880000
89.43550000 -22.65270000 -95.39000000
91.97770000 -20.04560000 -92.97010000
92.02030000 -22.72180000 -92.90960000
94.48390000 -20.10620000 -90.42520000
94.53440000 -22.80130000 -90.38290000
96.81160000 -20.17700000 -87.75620000
96.89520000 -22.89260000 -87.73860000
99.06930000 -20.23660000 -85.07710000
99.16420000 -22.98750000 -85.06840000
101.28800000 -20.29550000 -82.41450000
101.42200000 -23.06950000 -82.43850000
99.03820000 -17.48820000 -85.08880000
101.25800000 -17.51210000 -82.41040000
103.42800000 -17.53000000 -79.74420000
101.24900000 -14.74090000 -82.36250000
103.39600000 -14.73130000 -79.64290000
105.54300000 -14.70230000 -76.99060000
103.42100000 -11.95660000 -79.53850000
105.49100000 -11.90210000 -76.78030000
107.47900000 -11.81130000 -73.98170000
105.60300000 -9.13649000 -76.60300000
107.61300000 -9.01879000 -73.74510000
109.54300000 -8.87709000 -70.84660000
107.78800000 -6.30519000 -73.47470000
109.78200000 -6.16369000 -70.45790000
107.96300000 -3.68539000 -73.19640000
110.03500000 -3.55679000 -70.05430000
108.12600000 -1.25069000 -72.98150000
110.25300000 -1.13229000 -69.73010000
108.28300000 1.08741000 -72.79980000
110.43500000 1.18051000 -69.46540000
108.39600000 3.24181000 -72.67050000
110.56000000 3.30481000 -69.30300000
112.72400000 3.24001000 -65.72990000
110.71800000 5.23601000 -69.25990000
112.82200000 5.14981000 -65.68220000
114.95500000 5.01281000 -61.84830000
112.90800000 6.94271000 -65.65500000
115.02600000 6.83901000 -61.89260000
117.01900000 6.71881000 -58.01400000
117.03600000 4.83111000 -57.87520000
118.87600000 6.59391000 -54.15330000
118.86000000 4.62951000 -53.94590000
120.52600000 6.43151000 -50.29300000
120.53600000 4.47401000 -50.07650000
122.06400000 6.29411000 -46.41820000
122.11600000 4.27121000 -46.10460000
123.46500000 6.15521000 -42.60910000
123.50500000 4.11511000 -42.24180000
123.61400000 1.95251000 -41.87370000
124.68400000 3.93011000 -38.59270000
124.76200000 1.72661000 -38.25960000
124.84000000 -0.61779400 -37.92940000
125.76300000 1.52801000 -34.83670000
125.81900000 -0.90199400 -34.60240000
125.91900000 -3.52309000 -34.45520000
126.69900000 -1.13750000 -31.40290000
126.66300000 1.33960000 -31.60400000
127.34900000 1.21581000 -28.40790000
126.56100000 3.65141000 -31.84170000
127.31800000 3.57031000 -28.61260000
127.99500000 3.52540000 -25.42090000
127.32300000 5.75651000 -28.82560000
128.01200000 5.72250000 -25.56250000
128.60700000 5.74500000 -22.34030000
128.03200000 7.75290000 -25.71930000
128.64800000 7.79280000 -22.42850000
129.16200000 7.92460000 -19.16110000
128.71700000 9.72470000 -22.53330000
129.23700000 9.87630000 -19.21700000
129.69500000 10.07770000 -15.88060000
129.69200000 11.62010000 -19.32690000
130.37500000 11.69090000 -15.97090000
131.01100000 11.80590000 -12.58520000
130.16700000 10.28290000 -12.50320000
131.41800000 12.07700000 -9.13200000
130.55800000 10.54050000 -9.08900000
131.75700000 12.30400000 -5.59150000
130.75800000 10.82910000 -5.62520000
131.96900000 12.49380000 -1.98540000
130.94400000 11.04940000 -2.07210000
132.09500000 12.61360000 1.69760000
130.98300000 11.24370000 1.58370000
132.10000000 12.64960000 5.50140000
131.04600000 11.30600000 5.32460000
131.95600000 12.60950000 9.36710000
130.78200000 11.40950000 9.14990000
131.54000000 12.69460000 13.28300000
130.33200000 11.50260000 13.06150000
131.16500000 12.52970000 17.21730000
129.89700000 11.48500000 17.03250000
130.47600000 12.57690000 21.13540000
129.26000000 11.47310000 20.97840000
129.60100000 12.55550000 24.99710000
128.47900000 11.38650000 24.87340000
128.50700000 12.60400000 28.77160000
127.57700000 11.28860000 28.68030000
127.44000000 12.55630000 32.49070000
126.66100000 11.17260000 32.41210000
126.47200000 9.51249000 32.48450000
125.65000000 11.05190000 36.03190000
125.47200000 9.40199000 36.08480000
125.38600000 7.67399000 36.18310000
124.38400000 9.32749000 39.61590000
124.30200000 7.62119000 39.69890000
123.20100000 9.31049000 43.07980000
123.17000000 7.59849000 43.15590000
121.93600000 9.29409000 46.50790000
121.88500000 7.59449000 46.54620000
120.58400000 9.22349000 49.89550000
120.51400000 7.54569000 49.90670000
120.47300000 5.68589000 49.93520000
119.08800000 7.35439000 53.25780000
119.04100000 5.48479000 53.28070000
119.03500000 3.39869000 53.32230000
117.53100000 5.30119000 56.60020000
117.50200000 3.26999000 56.63030000
117.48600000 1.06159000 56.66500000
115.85300000 3.15239000 59.89260000
115.84800000 0.95929000 59.93270000
115.86200000 -1.35351000 59.97980000
114.11700000 0.90699000 63.15980000
114.14200000 -1.41051000 63.21790000
114.21300000 -3.98931000 63.29570000
112.34800000 -1.47741000 66.41320000
112.40900000 -4.06401000 66.49790000
112.40900000 -6.70871000 66.53220000
110.59700000 -4.11301000 69.67650000
110.47100000 -6.77021000 69.63640000
110.57200000 -9.45241000 69.73610000
108.59600000 -6.83681000 72.77410000
108.60900000 -9.52511000 72.82190000
108.67000000 -12.22280000 72.89940000
106.55700000 -9.59181000 75.83390000
106.59800000 -12.30280000 75.89930000
106.77500000 -15.00310000 76.05820000
104.50300000 -12.38090000 78.86870000
104.51800000 -15.09950000 78.90770000
102.29800000 -12.45550000 81.73680000
102.35400000 -15.18170000 81.81350000
100.03600000 -12.53160000 84.55360000
100.06500000 -15.26390000 84.61380000
97.69460000 -12.60780000 87.30370000
97.68140000 -15.34120000 87.33240000
95.26900000 -12.68960000 89.97440000
95.32750000 -15.41500000 90.07070000
92.88060000 -12.75330000 92.67630000
92.90240000 -15.48310000 92.73360000
90.21510000 -12.82940000 95.09730000
90.23460000 -15.55720000 95.14580000
87.58100000 -12.89570000 97.54240000
87.63100000 -15.61320000 97.62500000
84.83530000 -12.94910000 99.86570000
85.02460000 -15.65330000 100.10700000
82.07980000 -12.98000000 102.19000000
82.19540000 -15.67840000 102.34800000
79.24240000 -12.98470000 104.43200000
79.25790000 -15.68750000 104.46400000
76.33400000 -12.97060000 106.59800000
76.36690000 -15.66880000 106.65500000
73.36370000 -12.93780000 108.69200000
73.44090000 -15.62750000 108.81200000
70.35090000 -12.88660000 110.73000000
70.41640000 -15.57670000 110.83800000
67.22910000 -12.81960000 112.60200000
67.31610000 -15.50940000 112.75600000
64.08150000 -12.74090000 114.44300000
64.18970000 -15.42820000 114.64600000
60.88810000 -12.65900000 116.22700000
60.98460000 -15.34140000 116.42600000
57.62090000 -12.57820000 117.91300000
57.64570000 -15.26170000 117.97700000
54.27770000 -12.50260000 119.48300000
54.29180000 -15.17360000 119.54100000
50.88310000 -12.42550000 120.98400000
50.88750000 -15.08260000 121.04100000
50.89430000 -17.74110000 121.09300000
47.42760000 -14.98730000 122.45900000
47.42880000 -17.63240000 122.52200000
47.43220000 -20.28000000 122.57100000
43.90380000 -17.52030000 123.85200000
43.90490000 -20.15430000 123.92400000
43.91480000 -22.78780000 123.99800000
40.35250000 -20.02780000 125.25500000
40.36470000 -22.65120000 125.36900000
40.33090000 -25.27590000 125.30500000
36.69120000 -22.52130000 126.38500000
36.68990000 -25.13530000 126.47100000
36.73590000 -27.74540000 126.62900000
33.01940000 -25.00610000 127.55000000
33.04500000 -27.61280000 127.69300000
33.04120000 -30.21700000 127.62500000
29.32450000 -27.49400000 128.67300000
29.31090000 -30.08920000 128.60000000
29.33810000 -32.68670000 128.63800000
25.54040000 -29.97750000 129.44300000
25.55320000 -32.56680000 129.43800000
25.56770000 -35.14700000 129.37200000
21.74890000 -32.47390000 130.14400000
21.75580000 -35.04710000 130.09900000
21.78320000 -37.61350000 130.08300000
17.93980000 -34.98300000 130.72000000
17.94290000 -37.54610000 130.64900000
17.98370000 -40.09300000 130.67000000
14.11640000 -37.51090000 131.20000000
14.13660000 -40.05650000 131.21000000
14.15690000 -42.57920000 131.10500000
10.27260000 -40.04010000 131.51600000
10.27790000 -42.56080000 131.45200000
10.27330000 -45.05650000 131.22700000
6.39480000 -42.56720000 131.65400000
6.37650000 -45.05980000 131.56100000
6.34410000 -47.52250000 131.41400000
2.46140000 -45.07620000 131.60100000
2.40180000 -47.53700000 131.45700000
2.31560000 -49.95850000 131.21600000
-1.53590000 -47.58380000 131.49900000
-1.63160000 -50.00900000 131.22200000
-1.74690000 -52.40530000 130.87800000
-5.56760000 -50.08820000 131.12000000
-5.69140000 -52.49440000 130.81500000
-5.81660000 -54.88200000 130.42400000
-9.59710000 -52.60060000 130.50800000
-9.72490000 -55.01290000 130.19800000
-9.87580000 -57.39260000 129.82100000
-13.60620000 -55.17200000 129.80400000
-13.75560000 -57.55860000 129.39200000
-13.91620000 -59.93130000 129.01300000
-17.62780000 -57.80740000 129.02600000
-17.77590000 -60.19410000 128.57700000
-17.90940000 -62.50760000 127.95000000
-21.59410000 -60.55520000 127.94300000
-21.75060000 -62.87270000 127.24700000
-21.80420000 -64.71960000 125.82100000
-25.56820000 -63.34820000 126.29400000
-25.54750000 -65.13080000 124.69100000
-29.25950000 -63.89800000 125.07900000
-25.41290000 -61.01020000 127.14100000
-29.14170000 -61.56790000 126.22900000
-32.71730000 -62.14740000 125.14900000
-32.71530000 -64.47620000 123.76600000
-36.10450000 -62.63060000 124.01800000
-35.92580000 -64.87550000 122.40500000
-39.37930000 -62.98940000 122.88500000
-39.04350000 -65.14790000 121.12700000
-42.58620000 -63.26100000 121.66900000
-42.14320000 -65.25100000 119.96200000
-45.82920000 -63.50340000 120.31200000
-45.31750000 -65.35880000 118.62700000
-49.05720000 -63.84410000 118.79100000
-48.39220000 -65.62450000 117.03500000
-52.20170000 -64.27890000 117.12900000
-51.32640000 -65.97170000 115.27900000
-55.10280000 -64.58350000 115.46500000
-54.05970000 -66.33600000 113.53100000
-57.93620000 -64.83130000 113.79900000
-56.76490000 -66.64940000 111.81800000
-55.49500000 -62.00750000 116.86700000
-58.47950000 -62.28950000 115.31600000
-61.38700000 -62.47720000 113.68300000
-58.52800000 -59.35060000 115.87600000
-61.50530000 -59.53440000 114.29300000
-64.45330000 -59.66090000 112.61700000
-61.58920000 -56.63200000 114.80900000
-64.57150000 -56.75960000 113.13300000
-61.62090000 -53.75870000 115.23900000
-64.67160000 -53.88980000 113.61300000
-61.66670000 -50.92080000 115.66600000
-64.70860000 -51.03790000 113.97900000
-61.65050000 -48.08880000 115.94800000
-64.71250000 -48.20430000 114.27000000
-61.61770000 -45.27740000 116.18900000
-64.69560000 -45.38660000 114.50700000
-61.56720000 -42.47940000 116.38800000
-64.66030000 -42.58310000 114.70600000
-61.51140000 -39.69650000 116.56700000
-64.60910000 -39.79280000 114.86900000
-61.43700000 -36.92700000 116.71000000
-64.55390000 -37.01620000 115.02700000
-61.35180000 -34.16590000 116.83200000
-64.47890000 -34.24570000 115.15000000
-61.24570000 -31.40950000 116.90900000
-64.37430000 -31.48490000 115.22600000
-61.11890000 -28.65790000 116.94900000
-64.23690000 -28.72740000 115.24400000
-61.00100000 -25.91160000 117.00600000
-64.12350000 -25.97310000 115.30500000
-60.87020000 -23.16780000 117.03800000
-64.01760000 -23.22010000 115.38200000
-60.72910000 -20.42520000 117.05300000
-63.87010000 -20.47180000 115.38300000
-60.59360000 -17.68560000 117.08000000
-63.71620000 -17.73120000 115.36800000
-60.38660000 -14.96350000 116.95800000
-63.54760000 -14.99380000 115.32700000
-60.27510000 -12.23370000 117.02200000
-63.43100000 -12.25520000 115.37300000
-60.11560000 -9.52002000 116.98700000
-63.25090000 -9.53252000 115.29100000
-59.95930000 -6.81972000 116.95000000
-63.12130000 -6.82072000 115.30000000
-59.85100000 -4.14072000 116.99300000
-62.99170000 -4.13552000 115.30100000
-66.06720000 -4.11442000 113.51100000
-62.88490000 -1.49342000 115.33200000
-65.94450000 -1.47442000 113.51100000
-68.98480000 -1.46842000 111.68600000
-65.84420000 0.94958200 113.52000000
-68.89480000 0.98718200 111.70900000
-65.78090000 3.18238000 113.57900000
-68.81680000 3.23898000 111.73900000
-65.69730000 5.23408000 113.59400000
-68.75090000 5.30518000 111.77100000
-65.63740000 7.14078000 113.63300000
-68.69780000 7.22868000 111.82100000
-65.60350000 8.95308000 113.69200000
-68.65580000 9.09498000 111.87700000
-71.66580000 9.17558000 109.99000000
-68.63980000 10.89220000 111.96400000
-71.68340000 10.99540000 110.11100000
-74.62640000 11.03890000 108.12100000
-71.98390000 12.62050000 110.67300000
-74.99270000 12.64360000 108.72900000
-77.94550000 12.61330000 106.71800000
-75.77000000 13.60080000 109.95300000
-78.76530000 13.56080000 107.90700000
-81.69390000 13.55510000 105.78700000
-79.64940000 14.26470000 109.17600000
-82.62310000 14.26640000 107.02900000
-85.50810000 14.25860000 104.78600000
-83.46670000 15.08390000 108.16000000
-86.38230000 15.06980000 105.88400000
-89.21300000 15.03770000 103.52800000
-86.87080000 16.38810000 106.50200000
-89.69980000 16.38450000 104.10500000
-92.43750000 16.32520000 101.61900000
-89.80540000 17.86930000 104.23300000
-92.54500000 17.80230000 101.73400000
-95.24390000 17.75350000 99.20730000
-92.22550000 19.18100000 101.38400000
-94.94270000 19.19770000 98.88180000
-97.43040000 19.13100000 96.13420000
-93.96110000 19.81430000 97.85170000
-96.48970000 19.74800000 95.19090000
-99.02490000 19.76310000 92.53010000
-95.38540000 19.94970000 94.08710000
-97.89490000 19.91330000 91.45590000
-100.27900000 19.87920000 88.73470000
-101.46500000 19.73820000 89.81960000
-102.56300000 19.85860000 85.91270000
-99.02780000 19.97360000 87.58890000
-101.25900000 19.93930000 84.77380000
-103.38200000 19.90730000 81.86850000
-99.77940000 19.88320000 83.47880000
-101.86800000 19.82360000 80.60330000
-103.90900000 19.76980000 77.68990000
-100.37500000 18.93790000 79.37550000
-102.43000000 18.78110000 76.51150000
-104.47200000 18.63630000 73.62410000
-105.92400000 19.72500000 74.72910000
-106.45600000 18.50070000 70.68480000
-107.90300000 19.65850000 71.73240000
-108.27100000 18.46400000 67.61080000
-109.78000000 19.59470000 68.64100000
-110.07000000 18.36840000 64.50120000
-111.57600000 19.53710000 65.48570000
-111.83500000 18.16910000 61.32660000
-109.00800000 16.43090000 63.78590000
-110.66800000 16.31680000 60.59610000
-112.30100000 16.19660000 57.37030000
-109.09900000 14.90360000 59.64840000
-110.68900000 14.80620000 56.45540000
-112.23100000 14.74550000 53.21280000
-109.77700000 12.82540000 55.90940000
-111.22200000 12.75430000 52.65930000
-112.71900000 12.66150000 49.42240000
-113.70100000 14.65690000 49.93230000
-114.08800000 12.55310000 46.12160000
-112.71100000 10.32750000 49.34580000
-114.09500000 10.22120000 46.05130000
-115.38400000 10.09750000 42.71070000
-114.10900000 7.87789000 45.98990000
-115.39700000 7.78439000 42.65070000
-116.57700000 7.67039000 39.26190000
-116.57500000 9.93959000 39.32580000
-117.66800000 7.54589000 35.83460000
-117.66400000 9.79589000 35.89750000
-118.65400000 7.40909000 32.36760000
-118.67000000 9.66310000 32.44160000
-119.54800000 7.28269000 28.86310000
-118.62000000 5.13230000 32.28980000
-119.50700000 5.01120000 28.78240000
-120.29600000 4.86670000 25.23990000
-120.34000000 7.15350000 25.32340000
-121.00000000 4.72980000 21.66520000
-121.03900000 7.03710000 21.75110000
-121.59400000 4.59130000 18.05510000
-121.63700000 6.92280000 18.14320000
-122.07600000 4.44160000 14.41750000
-122.11800000 6.76580000 14.50510000
-122.42500000 4.26240000 10.74940000
-122.48800000 6.60960000 10.83980000
-122.68500000 4.09540000 7.06600000
-122.74900000 6.45280000 7.15210000
-122.81000000 3.96370000 3.36200000
-122.88400000 6.31740000 3.43930000
-122.83800000 3.81270000 -0.35869900
-122.91800000 6.20110000 -0.28789900
-122.76700000 3.69140000 -4.08910000
-122.85200000 6.09580000 -4.02710000
-122.58500000 3.59440000 -7.82110000
-122.67900000 5.99630000 -7.76930000
-122.29300000 3.52830000 -11.54800000
-122.38900000 5.92920000 -11.50760000
-121.87100000 3.51190000 -15.26240000
-121.96900000 5.88720000 -15.23470000
-121.34700000 3.52390000 -18.96280000
-121.45100000 5.87230000 -18.94300000
-120.71100000 3.54170000 -22.63620000
-120.83000000 5.85640000 -22.62810000
-119.95700000 3.53500000 -26.27710000
-120.06900000 5.84660000 -26.27370000
-119.09100000 3.54210000 -29.88200000
-119.19600000 5.81311000 -29.88680000
-118.10400000 3.54131000 -33.44580000
-118.20700000 5.79500000 -33.45890000
-117.03300000 3.48121000 -36.97410000
-117.12300000 5.76351000 -36.99230000
-115.85500000 3.48091000 -40.45580000
-115.94500000 5.72241000 -40.47850000
-114.59800000 3.49791000 -43.89540000
-114.66100000 5.70991000 -43.91490000
-113.23600000 3.55601000 -47.28320000
-113.25100000 5.75991000 -47.28440000
-111.77000000 3.57731000 -50.61730000
-111.80200000 5.76331000 -50.62890000
-110.16500000 3.55651000 -53.87830000
-110.24700000 5.71911000 -53.91650000
-108.49900000 3.46321000 -57.10040000
-108.58100000 5.63721000 -57.14060000
-106.74200000 3.39401000 -60.26190000
