-0.05360000 -0.43570000 -0.22220000
-0.07950000 -0.36890000 -0.22270000
-0.00310000 -0.36900000 -0.21850000
-0.43640000 -0.41370000 -0.25630000
-0.38860000 -0.36650000 -0.24910000
-0.38850000 -0.41370000 -0.25080000
1.03480000 1.95590000 0.27980000
1.18970000 2.10890000 0.27200000
1.25450000 2.14650000 0.28000000
1.23640000 2.16340000 0.26670000
-1.12790000 1.94330000 -0.14880000
-1.12370000 1.94400000 -0.17690000
-1.07590000 1.90520000 -0.17780000
-1.22720000 2.02580000 -0.03020000
-1.22520000 2.02760000 -0.10430000
1.01130000 1.80340000 -0.01470000
0.43030000 -0.80080000 -0.18350000
0.71390000 -0.63650000 -0.17960000
0.65080000 -0.70240000 -0.17950000
0.64610000 -0.64400000 -0.17910000
-0.28320000 3.75490000 -0.20720000
-0.31740000 3.84330000 -0.20890000
-0.26560000 3.84900000 -0.20720000
-0.38240000 3.64820000 -0.21850000
-0.33200000 3.66980000 -0.21150000
-0.33120000 3.62840000 -0.22190000
-0.73440000 -4.43280000 -0.29830000
-0.74090000 -4.37870000 -0.29150000
-0.71530000 -4.40970000 -0.28720000
-0.74860000 -4.45280000 -0.30480000
1.10740000 0.55720000 -0.10570000
-0.89760000 0.54190000 0.25260000
-0.92220000 0.51220000 0.25860000
-0.89800000 0.39960000 0.25160000
1.54960000 2.66200000 0.27730000
1.55640000 2.57760000 0.27890000
1.57420000 2.65370000 0.27850000
-0.78600000 -4.41110000 -0.30740000
-0.83950000 -4.36610000 -0.31230000
-0.29190000 -0.22500000 -0.23980000
-0.30280000 -0.31420000 -0.24020000
-0.34000000 -0.27200000 -0.24470000
-0.14570000 -0.22480000 -0.22740000
1.05720000 0.49800000 0.20600000
1.05390000 0.36910000 0.20950000
1.07340000 0.37300000 0.17740000
1.03350000 0.34580000 0.24030000
0.07530000 -3.47040000 -0.21120000
0.08040000 -3.54240000 -0.20940000
0.03470000 -3.57780000 -0.21260000
0.01940000 -3.45690000 -0.21550000
1.11390000 0.03530000 -0.08600000
1.08880000 0.02230000 -0.11820000
1.06310000 0.00760000 -0.14720000
-0.53310000 4.58400000 -0.22680000
-0.65500000 4.54000000 -0.23060000
-0.15910000 -1.63220000 0.24210000
-0.25330000 -1.70850000 0.24330000
-0.15920000 -1.71140000 0.24500000
-0.06460000 -1.66150000 0.24760000
-0.11280000 -1.63670000 0.24390000
-0.10050000 -1.70810000 0.24730000
0.16470000 2.51620000 0.23420000
0.19440000 2.53940000 0.24240000
0.08450000 2.53680000 0.24030000
0.22590000 2.56050000 0.25560000
0.12350000 -4.24870000 0.25450000
0.10000000 -4.21400000 0.27290000
0.04810000 -4.23990000 0.27090000
0.02390000 -4.20040000 0.26670000
-0.34000000 0.50940000 0.21180000
-0.41980000 0.51230000 0.21390000
-0.41910000 0.46550000 0.21410000
-0.12140000 0.50290000 0.21420000
-0.17170000 0.50420000 0.21260000
-1.45170000 3.85820000 -0.23700000
-1.40480000 3.97990000 -0.18950000
-1.39790000 3.97570000 -0.21450000
-1.43090000 3.91990000 -0.21470000
1.41120000 3.93480000 0.11300000
1.41300000 3.93900000 0.17160000
1.41280000 3.93740000 0.14290000
1.37100000 4.00200000 0.14260000
-0.70580000 2.60500000 0.22260000
-0.92280000 2.57040000 0.22280000
-0.59000000 2.69190000 0.23160000
-0.62540000 2.71780000 0.22380000
-0.61870000 2.62570000 0.22620000
0.20260000 -2.40350000 0.25470000
0.22450000 -2.35920000 0.25550000
0.17670000 -2.31170000 0.25660000
-0.55430000 3.36300000 -0.25740000
-0.57530000 3.36980000 -0.24910000
-0.55180000 3.39740000 -0.25500000
-0.53280000 3.39970000 -0.25890000
-1.31140000 2.20550000 -0.29590000
-1.19520000 2.04380000 -0.27620000
-1.24130000 2.09140000 -0.27730000
-0.98440000 -1.94600000 0.22110000
-0.98020000 -1.34910000 0.24440000
-0.97940000 -1.48980000 0.24560000
-1.55720000 3.68990000 -0.04440000
-1.55470000 3.68980000 0.05660000
-1.54990000 3.68960000 0.14060000
-1.57210000 3.62820000 0.13930000
1.00030000 -0.42390000 0.28650000
0.96470000 -0.35980000 0.29960000
-1.40560000 2.65420000 -0.25770000
-1.41640000 2.88030000 -0.25220000
-1.45580000 2.88870000 -0.25840000
0.45940000 2.85450000 0.19270000
0.45890000 2.91460000 0.19530000
0.46510000 3.06380000 0.18870000
0.46200000 2.98570000 0.17590000
1.05500000 4.32730000 0.02130000
1.16350000 4.21620000 -0.04780000
1.11100000 4.27410000 -0.01420000
1.16680000 4.22310000 0.00320000
0.22270000 -4.13490000 -0.21290000
0.17520000 -4.16760000 -0.21770000
0.19090000 -4.19160000 -0.23020000
0.24060000 -4.15950000 -0.22600000
0.25580000 -4.18080000 -0.23960000
-1.51840000 3.74820000 0.17770000
-1.52460000 3.74990000 0.14160000
-1.49760000 3.80940000 0.14210000
0.47290000 3.32400000 0.01880000
0.46500000 3.35690000 -0.01990000
0.46970000 3.32600000 -0.02010000
0.47050000 3.26250000 -0.01830000
0.46790000 3.17610000 -0.01510000
0.47270000 3.25390000 0.02660000
1.03220000 0.02710000 0.24690000
1.00670000 0.01670000 0.27530000
1.03180000 -0.06670000 0.24990000
1.05370000 -0.08010000 0.21860000
0.18080000 -4.44750000 0.00310000
0.98870000 4.37010000 0.22070000
1.04030000 4.31620000 0.24010000
0.98050000 4.35840000 0.23910000
-0.49910000 -4.65440000 -0.10600000
-0.44540000 -4.64540000 -0.10560000
-0.44100000 -4.66650000 -0.06350000
-0.65680000 -4.67080000 -0.10410000
-0.60530000 -4.66730000 -0.10520000
0.81140000 0.69200000 -0.19320000
0.81510000 0.79010000 -0.19800000
0.82600000 0.93840000 -0.20210000
-0.97490000 -0.38290000 0.23970000
-0.98060000 -0.24070000 0.21370000
-0.98280000 -0.39270000 0.21490000
-0.98390000 -0.36220000 0.16120000
0.41390000 2.64830000 -0.23710000
0.38520000 2.64180000 -0.12200000
-0.60030000 4.61440000 0.01690000
-0.53470000 4.63750000 0.05370000
-0.53590000 4.63570000 0.01870000
-0.60190000 4.60360000 -0.08850000
-0.60170000 4.60810000 -0.05440000
-0.53780000 4.62940000 -0.05220000
0.84960000 0.69250000 -0.20180000
0.80310000 0.54720000 -0.19290000
0.79910000 0.49980000 -0.19440000
0.64140000 -2.26610000 -0.17150000
0.46750000 -2.16180000 -0.18340000
0.51900000 -2.14900000 -0.17900000
0.51840000 -2.21760000 -0.17850000
-0.98220000 -0.53650000 0.16090000
-0.98160000 -0.42600000 0.12070000
-0.97910000 -0.51510000 0.11840000
-0.97260000 -0.54910000 0.05840000
1.30530000 3.76360000 -0.20440000
1.28160000 3.74820000 -0.19740000
1.24660000 3.80700000 -0.19830000
1.28140000 3.68390000 -0.19070000
1.00420000 1.35080000 -0.17100000
1.00280000 1.45320000 -0.14030000
0.99990000 1.52790000 -0.15850000
1.00210000 1.51410000 -0.08540000
0.20610000 2.23810000 -0.19780000
0.09750000 2.23230000 -0.20340000
0.06890000 2.31330000 -0.20370000
0.03430000 2.28400000 -0.20540000
0.03050000 2.23490000 -0.20600000
-0.08480000 2.28900000 -0.20830000
-0.56040000 2.59200000 -0.24000000
-0.57310000 2.56390000 -0.23350000
-0.74710000 0.73120000 -0.26590000
-0.68950000 0.59480000 -0.26200000
-0.73380000 0.60330000 -0.26620000
-0.66070000 0.76230000 -0.25990000
-0.61520000 0.76060000 -0.25810000
-0.95540000 -0.26540000 -0.14810000
-0.95530000 -0.51420000 -0.11430000
-0.94420000 -0.59780000 -0.15970000
-0.94980000 -0.65030000 -0.11280000
0.88470000 -3.72010000 -0.15490000
0.86490000 -3.70760000 -0.18480000
-0.60220000 -2.25760000 0.23640000
-0.64840000 -2.23350000 0.23430000
-0.77390000 -2.38580000 0.23410000
-0.77280000 -2.27320000 0.23410000
-0.81200000 -2.33680000 0.24430000
0.01390000 0.22610000 0.22620000
0.36300000 0.32910000 0.23330000
0.15700000 0.27490000 0.23000000
0.33990000 0.27930000 0.23310000
-0.95530000 -3.40930000 0.26310000
-0.95150000 -3.45830000 0.26670000
1.14280000 3.93190000 0.20930000
1.07350000 3.95770000 0.20670000
1.13680000 3.87760000 0.20760000
1.24720000 3.76970000 0.21240000
1.19070000 3.79650000 0.20900000
1.28990000 3.67860000 0.21480000
0.74310000 -3.72410000 0.28760000
-0.67280000 -2.86810000 0.23560000
-0.54550000 -3.18740000 0.24040000
-0.67280000 -3.17590000 0.23790000
-0.65520000 -3.34040000 0.23770000
-0.25340000 3.96540000 -0.20610000
-0.33140000 3.90400000 -0.20870000
-0.34650000 3.99480000 -0.20750000
-0.26100000 4.09840000 -0.20540000
-0.30680000 4.17140000 -0.20640000
-0.22120000 4.19000000 -0.20570000
0.90680000 -3.51820000 0.26730000
0.90270000 -3.44340000 0.29720000
-0.02230000 3.51890000 -0.17460000
-0.08430000 3.52110000 -0.19670000
-0.00050000 3.52090000 -0.19410000
-0.15570000 3.51920000 -0.19920000
-0.19630000 3.51560000 -0.18090000
-0.23020000 3.51550000 -0.20390000
0.77990000 3.77380000 0.20860000
0.62160000 3.73010000 0.21170000
0.41500000 3.91050000 0.20960000
0.29930000 3.80040000 0.21020000
0.38900000 3.78790000 0.21030000
-0.94380000 -0.81600000 -0.11320000
-0.93000000 -0.93880000 -0.16330000
-0.94000000 -0.95150000 -0.11620000
-0.93980000 -1.07770000 -0.11380000
-0.93110000 -1.09860000 -0.15580000
-0.93330000 -1.34360000 -0.15530000
1.02010000 0.69960000 -0.16160000
1.00870000 0.92460000 -0.14290000
1.01160000 0.85100000 -0.12010000
1.00930000 0.84930000 -0.15060000
0.65180000 1.29600000 -0.18710000
0.66150000 1.39160000 -0.18620000
0.71660000 1.40730000 -0.18570000
0.52340000 1.16950000 -0.19410000
0.59280000 1.26880000 -0.18970000
0.61980000 1.22100000 -0.18930000
-0.25850000 3.65300000 -0.21500000
-0.27420000 3.67250000 -0.21030000
-0.20410000 3.67660000 -0.21060000
-0.24380000 3.75460000 -0.20710000
-0.21530000 3.85910000 -0.20710000
-0.17170000 3.76380000 -0.20810000
0.51520000 -1.47000000 0.25780000
0.60620000 -1.47060000 0.26170000
0.55820000 -1.26320000 0.25660000
0.59910000 -2.15270000 0.26630000
0.56000000 -2.34840000 0.26470000
0.34090000 3.52170000 -0.22290000
-0.92870000 -3.02170000 -0.07610000
-0.94630000 -3.36570000 0.04470000
-0.93590000 -3.27740000 -0.01930000
-0.93870000 -3.42390000 0.01020000
1.54180000 3.57020000 -0.11360000
1.52760000 3.64820000 -0.05310000
0.05790000 4.17040000 -0.20430000
0.11420000 4.20970000 -0.20380000
0.12470000 4.16230000 -0.20220000
-0.42610000 2.60230000 -0.27130000
-0.42980000 2.58570000 -0.27610000
-0.45100000 2.62970000 -0.25840000
0.20440000 0.95550000 0.22070000
0.20800000 1.00020000 0.22050000
0.15430000 0.99810000 0.22140000
0.25900000 0.95690000 0.22140000
0.42950000 3.46980000 -0.24500000
0.39470000 3.53250000 -0.24600000
0.39910000 3.50880000 -0.24330000
0.35770000 3.53750000 -0.24240000
1.10170000 -0.51420000 -0.11780000
1.21230000 4.15480000 -0.07910000
1.26450000 4.10110000 -0.04750000
1.26110000 4.09600000 -0.07870000
1.31070000 4.04060000 -0.04700000
1.31570000 4.04900000 0.00550000
1.35620000 3.98190000 -0.02890000
-0.46130000 4.65130000 0.17960000
-0.32960000 4.68210000 0.18310000
-1.13080000 2.10130000 -0.27970000
-1.15720000 2.16220000 -0.26270000
-1.11490000 2.11470000 -0.26510000
-0.95430000 2.07990000 -0.23980000
-1.02860000 2.10390000 -0.24520000
-1.00450000 2.13300000 -0.24040000
1.14590000 0.25900000 -0.01340000
0.77960000 -0.21940000 0.23910000
0.86630000 -0.05320000 0.24590000
0.82750000 0.02320000 0.23870000
0.82410000 -0.11160000 0.23980000
-1.10190000 3.53100000 0.21930000
-1.07320000 3.47320000 0.21850000
-1.05160000 3.52740000 0.21780000
-0.99930000 3.47130000 0.21940000
-1.08580000 3.42890000 0.21950000
-1.04060000 3.41830000 0.22110000
-1.42140000 2.44660000 -0.29170000
-1.39400000 2.38770000 -0.29380000
0.95460000 -3.54190000 0.19560000
1.02000000 -3.56730000 0.08100000
1.02600000 -3.49600000 0.12110000
0.99830000 -3.55970000 0.11950000
0.74420000 0.93580000 -0.19690000
0.79370000 0.98670000 -0.19670000
0.72870000 0.78600000 -0.19660000
0.77390000 0.78900000 -0.19540000
0.76970000 0.70770000 -0.19190000
0.90200000 -0.07030000 0.26380000
0.86360000 -0.15840000 0.24790000
-1.61740000 2.78480000 -0.23230000
-1.61630000 2.85140000 -0.26030000
0.28750000 4.55410000 -0.23600000
0.20640000 4.56820000 -0.23760000
0.45390000 2.64420000 -0.25070000
-0.29400000 -0.82280000 0.22950000
-0.38100000 -0.75000000 0.22620000
-0.37910000 -0.84170000 0.22790000
-0.30620000 -0.92600000 0.23090000
-0.48880000 -1.02270000 0.22640000
-0.44340000 2.65910000 0.25240000
1.17520000 -1.24840000 0.00820000
1.16390000 -1.32740000 0.05370000
-0.27670000 1.46220000 -0.22380000
-0.10990000 1.48740000 -0.22840000
-0.60870000 -1.10890000 -0.27570000
-0.68910000 -1.09800000 -0.28430000
-0.65120000 -1.05920000 -0.27870000
-0.37090000 2.58160000 0.26320000
-0.32670000 2.55520000 0.24730000
-0.30940000 2.57290000 0.25740000
-0.40130000 2.60530000 0.26980000
0.94370000 1.38580000 -0.23950000
0.97130000 1.43350000 -0.23230000
0.96860000 1.38530000 -0.23450000
0.98040000 1.18740000 -0.23090000
0.98250000 1.23730000 -0.22770000
0.99670000 1.23720000 -0.20540000
-0.95430000 0.90900000 -0.18490000
-0.94720000 0.69760000 -0.18940000
-0.95850000 1.10240000 -0.17730000
0.51760000 3.35760000 0.27010000
-1.52130000 2.61670000 0.26310000
0.63880000 -1.13190000 -0.17320000
0.54390000 -1.05380000 -0.17720000
0.54780000 -1.17620000 -0.17630000
-0.93240000 1.56380000 -0.27840000
-0.93080000 1.47180000 -0.28260000
-0.90850000 1.40150000 -0.29330000
0.94770000 -3.59900000 -0.15140000
-0.55460000 3.65490000 0.22260000
-0.58780000 3.69450000 0.21720000
-0.59470000 3.61600000 0.22070000
-0.52220000 3.70180000 0.21870000
-0.21810000 2.51850000 -0.23090000
-0.14050000 2.51890000 -0.22570000
-0.16110000 2.50050000 -0.21630000
0.02270000 2.51030000 -0.21690000
0.11000000 2.51100000 -0.21560000
0.14150000 2.48920000 -0.20650000
-1.45280000 2.35950000 0.25360000
-1.46750000 2.35090000 0.23130000
1.55250000 2.46080000 0.00880000
1.57530000 2.53550000 -0.02130000
1.57920000 2.53670000 0.01090000
1.61920000 2.69020000 0.01180000
1.60130000 2.61330000 0.01200000
1.59720000 2.61200000 -0.02030000
-0.60240000 0.93040000 0.21410000
-0.70440000 0.59160000 0.21000000
-0.74340000 0.51650000 0.21030000
0.56680000 -0.65680000 -0.17870000
0.53250000 -0.74420000 -0.17980000
0.67480000 -0.87300000 -0.17910000
0.62710000 -0.87560000 -0.17870000
-0.45540000 3.01040000 0.23450000
-0.46180000 3.01100000 0.25320000
-0.45400000 3.14930000 0.23470000
-0.39620000 0.43110000 -0.24550000
-0.25160000 0.43410000 -0.22930000
-0.54740000 0.43060000 -0.25980000
-0.49700000 0.38360000 -0.25510000
-0.58310000 0.37870000 -0.26130000
0.47250000 3.28740000 0.22140000
0.47730000 3.32110000 0.23820000
0.47140000 3.31980000 0.21990000
0.47270000 3.31900000 0.11240000
0.47140000 3.28690000 0.16200000
0.46980000 3.31930000 0.16650000
-0.64260000 3.23180000 -0.22840000
-0.61860000 3.13160000 -0.23600000
-0.63190000 3.44500000 -0.22870000
-0.61190000 3.37760000 -0.23560000
-0.46600000 3.09340000 0.12680000
-0.46620000 2.87760000 0.17700000
-0.46500000 2.83730000 0.21030000
-0.46900000 2.81420000 0.14570000
1.03390000 1.57120000 0.23730000
1.02840000 1.57210000 0.26210000
1.03930000 1.75890000 0.24270000
-1.65710000 2.91220000 -0.05840000
-1.65550000 2.91250000 -0.13100000
-1.64550000 2.84670000 -0.13260000
-1.66660000 3.04650000 -0.04980000
-1.66630000 3.11240000 -0.05110000
-0.52380000 0.56610000 0.21400000
-0.51800000 0.43480000 0.21400000
-0.46830000 0.51400000 0.21430000
-0.46060000 0.45050000 0.21440000
-0.98530000 -1.16300000 0.21730000
-0.98760000 -1.39750000 0.21820000
-1.57930000 3.62970000 -0.10400000
-1.55720000 3.68980000 -0.09340000
-0.18030000 -4.41950000 0.22060000
-0.25020000 -4.40410000 0.25200000
-0.80360000 2.97780000 0.21900000
-0.75430000 3.00640000 0.21560000
-0.84930000 3.01610000 0.22280000
-0.75640000 2.93940000 0.21590000
-0.71250000 2.87950000 0.21700000
-0.71040000 2.96330000 0.21570000
0.13210000 2.63390000 0.19850000
0.24180000 2.63420000 0.22060000
0.24680000 2.63570000 0.19730000
0.39450000 2.64430000 0.24030000
0.41110000 2.65120000 0.24060000
0.40940000 2.65460000 0.22050000
-1.39950000 3.63270000 -0.24220000
-1.37280000 3.62280000 -0.23700000
-1.38970000 3.56770000 -0.23790000
-1.22520000 3.76830000 -0.22740000
-1.17570000 3.77530000 -0.22490000
-1.21310000 3.69830000 -0.22560000
0.78340000 -2.33090000 0.27200000
0.83700000 -2.00810000 0.27660000
0.79530000 -1.84650000 0.27040000
0.79030000 -2.10980000 0.27210000
1.33880000 3.17340000 0.21570000
1.28350000 3.23140000 0.21420000
1.24250000 3.17590000 0.21640000
1.29100000 3.17460000 0.21400000
0.32970000 2.63820000 0.17330000
0.35460000 2.64010000 0.18940000
0.35500000 2.63870000 0.13190000
0.35350000 2.63850000 0.21890000
0.32570000 2.63760000 0.19590000
1.39770000 2.21830000 0.28080000
0.06770000 4.70320000 0.10730000
-0.00240000 4.70730000 0.07340000
-0.00000000 4.70600000 0.10450000
0.06130000 4.70530000 0.00910000
0.13200000 4.70140000 0.04680000
0.13000000 4.70130000 0.01290000
1.17890000 -2.37040000 0.06880000
1.15860000 -2.44170000 0.10700000
1.12210000 -2.51830000 0.16780000
1.15990000 -2.54840000 0.10750000
0.87400000 4.46100000 0.11810000
0.81160000 4.49810000 0.11900000
0.93410000 4.41940000 0.17290000
0.87360000 4.45970000 0.14640000
0.87260000 4.45770000 0.17300000
-0.94870000 -2.80990000 0.27420000
-0.96070000 -2.76470000 0.24770000
-1.61530000 3.17850000 -0.27900000
-1.63460000 3.17880000 -0.26040000
-1.63040000 3.24410000 -0.25750000
0.95080000 1.48180000 -0.23870000
0.97600000 1.52820000 -0.22910000
0.66810000 3.23470000 -0.19200000
0.67390000 3.18790000 -0.19090000
0.71200000 3.23530000 -0.19140000
0.75830000 3.19640000 -0.18800000
1.15600000 -2.35490000 0.10800000
1.12330000 -2.26950000 0.15570000
1.12170000 -2.41300000 0.16470000
1.05780000 -2.36460000 0.25850000
1.02940000 -2.36350000 0.29080000
1.06140000 -2.49790000 0.25880000
-0.97460000 1.25770000 -0.02940000
-0.97580000 1.16810000 -0.03230000
0.34970000 1.56020000 -0.25090000
0.41050000 1.55110000 -0.22960000
0.34970000 1.53970000 -0.23330000
0.28980000 1.55040000 -0.25440000
-0.94320000 -2.52180000 0.28190000
-0.96230000 -2.52190000 0.26310000
-0.95760000 -2.60150000 0.26550000
-0.96600000 -2.58730000 0.23930000
0.72300000 3.39280000 -0.19160000
0.66520000 3.42090000 -0.19140000
0.74010000 3.46590000 -0.19140000
0.78390000 3.32290000 -0.19070000
0.80780000 3.41510000 -0.18930000
0.84650000 3.27080000 -0.18650000
0.90450000 1.17710000 -0.22780000
0.88130000 1.18760000 -0.21450000
0.91130000 1.27620000 -0.23130000
0.34980000 1.51510000 -0.21530000
0.47240000 1.53610000 -0.20790000
0.53550000 1.51370000 -0.19380000
0.47360000 1.50290000 -0.19650000
1.56260000 3.41980000 -0.16390000
1.52560000 3.55980000 -0.17000000
1.53450000 3.56530000 -0.14230000
1.55450000 3.49490000 -0.13950000
-0.41490000 -0.32400000 -0.25190000
-0.47700000 -0.36590000 -0.25860000
-0.62750000 -0.32070000 -0.27050000
-0.58090000 -0.36390000 -0.26740000
0.39830000 3.47400000 0.23280000
0.40360000 3.48340000 0.24650000
0.37470000 3.49860000 0.25220000
0.50940000 -4.21140000 -0.09840000
0.39220000 -4.27840000 -0.13260000
0.44620000 -4.23870000 -0.13100000
0.45540000 -4.25340000 -0.09970000
0.97470000 1.73420000 -0.21700000
0.98300000 1.73720000 -0.19790000
-0.62060000 -0.69870000 -0.27190000
-0.54940000 -0.65000000 -0.26570000
-0.74180000 -0.73390000 -0.29040000
-0.71020000 -0.61350000 -0.28030000
-0.70230000 -0.74710000 -0.28240000
-1.61730000 3.44000000 0.17290000
-1.62840000 3.37650000 0.17220000
0.07500000 4.68160000 0.21840000
0.37840000 3.51720000 0.26450000
0.34580000 3.53430000 0.26880000
0.34790000 3.56120000 0.27230000
0.31300000 3.57470000 0.27110000
-0.89190000 -2.91960000 -0.24360000
-0.88920000 -2.78980000 -0.24590000
-0.88080000 -2.76270000 -0.26990000
-0.88910000 -2.60910000 -0.24710000
-0.57820000 -0.42860000 -0.26850000
-1.20310000 4.14260000 -0.26590000
-1.15170000 4.15960000 -0.26740000
-1.22770000 4.08120000 -0.26770000
-1.17040000 4.10770000 -0.26150000
1.59500000 3.46000000 0.24950000
-0.89430000 -1.79440000 -0.29000000
-0.87990000 -1.86240000 -0.31270000
1.65440000 2.91950000 0.01130000
1.64490000 2.84300000 0.01080000
1.61440000 2.68880000 -0.02060000
-0.96660000 1.69870000 0.22400000
-0.96790000 1.74620000 0.12130000
0.31440000 2.59720000 -0.24800000
0.34700000 2.58490000 -0.24830000
0.31970000 2.57960000 -0.24720000
0.95480000 -1.84210000 -0.20530000
0.95810000 -1.95690000 -0.20200000
0.91550000 -1.55060000 -0.19610000
-0.86750000 1.74200000 0.27070000
-0.88500000 1.69710000 0.26720000
-0.86360000 1.69860000 0.26320000
-0.91720000 1.78590000 0.27330000
1.16560000 -2.93490000 -0.04900000
1.17020000 -2.87570000 -0.05000000
1.13690000 -2.99150000 -0.08370000
0.30640000 0.41120000 -0.19040000
0.35510000 0.44740000 -0.18900000
0.39480000 0.30350000 -0.18470000
0.20890000 0.63000000 -0.19890000
0.26330000 0.68410000 -0.19730000
0.25960000 0.60480000 -0.19550000
0.53350000 3.10020000 0.26280000
0.50890000 2.97720000 0.27430000
0.48870000 3.01120000 0.26960000
0.51160000 3.07250000 0.27270000
-0.87280000 -2.80720000 0.28350000
-0.89700000 -2.85280000 0.28910000
-0.86690000 -2.89640000 0.28160000
-0.75460000 1.69780000 0.25470000
-0.70910000 1.69120000 0.25740000
-0.54410000 1.65660000 -0.28730000
-0.48300000 1.67060000 -0.27810000
-0.48720000 1.64230000 -0.28730000
-0.49100000 1.61340000 -0.28160000
-0.47890000 2.64660000 -0.26960000
-0.51220000 2.77730000 -0.27780000
0.50890000 3.28850000 0.26700000
0.52950000 3.28760000 0.26490000
0.52490000 3.32280000 0.26720000
0.82220000 -3.05810000 -0.17300000
0.80190000 -3.22330000 -0.17150000
0.99410000 -0.97690000 0.29780000
0.95500000 -0.99790000 0.30890000
0.32100000 -4.28500000 -0.19150000
0.32880000 -4.30010000 -0.16430000
0.33800000 -4.19190000 -0.24940000
0.35380000 -4.21450000 -0.23740000
0.30170000 -4.25100000 -0.23930000
-0.89410000 1.68790000 -0.29250000
-0.91520000 1.69000000 -0.28760000
-0.87030000 1.64780000 -0.28430000
-0.84990000 1.68860000 -0.28880000
-0.84760000 1.64840000 -0.27800000
1.19760000 -2.70170000 -0.01410000
1.19680000 -2.75740000 0.03110000
0.53880000 2.63880000 0.25070000
0.55650000 2.62390000 0.23780000
0.56230000 2.57610000 0.23190000
0.58070000 2.60480000 0.23030000
0.94800000 1.05340000 0.27090000
-0.51320000 -4.49870000 -0.30470000
-0.56440000 -4.50100000 -0.30710000
-0.51180000 -4.52560000 -0.28930000
0.77470000 1.56400000 -0.19040000
0.70890000 1.32850000 -0.18580000
0.69270000 -1.53320000 -0.17280000
0.53540000 -1.56540000 -0.17640000
0.59930000 -1.53920000 -0.17410000
0.60150000 -1.63000000 -0.17310000
0.46780000 -2.45760000 -0.18140000
0.46630000 -2.50580000 -0.18270000
0.37400000 -2.49890000 -0.18780000
0.56160000 -2.56210000 -0.17500000
0.54200000 -2.60850000 -0.17460000
0.46360000 -2.55390000 -0.18210000
0.50980000 3.70590000 0.21580000
0.51160000 3.75770000 0.21190000
0.48000000 3.83330000 0.21010000
0.44140000 3.77370000 0.21110000
0.86010000 1.26490000 -0.20530000
0.88850000 1.28680000 -0.21890000
0.84300000 1.08680000 -0.20280000
0.68610000 3.58660000 -0.19320000
0.59590000 3.58140000 -0.19640000
0.62700000 3.51420000 -0.19360000
0.49300000 3.61300000 0.25520000
0.53360000 3.55950000 0.26690000
0.49760000 3.56380000 0.27020000
0.50390000 3.51110000 0.27110000
-1.40330000 2.65530000 0.23710000
-1.41580000 2.71340000 0.23550000
-0.44640000 3.49590000 0.03840000
-0.44420000 3.49830000 -0.03410000
-0.41460000 3.51080000 -0.00100000
-0.46140000 3.46780000 -0.00010000
1.53110000 2.46090000 -0.11090000
1.51580000 2.38620000 -0.02590000
-0.47120000 1.77200000 0.22930000
-0.53200000 1.74170000 0.25020000
-0.47980000 1.72980000 0.24670000
0.42680000 3.67680000 0.22020000
0.45920000 3.62300000 0.25040000
0.46190000 3.66790000 0.22420000
0.46820000 3.71710000 0.21420000
1.48840000 3.18760000 -0.20330000
1.51570000 3.19250000 -0.21040000
1.52420000 3.12470000 -0.21120000
1.53670000 3.23920000 -0.21280000
0.81370000 1.57660000 0.25320000
0.77300000 1.62410000 0.25480000
0.77010000 1.57330000 0.24950000
0.85510000 1.68300000 0.27090000
0.82010000 1.68170000 0.26730000
-1.49820000 2.40430000 -0.17810000
-1.46400000 2.34620000 -0.20920000
-1.46690000 2.34370000 -0.17940000
-1.52610000 2.46640000 -0.17610000
-1.52300000 2.46950000 -0.20690000
1.25890000 4.11400000 0.24180000
1.26970000 4.12240000 0.22130000
1.21830000 4.17830000 0.22050000
0.35060000 3.62200000 0.24920000
0.38630000 3.61020000 0.25810000
0.38770000 3.64340000 0.23630000
0.24580000 3.71370000 0.21370000
0.27690000 3.66820000 0.22340000
0.17410000 3.52570000 -0.18720000
0.10980000 3.52570000 -0.20980000
0.17560000 3.52990000 -0.20580000
0.31020000 3.52290000 -0.20840000
0.28030000 3.52390000 -0.19080000
0.28300000 3.52950000 -0.20670000
-0.90050000 -4.54720000 0.12560000
0.45240000 3.40730000 0.19590000
0.45490000 3.40870000 0.21430000
0.43730000 3.43160000 0.19580000
0.43970000 3.43280000 0.21450000
-0.48020000 -1.19030000 0.22680000
-0.53320000 -1.09590000 0.22570000
-0.52990000 -1.39280000 0.22730000
-0.38610000 -1.21400000 0.22990000
-0.43570000 -1.28520000 0.22870000
0.98580000 -0.39570000 -0.22160000
1.01620000 -0.39490000 -0.20110000
1.01770000 -0.46730000 -0.19870000
0.19940000 3.71900000 0.21330000
0.15990000 3.68150000 0.21780000
0.19910000 3.67790000 0.21940000
-1.64930000 3.11260000 -0.23800000
-1.64360000 3.24450000 -0.23360000
0.46540000 2.69190000 0.25470000
0.47740000 2.68330000 0.26640000
0.48370000 2.70410000 0.26660000
0.49940000 2.69540000 0.27110000
0.92160000 -0.70470000 0.28960000
0.89230000 -0.49370000 0.26600000
-0.29420000 -1.15430000 0.23370000
-0.28230000 -1.10630000 0.23260000
-0.37680000 -1.11690000 0.22900000
-0.15730000 -1.45360000 0.23920000
-0.15290000 -1.34360000 0.23780000
-0.20080000 -1.35860000 0.23810000
-0.94440000 1.11690000 0.25870000
-0.96070000 1.17830000 0.24590000
0.79840000 -0.37940000 -0.19100000
0.79980000 -0.44580000 -0.18860000
0.84540000 -0.49460000 -0.19040000
-0.92080000 -2.45350000 0.28880000
-0.94750000 -2.45040000 0.28130000
1.65910000 3.15050000 0.04860000
1.66280000 3.07430000 0.04700000
1.64130000 3.06700000 -0.07070000
-1.41930000 3.78370000 -0.26230000
-1.40140000 3.76360000 -0.25580000
-0.96770000 1.37460000 0.22910000
-0.96880000 1.26370000 0.22560000
-0.96280000 1.58670000 0.11350000
-0.96450000 1.60790000 0.16650000
-0.05370000 1.53180000 -0.26460000
0.00250000 1.55500000 -0.27410000
0.00210000 1.53070000 -0.26440000
0.17530000 1.53810000 -0.25950000
1.08210000 4.23860000 -0.19660000
1.03370000 4.29970000 -0.17210000
1.09190000 4.24860000 -0.17020000
1.04060000 4.30700000 -0.14300000
1.04540000 4.31260000 -0.11200000
-0.08210000 4.67610000 -0.19790000
-0.21460000 4.67620000 -0.17480000
-0.21490000 4.66880000 -0.20360000
-0.28080000 4.65860000 -0.20390000
0.23390000 3.51910000 -0.01560000
0.24450000 3.52210000 -0.14830000
0.29950000 3.51430000 -0.11080000
0.25150000 3.52630000 -0.18850000
-0.52150000 -4.37780000 -0.26330000
-0.47550000 -4.37560000 -0.26180000
-0.64340000 -4.40570000 -0.27490000
-0.44660000 2.46980000 -0.22350000
-0.27450000 2.44330000 -0.21140000
-1.33760000 4.08790000 0.03840000
-1.37660000 4.03660000 -0.00070000
0.30150000 -4.18220000 0.22760000
0.22800000 -4.18940000 0.25750000
0.24920000 -4.21560000 0.22560000
-1.64640000 3.24870000 0.17150000
-1.65390000 3.24680000 0.09840000
-1.64700000 3.31140000 0.09110000
-1.65700000 3.24510000 0.02510000
-0.50000000 3.36770000 -0.25020000
-0.51630000 3.33510000 -0.26590000
-0.53770000 3.29570000 -0.26940000
-0.53480000 3.36570000 -0.26320000
0.11690000 2.45340000 -0.20410000
0.06010000 2.48840000 -0.20760000
0.79690000 -3.92120000 0.06630000
0.83930000 -3.86670000 0.06900000
0.81680000 -3.85400000 0.10660000
0.92980000 0.74420000 -0.24050000
0.92980000 0.79430000 -0.24110000
0.95680000 0.79500000 -0.24220000
0.90310000 0.78540000 -0.23030000
0.90450000 0.69360000 -0.22940000
1.22580000 1.96550000 0.23910000
1.27620000 2.01700000 0.24070000
1.27360000 2.01660000 0.21450000
0.25790000 2.50080000 0.22940000
0.34600000 2.48130000 0.22630000
0.37350000 2.51450000 0.23160000
0.48670000 2.52010000 0.23330000
0.53440000 2.51000000 0.22650000
0.51590000 2.53450000 0.23420000
-0.41750000 3.50640000 0.07430000
-0.41690000 3.51000000 0.03800000
-0.31430000 3.50970000 0.06660000
-0.34880000 3.51040000 0.06850000
-0.34800000 3.51400000 0.03230000
-0.85840000 -1.45220000 -0.32300000
-0.83280000 -1.50490000 -0.32200000
-0.83110000 -1.79110000 -0.32320000
0.80350000 -0.57430000 -0.18310000
0.81200000 -0.86910000 -0.17760000
0.81120000 -0.80480000 -0.17770000
0.85440000 -0.82080000 -0.18150000
-0.59220000 3.54940000 -0.23210000
-0.62740000 3.67420000 -0.21550000
-0.74060000 3.64550000 -0.21470000
-0.67490000 3.73220000 -0.21320000
-0.10100000 3.51330000 0.10870000
-0.24210000 3.51410000 0.02940000
1.65600000 2.85680000 0.16940000
1.65440000 2.85190000 0.12330000
1.66370000 2.93000000 0.14020000
1.66390000 2.93630000 0.19910000
1.66660000 3.00970000 0.17130000
1.66590000 3.01260000 0.19970000
-0.90070000 -0.20370000 -0.30770000
-0.88010000 -0.18660000 -0.32160000
-0.87900000 -0.27480000 -0.32520000
-0.85350000 -0.27440000 -0.32710000
0.73620000 -3.86320000 -0.21550000
0.75490000 -3.87840000 -0.18960000
0.71400000 -3.93240000 -0.19070000
-0.90390000 -4.23770000 0.27780000
-0.87610000 -4.18840000 0.28330000
-0.91160000 -4.18680000 0.27770000
-0.93590000 -4.18380000 0.25180000
-0.85630000 -1.80650000 0.25830000
-0.85760000 -1.57770000 0.25800000
-0.88380000 -1.65080000 0.27010000
-0.90730000 -1.84950000 0.27910000
-0.91010000 -1.69150000 0.27900000
-0.93670000 -1.80830000 0.28080000
-0.46930000 3.56990000 0.26340000
-0.48890000 3.52690000 0.26640000
-0.45740000 3.61670000 0.24760000
-0.68550000 -3.98740000 0.23500000
-0.71150000 -3.89490000 0.23680000
-0.74190000 -3.94140000 0.23920000
-0.64290000 -3.61590000 0.23800000
0.10390000 3.58330000 -0.23840000
-0.90400000 -1.96240000 0.27970000
0.68420000 -3.82530000 -0.23380000
0.74800000 -3.78970000 -0.23020000
0.71210000 -3.84480000 -0.23260000
0.75260000 -3.97530000 0.06400000
0.81530000 -3.93300000 0.02710000
0.15310000 -4.08250000 0.26130000
0.10250000 -4.10990000 0.25990000
0.17030000 -4.12300000 0.27240000
0.07570000 -4.17480000 0.26840000
1.12940000 0.50750000 0.07040000
0.37430000 3.61930000 -0.22070000
0.35790000 3.65120000 -0.21000000
0.39040000 3.63630000 -0.21320000
0.40970000 3.66360000 -0.20810000
0.92120000 -2.86070000 -0.18900000
0.87540000 -2.94410000 -0.18100000
-0.43790000 3.50580000 0.26320000
-0.33110000 3.54640000 0.26540000
1.01020000 4.16470000 0.21430000
0.97260000 4.22480000 0.22230000
0.95630000 4.20340000 0.21280000
0.74780000 4.36120000 0.21740000
0.68190000 4.36150000 0.21140000
0.84170000 4.27980000 0.21120000
0.23490000 3.63330000 -0.21400000
0.31050000 3.64020000 -0.21270000
0.35170000 3.60820000 -0.22530000
0.29620000 3.62370000 -0.21790000
-0.49450000 -4.68460000 -0.01540000
-0.49910000 -4.67090000 0.03210000
-0.50650000 -4.64390000 0.07430000
-0.13370000 3.60190000 0.25850000
-0.29810000 3.58010000 0.26610000
1.26360000 3.51620000 0.21390000
1.20570000 3.55190000 0.21310000
1.26320000 3.64030000 0.21320000
1.22510000 3.62580000 0.21280000
1.51000000 2.59740000 0.26830000
1.53290000 2.58790000 0.27800000
1.52610000 2.67050000 0.26800000
-0.71270000 -4.66820000 0.08110000
-0.72120000 -4.63580000 0.11970000
0.30810000 -1.71980000 0.25630000
0.23160000 -1.80640000 0.25370000
0.35580000 -1.81330000 0.25670000
0.16530000 -1.81980000 0.25300000
0.18770000 -2.84580000 0.25830000
0.25230000 -2.64070000 0.26000000
0.03870000 -2.67590000 0.25390000
0.09240000 -2.44630000 0.25190000
1.31720000 3.85570000 -0.21590000
1.32200000 3.90080000 -0.20960000
1.35720000 3.88390000 -0.19140000
-1.46800000 3.15900000 0.23510000
-1.50490000 3.12130000 0.24170000
-1.53940000 3.06110000 0.25450000
-1.50770000 3.06200000 0.24220000
0.86080000 -1.01100000 -0.18630000
0.82120000 -1.05940000 -0.18030000
0.81800000 -1.01180000 -0.18000000
0.63620000 -1.05290000 -0.17370000
0.71760000 -1.07410000 -0.17490000
1.06180000 -0.97010000 -0.16740000
1.06810000 -1.14380000 -0.16720000
1.03520000 -1.02690000 -0.19330000
1.07620000 -1.39750000 -0.16510000
1.08010000 -1.58550000 -0.16060000
0.44680000 3.07920000 -0.17210000
0.44620000 3.13090000 -0.20920000
-0.66720000 1.55460000 -0.24100000
0.11020000 0.13410000 0.22380000
0.11010000 0.18130000 0.22670000
0.26430000 0.00060000 0.22450000
0.16600000 -0.00360000 0.22250000
-0.92940000 -0.04090000 -0.25810000
-0.93170000 0.21060000 -0.25400000
-0.93220000 0.28760000 -0.25250000
-0.92350000 0.27050000 -0.27740000
0.35300000 -4.14680000 0.22970000
0.46130000 -4.17170000 0.12880000
0.42460000 -4.13100000 0.19730000
0.37340000 -4.16880000 0.19470000
0.80230000 -2.52840000 -0.16680000
0.73890000 -2.53140000 -0.16750000
0.85110000 -2.42760000 -0.16660000
0.89370000 -2.48030000 -0.17610000
0.84960000 -2.47900000 -0.16750000
0.52400000 -4.04910000 0.20200000
0.64070000 -3.97710000 0.17170000
0.59350000 -4.02370000 0.16920000
-1.51610000 3.67850000 -0.25840000
-1.30340000 3.23940000 -0.23350000
-1.29250000 3.43080000 -0.23170000
-1.21570000 3.40690000 -0.22820000
-1.30840000 3.28460000 -0.23330000
-1.36850000 2.16840000 0.17980000
0.33510000 1.49760000 0.24590000
0.28120000 1.44990000 0.23630000
-0.35810000 2.63490000 -0.08460000
-0.28930000 2.63530000 -0.09010000
-0.32130000 2.62950000 -0.13300000
-1.53770000 3.61890000 -0.25990000
-0.71380000 -2.03570000 -0.29620000
-0.71700000 -1.70160000 -0.29450000
1.58540000 3.51650000 0.01400000
1.61970000 3.36950000 -0.01580000
1.60140000 3.44180000 -0.01680000
0.27460000 3.53200000 0.26610000
0.31260000 3.54670000 0.27150000
-0.12670000 -3.84690000 -0.22240000
-0.10590000 -3.95260000 -0.22000000
-0.25150000 -3.83890000 -0.23380000
-0.49600000 2.45160000 -0.22160000
-0.43280000 2.43060000 -0.21980000
-0.83110000 -1.86850000 -0.32390000
-0.82970000 -1.94630000 -0.32330000
0.99610000 4.37920000 0.14560000
0.99660000 4.37880000 0.11700000
0.93580000 4.42130000 0.11740000
1.05610000 4.33510000 0.14480000
1.11480000 4.28780000 0.14400000
-0.85970000 -4.44570000 0.26320000
-0.81810000 -4.44070000 0.26890000
0.15320000 -0.13280000 -0.20380000
0.23790000 -0.20440000 -0.19430000
0.18840000 -0.25590000 -0.19930000
0.14210000 -0.26750000 -0.20430000
-0.83110000 4.49660000 0.20110000
-0.77680000 4.53340000 0.17370000
-1.66590000 3.04590000 -0.10980000
-1.66290000 2.97940000 -0.10170000
-1.65540000 2.97890000 -0.21050000
-1.66070000 2.97840000 -0.17900000
-1.66350000 3.04530000 -0.18160000
1.29250000 2.13170000 -0.21510000
1.32220000 2.20260000 -0.22570000
1.34050000 2.19300000 -0.21420000
1.24140000 2.07300000 -0.21730000
-0.66670000 -1.14180000 0.22140000
-0.71480000 -1.32860000 0.22190000
-0.71150000 -1.13880000 0.22060000
-0.75660000 -1.25220000 0.22250000
-0.34380000 -2.99710000 -0.24590000
-0.29640000 -3.03010000 -0.24030000
-0.39330000 -3.04030000 -0.25300000
-0.48590000 -3.06910000 -0.26120000
0.52940000 4.61190000 -0.11480000
0.53340000 4.61690000 -0.08060000
0.45260000 4.61720000 -0.18040000
0.51960000 4.59670000 -0.17940000
-0.27700000 4.60580000 -0.25550000
-0.27950000 4.63080000 -0.24850000
1.51640000 2.46350000 -0.16500000
1.54110000 2.53830000 -0.16300000
1.39580000 2.40860000 0.24440000
1.36150000 2.34310000 0.25060000
-0.18140000 -2.83050000 -0.23070000
-0.11040000 -2.87600000 -0.22400000
-0.33650000 -2.89240000 -0.24530000
-0.28750000 -2.95470000 -0.23900000
-0.38250000 -2.95380000 -0.24970000
-0.87140000 -3.11160000 -0.30090000
-0.88440000 -3.10900000 -0.27990000
-0.87030000 -3.16080000 -0.29120000
-1.66360000 2.98050000 -0.04760000
-1.66330000 2.98180000 -0.01100000
-1.66150000 2.98410000 0.04830000
-0.14870000 4.67340000 -0.20050000
-0.14670000 4.69460000 -0.10960000
-0.14740000 4.68860000 -0.14160000
-0.21410000 4.68310000 -0.14450000
-0.96860000 3.22620000 0.21850000
-1.00220000 3.27360000 0.22060000
-0.39190000 -2.87960000 -0.25250000
-0.53410000 -2.90980000 -0.26380000
-0.48760000 -2.95300000 -0.25930000
-0.58330000 -2.95550000 -0.26610000
-0.86320000 -3.20520000 -0.27570000
-1.25550000 4.18840000 -0.02600000
-1.21110000 4.23270000 0.00540000
-1.29810000 4.13930000 0.00570000
-1.29850000 4.14090000 -0.05690000
-1.33930000 4.09160000 -0.06010000
-0.84920000 -3.32690000 -0.24650000
-0.66810000 2.25270000 0.22060000
-0.48100000 2.21890000 0.22030000
0.66090000 -1.81750000 0.26630000
0.60440000 -1.78830000 0.26400000
0.60180000 -2.04250000 0.26580000
-0.98170000 -0.61500000 0.21360000
-0.98470000 -0.47320000 0.18640000
0.96860000 -2.51510000 -0.20120000
1.00620000 -2.43070000 -0.20950000
1.04250000 -2.43080000 -0.20210000
0.89430000 -0.91490000 -0.19710000
0.90150000 -1.05790000 -0.20000000
1.13950000 -0.22410000 -0.04780000
1.15160000 -0.31670000 -0.00570000
-0.82320000 0.55610000 0.22070000
-0.52310000 1.77710000 -0.23350000
-0.51460000 1.81590000 -0.22770000
-0.21760000 1.83380000 -0.21390000
-0.82500000 -3.95540000 -0.30720000
-0.81760000 -4.13660000 -0.30950000
-0.74790000 -3.27630000 -0.27610000
-0.71260000 -3.31400000 -0.27280000
-0.74260000 -3.31760000 -0.27350000
-0.73920000 -3.43980000 -0.26950000
-0.71260000 -3.48190000 -0.27070000
0.39400000 4.64920000 -0.11660000
0.45740000 4.62560000 -0.14880000
0.46160000 4.63210000 -0.11540000
-0.18740000 -0.32500000 0.22090000
-0.17190000 -0.28070000 0.22080000
-0.23570000 -0.27790000 0.21700000
0.71570000 2.62540000 -0.18620000
0.67020000 2.64450000 -0.18820000
0.72900000 2.72380000 -0.18540000
0.77930000 2.71050000 -0.18400000
-0.34550000 4.66160000 -0.14720000
-0.34470000 4.66830000 -0.11630000
-0.40860000 4.65980000 -0.08460000
-0.40760000 4.66450000 -0.04990000
-0.34230000 4.67860000 -0.04860000
-0.47550000 4.40760000 0.21000000
-0.69240000 4.32150000 0.21300000
-0.05250000 1.81820000 -0.20700000
-0.00950000 1.92720000 -0.20650000
0.00140000 1.82310000 -0.20550000
0.03630000 1.92610000 -0.20610000
0.10810000 -0.41620000 0.22950000
0.10690000 -0.46180000 0.23150000
0.04810000 -0.37280000 0.22680000
-0.13840000 -0.37080000 0.22250000
-1.59100000 3.14550000 -0.28590000
0.18010000 4.65280000 -0.21570000
0.31840000 4.64860000 -0.18410000
-0.37880000 3.60370000 -0.23500000
-0.38690000 3.62280000 -0.22590000
-1.02570000 1.86660000 -0.20850000
-1.03630000 1.86760000 -0.15280000
0.23800000 3.56480000 0.27170000
0.27620000 3.58370000 0.26940000
0.23800000 3.59130000 0.26690000
0.31300000 3.60370000 0.26030000
0.27640000 3.63580000 0.23930000
0.27590000 3.61070000 0.25680000
0.49960000 0.68150000 0.23440000
0.52810000 0.42590000 0.23560000
0.47840000 0.42470000 0.23420000
0.46830000 0.33850000 0.23530000
0.00320000 1.62650000 0.25490000
-0.08330000 1.59270000 0.27330000
-0.03240000 1.59100000 0.27380000
0.78420000 2.80510000 -0.18650000
0.85450000 2.80010000 -0.18540000
0.78910000 2.76090000 -0.18450000
0.98440000 2.97330000 -0.18490000
1.03170000 3.02320000 -0.18560000
1.03540000 2.91260000 -0.18280000
-1.04840000 1.86760000 0.12050000
-1.00850000 1.83240000 -0.03830000
-1.04980000 1.86910000 0.01670000
-1.04670000 1.86910000 -0.05930000
-0.07000000 4.70810000 0.07110000
-0.12670000 4.70040000 0.18860000
-0.19460000 4.69890000 0.18740000
-0.70490000 1.73390000 0.26910000
-0.79830000 1.79310000 0.26880000
1.17830000 -2.70210000 -0.05240000
1.19830000 -2.64140000 -0.01500000
1.19910000 -2.64290000 0.02870000
0.02500000 -4.24700000 -0.22990000
-0.23940000 -4.29660000 -0.23840000
-0.13190000 -4.30590000 -0.23980000
-0.22850000 -4.33320000 -0.24670000
-0.19950000 4.70250000 0.12820000
-0.12930000 4.70350000 0.15990000
-0.13200000 4.70520000 0.13020000
-0.20190000 4.70290000 0.09680000
-0.26870000 4.69590000 0.09400000
-0.83780000 -0.38110000 0.22830000
-0.83450000 -0.58320000 0.23210000
-0.99640000 1.82780000 0.22530000
0.24690000 -3.92030000 0.25300000
-0.61490000 -4.55240000 -0.26980000
-0.56230000 -4.57090000 -0.24120000
-0.61440000 -4.57280000 -0.24330000
-0.66540000 -4.57260000 -0.24540000
0.67350000 0.09580000 -0.18410000
0.66920000 0.02520000 -0.18190000
0.53090000 0.04680000 -0.17770000
0.58060000 0.15420000 -0.18110000
0.57620000 0.02340000 -0.17730000
0.31810000 -2.76820000 -0.19060000
0.37690000 -2.71370000 -0.18670000
0.25860000 -2.67560000 -0.19470000
0.25280000 -2.79670000 -0.19530000
1.20750000 1.96560000 0.10070000
1.26010000 2.01050000 0.09780000
-0.70930000 4.49880000 -0.25230000
-0.70770000 0.11880000 0.20930000
-0.78610000 4.52730000 -0.09700000
-0.78500000 4.52210000 -0.12870000
-0.84310000 4.49170000 -0.13160000
-0.78650000 4.53140000 -0.06220000
0.87040000 3.14110000 -0.18440000
0.87900000 3.06650000 -0.18480000
0.86360000 3.39680000 -0.18780000
-0.01660000 -1.64000000 0.25090000
0.03180000 -1.59390000 0.25320000
-0.01110000 -1.45760000 0.24700000
0.07750000 -1.66350000 0.25400000
-0.54630000 2.87770000 -0.27260000
-0.56430000 2.92020000 -0.26060000
-0.54790000 2.96010000 -0.27230000
-0.60570000 2.97000000 -0.23850000
-0.59970000 2.87080000 -0.24110000
1.01830000 0.75920000 -0.05940000
1.01670000 0.75310000 -0.13000000
1.01870000 0.75620000 -0.09870000
0.28040000 -4.34980000 -0.13750000
0.22350000 -4.38140000 -0.14000000
-0.50290000 1.60710000 0.25570000
-0.49670000 1.64730000 0.27110000
-0.55040000 1.65820000 0.26850000
-0.48810000 1.69010000 0.26810000
-0.09910000 1.08520000 0.21680000
0.03360000 1.08560000 0.21990000
-0.65570000 3.20370000 0.21710000
-0.64190000 3.35320000 0.21860000
-0.70230000 3.13530000 0.21500000
0.37840000 -4.27360000 0.08540000
0.35990000 -4.25030000 0.12070000
0.33990000 -4.33270000 0.04790000
0.28360000 -4.36720000 0.04650000
-0.82040000 1.65700000 0.24440000
0.30240000 3.49100000 0.20770000
0.33230000 3.48770000 0.16100000
0.30060000 3.49320000 0.16310000
-0.71800000 -1.63760000 -0.29250000
-0.68920000 -1.27940000 -0.28590000
-0.68700000 -1.42500000 -0.28570000
1.65170000 3.09370000 0.25170000
1.66100000 3.09120000 0.22700000
1.66090000 3.16120000 0.17050000
1.29150000 2.11090000 0.28880000
-0.71670000 -2.78980000 0.23490000
-0.72960000 -2.61530000 0.23350000
-0.76190000 -2.74800000 0.23690000
-0.73190000 -2.31570000 0.23200000
1.02140000 -3.28190000 0.23600000
1.03660000 -3.21910000 0.23610000
1.00380000 -3.34530000 0.23600000
-0.84100000 1.85890000 -0.28290000
-0.91280000 1.91040000 -0.28250000
-0.83870000 -3.99740000 0.27360000
-0.85780000 -3.84670000 0.28320000
0.66610000 4.42980000 -0.23270000
-1.47500000 2.34560000 0.20380000
-1.53140000 2.46900000 0.20280000
0.41060000 4.66110000 0.08960000
0.34440000 4.67280000 0.14770000
0.34300000 4.67490000 0.11860000
0.45870000 2.71280000 0.13430000
0.45950000 2.72950000 0.17490000
0.46120000 2.73310000 0.13960000
0.45580000 2.72900000 -0.03370000
0.45950000 2.72100000 0.07180000
0.45830000 2.74990000 -0.01800000
-0.86510000 -3.55430000 0.28830000
-0.87530000 -3.46470000 0.29250000
-0.91610000 -3.35990000 0.29420000
-0.89320000 -3.31110000 0.29470000
-0.92150000 -3.31140000 0.29220000
-1.50460000 3.35870000 0.25330000
-1.54990000 3.30440000 0.26040000
0.96020000 1.23740000 -0.24150000
0.96990000 1.03970000 -0.23590000
-0.85000000 1.56470000 -0.27130000
-0.84850000 1.60690000 -0.27280000
-0.82600000 1.60680000 -0.26450000
0.99640000 1.66420000 -0.02670000
1.00290000 1.61810000 0.01160000
0.99930000 1.61810000 -0.03190000
1.00660000 1.38360000 -0.00950000
1.00960000 1.44110000 0.03950000
1.01120000 1.35080000 0.03240000
-0.97840000 -1.87430000 0.24890000
-0.77320000 -3.59950000 0.24770000
-0.80290000 -3.40580000 0.25370000
-0.83410000 -3.36090000 0.27140000
-0.82360000 -3.45500000 0.26710000
0.26760000 4.52040000 0.21430000
0.04520000 4.53790000 0.21830000
0.01510000 4.56820000 0.22970000
-0.09620000 4.57070000 0.23210000
0.68710000 1.77960000 -0.20060000
0.82480000 1.89800000 -0.19020000
0.85250000 1.86530000 -0.20640000
-0.38470000 1.50920000 -0.23310000
-0.32740000 1.53180000 -0.24790000
-0.65370000 -4.70560000 -0.01190000
-0.70440000 -4.70810000 -0.01100000
0.28200000 1.01170000 -0.19780000
0.27390000 0.87420000 -0.19820000
0.21400000 0.68780000 -0.20000000
0.21840000 0.84690000 -0.20110000
-0.97860000 0.77370000 0.19680000
-0.97460000 1.16610000 0.20130000
-0.97790000 1.11430000 0.17670000
0.30820000 -0.22940000 0.22780000
0.31540000 -0.08990000 0.22960000
0.23070000 -0.13960000 0.22690000
0.31070000 -0.04360000 0.22820000
1.15320000 3.41730000 -0.18300000
1.23070000 3.44900000 -0.18430000
1.17960000 3.34700000 -0.18130000
1.02920000 3.32630000 -0.18380000
0.98820000 3.43780000 -0.18600000
1.10410000 3.36200000 -0.18270000
0.97600000 -1.15250000 -0.22350000
0.69000000 4.39010000 0.21750000
0.57570000 4.43900000 0.21710000
0.39160000 4.49890000 0.21490000
0.33040000 4.51080000 0.21450000
-0.62830000 3.50940000 -0.22700000
-0.66100000 3.54930000 -0.22140000
-0.58460000 3.61890000 -0.22150000
-0.62200000 3.58310000 -0.22220000
-0.65420000 3.58900000 -0.21940000
0.25690000 -0.22820000 0.22680000
0.21060000 -0.23120000 0.22660000
0.21000000 -0.27690000 0.22800000
0.99010000 -1.79080000 -0.21410000
-0.95200000 -2.96130000 0.09370000
-0.93910000 -2.49970000 -0.05020000
-0.75410000 -0.36940000 -0.28810000
-0.79890000 -0.49450000 -0.30650000
-0.79980000 -0.60730000 -0.30800000
-0.86370000 3.88870000 -0.21280000
-0.77540000 3.82880000 -0.21200000
-0.84480000 3.71900000 -0.21330000
0.73120000 4.10580000 0.20440000
0.69210000 4.18390000 0.20360000
0.97770000 4.00190000 0.20490000
0.94040000 1.72800000 -0.24150000
0.90040000 1.72360000 -0.24260000
0.91500000 1.68880000 -0.23900000
0.89210000 1.68870000 -0.23270000
-0.78190000 -0.22760000 -0.29150000
-0.75470000 -0.22760000 -0.28400000
-0.75390000 -0.29380000 -0.28650000
-0.78070000 -0.28870000 -0.29410000
-0.96100000 1.70000000 -0.00050000
-1.63970000 2.79080000 0.14140000
-1.64910000 2.85760000 0.14010000
-1.64340000 2.86000000 0.17410000
0.00150000 1.45720000 -0.21450000
-0.87550000 -4.59900000 -0.11690000
0.48960000 -3.82880000 0.27280000
0.44550000 -3.87140000 0.27160000
0.43430000 -3.82350000 0.26160000
0.45480000 2.76080000 -0.19380000
0.45690000 2.78410000 -0.19260000
0.45640000 2.84620000 -0.19110000
-0.63060000 3.42910000 0.21930000
-0.66580000 3.46760000 0.21870000
-0.68210000 3.32830000 0.21810000
-0.62200000 3.68440000 0.21700000
-0.66660000 3.63580000 0.21750000
-0.63330000 3.61070000 0.21910000
0.75990000 1.85230000 -0.18980000
0.76870000 1.81930000 -0.20270000
0.77090000 1.78690000 -0.21990000
-1.14890000 4.26620000 -0.17680000
-1.15420000 4.27230000 -0.14830000
-1.10620000 4.31280000 -0.14490000
1.06600000 2.67680000 0.22480000
1.02900000 2.74790000 0.22180000
1.00550000 2.63220000 0.22510000
0.98870000 2.54350000 0.22660000
1.15070000 2.44450000 0.23100000
1.09340000 2.59060000 0.22740000
-0.34080000 -2.18740000 -0.25800000
-0.21010000 -2.20000000 -0.24110000
-0.25900000 -2.25430000 -0.24640000
-0.11450000 -2.33380000 -0.23080000
-0.11190000 -2.20330000 -0.23100000
-0.03930000 -2.28630000 -0.22490000
-0.51410000 3.40120000 -0.25590000
0.81300000 1.73800000 -0.24430000
0.68450000 1.72470000 -0.23480000
0.56840000 4.53950000 -0.22840000
-0.47880000 3.26080000 -0.11990000
-0.48270000 3.29560000 -0.16710000
-0.48320000 3.36360000 -0.18940000
-0.48020000 3.36760000 -0.12570000
-0.88760000 4.46240000 0.19980000
-0.87990000 4.45310000 0.22670000
-0.86700000 4.43530000 0.24500000
1.35010000 3.97390000 -0.07830000
1.39020000 3.91070000 -0.07900000
1.39500000 3.91520000 -0.04740000
-1.15460000 1.99730000 0.27050000
-1.13730000 2.01410000 0.27460000
-1.20260000 2.04260000 0.27040000
-1.16730000 1.98530000 0.25380000
1.05120000 4.32260000 -0.04180000
0.99010000 4.36580000 -0.08030000
0.72180000 0.69080000 -0.19240000
0.76120000 0.59490000 -0.18940000
-1.07110000 1.90590000 -0.20480000
-1.03120000 1.86670000 -0.18240000
0.54250000 2.55290000 0.23420000
-0.84400000 1.98930000 0.22410000
-0.79090000 1.92810000 0.22690000
-0.89410000 2.05040000 0.22290000
-0.81810000 2.02960000 0.22150000
-0.88410000 2.10080000 0.22100000
-1.34980000 2.48110000 0.24320000
-1.40220000 2.45180000 0.25920000
-1.35380000 2.41000000 0.25330000
-1.32230000 2.28240000 0.26440000
1.13800000 -1.85220000 -0.09310000
-0.18600000 -0.69140000 0.22430000
-0.23450000 -0.64410000 0.22150000
-0.24850000 -0.71670000 0.22560000
-0.13770000 -0.59980000 0.22460000
-0.18680000 -0.55270000 0.22310000
-0.18630000 -0.59880000 0.22180000
0.45040000 2.68310000 0.23870000
0.45750000 2.69950000 0.23840000
0.45390000 2.70400000 0.21850000
0.45920000 2.85190000 0.21570000
-0.98640000 -1.38560000 0.16160000
-0.98610000 -1.28440000 0.15980000
-0.98240000 -1.31920000 0.12970000
1.12880000 -1.36870000 -0.10720000
1.16100000 -1.77730000 -0.06070000
-0.07200000 1.71390000 0.22590000
-0.12700000 1.71830000 0.22560000
-0.12960000 1.67380000 0.23500000
0.55190000 3.21960000 0.24940000
0.57210000 3.17840000 0.23580000
0.57140000 3.24010000 0.23580000
0.61460000 3.28500000 0.21890000
0.59290000 3.24900000 0.22550000
0.61760000 3.24790000 0.21820000
0.68780000 -0.11710000 -0.18350000
0.74620000 -0.16640000 -0.18830000
0.57340000 -0.08570000 -0.17690000
0.61610000 -0.16810000 -0.18000000
