-0.06280000 1.72810000 0.52130000
-0.08380000 1.81320000 0.55570000
-0.09890000 1.84200000 0.55550000
-0.10500000 1.80900000 0.55510000
-0.13030000 1.84090000 0.54400000
-0.11470000 1.88240000 0.54940000
-0.14850000 1.86870000 0.52730000
-0.14650000 1.90090000 0.53250000
-0.15390000 1.88790000 0.50710000
-0.08020000 1.84800000 0.55350000
-0.08980000 1.87700000 0.55510000
-0.06990000 1.87110000 0.54250000
-0.06990000 1.82220000 0.54420000
-0.06490000 1.82630000 0.52920000
-0.06500000 1.88430000 0.51750000
-0.08070000 1.89550000 0.55030000
-0.09830000 1.92320000 0.55110000
-0.13320000 1.92310000 0.54060000
-0.11770000 1.97380000 0.54240000
-0.06980000 1.90310000 0.53900000
-0.08060000 1.92950000 0.54790000
-0.06520000 1.94730000 0.52270000
-0.09110000 1.96900000 0.54770000
-0.07030000 1.96810000 0.53710000
-0.12250000 1.79160000 0.54990000
-0.12890000 1.75810000 0.54890000
-0.14570000 1.77770000 0.53410000
-0.14960000 1.80660000 0.52100000
-0.14390000 1.82090000 0.53440000
-0.07170000 1.79000000 0.54870000
-0.14910000 1.75870000 0.52790000
-0.14730000 1.79050000 0.50560000
-0.13730000 1.80270000 0.48760000
-0.15090000 1.85060000 0.51670000
-0.14790000 1.84070000 0.50340000
-0.14110000 1.90140000 0.48100000
-0.06450000 1.77600000 0.43410000
-0.12320000 1.87910000 0.45820000
-0.06580000 2.01820000 0.46930000
-0.10760000 1.60240000 0.43300000
-0.13570000 1.72650000 0.48890000
-0.11090000 1.82690000 0.43400000
-0.10610000 1.81950000 0.38660000
-0.10390000 1.61590000 0.30780000
-0.10330000 1.83930000 0.31760000
-0.10180000 2.69020000 0.49260000
-0.08150000 2.69430000 0.48830000
-0.09630000 2.72310000 0.49000000
-0.10690000 2.65680000 0.49220000
-0.08430000 2.65940000 0.49180000
-0.12430000 2.69780000 0.48060000
-0.07280000 2.66590000 0.47460000
-0.07650000 2.73460000 0.47620000
-0.07210000 2.73380000 0.45740000
-0.11840000 2.75330000 0.47720000
-0.08490000 2.74090000 0.48560000
-0.09680000 2.76240000 0.48650000
-0.08280000 2.77620000 0.48100000
-0.08890000 2.80800000 0.48080000
-0.11230000 2.78690000 0.47880000
-0.10190000 2.83000000 0.47860000
-0.13500000 2.77380000 0.46370000
-0.13400000 2.73550000 0.46840000
-0.13950000 2.70250000 0.46690000
-0.14480000 2.76880000 0.44970000
-0.14560000 2.73230000 0.45280000
-0.14680000 2.75490000 0.43530000
-0.07460000 2.80930000 0.46150000
-0.07250000 2.87050000 0.42920000
-0.07260000 2.65500000 0.38860000
-0.07520000 2.91710000 0.38290000
-0.11150000 2.86800000 0.47380000
-0.12800000 2.82900000 0.46550000
-0.07890000 2.84750000 0.46700000
-0.08950000 2.86900000 0.47570000
-0.10210000 2.89050000 0.47540000
-0.13310000 2.89750000 0.45900000
-0.11680000 2.91550000 0.46740000
-0.14110000 2.87970000 0.45000000
-0.07320000 2.86750000 0.44880000
-0.07790000 2.87780000 0.46280000
-0.09230000 2.91280000 0.47120000
-0.07330000 2.90630000 0.44490000
-0.07980000 2.92760000 0.46070000
-0.09190000 2.95180000 0.46730000
-0.10790000 2.97620000 0.46340000
-0.11150000 2.94680000 0.46590000
-0.13670000 2.94590000 0.45160000
-0.12590000 2.99730000 0.45330000
-0.14650000 2.98350000 0.43220000
-0.14620000 2.93110000 0.44080000
-0.14760000 2.90060000 0.42400000
-0.14810000 2.96050000 0.41550000
-0.13630000 2.93550000 0.39730000
-0.14240000 2.80260000 0.45130000
-0.14430000 2.84990000 0.44520000
-0.14650000 2.81610000 0.43170000
-0.14220000 2.85120000 0.41600000
-0.13990000 2.76330000 0.41850000
-0.13730000 2.81220000 0.40990000
-0.11300000 2.82800000 0.37580000
-0.12400000 2.88530000 0.38690000
-0.14250000 3.01350000 0.43710000
-0.14840000 3.00980000 0.41460000
-0.14240000 2.99140000 0.40050000
-0.09970000 2.29680000 0.52690000
-0.08770000 2.30860000 0.52570000
-0.10680000 2.34240000 0.51960000
-0.13300000 2.33450000 0.50990000
-0.13390000 2.41860000 0.50040000
-0.14050000 2.01660000 0.52720000
-0.13300000 2.04870000 0.52910000
-0.15140000 2.03940000 0.51440000
-0.14960000 2.07450000 0.51250000
-0.15390000 2.05700000 0.49830000
-0.08240000 2.13760000 0.53700000
-0.09510000 2.16750000 0.53670000
-0.10290000 2.13290000 0.53600000
-0.11730000 2.17210000 0.52830000
-0.06860000 2.14650000 0.52530000
-0.08070000 2.17500000 0.53400000
-0.06460000 2.15870000 0.51070000
-0.07120000 2.19430000 0.52460000
-0.06600000 2.19220000 0.49500000
-0.08250000 2.05630000 0.54200000
-0.09690000 2.08480000 0.54040000
-0.11400000 2.06830000 0.53600000
-0.06830000 2.06540000 0.53130000
-0.08110000 2.09410000 0.53890000
-0.06340000 2.08730000 0.51760000
-0.08140000 2.01300000 0.54360000
-0.09830000 2.03010000 0.54380000
-0.06340000 2.02730000 0.51680000
-0.07010000 2.03320000 0.53500000
-0.12610000 2.10250000 0.52830000
-0.15220000 2.13680000 0.50210000
-0.14380000 2.10280000 0.51770000
-0.14160000 2.14500000 0.51550000
-0.07030000 2.11390000 0.53010000
-0.15360000 2.10510000 0.49640000
-0.14960000 2.08730000 0.48160000
-0.06290000 2.11080000 0.49930000
-0.06820000 2.18200000 0.45790000
-0.13270000 2.21130000 0.52020000
-0.14800000 2.19230000 0.51020000
-0.15660000 2.22290000 0.49240000
-0.15150000 2.24090000 0.50300000
-0.08180000 2.21850000 0.53270000
-0.09460000 2.24870000 0.53250000
-0.10380000 2.21990000 0.53180000
-0.11870000 2.27780000 0.52100000
-0.13740000 2.25820000 0.51330000
-0.07400000 2.24070000 0.52430000
-0.08470000 2.26430000 0.53020000
-0.07230000 2.27450000 0.51940000
-0.06850000 2.25220000 0.51000000
-0.06730000 2.21760000 0.51010000
-0.06780000 2.24950000 0.48530000
-0.15050000 2.28220000 0.50100000
-0.14240000 2.30560000 0.50620000
-0.15600000 2.30410000 0.48780000
-0.15520000 2.34050000 0.48810000
-0.15590000 2.35150000 0.46950000
-0.15570000 2.26810000 0.48710000
-0.15460000 2.24560000 0.47780000
-0.14670000 2.30160000 0.45540000
-0.15410000 2.29130000 0.47090000
-0.15450000 2.17850000 0.49690000
-0.15320000 2.14810000 0.48320000
-0.15380000 2.21090000 0.47660000
-0.14320000 2.16460000 0.46150000
-0.14300000 2.22950000 0.45710000
-0.11900000 2.17690000 0.42650000
-0.12730000 2.34830000 0.42580000
-0.11400000 2.25640000 0.40480000
-0.14990000 2.37570000 0.49360000
-0.15500000 2.39320000 0.47810000
-0.14920000 2.38230000 0.45170000
-0.07450000 2.32370000 0.51550000
-0.08870000 2.34850000 0.52030000
-0.06930000 2.36910000 0.49720000
-0.07430000 2.35670000 0.50890000
-0.10360000 2.37120000 0.51660000
-0.08760000 2.38480000 0.51480000
-0.07700000 2.40360000 0.50820000
-0.06920000 2.41710000 0.48900000
-0.06580000 2.39610000 0.44410000
-0.06840000 2.32320000 0.42960000
-0.06740000 2.29860000 0.49740000
-0.06850000 2.41860000 0.41960000
-0.06910000 2.22180000 0.37720000
-0.11480000 2.41580000 0.40030000
-0.10850000 2.34490000 0.37890000
-0.10870000 2.25820000 0.35340000
-0.10580000 2.18200000 0.37920000
-0.07340000 2.37600000 0.33260000
-0.07140000 2.35280000 0.23080000
-0.07430000 2.47260000 0.49940000
-0.09200000 2.51410000 0.50670000
-0.09950000 2.48290000 0.50880000
-0.07000000 2.50900000 0.49190000
-0.10710000 2.57530000 0.49720000
-0.08250000 2.57500000 0.49700000
-0.09760000 2.62110000 0.49490000
-0.08220000 2.61360000 0.49260000
-0.07180000 2.58840000 0.48450000
-0.07950000 2.53100000 0.50180000
-0.09200000 2.55350000 0.50270000
-0.11610000 2.54390000 0.49660000
-0.12360000 2.51050000 0.49750000
-0.14030000 2.55430000 0.48040000
-0.07050000 2.54140000 0.49100000
-0.06550000 2.54640000 0.47320000
-0.09200000 2.43230000 0.51210000
-0.11010000 2.43460000 0.50930000
-0.07990000 2.45010000 0.50670000
-0.13350000 2.47990000 0.49450000
-0.14770000 2.45580000 0.48440000
-0.15290000 2.42900000 0.47860000
-0.14670000 2.41800000 0.49000000
-0.15410000 2.41940000 0.46130000
-0.14810000 2.50750000 0.47630000
-0.15230000 2.48900000 0.46390000
-0.15070000 2.55240000 0.45870000
-0.14680000 2.49990000 0.44610000
-0.15360000 2.45250000 0.46030000
-0.14480000 2.43710000 0.44260000
-0.12870000 2.51920000 0.41890000
-0.06710000 2.47260000 0.47570000
-0.06260000 2.51350000 0.44920000
-0.06560000 2.49500000 0.41150000
-0.14270000 2.55090000 0.43490000
-0.11170000 2.57250000 0.39010000
-0.12440000 2.61530000 0.48750000
-0.13900000 2.65440000 0.47370000
-0.14630000 2.60910000 0.46920000
-0.15040000 2.63330000 0.45420000
-0.14930000 2.59270000 0.44470000
-0.14210000 2.61990000 0.43130000
-0.14680000 2.68740000 0.45470000
-0.14210000 2.68110000 0.42820000
-0.12730000 2.69530000 0.40640000
-0.11550000 2.63990000 0.39360000
-0.06680000 2.60120000 0.46380000
-0.06600000 2.62380000 0.43750000
-0.06800000 2.60850000 0.40950000
-0.07300000 2.63780000 0.47950000
-0.14650000 2.72050000 0.43500000
-0.10870000 2.73160000 0.37690000
-0.10470000 2.60640000 0.36390000
-0.07110000 2.49020000 0.34800000
-0.10380000 2.67930000 0.36930000
-0.10760000 2.44720000 0.36590000
-0.10340000 2.42820000 0.30080000
-0.10160000 2.59570000 0.32160000
-0.10440000 2.34860000 0.33140000
-0.10820000 2.30830000 0.31000000
-0.09950000 2.37650000 0.28720000
-0.07070000 2.46370000 0.25570000
-0.10240000 2.49000000 0.25810000
-0.07330000 2.57090000 0.29580000
-0.07180000 2.61320000 0.20400000
-0.09670000 2.61080000 0.23050000
-0.09850000 2.60490000 0.17970000
-0.10440000 2.47840000 0.15970000
-0.06720000 2.53310000 0.16310000
-0.09680000 2.69080000 0.13670000
-0.06710000 2.57410000 -0.00090000
-0.06730000 2.67130000 0.12700000
-0.14740000 1.94150000 0.53240000
-0.14120000 1.97480000 0.53310000
-0.15610000 1.95430000 0.52200000
-0.15730000 1.97920000 0.50640000
-0.15300000 1.99780000 0.51730000
-0.14930000 2.00660000 0.48350000
-0.15840000 1.92450000 0.51770000
-0.15870000 1.94450000 0.50510000
-0.15360000 1.91870000 0.49520000
-0.15270000 1.96960000 0.49270000
-0.13520000 1.97400000 0.46540000
-0.15550000 2.02480000 0.50070000
-0.14990000 2.05180000 0.48290000
-0.11620000 1.96240000 0.43250000
-0.11960000 2.01900000 0.43840000
-0.06500000 1.87380000 0.34320000
-0.12830000 2.07490000 0.44670000
-0.11280000 2.05870000 0.41730000
-0.11180000 2.13520000 0.41090000
-0.10820000 2.11210000 0.38110000
-0.06990000 2.19260000 0.29960000
-0.06560000 2.13700000 0.20660000
-0.10960000 1.97210000 0.40330000
-0.06830000 2.00250000 0.30330000
-0.10290000 1.97210000 0.31840000
-0.10640000 2.02400000 0.30730000
-0.10380000 2.11790000 0.29580000
-0.09990000 2.17110000 0.30920000
-0.10770000 2.08180000 0.30630000
-0.10110000 1.87500000 0.12390000
-0.06230000 1.87390000 0.12790000
-0.06580000 1.99700000 0.13130000
-0.10480000 2.10940000 0.18930000
-0.10040000 1.96420000 0.10340000
-0.06690000 2.28070000 0.22940000
-0.10010000 2.14550000 0.24470000
-0.10360000 2.23980000 0.27200000
-0.09930000 2.18690000 0.22820000
-0.10420000 2.24360000 0.17090000
-0.06620000 2.22060000 0.10120000
-0.06180000 2.07470000 0.10300000
-0.10150000 2.18340000 0.14110000
-0.10050000 2.07740000 0.04360000
-0.06350000 2.17140000 -0.04190000
-0.10610000 2.29630000 0.19530000
-0.10110000 2.34590000 0.20190000
-0.10260000 2.40680000 0.18180000
-0.06750000 2.39380000 0.17710000
-0.10220000 2.44130000 0.05640000
-0.09940000 2.39680000 0.06820000
-0.09910000 2.54310000 0.07470000
-0.06530000 2.45340000 0.04260000
-0.06840000 2.50650000 0.10310000
-0.09390000 2.64530000 0.03380000
-0.06820000 2.36620000 0.01890000
-0.06300000 2.24620000 0.02260000
-0.06420000 2.28370000 -0.03110000
-0.10340000 2.25290000 0.03610000
-0.10020000 2.32060000 0.03750000
-0.09950000 2.17740000 -0.00990000
-0.09670000 2.40310000 0.00130000
-0.09620000 2.37120000 -0.03910000
-0.06430000 2.41700000 -0.04450000
-0.10130000 2.42860000 -0.08930000
-0.09950000 2.48910000 -0.02580000
-0.09500000 2.31810000 -0.05770000
-0.06600000 2.37180000 -0.08870000
-0.05870000 2.43030000 -0.12300000
-0.09990000 2.55020000 -0.12920000
-0.09790000 2.61390000 -0.12320000
-0.09630000 2.43570000 -0.16970000
-0.09450000 3.33150000 0.42990000
-0.10790000 3.36960000 0.42220000
-0.11130000 3.34180000 0.42740000
-0.12620000 3.36460000 0.41550000
-0.13150000 3.39360000 0.40340000
-0.08460000 3.36980000 0.41540000
-0.09430000 3.40290000 0.41350000
-0.07980000 3.39350000 0.40210000
-0.10690000 3.44540000 0.40690000
-0.11290000 3.41440000 0.41000000
-0.08490000 3.45370000 0.39780000
-0.07390000 3.40520000 0.38280000
-0.11330000 3.55820000 0.39470000
-0.10890000 3.52350000 0.40050000
-0.09590000 3.54370000 0.39940000
-0.08540000 3.55270000 0.38970000
-0.08910000 3.58800000 0.38730000
-0.10150000 3.60900000 0.38830000
-0.12310000 3.57310000 0.38600000
-0.12000000 3.61230000 0.38080000
-0.13270000 3.58700000 0.37510000
-0.13600000 3.61200000 0.35960000
-0.13350000 3.44400000 0.39390000
-0.12450000 3.48050000 0.39630000
-0.14320000 3.43020000 0.38270000
-0.14380000 3.47910000 0.37750000
-0.14830000 3.46620000 0.35980000
-0.10270000 3.47280000 0.40290000
-0.09390000 3.49860000 0.40070000
-0.12920000 3.52800000 0.38880000
-0.14180000 3.51090000 0.37690000
-0.07760000 3.49670000 0.38040000
-0.08510000 3.52000000 0.39370000
-0.07810000 3.53370000 0.37870000
-0.07420000 3.49970000 0.36350000
-0.07170000 3.43710000 0.34940000
-0.07590000 3.47980000 0.30570000
-0.07690000 3.51990000 0.31120000
-0.14640000 3.52570000 0.35450000
-0.14010000 3.56330000 0.36790000
-0.14000000 3.58920000 0.35110000
-0.14080000 3.54670000 0.33820000
-0.12520000 3.55020000 0.31120000
-0.13480000 3.47310000 0.31190000
-0.07660000 3.57940000 0.36590000
-0.10760000 3.64020000 0.38370000
-0.07970000 3.62700000 0.37290000
-0.09050000 3.64720000 0.38090000
-0.07640000 3.65000000 0.35890000
-0.08230000 3.65900000 0.37010000
-0.07300000 3.63000000 0.33460000
-0.07420000 3.57420000 0.33500000
-0.07580000 3.61730000 0.31380000
-0.08230000 3.57590000 0.30260000
-0.08000000 3.53390000 0.29680000
-0.08390000 3.55700000 0.29440000
-0.11220000 3.57660000 0.30340000
-0.09650000 3.58700000 0.29740000
-0.08450000 3.61580000 0.30160000
-0.09610000 3.03650000 0.45900000
-0.10300000 3.00670000 0.46200000
-0.08210000 3.00720000 0.45490000
-0.07450000 3.04260000 0.43260000
-0.08300000 3.17040000 0.44040000
-0.08840000 3.20280000 0.44230000
-0.10080000 3.16510000 0.44920000
-0.10630000 3.21300000 0.44350000
-0.12600000 3.19580000 0.43620000
-0.07540000 3.19660000 0.41580000
-0.10110000 3.24630000 0.44310000
-0.07950000 3.24190000 0.42740000
-0.11120000 3.07560000 0.45200000
-0.08290000 3.08940000 0.44610000
-0.09660000 3.11780000 0.45170000
-0.12570000 3.11460000 0.43990000
-0.13030000 3.05770000 0.44360000
-0.14150000 3.09720000 0.42890000
-0.14520000 3.06340000 0.42650000
-0.08340000 3.05670000 0.45070000
-0.09670000 3.07780000 0.45460000
-0.07550000 3.08010000 0.43150000
-0.12060000 3.14850000 0.44270000
-0.14640000 3.13540000 0.41570000
-0.14190000 3.17800000 0.42470000
-0.15010000 3.18790000 0.40740000
-0.14810000 3.12650000 0.39930000
-0.07810000 3.12890000 0.43550000
-0.08500000 3.13590000 0.44610000
-0.07380000 3.11680000 0.40320000
-0.07510000 3.24580000 0.33170000
-0.14190000 3.16640000 0.38010000
-0.07260000 3.29680000 0.37880000
-0.08310000 2.97270000 0.45960000
-0.07560000 2.96820000 0.44670000
-0.07370000 2.99780000 0.42490000
-0.10610000 2.94180000 0.35360000
-0.11630000 3.00520000 0.36380000
-0.14840000 3.04510000 0.41570000
-0.14640000 3.05170000 0.40120000
-0.13620000 3.08120000 0.37930000
-0.11600000 3.09910000 0.34750000
-0.10830000 3.02730000 0.34240000
-0.12190000 3.15560000 0.35360000
-0.07300000 3.26120000 0.25170000
-0.07080000 3.08240000 0.22900000
-0.08880000 3.26370000 0.43740000
-0.10660000 3.29500000 0.43590000
-0.12010000 3.26980000 0.43580000
-0.13700000 3.29190000 0.42090000
-0.12820000 3.32400000 0.42040000
-0.13200000 3.24350000 0.43100000
-0.14610000 3.24350000 0.41800000
-0.15080000 3.27310000 0.40040000
-0.14570000 3.32540000 0.40180000
-0.14680000 3.30790000 0.37700000
-0.15060000 3.23140000 0.39480000
-0.13850000 3.20620000 0.37060000
-0.12480000 3.21220000 0.35000000
-0.11910000 3.23320000 0.33360000
-0.13560000 3.30420000 0.35380000
-0.08080000 3.27450000 0.42610000
-0.08790000 3.29960000 0.43120000
-0.07500000 3.31120000 0.40220000
-0.07890000 3.33320000 0.41290000
-0.07570000 3.27110000 0.40880000
-0.14070000 3.35940000 0.40270000
-0.14690000 3.37710000 0.38090000
-0.14620000 3.41150000 0.35850000
-0.07380000 3.40490000 0.29870000
-0.12110000 3.26920000 0.32340000
-0.13160000 3.35090000 0.32300000
-0.12430000 3.26550000 0.27900000
-0.11670000 3.23710000 0.29020000
-0.12880000 3.30970000 0.27640000
-0.07570000 3.34440000 0.25240000
-0.07680000 3.37860000 0.25430000
-0.08310000 3.35870000 0.23250000
-0.13880000 3.42170000 0.31960000
-0.07760000 3.45990000 0.27900000
-0.11290000 3.46470000 0.27090000
-0.10740000 3.50520000 0.27960000
-0.09870000 3.47880000 0.26610000
-0.12740000 3.33950000 0.26660000
-0.11580000 3.36120000 0.24630000
-0.10970000 3.40160000 0.24930000
-0.07930000 3.41750000 0.25920000
-0.10130000 3.43850000 0.25390000
-0.08530000 3.45440000 0.25980000
-0.09350000 3.41320000 0.24490000
-0.11570000 3.29620000 0.21980000
-0.10110000 3.36830000 0.23170000
-0.08500000 3.38800000 0.23870000
-0.10980000 3.16800000 0.33200000
-0.11130000 3.19760000 0.30780000
-0.11610000 3.19120000 0.26130000
-0.12670000 3.22440000 0.22960000
-0.12040000 3.24310000 0.20380000
-0.07320000 3.26830000 0.22270000
-0.07790000 3.32210000 0.22580000
-0.10270000 3.30870000 0.20870000
-0.09520000 3.34220000 0.22150000
-0.08210000 3.30570000 0.20950000
-0.09020000 3.26860000 0.18350000
-0.07500000 3.24860000 0.19140000
-0.12310000 3.13480000 0.21750000
-0.12700000 3.13930000 0.15800000
-0.10510000 3.24270000 0.17620000
-0.12200000 3.17500000 0.16050000
-0.11170000 3.18380000 0.14360000
-0.09560000 3.19470000 0.13850000
-0.06900000 3.17120000 0.16660000
-0.08200000 3.20660000 0.15310000
-0.07430000 3.18330000 0.14930000
-0.08380000 3.24350000 0.17350000
-0.08080000 3.49880000 0.28410000
-0.08860000 3.48500000 0.27030000
-0.09930000 3.53890000 0.28420000
-0.09150000 3.51420000 0.27780000
-0.06720000 2.68580000 0.02900000
-0.06140000 2.49270000 -0.08710000
-0.06360000 2.54880000 -0.07080000
-0.05080000 2.53010000 -0.12570000
-0.04850000 2.48480000 -0.15020000
-0.10420000 2.93520000 0.03910000
-0.12120000 3.00760000 0.06620000
-0.11250000 2.94660000 0.00050000
-0.09940000 2.88990000 -0.08690000
-0.09210000 2.86870000 -0.03910000
-0.06240000 3.02700000 -0.00630000
-0.06320000 3.05230000 0.11760000
-0.06180000 2.97520000 0.02810000
-0.11720000 2.93670000 -0.09370000
-0.06550000 2.90560000 -0.00670000
-0.06220000 2.91190000 -0.13190000
-0.08950000 3.15170000 0.10120000
-0.11790000 3.10340000 0.09160000
-0.06610000 3.09540000 0.07780000
-0.10430000 3.10850000 0.06970000
-0.07040000 3.14380000 0.12110000
-0.08120000 3.15830000 0.11330000
-0.07610000 3.11260000 0.07130000
-0.12680000 3.07020000 0.10870000
-0.12390000 3.02970000 0.03060000
-0.08500000 3.09650000 0.04460000
-0.11630000 3.03300000 0.00390000
-0.06990000 3.04420000 -0.01490000
-0.09970000 3.06000000 0.00810000
-0.09010000 3.05130000 -0.01920000
-0.11000000 2.99630000 -0.07490000
-0.09740000 3.01140000 -0.08160000
-0.11680000 2.94690000 -0.12250000
-0.06880000 3.00960000 -0.08170000
-0.07970000 3.01650000 -0.08990000
-0.08620000 3.00210000 -0.12010000
-0.05460000 2.70340000 -0.13150000
-0.06000000 2.76000000 -0.11750000
-0.06520000 2.75350000 -0.08220000
-0.09450000 2.84190000 -0.16410000
-0.06050000 2.95460000 -0.15110000
-0.06390000 2.84280000 -0.13340000
-0.05720000 2.82710000 -0.18030000
-0.04990000 2.74970000 -0.15780000
-0.10020000 2.85590000 -0.22620000
-0.05740000 2.88390000 -0.24840000
-0.09500000 2.58920000 -0.06430000
-0.06550000 2.62460000 -0.09530000
-0.05190000 2.57400000 -0.13660000
-0.09490000 2.72050000 -0.07800000
-0.09320000 2.74040000 -0.18590000
-0.05800000 2.65000000 -0.13360000
-0.04760000 2.68530000 -0.17860000
-0.09180000 2.53250000 -0.20590000
-0.09470000 2.60020000 -0.18920000
-0.04780000 2.55750000 -0.17910000
-0.05120000 2.56770000 -0.26100000
-0.09020000 2.67580000 -0.31040000
-0.05220000 2.71430000 -0.22100000
-0.05410000 2.66700000 -0.30280000
-0.05150000 2.80020000 -0.21400000
-0.05320000 2.82550000 -0.27520000
-0.05660000 2.74670000 -0.27860000
-0.09390000 2.78280000 -0.24010000
-0.08990000 2.79330000 -0.29840000
-0.10690000 2.86990000 -0.29480000
-0.09610000 2.83390000 -0.35550000
-0.05270000 2.82670000 -0.37650000
-0.08780000 2.80400000 -0.34830000
-0.05730000 2.74140000 -0.39340000
-0.10640000 2.96390000 -0.15870000
-0.06460000 2.97590000 -0.15160000
-0.07580000 2.98200000 -0.17460000
-0.09780000 2.96890000 -0.18350000
-0.08310000 2.97760000 -0.19370000
-0.11270000 2.89260000 -0.29860000
-0.11370000 2.92240000 -0.22530000
-0.09280000 2.96060000 -0.23340000
-0.05900000 2.93560000 -0.24050000
-0.06510000 2.95720000 -0.23800000
-0.10130000 2.94170000 -0.28470000
-0.07870000 2.96640000 -0.24860000
-0.08790000 2.95970000 -0.27540000
-0.07100000 2.95900000 -0.27730000
-0.10960000 2.91510000 -0.32800000
-0.05590000 2.92130000 -0.31310000
-0.08120000 2.96050000 -0.31130000
-0.08920000 2.95050000 -0.33970000
-0.10840000 2.90010000 -0.41070000
-0.10820000 2.86630000 -0.42680000
-0.09740000 2.93110000 -0.38500000
-0.05900000 2.93790000 -0.33530000
-0.07240000 2.95410000 -0.34850000
-0.06030000 2.93980000 -0.38380000
-0.05300000 2.91530000 -0.42020000
-0.08290000 2.95000000 -0.37800000
-0.08920000 2.93980000 -0.40320000
-0.06680000 2.94710000 -0.41060000
-0.07910000 2.94900000 -0.42200000
-0.10080000 2.91580000 -0.45650000
-0.08490000 2.94170000 -0.44280000
-0.05880000 2.93420000 -0.44710000
-0.09100000 0.82600000 0.59960000
-0.07250000 0.87200000 0.60130000
-0.12230000 0.86430000 0.58970000
-0.08230000 0.92090000 0.60040000
-0.05070000 0.89200000 0.59790000
-0.06590000 0.92140000 0.60160000
-0.05190000 0.93590000 0.59680000
-0.03950000 0.89970000 0.58880000
-0.05580000 0.85800000 0.59790000
-0.04160000 0.86810000 0.58730000
-0.03300000 0.89010000 0.57210000
-0.06670000 0.78620000 0.60260000
-0.09910000 0.78500000 0.59910000
-0.08200000 0.75700000 0.60310000
-0.07990000 0.67410000 0.60760000
-0.06010000 0.67370000 0.60160000
-0.06540000 0.72940000 0.60330000
-0.10140000 0.69780000 0.60140000
-0.12230000 0.75830000 0.59170000
-0.13850000 0.74320000 0.58230000
-0.04870000 0.73670000 0.59290000
-0.05620000 0.77890000 0.59870000
-0.13120000 0.80930000 0.58900000
-0.14780000 0.82940000 0.57750000
-0.14600000 0.79010000 0.57800000
-0.15030000 0.77660000 0.56450000
-0.15280000 0.81990000 0.56080000
-0.14950000 0.80860000 0.54950000
-0.04440000 0.78670000 0.58780000
-0.05860000 0.82110000 0.59920000
-0.03930000 0.80150000 0.57420000
-0.04080000 0.72460000 0.57450000
-0.03900000 0.76210000 0.57190000
-0.04100000 0.76380000 0.54640000
-0.04420000 0.83600000 0.58620000
-0.03820000 0.84700000 0.56490000
-0.03510000 0.89650000 0.55140000
-0.04470000 0.87940000 0.52110000
-0.04770000 0.80210000 0.52420000
-0.07810000 0.99630000 0.59930000
-0.11050000 0.96990000 0.59160000
-0.14190000 0.90360000 0.57750000
-0.14290000 0.94500000 0.57810000
-0.13180000 0.93050000 0.58540000
-0.15090000 0.93560000 0.55760000
-0.13200000 1.01150000 0.58190000
-0.14760000 0.99270000 0.56930000
-0.13750000 0.97820000 0.57990000
-0.13140000 1.07950000 0.57870000
-0.14280000 1.02610000 0.57410000
-0.14390000 1.06500000 0.56970000
-0.14950000 1.03780000 0.56300000
-0.15130000 1.01000000 0.55740000
-0.14680000 1.03030000 0.54400000
-0.14940000 0.95650000 0.56760000
-0.14970000 0.98070000 0.55070000
-0.14360000 0.94590000 0.54010000
-0.12890000 1.00550000 0.51950000
-0.14300000 1.00530000 0.53670000
-0.14690000 0.87250000 0.57400000
-0.15190000 0.84810000 0.56630000
-0.15080000 0.88940000 0.55350000
-0.14370000 0.82980000 0.54030000
-0.13050000 0.85680000 0.52070000
-0.12230000 0.90440000 0.51020000
-0.10670000 0.90560000 0.47020000
-0.11330000 0.94520000 0.49240000
-0.06320000 0.99920000 0.59790000
-0.06910000 1.03660000 0.59740000
-0.05380000 1.03650000 0.58900000
-0.09500000 1.10110000 0.59160000
-0.08200000 1.07460000 0.59590000
-0.06770000 1.09480000 0.59360000
-0.05400000 1.10280000 0.58160000
-0.06530000 1.12680000 0.59010000
-0.04730000 1.06930000 0.56890000
-0.04400000 1.01180000 0.57440000
-0.05060000 1.11120000 0.56420000
-0.04970000 1.05180000 0.52820000
-0.04350000 1.02020000 0.54950000
-0.03460000 0.94030000 0.56750000
-0.04510000 0.96170000 0.58730000
-0.05210000 1.01820000 0.44790000
-0.05010000 0.96390000 0.49230000
-0.05020000 0.81530000 0.48370000
-0.05100000 0.75030000 0.39990000
-0.11220000 1.02690000 0.49580000
-0.10430000 1.04840000 0.47200000
-0.10210000 0.89870000 0.43030000
-0.07550000 0.44610000 0.62350000
-0.05750000 0.45490000 0.61700000
-0.06840000 0.49390000 0.62260000
-0.09310000 0.48340000 0.61810000
-0.06970000 0.38560000 0.61850000
-0.08910000 0.41930000 0.62030000
-0.06400000 0.41930000 0.61940000
-0.05370000 0.39690000 0.60730000
-0.04920000 0.41780000 0.59220000
-0.05240000 0.42810000 0.60780000
-0.04570000 0.47700000 0.60110000
-0.05480000 0.48750000 0.61760000
-0.04670000 0.45230000 0.59340000
-0.04340000 0.48550000 0.57200000
-0.04920000 0.46390000 0.55510000
-0.05730000 0.53360000 0.61630000
-0.06980000 0.55620000 0.61740000
-0.08180000 0.53290000 0.61750000
-0.08330000 0.59560000 0.61020000
-0.11240000 0.53120000 0.60480000
-0.04600000 0.54210000 0.60270000
-0.06020000 0.57740000 0.61160000
-0.04690000 0.57960000 0.59450000
-0.06580000 0.62540000 0.60620000
-0.11420000 0.63740000 0.59900000
-0.13580000 0.57470000 0.59310000
-0.14420000 0.62900000 0.58480000
-0.15190000 0.61440000 0.57380000
-0.15120000 0.48620000 0.58760000
-0.15500000 0.45270000 0.58290000
-0.13870000 0.46060000 0.59780000
-0.15650000 0.46700000 0.56120000
-0.14480000 0.54080000 0.58900000
-0.15240000 0.57940000 0.57860000
-0.15300000 0.56590000 0.55850000
-0.15260000 0.53350000 0.57830000
-0.15690000 0.50720000 0.57210000
-0.15000000 0.52040000 0.55110000
-0.04720000 0.51200000 0.60710000
-0.04180000 0.52270000 0.58330000
-0.04490000 0.57500000 0.57400000
-0.04840000 0.56100000 0.54410000
-0.15250000 0.59990000 0.55960000
-0.14190000 0.58460000 0.54150000
-0.12610000 0.55560000 0.52070000
-0.05310000 0.63990000 0.59530000
-0.04820000 0.63110000 0.57990000
-0.04760000 0.68150000 0.58360000
-0.04440000 0.70330000 0.55340000
-0.05030000 0.65740000 0.54660000
-0.05060000 0.64980000 0.45730000
-0.05920000 0.31490000 0.60710000
-0.07140000 0.34320000 0.61550000
-0.05220000 0.33820000 0.59750000
-0.05980000 0.36170000 0.61060000
-0.05130000 0.35840000 0.57730000
-0.05180000 0.37210000 0.59800000
-0.05290000 0.30340000 0.59480000
-0.05200000 0.28050000 0.58570000
-0.05180000 0.32150000 0.57080000
-0.05070000 0.39380000 0.57830000
-0.12000000 0.33840000 0.48430000
-0.14440000 0.42270000 0.54000000
-0.11960000 0.48120000 0.50420000
-0.10880000 0.59550000 0.49180000
-0.10470000 0.55660000 0.46490000
-0.11510000 0.44380000 0.48190000
-0.10650000 0.47740000 0.42780000
-0.10290000 0.47220000 0.37740000
-0.10920000 0.35950000 0.43310000
-0.12850000 0.70040000 0.59000000
-0.13990000 0.66100000 0.58620000
-0.14660000 0.72910000 0.57080000
-0.14590000 0.69330000 0.57450000
-0.14750000 0.71510000 0.55630000
-0.14890000 0.66860000 0.56250000
-0.14560000 0.64350000 0.54960000
-0.13870000 0.71270000 0.53990000
-0.12170000 0.67380000 0.51970000
-0.12780000 0.76310000 0.52050000
-0.04830000 0.73340000 0.49820000
-0.14690000 0.76100000 0.55030000
-0.11110000 0.76040000 0.48750000
-0.10460000 0.69840000 0.46210000
-0.10090000 0.66930000 0.40700000
-0.10100000 0.86170000 0.34040000
-0.10070000 0.72600000 0.25440000
-0.05320000 0.64240000 0.30690000
-0.10180000 0.49720000 0.28370000
-0.10250000 0.61220000 0.19730000
-0.10100000 0.76360000 0.15500000
-0.05390000 0.86020000 0.35880000
-0.05780000 1.20260000 0.31120000
-0.05220000 0.90490000 0.25170000
-0.04940000 0.78360000 0.28020000
-0.05140000 0.68260000 0.15410000
-0.10050000 0.93180000 0.23650000
-0.04940000 0.89170000 0.17350000
-0.09580000 0.90090000 0.04270000
-0.14910000 1.06210000 0.54710000
-0.10580000 1.17540000 0.58860000
-0.12500000 1.22450000 0.58080000
-0.13110000 1.19080000 0.57900000
-0.14810000 1.20390000 0.56540000
-0.15070000 1.23640000 0.55450000
-0.14240000 1.24500000 0.56860000
-0.06080000 1.19530000 0.58110000
-0.07980000 1.23640000 0.59100000
-0.08730000 1.20740000 0.59180000
-0.06700000 1.16940000 0.58860000
-0.08220000 1.15540000 0.59310000
-0.05450000 1.21810000 0.56610000
-0.06220000 1.24160000 0.58260000
-0.13540000 1.27840000 0.56840000
-0.11820000 1.25790000 0.58090000
-0.10200000 1.27360000 0.58500000
-0.06780000 1.27410000 0.58470000
-0.08660000 1.28790000 0.58730000
-0.05440000 1.25810000 0.56400000
-0.14610000 1.27290000 0.55420000
-0.14320000 1.26940000 0.53170000
-0.05390000 1.18460000 0.54140000
-0.13990000 1.14410000 0.57330000
-0.14280000 1.10770000 0.57130000
-0.14980000 1.09740000 0.54870000
-0.15060000 1.11960000 0.55810000
-0.14830000 1.14330000 0.54280000
-0.15020000 1.15550000 0.55880000
-0.13700000 1.09410000 0.52680000
-0.13930000 1.18100000 0.52590000
-0.14960000 1.17810000 0.54440000
-0.15030000 1.21220000 0.54490000
-0.05590000 1.14210000 0.57920000
-0.05280000 1.16270000 0.56580000
-0.05970000 1.33590000 0.42860000
-0.13500000 1.24270000 0.51910000
-0.11600000 1.12150000 0.49810000
-0.10850000 1.18510000 0.47770000
-0.11530000 1.30760000 0.48400000
-0.10660000 1.32390000 0.45820000
-0.10350000 1.20970000 0.45550000
-0.14250000 1.30700000 0.55560000
-0.14840000 1.36230000 0.54470000
-0.14560000 1.32260000 0.53440000
-0.13630000 1.34730000 0.51340000
-0.14850000 1.38580000 0.52850000
-0.05350000 1.30380000 0.55260000
-0.05530000 1.31060000 0.56610000
-0.11410000 1.42390000 0.47370000
-0.10350000 1.38400000 0.41150000
-0.10110000 1.24140000 0.42400000
-0.06160000 1.47650000 0.27420000
-0.10160000 1.10230000 0.45400000
-0.10060000 1.11690000 0.41090000
-0.10020000 1.14200000 0.24660000
-0.10150000 1.32280000 0.34700000
-0.10270000 1.33240000 0.26010000
-0.05000000 1.01340000 0.16450000
-0.05480000 1.06610000 0.18750000
-0.05490000 1.22820000 0.13550000
-0.09660000 1.11540000 0.01970000
-0.10250000 1.22020000 0.16680000
-0.10140000 1.36590000 0.14020000
-0.05810000 1.37380000 0.16800000
-0.05160000 1.06050000 0.03140000
-0.04790000 0.99300000 0.01340000
-0.04980000 0.89130000 0.06540000
-0.04960000 1.15430000 -0.05650000
-0.05900000 1.56480000 0.18930000
-0.09830000 1.71250000 0.10260000
-0.10200000 1.60420000 0.13840000
-0.05030000 1.49090000 0.12740000
-0.05000000 1.43780000 0.08750000
-0.05450000 1.57550000 0.11810000
-0.09730000 1.44790000 0.02170000
-0.04330000 1.53320000 0.07900000
-0.05660000 1.65100000 0.06010000
-0.05000000 1.57650000 0.08160000
-0.05300000 1.56510000 0.00560000
-0.05120000 1.27180000 -0.01140000
-0.05200000 1.40720000 0.03640000
-0.09620000 1.22950000 -0.05230000
-0.04590000 1.21650000 -0.10980000
-0.04250000 1.48480000 0.06770000
-0.04810000 1.49150000 0.01160000
-0.05370000 1.39450000 -0.04160000
-0.05290000 1.48290000 -0.06980000
-0.05520000 1.62470000 -0.02440000
-0.09550000 1.78110000 -0.06670000
-0.09550000 1.65750000 -0.08420000
-0.04950000 1.55500000 -0.11500000
-0.04950000 1.60610000 -0.08110000
-0.05640000 1.72070000 -0.04110000
-0.04260000 1.64130000 -0.10660000
-0.05040000 1.77200000 -0.10370000
-0.03760000 1.62070000 -0.17630000
-0.03950000 1.69530000 -0.13890000
-0.09170000 1.42650000 -0.08030000
-0.05050000 1.31040000 -0.09450000
-0.09160000 1.35950000 -0.14340000
-0.04280000 1.27680000 -0.16090000
-0.03860000 1.34020000 -0.17520000
-0.04790000 1.42030000 -0.13410000
-0.03970000 1.50160000 -0.17450000
-0.08910000 1.56920000 -0.18600000
-0.03990000 1.63680000 -0.23050000
-0.03310000 1.51600000 -0.23120000
-0.08830000 1.35430000 -0.22930000
-0.02460000 1.49830000 -0.27680000
-0.03090000 1.40810000 -0.24120000
-0.08320000 1.55640000 -0.28560000
-0.08410000 1.45100000 -0.27780000
-0.02600000 1.54080000 -0.26870000
-0.03540000 1.60730000 -0.26210000
-0.02960000 1.56520000 -0.30680000
-0.10420000 0.30780000 0.20950000
-0.09790000 0.36750000 0.07570000
-0.05420000 0.34040000 0.25100000
-0.05490000 0.17020000 0.19970000
-0.09920000 0.56980000 0.11020000
-0.05000000 0.38010000 0.00730000
-0.04970000 0.25200000 0.04010000
-0.05030000 0.12400000 0.03890000
-0.09130000 0.45620000 -0.12880000
-0.09720000 0.71570000 0.06530000
-0.04790000 0.70870000 -0.08870000
-0.05060000 0.52700000 -0.03940000
-0.09350000 0.62180000 -0.10570000
-0.09490000 0.79320000 -0.08570000
-0.09010000 0.75370000 -0.15340000
-0.04180000 0.76620000 -0.12020000
-0.04880000 0.82630000 -0.05730000
-0.04230000 0.72240000 -0.19470000
-0.05060000 0.07970000 0.10240000
-0.10230000 0.10210000 -0.01730000
-0.10450000 0.20550000 0.05610000
-0.10000000 0.26750000 0.07570000
-0.09740000 0.24190000 -0.07330000
-0.04780000 0.24530000 -0.11150000
-0.09810000 0.09480000 -0.21280000
-0.09250000 0.30070000 -0.13810000
-0.09500000 0.22530000 -0.20840000
-0.04830000 0.13750000 -0.21420000
-0.04510000 0.22860000 -0.23570000
-0.04240000 0.26470000 -0.17990000
-0.04920000 0.37280000 -0.11420000
-0.03690000 0.34310000 -0.19730000
-0.03700000 0.28400000 -0.23230000
-0.04580000 0.47670000 -0.14830000
-0.03970000 0.41650000 -0.17180000
-0.03520000 0.44020000 -0.20310000
-0.04520000 0.53460000 -0.21010000
-0.08850000 0.71950000 -0.20700000
-0.04240000 0.54580000 -0.28840000
-0.08910000 0.61420000 -0.23470000
-0.04040000 0.75590000 -0.27240000
-0.03840000 0.69290000 -0.33260000
-0.03510000 0.36140000 -0.24550000
-0.08910000 0.40950000 -0.23420000
-0.03860000 0.45810000 -0.24440000
-0.09370000 0.30570000 -0.25970000
-0.04180000 0.27850000 -0.28970000
-0.03990000 0.37810000 -0.30240000
-0.09440000 0.44090000 -0.27170000
-0.10160000 0.33540000 -0.29050000
-0.09230000 0.60540000 -0.26480000
-0.10060000 0.54180000 -0.29120000
-0.11780000 0.60900000 -0.32880000
-0.12040000 0.51530000 -0.33100000
-0.12290000 0.56340000 -0.34610000
-0.11370000 0.45270000 -0.31310000
-0.03650000 0.46980000 -0.35020000
-0.12610000 0.47630000 -0.34910000
-0.12640000 0.41380000 -0.34430000
-0.12680000 0.46220000 -0.36350000
-0.12300000 0.52760000 -0.36510000
-0.11600000 0.56540000 -0.37940000
-0.12180000 0.58800000 -0.36190000
-0.12030000 0.48330000 -0.37880000
-0.11050000 0.52780000 -0.38710000
-0.03240000 0.58320000 -0.36820000
-0.03440000 0.62860000 -0.39170000
-0.03340000 0.65290000 -0.36550000
-0.03370000 0.43390000 -0.36860000
-0.03340000 0.46840000 -0.37880000
-0.03660000 0.48990000 -0.39200000
-0.03250000 0.51470000 -0.37310000
-0.04400000 0.50650000 -0.40100000
-0.03430000 0.52120000 -0.38870000
-0.03290000 0.54930000 -0.38330000
-0.04060000 0.58030000 -0.39780000
-0.03360000 0.59320000 -0.38750000
-0.05180000 0.56840000 -0.40280000
-0.07060000 0.57400000 -0.40250000
-0.05880000 0.61700000 -0.40500000
-0.06490000 0.50180000 -0.40470000
-0.05800000 0.53470000 -0.40430000
-0.09130000 0.53390000 -0.39750000
-0.10750000 0.58630000 -0.38600000
-0.09170000 0.59580000 -0.39460000
-0.03900000 0.54130000 -0.39560000
-0.04560000 0.62850000 -0.40370000
-0.04970000 1.02470000 -0.10300000
-0.09530000 0.90670000 -0.02830000
-0.04620000 0.97850000 -0.12600000
-0.04510000 0.85430000 -0.07990000
-0.09300000 1.16950000 -0.12580000
-0.09310000 1.01640000 -0.13460000
-0.09760000 0.91180000 -0.08270000
-0.08960000 0.93860000 -0.19050000
-0.03750000 0.91290000 -0.13290000
-0.03330000 0.84790000 -0.13600000
-0.03440000 0.94370000 -0.19100000
-0.03290000 0.78710000 -0.17580000
-0.08670000 0.89670000 -0.24590000
-0.03160000 0.84720000 -0.20020000
-0.03600000 0.78670000 -0.22910000
-0.03780000 0.87870000 -0.25050000
-0.09150000 0.98470000 -0.28850000
-0.08900000 0.88480000 -0.26690000
-0.09230000 0.74070000 -0.25430000
-0.08860000 0.81040000 -0.26670000
-0.09720000 0.78930000 -0.29090000
-0.09800000 0.90140000 -0.29720000
-0.04010000 0.91980000 -0.30260000
-0.10430000 0.72080000 -0.29950000
-0.11820000 0.68150000 -0.33060000
-0.11440000 0.84060000 -0.32570000
-0.12000000 0.74490000 -0.33260000
-0.12380000 0.73470000 -0.34910000
-0.12290000 0.81340000 -0.35520000
-0.12270000 0.78030000 -0.36440000
-0.03230000 0.72660000 -0.37060000
-0.03430000 0.83840000 -0.36250000
-0.03310000 0.76940000 -0.37040000
-0.11740000 0.93010000 -0.33900000
-0.12250000 0.88440000 -0.35620000
-0.11880000 0.94030000 -0.37600000
-0.12060000 0.96950000 -0.36350000
-0.12230000 0.87770000 -0.36960000
-0.11520000 0.89920000 -0.38590000
-0.11790000 0.86630000 -0.38180000
-0.11840000 0.83060000 -0.37570000
-0.10730000 0.87410000 -0.39310000
-0.11310000 0.78940000 -0.38250000
-0.10340000 0.83220000 -0.39250000
-0.08590000 0.81880000 -0.39980000
-0.12320000 0.64440000 -0.35050000
-0.12240000 0.69830000 -0.36140000
-0.11990000 0.62440000 -0.37060000
-0.11850000 0.65430000 -0.37540000
-0.10920000 0.63380000 -0.38580000
-0.10850000 0.69730000 -0.38740000
-0.09340000 0.64080000 -0.39570000
-0.08770000 0.72450000 -0.39860000
-0.11770000 0.72140000 -0.37640000
-0.03180000 0.68730000 -0.37710000
-0.03440000 0.74280000 -0.38850000
-0.03490000 0.71310000 -0.39240000
-0.05000000 0.73200000 -0.40250000
-0.03470000 0.67390000 -0.39170000
-0.04020000 0.66210000 -0.40090000
-0.05530000 0.66010000 -0.40690000
-0.07120000 0.65860000 -0.40500000
-0.05030000 0.69310000 -0.40500000
-0.06320000 0.74350000 -0.40410000
-0.10490000 0.75040000 -0.39100000
-0.04100000 0.76030000 -0.39720000
-0.05160000 0.77600000 -0.40310000
-0.06730000 0.80290000 -0.40340000
-0.04510000 1.18330000 -0.17820000
-0.08950000 1.09850000 -0.19530000
-0.04530000 1.04670000 -0.20060000
-0.04500000 1.14450000 -0.23910000
-0.03630000 0.97100000 -0.24950000
-0.04010000 1.05950000 -0.27910000
-0.08870000 1.08220000 -0.27570000
-0.09470000 1.14840000 -0.30130000
-0.10410000 1.02790000 -0.31620000
-0.03740000 1.02300000 -0.34380000
-0.03770000 1.24040000 -0.21980000
-0.08790000 1.17300000 -0.25640000
-0.04060000 1.23570000 -0.27590000
-0.08730000 1.36900000 -0.29050000
-0.09220000 1.26710000 -0.29440000
-0.03500000 1.31420000 -0.22470000
-0.03900000 1.32560000 -0.28700000
-0.03150000 1.40200000 -0.28010000
-0.03880000 1.20020000 -0.34110000
-0.03460000 1.34370000 -0.38650000
-0.03770000 1.40070000 -0.36640000
-0.09090000 1.39910000 -0.31680000
-0.03440000 1.44400000 -0.32320000
-0.08390000 1.49640000 -0.30940000
-0.03820000 1.54750000 -0.35840000
-0.09080000 1.51470000 -0.33670000
-0.10210000 1.45650000 -0.35180000
-0.11220000 1.36170000 -0.35520000
-0.12020000 1.44210000 -0.38880000
-0.12010000 1.42100000 -0.41260000
-0.12150000 1.37080000 -0.38340000
-0.03380000 1.41340000 -0.40540000
-0.03770000 1.55850000 -0.40420000
-0.11240000 1.10910000 -0.33670000
-0.10340000 1.19340000 -0.32450000
-0.11320000 1.27070000 -0.34690000
-0.11710000 1.16470000 -0.35290000
-0.11700000 1.23140000 -0.36000000
-0.11970000 1.22120000 -0.37670000
-0.11940000 1.06940000 -0.35080000
-0.11910000 1.01880000 -0.35390000
-0.11860000 1.05470000 -0.37780000
-0.12050000 1.11450000 -0.36760000
-0.03340000 1.10970000 -0.37110000
-0.11440000 1.10660000 -0.38830000
-0.11900000 1.16630000 -0.37710000
-0.11410000 1.18760000 -0.39310000
-0.10410000 1.21010000 -0.40600000
-0.10640000 1.14640000 -0.40030000
-0.09500000 1.09580000 -0.40530000
-0.07650000 1.18320000 -0.41550000
-0.07550000 1.10500000 -0.41260000
-0.06020000 1.14520000 -0.41510000
-0.12090000 1.27060000 -0.38610000
-0.11620000 1.25930000 -0.39910000
-0.03360000 1.26540000 -0.38540000
-0.03320000 1.23170000 -0.39390000
-0.03270000 1.18430000 -0.38280000
-0.03520000 1.25580000 -0.41050000
-0.04150000 1.28670000 -0.42200000
-0.03490000 1.29940000 -0.41310000
-0.03430000 1.16650000 -0.39910000
-0.03850000 1.13650000 -0.40420000
-0.03130000 1.08390000 -0.38690000
-0.04630000 1.10830000 -0.41150000
-0.03500000 1.07900000 -0.40430000
-0.10070000 1.26570000 -0.41560000
-0.05940000 1.20280000 -0.41890000
-0.06840000 1.24180000 -0.42230000
-0.03810000 1.21740000 -0.40890000
-0.04640000 1.18970000 -0.41460000
-0.05130000 1.23750000 -0.42090000
-0.05290000 1.29480000 -0.42800000
-0.12200000 1.29680000 -0.37750000
-0.12010000 1.35320000 -0.40110000
-0.11470000 1.30340000 -0.41020000
-0.10450000 1.34290000 -0.42380000
-0.09160000 1.31810000 -0.42660000
-0.07430000 1.28890000 -0.42720000
-0.11910000 1.38760000 -0.41190000
-0.10950000 1.37390000 -0.42280000
-0.03280000 1.31280000 -0.39850000
-0.03680000 1.34630000 -0.42060000
-0.03490000 1.38050000 -0.41760000
-0.04940000 1.38380000 -0.43530000
-0.04630000 1.33410000 -0.42940000
-0.06460000 1.35500000 -0.43550000
-0.09080000 1.37520000 -0.43340000
-0.08750000 1.42640000 -0.44210000
-0.11140000 1.40770000 -0.42680000
-0.10100000 1.45080000 -0.44100000
-0.04220000 1.40520000 -0.43240000
-0.03660000 1.42790000 -0.42450000
-0.05490000 1.43060000 -0.44270000
-0.06950000 1.41910000 -0.44320000
-0.06640000 1.46810000 -0.45070000
-0.03550000 1.47630000 -0.41970000
-0.04790000 1.46220000 -0.44340000
-0.04330000 1.49720000 -0.44510000
-0.03410000 0.81350000 -0.38650000
-0.04300000 0.79940000 -0.39880000
-0.03330000 0.77340000 -0.38460000
-0.03320000 0.84680000 -0.38430000
-0.04630000 0.85000000 -0.40250000
-0.06110000 0.83720000 -0.40500000
-0.03350000 0.91760000 -0.36820000
-0.11390000 0.99330000 -0.38490000
-0.10650000 0.92220000 -0.39350000
-0.10130000 0.97350000 -0.39830000
-0.10810000 1.03280000 -0.39540000
-0.07980000 1.01070000 -0.41140000
-0.08340000 0.94620000 -0.40640000
-0.03100000 1.00610000 -0.38000000
-0.03150000 0.96530000 -0.39110000
-0.03250000 0.92800000 -0.38890000
-0.04040000 0.96140000 -0.40920000
-0.03330000 1.03790000 -0.40790000
-0.03010000 1.01760000 -0.39920000
-0.04540000 1.05070000 -0.41710000
-0.03350000 0.99210000 -0.40600000
-0.05760000 0.96860000 -0.41560000
-0.03820000 1.00290000 -0.41420000
-0.05070000 1.01710000 -0.41970000
-0.06580000 1.04580000 -0.41710000
-0.06940000 0.87980000 -0.40710000
-0.03220000 0.88520000 -0.38530000
-0.03810000 0.91310000 -0.40090000
-0.04280000 0.88030000 -0.40320000
-0.06020000 0.91830000 -0.41040000
-0.05070000 0.93830000 -0.41180000
-0.05030000 1.07530000 -0.41520000
-0.09430000 1.89630000 -0.03680000
-0.06140000 1.93740000 -0.01790000
-0.06000000 2.05190000 -0.07190000
-0.05590000 1.87730000 -0.10730000
-0.09660000 2.03840000 -0.14280000
-0.06070000 1.98010000 -0.14780000
-0.05980000 2.06290000 -0.14550000
-0.09160000 1.92820000 -0.25080000
-0.05350000 1.91950000 -0.17080000
-0.05280000 1.99460000 -0.21090000
-0.09220000 2.06130000 -0.25100000
-0.09770000 2.26900000 -0.08960000
-0.10060000 2.18930000 -0.12490000
-0.06230000 2.27540000 -0.11660000
-0.06030000 2.17470000 -0.12340000
-0.09870000 2.28170000 -0.16500000
-0.05510000 2.20800000 -0.15000000
-0.04900000 2.24140000 -0.17910000
-0.05400000 2.34120000 -0.18130000
-0.04750000 2.29650000 -0.20900000
-0.09720000 2.36460000 -0.11980000
-0.05920000 2.39000000 -0.14930000
-0.09000000 2.37910000 -0.25920000
-0.06070000 2.10980000 -0.15830000
-0.09860000 2.13440000 -0.19180000
-0.05470000 2.14840000 -0.18750000
-0.05190000 2.08060000 -0.22750000
-0.09080000 2.18510000 -0.28280000
-0.05020000 2.17340000 -0.24620000
-0.08740000 2.13660000 -0.29950000
-0.05190000 2.27420000 -0.30430000
-0.05410000 2.26430000 -0.36330000
-0.08560000 2.27320000 -0.35720000
-0.09140000 1.81040000 -0.16940000
-0.08610000 1.74840000 -0.23480000
-0.08670000 1.68280000 -0.29830000
-0.09130000 1.62050000 -0.32200000
-0.08970000 1.56410000 -0.32820000
-0.04200000 1.82000000 -0.14460000
-0.03840000 1.76020000 -0.16910000
-0.04260000 1.86430000 -0.17230000
-0.03980000 1.76290000 -0.19950000
-0.04680000 1.93620000 -0.23780000
-0.04810000 1.87130000 -0.26720000
-0.04530000 1.77890000 -0.23760000
-0.04920000 1.88900000 -0.30890000
-0.08810000 1.82530000 -0.31480000
-0.08790000 1.92750000 -0.34780000
-0.04810000 2.05010000 -0.32440000
-0.04580000 1.89450000 -0.37910000
-0.04640000 1.71330000 -0.28900000
-0.04030000 1.63460000 -0.28700000
-0.04110000 1.63040000 -0.34030000
-0.09260000 1.68900000 -0.33670000
-0.10570000 1.65480000 -0.36140000
-0.09590000 1.72380000 -0.35670000
-0.09260000 1.78990000 -0.34860000
-0.09300000 1.88850000 -0.36970000
-0.10260000 1.83680000 -0.37800000
-0.11870000 1.91900000 -0.41430000
-0.09850000 1.91560000 -0.38530000
-0.11930000 1.85000000 -0.41250000
-0.11170000 1.74400000 -0.38190000
-0.11770000 1.66950000 -0.37980000
-0.12530000 1.73140000 -0.40640000
-0.11870000 1.79200000 -0.39860000
-0.12480000 1.81600000 -0.43800000
-0.12790000 1.72060000 -0.42260000
-0.12330000 1.78350000 -0.45040000
-0.11320000 1.80100000 -0.47050000
-0.11910000 1.83980000 -0.46480000
-0.09700000 1.83860000 -0.48690000
-0.09130000 1.98560000 -0.37850000
-0.03920000 1.73570000 -0.43490000
-0.03860000 1.89140000 -0.45800000
-0.03950000 1.79660000 -0.46240000
-0.03790000 1.87160000 -0.48570000
-0.04650000 1.84050000 -0.49220000
-0.04590000 1.81280000 -0.48360000
-0.06440000 1.83740000 -0.49810000
-0.05550000 1.85570000 -0.50160000
-0.07240000 1.88280000 -0.50440000
-0.04510000 1.88150000 -0.50050000
-0.08720000 2.06280000 -0.35710000
-0.08390000 2.22140000 -0.39220000
-0.05150000 2.30160000 -0.43040000
-0.10700000 2.03120000 -0.41100000
-0.10610000 1.97900000 -0.40370000
-0.08880000 2.12980000 -0.39330000
-0.11680000 2.10240000 -0.43060000
-0.12490000 2.01020000 -0.43610000
-0.09940000 2.11540000 -0.41220000
-0.11690000 2.15400000 -0.44490000
-0.09430000 2.20870000 -0.43630000
-0.11520000 2.20340000 -0.47280000
-0.12840000 2.11960000 -0.46460000
-0.12490000 2.16070000 -0.49100000
-0.12830000 1.93810000 -0.44330000
-0.12710000 1.89080000 -0.44860000
-0.12340000 1.87550000 -0.46370000
-0.12880000 2.02490000 -0.46600000
-0.12690000 1.94160000 -0.46700000
-0.11870000 1.96420000 -0.48560000
-0.12560000 2.01580000 -0.48150000
-0.11330000 2.03750000 -0.50360000
-0.03580000 2.03470000 -0.49710000
-0.04420000 2.16410000 -0.47680000
-0.03540000 1.97700000 -0.49130000
-0.03730000 2.01560000 -0.51540000
-0.10030000 2.10970000 -0.52470000
-0.08350000 2.03200000 -0.52180000
-0.06960000 2.06730000 -0.53380000
-0.11450000 1.90970000 -0.48330000
-0.10120000 1.93360000 -0.49720000
-0.06700000 1.91080000 -0.51010000
-0.07790000 1.96100000 -0.51190000
-0.03580000 1.92990000 -0.48440000
-0.03720000 1.95290000 -0.50220000
-0.04230000 1.92020000 -0.50520000
-0.05140000 1.94910000 -0.51470000
-0.06650000 1.98760000 -0.52030000
-0.04350000 1.98260000 -0.51610000
-0.06200000 2.01650000 -0.52760000
-0.04890000 2.03930000 -0.53130000
-0.12560000 2.08480000 -0.49220000
-0.11580000 2.12960000 -0.51340000
-0.11270000 1.53580000 -0.37760000
-0.12150000 1.47330000 -0.40970000
-0.12030000 1.57770000 -0.40050000
-0.12190000 1.52940000 -0.40770000
-0.11790000 1.52610000 -0.43020000
-0.11180000 1.45720000 -0.43320000
-0.11830000 1.48060000 -0.42400000
-0.11170000 1.49430000 -0.43690000
-0.09480000 1.51770000 -0.45040000
-0.07310000 1.50990000 -0.45570000
-0.12080000 1.58060000 -0.42620000
-0.12340000 1.65050000 -0.39480000
-0.12640000 1.65060000 -0.41950000
-0.11070000 1.57560000 -0.44390000
-0.12300000 1.64270000 -0.43360000
-0.10860000 1.60650000 -0.44820000
-0.10210000 1.63170000 -0.45720000
-0.03720000 1.64940000 -0.43550000
-0.04290000 1.70820000 -0.46030000
-0.03610000 1.59070000 -0.43350000
-0.04060000 1.61600000 -0.45220000
-0.04720000 1.64810000 -0.46250000
-0.04090000 1.66050000 -0.45370000
-0.06680000 1.66650000 -0.47000000
-0.05800000 1.63680000 -0.46680000
-0.05250000 1.69510000 -0.46990000
-0.03610000 1.53260000 -0.43190000
-0.04040000 1.57920000 -0.44910000
-0.05110000 1.55710000 -0.45820000
-0.04090000 1.53510000 -0.44720000
-0.05780000 1.51780000 -0.45670000
-0.08810000 1.56550000 -0.45610000
-0.07040000 1.57460000 -0.46110000
-0.08830000 1.64670000 -0.46430000
-0.05890000 1.60270000 -0.46290000
-0.12350000 1.70260000 -0.44350000
-0.12260000 1.73560000 -0.44620000
-0.11400000 1.67680000 -0.45320000
-0.10480000 1.73150000 -0.46690000
-0.03990000 1.74180000 -0.45850000
-0.04970000 1.73610000 -0.47530000
-0.06810000 1.71040000 -0.47640000
-0.08040000 1.74570000 -0.48050000
-0.06670000 1.75870000 -0.48420000
-0.08990000 1.79160000 -0.48370000
-0.04940000 1.77750000 -0.48080000
-0.07150000 1.80620000 -0.49140000
-0.04930000 2.45040000 -0.15660000
-0.04940000 2.44780000 -0.20550000
-0.05020000 2.37610000 -0.26540000
-0.05410000 2.45000000 -0.35020000
-0.08670000 2.42240000 -0.34820000
-0.05190000 2.36950000 -0.35420000
-0.08180000 2.30060000 -0.39430000
-0.08300000 2.35180000 -0.42980000
-0.05670000 2.43510000 -0.41840000
-0.08350000 2.28360000 -0.43330000
-0.08870000 2.36280000 -0.46130000
