1.14250000 -25.12130000 5.95210000
1.29240000 -21.13800000 6.91330000
1.19610000 -19.73370000 4.94540000
0.55580000 -22.04090000 6.25110000
0.59740000 -24.32140000 6.56630000
0.59740000 -22.32480000 8.30020000
1.21690000 -27.05670000 2.88070000
1.08510000 -18.63330000 2.62190000
1.08590000 -17.45540000 4.61850000
0.59940000 -30.57550000 3.14630000
0.52990000 -32.07090000 3.78370000
0.58140000 -31.68230000 4.93610000
0.53920000 -19.61930000 4.32630000
1.28230000 -31.94690000 4.89910000
1.31730000 -23.29520000 2.78400000
1.22070000 -22.16190000 2.21590000
1.09960000 -31.45450000 4.56810000
0.60200000 -30.82660000 5.85370000
0.57970000 -28.70470000 4.00080000
0.51580000 -20.79290000 1.21810000
0.54370000 -19.70420000 6.70680000
1.12460000 -22.56010000 1.27200000
1.13540000 -31.67950000 3.40890000
1.18850000 -32.22920000 3.67960000
1.22110000 -30.11070000 3.86720000
0.63710000 -32.51570000 2.99170000
0.49460000 -32.14110000 0.41830000
0.72970000 -32.74760000 1.02340000
0.52770000 -31.35820000 1.13800000
0.89640000 -32.98690000 2.38170000
0.82350000 -33.26920000 4.61760000
0.74170000 -33.15070000 5.66810000
0.49390000 -16.95870000 1.80160000
0.47740000 -18.10220000 1.47570000
0.47060000 -18.89600000 2.80930000
0.37950000 -18.93140000 0.94620000
0.48130000 -19.66560000 1.47130000
0.86800000 -32.91340000 1.18770000
0.64550000 -32.61660000 -0.69690000
1.38930000 -23.89980000 6.52220000
0.52590000 -31.38140000 -0.64010000
1.49070000 -32.94130000 4.97630000
1.34390000 -32.57550000 3.34730000
1.40120000 -33.14010000 4.27580000
1.05520000 -31.82020000 1.55470000
0.96310000 -32.00040000 -0.07010000
1.02080000 -30.95650000 1.01020000
0.99950000 -30.99470000 -0.14710000
1.13150000 -32.34370000 1.44420000
0.32450000 -18.25270000 1.01630000
0.83640000 -32.90250000 -0.94230000
1.38400000 -32.71860000 2.63010000
0.99820000 -18.75210000 -0.67960000
1.08590000 -17.96270000 0.21710000
0.92890000 -32.84240000 0.21070000
0.56750000 -28.09150000 2.08250000
0.54170000 -29.37790000 0.76200000
1.03910000 -32.36390000 -0.91760000
1.18890000 -32.77140000 0.99390000
1.18930000 -32.63740000 -0.59820000
0.48460000 -28.14540000 -0.21470000
0.46880000 -27.56970000 -1.74540000
0.46090000 -28.43260000 -1.49410000
0.50460000 -23.38820000 -2.35010000
0.44250000 -24.90730000 -2.10450000
0.39950000 -23.88160000 -1.29860000
0.34830000 -25.80760000 -2.56740000
0.41680000 -25.35060000 -3.30500000
0.41880000 -25.69930000 -0.97060000
0.46380000 -26.00420000 0.00400000
0.36160000 -26.71350000 -1.86340000
1.07890000 -28.59210000 1.65790000
1.10980000 -29.87050000 2.61830000
0.46410000 -15.99550000 4.40790000
0.99030000 -29.68070000 -0.45560000
0.39850000 -27.57860000 -2.69110000
1.27710000 -29.48290000 3.54950000
0.43330000 -27.01650000 -3.48410000
0.40470000 -26.40200000 -2.32670000
1.22210000 -31.18940000 2.73390000
1.00640000 -26.68080000 -1.63880000
1.08430000 -25.85830000 -3.34750000
1.11570000 -25.37860000 -1.97700000
0.29760000 -26.81570000 -2.70220000
0.76640000 -34.19690000 12.72430000
0.76020000 -34.33160000 13.48660000
0.73630000 -33.59350000 12.91900000
0.62120000 -34.59610000 13.86570000
0.62720000 -34.93310000 13.62500000
0.68810000 -35.33870000 14.63200000
0.76950000 -35.09100000 13.11010000
0.88520000 -35.76630000 14.03100000
1.01400000 -27.98260000 -1.32370000
0.96590000 -27.02350000 -2.89120000
1.15710000 -32.92330000 2.34280000
0.45890000 -29.67660000 -5.24250000
0.47030000 -30.69690000 -4.67770000
0.41520000 -28.81360000 -3.77440000
1.07370000 -14.88630000 2.64350000
1.05450000 -16.19800000 2.41610000
1.12620000 -14.54800000 0.83610000
0.42640000 -32.47530000 -4.32510000
0.49610000 -32.43410000 -2.15910000
0.42750000 -30.84300000 -3.38840000
0.55970000 -33.04850000 -4.02510000
0.61250000 -32.87960000 -3.15890000
0.38150000 -23.36190000 0.53760000
0.19630000 -23.47750000 0.33260000
0.32670000 -24.18560000 0.42670000
0.52000000 -25.08660000 1.09340000
0.47900000 -16.93430000 0.83540000
0.43280000 -12.97110000 1.36250000
0.39910000 -32.62120000 -6.48330000
0.78120000 -32.23430000 11.98740000
0.77170000 -33.35300000 11.71080000
0.36740000 -17.84290000 0.54780000
0.63810000 -34.24380000 11.93850000
0.69320000 -33.93950000 11.02580000
0.44670000 -24.47970000 -0.41190000
0.37880000 -25.46740000 0.60820000
0.51850000 -25.04200000 2.22130000
1.26760000 -24.13470000 2.41330000
1.06720000 -24.22030000 0.83930000
1.01050000 -15.37910000 4.71370000
0.52680000 -26.33400000 2.35750000
1.18750000 -25.75110000 1.56710000
1.02460000 -25.33370000 0.96400000
1.50180000 -33.36940000 10.90390000
1.32840000 -32.58380000 10.54310000
1.28470000 -32.59500000 11.38040000
1.43400000 -32.85420000 11.97130000
0.76680000 -33.88510000 9.24850000
0.73940000 -34.53350000 11.43120000
0.91390000 -34.37870000 9.77580000
0.46550000 -21.88860000 0.71090000
0.46680000 -29.67370000 -1.09610000
1.10660000 -16.15690000 0.81950000
1.01490000 -35.00510000 12.11860000
0.54150000 -30.10360000 -1.67340000
1.09610000 -24.77120000 0.27970000
1.18020000 -25.22990000 -0.55880000
0.45750000 -26.74630000 0.79640000
0.16210000 -19.26290000 0.65120000
0.32190000 -20.40870000 0.83350000
0.16090000 -19.97980000 0.73250000
0.26040000 -21.34850000 0.23170000
0.73320000 -33.02820000 -2.39290000
0.07620000 -18.60970000 0.62040000
1.46360000 -34.04040000 12.46450000
1.36740000 -35.14870000 12.75500000
1.44560000 -34.05520000 10.41430000
0.22060000 -18.89000000 0.05150000
0.41040000 -30.93150000 -1.82860000
0.24290000 -18.04760000 -0.02890000
0.50850000 -31.73410000 -2.01920000
0.25820000 -20.35820000 -0.03120000
0.28540000 -19.70210000 0.13210000
0.47160000 -20.52990000 -0.39500000
0.49190000 -18.35790000 -0.62610000
1.09530000 -26.26210000 0.26550000
1.04370000 -27.46200000 1.08250000
0.57770000 -30.07140000 9.60230000
0.67420000 -29.81460000 8.79350000
0.70120000 -30.40060000 10.06420000
0.60560000 -30.00730000 11.12730000
0.66330000 -29.30370000 11.67010000
0.51590000 -29.90020000 10.48090000
0.18170000 -23.09010000 -0.00620000
0.35120000 -22.40070000 0.23570000
0.78920000 -31.38120000 12.27630000
0.28490000 -23.30690000 -0.37670000
0.51610000 -21.76770000 -0.41300000
0.47780000 -22.89900000 -0.70560000
0.47310000 -21.73910000 -1.81820000
1.09740000 -32.67720000 -1.90260000
1.01750000 -32.74810000 -4.31070000
1.15090000 -32.88230000 -2.77740000
1.03220000 -32.88140000 -1.72630000
1.19480000 -27.20340000 1.68710000
0.55610000 -29.42700000 9.83750000
0.70400000 -28.78130000 10.15070000
0.92150000 -31.91900000 -3.54690000
0.29050000 -23.98630000 -0.06330000
0.98440000 -24.16560000 -0.31250000
1.21660000 -32.81540000 -0.80530000
1.28100000 -31.55520000 11.53280000
1.24030000 -26.87870000 10.93750000
0.98530000 -30.96600000 -2.27760000
0.61570000 -27.01820000 8.98840000
0.44550000 -22.83700000 -2.34850000
0.49190000 -29.08930000 -2.90790000
1.08210000 -23.85730000 -1.73060000
1.06640000 -23.77300000 -3.29390000
0.68850000 -27.64880000 9.22730000
0.61510000 -28.09830000 7.49660000
1.19360000 -28.07740000 8.11170000
1.18030000 -26.18650000 8.34070000
0.34630000 -28.93100000 -4.82140000
0.65670000 -28.63260000 8.43890000
0.57820000 -29.46760000 8.14740000
0.61410000 -30.05270000 7.36910000
0.61380000 -29.06360000 7.16230000
0.48430000 -28.36980000 6.99730000
0.93870000 -28.14560000 -3.90750000
0.93010000 -29.99360000 -5.64300000
0.86180000 -33.34400000 -4.08880000
0.51740000 -28.93680000 6.12760000
0.49550000 -33.23230000 -5.51710000
0.65990000 -33.48330000 -4.38200000
0.52500000 -28.34750000 4.47760000
0.38330000 -27.51220000 4.46830000
0.87690000 -33.71920000 6.95780000
0.67770000 -33.84190000 -6.02100000
0.49950000 -27.02440000 4.03510000
0.90970000 -31.22440000 -8.30410000
0.88060000 -32.73200000 -6.03160000
1.12090000 -33.23710000 -5.67800000
1.12160000 -33.31920000 -4.74920000
1.12670000 -33.76480000 -6.81820000
0.52470000 -27.33220000 3.07350000
1.12950000 -33.01240000 -3.46790000
1.22880000 -31.58080000 10.00310000
1.51610000 -32.79100000 10.19080000
1.64910000 -33.47320000 9.74760000
1.13280000 -26.47450000 6.54240000
1.32560000 -24.01730000 7.79500000
1.20050000 -24.71790000 8.66280000
1.30850000 -25.26250000 7.36840000
1.71890000 -33.27450000 8.99740000
1.49670000 -34.01020000 9.27930000
1.45850000 -33.94200000 8.44610000
1.22980000 -25.37890000 6.68650000
0.35450000 10.78200000 -9.30310000
0.36930000 9.15050000 -9.47970000
0.37270000 10.31650000 -8.25870000
0.25900000 8.22120000 -7.82850000
0.24880000 5.44890000 -17.45740000
0.31070000 5.95510000 -18.08850000
0.10710000 5.31010000 -18.14070000
0.35050000 4.72260000 -18.00240000
0.40210000 11.79020000 -9.95270000
0.36000000 11.04260000 -11.21070000
0.31140000 6.57120000 -17.53790000
0.41300000 2.36470000 -18.46160000
0.35290000 3.34030000 -18.87670000
0.30730000 2.36910000 -18.98820000
0.24720000 1.83320000 -4.94420000
0.30850000 1.12240000 -4.05290000
0.32640000 2.62060000 -4.07730000
0.35240000 2.68150000 -5.50880000
1.06890000 8.87250000 -13.75000000
1.01760000 8.79660000 -14.76430000
1.12740000 9.78860000 -14.64480000
1.11740000 9.69190000 -13.33050000
1.04880000 8.50900000 -11.69450000
1.14970000 7.11630000 -14.82510000
0.42240000 2.91320000 -17.64790000
0.40640000 2.67210000 -16.49320000
0.34570000 4.41450000 -16.84890000
1.05440000 6.30350000 -14.76630000
0.43320000 4.31970000 -17.44040000
0.39300000 9.87280000 -11.94630000
0.44960000 8.21610000 -9.46670000
0.24270000 -0.19000000 -4.11570000
0.19750000 -0.26640000 -4.94190000
0.26700000 -1.12550000 -4.65230000
0.40180000 6.02830000 -14.58860000
0.34720000 5.87140000 -15.50160000
0.37750000 4.03490000 -12.79010000
0.39140000 3.62670000 -14.46920000
0.30060000 3.56190000 -13.58540000
0.21270000 0.77250000 -5.34020000
0.42360000 3.92510000 -18.60840000
0.27730000 1.45780000 -6.49670000
0.43680000 5.44140000 -15.82270000
0.35410000 0.68010000 -6.15150000
0.27980000 -0.09830000 -5.96430000
0.37650000 -0.86280000 -5.70240000
0.42940000 4.87560000 -12.13410000
0.47860000 8.19110000 -11.56500000
0.44240000 6.88030000 -10.33800000
0.43500000 8.24370000 -10.61410000
0.46940000 6.36730000 -12.16480000
0.35470000 4.67170000 -10.97990000
0.38270000 7.81170000 -19.00150000
0.28670000 8.15930000 -18.42250000
0.35800000 9.09330000 -19.23970000
0.31090000 7.58500000 -8.57780000
0.42560000 6.67200000 -8.21510000
0.56360000 9.29320000 -19.72380000
0.45490000 9.03450000 -20.04640000
0.72330000 9.06170000 -20.24660000
0.48400000 7.45960000 -13.28010000
0.38450000 8.61660000 -20.58070000
0.39030000 8.89870000 -20.51150000
1.02660000 8.52030000 -20.48480000
0.91060000 8.65720000 -20.71590000
0.73410000 8.68300000 -21.06250000
0.43630000 8.58310000 -21.09330000
0.30870000 5.39960000 -6.59960000
0.23740000 4.18900000 -7.26040000
0.38040000 3.88930000 -6.49810000
0.35740000 4.80610000 -5.45550000
0.29650000 3.27650000 -7.59040000
0.36350000 2.48370000 -7.20290000
0.30600000 5.41900000 -18.94700000
0.17750000 4.87600000 -18.67080000
1.12370000 4.57700000 -7.13520000
0.99670000 4.29380000 -6.74190000
1.20360000 3.94790000 -7.36370000
0.39310000 6.41220000 -18.99710000
1.00320000 3.29170000 -6.34640000
1.06420000 0.49990000 -8.03590000
1.15750000 2.16390000 -8.09320000
0.38780000 2.26920000 -15.12160000
0.36530000 1.32570000 -13.31790000
0.39880000 7.03490000 -19.84600000
0.26860000 1.65200000 -7.93420000
0.39110000 0.53380000 -7.29160000
0.38030000 6.10090000 -20.43950000
0.37740000 5.22620000 -19.74930000
0.39250000 2.18190000 -8.84570000
0.31930000 6.83950000 -20.35520000
0.31270000 0.57230000 -8.55520000
0.36080000 -1.65140000 -7.97080000
0.27260000 4.01350000 -19.41970000
0.39520000 3.77070000 -19.75460000
0.42160000 2.32870000 -19.40210000
0.23590000 4.64970000 -19.85080000
0.45810000 3.29900000 -20.27680000
0.35550000 4.98850000 -20.84250000
0.20270000 4.97890000 -20.43190000
0.52870000 4.26810000 -21.02650000
0.50850000 3.50400000 -21.28590000
0.39000000 3.73930000 -20.78070000
0.33930000 3.90270000 -10.83930000
1.05140000 2.98070000 -18.47000000
1.02450000 4.08590000 -19.24990000
1.01660000 5.64060000 -19.01880000
1.17180000 3.77010000 -19.95570000
0.34680000 2.74240000 -12.63860000
1.02760000 3.30080000 -11.08560000
1.05780000 3.10810000 -16.81420000
0.42290000 3.21140000 -11.66450000
0.39380000 0.96880000 -11.52790000
0.45010000 7.18580000 -15.72210000
0.99380000 -2.24180000 -8.43120000
0.36440000 3.00710000 -9.70540000
1.00320000 6.14090000 -20.24200000
1.04570000 4.74120000 -20.22730000
0.38820000 5.31700000 -16.57230000
0.34440000 6.83020000 -16.90230000
0.39250000 7.51720000 -17.35330000
1.19640000 5.36470000 -20.92140000
1.01300000 0.00920000 -11.90840000
1.02860000 0.07740000 -13.82500000
0.50760000 6.97920000 -21.38920000
0.43670000 6.18430000 -21.23650000
0.35500000 5.96160000 -7.15250000
0.39070000 5.82380000 -8.58410000
0.63690000 6.17280000 -21.66340000
0.38660000 4.66360000 -7.82860000
1.00800000 7.32710000 -16.42120000
1.03090000 6.93470000 -17.71530000
1.06280000 8.60210000 -16.37190000
0.64890000 7.83130000 -21.85500000
0.64520000 7.52080000 -21.56690000
0.49940000 8.04580000 -21.50120000
1.09600000 6.59890000 -16.00950000
0.71530000 7.06870000 -21.63030000
0.38850000 7.54230000 -7.34500000
0.94110000 6.10310000 -21.46660000
0.43190000 7.89690000 -20.77880000
1.01650000 5.67530000 -7.85360000
1.07850000 7.61410000 -10.15530000
1.06160000 6.99030000 -8.17020000
1.12120000 7.41020000 -20.74570000
1.04320000 7.84110000 -19.93270000
1.14350000 7.53800000 -15.49040000
1.09860000 6.45160000 -19.19360000
1.18060000 5.97050000 -20.67470000
1.11210000 7.24610000 -21.24560000
0.65600000 8.39510000 -21.47470000
0.99450000 8.21780000 -21.37340000
0.93950000 7.94820000 -21.79730000
0.40430000 4.20530000 -9.69680000
0.96550000 7.48210000 -21.60350000
1.03230000 6.68510000 -21.36540000
0.49240000 5.39450000 -21.48740000
1.06010000 4.60420000 -7.73820000
1.00880000 5.73960000 -10.25790000
1.07570000 3.37630000 -8.28060000
0.71020000 5.33920000 -21.67230000
1.14740000 5.09330000 -21.33040000
0.99530000 4.60220000 -21.50730000
0.72700000 4.24640000 -21.46030000
0.98530000 2.94280000 -21.29510000
1.24060000 3.60750000 -20.77020000
1.16460000 2.92790000 -21.03050000
0.30470000 8.58570000 -16.90540000
0.40760000 9.07490000 -16.40690000
0.29020000 9.24120000 -17.57590000
0.62870000 9.92590000 -17.46240000
0.40610000 9.69540000 -17.89260000
0.48190000 9.76080000 -17.11480000
0.35870000 8.14960000 -17.16020000
0.17710000 8.07420000 -17.87450000
0.11660000 8.61960000 -17.78610000
0.32440000 9.11400000 -18.35870000
0.42680000 7.33080000 -12.40160000
0.37000000 -1.90100000 -9.57550000
0.41080000 -1.05010000 -12.00220000
0.55430000 9.49590000 -18.72430000
0.80080000 9.70830000 -18.00130000
0.97460000 -0.37620000 -9.72770000
1.06410000 -1.60480000 -9.73210000
1.11990000 8.57950000 -17.30550000
1.06500000 8.12280000 -17.96920000
1.17300000 9.19810000 -17.57790000
1.11220000 8.72790000 -18.81680000
1.08420000 9.35410000 -18.30730000
0.82590000 9.23860000 -19.24070000
0.42090000 9.80620000 -16.28690000
0.60080000 10.03010000 -16.79650000
0.41040000 9.81070000 -13.84500000
0.46940000 10.46790000 -15.17290000
0.38020000 8.87830000 -15.16640000
0.83950000 10.12130000 -16.53380000
0.58230000 10.15500000 -16.04770000
0.45790000 9.89660000 -15.67600000
0.74680000 10.33290000 -15.91320000
0.93070000 9.88170000 -17.06190000
0.88860000 10.42430000 -15.16060000
0.70120000 10.62890000 -14.80860000
1.01850000 10.13040000 -15.89470000
1.10880000 9.62920000 -17.04620000
1.15170000 9.79990000 -15.70580000
0.32960000 8.55850000 -14.60880000
0.42830000 8.39800000 -13.91250000
0.96880000 8.73970000 -19.67040000
1.09450000 8.52940000 -15.64040000
0.34570000 11.06160000 -12.86060000
0.30640000 10.48310000 -13.33220000
0.45330000 11.49570000 -11.70080000
0.34840000 11.56460000 -10.68120000
1.00180000 11.60970000 -10.33460000
1.01490000 11.07200000 -11.76680000
0.67720000 11.68760000 -11.27850000
1.14320000 10.85190000 -11.31440000
1.23580000 10.83200000 -10.18760000
1.07010000 10.04780000 -11.92260000
1.07610000 10.13620000 -10.31510000
0.82410000 11.37850000 -11.83880000
0.61500000 11.16520000 -12.94400000
0.86560000 10.80540000 -13.20320000
1.13460000 10.36720000 -12.68070000
0.57040000 12.04010000 -10.34810000
0.66030000 11.86280000 -10.72030000
0.50750000 10.99290000 -13.69010000
0.38440000 10.73860000 -13.92870000
0.47340000 10.72140000 -14.33240000
0.83480000 10.67700000 -14.19720000
1.09690000 10.35270000 -14.03310000
0.28380000 -8.03470000 -11.33280000
0.15200000 -8.81510000 -10.59300000
0.15730000 -7.48170000 -10.74440000
0.23130000 -7.56580000 -10.28400000
0.40720000 -27.73250000 -4.82220000
0.22730000 -27.66380000 -5.29910000
0.27470000 -27.83440000 -5.81620000
0.17890000 -9.81820000 -11.41070000
0.31430000 -9.97760000 -10.96510000
0.21490000 -9.04880000 -10.96610000
0.41830000 -28.39700000 -5.02450000
0.41600000 -34.70470000 -9.35540000
0.51090000 -34.37020000 -8.48850000
0.34770000 -33.62650000 -8.81960000
0.28220000 -9.65640000 -11.89590000
0.71890000 -34.79000000 -9.13430000
0.32280000 -34.24470000 -9.93030000
0.35650000 -9.57470000 -9.86030000
0.22240000 -28.58210000 -5.94240000
0.29880000 -29.15030000 -5.91600000
0.23940000 -8.48250000 -9.48710000
0.28920000 -26.98080000 -5.56240000
0.40380000 -26.79260000 -6.27240000
0.53970000 -33.94740000 -7.25740000
0.38370000 -27.71150000 -7.26390000
0.33440000 -5.62770000 -10.73370000
0.28700000 -7.83200000 -12.57370000
0.34020000 -5.22820000 -12.55740000
0.41800000 -29.21220000 -6.81820000
0.25300000 -28.51660000 -7.24950000
0.31030000 -33.04320000 -10.34890000
0.15900000 -33.60690000 -10.70400000
0.36780000 -29.63390000 -7.97050000
0.24190000 -9.52860000 -13.75130000
0.29610000 -33.31860000 -11.41210000
0.40520000 -30.76870000 -6.62870000
0.89550000 -11.01710000 -12.79820000
0.87490000 -10.37170000 -13.75920000
0.90380000 -7.64360000 -13.68660000
0.42840000 -30.70670000 -7.78900000
0.38160000 -32.44590000 -9.04800000
0.37070000 -31.40020000 -10.28600000
0.33610000 -30.95410000 -8.90600000
1.05400000 -8.05770000 -11.48210000
0.91990000 -6.06190000 -11.33290000
0.37030000 0.14780000 -14.80900000
0.35850000 -0.24710000 -15.48890000
0.37850000 -3.47870000 -13.04800000
0.36120000 -3.25090000 -16.40330000
0.35850000 -5.10820000 -14.64130000
0.86490000 -32.38010000 -8.46540000
0.93240000 -33.51920000 -8.34110000
0.85450000 -34.02040000 -9.88490000
0.09970000 -17.89250000 -22.03520000
0.09530000 -18.04840000 -21.16540000
0.04250000 -16.92540000 -21.67050000
0.16940000 -17.26420000 -21.11880000
0.38990000 -1.58930000 -16.77920000
0.96390000 -2.12900000 -14.55980000
0.98100000 -2.83700000 -16.88020000
0.25680000 -31.12940000 -11.42790000
0.25440000 -15.98610000 -18.45640000
0.21860000 -18.05450000 -18.99940000
0.24380000 -19.66060000 -18.16830000
0.85190000 -32.64260000 -10.86770000
0.26220000 -29.11840000 -7.91170000
0.36240000 -28.60250000 -8.65610000
0.40340000 -26.49880000 -7.68240000
0.40390000 -25.37800000 -8.43620000
0.33220000 -34.91310000 -10.63840000
0.51700000 -35.26830000 -10.16190000
0.25980000 -34.29260000 -10.97780000
0.33700000 -27.88560000 -11.46520000
0.81000000 -16.45520000 -16.60660000
0.84720000 -17.97590000 -18.28870000
0.85690000 -16.41580000 -18.23000000
0.47580000 -35.44000000 -11.10740000
0.68470000 -35.45690000 -10.74470000
0.60190000 -35.81200000 -11.19740000
0.79510000 -36.01250000 -11.32860000
0.94420000 -35.33230000 -10.83470000
0.29150000 -34.71070000 -12.15980000
0.31650000 -33.91740000 -12.03970000
0.33140000 -7.13830000 -13.74380000
0.87130000 -34.34510000 -10.67080000
0.97850000 -35.14180000 -11.32510000
0.97850000 -33.54980000 -11.46540000
0.23960000 -17.83870000 -17.11330000
0.98940000 -34.95220000 -12.32400000
0.50110000 -35.44950000 -11.81230000
0.57280000 -36.13010000 -12.28500000
0.71600000 -36.12910000 -11.79260000
0.34460000 -35.49360000 -12.60040000
0.96210000 -36.09420000 -11.78460000
0.29630000 -14.67370000 -20.38840000
0.29720000 -16.30220000 -20.20240000
0.22600000 -14.05860000 -21.18860000
0.16290000 -14.57270000 -20.89190000
0.86900000 -26.40520000 -11.58630000
0.92080000 -25.28820000 -7.86550000
0.90870000 -26.93870000 -7.04880000
1.01440000 -34.77120000 -10.10770000
1.04680000 -34.16230000 -9.17230000
0.97290000 -34.90270000 -9.89750000
0.85140000 -28.48920000 -11.11150000
0.86510000 -29.20380000 -8.56470000
0.24890000 -29.22000000 -9.30880000
0.34680000 -30.52870000 -9.62270000
0.32560000 -11.40150000 -19.38030000
0.29210000 -12.47620000 -20.45930000
0.25220000 -14.12400000 -17.63460000
0.30180000 -7.79080000 -15.21850000
0.60450000 -36.58220000 -12.74060000
0.81430000 -36.53090000 -12.45490000
0.46980000 -36.51060000 -13.23390000
0.77930000 -36.90380000 -13.22110000
0.96890000 -36.57730000 -12.84480000
0.96300000 -35.98280000 -12.58130000
0.84290000 -15.66970000 -19.56470000
0.80690000 -16.01990000 -20.40090000
0.82580000 -13.45090000 -20.11660000
0.34060000 -29.58960000 -9.51340000
0.83370000 -13.56720000 -18.08310000
0.35350000 -30.00940000 -10.91440000
0.24710000 -18.62700000 -20.48330000
0.77400000 -18.64010000 -20.73250000
0.88690000 -16.28410000 -20.92770000
0.78170000 -18.36900000 -19.60480000
0.25660000 -34.81620000 -13.57550000
0.13670000 -16.10780000 -21.53620000
0.16000000 -15.75010000 -21.06630000
0.40110000 -26.97240000 -4.64510000
0.83770000 -35.63230000 -13.75920000
0.84330000 -34.43220000 -14.81420000
0.81900000 -33.23330000 -13.33050000
0.29420000 -34.21950000 -15.04650000
0.13230000 -34.41060000 -14.28450000
0.25430000 -33.64200000 -14.33810000
0.30520000 -33.16880000 -13.50830000
0.26710000 -35.06680000 -14.22030000
0.22130000 -35.74220000 -14.55070000
0.30150000 -35.49760000 -15.10580000
0.91580000 -16.99370000 -19.24800000
0.29400000 -7.82610000 -16.90660000
0.30810000 -4.49500000 -16.65260000
0.28940000 -32.21050000 -15.37290000
0.26770000 -31.63090000 -14.13920000
0.37030000 -5.83150000 -17.71800000
0.38560000 -22.35000000 -8.26680000
0.39380000 -24.09620000 -6.52120000
0.27580000 -29.73560000 -15.49520000
0.23710000 -31.45760000 -17.19740000
0.26900000 -6.21010000 -0.08910000
0.09210000 -6.45490000 -0.29650000
0.24680000 -7.08790000 -0.39490000
0.29350000 -7.36880000 0.13430000
0.26820000 -29.01520000 -13.71070000
0.17840000 -5.70550000 -0.44310000
0.31750000 -5.43270000 -0.81640000
0.37050000 -19.74780000 -9.07150000
0.30990000 -21.28910000 -11.26300000
0.39540000 -7.19320000 -1.10490000
0.34140000 -25.14210000 -10.70310000
0.25230000 -33.05540000 -16.90640000
0.37950000 -12.21150000 0.42760000
0.09250000 -11.22540000 0.00150000
0.11180000 -12.03760000 -0.16300000
0.19390000 -12.82080000 0.04650000
0.93560000 -21.61340000 -11.21170000
0.98180000 -22.67700000 -7.63780000
0.97430000 -23.74730000 -8.92780000
0.30970000 -26.82270000 -10.74730000
0.38850000 -11.07400000 2.65020000
0.28530000 -34.58220000 -16.73970000
0.22470000 -9.90420000 0.00660000
0.39210000 -10.25180000 0.36040000
0.97450000 -4.27500000 -13.60410000
0.94350000 -6.30910000 -16.09480000
0.41430000 -9.12880000 0.88540000
0.98420000 -10.31740000 2.63620000
0.98840000 -12.71160000 0.84770000
1.01360000 -12.12600000 -0.24300000
1.00660000 -12.33750000 2.36660000
0.15690000 -8.43600000 -0.39260000
0.07470000 -7.90230000 -0.18670000
0.30210000 -8.60140000 0.31260000
0.22420000 -9.55660000 -0.47590000
0.04890000 -10.37000000 -0.12490000
0.37420000 -7.76640000 -1.58740000
0.34280000 -8.65020000 -0.79540000
0.43770000 -9.53690000 -1.57450000
0.88090000 -24.89320000 -11.74060000
1.13340000 -9.30030000 -0.70120000
1.13650000 -8.75200000 -0.39860000
1.01710000 -9.97210000 0.57210000
0.99540000 -10.20690000 -0.43990000
0.81450000 -30.62800000 -15.45690000
0.86080000 -30.91570000 -13.56510000
0.18810000 -10.52130000 -0.43980000
-0.02330000 -10.82760000 -0.23040000
0.25530000 -11.55150000 -0.46520000
0.31440000 -12.42120000 -0.40550000
0.29290000 -24.34870000 -13.13800000
0.31930000 -21.00530000 -12.46620000
0.43620000 -10.83110000 -0.84790000
0.45180000 -12.14660000 -1.23930000
0.40560000 -12.87560000 -2.18760000
0.31160000 -30.75550000 -13.00730000
0.28180000 -30.55660000 -11.94800000
0.40610000 -11.12070000 -3.20280000
0.25560000 -5.80040000 -6.21590000
0.35420000 -5.31180000 -5.47430000
0.33290000 -4.96860000 -7.34590000
0.31400000 -3.45670000 -6.28830000
0.95660000 -10.38580000 -1.89630000
1.01300000 -11.39590000 -1.60510000
0.96520000 -11.89210000 -3.26910000
0.85600000 -31.34910000 -12.06830000
0.27600000 -1.95500000 -9.03810000
1.07830000 -11.67420000 -0.90160000
1.12330000 -10.45470000 -1.08310000
1.19090000 -13.20520000 -0.52120000
1.18390000 -12.08030000 -1.39740000
1.02270000 -9.45620000 -1.94370000
1.13550000 -9.54020000 -1.49180000
0.96690000 -32.30510000 -11.93940000
0.23870000 -5.41910000 -10.09770000
0.41120000 -3.26640000 -11.08860000
0.40640000 -3.45480000 -2.46380000
0.33790000 -4.27710000 -2.43020000
0.28540000 -3.97200000 -1.84740000
0.32970000 -6.39430000 -2.84000000
0.28280000 -5.62750000 -3.18530000
0.17350000 -6.34070000 -3.15080000
0.34860000 -6.54840000 -3.52850000
0.37920000 -4.68290000 -8.97130000
0.40290000 -4.86310000 -1.63430000
0.40430000 -6.42760000 -2.13690000
0.39220000 -3.97780000 -1.38500000
0.96410000 -23.83830000 -12.41320000
0.88080000 -26.00660000 -14.45460000
0.91870000 -25.47100000 -15.04520000
0.98830000 -7.19300000 -1.95610000
0.98280000 -6.85560000 -3.08840000
1.07490000 -5.67470000 -2.47520000
0.38630000 -2.46600000 -6.24650000
0.34220000 -2.18910000 -3.82460000
0.39400000 -4.28460000 -4.78330000
0.40830000 -20.02600000 -5.98050000
0.38460000 -1.08530000 -3.39450000
0.32870000 -2.47330000 -1.96240000
0.90930000 -21.43950000 -6.45230000
0.94740000 -20.86260000 -7.62000000
1.08990000 -21.76770000 -5.90090000
1.01950000 -19.28660000 -8.53100000
1.13070000 -3.39420000 -9.33390000
1.06190000 -4.27520000 -10.57680000
1.18660000 -1.75880000 -9.33130000
0.42770000 -4.05740000 -3.48240000
0.34850000 -1.47890000 -6.94700000
1.10470000 -4.11610000 -3.03070000
1.03260000 -4.17260000 -4.09180000
0.97660000 -2.22690000 -2.86440000
0.33600000 -4.61980000 -3.66050000
0.27320000 -5.23850000 -3.91960000
0.36970000 -5.73070000 -4.09620000
0.40050000 -6.72230000 -4.75050000
0.47660000 -37.28020000 -15.17410000
0.73100000 -37.26620000 -14.28590000
0.49750000 -36.93200000 -14.30780000
0.84940000 -37.41700000 -14.79350000
0.94900000 -18.33130000 -10.89630000
0.35000000 -6.74810000 -6.35540000
0.34380000 -36.73230000 -15.14000000
0.36070000 -36.20280000 -14.08630000
0.24310000 -35.03020000 -16.97110000
0.27820000 -37.28170000 -16.25500000
0.99130000 -3.55790000 -6.99730000
0.99850000 -0.04780000 -5.85310000
0.33930000 -28.49180000 -11.05840000
0.69620000 -37.57420000 -15.09440000
0.57440000 -37.85120000 -15.86800000
0.94150000 -37.79610000 -15.60410000
0.95030000 -37.17680000 -15.18360000
0.82370000 -36.66540000 -15.53300000
0.92910000 -37.55340000 -16.14020000
1.05570000 -1.14930000 -6.98970000
1.01720000 -5.99540000 -5.08640000
0.59100000 -36.95690000 -13.83800000
0.93760000 -36.54030000 -13.56280000
0.92910000 -37.03470000 -14.21560000
0.95340000 -5.49330000 -6.79490000
0.20640000 -8.07990000 -4.03070000
0.10170000 -8.33440000 -4.75270000
0.09690000 -9.02980000 -3.79220000
0.25790000 -8.90290000 -4.64130000
0.92370000 -27.18440000 -10.35120000
0.24600000 -11.01290000 -4.31990000
0.28690000 -10.99790000 -3.58290000
0.11380000 -9.81620000 -3.50850000
0.96160000 -7.29650000 -5.68150000
0.23880000 -9.87500000 -4.00740000
0.30510000 -10.26640000 -4.95780000
0.62580000 -38.14660000 -16.29550000
0.84610000 -38.02140000 -16.48790000
0.28710000 -11.53590000 -5.59290000
0.27830000 -7.64480000 -4.76360000
0.21120000 -8.57080000 -5.17220000
0.31180000 -8.22060000 -5.78760000
0.82190000 -35.45230000 -17.45120000
0.27340000 -35.79790000 -17.74430000
0.29710000 -7.15850000 -7.29950000
0.28220000 -8.50460000 -7.29390000
0.19680000 -8.81440000 -6.12650000
0.79790000 -37.09100000 -18.08350000
0.25480000 -10.78170000 -6.53890000
0.27540000 -10.13460000 -5.87650000
0.30290000 -9.89580000 -6.39580000
0.99130000 -22.32580000 -2.28790000
0.37770000 -9.73200000 -7.58650000
0.37240000 -11.31990000 -7.05610000
0.37620000 -9.28060000 -5.51530000
0.97490000 -23.26790000 -4.75880000
0.31200000 -33.52480000 -7.65780000
0.96200000 -10.79450000 -5.08870000
0.97250000 -11.69190000 -7.52670000
0.96270000 -8.75940000 -4.97320000
0.87850000 -38.15900000 -17.17000000
0.61200000 -38.31980000 -16.84390000
0.71630000 -34.29550000 -7.42650000
0.29700000 -9.00300000 -6.43930000
0.34840000 -8.46550000 -3.31900000
0.21760000 -9.30180000 -3.17770000
0.40440000 -9.08060000 -2.59340000
0.95720000 -33.98010000 -6.69240000
0.99530000 -34.31390000 -8.53250000
0.04600000 -24.73940000 -21.92360000
-0.04030000 -26.32530000 -22.60840000
0.08310000 -25.97460000 -22.05660000
0.40620000 -7.31940000 -3.46730000
0.29100000 -6.99070000 -8.71130000
0.13610000 -28.26020000 -21.01140000
0.05040000 -27.93440000 -21.92640000
-0.05300000 -29.74450000 -21.74840000
0.06080000 -26.39410000 -21.33290000
-0.03260000 -27.69960000 -22.56780000
0.09310000 -25.99170000 -22.79050000
0.24530000 -26.76070000 -22.91980000
0.04540000 -27.86980000 -23.11930000
-0.09860000 -28.37670000 -23.03450000
0.32660000 -27.95710000 -23.14850000
0.62740000 -27.84750000 -22.81520000
0.54280000 -25.73620000 -22.68340000
1.17770000 -7.68610000 -1.04950000
1.01450000 -7.98700000 -1.73820000
1.14950000 -6.82920000 -1.43320000
0.03460000 -24.27390000 -22.52030000
0.28820000 -24.86720000 -22.71540000
0.31200000 -19.75310000 -13.07000000
0.26080000 -21.37780000 -14.10390000
0.21430000 -21.00080000 -13.03860000
1.13230000 -8.53990000 -1.72910000
1.13160000 -8.86880000 -2.52920000
1.06330000 -8.26260000 -0.65770000
0.89130000 -21.29600000 -14.54390000
0.89040000 -23.79850000 -14.68340000
0.09470000 -19.79630000 -14.07050000
-0.14250000 -19.77110000 -14.32680000
-0.13010000 -20.99990000 -14.74650000
0.15150000 -21.14350000 -14.48600000
0.04590000 -19.89030000 -14.77350000
0.11530000 -21.09320000 -15.27880000
-0.17920000 -21.55260000 -14.98740000
-0.07750000 -22.28670000 -15.33590000
-0.00740000 -22.25490000 -14.96270000
0.17560000 -22.27910000 -15.70880000
0.91020000 -8.44890000 -9.05920000
0.21960000 -23.59330000 -15.14930000
0.98170000 -7.60800000 -9.22400000
0.95890000 -9.96680000 -3.86640000
0.00030000 -23.42660000 -15.44040000
0.11520000 -23.59730000 -15.88530000
-0.05650000 -24.53050000 -15.90460000
0.29040000 -9.14870000 -8.65250000
0.08520000 -25.11820000 -15.78340000
0.92830000 -18.11250000 -12.49440000
0.34560000 -10.78720000 -9.26360000
0.96180000 -10.14100000 -9.30330000
1.04380000 -9.10120000 -4.03830000
0.98560000 -20.23090000 -15.29040000
0.94480000 -17.96440000 -13.87970000
0.32330000 -9.36400000 -19.97140000
0.24490000 -7.93450000 -20.07580000
0.21180000 -9.19080000 -21.03460000
0.23970000 -10.56730000 -20.50810000
0.24980000 -24.61510000 -14.71460000
0.92510000 -25.71600000 -16.97530000
0.16340000 -11.98670000 -21.55590000
0.18610000 -12.69210000 -21.72890000
0.49020000 -12.55690000 -21.76460000
0.35190000 -11.67490000 -21.81100000
0.14800000 -11.15840000 -21.55910000
0.81670000 -26.13220000 -16.70110000
0.22690000 -21.38220000 -16.80210000
0.17580000 -21.21790000 -18.94590000
0.28010000 -20.42840000 -15.66530000
0.81930000 -10.49360000 -20.35620000
0.87640000 -12.08630000 -21.26260000
0.88660000 -11.09700000 -19.44110000
0.18780000 -10.71220000 -21.24810000
0.24670000 -10.33310000 -21.73570000
0.14130000 -9.46660000 -21.55740000
0.43280000 -10.91740000 -21.80370000
0.84220000 -11.03270000 -20.91210000
0.74720000 -10.91400000 -21.53360000
0.88730000 -9.90700000 -21.09810000
0.69130000 -9.81690000 -21.50070000
1.03150000 -5.77920000 -9.83560000
0.94260000 -7.58150000 -10.14080000
1.09600000 -6.96410000 -10.40820000
0.73720000 -12.41080000 -21.58070000
0.27740000 -18.35490000 -15.27400000
0.24190000 -7.48970000 -21.37480000
0.24260000 -8.60670000 -21.66170000
1.17120000 -5.18770000 -10.19690000
1.10520000 -6.06230000 -10.81420000
0.67830000 -7.64810000 -21.56420000
0.32810000 -7.90140000 -21.69470000
0.39670000 -6.87030000 -21.56820000
0.50780000 -8.73310000 -21.70430000
0.82820000 -8.64760000 -21.36130000
0.45850000 -9.83320000 -21.70930000
0.11160000 -16.78660000 -21.96540000
0.22530000 -16.14440000 -22.03590000
0.48060000 -17.01560000 -22.05920000
0.36570000 -17.62440000 -22.18680000
0.42670000 -22.91710000 -3.82680000
0.13690000 -13.17770000 -21.46740000
0.23610000 -14.13230000 -21.88280000
0.44690000 -20.03000000 -3.06180000
0.10380000 -15.28530000 -21.78050000
0.46090000 -19.17290000 -4.11330000
0.43020000 -17.03710000 -4.89900000
0.30610000 -15.05670000 -22.00680000
0.19610000 -25.76490000 -16.67180000
0.74480000 -23.47620000 -17.38260000
0.82340000 -20.58000000 -15.95720000
0.86470000 -24.82570000 -17.17830000
0.69730000 -15.06350000 -21.83100000
0.92630000 -14.00260000 -21.57120000
0.84180000 -14.59840000 -21.18380000
0.34350000 -13.31420000 -21.89650000
0.23470000 -23.33040000 -18.72350000
0.79720000 -13.58420000 -21.76170000
0.53920000 -14.16520000 -21.97210000
1.11980000 -18.95760000 -3.14310000
0.95940000 -20.30220000 -3.17890000
1.03670000 -22.81860000 -5.92790000
0.73820000 -22.35640000 -19.53910000
0.91600000 -9.86650000 -11.00150000
0.89780000 -13.18290000 -21.08110000
0.90210000 -19.95620000 -5.97400000
0.98640000 -19.22240000 -4.58730000
1.00990000 -20.69030000 -5.58030000
1.14230000 -20.30560000 -4.75730000
0.77950000 -24.40240000 -18.93280000
1.04060000 -8.76830000 -11.24100000
0.22780000 -14.15890000 -6.66750000
0.32380000 -14.98880000 -6.65160000
0.10960000 -14.88960000 -6.16280000
0.32260000 -16.38620000 -6.79900000
0.35970000 -15.55520000 -5.83480000
0.40870000 -17.20660000 -6.69550000
0.39420000 -16.00730000 -8.08290000
0.52370000 -16.01570000 -21.98930000
0.37020000 -14.26790000 -7.91670000
0.78610000 -16.75270000 -21.80780000
0.19880000 -13.42830000 -7.03280000
0.33000000 -12.77420000 -7.71310000
0.89650000 -16.70990000 -21.53130000
0.84090000 -17.94110000 -16.41270000
0.36240000 -14.45090000 -9.84420000
0.28890000 -12.73830000 -9.18540000
0.05340000 -27.71860000 -16.70450000
0.07570000 -25.82030000 -16.38240000
0.15460000 -26.72530000 -16.23590000
0.22070000 -28.92020000 -16.27450000
0.28050000 -27.30220000 -14.95280000
0.35050000 -15.36560000 -9.64570000
0.12770000 -31.03810000 -17.74960000
0.21830000 -29.93500000 -17.02570000
0.35440000 1.09620000 -14.38700000
0.78840000 -30.14000000 -17.92420000
0.81330000 -28.21880000 -15.03360000
0.93480000 -13.79570000 -10.16500000
0.95300000 -15.82550000 -7.52750000
0.38070000 0.46840000 -17.01070000
0.43400000 -0.81540000 -16.54720000
0.15950000 -28.23640000 -17.52810000
0.22450000 -26.68740000 -17.93330000
0.75850000 -27.45220000 -16.49050000
0.14360000 -24.80330000 -20.40270000
0.01680000 -25.81880000 -20.33680000
0.09420000 -26.14780000 -19.53950000
0.17970000 -24.87070000 -18.68200000
0.35520000 -19.98510000 -7.29240000
1.02870000 -0.20880000 -16.00190000
0.95280000 -1.63550000 -17.40620000
1.05410000 -2.31260000 -17.79620000
0.95180000 -2.51840000 -18.19420000
0.70840000 -27.16590000 -18.59760000
0.76270000 -26.07130000 -19.06170000
0.20910000 -26.08470000 -19.21350000
0.97840000 -4.16060000 -11.54640000
0.19720000 -28.11260000 -19.58640000
0.10180000 -29.34530000 -19.77110000
0.13160000 -28.30900000 -18.99710000
0.17340000 -29.27360000 -18.67230000
0.07260000 -27.29050000 -19.95640000
0.13310000 -26.57440000 -20.49100000
1.05560000 -17.07350000 -6.25710000
1.01170000 -19.02750000 -6.30720000
0.98540000 0.13100000 -17.70350000
0.11200000 -28.14270000 -20.38900000
0.41860000 0.59470000 -19.61650000
0.39900000 -0.56050000 -18.66140000
0.36100000 -0.13350000 -13.44610000
0.77770000 -28.16330000 -18.33400000
1.04780000 1.05620000 -19.67910000
0.87600000 -29.77860000 -18.64010000
0.33200000 -0.02690000 -17.94460000
0.24870000 0.40330000 -13.96210000
0.70670000 -29.48140000 -20.29000000
0.72480000 -27.48760000 -20.60720000
0.69180000 -26.27610000 -19.96500000
0.26890000 -25.87230000 -15.63590000
0.34460000 -17.67040000 -9.73080000
0.35280000 -3.04730000 -19.29080000
0.27520000 -16.27930000 -10.49540000
0.90310000 -4.09100000 -19.31470000
0.35360000 -17.39130000 -11.26680000
0.39200000 -1.05110000 -20.04990000
0.95270000 -16.37170000 -9.91890000
1.03760000 -17.36040000 -10.27980000
0.95030000 -1.10090000 -19.56070000
0.98670000 -1.48310000 -20.27190000
0.33910000 -7.48630000 -18.34950000
0.35420000 -6.15540000 -19.45620000
0.29330000 -8.96990000 -19.21870000
0.25610000 -14.27110000 -11.74480000
0.21910000 -15.29660000 -12.56100000
0.20940000 -14.99040000 -11.72270000
0.19390000 -13.57970000 -12.07480000
0.00260000 -14.63290000 -12.61460000
0.36020000 -4.63210000 -18.78010000
0.37090000 -17.12370000 -0.17810000
0.27120000 -16.76470000 0.02450000
0.09170000 -13.14700000 -12.32660000
0.03480000 -14.67590000 -13.03410000
0.49300000 -16.04980000 -1.23810000
0.40190000 -4.94120000 -17.50610000
0.27180000 -12.24900000 -12.63400000
0.44670000 -17.44910000 -1.61050000
0.27890000 -13.84460000 -13.28550000
0.19570000 -14.38600000 -14.28250000
0.27550000 -12.58980000 -14.21920000
0.93410000 -7.38480000 -18.40490000
0.89250000 -7.42740000 -19.84840000
0.89280000 -6.51850000 -18.29810000
0.27310000 -12.59380000 -15.46780000
0.44550000 -14.40300000 -3.02810000
0.43590000 -14.92400000 -2.15700000
0.37980000 -4.30880000 -21.41540000
0.34350000 -4.15150000 -20.80730000
0.43900000 -2.90280000 -21.16000000
0.35160000 -2.37370000 -20.68810000
0.62560000 -3.34150000 -21.58840000
0.18520000 -22.38420000 -21.07840000
0.00520000 -22.98100000 -21.64440000
-0.02910000 -23.40520000 -21.21750000
0.85150000 -3.82520000 -21.55830000
0.56010000 -4.81000000 -21.59880000
0.87030000 -13.62160000 -13.67710000
0.82080000 -13.87700000 -15.39270000
0.87620000 -11.10840000 -16.13430000
0.90630000 -14.61610000 -14.33700000
0.40870000 -13.23230000 -3.89170000
0.22810000 -13.52270000 -10.71480000
0.33790000 -11.26340000 -10.63790000
0.25660000 -12.30310000 -11.55290000
0.15420000 -22.66560000 -20.20890000
0.21140000 -23.48330000 -20.40330000
0.21810000 -21.85870000 -19.74820000
0.41450000 -4.93210000 -20.27930000
0.19850000 -21.55250000 -20.46070000
0.08460000 -22.05030000 -20.53250000
0.04530000 -22.20300000 -20.05160000
0.42990000 -14.96500000 -4.66600000
0.45350000 -16.82430000 -3.12950000
0.37100000 -15.18390000 -3.63590000
0.41850000 -3.70200000 -20.17420000
0.20570000 -19.82100000 -19.78500000
0.97960000 -3.03580000 -20.00990000
0.96190000 -4.57330000 -20.44460000
0.42690000 -18.84310000 -1.98540000
0.38030000 -11.56430000 -8.92250000
0.73210000 -22.92000000 -21.09880000
1.22150000 -2.95950000 -20.79580000
1.14270000 -1.47340000 -20.72370000
1.20430000 -4.37000000 -21.07460000
1.15370000 -3.35570000 -21.30440000
1.18270000 -4.18230000 -20.69770000
-0.04060000 -20.40990000 -21.98840000
0.10070000 -21.36790000 -21.37370000
0.06070000 -19.56150000 -21.21570000
0.21690000 -20.35850000 -20.93730000
0.32400000 -5.61090000 -20.65540000
0.31820000 -5.67700000 -21.29310000
0.29550000 -6.72170000 -20.73640000
0.23250000 -6.21670000 -20.10880000
1.13660000 -14.41220000 -2.51650000
1.10000000 -16.03300000 -2.95630000
1.06930000 -15.24820000 -4.05230000
1.23130000 -16.96780000 -2.76950000
1.20620000 -13.91070000 -2.97120000
0.08630000 -18.41500000 -21.80280000
0.02340000 -19.54090000 -21.94480000
0.14750000 -19.24950000 -21.46020000
1.04040000 -17.54900000 -4.08060000
0.26790000 -18.86090000 -22.20260000
0.89280000 -6.59400000 -20.55510000
1.04830000 -5.41100000 -20.82450000
1.03210000 -6.09410000 -21.15260000
0.23000000 -14.15030000 0.12340000
0.21860000 -14.82110000 -0.04780000
0.38790000 -14.28110000 0.37240000
1.03220000 -7.16320000 -20.93620000
0.79560000 -6.42240000 -21.46440000
0.26050000 -15.53640000 0.08800000
0.09840000 -20.10450000 -22.30240000
0.47810000 -6.21480000 -21.57470000
0.37050000 -19.49580000 -22.23990000
0.24400000 -14.83690000 -10.95890000
0.53280000 -20.71150000 -22.28690000
0.67360000 -19.89870000 -22.08010000
0.82900000 -5.08300000 -21.53320000
1.05870000 -4.95800000 -21.37370000
0.66190000 -18.26780000 -22.09770000
0.06110000 -13.65820000 0.03150000
0.10130000 -14.11390000 -0.14940000
0.13060000 -13.24200000 -0.27390000
0.26650000 -13.62240000 -0.35920000
0.84010000 -19.28920000 -21.65630000
0.02460000 -21.56870000 -22.25970000
-0.00260000 -22.18780000 -22.02250000
-0.05100000 -23.48300000 -22.21130000
0.04210000 -22.72210000 -22.41350000
0.43580000 -13.80180000 -0.75530000
0.32360000 -14.39010000 -0.34730000
0.36560000 -15.35650000 -0.58900000
0.09760000 -15.44470000 -11.29430000
0.25040000 -21.94900000 -22.44670000
0.52680000 -22.41280000 -22.37460000
0.19680000 -23.07840000 -22.51440000
0.33380000 -20.97890000 -22.40860000
0.09170000 -21.00730000 -22.34780000
1.10360000 -15.21990000 -0.85390000
1.21970000 -14.43770000 -1.56500000
1.04810000 -15.01890000 -0.06430000
0.91750000 -12.12370000 -10.47430000
0.94350000 -14.17180000 -12.24260000
0.91440000 -14.97280000 -10.81800000
0.68880000 -20.81980000 -21.16120000
0.78400000 -19.70970000 -20.70740000
1.02890000 -13.59590000 2.31770000
1.15600000 -13.61550000 0.78140000
0.75210000 -21.15830000 -21.71890000
0.73940000 -22.85220000 -21.95370000
0.83320000 -22.03830000 -21.64920000
0.79030000 -21.86380000 -22.11130000
0.63210000 -23.63810000 -22.33250000
0.32490000 -16.13060000 -0.10240000
0.14870000 -15.76110000 -0.11650000
0.23230000 -10.94960000 -11.73390000
0.08500000 -12.12990000 -12.13410000
0.12360000 -19.67410000 -18.83990000
1.17810000 -16.13300000 0.01670000
0.33960000 -10.54080000 -13.09940000
1.11580000 -17.09540000 -0.99840000
0.48330000 2.72870000 -20.99620000
0.56450000 1.44340000 -21.45200000
0.44870000 1.51350000 -21.04000000
1.23250000 -16.48880000 -1.73890000
0.46260000 0.03730000 -21.32360000
0.36500000 0.62000000 -20.71110000
0.96730000 -11.64980000 -11.68290000
0.37460000 -1.27600000 -21.20730000
0.52120000 -2.01620000 -21.44330000
0.55710000 -0.60800000 -21.50020000
0.83010000 -0.97680000 -21.42040000
0.88660000 -2.15920000 -21.48250000
0.77940000 0.20690000 -21.51170000
1.06380000 0.15310000 -21.31940000
1.10360000 -1.29780000 -21.16450000
1.18790000 -13.39610000 -1.85800000
1.06410000 -12.71040000 -1.74670000
0.90860000 1.55480000 -21.43710000
1.06220000 -11.24290000 -12.46410000
0.78930000 -20.43100000 -19.51390000
0.51520000 1.85290000 -20.14640000
1.09930000 -12.95470000 -3.05470000
0.96550000 -12.66350000 -2.22490000
1.27550000 1.11910000 -20.57230000
1.19760000 2.07580000 -19.87870000
0.72320000 2.78610000 -21.37530000
1.04570000 -13.64150000 -13.09910000
1.21870000 0.19000000 -21.03380000
1.26470000 1.57790000 -21.07770000
1.13700000 0.19290000 -20.56510000
0.18690000 -16.55950000 -13.19580000
-0.08800000 -17.29380000 -13.63240000
0.07270000 -18.01910000 -13.63250000
0.48890000 -18.72960000 -1.35230000
0.31120000 -16.16960000 -12.67560000
0.04560000 -15.96750000 -13.21560000
0.30740000 -15.85390000 -11.59370000
1.06170000 -2.75800000 -21.51220000
1.26880000 -2.33470000 -21.12990000
1.00130000 -19.50090000 -1.45100000
0.31710000 -17.76650000 -13.07780000
0.13250000 -25.77920000 -21.09250000
1.01310000 -15.66750000 -12.70840000
0.05100000 -23.80910000 -21.37400000
1.01650000 -18.20270000 -1.83710000
-0.16550000 -18.39140000 -14.09500000
0.26240000 -8.78220000 -18.05360000
0.31270000 -10.25170000 -17.41550000
0.78390000 -25.39360000 -20.03170000
0.71190000 -25.13990000 -21.09190000
0.85700000 -10.35610000 -18.65830000
0.89780000 -8.73350000 -19.54690000
0.89450000 -9.46570000 -18.17980000
0.80860000 -8.15570000 -20.06820000
0.88870000 -8.38770000 -20.79030000
0.10590000 -16.13250000 -13.59610000
0.13180000 -17.89820000 -14.27740000
0.28500000 -17.02840000 -14.65670000
0.21940000 -15.54890000 -14.01460000
0.20570000 -16.02770000 -14.52670000
0.24090000 -15.05880000 -14.52300000
0.05120000 -15.52970000 -14.57990000
0.20200000 -15.50200000 -15.03500000
0.66430000 -27.94730000 -21.81610000
0.28820000 -14.36890000 -16.21020000
0.24970000 -16.57130000 -15.54160000
0.11900000 -16.13920000 -14.98110000
1.03950000 -15.79360000 -14.04810000
1.05480000 -16.56430000 -13.86600000
0.97530000 -7.62020000 -21.20830000
0.68240000 -26.93700000 -22.25370000
-0.64880000 -41.75560000 -24.55830000
-0.31880000 -41.53610000 -24.26640000
-0.63440000 -40.65750000 -24.42650000
0.89530000 -16.92650000 -14.69640000
-0.28150000 -39.85070000 -24.14370000
-0.15270000 -42.34140000 -24.21770000
-0.34940000 -42.51230000 -24.75160000
1.15980000 -18.61890000 -3.75290000
0.00230000 -42.67940000 -24.29180000
0.08710000 -42.79630000 -24.74230000
0.39110000 -42.83490000 -24.29930000
0.39700000 -42.60810000 -24.75500000
0.30330000 -23.79080000 -22.57140000
0.17930000 -42.48970000 -25.08480000
-0.20480000 -42.44890000 -25.06140000
-0.18390000 -42.16240000 -25.29190000
0.38210000 -41.79190000 -25.06250000
0.73580000 -24.65820000 -22.27320000
0.07650000 -41.81940000 -25.33950000
0.10420000 -41.04460000 -25.31790000
0.41150000 -40.46070000 -24.90650000
0.42120000 -39.46710000 -19.30440000
0.22920000 -39.30360000 -20.16740000
0.30460000 -39.90770000 -20.36450000
0.53450000 -40.34720000 -20.37320000
0.67910000 -39.70890000 -19.56040000
0.81130000 -39.97660000 -19.84190000
0.58130000 -39.36490000 -18.83470000
0.83360000 -39.55330000 -19.20010000
0.87250000 -39.35770000 -19.95590000
0.91420000 -39.06760000 -18.94510000
0.19630000 -33.81590000 -19.51380000
0.35990000 -13.39020000 -4.86440000
0.35390000 -12.71310000 -5.66400000
0.31300000 -13.71560000 -6.27380000
0.39800000 -12.53300000 -6.98190000
0.25480000 -41.39290000 -23.50120000
0.14910000 -40.58630000 -22.50540000
0.10520000 -39.37590000 -23.06570000
0.28070000 -40.73120000 -21.80790000
0.27460000 -41.67570000 -23.14630000
0.18450000 -39.28980000 -22.38160000
0.11550000 -40.09590000 -21.54160000
0.27340000 -38.65810000 -20.43590000
-0.12960000 -31.83290000 -22.22120000
0.03170000 -31.77720000 -21.68720000
0.93590000 -12.64530000 -4.66570000
1.13300000 -13.07280000 -3.96630000
0.47450000 -41.34950000 -22.27530000
0.15000000 -29.84790000 -20.49190000
0.15460000 -30.94960000 -21.09680000
0.14660000 -31.90750000 -19.82070000
0.11100000 -30.71150000 -19.32310000
1.01550000 -15.56310000 -11.29980000
0.08910000 -29.72460000 -21.45630000
1.22270000 -13.88290000 -4.01040000
1.05080000 -13.81450000 -4.80470000
0.97930000 -13.35390000 -5.55650000
0.84970000 -40.64820000 -21.45850000
0.75320000 -39.85110000 -22.14450000
0.87670000 -39.93880000 -20.78120000
0.00150000 -33.24320000 -21.88080000
0.86160000 -40.84350000 -22.68900000
0.79560000 -41.22820000 -22.61050000
0.92150000 -41.22540000 -21.95540000
0.76810000 -40.62000000 -20.97370000
0.03200000 -32.43900000 -22.67400000
-0.05720000 -33.23980000 -22.43190000
0.05480000 -34.00580000 -23.05020000
0.12400000 -33.89670000 -21.51540000
0.26020000 -42.25520000 -23.77120000
0.44510000 -42.36040000 -23.83150000
0.29330000 -14.87000000 -5.69930000
0.72840000 -31.26620000 -19.62480000
0.70870000 -33.69660000 -21.51560000
0.78120000 -33.22320000 -19.79030000
0.74290000 -41.64050000 -23.64760000
0.66530000 -41.72550000 -22.99850000
0.67530000 -41.22850000 -22.08770000
0.91450000 -13.86920000 -6.31000000
1.03160000 -15.92360000 -5.68570000
0.95080000 -14.90650000 -5.18570000
0.65700000 -32.43310000 -22.27790000
1.08130000 -14.68590000 -4.64750000
0.16810000 -39.34740000 -23.70830000
0.12350000 -40.51780000 -23.97200000
0.10630000 -37.74760000 -23.20670000
0.28120000 -40.77690000 -23.67640000
0.69690000 -40.01660000 -23.41200000
0.72090000 -40.92890000 -23.78730000
0.61130000 -39.22080000 -24.29030000
0.22580000 -37.24050000 -20.50640000
-0.27640000 -38.03360000 -24.04820000
-0.52960000 -39.39840000 -24.39510000
-0.44540000 -38.75210000 -24.58890000
0.36800000 -11.50960000 -6.11710000
0.24640000 -38.31230000 -22.01550000
-0.05270000 -38.16370000 -24.86170000
-0.14950000 -39.22450000 -25.00640000
-0.31080000 -37.74050000 -24.57660000
0.17970000 -39.36650000 -25.06560000
-0.09730000 -34.43390000 -23.33830000
0.11320000 -34.67360000 -22.94700000
0.11210000 -38.15750000 -23.65620000
0.38310000 -37.64170000 -24.49570000
-0.21410000 -33.87330000 -23.70030000
-0.17530000 -35.17630000 -24.06640000
-0.26330000 -36.34290000 -23.94890000
-0.16220000 -36.44120000 -24.30270000
-0.02970000 -35.42450000 -23.16190000
