-9.82963467 0.07563330 0.44419619
-9.17926502 -0.11078010 0.40130821
-9.72646427 0.25071421 0.48523110
-9.08495331 -0.43931100 0.25043249
-9.91894722 0.81776398 0.53137082
-9.17684174 0.04382520 0.44727421
-9.24100780 -0.26004449 0.34835491
-9.43964291 -0.38840941 -0.31026989
-9.17763042 0.26765639 0.49435171
-9.71895981 0.54535019 0.52334011
-11.67749310 0.13276890 0.44366640
-11.31232452 -0.08477220 0.37591261
-11.29786682 0.06348330 0.42419311
-11.11177063 -0.39245221 0.11222010
-11.42512798 -0.38696519 -0.13686299
-11.06936836 -0.40629479 0.02090370
-11.55005741 0.34701690 0.49296090
-11.36546421 -0.37243080 -0.19424160
-11.39672661 -0.28811911 -0.29616600
-11.58192253 0.61014837 0.53033429
-11.09722424 -0.39589229 -0.16353180
-11.25673485 -0.17027850 -0.38135490
-10.82665825 -0.30095759 0.28030291
-11.03112507 -0.36741450 -0.23450130
-10.93048477 -0.41056409 -0.11481060
-10.81592369 -0.05856780 0.38936970
-10.77424812 -0.38756639 0.17744879
-10.91846371 0.24589320 0.48426151
-11.09411716 0.45122519 0.52574641
-10.79965210 -0.34817281 0.23947620
-10.63343334 -0.21200880 0.33253801
-10.90585899 -0.26212919 -0.34006140
-10.92770863 -0.31451610 -0.29957610
-11.11282635 0.01085130 -0.47903100
-10.81661415 -0.36834961 -0.25372589
-10.61438084 -0.42623371 -0.00962820
-10.42155075 -0.40560570 0.17449230
-11.25532246 0.12661830 -0.51964170
-10.53349686 0.21305880 0.47228760
-10.38325500 -0.44081491 -0.14321730
-10.26287842 -0.43551689 0.11172900
-10.33149052 -0.41392979 -0.23644590
-10.63778782 -0.16557510 -0.41149080
-10.63813877 0.44638741 0.51250678
-10.05397320 -0.45963570 -0.09114690
-10.27277946 -0.43630621 -0.19563811
-10.65570068 -0.06755760 -0.46308661
-10.51022911 -0.35697091 -0.28935599
-10.50017357 0.65371019 0.53091478
-11.03861141 0.37476239 -0.58477020
-10.43938828 -0.24321599 -0.37366709
-10.92649651 0.18659221 -0.54488277
-10.37883186 0.07401960 -0.52359420
-10.73561573 0.51056010 -0.61429203
-10.04307365 -0.39569551 -0.28468859
-10.47939873 0.26038861 -0.57123899
-9.94033337 -0.26487690 -0.38047650
-11.20692444 0.72052473 -0.62886572
-10.23240662 0.15008160 -0.54808831
-11.19688892 1.09694517 -0.55188209
-10.82175541 0.73002988 -0.63503009
-11.29600525 1.03306258 -0.60582632
-9.96945858 -0.13590901 -0.44833139
-9.77992153 -0.37814641 -0.30796680
-10.41582203 0.35107291 -0.59224588
-10.14919758 -0.03945030 -0.48821580
-10.95330811 1.09094131 -0.53854471
-11.02434444 1.01262152 -0.60999840
-10.83200264 0.88479209 -0.63287133
-10.81292343 1.00949550 -0.61056960
-11.88062000 0.02529030 -0.46063259
-11.82200813 -0.20821290 -0.33266431
-11.82468605 0.12978961 -0.50444281
-11.98682117 0.24225751 -0.53513581
-12.38613510 0.49001101 -0.57724559
-11.60801601 0.29594970 -0.55766279
-12.04127026 0.44672400 -0.57902670
-12.20695972 0.97590119 -0.61592728
-11.96619225 0.66762388 -0.61577010
-12.06466579 0.84029162 -0.62181598
-11.60466290 0.55832279 -0.60749400
-11.47344494 0.40188330 -0.58353567
-11.67210484 0.77522612 -0.62932861
-11.83037376 0.98977679 -0.61696172
-11.57156277 1.08931315 -0.57965553
-11.58355427 1.01962292 -0.61199433
-11.38953114 0.91291678 -0.62731922
-11.49454117 1.13840735 -0.46369740
-8.41192913 0.00112500 0.45628831
-7.99854565 -0.38594219 0.33614430
-8.12815666 0.44859719 0.53213072
-7.59065294 -0.13619070 0.43966860
-7.67300797 -0.25771290 0.39745289
-7.71436214 0.00039600 0.47173139
-8.20545387 0.77823061 0.53475600
-7.74888325 0.50001872 0.54093212
-7.47216845 0.22504561 0.51549870
-7.86996698 0.79997969 0.52722782
-7.10669088 -0.01603950 0.48486331
-7.46648598 0.77125442 0.53004241
-8.03161907 0.89168638 0.48264331
-7.93134594 0.92780310 0.39382949
-7.23276329 0.52920240 0.54885632
-7.71429062 0.66317463 0.54556650
-7.63789463 0.89724451 0.44125021
-7.82274008 0.93326640 0.22622970
-7.70121288 0.85610789 0.50192428
-6.93785810 0.12901650 0.51532918
-9.22111225 -0.49724489 0.12549180
-9.84799099 0.71201849 0.53337842
-9.13129616 -0.38371560 0.29185799
-8.83405876 -0.35334900 0.31700280
-8.96467400 -0.49564290 0.18520230
-9.28918648 0.59970182 0.52666140
-9.39121437 0.83089560 0.52989268
-8.69303417 -0.13490310 0.40616339
-9.25370216 -0.32299921 -0.36714089
-8.34364700 -0.19545150 0.39597541
-9.46716976 0.89598179 0.51763231
-9.67033100 1.04768038 0.13517250
-8.65943623 0.25292581 0.49665481
-9.14543247 0.94957441 0.49496371
-9.31721210 1.02117932 0.30466440
-8.18181515 0.10553910 0.48425281
-8.84965801 -0.05839140 -0.50378579
-8.64927864 0.44342551 0.52355158
-9.75528717 1.05194676 -0.24738330
-8.97146034 0.71589810 0.53741848
-8.96044636 0.11825940 -0.55225110
-8.76807213 0.83966851 0.52406579
-8.81436825 0.96874440 0.43158209
-8.91689205 0.80529541 0.53387642
-8.52354622 -0.16235550 -0.47042671
-8.90965271 0.99851370 0.29550511
-8.83416557 0.93103677 0.48825660
-9.08744049 1.01358986 -0.00571140
-8.38416862 0.66902822 0.53855520
-9.37470722 1.02745974 -0.30070710
-8.88993835 0.34168619 -0.59814149
-9.38219452 1.02341759 -0.39660779
-8.79721451 0.48840901 -0.61782932
-8.34386444 0.00255390 -0.52687353
-9.45487785 1.01681972 -0.50391179
-8.42370605 0.28595760 -0.58867472
-8.76909637 0.99296129 -0.13034280
-8.38439274 0.92010450 0.48160410
-8.47484684 0.96819299 0.33803639
-8.20905781 0.10681680 -0.55136818
-8.47095203 0.95580691 0.42648810
-8.78317261 0.62773383 -0.62564248
-8.36118412 0.84862107 0.52060801
-8.97057724 0.77863169 -0.62848139
-9.02844620 0.99115801 -0.45357421
-9.07493019 0.90917999 -0.60413402
-9.11650753 0.97052819 -0.54974282
-8.87739754 0.94977897 -0.55180287
-8.13732433 0.93939388 0.36762899
-8.86481285 0.86270189 -0.60669810
-8.63224125 0.79081649 -0.61890483
-8.71753788 0.97228438 -0.47061870
-7.79440117 0.16395479 -0.56044137
-8.17317200 0.95345908 -0.00152250
-8.39328671 0.69769353 -0.61796820
-8.46738148 0.86919153 -0.59239173
-8.33855152 0.94121039 -0.46691281
-8.05168247 0.55233121 -0.61384350
-8.50932598 0.93216932 -0.52795291
-8.33125496 0.95537192 -0.32199869
-8.03897953 0.40609020 -0.60339057
-10.04181194 0.41876879 -0.60838652
-9.54308891 0.01782420 -0.52021378
-10.42388344 0.70978469 -0.63664138
-10.14390087 0.55897802 -0.62706989
-10.60697269 1.09610701 -0.34057859
-10.76569653 1.06678617 -0.56099731
-9.52794838 -0.19967040 -0.42074099
-9.69347954 0.24378119 -0.57712227
-10.45772076 1.07680774 -0.50831729
-10.66487026 1.09055817 -0.46990439
-10.16437721 0.79782212 -0.63815850
-9.37018871 -0.08817480 -0.48340139
-10.15384865 1.07370901 -0.25983810
-9.54069614 0.09602520 -0.54307288
-10.52341652 1.04240215 -0.57909179
-10.43380356 0.97570288 -0.61338657
-10.01532459 0.88301039 -0.63107163
-10.26354599 1.06230092 -0.52275181
-10.13686752 0.96738988 -0.61193639
-10.06019878 1.01890588 -0.57656312
-9.44825268 0.61992782 -0.63090390
-9.91305065 1.05182076 -0.44247600
-9.84824181 0.93368793 -0.62312162
-9.43469143 0.76320088 -0.63492543
-9.82334614 1.02249122 -0.53873879
-9.62932873 0.96073800 -0.60205799
-9.43593216 0.44939521 -0.61377960
-9.40543842 0.96974611 -0.57734668
-9.43899345 0.87284368 -0.62460423
-6.55151415 0.03217980 0.51136678
-5.52385521 0.06686940 0.54223257
-6.09407711 0.46966109 0.56150490
-5.78729105 0.40294021 0.56407410
-5.88279772 0.60873902 0.55137718
-5.97727060 0.73476928 0.50269592
-5.76834345 0.68574089 0.53068948
-5.66085052 0.25549951 0.55944031
-5.95778036 0.78263968 0.37825021
-5.32326698 0.46693769 0.56787002
-5.42223501 0.63315451 0.54674703
-5.84489536 0.78187227 0.22510830
-5.68441963 0.73968327 0.45940980
-5.46703482 0.68343240 0.52057528
-5.26712179 0.58871758 0.55744648
-5.04708052 0.32518861 0.57103318
-5.50000429 0.74010658 0.41243279
-5.49015141 0.74971348 0.27679440
-5.74690771 0.76768291 -0.06186450
-5.01671982 0.51024902 0.56469452
-7.06362295 -0.11647560 0.46220189
-7.01051664 0.33073261 0.53651643
-7.39586210 0.84036601 0.50253272
-7.34896994 0.90069240 0.05407440
-7.39691162 0.87127292 0.45607859
-7.18166304 0.65134561 0.54757053
-7.18933344 0.79239178 0.51860732
-6.93572474 0.68704772 0.54095459
-6.90846348 0.79896510 0.50249642
-7.39101410 0.90056372 0.34284991
-6.51511478 0.29235420 0.54520649
-7.08979559 0.85676700 0.45904830
-6.18592978 0.14645490 0.53669852
-6.75617504 0.57828093 0.54910588
-6.63861227 0.74692827 0.51919442
-6.84460163 0.19260959 -0.56198430
-6.59454823 0.43282530 0.55252647
-6.93542147 0.87741750 0.19161630
-6.64584255 0.81814200 0.46094099
-6.82456064 0.85116512 0.39719549
-6.59662724 0.27764550 -0.57296401
-6.30170965 0.57536459 0.55765259
-6.92516804 0.84177899 -0.39220920
-6.71786737 0.85464418 0.12932280
-6.88712120 0.55703789 -0.59483010
-6.34150028 0.74107951 0.52225292
-7.09209871 0.82659662 -0.52438802
-6.23007727 0.77312940 0.49161541
-6.26855850 0.66142052 0.54689848
-7.06469202 0.61582887 -0.59049869
-6.20712519 0.79069263 0.44683319
-6.38624287 0.82424670 0.37889761
-6.76611090 0.70643669 -0.56913298
-6.40318060 0.47435459 -0.58783859
-6.57551193 0.81024539 -0.40165469
-6.82246637 0.79048920 -0.52529341
-6.22612143 0.81402540 0.28219289
-6.48233986 0.61390471 -0.58473933
-6.39554787 0.69790918 -0.56384009
-6.26860523 0.80764258 -0.17826840
-6.00041771 0.79104477 0.01633050
-6.30856466 0.79848301 -0.35256749
-6.44103289 0.78201240 -0.49447170
-6.15383101 0.70554328 -0.54726088
-6.08455086 0.51182038 -0.57872939
-5.84062386 0.75912511 -0.34796041
-5.95413446 0.62255341 -0.56068558
-6.14007521 0.76786077 -0.44366339
-5.94179773 0.72201240 -0.51137221
-8.14919662 0.92092562 -0.48985079
-8.15840626 0.85055280 -0.59085357
-7.59900761 0.48249361 -0.60603958
-7.76826048 0.92648041 -0.10642950
-8.00597572 0.72878850 -0.60546958
-7.67725992 0.76510078 -0.59068978
-7.98475838 0.89053649 -0.53546733
-7.52711535 0.32213429 -0.58583248
-7.72194433 0.84936392 -0.55549109
-7.78596973 0.91811907 -0.31559789
-7.50155067 0.61307877 -0.60616171
-7.79570389 0.90247053 -0.44819969
-7.64178228 0.87706047 -0.50568509
-6.96210766 0.42383489 -0.59390068
-7.29796124 0.76294172 -0.57966542
-7.26187706 0.87152457 -0.38670629
-7.36444426 0.83067149 -0.54705721
-7.31705570 0.85857511 -0.48404971
-4.01168251 0.36957359 0.58212990
-3.86592031 0.48535049 0.56201762
-3.62908745 0.43620840 0.57057720
-3.73503709 0.54352981 0.50644290
-3.60698318 0.55450320 0.41016930
-3.27328444 0.40453410 0.57464099
-3.75341153 0.57442558 0.33969539
-3.42218304 0.48425549 0.53776050
-3.26612139 0.52972502 0.24546960
-3.47719622 0.52167779 0.49430341
-3.64960599 0.56069613 0.02856540
-3.31639194 0.52151221 0.44771251
-3.06338429 0.43754911 0.55680662
-3.09224963 0.49471051 0.44130629
-2.83837342 0.46430549 0.49055609
-2.93928218 0.36305940 0.58646673
-2.72977090 0.43946671 0.54106712
-5.05024576 0.61067158 0.54076773
-5.12005091 0.68639731 0.48124981
-5.10113144 0.70565462 0.37919790
-5.29041052 0.71454239 -0.18230040
-4.83382940 0.65226477 0.48137251
-4.45278454 0.42100951 0.56908619
-5.20131874 0.72088683 0.23552610
-4.76648140 0.53587830 0.56419498
-4.57286787 0.61747861 0.51423120
-4.77674437 0.67696619 0.34004521
-4.45486164 0.55412102 0.53734863
-4.95434999 0.69118440 -0.14219099
-4.57873487 0.65534341 0.39221999
-4.37030840 0.61840349 0.46390799
-5.08971500 0.66688502 -0.43100041
-4.62615824 0.66781408 0.19935270
-4.23523331 0.51544923 0.55342740
-4.76912069 0.66805857 -0.25339979
-4.13024902 0.60334080 0.44386771
-4.77724218 0.64531678 -0.42394951
-4.07519150 0.56737411 0.51062340
-4.45333338 0.64826578 -0.02479920
-4.17437363 0.61962450 0.30077669
-4.45567369 0.63200462 -0.32192701
-3.93137455 0.58561653 0.40938959
-4.10088110 0.61257207 -0.02866290
-4.28197670 0.61097461 -0.36989850
-5.59421539 0.54187232 -0.55839330
-5.63772774 0.60391021 -0.55147588
-5.74442148 0.72696388 -0.47378969
-5.48418522 0.62490690 -0.53755587
-5.27015781 0.62480283 -0.52798921
-5.41613865 0.70566088 -0.46270320
-23.77522469 -1.36922550 0.49399680
-23.60729790 -1.44214022 0.49348980
-23.73252678 -0.95244813 0.50396401
-23.49280739 -1.34012461 0.48323521
-23.39720535 -1.33624947 0.44602951
-23.55935860 -1.07408524 0.47408220
-23.26576805 -1.52507126 0.43196550
-23.38441086 -1.21140838 0.38441101
-23.63238525 -0.71444398 0.45718771
-23.49964333 -0.96581042 0.40500599
-23.14009476 -1.57757008 0.35847151
-23.57251930 -0.65950769 0.38429311
-24.06442261 -1.58495343 0.32196271
-23.96654892 -1.55402458 0.41227350
-24.17234421 -1.46740198 0.27180779
-24.15377426 -1.24337912 0.39253500
-24.28789520 -1.13961720 0.29929891
-24.02778435 -1.22750068 0.46272841
-24.34244347 -0.88856518 0.34410241
-23.79920959 -1.64398265 0.45306870
-24.31789207 -0.74057549 0.40461391
-24.23956680 -1.33389330 0.06755040
-24.13871002 -1.52454901 0.03103530
-24.29558945 -1.21945441 0.16971900
-24.18264389 -0.86508298 0.46157911
-24.37845993 -0.95107949 0.23070841
-24.42379570 -0.68149829 0.30972391
-24.10849953 -0.67280012 0.49992961
-24.44006157 -0.73396891 0.16347060
-24.36262894 -0.37958249 0.42786241
-23.94114304 -0.75912088 0.50940478
-24.42279816 -0.56714040 0.34602749
-24.38256836 -0.91874582 0.07281210
-24.24057961 -0.44497439 0.48188910
-24.47924614 -0.23109090 0.34271911
-24.49954605 -0.39387330 0.22477619
-23.94061852 -1.64349210 -0.09779820
-24.05819702 -0.29491469 0.51652592
-24.16688728 -1.31522965 -0.04093080
-24.29527092 -1.06221330 -0.00792660
-24.46258926 -0.51701850 0.03374670
-24.25755882 -0.09753720 0.49493429
-24.17685890 -1.08096635 -0.09698640
-24.38887024 -0.68315518 -0.01766850
-24.54589272 -0.01302390 0.10977930
-24.50138855 -0.40473539 0.13119900
-24.14454842 0.31972739 0.51757860
-23.72817802 -0.64171588 0.49151820
-24.04213715 -1.13960612 -0.15849990
-23.84236717 -1.41676080 -0.18745890
-23.89720154 -0.11327280 0.51469862
-24.20299911 -0.75601768 -0.13922159
-24.50580788 -0.24324360 0.03047910
-23.79916954 -0.15726900 0.49350810
-24.32643318 -0.40365300 -0.10984140
-24.43137550 -0.38664451 -0.03123120
-24.47548866 0.02022870 -0.03756390
-23.86992455 -1.17837059 -0.20238270
-23.70180321 -0.22354320 0.42624149
-24.07983780 -0.75815368 -0.18510060
-23.98842239 -0.77480400 -0.20450071
-23.61445999 -0.35444939 0.34197989
-23.56264496 -1.17610526 -0.20676300
-23.52684593 -1.09063888 -0.17686050
-23.71775055 -0.93715262 -0.21730471
-23.64135551 -0.85974211 -0.19494779
-23.80558968 -0.92319000 -0.21718679
-23.61840630 -0.20070480 0.26181331
-24.00981903 -0.38358000 -0.21107461
-24.20267296 -0.24082559 -0.17793420
-23.74246407 -0.62377262 -0.20726730
-23.57067680 -0.56074739 -0.03817680
-23.59227753 -0.30207869 0.02114460
-23.65145683 -0.44411910 -0.10570500
-23.79025078 -0.35811359 -0.20492969
-23.86326981 -0.31751579 -0.21742830
-23.94964600 0.06439590 -0.21833131
-23.67560196 -0.10639440 -0.08372370
-23.78350830 -0.11512680 -0.18275221
-23.65976906 0.13045590 -0.02013000
-23.72702789 0.27298439 -0.11723520
-20.32657623 -0.86481303 0.42754051
-20.24811172 -0.83828878 0.47501609
-20.51259613 -1.00935209 0.16998211
-20.44052887 -0.81120688 0.28254870
-20.14421272 -0.69183028 0.50575739
-20.33210945 -0.73267353 0.39355770
-20.24839592 -0.59321427 0.45804480
-20.44651985 -0.58836150 0.20848741
-20.18799973 -0.40170270 0.50099969
-19.11059570 -0.04761000 0.43286490
-18.79242325 -0.12497070 0.36496559
-18.58751488 -0.16157369 0.28433341
-18.93685150 0.64579260 0.59555101
-18.57319260 -0.06811620 0.39021870
-18.52824593 0.21580140 0.50018191
-18.51222992 -0.18363090 0.14002439
-18.29775429 -0.04989780 0.38626620
-20.38588524 -0.48986790 0.30326551
-20.31535721 -0.36008820 0.40561861
-20.45738983 -0.60980099 0.09016200
-19.78679657 -0.78937888 0.49454191
-19.97990799 -0.64624590 0.51793081
-20.43544960 -0.32247570 0.26296470
-20.43111801 -0.14199869 0.35345700
-20.22929573 -0.13891619 0.54768091
-20.34057617 -0.15851609 0.45216510
-19.99212074 -0.30055559 0.55153352
-20.52491951 -0.14202690 0.14784870
-20.46351433 -0.31504440 0.11185320
-20.23126221 0.10484190 0.55635089
-19.69208717 -0.91034162 0.44933879
-20.44023514 -0.43922910 -0.00004920
-20.51959801 -0.06656340 0.05556300
-19.93455124 -0.08314380 0.61430937
-20.37413406 -0.59732729 -0.16017000
-20.44467926 0.10259310 0.23364630
-20.46589088 0.22253969 0.11978550
-20.06942749 0.06349980 0.61607128
-20.16211700 0.27792570 0.59306520
-19.76945305 -0.45301199 0.51061261
-19.61813545 -0.62787032 0.45574591
-20.38734245 0.12478110 0.34948859
-20.38448906 -0.35235149 -0.14238210
-20.30210114 0.17928810 0.48169079
-20.46294785 0.14360790 0.01978680
-20.42442131 0.46018469 0.30481741
-20.46248245 -0.16197599 -0.12592170
-20.32356071 0.50750369 0.46796700
-19.69544029 -0.11699790 0.61341542
-19.47516823 -0.78395641 0.31256729
-19.74759674 -0.30515999 0.54644191
-20.27287292 -0.46307549 -0.26798999
-20.08354378 0.44528911 0.61800897
-19.58196068 -0.38122830 0.44420791
-19.98414230 -0.59392560 -0.32202029
-19.89867020 0.48296279 0.63815880
-20.43043518 0.05213430 -0.13424911
-20.01191521 0.72753811 0.62978250
-19.68844795 0.24752070 0.63579059
-19.49176216 -0.09233340 0.55137092
-20.45328331 0.25213680 -0.04094610
-20.46650887 0.51194161 0.15993330
-20.15663528 -0.47738039 -0.31350660
-19.58303070 0.00939180 0.60907859
-19.40991402 -0.68328029 0.21767850
-20.27539635 0.04776420 -0.34789619
-19.42359924 -0.37287870 0.32419381
-20.29888535 -0.19072320 -0.29684040
-20.46741104 0.56206769 0.01030860
-19.85918045 -0.41025209 -0.32136211
-19.37378693 -0.22933920 0.37847069
-20.12375069 -0.23690490 -0.35389501
-19.61620140 0.69177389 0.63004202
-19.38060379 -0.52441651 0.17129070
-19.35221291 -0.26829660 0.29015040
-19.31732559 -0.15946379 0.39434791
-20.15933800 -0.00174390 -0.41274151
-19.48443413 0.33249030 0.60362971
-19.49080849 -0.66786689 -0.12910891
-19.81802368 -0.27229801 -0.34320390
-19.42438507 -0.71430629 -0.02210580
-19.35759735 -0.36857849 0.14993910
-19.34605598 0.04995540 0.50228280
-20.27556992 0.22700760 -0.32522461
-19.63434982 -0.43421999 -0.24606270
-19.45424461 -0.39159539 -0.12663960
-19.24630547 -0.20508990 0.27201179
-19.28264427 0.31956419 0.55199552
-20.15464973 0.23158500 -0.39895409
-19.04015732 -0.11084790 0.39156449
-19.37890053 -0.37150589 -0.01280640
-19.08575439 -0.16065900 0.34143090
-19.38427544 -0.26207700 -0.12239070
-19.65969086 -0.24901560 -0.30750689
-19.79373550 -0.00571890 -0.44727689
-18.85191345 0.02623650 0.45457169
-19.00740051 -0.17178330 0.28917149
-19.24839211 -0.19905511 0.08783370
-19.45351601 -0.08516010 -0.28680119
-19.30521774 -0.24856050 0.12110910
-19.06755257 0.20504729 0.51593220
-19.25116158 -0.19016971 -0.08257680
-19.87767792 0.32167110 -0.44313511
-20.01847458 0.77064240 -0.43710360
-19.05561066 -0.17832451 0.13796429
-19.07773972 -0.14373690 -0.15465690
-19.93598366 0.58047539 -0.44605410
-19.33362770 0.67794663 0.59913778
-19.17791557 -0.10527870 -0.20707020
-19.67202377 0.11532990 -0.43954739
-19.57231522 0.01395240 -0.40205461
-18.73567390 -0.17377560 0.16894710
-18.83551216 -0.17559810 -0.00083280
-19.01002121 -0.17029139 -0.06974880
-19.18957710 0.01573050 -0.27859890
-18.55642700 -0.15034799 -0.11594520
-19.17404938 0.10508280 -0.30802649
-19.31731987 0.28909501 -0.35439721
-19.61927986 0.56373513 -0.44633281
-19.45141602 0.40102199 -0.39758790
-18.61199951 -0.10323360 -0.18171389
-19.31986809 0.51946741 -0.39754441
-20.37947083 0.27853620 -0.20422290
-20.42868805 0.58056480 -0.13122150
-20.37696075 0.61235851 -0.22824870
-20.19751358 0.55432707 -0.38421479
-20.26241684 0.66359639 -0.33506820
-20.27681732 0.95393848 -0.28498259
-20.12334633 0.87917280 -0.41030550
-19.95908356 1.09966350 -0.43368089
-16.62725830 0.04892190 0.43517941
-16.54948807 -0.22974271 0.23869200
-16.75667953 0.17935561 0.48446190
-16.27363968 -0.22385401 0.26332769
-16.61264610 -0.14906131 0.33650160
-16.70260811 0.72549272 0.59493148
-16.21750069 -0.16250280 0.32755110
-16.30113602 0.28203869 0.50456852
-16.31991768 -0.07257120 0.37530300
-16.36252975 0.42623311 0.53859991
-16.59205246 0.54546988 0.56591910
-16.72911453 0.90158731 0.60843933
-18.37521935 -0.12937200 0.34187219
-18.74967003 0.39085349 0.55541998
-18.34288025 -0.18258750 -0.02261790
-18.20417023 -0.18399420 0.22935480
-18.10052490 -0.14318220 0.31097311
-18.16503525 0.23188290 0.49522439
-18.19731331 0.42777991 0.54710191
-18.17536736 -0.19189020 0.06238230
-18.49311638 0.69382650 0.59945822
-18.05234146 -0.03580200 0.39409891
-17.77935791 -0.09061530 0.37452751
-17.78717041 -0.18187380 0.27156240
-18.07972336 -0.17219520 -0.10812480
-17.85849190 -0.19783381 0.18114930
-17.82662010 -0.19893540 -0.02033400
-18.19959259 0.88336653 0.60281760
-18.03726387 -0.12477690 -0.18192780
-17.83386040 0.12600900 0.47416231
-18.19492340 -0.04687200 -0.22293960
-17.52581787 -0.13611570 0.33882901
-18.17094994 0.68776321 0.58280277
-17.69065666 0.31865641 0.53432161
-17.71585655 -0.18901260 -0.09425640
-17.42294693 -0.17646030 0.29011500
-17.81647491 0.63394022 0.59274268
-17.87148476 -0.03580140 -0.25434300
-17.50573349 0.09460140 0.45861539
-17.36578369 0.44892031 0.56534398
-17.67721939 -0.15126631 -0.16652940
-17.24422264 0.65451479 0.59591311
-17.73384094 0.89736837 0.61443692
-17.37820625 -0.21189570 0.16255860
-17.56966591 0.75037771 0.60735452
-17.81959724 0.12008070 -0.33589861
-17.57069588 -0.20538870 0.00621720
-17.12570190 -0.22375800 0.02554320
-17.16722870 0.04906170 0.44619781
-17.49055481 -0.12206670 -0.20737021
-17.26329422 -0.19250730 -0.13372380
-17.38610077 -0.05006490 -0.26096401
-17.11092377 -0.20681790 0.24177210
-17.95337868 0.28304100 -0.38914829
-17.25930214 -0.10081560 0.36784530
-16.94506454 -0.22765890 0.18426991
-17.75506210 1.03623176 0.60842848
-17.37568092 0.21401910 -0.38623589
-16.82137680 -0.08032860 0.38072729
-17.52347946 0.32758799 -0.41740921
-16.88129425 -0.18006600 0.30667770
-17.16130066 0.30650130 0.53066790
-17.03473473 -0.14409660 -0.20784810
-17.08545685 0.13916670 -0.36527339
-17.31336975 0.96582121 0.61358428
-16.68348122 -0.07001220 -0.27213630
-17.12667847 0.87263250 0.61532998
-17.35606384 0.70228922 -0.48739859
-17.54326630 0.90073860 -0.49603710
-17.22718239 0.29023111 -0.41481271
-17.55636787 1.28522849 -0.02639580
-17.57786942 1.05642664 -0.49551541
-17.05597496 0.02143350 -0.30954540
-16.72126007 0.27865231 -0.42704430
-17.46734810 1.29389215 -0.22760940
-17.05097198 0.51162148 -0.47049779
-17.63935089 1.29112196 -0.30938429
-16.80349350 1.10683584 0.59334600
-17.82866669 1.26649773 -0.39357090
-16.48222160 0.01300770 -0.32179081
-19.68257713 1.19431472 -0.42899641
-18.63425064 0.06195630 -0.28475940
-18.75229836 0.29253751 -0.36861420
-18.55506134 -0.04132920 -0.22771171
-19.54027367 1.07412028 -0.44173980
-19.73167229 0.89337242 -0.45686579
-18.82930565 0.16279680 -0.33033630
-19.36187744 0.75494999 -0.42711210
-18.91266632 0.53055841 -0.41406929
-19.41881371 1.14437187 -0.41643479
-19.09553528 0.69217652 -0.43080270
-19.14913750 0.90101039 -0.43797240
-19.26050949 1.15860116 -0.42349559
-18.35292435 0.16184790 -0.32442299
-18.54158401 0.49171650 -0.41746140
-19.01366043 1.09729195 -0.44485891
-19.10557938 1.21488273 -0.41155109
-18.50830841 0.77339667 -0.45756480
-18.63537598 1.04176831 -0.45858419
-18.22856903 0.42216241 -0.40234169
-18.86273956 1.21287870 -0.41840670
-18.07615280 0.80230290 -0.46834201
-18.61301231 1.17649531 -0.44209889
-18.61762428 1.25224864 -0.39034230
-18.45334816 1.28218734 -0.30385831
-17.74777222 0.49994609 -0.44925869
-18.18256569 1.15247822 -0.45317519
-18.20998764 1.01544118 -0.46635181
-18.27648544 1.25966883 -0.38863081
-18.11035347 1.24392235 -0.41115001
-17.90752792 1.02619982 -0.48636359
-17.71587944 1.14878464 -0.47781420
-17.90632057 1.22432697 -0.44274151
-18.11879730 1.28739274 -0.29096460
-14.53866959 0.34318021 0.50364059
-14.27069473 0.19169010 0.46648049
-14.09841156 0.56974381 0.53879762
-14.13186455 0.41013119 0.51452100
-16.79790497 1.00481999 0.60666633
-16.50597954 0.85231292 0.60324991
-15.97655869 -0.09155910 0.36405241
-16.44579315 1.15663886 0.56343389
-15.53563595 0.38019750 0.52495021
-16.24488831 0.95781118 0.59515262
-15.75218296 0.03657150 0.41618761
-16.03802681 0.68529689 0.57590699
-16.36688614 1.10140347 0.58170903
-15.74988747 0.82725507 0.58798528
-15.62669468 0.24020191 0.48959401
-15.78429604 0.16016760 0.46281511
-16.45282936 1.22003281 0.47698680
-16.34097862 1.26652920 0.18541260
-15.78607178 0.95765489 0.58892697
-16.00508118 1.06137776 0.58237261
-15.80047512 1.12237978 0.56016600
-16.20577049 1.21455812 0.48159119
-16.08649445 1.17151046 0.53782052
-15.47294521 0.57707608 0.55902988
-15.75520515 0.29339281 -0.45344609
-15.12333775 0.34931701 0.50916779
-15.86901379 1.23426092 0.39748800
-14.90489960 0.14734741 0.45432541
-15.85889626 1.20807898 0.48100290
-15.25476170 0.76570171 0.57462239
-15.43723965 1.08188307 0.56818229
-15.33009434 0.34354469 -0.47710800
-15.59126854 1.18707633 0.50075340
-15.84803295 1.24756265 0.27687120
-15.25149822 1.02527189 0.57406831
-15.42692661 1.14629459 0.54111362
-15.83467484 1.27968931 -0.11354370
-15.35978413 0.49687591 -0.50920892
-14.93479633 0.67879772 0.56293827
-15.37364960 1.22158325 0.38075551
-15.11312675 0.86658180 0.57736140
-15.32079124 1.18221414 0.49515960
-14.88296223 1.07455826 0.56025720
-15.10706806 1.15004611 0.52752990
-15.07994843 1.20097530 0.45434430
-14.56976128 0.68329740 0.55725598
-15.83962536 1.28359377 -0.38368979
-15.33218765 1.24602985 0.17328720
-14.83057117 0.44873071 -0.51292562
-14.75796413 1.15957260 0.50443047
-14.59799385 1.10612035 0.54646951
-15.39951706 1.13297069 -0.54289049
-15.44858074 1.24035275 -0.48294181
-15.60694218 1.23361826 -0.49460730
-14.88137722 1.21549082 0.35813069
-14.91480541 0.86807370 -0.56560290
-15.38761997 1.27281237 -0.19936740
-16.91189384 1.15820789 0.57189870
-16.82570267 1.28601360 -0.00841170
-17.46509171 1.24655402 -0.44522491
-16.86502457 0.40249500 -0.45620370
-17.60526085 1.22092891 -0.45846811
-16.83562660 1.20439291 0.52240741
-16.51284218 0.67428839 -0.50942039
-16.95867729 0.91701901 -0.51799589
-17.21590996 1.05619836 -0.51008463
-17.43696594 1.27913070 -0.38854650
-16.67181969 1.24437690 0.38764319
-16.33145142 0.38993701 -0.46507531
-17.22863579 1.20144963 -0.48178619
-16.75402641 1.27032304 0.16273110
-16.56296921 0.59303731 -0.49857181
-16.16930389 0.48509699 -0.48938671
-17.13280869 1.29067385 -0.36245129
-16.96797562 1.16671956 -0.50093460
-15.91314030 0.16634430 -0.40261200
-17.02249146 1.25696373 -0.45223951
-16.70292473 1.29033685 -0.37263450
-16.35326195 0.22049010 -0.40996739
-16.66745758 0.84723181 -0.52289188
-16.73201370 1.05325437 -0.52675772
-16.13418198 0.57845551 -0.50563377
-16.96912003 1.29539669 -0.22788090
-16.63445091 1.27062690 -0.43920240
-16.69195366 1.22830021 -0.48864871
-15.76899052 0.81334138 -0.54340708
-16.33371353 1.00082517 -0.53628391
-16.61256790 1.14801931 -0.51967531
-16.36445808 1.28941262 -0.35042071
-16.28468323 1.29096568 -0.22504170
-16.42418098 1.18100095 -0.51252091
-15.91337395 0.89129668 -0.54517710
-16.32349586 1.26653910 -0.45195809
-16.09951782 1.14314485 -0.53166389
-16.18850708 1.23034346 -0.49842361
-15.41838551 0.70192683 -0.53996879
-15.57034016 1.00983095 -0.55455297
-15.86453915 1.19784117 -0.51958770
-15.93294621 1.26450717 -0.45915180
-15.74897194 1.28504276 -0.32611561
-15.67127132 1.13569105 -0.54102242
-12.25865269 0.58488148 0.53063703
-11.99729443 0.50695562 0.51977283
-12.36168003 0.71992201 0.54338008
-12.06112289 0.77624339 0.54396212
-12.20670319 1.03110301 0.52891737
-14.55475140 1.00151908 0.56452769
-14.10352230 0.84809220 0.56437677
-14.34547424 1.10802841 0.53645670
-13.76365185 0.34828320 0.52071118
-14.08773136 0.68498188 0.55447412
-14.23749256 1.16769695 0.48893279
-13.49033165 0.66730863 0.54806280
-13.65613651 0.82890272 0.56079149
-14.14690113 1.18850851 0.40817821
-14.00844955 0.97256732 0.55891472
-14.04603386 1.10263824 0.53051430
-13.36922169 0.34762800 0.49612141
-13.22290611 0.62917018 0.53921580
-13.98918152 1.15868008 0.45379740
-12.80202389 0.51777780 0.52807921
-13.68947983 1.02336001 0.54875070
-13.71011543 1.10587621 0.51825333
-13.77955055 1.21199489 0.13250820
-13.91155910 1.20366395 0.26958629
-12.95941734 0.86797649 0.55479872
-13.30873394 1.04763961 0.53455859
-13.67392254 1.17273664 0.40731961
-13.43134022 1.11375356 0.50960642
-13.44265175 1.15371752 0.46150470
-13.22866249 0.98288041 0.54808170
-12.73906898 0.72445470 0.55040067
-13.26828671 1.17993605 0.36029369
-13.14687157 1.13723254 0.47007000
-13.04832458 1.11011159 0.50608289
-13.72874069 1.22259414 -0.08251500
-12.96436405 1.07386196 0.52382731
-13.56300640 1.22544992 -0.27231029
-12.61899757 1.03292906 0.53241962
-12.68208885 1.11953676 0.49493191
-12.83015537 1.16341412 0.41145691
-12.99455547 0.86765671 -0.60618001
-13.14826202 1.20321453 0.01129830
-12.43519497 0.90780962 0.54636508
-12.74983311 1.17642176 0.30178440
-13.25788212 1.19525671 -0.48823291
-12.52544975 1.10911345 0.49071541
-13.38102913 1.21849740 -0.38718751
-12.49073982 1.16570103 0.30165389
-13.36676311 1.15088105 -0.53863829
-12.67777443 1.18701267 -0.02105670
-13.18576336 1.07197499 -0.58379549
-12.87615967 1.20224011 -0.35990551
-14.80469513 1.22856236 0.23019630
-14.96416855 1.25108516 0.00841260
-15.26138306 1.27367520 -0.35621881
-15.21381664 1.26315415 -0.43669921
-14.53175735 1.18674386 0.45404819
-15.04986954 1.05865228 -0.56294280
-14.48260021 0.64047480 -0.55290687
-14.34737396 0.53969938 -0.53984880
-14.45847607 0.74247873 -0.56578499
-15.06486225 1.17052829 -0.54198331
-14.29796505 1.21657324 0.24654150
-14.95382309 1.26243210 -0.42798030
-15.11042309 1.23686671 -0.49740750
-14.68549919 1.02620554 -0.57115859
-14.46194267 1.23840177 0.05033520
-14.75767136 1.21659720 -0.51231569
-14.53131390 1.25218916 -0.37238520
-14.68927956 1.12209451 -0.55795348
-14.70160198 1.26029158 -0.25604701
-14.66486263 1.24738860 -0.45649379
-14.18994141 1.24207473 -0.15867241
-14.37078762 1.11071157 -0.55763400
-14.28851700 0.87654722 -0.57840723
-14.42279243 1.21224272 -0.50580269
-14.21213722 1.23189390 -0.45813149
-14.26331234 1.24680686 -0.30650941
-13.76381207 0.85036862 -0.59073722
-14.04930019 1.08881998 -0.57212520
-14.07439232 1.21005356 -0.47183129
-13.89174557 1.23553741 -0.37224391
-13.73124886 0.72777718 -0.58119208
-14.11395931 1.17925978 -0.54052287
-13.91932678 1.22221136 -0.46278360
-13.64838219 0.95331240 -0.59200680
-13.82803726 1.13960373 -0.56135190
-13.59927464 1.20525146 -0.49187520
-13.58089352 1.03977120 -0.58868581
-13.66988564 1.16605496 -0.54379559
-13.37438583 1.08376801 -0.58465439
-10.04249287 0.90597719 0.52132201
-10.17423248 1.02083969 0.46311209
-10.04717350 1.05177295 0.39608130
-12.24438667 1.12213802 0.47357491
-12.02589798 0.97193402 0.53134501
-11.56440353 0.84985918 0.53911352
-12.04721165 1.14005756 0.40392360
-11.96517563 1.10193574 0.47400421
-11.23339462 0.79362178 0.53112239
-11.58296776 0.96812397 0.53104740
-11.69703865 1.04423487 0.50830501
-11.58241367 1.09055221 0.46416119
-10.86622906 0.81670290 0.54110730
-11.99050808 1.15583885 0.27127290
-11.25813866 1.01524925 0.51015693
-11.63493824 1.12080777 0.40505189
-11.49415874 1.13836145 0.17753071
-11.53413391 1.13305914 0.31814790
-11.25444317 1.08526194 0.45708421
-10.88227844 0.97434539 0.51078451
-10.96954632 1.03619373 0.48926401
-11.11102104 1.11214256 0.35403901
-10.98594093 1.12132287 -0.22982159
-11.01447487 1.08032668 0.44494590
-11.43465042 1.14126205 -0.24712890
-10.53238773 0.97692752 0.50793511
-10.72949886 1.04610264 0.45759001
-10.46403122 0.82466668 0.53045398
-10.70300484 1.09384263 0.33410910
-10.98988724 1.11490166 0.24933900
-10.76742649 1.10730934 -0.15307771
-10.58991623 1.06778312 0.43406221
-10.36408234 1.00542545 0.48906481
-11.08823395 1.11905372 -0.44076839
-10.51932907 1.08713639 0.35035199
-10.22646904 1.07335865 0.16294619
-10.33700657 1.08583534 -0.11534610
-13.01539040 1.20096934 -0.43572661
-12.93021774 1.08426273 -0.59009367
-12.74699593 0.93521971 -0.61069620
-12.38280964 1.15315914 0.38378671
-12.91547489 1.16398895 -0.53452319
-12.74194145 1.03629684 -0.59920287
-12.57691956 1.19018638 -0.33544859
-12.67128181 1.18025696 -0.46749631
-12.61016273 1.12714827 -0.56730992
-12.19974709 1.17687845 -0.16794600
-12.43163490 1.15378344 -0.53425771
-12.37663937 1.04210734 -0.60524338
-12.26737499 1.16404080 -0.50317109
-12.19110966 1.07892478 -0.59587288
-12.07578087 1.17178023 -0.41431409
-11.81849384 1.15987623 -0.39082021
-12.02974987 1.12791812 -0.55020660
-11.70125198 1.15588892 -0.13421039
-11.81575394 1.11457324 -0.58021683
-11.64250755 1.13176382 -0.51337707
-9.88711834 0.94707149 0.50209498
-9.85946465 1.01681876 0.45195839
-9.62901974 0.99939388 0.44943479
-10.17778587 1.06361544 0.34530541
-9.52011204 0.95335948 0.49342650
-9.58091545 1.03304851 0.36576480
-9.35159111 1.00179303 0.44214571
-9.08694839 1.00284898 0.41798851
-24.38078690 0.12378420 0.45379591
-24.45188332 0.00584280 0.39983159
-24.52728462 -0.07167270 0.27905521
-24.55410194 0.36177331 0.20946600
-24.28947449 0.33855510 0.49246350
-24.48149681 0.45640829 0.38678640
-24.55646896 0.14833321 0.19418371
-24.41681862 0.60933483 0.43355399
-24.54721451 0.49773511 0.25919101
-24.51988602 0.29459581 0.34039229
-24.31167030 0.70995629 0.48179790
-24.52432442 0.11937540 0.01870680
-24.17897797 0.99437672 0.50592721
-23.99377632 0.53377891 0.52097338
-24.49111557 0.80295330 0.35225099
-24.55309486 0.39793259 0.07781010
-24.36389732 -0.01578870 -0.11823180
-24.52509308 0.37468621 -0.00357960
-24.52814674 0.78958142 0.27360570
-24.41538239 1.12015617 0.38625929
-23.75601959 0.08144220 0.45701250
-24.54620743 0.73565429 0.14466991
-23.86632347 0.52114022 0.50238001
-23.78091240 0.41984099 0.45465899
-24.51682281 0.75464970 0.03265650
-24.28540039 1.40443981 0.43583131
-24.29681778 1.08333600 0.46556100
-24.52727127 1.02901626 0.15522090
-24.48661423 1.06203842 0.31001401
-24.47564125 0.48943320 -0.04639560
-24.50411224 0.97721398 0.04718310
-24.37158203 0.32805991 -0.12439800
-23.71247101 0.27474749 0.39875850
-24.38162231 0.74879730 -0.10208760
-24.49120522 1.21774173 0.22779600
-23.79145813 0.92846042 0.48146459
-23.84933472 1.21136487 0.50934720
-24.35527802 1.49685085 0.36672509
-24.47355270 1.33878326 0.16971810
-23.99639702 1.20197582 0.51725912
-24.20311928 0.48759419 -0.18661501
-24.28335953 0.80509323 -0.15161370
-23.72436905 1.06400454 0.44616541
-24.41363525 1.11870575 -0.05249490
-23.69780350 0.63393992 0.38558370
-24.46367836 1.32889175 0.08350380
-23.86339569 0.20222311 -0.20753790
-23.73977280 0.37579349 -0.10522680
-24.40738297 1.49056017 0.03339330
-23.80310440 0.40034550 -0.17223480
-24.06729126 0.25867981 -0.21174990
-23.70362282 0.91036201 -0.09055890
-24.33548355 1.44016564 -0.06057690
-24.13485527 1.10728765 -0.18897900
-23.74766922 1.41939235 0.49468860
-24.22296524 1.35888028 -0.14096759
-23.86038208 0.70583850 -0.20150070
-23.79934692 0.71234488 -0.16746689
-23.62095642 1.47319734 0.41945401
-23.58379173 1.74937594 0.46240711
-23.99166107 1.05700707 -0.21063329
-24.14396858 1.74228120 -0.13036770
-23.91324234 0.83257681 -0.21294931
-23.78185272 1.09268367 -0.17909490
-23.56980133 1.46206200 -0.03166230
-23.72012138 1.23196435 -0.14855219
-23.81460571 1.30035484 -0.20093280
-23.87832832 1.57260537 -0.20677561
-23.98484039 1.77830672 -0.18442769
-23.77453041 1.99831951 -0.19977690
-23.62411499 1.60253727 -0.14179350
-23.68894577 1.85383594 -0.20176320
-23.43392563 1.88131106 -0.05884410
-23.61456490 1.82837725 -0.18654300
-20.16056824 0.74699551 0.59003669
-20.26094246 0.78791279 0.51537693
-20.34772873 0.82822287 0.42178530
-20.32509804 1.03024292 0.49578241
-20.42537308 0.82956868 0.28148460
-20.20109558 1.04105127 0.57752550
-20.44001389 1.14320612 0.32285011
-20.40628052 1.34853959 0.30596429
-20.48620224 1.18738735 0.14425440
-20.27707481 1.36440480 0.46392810
-19.96060371 1.04196990 0.62295210
-19.76387024 0.97210979 0.63096809
-20.17801857 1.24630284 0.52381498
-20.19737625 1.36633742 0.49674690
-20.09212875 1.38668156 0.51200038
-20.35472107 1.59769893 0.37403879
-20.19597626 1.76244628 0.48474240
-20.27387619 1.73533344 0.45003751
-19.73147964 1.25113857 0.52990592
-20.31741714 2.05937672 0.45502260
-20.46265221 1.94282365 0.30471841
-20.04129410 1.67019665 0.50076628
-19.88811684 1.69988728 0.49020571
-20.27685928 2.17230487 0.47758529
-19.40239716 1.01199365 0.60317278
-19.61788177 1.10866141 0.59665197
-20.43923950 2.37714720 0.45357239
-19.52429390 1.19640994 0.54130352
-19.79929924 1.37731922 0.49603561
-19.63124084 1.36959755 0.41478571
-19.33862686 1.14235377 0.55623180
-19.56369972 1.28034055 0.42358801
-20.20438194 2.22759533 0.48209819
-19.16442299 0.82337368 0.60575581
-20.10084915 2.23388815 0.48017731
-19.86212349 1.97424722 0.46730009
-19.68596268 1.61469924 0.43207529
-20.00013733 2.34859800 0.45967680
-19.18326378 1.02856922 0.59650737
-19.72885895 1.80640948 0.43478641
-19.41219902 1.26243508 0.35648459
-18.95107841 1.03002834 0.60533881
-19.50020790 1.46848917 0.29939461
-19.45137787 1.45189953 0.23180580
-19.38150787 1.22905564 0.46109191
-20.44644165 0.85035843 0.03384990
-20.44990921 0.90946323 0.14522940
-20.38897896 0.87439919 -0.13477831
-20.43742943 1.05552423 -0.05626530
-20.48067856 1.20161819 0.00062550
-20.44236565 1.43053055 0.10734780
-20.43921471 1.26105356 -0.07565010
-20.33874512 1.08701456 -0.21039569
-20.45718193 1.73800623 0.23409989
-20.43681335 1.40314114 -0.03453990
-20.46219444 1.63052130 0.07402680
-20.50949097 1.85141611 0.07845390
-20.43594551 1.56150055 -0.00430620
-20.47674370 1.78788626 0.00110250
-20.31709290 1.53751528 -0.16839179
-20.49967194 2.15752029 0.32010871
-20.54617500 2.06635022 0.19186801
-20.67386818 2.39188790 0.22963829
-20.51758575 2.34467936 0.38191590
-20.57606697 2.13026047 0.03317220
-20.65300751 2.30693960 0.13275510
-20.22550774 1.14011490 -0.33428219
-20.66194916 2.35900450 -0.00851250
-20.13892746 1.28909910 -0.33797970
-20.52766991 2.05398440 -0.02334660
-20.38042641 1.75639415 -0.13314991
-20.53939819 2.29492068 -0.12085950
-20.23708916 1.45699406 -0.25193489
-20.37530899 2.04582715 -0.19536360
-20.28718185 1.79815412 -0.22937430
-20.00026321 1.33328485 -0.34993559
-20.54080200 2.45460272 -0.18873210
-20.16535759 1.59051180 -0.28417200
-18.68876457 0.92984998 0.61018080
-18.74870682 1.10628092 0.59372371
-18.45838737 1.06162739 0.60090482
-18.54101753 1.21540320 0.51774478
-18.09654427 1.07177794 0.59798253
-18.48437309 1.16520095 0.57222539
-18.15958595 1.15307343 0.57392430
-18.48557663 1.26021934 0.35415450
-18.22009659 1.23865294 0.47463989
-17.97415543 1.24458814 0.43936500
-18.00812149 1.21510684 0.52364671
-18.12483788 1.28090727 0.05765970
-17.91509819 1.16812348 0.57524699
-17.64787292 1.12800062 0.59671199
-17.74780273 1.23634195 0.47367901
-17.89300728 1.26434672 0.26920861
-17.57119370 1.24055672 0.46515149
-17.57549286 1.19914865 0.54965460
-17.36183167 1.16223991 0.57514352
-17.35770988 1.24026990 0.41019240
-17.21489334 1.09962595 0.59539741
-17.07588577 1.20547318 0.52901489
-17.06899261 1.24320149 0.39338401
-19.35481071 1.30035508 0.20455560
-19.84657669 1.49948072 -0.29056951
-19.76173973 2.18049359 0.39593759
-19.53467751 1.80455315 0.27794760
-19.78854752 1.38104582 -0.32383469
-19.61175919 1.93302870 0.32743561
-19.41446495 1.36945140 0.10874670
-19.27002907 1.25150192 0.36876449
-19.46732712 1.64022994 0.15715140
-19.02551651 1.20288932 0.52454430
-19.03417397 1.15432978 0.57071072
-19.63863564 1.43284559 -0.25244430
-19.45860291 1.50548518 0.01760130
-19.65266037 2.23126626 0.29332921
-18.70391846 1.25031030 0.40876499
-19.18292999 1.28817391 0.09133500
-19.45936012 1.49202025 -0.05144400
-19.62605286 2.22308946 0.24699660
-19.27181625 1.29686844 -0.22806810
-19.76622200 1.78760612 -0.25541040
-19.49020195 1.40199542 -0.20637961
-18.85517502 1.26273632 0.27309000
-19.51106834 1.82445478 0.02295570
-19.52762413 1.92881882 0.16103460
-19.52140236 1.73389494 -0.08767440
-19.49531937 1.47609663 -0.14549820
-19.92204666 2.57812262 0.37539661
-19.59106064 2.18753004 0.16298939
-19.63896561 1.75591803 -0.19090590
-19.36084938 1.27233303 -0.35122439
-19.57398415 2.04953074 -0.01036800
-18.75225639 1.22775149 0.48671371
-19.74066162 2.14576626 -0.17852490
-19.73756981 2.51385450 0.24513599
-19.61558533 1.99018347 -0.11965440
-19.61851692 2.26217484 0.02476050
-19.65674782 2.41043091 0.08369580
-19.09267044 1.29072392 -0.14213820
-19.81379890 2.70133495 0.11431830
-19.70170403 2.34143496 -0.08781720
-18.70373154 1.28024220 -0.01982010
-18.92069626 1.26921785 -0.34048560
-18.73747253 1.28115845 -0.21457350
-18.14624214 1.28803623 -0.11025510
-20.44745445 2.27106023 -0.19348620
-20.13126564 1.75009620 -0.28379431
-20.29566956 2.07202625 -0.24482010
-20.42157745 2.50127840 -0.24129780
-20.13690186 2.04130435 -0.27125821
-19.90543365 1.72595429 -0.28829670
-20.30764389 2.43012333 -0.25253400
-20.10251999 2.31685781 -0.25910941
-19.91481781 2.13615918 -0.25301430
-19.96663284 2.49152589 -0.21262980
-19.85509872 2.35458803 -0.18949769
-16.81579590 1.23677552 0.43621469
-24.26911545 1.79830587 0.37136701
-24.38811684 1.64052927 0.26110199
-24.03517914 2.09292960 0.44023201
-24.09251213 1.76316178 0.47296861
-24.13714790 2.08199787 0.38855430
-24.33945656 1.80523825 0.23649330
-24.32567787 1.89496589 0.19734900
-24.34906960 1.80087602 0.10181190
-23.95547295 1.86705744 0.49154431
-24.06297302 1.52522159 0.49691939
-23.76363754 1.76968884 0.50482470
-24.20246506 2.10213208 0.31526339
-23.62421989 1.82177365 0.48884460
-24.21336746 2.17906761 0.22554059
-24.28944588 1.84797418 0.01315020
-24.21812248 2.16698217 0.12577830
-24.14567566 2.03597379 -0.06360900
-24.04011536 2.46135187 0.30166829
-23.79034615 2.33075309 0.47336790
-24.02598190 2.33279252 0.38843551
-23.45769501 2.10569167 0.46842840
-23.46495628 1.88642645 0.40234080
-24.14528275 2.28626227 0.06151350
-23.94408035 2.50930691 0.37487790
-23.72458458 2.55201125 0.45400110
-24.04339790 2.51892877 0.18121620
-23.61425018 2.22247744 0.49341509
-23.45049858 2.31767392 0.48537511
-23.71218300 2.25959945 0.48791581
-23.88876152 2.68252158 0.29711580
-23.72328377 2.68049216 0.42430949
-23.48000145 2.73418975 0.46279410
-23.92314339 2.70154858 0.13443600
-24.06607628 2.35155988 -0.00456900
-23.25521088 2.37922001 0.43630499
-23.26489639 2.21619749 0.37612709
-23.73026466 2.87119341 0.30554760
-23.92864609 2.25828338 -0.13371541
-23.92390442 2.66790938 0.05796540
-23.84221268 2.81079721 0.20088300
-23.20516014 2.50266290 0.45242611
-23.46012497 2.01001287 -0.14740980
-23.87793732 2.56123471 -0.06077280
-23.33726501 2.62258840 0.47799179
-23.47701263 3.08818555 0.33840361
-23.57665825 2.90469480 0.39524969
-23.75585938 2.42015934 -0.16613130
-23.22615814 2.17902875 0.00882630
-23.69174385 2.98153210 0.16466551
-23.12941742 2.35413480 0.32464561
-23.30684090 2.19966936 -0.10771350
-23.72139359 2.88850355 0.00419640
-23.35647392 3.00259614 0.42861599
-23.38191795 2.34573245 -0.19378410
-23.08728981 2.67323995 0.46036530
-23.16795731 2.97628117 0.45821550
-23.63644218 2.37710619 -0.19203059
-23.03446007 2.54297543 0.37409911
-23.09255028 2.32936645 0.01772160
-22.96751213 2.98607612 0.46361911
-23.41155624 3.22576356 0.24758039
-23.07486725 2.42004752 -0.05000580
-23.64247894 2.77463031 -0.11174040
-23.20743942 2.42971683 -0.15991980
-23.52946281 2.75556922 -0.16160341
-22.91043472 2.90523338 0.46189529
-23.37591171 2.52508163 -0.20065080
-22.87399101 2.76088142 0.41798609
-23.39230347 3.08375645 -0.09062820
-22.80630875 2.69502807 0.33170670
-23.49866867 3.13307118 0.02735430
-22.77011490 2.62071180 0.18144991
-23.11655998 2.64927864 -0.18890670
-23.18326950 3.23465419 0.38869771
-23.44796181 3.21490407 0.14149380
-23.33568001 2.97676849 -0.15661350
-22.66129112 2.89210677 0.40906289
-22.71722794 3.01493788 -0.19813080
-20.24697495 2.69336748 0.46117201
-21.77146149 3.05270171 0.35553360
-22.01331711 3.18016505 0.44251621
-21.75147629 3.12162232 0.41137889
-21.71613884 2.99053407 0.24341340
-21.69584274 3.31623936 0.45298350
-21.69890594 2.95715165 0.09917400
-21.51057816 3.21685171 0.45004469
-21.69455719 2.96853065 0.00871590
-22.14392662 3.61269951 0.38911650
-21.42388153 3.03913140 0.34788781
-21.73849487 3.61494088 0.39804840
-21.38022804 2.90808153 0.13213290
-21.37606812 3.12016535 0.42563069
-21.39009285 2.93570781 0.21548881
-21.40956497 2.93390250 0.01084950
-21.15927505 2.96389270 0.35748449
-21.43846512 3.41900826 0.44847721
-21.03345871 2.81772542 0.27614370
-21.49887085 3.54785395 0.41900551
-20.97755051 2.74180388 0.21363179
-21.09200668 2.79587793 0.14198850
-21.11162567 3.13846612 0.45504540
-20.72276688 2.54712415 0.31662929
-20.87610626 2.84889412 0.41589120
-21.01037025 2.73727775 0.04213650
-20.80841064 2.59225512 0.23832540
-20.65665245 2.60580850 0.40178400
-21.22722244 2.90443206 -0.05565090
-21.60189247 3.69019818 0.34271699
-21.16313362 3.42046046 0.43324861
-20.59089661 2.69698262 0.45767131
-21.23923683 3.07286429 -0.18516240
-20.97831345 2.99803829 0.44467771
-21.49492073 3.77017474 0.22316580
-20.80567741 2.54136372 0.08294160
-20.41902924 2.58360720 0.47211391
-20.84002304 3.11522007 0.45788249
-20.76912689 2.53184557 -0.03675030
-21.08874512 3.13386965 -0.21750779
-21.03164482 2.90619349 -0.14719230
-21.22321701 3.56485534 0.38196871
-21.35985184 3.37394500 -0.20674559
-21.28987122 3.68114948 0.31125689
-21.46765327 3.78059840 0.13274910
-20.40947342 2.70706320 0.46908540
-21.33160591 3.73756266 0.21988320
-21.37670326 3.48840499 -0.17975371
-21.45699501 3.75661087 0.02185800
-20.80373192 3.31511545 0.42139560
-20.94505501 3.50585771 0.35251829
-20.79346466 2.94307470 -0.21646801
-20.79619598 2.71675920 -0.15084749
-21.17463303 3.72620440 0.17939401
-20.52662849 3.17264128 0.41267130
-21.27728844 3.67867708 -0.03025080
-20.39727211 2.96610999 0.44092891
-22.90152550 2.68069625 -0.13193700
-22.50067139 2.89534569 0.34693500
-23.03456497 3.46012044 0.28067881
-23.26222992 2.88397050 -0.18481830
-22.90606880 3.34987116 0.40847549
-22.77014732 2.67013359 -0.01423530
-23.17860413 3.32859731 0.32565781
-22.89112473 3.23445606 0.44004300
-22.59222794 2.76815796 0.23651730
-23.30445099 3.29609299 0.03064920
-22.57003021 3.02806759 0.44534999
-23.11658669 3.44597650 0.15107070
-22.53471375 2.77079821 0.14159940
-23.17474174 3.25565195 -0.09110580
-22.84046936 2.81782198 -0.17241360
-22.36889458 2.99882388 0.39083099
-22.95929909 3.16607261 -0.17264310
-22.76654816 3.51943707 0.34495020
-22.40276337 3.33134365 0.44815800
-22.66889572 2.77840161 -0.07102290
-22.61418724 2.97827911 -0.18351720
-22.99188614 3.45171022 -0.00605880
-22.70700455 3.62778401 0.25574040
-22.89868546 3.57003355 0.16300800
-22.48151588 2.89076400 -0.08969580
-22.27676964 2.91142368 0.25614119
-22.37096786 3.12747931 0.44559240
-22.41784286 2.83983564 0.02441160
-22.19015503 3.26037383 0.45355919
-22.40659523 2.97702837 -0.14470710
-22.79970741 3.06017995 -0.19649071
-22.70829391 3.37748861 -0.14995590
-22.28843689 2.86954594 0.10799610
-22.20450211 2.91283536 0.19852710
-22.12131882 3.03814840 0.36515400
-22.75480270 3.60392928 0.05953740
-22.56719780 3.48235703 0.40454069
-22.07371902 2.93777561 0.07073340
-22.45206261 3.68460727 0.27437100
-22.20669937 3.11422300 -0.18589710
-22.26827240 2.96202183 -0.07813590
-22.62581444 3.60322881 -0.02683740
-22.48431015 3.71750975 0.14697240
-22.40081024 3.68360376 0.00795750
-22.00956345 3.09111190 -0.15862620
-22.31975555 3.64499950 0.34954831
-21.95413780 3.52468228 0.43017691
-22.50957870 3.53464675 -0.11056860
-22.17662239 3.77012491 0.20601930
-21.92856026 3.02715206 -0.08519340
-22.30311775 3.17027426 -0.19913310
-22.26973343 3.50651431 -0.15713160
-22.14569473 3.72664070 -0.00447120
-21.69749069 3.20702815 -0.20079090
-22.04927444 3.74836802 0.28861201
-21.61022377 3.04853725 -0.11717400
-22.28479385 3.40486670 -0.18450540
-22.01457596 3.62725163 -0.11359770
-22.17520332 3.32570410 -0.20030610
-22.14640427 3.77514529 0.09451110
-21.58276749 3.12143993 -0.17602530
-21.85017967 3.72536659 0.32258520
-21.82525826 3.28329778 -0.20469120
-21.84381676 3.78460932 0.20253301
-21.94855881 3.78756809 0.06140070
-21.71651649 3.68626189 -0.07503420
-21.74447632 3.76310396 0.02021370
-21.73639488 3.45534897 -0.19119900
-21.79405785 3.55393338 -0.15972421
-21.48973083 3.60082173 -0.12822090
-20.04120064 2.61901855 0.42725399
