1.02510000 -1.94940000 2.80960000
-1.59460000 -1.07560000 1.15700000
0.43810000 -2.60630000 3.62040000
0.41250000 -2.57350000 3.63990000
0.30200000 -2.59350000 3.55340000
0.11560000 -2.60480000 3.30010000
0.36820000 -2.60590000 3.41720000
-1.58940000 -0.99710000 1.17640000
-1.59420000 -0.99310000 0.99400000
0.18530000 -2.58120000 3.45750000
0.11970000 -2.59140000 3.35750000
-1.47480000 -0.90190000 1.38210000
-1.47170000 -0.94350000 1.41980000
-1.41570000 -0.97940000 1.41800000
-1.40800000 -0.93790000 1.43760000
0.30640000 -2.54970000 3.58520000
0.25490000 -2.53770000 3.53140000
0.19680000 -2.45470000 3.48690000
0.11260000 -2.54720000 3.38060000
-1.42550000 -0.83610000 1.32770000
0.61490000 -2.57960000 3.76190000
0.54950000 -2.59720000 3.73500000
0.62560000 -2.60500000 3.67220000
0.56580000 -2.51910000 3.78000000
0.65860000 -2.58520000 3.69760000
0.65300000 -2.52230000 3.77440000
0.68390000 -2.46550000 3.74050000
0.61690000 -2.52950000 3.80020000
-1.55910000 -0.91960000 1.03200000
0.67070000 -2.46940000 3.82940000
0.64320000 -2.46420000 3.87630000
0.70520000 -2.45830000 3.88700000
-1.51560000 -0.87550000 1.08650000
-1.39420000 -0.79690000 1.25580000
0.93840000 -2.60410000 3.82740000
1.02440000 -2.60130000 3.64010000
-1.42360000 -0.80070000 0.96970000
0.99850000 -1.94860000 2.60490000
-1.60620000 -1.06350000 0.77690000
-0.03540000 -1.91690000 1.89720000
0.03450000 -1.91410000 2.02880000
0.01630000 -1.88720000 1.96550000
-0.02690000 -1.87620000 1.88590000
-0.08310000 -1.84490000 1.84990000
0.97000000 -2.59780000 3.64860000
1.00800000 -2.59320000 3.51920000
1.18420000 -1.93450000 1.65720000
1.11900000 -1.93770000 1.60950000
1.09270000 -1.89560000 1.65670000
1.08030000 -1.90370000 1.60880000
0.96670000 -2.56170000 3.52390000
0.96560000 -2.56510000 3.41390000
0.94080000 -2.56410000 3.65170000
0.91370000 -2.58010000 3.75240000
1.03800000 -1.82740000 1.65610000
-1.60970000 -1.00200000 0.80810000
0.87540000 -2.52200000 3.81050000
0.91400000 -2.49380000 3.69170000
-0.34870000 -1.92290000 0.42010000
-0.41660000 -1.92640000 0.57950000
0.91520000 -2.46270000 3.62200000
-1.59620000 -0.99650000 0.69790000
-0.53000000 -1.91350000 0.43870000
0.92210000 -2.60110000 3.93400000
0.89780000 -2.56090000 3.97020000
0.92150000 -2.49370000 4.03000000
0.86160000 -2.51900000 3.96300000
0.90050000 -2.58730000 3.85860000
-1.56850000 -0.91180000 0.76230000
-1.56340000 -0.95370000 0.63940000
1.28430000 -1.66920000 2.89020000
-1.53270000 -0.89300000 0.67760000
-0.41090000 -1.90230000 0.89970000
-0.19620000 -1.89330000 0.73680000
-0.10660000 -1.91370000 0.57060000
1.30920000 -1.57950000 2.91610000
-1.50950000 -0.85620000 0.79710000
0.65250000 -1.79360000 2.38220000
0.74690000 -1.88350000 2.40600000
-0.55740000 -1.90690000 0.73430000
-0.29740000 -1.92820000 0.66270000
0.74300000 -1.65910000 2.34000000
0.82420000 -2.46360000 4.05180000
0.78180000 -2.46910000 4.00950000
0.82700000 -2.48470000 3.90970000
0.59570000 -1.78130000 2.36880000
-0.24520000 -1.85810000 0.84690000
-0.36250000 -1.85770000 0.95590000
0.50390000 -1.62790000 2.30690000
0.57550000 -1.66300000 2.25340000
0.46110000 -1.63350000 2.29530000
0.43340000 -1.68280000 2.30840000
0.71250000 -2.45170000 3.95050000
0.79200000 -2.44680000 3.86040000
0.50480000 -1.58080000 2.26750000
-0.61420000 -1.90000000 0.34610000
-0.61730000 -1.88920000 0.31000000
-0.61760000 -1.84110000 0.30000000
-0.55760000 -1.87700000 0.24340000
0.73510000 -2.41630000 3.77510000
0.76950000 -2.42130000 3.80560000
0.85710000 -2.43810000 3.77860000
0.65780000 -1.69310000 2.29110000
0.61150000 -1.58310000 2.28860000
-0.45170000 -1.90900000 0.21770000
-0.49570000 -1.89390000 0.21680000
0.70710000 -2.40020000 3.66160000
-0.50340000 -1.82470000 0.22270000
0.60280000 -1.63700000 2.25730000
0.75990000 -2.38600000 3.69460000
0.58600000 -1.64520000 2.22540000
-0.40430000 -1.87140000 0.16200000
0.61020000 -1.51600000 2.26980000
0.70900000 -1.58830000 2.30640000
0.84970000 -2.40150000 3.69770000
-0.69490000 -1.86350000 0.37930000
-0.68360000 -1.79500000 0.35690000
0.80320000 -1.62990000 2.31400000
0.82250000 -2.40990000 3.77360000
0.79160000 -1.58890000 2.30950000
0.75430000 -1.53200000 2.34030000
-0.72450000 -1.80010000 0.43780000
0.86870000 -1.57080000 2.32350000
-0.72810000 -1.61880000 0.60490000
0.83710000 -1.52000000 2.36320000
0.68000000 -2.59850000 3.53690000
0.69220000 -2.59170000 3.59960000
-0.73050000 -1.69860000 0.41910000
0.79640000 -1.47040000 2.36740000
0.00690000 -1.86890000 0.52600000
-0.01780000 -1.86160000 0.59790000
0.66900000 -1.52610000 2.28790000
-0.57020000 -1.72720000 0.28630000
0.67410000 -1.50340000 2.33390000
0.64480000 -2.59360000 3.42520000
-0.70850000 -1.57830000 0.41640000
0.66610000 -1.46140000 2.36070000
0.62740000 -1.45180000 2.29220000
0.61070000 -1.42210000 2.23750000
0.93430000 -1.53830000 2.33310000
0.93050000 -1.48960000 2.36610000
0.97600000 -1.51090000 2.30790000
-0.36040000 -1.74900000 0.07770000
0.92380000 -1.39480000 2.34870000
0.79130000 -1.35040000 2.34150000
-0.41060000 -1.79820000 0.16530000
0.62400000 -1.41860000 2.32660000
-0.45020000 -1.71640000 0.17970000
-0.39150000 -1.73410000 0.13710000
0.64800000 -1.37350000 2.34250000
0.60840000 -1.34400000 2.30590000
-0.14210000 -1.83060000 0.78780000
-0.03600000 -1.83320000 0.69850000
-0.45060000 -1.67280000 0.13340000
0.78640000 -1.25970000 2.30830000
0.74780000 -1.23450000 2.27180000
-0.39940000 -1.65750000 0.11090000
-0.46310000 -1.66670000 0.17510000
-0.41160000 -1.59630000 0.13870000
-0.36310000 -1.59810000 0.07300000
-0.00480000 -1.76290000 0.72050000
-0.02680000 -1.72830000 0.73340000
0.95120000 -1.98370000 4.45720000
-0.47260000 -1.66360000 0.22880000
0.91120000 -1.92820000 4.46120000
-0.50690000 -1.60380000 0.28220000
0.82800000 -1.89550000 4.44540000
-0.62170000 -1.54540000 0.37030000
1.01440000 -1.89460000 4.37530000
-0.05370000 -1.67290000 0.70780000
-0.09200000 -1.74760000 0.75440000
-0.12710000 -1.72070000 0.74980000
-0.12460000 -1.66990000 0.71430000
0.97030000 -1.89540000 4.43110000
-0.43370000 -1.59400000 0.21240000
-0.15470000 -1.68680000 0.77780000
-0.13140000 -1.63200000 0.73180000
-0.40590000 -1.86410000 1.24020000
-0.42880000 -1.85990000 1.16580000
-0.43270000 -1.90380000 1.27190000
-0.42330000 -1.48310000 0.25060000
-0.38010000 -1.82360000 1.52300000
-0.35760000 -1.86040000 1.61850000
-0.31970000 -1.73020000 1.62290000
0.87620000 -1.83950000 4.44600000
0.50930000 -2.48250000 3.74810000
0.92240000 -1.82520000 4.43750000
0.98540000 -1.80350000 4.38010000
-0.34040000 -1.69290000 1.49600000
-0.36360000 -1.74840000 1.40640000
-0.33790000 -1.68210000 1.31270000
-0.49460000 -1.47730000 0.31510000
0.93320000 -1.77780000 4.39870000
-0.41060000 -1.83850000 1.43380000
0.44200000 -2.49660000 3.67490000
-0.41310000 -1.84070000 1.32860000
0.37390000 -2.44420000 3.63570000
-0.37850000 -1.76710000 1.26370000
-0.80080000 -1.71390000 -0.15740000
-0.89700000 -1.73000000 -0.24870000
-0.83380000 -1.71650000 -0.10820000
-0.80490000 -1.67930000 -0.22380000
-0.75580000 -1.63710000 -0.17070000
-0.76130000 -1.67490000 -0.10910000
-0.80380000 -1.66400000 -0.06470000
-0.77260000 -1.61910000 -0.08390000
-0.33190000 -1.59790000 1.40030000
0.70560000 -2.55970000 3.60160000
0.70020000 -2.50150000 3.59070000
-0.38300000 -1.79130000 1.18750000
-1.00150000 -1.70950000 -0.28760000
-0.99560000 -1.64270000 -0.33570000
0.29270000 -2.42470000 3.58910000
-0.86550000 -1.68710000 -0.30360000
0.72330000 -1.92040000 4.39200000
0.63620000 -2.02280000 4.28620000
-0.33780000 -1.59190000 1.26810000
-0.81530000 -1.61000000 -0.28350000
-0.92370000 -1.67550000 -0.33320000
0.70930000 -2.56250000 3.48680000
-0.34940000 -1.49150000 1.20710000
-0.36630000 -1.43450000 1.34950000
0.73190000 -2.49760000 3.47610000
-0.88100000 -1.62260000 -0.34300000
-0.59530000 -1.89880000 1.01830000
0.69070000 -2.53340000 3.41870000
-0.90760000 -1.48070000 -0.37410000
0.66940000 -2.56180000 3.36350000
-1.00630000 -1.53490000 -0.34860000
0.54540000 -2.01330000 4.16410000
0.59570000 -1.93930000 4.25240000
0.73260000 -2.49710000 3.39930000
0.56680000 -1.89580000 4.20390000
-0.85060000 -1.56790000 -0.01320000
-0.82140000 -1.54580000 -0.02680000
0.47420000 -1.98790000 3.98800000
0.53560000 -2.17420000 4.06840000
-0.85800000 -1.45310000 -0.02320000
0.49180000 -1.89100000 4.05670000
-0.95120000 -1.42770000 0.03470000
-0.49400000 -1.88500000 1.07360000
0.83260000 -2.44230000 3.45090000
0.78480000 -2.57440000 3.32590000
0.78110000 -2.53990000 3.34530000
-0.75640000 -1.52850000 -0.16600000
0.79900000 -2.51660000 3.39750000
-0.76470000 -1.52080000 -0.22340000
-0.76520000 -1.57830000 -0.23570000
0.75110000 -2.49400000 3.35670000
0.75330000 -2.50770000 3.32360000
0.57380000 -1.84090000 4.17030000
0.51970000 -1.78390000 3.99790000
-0.71010000 -1.56010000 0.93710000
-0.82140000 -1.53110000 -0.30040000
-0.86420000 -1.50770000 -0.35290000
0.77190000 -2.46190000 3.44640000
0.43900000 -1.89070000 3.89870000
-0.82630000 -1.43070000 -0.28110000
0.72880000 -2.39410000 3.49540000
0.70400000 -2.39690000 3.52470000
0.76310000 -2.37550000 3.49880000
-0.78980000 -1.51420000 -0.08980000
0.47690000 -1.77250000 3.83560000
0.41440000 -1.88000000 3.81080000
0.68960000 -2.55560000 3.31240000
-0.78520000 -1.44480000 -0.11920000
-0.85500000 -1.33670000 -0.05540000
0.72860000 -1.84110000 4.39030000
0.72150000 -2.52420000 3.30490000
0.67650000 -2.51430000 3.34030000
-0.85950000 -1.41160000 -0.35010000
-0.83400000 -1.35410000 -0.24570000
0.70150000 -2.48870000 3.32340000
-0.84000000 -1.30830000 -0.15230000
0.83550000 -1.78480000 4.40820000
0.64900000 -1.85370000 4.32750000
-0.72540000 -1.52300000 0.95190000
-0.74780000 -1.47770000 0.88110000
0.65160000 -1.78890000 4.29680000
0.74770000 -1.76380000 4.33630000
-0.88840000 -1.26020000 -0.32910000
0.70530000 -2.44970000 3.60290000
0.69740000 -2.41160000 3.63070000
-0.16780000 -1.62520000 0.82420000
0.70790000 -1.80560000 0.77380000
0.55050000 -1.78870000 0.73780000
0.63850000 -1.78840000 0.82120000
0.58990000 -1.77030000 0.82220000
0.87410000 -1.72620000 4.33730000
0.65440000 -1.75470000 0.85310000
0.79350000 -1.70350000 4.25130000
0.72930000 -1.79600000 0.87460000
0.74250000 -1.80510000 0.83740000
-0.87000000 -1.24040000 -0.25100000
0.53390000 -1.79970000 0.67680000
0.54950000 -1.74550000 0.76680000
0.60130000 -1.77420000 4.19570000
0.55560000 -1.68930000 0.73400000
0.49930000 -1.75960000 0.70550000
0.79060000 -2.35030000 3.60860000
0.51240000 -1.69680000 0.70430000
0.74270000 -2.32730000 3.54430000
0.64590000 -1.72220000 4.21800000
-0.75590000 -1.58850000 0.50700000
0.68410000 -2.34900000 3.56080000
0.70470000 -2.33260000 3.51790000
0.57850000 -1.72690000 0.79780000
0.48940000 -1.64240000 0.72120000
0.57570000 -1.71520000 4.06670000
0.73660000 -2.34830000 3.63040000
0.46320000 -1.71910000 0.68560000
0.49430000 -1.69880000 0.64330000
0.70050000 -2.33320000 3.57880000
0.53620000 -1.72400000 0.60320000
0.76060000 -1.67530000 4.19670000
0.51530000 -1.68070000 0.58920000
0.63100000 -1.69200000 4.13640000
0.69720000 -2.43790000 4.03530000
-0.75810000 -1.54180000 0.48570000
0.46640000 -1.62420000 0.61570000
0.58090000 -1.67710000 3.94040000
0.68350000 -2.39110000 4.08300000
0.74000000 -2.38020000 4.12060000
0.61990000 -2.32280000 4.11700000
0.37760000 -1.68080000 0.47210000
0.78120000 -1.65620000 4.12140000
0.43690000 -1.65980000 0.54620000
0.63960000 -2.43020000 3.93370000
0.36300000 -1.57400000 0.60670000
0.59420000 -2.37660000 3.98750000
0.36210000 -1.61780000 0.51120000
0.58220000 -2.43010000 3.83250000
0.59190000 -2.40180000 3.88180000
0.44960000 -1.63330000 0.68920000
0.44390000 -1.64110000 0.72970000
0.41670000 -1.60550000 0.73090000
-0.74460000 -1.49080000 0.61260000
-0.75480000 -1.49290000 0.46500000
0.53160000 -2.35670000 3.89330000
-0.71460000 -1.51020000 0.42570000
-0.79840000 -1.43980000 0.51630000
0.46700000 -1.59800000 0.66010000
-0.89060000 -1.52740000 0.38310000
-0.95050000 -1.53160000 0.41900000
-0.85710000 -1.46990000 0.48700000
-0.81420000 -1.50160000 0.43590000
-0.99660000 -1.50230000 0.41990000
-0.97640000 -1.52460000 0.34910000
-1.03220000 -1.49510000 0.32130000
1.04280000 -1.77260000 4.26860000
-0.89110000 -1.52930000 0.32130000
0.39040000 -1.54730000 0.68130000
-0.96280000 -1.51230000 0.25490000
0.55090000 -2.32600000 4.00110000
0.48110000 -2.28550000 3.84370000
-0.81660000 -1.50170000 0.32710000
-0.78710000 -1.50990000 0.38320000
0.48810000 -2.13530000 3.95180000
0.25920000 -1.54360000 0.62380000
0.15570000 -1.58620000 0.69210000
0.27570000 -1.53710000 0.70280000
0.95640000 -1.70950000 4.29630000
0.20060000 -1.55950000 0.73960000
0.28780000 -1.50910000 0.81370000
0.27800000 -1.54440000 0.79160000
0.18400000 -1.53190000 0.75880000
0.69000000 -2.24470000 4.24500000
0.59710000 -2.25060000 4.16600000
0.11120000 -1.58410000 0.71980000
-0.74030000 -1.48370000 0.38230000
-0.78990000 -1.45510000 0.28610000
0.33570000 -1.54040000 0.75610000
-0.88230000 -1.48020000 0.22940000
0.24370000 -1.48280000 0.78060000
0.11670000 -1.53220000 0.70760000
0.13620000 -1.48000000 0.70500000
0.41210000 -1.55950000 0.76220000
0.34270000 -1.54010000 0.81470000
0.38250000 -1.51790000 0.81150000
0.51600000 -1.54230000 0.73400000
0.45250000 -1.50000000 0.77860000
0.41550000 -1.55990000 0.71860000
-0.74430000 -1.49280000 0.71130000
0.84660000 -2.38590000 4.10780000
0.93400000 -1.66000000 4.19800000
0.91980000 -2.41450000 4.08190000
-0.76400000 -1.41410000 0.66380000
0.76160000 -2.30210000 4.22690000
0.80000000 -2.34170000 4.14130000
1.04320000 -1.71660000 4.21120000
1.02590000 -1.67750000 4.18960000
-0.77760000 -1.43910000 0.56520000
0.35340000 -1.48300000 0.82260000
-0.79260000 -1.21380000 0.70740000
-0.81790000 -1.41320000 0.55990000
-0.81050000 -1.27640000 0.61310000
-0.86820000 -1.32460000 0.57280000
0.37580000 -1.44630000 0.83850000
-0.75970000 -1.43040000 0.74690000
0.33510000 -1.42230000 0.89480000
0.38980000 -1.41400000 0.88630000
0.28910000 -1.43710000 0.78720000
-0.74590000 -1.36980000 0.82350000
0.29560000 -1.40460000 0.82660000
0.94870000 -2.33990000 4.13110000
0.16750000 -1.43240000 0.73610000
0.25270000 -1.39810000 0.79130000
-0.95140000 -1.48980000 0.47580000
-0.90980000 -1.43460000 0.51930000
-0.99720000 -1.44680000 0.50030000
-1.06050000 -1.45510000 0.40800000
-1.04290000 -1.43910000 0.46560000
-1.10050000 -1.37370000 0.36020000
-0.95530000 -1.30000000 0.55710000
0.11620000 -1.79100000 0.60150000
-1.02580000 -1.33040000 0.51300000
-1.05000000 -1.28250000 0.47550000
0.20350000 -1.78960000 0.54000000
1.04240000 -1.62810000 4.06860000
0.13100000 -1.69650000 0.62510000
0.23520000 -1.74800000 0.52100000
0.17150000 -1.66220000 0.56460000
0.66580000 -2.17240000 4.27990000
0.07120000 -1.68690000 0.69510000
0.04680000 -1.63020000 0.70730000
-1.00020000 -1.17540000 0.54770000
0.58740000 -2.17080000 4.20110000
-0.06880000 -1.61480000 0.69920000
-0.07280000 -1.55420000 0.75110000
-0.65170000 -1.45420000 0.40460000
0.03250000 -1.54240000 0.68780000
-0.55020000 -1.45180000 0.38070000
-0.56500000 -1.37750000 0.41140000
0.15940000 -1.60290000 0.63710000
-0.44850000 -1.40040000 0.32650000
-0.49690000 -1.33470000 0.39420000
-0.58130000 -1.32270000 0.40060000
0.02170000 -1.43780000 0.74770000
-0.84020000 -1.41580000 0.19680000
-0.69970000 -1.45010000 0.38760000
0.25790000 -1.69030000 0.49760000
0.32750000 -1.66890000 0.46050000
-0.71610000 -1.40890000 0.32440000
0.26160000 -1.63070000 0.50760000
0.51560000 -1.69770000 3.82410000
-0.77880000 -1.39100000 0.25710000
-0.80810000 -1.35330000 0.19590000
-0.75400000 -1.31170000 0.27880000
-0.64220000 -1.32410000 0.36450000
-0.72390000 -1.21970000 0.30260000
0.22310000 -1.58200000 0.56960000
0.27540000 -1.58550000 0.54220000
0.51810000 -2.39590000 3.81140000
0.42260000 -2.36620000 3.67880000
0.47370000 -2.34480000 3.77380000
-0.82250000 -1.09630000 0.69210000
0.30770000 -1.59880000 0.50020000
0.37570000 -2.26980000 3.61240000
-1.07200000 -1.49150000 0.19210000
-1.12410000 -1.45460000 0.25950000
-1.06920000 -1.44860000 0.33860000
0.48030000 -2.22120000 3.85480000
0.07890000 -1.42780000 0.74250000
-1.02950000 -1.48670000 0.16050000
0.42980000 -2.22830000 3.69430000
-1.16830000 -1.43620000 0.17580000
0.33580000 -2.34620000 3.58330000
-1.12980000 -1.42860000 0.12040000
0.29310000 -2.31220000 3.57640000
0.41480000 -1.36640000 1.01060000
0.32260000 -1.41040000 0.99670000
0.35180000 -1.39760000 1.03100000
-1.07040000 -1.40990000 0.08470000
-0.99540000 -1.45710000 0.13850000
0.23290000 -2.34190000 3.56490000
0.28120000 -1.39770000 1.15670000
0.33100000 -1.33660000 1.17120000
0.34490000 -1.38320000 1.13630000
0.14880000 -2.33820000 3.41720000
-0.96470000 -1.40620000 0.12300000
0.29980000 -1.40320000 1.08000000
0.25470000 -2.30100000 3.58740000
0.28930000 -1.36310000 1.02590000
0.27800000 -1.37230000 0.97060000
0.15940000 -2.19850000 3.47550000
0.26560000 -1.38740000 1.13180000
0.25860000 -1.31150000 1.08660000
0.21000000 -2.19830000 3.56380000
0.27430000 -1.39180000 0.90040000
0.22280000 -1.33350000 0.91760000
-1.00160000 -1.32570000 0.07500000
0.41550000 -2.22820000 3.55170000
0.33740000 -2.23040000 3.53800000
0.15050000 -1.39200000 0.77760000
0.18950000 -1.35430000 0.83890000
0.12560000 -1.34020000 0.80830000
0.23810000 -2.15030000 3.56670000
-1.10100000 -1.43630000 0.05710000
0.28640000 -2.16120000 3.54070000
-1.20390000 -1.41110000 0.06170000
0.37080000 -2.16550000 3.45720000
0.25280000 -1.26650000 0.97440000
0.20360000 -1.28790000 0.90790000
-1.15510000 -1.41150000 0.09070000
-1.28500000 -1.34130000 0.07800000
0.21010000 -1.17630000 1.02850000
0.49270000 -2.18150000 3.75830000
0.50120000 -2.16870000 3.62880000
0.17450000 -1.30790000 0.84800000
0.09580000 -1.27630000 0.82980000
0.12780000 -1.22690000 0.85940000
0.52170000 -2.14450000 3.69660000
-1.01470000 -1.34740000 0.05570000
0.51050000 -2.14140000 3.80390000
0.16870000 -1.17490000 0.93060000
-1.18340000 -1.38490000 0.27100000
0.51450000 -2.09870000 3.77160000
0.27590000 -1.35200000 1.18020000
0.53690000 -2.10660000 3.59700000
0.33150000 -1.26880000 1.16980000
0.25370000 -1.33420000 1.16190000
0.49570000 -2.18700000 3.55460000
0.22780000 -1.24720000 1.12770000
0.25550000 -1.25470000 1.16950000
-1.14450000 -1.26240000 0.35560000
-1.27660000 -1.35230000 0.13530000
-1.07190000 -1.26920000 0.41590000
0.41890000 -2.19270000 3.47270000
0.20470000 -1.15720000 1.14810000
0.32530000 -1.17470000 1.17140000
0.23450000 -1.09050000 1.15220000
0.51080000 -2.17420000 3.47160000
-1.24460000 -1.28800000 0.28430000
-0.77330000 -2.61520000 1.97260000
-0.87200000 -2.59930000 2.09820000
-0.97370000 -2.60630000 1.55130000
-1.20330000 -1.16960000 0.39810000
-1.28730000 -1.21590000 0.33230000
-1.14010000 -2.59400000 1.68260000
-1.05410000 -1.15650000 0.47790000
-1.27840000 -1.33150000 0.20000000
0.10060000 -1.15530000 0.89930000
0.16510000 -1.11690000 1.06750000
-0.16190000 -1.54340000 0.86160000
-1.36080000 -2.58360000 0.90250000
-1.34520000 -2.59030000 0.75220000
-1.27190000 -2.59620000 1.10340000
-1.39170000 -2.55820000 0.75880000
-1.40020000 -2.49560000 0.84940000
-1.37530000 -2.55890000 0.93800000
0.47110000 -2.14010000 3.40700000
-0.92210000 -1.38670000 0.02590000
-0.91860000 -1.29260000 -0.01020000
-0.06520000 -1.46320000 0.80890000
-0.01790000 -1.41160000 0.81540000
-0.06640000 -1.38840000 0.84470000
-0.87680000 -1.36410000 0.14890000
-0.85560000 -1.27500000 0.16660000
0.50190000 -2.06040000 3.73410000
-0.08350000 -1.26230000 0.88750000
-0.17860000 -1.34970000 0.95290000
0.48390000 -2.12350000 3.90720000
-0.95350000 -1.26250000 0.09180000
-0.18980000 -1.09630000 1.00270000
0.48760000 -2.05090000 3.91420000
-0.85390000 -1.18070000 0.19910000
0.05800000 -1.36210000 0.79010000
-0.98280000 -1.25750000 0.00800000
0.02760000 -1.33820000 0.79250000
0.47040000 -2.02170000 3.87300000
0.48090000 -2.05980000 3.80170000
-1.01090000 -1.24640000 0.03670000
0.44260000 -2.01070000 3.74270000
0.08150000 -1.29920000 0.79770000
0.43930000 -2.03030000 3.81310000
-0.00750000 -1.24940000 0.83250000
0.03190000 -1.21130000 0.83890000
-1.27730000 -2.58140000 1.33340000
-0.97360000 -1.18920000 0.06620000
0.44040000 -1.98140000 3.87250000
-0.99360000 -1.20160000 0.01510000
-1.23870000 -2.59270000 1.41530000
-0.94880000 -1.19130000 -0.01120000
0.41490000 -1.96300000 3.79600000
-0.88630000 -1.21990000 -0.09350000
-0.04910000 -1.11010000 0.91210000
-0.12460000 -1.09640000 0.94720000
-0.86550000 -1.20600000 -0.17570000
-1.12400000 -2.56110000 1.91600000
-1.20370000 -2.57510000 1.65000000
-1.10170000 -2.58650000 1.91820000
0.41530000 -1.92170000 3.73890000
-0.86430000 -1.15080000 -0.08770000
-1.15780000 -2.45690000 1.88620000
-0.89690000 -1.18710000 -0.05150000
-0.92730000 -1.15140000 0.01300000
0.01760000 -1.13290000 0.89550000
-0.81480000 -1.12990000 -0.01880000
-1.23850000 -2.54320000 1.58000000
-1.25070000 -2.41270000 1.58220000
0.01810000 -1.05450000 0.92520000
0.06380000 -0.99970000 0.92930000
-0.11440000 -0.96670000 0.98620000
-0.80940000 -1.12950000 0.22190000
-0.89780000 -1.12400000 0.13500000
-0.83100000 -1.10060000 0.17610000
-0.86940000 -1.10280000 0.10680000
-0.01990000 -2.59960000 3.15730000
-0.94680000 -1.14520000 0.05700000
-0.05270000 -2.58020000 3.10830000
-0.83150000 -1.10200000 0.04680000
-0.04660000 -2.58530000 2.93480000
-0.07850000 -2.55580000 2.91770000
0.32960000 -1.89670000 2.24070000
-1.26760000 -2.50090000 1.48940000
-1.30220000 -2.46600000 1.38290000
-1.31230000 -2.55160000 1.28190000
0.27070000 -1.89730000 2.17390000
0.13820000 -1.90450000 2.10870000
0.20540000 -1.88420000 2.12540000
-0.33830000 -1.39320000 -0.20630000
-0.35220000 -1.40250000 -0.08440000
-0.38720000 -1.52340000 0.16100000
-0.39990000 -1.41930000 0.20970000
0.02110000 -2.56940000 3.24390000
0.04140000 -2.51760000 3.27720000
-0.01550000 -2.48180000 3.24890000
-1.29770000 -2.58000000 1.21480000
0.10230000 -1.86870000 2.07930000
0.18690000 -1.78960000 2.16510000
0.11600000 -2.43220000 3.37550000
-0.40910000 -1.29230000 0.22230000
0.10300000 -1.80330000 2.11810000
-1.29480000 -2.57360000 1.13340000
-0.37720000 -1.33490000 0.03760000
0.01770000 -2.39620000 3.28780000
0.05480000 -2.47830000 3.32260000
0.00480000 -1.81060000 2.01480000
-0.39240000 -1.32040000 -0.01690000
-0.38130000 -1.38510000 -0.10280000
-0.41760000 -1.36490000 -0.06100000
-0.42540000 -1.22070000 0.17960000
-1.32110000 -2.52930000 1.15660000
-1.34400000 -2.56840000 1.06530000
-1.34980000 -2.50570000 1.13400000
-0.00440000 -1.70430000 2.08580000
-0.04510000 -2.56060000 3.17930000
0.07290000 -1.70670000 2.14330000
-0.40590000 -1.21430000 0.04950000
-0.41590000 -1.26620000 0.00460000
-0.07120000 -2.52250000 3.10540000
-1.33550000 -2.45170000 1.23570000
-0.05650000 -2.44840000 3.17340000
0.28170000 -1.86950000 2.16330000
-0.08910000 -2.50130000 3.00890000
-1.36210000 -2.41370000 1.08790000
-0.07460000 -2.42920000 3.08840000
0.28160000 -1.78080000 2.19320000
-0.37060000 -1.36430000 -0.16870000
-0.11350000 -2.40590000 3.02020000
0.22980000 -1.77060000 2.17560000
-0.45350000 -1.37140000 -0.14460000
-0.13280000 -2.34700000 2.98770000
-0.43560000 -1.34170000 -0.18260000
-1.38520000 -2.49120000 0.96550000
-0.02990000 -2.37570000 3.23880000
-0.51260000 -1.35360000 -0.14190000
-0.45400000 -1.37300000 -0.10290000
-0.05830000 -2.33270000 3.17320000
-0.49440000 -1.34330000 -0.07850000
-0.44980000 -1.33240000 -0.04670000
-0.45770000 -1.28860000 -0.04430000
-0.50420000 -1.31300000 -0.13270000
-0.47750000 -1.27860000 -0.09380000
-1.39100000 -2.40000000 0.88780000
-1.38520000 -2.46840000 0.83900000
-0.05750000 -2.37220000 3.11480000
-1.38680000 -2.35890000 1.00680000
0.26170000 -1.64470000 2.22360000
0.15870000 -1.64650000 2.18670000
-0.08740000 -2.28040000 3.06770000
0.38050000 -1.70900000 2.28580000
0.33140000 -1.69690000 2.27500000
-0.47120000 -1.31320000 -0.18120000
-0.23090000 -2.60070000 2.88710000
-0.20000000 -2.56690000 2.96070000
-0.32510000 -2.59730000 2.90530000
-0.14960000 -2.55280000 2.89890000
-0.46880000 -1.25020000 -0.17880000
-0.45240000 -1.22460000 -0.10550000
0.33330000 -1.60790000 2.25360000
-0.71530000 -1.14390000 -0.32060000
-0.82850000 -1.15470000 -0.29400000
-0.70520000 -1.16020000 -0.24590000
-1.31460000 -2.45660000 1.27620000
-0.56380000 -1.16370000 -0.21110000
-1.30670000 -2.43720000 1.35720000
-1.25170000 -2.40750000 1.30260000
-1.21090000 -2.36620000 1.23840000
-0.65700000 -1.13090000 -0.14890000
-1.28610000 -2.38120000 1.37140000
-1.21770000 -2.37140000 1.33550000
-1.30470000 -2.40180000 1.22960000
-1.32030000 -2.33250000 1.21440000
0.21740000 -1.53430000 2.20050000
-1.35430000 -2.35990000 1.18230000
-0.56550000 -1.15430000 -0.34360000
-0.69190000 -1.11260000 -0.43100000
0.01220000 -1.54930000 2.11070000
0.11970000 -1.53830000 2.16730000
-0.73610000 -2.58430000 2.64820000
-0.79430000 -2.56840000 2.61090000
-0.84280000 -2.59230000 2.47760000
-0.36060000 -1.32170000 -0.30170000
-0.87500000 -2.59530000 2.36110000
-0.36360000 -1.35280000 -0.21780000
-0.40060000 -1.32620000 -0.24320000
-0.39970000 -1.28100000 -0.23100000
-0.96620000 -2.56640000 2.30070000
-0.85810000 -2.55800000 2.51690000
0.23460000 -1.42620000 2.17140000
0.15940000 -1.43000000 2.14030000
-0.37340000 -1.27030000 -0.27370000
-0.39690000 -1.21610000 -0.31300000
0.04740000 -1.41950000 2.12080000
-0.39980000 -1.26580000 -0.41270000
-0.02250000 -1.42760000 2.07180000
0.12350000 -1.38690000 2.13830000
-0.45550000 -1.27230000 -0.46800000
-0.42430000 -2.56650000 2.91680000
0.06400000 -1.32490000 2.10790000
-0.26200000 -2.56860000 2.97010000
-0.18600000 -2.50140000 2.96990000
-0.27500000 -2.48420000 2.96540000
-0.48700000 -1.33430000 -0.56390000
-0.54560000 -1.25330000 -0.50030000
-0.57170000 -1.28950000 -0.52730000
-0.19700000 -1.83650000 1.86210000
-0.17060000 -1.80610000 1.82580000
-0.23910000 -1.77780000 1.77610000
-0.39720000 -2.42280000 2.91400000
-0.10570000 -1.63760000 1.92890000
-0.06870000 -1.79500000 1.83250000
-0.44440000 -1.18650000 -0.35820000
-0.53800000 -1.18710000 -0.40820000
-0.62670000 -1.20150000 -0.47350000
-0.12250000 -1.63900000 1.82320000
-0.95950000 -2.49940000 2.34540000
-0.11580000 -1.73060000 1.73950000
-0.09610000 -1.70590000 1.75680000
-0.42740000 -1.21820000 -0.23330000
-0.48670000 -1.19420000 -0.18130000
-0.48250000 -1.17740000 -0.27300000
-0.41940000 -1.18440000 -0.06000000
-0.44350000 -1.15060000 -0.09670000
-0.52740000 -2.42990000 2.87610000
-0.43550000 -1.10500000 0.03050000
-0.44280000 -1.09720000 -0.05630000
-0.47750000 -1.16900000 -0.12760000
-0.53480000 -1.12480000 -0.11790000
-0.62350000 -2.38900000 2.81430000
-0.91130000 -2.39380000 2.45430000
-0.76540000 -2.40490000 2.70020000
-0.27590000 -1.79120000 1.72040000
-0.60530000 -1.15530000 -0.40480000
-0.16580000 -1.70860000 1.71470000
-0.27090000 -1.70880000 1.70550000
-0.23620000 -1.70040000 1.71830000
-0.58660000 -2.28920000 2.79840000
-0.51930000 -2.29640000 2.86130000
-0.64450000 -1.13560000 -0.43330000
-0.50330000 -2.22190000 2.86620000
-0.18010000 -1.65600000 1.68770000
-0.17100000 -2.56360000 2.72690000
-0.43900000 -1.31760000 0.33110000
-0.12440000 -1.66490000 1.69140000
-0.13000000 -1.61350000 1.70970000
-0.27430000 -1.65090000 1.66570000
-0.12570000 -2.54470000 2.73030000
-0.11000000 -2.52400000 2.94090000
-0.24980000 -1.62280000 1.62760000
-0.51260000 -1.25760000 0.39700000
-0.45050000 -1.22100000 0.35540000
-0.09380000 -1.55480000 2.02030000
-1.01640000 -2.58910000 2.13890000
-0.57950000 -1.21460000 0.37580000
-0.16330000 -1.58430000 1.60720000
-0.14650000 -1.56830000 1.61580000
-0.21030000 -1.54990000 1.55920000
-1.05920000 -2.55910000 2.11790000
-0.16640000 -1.48880000 1.64130000
-1.08390000 -2.40840000 2.11700000
-0.48590000 -1.16250000 0.36650000
-0.44610000 -1.17140000 0.32670000
-0.45950000 -1.12630000 0.20030000
-0.46630000 -1.12990000 0.29800000
-0.51060000 -1.13900000 0.34190000
-0.55080000 -1.10490000 0.26550000
-0.18490000 -1.47530000 1.79400000
-0.18980000 -1.42920000 1.73260000
-0.49450000 -1.07860000 0.19290000
-0.14920000 -1.44150000 1.56570000
-0.17440000 -1.38810000 1.70220000
-0.57100000 -1.04530000 0.15810000
-0.08510000 -1.48730000 2.03440000
-0.64690000 -1.14410000 0.29430000
-0.26230000 -2.37900000 2.93790000
-0.11690000 -2.44980000 2.96990000
-0.17150000 -1.44390000 1.91500000
-0.14980000 -2.41460000 2.95320000
-0.67060000 -1.09180000 0.21890000
-0.15280000 -1.37180000 1.96210000
-0.08750000 -1.35240000 2.02430000
-0.49240000 -1.04990000 0.11580000
-0.04960000 -1.30450000 2.02140000
-0.68090000 -1.06930000 0.05260000
-0.21410000 -2.32240000 2.91370000
-0.62360000 -1.07470000 -0.05900000
-0.77700000 -1.11100000 -0.08270000
-0.13210000 -2.22030000 3.02500000
-0.31000000 -2.29180000 2.89680000
-0.20450000 -2.24430000 2.88420000
-0.19360000 -1.39510000 1.81710000
-0.78430000 -1.15420000 -0.20390000
-0.17900000 -1.37230000 1.90190000
-0.83520000 -1.16350000 -0.16810000
-0.84000000 -1.18420000 -0.23060000
-0.87250000 -1.17540000 -0.29900000
-0.19010000 -1.31810000 1.72520000
-0.17910000 -1.36000000 1.59630000
-0.17010000 -1.34640000 1.81300000
-0.41810000 -2.21210000 2.87760000
-0.32640000 -2.20050000 2.81290000
-0.14520000 -1.31960000 1.90360000
-0.15390000 -1.27730000 1.87790000
-0.37210000 -2.18700000 2.82990000
-0.28020000 -2.16860000 2.79080000
-0.10730000 -1.25290000 1.94630000
-0.17790000 -1.22390000 1.83850000
-0.22020000 -1.22210000 1.75440000
-0.22830000 -1.13770000 1.81430000
0.41490000 -1.48160000 2.23140000
0.33770000 -1.51040000 2.21180000
0.49400000 -1.54540000 2.21900000
0.54760000 -1.56590000 2.23090000
-0.68860000 -1.06210000 0.17340000
0.49340000 -1.50940000 2.18680000
0.49520000 -1.47130000 2.20120000
0.49310000 -1.40590000 2.18600000
-0.02110000 -2.26210000 3.20970000
0.43720000 -1.45540000 2.18160000
-0.06920000 -2.25760000 3.15560000
0.31020000 -1.39750000 2.15860000
-0.58280000 -2.20400000 2.81590000
-0.48250000 -2.11790000 2.85180000
0.38820000 -1.40350000 2.18280000
-0.54220000 -2.13490000 2.84530000
-0.45840000 -1.06950000 0.00920000
-0.50370000 -1.07130000 -0.04730000
0.41530000 -1.40250000 2.15540000
-1.06960000 -2.25830000 2.17630000
-0.42590000 -2.13200000 2.83710000
0.41600000 -1.33700000 2.13540000
-0.51970000 -1.04410000 0.03040000
-0.46390000 -2.07190000 2.81500000
-0.43600000 -2.08910000 2.77180000
0.20990000 -1.32740000 2.12060000
0.16580000 -1.29650000 2.10160000
-1.21390000 -1.48880000 -0.78630000
-1.27230000 -1.48260000 -0.72670000
-1.20680000 -1.48010000 -0.74700000
-1.22120000 -1.45250000 -0.71380000
0.33100000 -1.33360000 2.11670000
-1.28360000 -1.42300000 -0.69090000
0.37220000 -1.30630000 2.08840000
-1.18750000 -1.42840000 -0.78740000
-1.20580000 -1.37120000 -0.77860000
-1.25210000 -1.37810000 -0.71650000
0.40780000 -1.27670000 2.06190000
0.27800000 -1.29230000 2.07510000
0.19270000 -1.28170000 2.06550000
-1.16370000 -1.49890000 -0.31850000
0.32990000 -1.21950000 2.04960000
0.13080000 -1.23870000 2.05390000
0.59170000 -1.44840000 2.22300000
0.58470000 -1.38020000 2.17510000
0.52390000 -1.36000000 2.14870000
0.57760000 -1.34970000 2.24840000
-1.07080000 -1.38770000 -0.36540000
0.56200000 -1.28370000 2.20370000
-1.44080000 -2.55460000 0.46580000
-1.41440000 -2.57860000 0.39240000
-1.39960000 -2.58200000 0.55450000
-1.34610000 -2.59030000 0.56350000
-1.43740000 -2.56650000 0.27660000
-1.24190000 -1.35890000 -0.32910000
-1.35320000 -2.57590000 0.66640000
0.46050000 -1.31120000 2.10860000
-1.41250000 -2.55900000 0.58750000
0.56230000 -1.32890000 2.15140000
0.51490000 -1.30160000 2.09270000
-1.39180000 -2.52630000 0.62690000
-1.37730000 -2.49940000 0.67540000
0.71640000 -1.21920000 2.22070000
0.61500000 -1.24810000 2.20470000
-1.44670000 -2.47250000 0.48580000
0.73790000 -1.17150000 2.16080000
0.52930000 -1.27240000 2.14390000
-0.98520000 -1.28860000 -0.38700000
-0.22530000 -2.10300000 2.87140000
0.52590000 -1.19640000 2.17640000
-1.43370000 -2.47400000 0.59110000
0.39030000 -1.11140000 2.12130000
0.60250000 -1.18850000 2.19210000
0.68310000 -1.18200000 2.16610000
-0.25930000 -2.06600000 2.77900000
-1.40390000 -2.48700000 0.74120000
0.57270000 -1.15180000 2.18590000
-0.92750000 -1.30300000 -0.37180000
-1.39790000 -2.44640000 0.78110000
-0.92500000 -1.18450000 -0.35440000
-1.15120000 -1.24990000 -0.35570000
-1.14180000 -1.15520000 -0.38970000
-1.00410000 -1.16870000 -0.40540000
0.52540000 -1.27550000 2.06830000
0.50780000 -1.24510000 2.09470000
0.44030000 -1.19490000 2.04680000
-1.35850000 -1.49480000 -0.76580000
-1.28990000 -1.50660000 -0.79420000
-1.27800000 -1.49660000 -0.85440000
0.43510000 -1.17310000 2.11490000
0.45040000 -1.18790000 2.06030000
0.35600000 -1.03720000 2.11230000
-1.20770000 -1.45850000 -0.86010000
-1.17550000 -1.40780000 -0.85960000
-1.32610000 -1.45870000 -0.91400000
-1.23130000 -1.41950000 -0.90590000
-1.42250000 -1.40290000 -0.96710000
0.48460000 -1.07800000 2.11480000
0.57950000 -1.11390000 2.14920000
0.38580000 -1.02200000 2.10800000
0.29470000 -1.14560000 2.03360000
0.36050000 -1.10400000 2.08300000
0.27540000 -1.08890000 2.05030000
0.24760000 -0.99490000 2.05240000
0.08180000 -1.29030000 2.07260000
0.02990000 -1.27170000 2.05350000
-0.04800000 -1.21720000 1.98830000
0.13550000 -2.24150000 3.37070000
-1.60860000 -1.28820000 -1.05040000
0.13050000 -1.14990000 2.03760000
0.05460000 -1.21380000 2.02620000
-1.46260000 -1.29820000 -0.99500000
0.06200000 -2.29730000 3.28360000
0.18540000 -1.11390000 2.02810000
0.10750000 -2.26490000 3.30140000
0.40350000 -0.95050000 2.05520000
0.10290000 -2.19040000 3.27240000
0.05430000 -1.09200000 2.02330000
-0.04690000 -1.12790000 1.98800000
0.08700000 -2.11980000 3.36620000
-1.43340000 -1.36510000 -0.70390000
-1.55480000 -1.27620000 -0.72520000
0.15930000 -1.01350000 2.04510000
0.13680000 -2.04070000 3.49170000
0.09120000 -2.01400000 3.41760000
-1.38760000 -1.28710000 -0.70280000
-1.32730000 -1.30290000 -0.71780000
0.00940000 -0.97350000 1.99700000
0.05800000 -2.22400000 3.23890000
-0.16100000 -1.09500000 1.89590000
-1.50230000 -1.19250000 -0.71680000
-0.06790000 -2.17940000 3.14530000
-0.11410000 -1.03490000 1.93550000
-1.36370000 -1.20030000 -0.73890000
-1.43480000 -1.13690000 -0.72310000
0.03620000 -2.11520000 3.20530000
-0.07780000 -2.07820000 3.11070000
-1.37190000 -1.14980000 -0.98540000
-1.54380000 -1.23060000 -1.04550000
-1.45270000 -1.14470000 -1.00340000
-1.58150000 -1.17090000 -1.05000000
0.06480000 -2.09500000 3.26790000
-1.24590000 -1.30530000 -0.93290000
-0.19750000 -2.59500000 2.14010000
-0.10680000 -2.59240000 2.07640000
-0.16530000 -2.56240000 2.15570000
-1.17270000 -1.37100000 -0.84630000
-0.22560000 -1.03330000 1.82150000
-1.21070000 -1.32550000 -0.89570000
-1.21350000 -1.29010000 -0.85060000
0.04170000 -2.01750000 3.29610000
-0.10670000 -0.82230000 1.89280000
0.00250000 -2.01640000 3.17390000
-1.22590000 -1.23440000 -0.90870000
0.05350000 -1.99110000 3.31030000
-0.21880000 -0.85780000 1.78290000
-1.28770000 -1.19350000 -0.95360000
0.18330000 -2.06510000 3.54710000
-0.30900000 -2.60340000 2.13160000
-1.31490000 -1.15660000 -0.75740000
-1.25770000 -1.08440000 -0.74690000
-1.23200000 -1.17800000 -0.92160000
-1.20710000 -1.18920000 -0.85630000
-1.16530000 -1.16540000 -0.88410000
-1.16030000 -1.15010000 -0.81420000
-1.11740000 -1.15570000 -0.83610000
-1.18880000 -1.14950000 -0.94280000
0.34480000 -2.08560000 3.44800000
0.25010000 -2.06020000 3.53660000
0.12640000 -0.93080000 2.03510000
0.30820000 -2.01690000 3.42390000
-1.52010000 -1.08180000 -1.00150000
0.42140000 -2.10430000 3.39070000
0.36470000 -2.02740000 3.38630000
-0.00570000 -0.81590000 1.94740000
-1.40640000 -1.06980000 -0.97920000
-1.44090000 -1.02070000 -0.92790000
-1.52250000 -1.01640000 -0.92280000
-1.55740000 -1.02210000 -0.96550000
-1.27130000 -1.11940000 -0.96560000
-1.17260000 -1.11270000 -0.98600000
-1.20750000 -1.07820000 -1.00720000
-1.25490000 -1.03010000 -1.01530000
-1.31310000 -1.04480000 -0.97950000
-0.16370000 -2.56520000 2.28460000
0.26000000 -0.82880000 2.02780000
0.23240000 -1.96100000 3.41540000
0.24540000 -2.00270000 3.49540000
0.11400000 -1.96940000 3.28500000
0.19720000 -0.86960000 2.03930000
-1.34550000 -1.00160000 -0.95600000
-0.12690000 -2.55390000 2.24960000
-1.38920000 -0.89680000 -0.87940000
-1.40990000 -0.97500000 -0.88810000
0.13970000 -0.74400000 1.97600000
0.07370000 -1.97560000 3.28720000
0.10070000 -0.63440000 1.93530000
-1.30000000 -1.18680000 -0.32790000
-0.10330000 -0.65740000 1.83180000
-0.87060000 -2.61940000 1.19730000
0.19390000 -2.01110000 3.53730000
-1.39310000 -1.13060000 -0.33770000
-0.31970000 -1.65230000 1.56330000
0.14520000 -1.98180000 3.47570000
0.18910000 -1.96910000 3.47820000
-1.51040000 -1.12860000 -0.36070000
-1.36210000 -1.09770000 -0.36930000
-0.29300000 -1.54380000 1.52030000
-0.26170000 -1.54070000 1.55560000
-1.39850000 -1.07780000 -0.43580000
-0.32140000 -1.51800000 1.40640000
-1.02080000 -1.10830000 -0.41740000
-1.24910000 -1.14690000 -0.35550000
-0.11720000 -2.14850000 3.08840000
-1.27460000 -1.08650000 -0.38050000
-1.16500000 -1.08050000 -0.43090000
-0.16320000 -2.09740000 3.00870000
-1.32630000 -1.07410000 -0.49630000
-0.25080000 -1.48560000 1.52110000
-0.15060000 -1.49630000 1.53090000
-0.17520000 -1.50110000 1.51460000
-0.18930000 -1.42630000 1.50020000
-0.17490000 -2.04160000 2.91690000
-1.08740000 -1.08540000 -0.42730000
-0.10060000 -2.03700000 3.01270000
-0.29650000 -1.43430000 1.49630000
-0.25210000 -1.36320000 1.50750000
-0.33620000 -1.37400000 1.45960000
-1.17100000 -1.06370000 -0.51500000
-1.22900000 -1.06310000 -0.56080000
-1.09520000 -1.02730000 -0.55300000
-1.19710000 -1.01010000 -0.60240000
-0.03890000 -1.99970000 3.11260000
-0.15090000 -1.43640000 1.51650000
-0.07770000 -1.99510000 2.98000000
-0.17690000 -1.36440000 1.52240000
-1.50530000 -1.11240000 -0.70560000
-0.31860000 -1.25430000 1.50440000
-1.58230000 -1.08890000 -0.53660000
-0.22530000 -2.04050000 2.86280000
-1.54110000 -1.07430000 -0.67250000
-1.60750000 -1.08280000 -0.61620000
-1.47810000 -1.06820000 -0.59810000
-1.45810000 -1.06300000 -0.65640000
-1.66510000 -1.20470000 -0.73710000
-1.70860000 -1.17440000 -0.70050000
-1.66990000 -1.14100000 -0.70550000
-1.61050000 -1.16380000 -0.71850000
-0.37880000 -1.26960000 1.45740000
-0.39900000 -1.25820000 1.39280000
-1.67500000 -1.11160000 -0.64820000
-0.34370000 -1.36400000 1.18140000
-0.40040000 -1.16340000 1.32310000
-1.58300000 -1.11520000 -0.68380000
-0.22920000 -1.22360000 1.68620000
-0.23380000 -1.27690000 1.58450000
-0.27790000 -1.19500000 1.63040000
-0.26430000 -1.24730000 1.52680000
-0.28060000 -1.18920000 1.55370000
-1.61760000 -1.11170000 -0.46610000
-0.31320000 -1.02370000 1.63970000
-0.27120000 -1.11660000 1.73420000
-0.31030000 -1.11170000 1.58360000
-1.28910000 -1.03960000 -0.61580000
-1.31350000 -1.05420000 -0.68840000
-1.41420000 -1.08440000 -0.70370000
-0.38750000 -1.14790000 1.46060000
-0.35840000 -1.04180000 1.22690000
-0.40720000 -1.08160000 1.40450000
-0.34630000 -1.12130000 1.50020000
-1.23620000 -1.00600000 -0.65080000
-1.16260000 -0.99220000 -0.72820000
-1.19900000 -0.97730000 -0.68010000
-0.71760000 -1.44250000 1.19840000
-1.54020000 -0.97920000 -0.84940000
-1.60130000 -0.97120000 -0.89180000
-1.46100000 -0.96660000 -0.83940000
-0.72940000 -1.38580000 1.04410000
-1.49980000 -0.92510000 -0.80810000
-1.59510000 -0.94070000 -0.83160000
-1.63020000 -0.93960000 -0.90330000
-1.62650000 -0.87880000 -0.87200000
-1.57020000 -0.81240000 -0.80140000
-1.60490000 -0.83660000 -0.81920000
-0.74650000 -1.33390000 1.15160000
-1.43490000 -0.89970000 -0.81560000
-0.73680000 -1.39100000 0.93890000
-0.75200000 -1.28310000 0.98800000
-1.45620000 -0.73920000 -0.78460000
-1.41430000 -0.80620000 -0.81040000
1.05440000 -2.58770000 3.41900000
1.14290000 -2.59390000 3.42080000
-0.74380000 -1.25110000 0.91420000
-1.64120000 -0.73910000 -0.80820000
1.13900000 -2.57670000 3.38970000
-0.64870000 -1.33310000 -0.65770000
-0.64400000 -1.28730000 -0.58440000
-0.60000000 -1.32750000 -0.58020000
1.22930000 -2.58570000 3.32630000
1.15190000 -2.52940000 3.35730000
1.23080000 -2.58240000 3.25680000
1.24080000 -2.58270000 3.14910000
1.19480000 -2.52080000 3.30650000
-0.66120000 -1.25490000 -0.63630000
-0.64880000 -1.16010000 -0.49560000
-0.75230000 -1.29970000 1.29370000
1.16620000 -2.48380000 3.35070000
-0.85860000 -1.12430000 -0.36340000
-0.73890000 -1.31440000 1.37440000
-0.94170000 -1.13400000 -0.39120000
-0.96750000 -1.07840000 -0.44530000
-0.79980000 -1.10650000 -0.42830000
-0.86250000 -1.07280000 -0.46960000
-0.75170000 -1.21470000 1.18740000
1.30350000 -2.57440000 2.76630000
-0.87510000 -1.02520000 -0.51240000
-0.98130000 -0.98400000 -0.52890000
-0.78060000 -1.03630000 -0.54940000
-0.87180000 -0.97250000 -0.61620000
-0.76910000 -1.11400000 1.24260000
-0.64100000 -1.19790000 -0.72850000
-0.77950000 -1.13990000 1.33030000
-0.75880000 -1.20180000 1.41340000
-0.61320000 -1.19100000 -0.77350000
-0.60750000 -1.16360000 -0.72910000
-0.64820000 -1.12170000 -0.59470000
-0.64100000 -1.16490000 -0.64490000
-0.60110000 -1.14990000 -0.67520000
-0.61010000 -1.09980000 -0.62780000
-0.54490000 -1.11770000 -0.63730000
-0.76270000 -1.16790000 1.11750000
-0.44590000 -1.01180000 -0.57300000
-0.54900000 -1.07190000 -0.61520000
-0.65550000 -1.09790000 -0.50720000
-0.67190000 -1.06060000 -0.56290000
-0.63230000 -1.04970000 -0.61580000
-0.69400000 -1.02710000 -0.64280000
-0.77120000 -1.00150000 1.05030000
-0.53550000 -0.96570000 -0.60360000
-0.61730000 -1.00110000 -0.63290000
-0.60640000 -0.86310000 -0.66490000
-0.67440000 -0.88090000 -0.70850000
-0.76800000 -1.00590000 -0.68020000
-0.71840000 -0.99010000 -0.70100000
-0.79570000 -0.95060000 -0.72240000
-0.79290000 -0.93370000 1.14470000
-0.88810000 -0.89660000 -0.67810000
-0.85650000 -0.80520000 -0.74900000
1.19880000 -2.55320000 3.17210000
1.14400000 -2.57650000 3.02780000
1.15340000 -2.52010000 3.12830000
1.10310000 -2.50430000 3.11290000
1.08140000 -2.55220000 3.05580000
-0.75210000 -0.89050000 -0.74180000
-0.80920000 -1.14170000 1.56520000
0.94720000 -2.58220000 3.01230000
0.90980000 -2.58140000 2.86990000
0.97170000 -2.55760000 2.91070000
1.00660000 -2.56770000 2.86590000
-0.87670000 -1.13180000 1.72310000
1.03520000 -2.55200000 3.01820000
-0.79360000 -0.78890000 -0.76650000
-0.97350000 -0.77430000 -0.64430000
1.08120000 -2.56790000 2.85340000
1.05600000 -2.57690000 2.74730000
1.12800000 -2.57180000 2.91900000
-0.88870000 -1.09060000 1.63770000
-0.72240000 -0.79710000 -0.75920000
-1.11640000 -1.13610000 -0.91810000
-1.11150000 -1.06510000 -0.98480000
1.07650000 -2.53450000 2.94380000
-1.08370000 -1.12020000 -0.80030000
-1.09130000 -1.15350000 -0.87730000
1.01340000 -2.52990000 2.93580000
-1.18610000 -1.11830000 -0.77840000
-1.10720000 -1.07830000 -0.75600000
-1.05790000 -1.09440000 -0.85550000
-1.06180000 -1.07270000 -0.78030000
-0.96610000 -1.13870000 1.40580000
-1.00940000 -1.11420000 1.46740000
-1.05240000 -1.00260000 -0.85850000
1.01710000 -2.52080000 2.87980000
1.06070000 -2.53470000 2.87600000
-1.06740000 -1.05970000 -0.92430000
-1.12550000 -1.03210000 -0.74760000
-0.94940000 -1.08280000 1.52730000
-1.08590000 -1.00170000 -0.77330000
0.95250000 -2.57230000 3.19970000
0.99410000 -2.52990000 3.14260000
-0.88720000 -1.08410000 1.45120000
-0.88150000 -1.08140000 1.35880000
0.99970000 -2.57020000 3.37800000
-1.13960000 -0.94650000 -0.72280000
-1.04200000 -1.03380000 -0.88340000
-1.05120000 -0.92910000 -0.94130000
-1.08760000 -0.94980000 -1.00450000
-1.09470000 -0.94540000 -0.80180000
0.97360000 -2.56560000 3.30910000
-1.08260000 -0.85330000 -0.86380000
0.96430000 -2.53690000 3.25870000
-0.79780000 -1.07710000 1.36960000
-1.14850000 -1.01210000 -1.03050000
-1.21850000 -0.97550000 -1.03960000
-1.26840000 -0.90160000 -1.02160000
-0.84030000 -1.07540000 1.49160000
-0.83070000 -1.05140000 1.37190000
1.16880000 -2.48510000 3.21950000
-1.31400000 -0.85080000 -0.98310000
-0.93850000 -1.07070000 1.59950000
1.03100000 -2.47490000 3.16470000
-1.14610000 -0.92740000 -1.03590000
-0.96300000 -1.16020000 1.27360000
-0.97550000 -1.17030000 1.35140000
1.12340000 -2.44820000 3.20990000
-1.01330000 -1.17710000 1.25220000
1.15390000 -2.45390000 3.30310000
-0.98030000 -1.13150000 1.22780000
-0.89700000 -1.05670000 1.24060000
-1.20160000 -0.86750000 -1.03970000
-0.89760000 -1.09230000 1.29350000
1.08110000 -2.42550000 3.24060000
-1.03620000 -1.09920000 1.23400000
-1.07330000 -1.07520000 1.26090000
-0.95220000 -1.03320000 1.21150000
-1.02910000 -0.96120000 1.21880000
-1.09530000 -1.01580000 1.33030000
-1.23790000 -0.75590000 -1.05080000
0.99570000 -2.57090000 3.08780000
-1.05380000 -0.79550000 -0.92390000
-1.09810000 -0.71890000 -0.90090000
-1.07530000 -0.94130000 1.27000000
-0.90630000 -0.70240000 -0.73070000
-0.84740000 -0.62300000 -0.76420000
-1.07170000 -0.83430000 -1.00620000
-1.17600000 -0.76930000 -1.04560000
-1.05390000 -0.80060000 -0.97330000
-0.82380000 -1.03350000 1.27420000
-1.11640000 -0.70630000 -0.99500000
-0.95200000 -0.95270000 1.18960000
-1.09040000 -0.70920000 -0.95130000
-1.17150000 -0.68770000 -1.03130000
-1.00010000 -0.84270000 1.20410000
-1.03220000 -0.83190000 1.23980000
-1.03940000 -1.03260000 1.60570000
-1.02450000 -1.04120000 -0.50190000
-1.03150000 -1.06890000 1.54720000
-1.06290000 -1.05260000 1.51730000
-1.07290000 -0.96920000 1.50590000
-0.05990000 -2.58990000 2.14880000
-1.05820000 -0.97540000 -0.56230000
-1.15750000 -0.97110000 -0.60880000
-1.11030000 -0.90500000 -0.59220000
-1.08720000 -0.90010000 1.51610000
-0.97060000 -0.93650000 -0.55230000
-0.11340000 -2.57260000 2.16580000
-1.06990000 -0.83480000 -0.56960000
-1.00310000 -0.85050000 -0.58740000
-1.12510000 -0.88230000 1.56190000
-1.07760000 -0.77080000 -0.56620000
-1.07550000 -0.87060000 1.34460000
-1.08050000 -0.82380000 1.35560000
-1.12640000 -0.77770000 1.34330000
-1.09280000 -0.78270000 1.25410000
-1.08860000 -0.59690000 -0.55190000
-1.11560000 -0.80360000 1.45120000
-1.16430000 -0.80310000 1.49300000
-1.17690000 -0.92120000 -0.63890000
-1.17250000 -0.76280000 1.40780000
-0.79280000 -1.02550000 1.24710000
-1.15350000 -0.84740000 -0.60560000
-1.17440000 -0.87730000 -0.66050000
-1.17440000 -0.82000000 -0.68780000
-0.83300000 -0.95240000 1.20830000
-1.14750000 -0.81340000 -0.73560000
-0.88050000 -0.96830000 1.22300000
-1.13690000 -0.75760000 -0.80670000
-0.87690000 -0.90820000 1.18700000
-1.15190000 -0.73920000 -0.74740000
-0.93920000 -0.85450000 1.17190000
-1.15220000 -0.75300000 -0.56560000
-1.18510000 -0.71760000 -0.60730000
-0.81230000 -0.88620000 1.15850000
-0.83810000 -0.84500000 1.16780000
-0.83730000 -0.82030000 1.09560000
1.96900000 -2.54280000 2.96230000
-0.38350000 -1.91640000 1.62480000
-0.91650000 -0.80290000 1.16780000
-1.20700000 -0.64070000 -0.63480000
-0.92110000 -0.76510000 1.12850000
-0.31980000 -1.07890000 1.54280000
2.01860000 -2.51530000 2.84790000
1.99420000 -2.52460000 2.63990000
2.02040000 -2.47040000 2.66880000
-1.38100000 -0.74580000 -0.88480000
2.02960000 -2.49950000 3.01850000
2.03180000 -2.42600000 2.78670000
-1.40940000 -0.72660000 -0.82420000
-0.35910000 -0.99130000 1.53430000
2.01380000 -2.50200000 3.23370000
2.00560000 -2.53240000 3.08850000
-0.38810000 -0.99080000 1.49190000
-1.31820000 -0.73080000 -0.96190000
-1.27630000 -0.67770000 -1.01730000
-1.36110000 -0.70320000 -0.89750000
-0.40250000 -0.90550000 1.40440000
-1.39790000 -0.65240000 -0.83570000
-1.35310000 -0.63470000 -0.83900000
-1.30850000 -0.66560000 -0.89850000
-1.28320000 -0.64930000 -0.95210000
-1.13190000 -0.71600000 -0.54640000
-1.16800000 -0.61100000 -0.54260000
-1.22180000 -0.57530000 -0.57900000
-0.28900000 -1.28690000 1.10480000
-0.26130000 -1.12240000 1.07960000
-1.58060000 -0.60710000 -0.78080000
2.03240000 -2.41420000 3.03070000
-0.30560000 -1.16250000 1.16100000
-1.44910000 -0.59430000 -0.78460000
-1.52790000 -0.52100000 -0.76400000
-1.41650000 -0.55660000 -0.81450000
-0.29580000 -0.94310000 1.11010000
-1.38960000 -0.54490000 -0.81800000
-1.28990000 -0.62910000 -0.82510000
-1.33550000 -0.57510000 -0.79990000
-1.48930000 -0.47530000 -0.78910000
-1.43030000 -0.45580000 -0.82490000
-1.00490000 -0.63140000 -0.62390000
-1.20310000 -0.67200000 -0.76310000
-1.23690000 -0.58240000 -0.66000000
-0.35160000 -0.76410000 1.16360000
-0.37910000 -0.76730000 1.24110000
-0.38590000 -0.73230000 1.31640000
-0.96440000 -0.43240000 -0.66390000
-1.15130000 -0.61750000 -0.90110000
-1.16330000 -0.65150000 -0.87570000
