-1.32130000 -1.26300000 0.67270000
-1.48440000 2.59010000 -0.33320000
1.70450000 2.82890000 -0.39210000
-1.41630000 -1.25620000 0.51890000
-1.45880000 -1.14410000 0.41000000
-1.45630000 -1.19520000 0.49380000
-1.54020000 2.51370000 -0.22720000
-1.46960000 -1.11790000 0.48540000
0.35290000 -3.94630000 0.90870000
1.50140000 -0.33250000 -0.45710000
-1.20240000 -2.08850000 -0.99490000
-1.39370000 -1.22760000 0.56890000
-1.14130000 -2.12640000 -0.99080000
1.51880000 -0.34150000 -0.36330000
0.43310000 -3.89710000 0.95010000
1.83730000 2.16910000 0.11050000
-1.49390000 2.58560000 -0.21950000
0.43240000 -3.82880000 0.95950000
0.34760000 -1.76600000 -0.90940000
-1.06390000 -2.11550000 -0.99930000
-1.48550000 2.62570000 -0.30030000
1.56540000 -0.26850000 -0.49930000
0.32930000 -1.68660000 -0.93480000
-1.45950000 -1.13610000 0.56430000
1.93600000 2.17530000 0.07800000
1.51040000 -0.20220000 -0.37480000
0.53090000 -3.86360000 0.93790000
-0.98330000 -2.07960000 -0.98860000
-1.39050000 -1.15740000 0.62130000
1.90590000 2.21800000 0.14560000
1.63090000 -0.22650000 -0.51840000
-1.45290000 2.64130000 -0.25210000
-0.88770000 -2.04940000 -0.91810000
0.19040000 -1.60030000 -0.92140000
-1.48620000 -1.08430000 0.39270000
1.51960000 -0.24910000 -0.28060000
-1.46290000 -2.40690000 -0.53440000
1.75140000 2.31730000 0.37550000
1.78430000 2.20510000 0.30470000
1.76250000 2.42910000 0.33360000
1.48540000 -0.22330000 -0.45790000
1.55550000 -0.21500000 -0.49550000
-1.46560000 -1.04720000 0.44710000
1.83140000 2.25450000 0.21580000
1.90310000 2.28200000 0.19910000
1.40650000 -0.15070000 -0.45170000
1.46410000 -0.18670000 -0.51030000
-1.50540000 -0.97890000 0.40690000
1.56820000 -0.17260000 -0.54450000
-1.46970000 -2.28350000 -0.51410000
0.43550000 -1.89800000 -0.77470000
1.99510000 2.30080000 0.23060000
-1.47000000 -0.94410000 0.50880000
1.36330000 -0.15890000 -0.51080000
1.82160000 2.43960000 0.27750000
1.86990000 2.46600000 0.28090000
-1.46220000 -0.93200000 0.44310000
0.45750000 -3.73480000 0.98290000
-1.50390000 2.60110000 -0.08470000
0.67990000 -1.77060000 -0.97020000
-1.46210000 2.55120000 -0.15110000
1.94080000 2.44640000 0.30290000
-1.38760000 2.66560000 -0.23200000
-1.49880000 -2.14550000 -0.53730000
0.74130000 -1.69860000 -1.03030000
-1.44870000 2.62450000 -0.11010000
1.44950000 -0.14270000 -0.40790000
-1.54980000 -2.10250000 -0.58100000
-1.57560000 -2.08590000 -0.66640000
-1.49820000 -0.85770000 0.41150000
0.38830000 -1.66620000 -0.90960000
-1.57040000 -0.76220000 0.36360000
-1.50580000 -2.14940000 -0.47510000
-1.53790000 -0.76450000 0.42710000
1.91350000 2.18370000 -0.25860000
1.96250000 2.14380000 -0.13840000
1.95580000 2.22220000 -0.25270000
1.87750000 2.25110000 -0.32440000
-1.44840000 2.75780000 -0.07160000
-1.39380000 2.73420000 -0.11320000
2.01420000 2.17670000 -0.11130000
0.35420000 -3.58890000 1.05590000
-1.34030000 2.71830000 -0.20870000
1.47150000 -0.07870000 -0.34460000
0.93630000 -2.25040000 -1.02730000
1.98290000 2.27050000 -0.22020000
-1.15820000 -1.24790000 0.76720000
2.03390000 2.24310000 -0.08040000
-1.54330000 -2.01640000 -0.50260000
1.01580000 -2.03020000 -1.05910000
1.06540000 -2.35760000 -1.05520000
2.02500000 2.33980000 -0.05010000
1.97390000 2.37830000 -0.20930000
1.92070000 2.31770000 -0.33880000
-1.23060000 -1.14790000 0.73710000
1.83200000 2.39110000 -0.37340000
1.16000000 -2.27690000 -1.05450000
-0.32080000 0.65680000 0.72050000
-0.39420000 0.80730000 0.74020000
-0.42390000 0.70110000 0.71300000
0.46860000 -3.53810000 1.05910000
1.86090000 2.50350000 -0.38790000
1.15100000 -1.95370000 -1.07270000
1.27130000 -2.20810000 -1.05640000
-0.20100000 0.74310000 0.72680000
-1.28540000 -1.09760000 0.72280000
0.64390000 -3.79180000 0.96890000
-1.43970000 -1.01430000 0.56640000
-1.37410000 -0.98530000 0.63470000
0.64110000 -3.72860000 1.01340000
0.75850000 -3.73830000 1.01130000
1.86830000 2.63150000 -0.37630000
-1.07680000 1.19140000 0.89240000
-1.00320000 1.15450000 0.74130000
-0.98470000 1.11520000 0.88280000
1.75870000 2.71120000 -0.39300000
-1.07210000 1.23870000 0.80110000
1.79300000 2.74720000 -0.42200000
-1.30260000 -0.94900000 0.72340000
-1.09650000 1.24140000 0.88710000
0.83050000 -1.80990000 -1.05950000
-1.23700000 1.29570000 0.71930000
-1.35880000 1.21940000 0.70010000
-1.18790000 0.99210000 0.70080000
1.91980000 2.61950000 -0.29080000
-1.13300000 -1.11730000 0.80850000
-0.90140000 -1.13560000 0.82210000
-1.00890000 -1.08100000 0.85800000
-0.67900000 -2.66010000 -1.00880000
-1.10320000 1.26920000 0.72280000
-1.09020000 1.04800000 0.68460000
-1.04010000 1.14370000 0.69540000
-1.04470000 -0.98370000 0.87430000
-1.75500000 -3.97460000 -0.39930000
-1.59450000 -3.98660000 -0.63270000
-1.58680000 -4.00480000 -0.53360000
1.82370000 2.86530000 -0.43960000
-1.68340000 -4.00130000 -0.32180000
-0.54910000 -2.50940000 -0.91430000
-0.90150000 -0.95660000 0.86110000
1.86330000 2.92830000 -0.42500000
1.00380000 -1.74610000 -1.07740000
-1.07320000 1.35450000 0.76960000
-1.08340000 1.31140000 0.84580000
-1.21160000 -1.00240000 0.80950000
-1.86760000 -3.95610000 -0.20790000
-2.03670000 -3.93790000 -0.16470000
-2.00460000 -3.98140000 -0.30860000
-1.89120000 -3.97980000 -0.39450000
2.05170000 2.23190000 0.06550000
2.05620000 2.26760000 0.03670000
-1.23410000 -0.91310000 0.78630000
-1.17770000 1.41830000 0.74190000
1.59600000 -0.12540000 0.00330000
-1.07990000 1.42200000 0.75960000
1.27070000 -2.05160000 -1.04580000
2.02840000 2.43590000 -0.10050000
1.38260000 -2.25610000 -1.00810000
-0.91250000 1.08230000 0.95940000
-1.03960000 1.14490000 0.95210000
2.03450000 2.42790000 0.15580000
-0.41160000 -2.43160000 -0.85800000
-0.31970000 -2.77360000 -0.91420000
-1.12510000 -0.95200000 0.83920000
-1.02840000 1.17090000 1.00640000
-0.90720000 1.11490000 0.99870000
2.04400000 2.42820000 0.03410000
-1.08010000 1.23530000 1.00370000
-1.09170000 1.29400000 0.97510000
1.45620000 -1.97320000 -0.93530000
-0.99620000 1.20390000 1.03530000
-0.89460000 1.17780000 1.01440000
-1.16470000 -0.84150000 0.83960000
1.99770000 2.58110000 -0.22300000
-0.95250000 1.31810000 1.03810000
1.36150000 -1.98080000 -0.95850000
-1.01330000 1.30610000 1.03400000
-1.64650000 -4.00420000 -0.23200000
-1.82600000 -3.94260000 -0.07940000
2.08570000 2.51640000 -0.03420000
1.27290000 -1.96970000 -1.03230000
1.31600000 -1.95090000 -0.96740000
2.05690000 2.53210000 -0.12420000
-0.73730000 -1.17110000 0.73130000
-1.54710000 -4.02220000 -0.44650000
-0.80780000 -1.09510000 0.79320000
-0.76120000 -1.07890000 0.73480000
-1.63600000 -4.02990000 -0.13570000
-1.51010000 -4.04590000 -0.19210000
2.07880000 2.67490000 -0.01170000
1.18680000 -1.74840000 -1.05290000
-1.06320000 1.35960000 0.93360000
1.26320000 -1.85050000 -1.02330000
-1.03000000 1.42970000 0.90370000
2.05170000 2.31930000 0.19260000
-0.84050000 -1.01110000 0.84430000
1.62310000 0.08790000 0.09420000
-0.78360000 -0.95080000 0.81480000
1.61780000 0.11610000 0.13570000
-1.42220000 -4.00120000 -0.70220000
1.61160000 0.08590000 0.19870000
-1.00910000 1.39910000 0.98710000
-0.74120000 -1.11130000 0.69110000
-0.66680000 -1.14030000 0.68010000
2.04300000 2.40070000 0.26740000
2.03560000 2.48670000 0.26850000
2.03080000 2.58830000 0.18720000
-0.56660000 -1.13790000 0.61970000
-0.82920000 0.85360000 0.85950000
-0.83090000 0.83310000 0.72820000
-0.78350000 0.81140000 0.78500000
-0.73590000 0.83330000 0.82030000
-0.70070000 0.80290000 0.77100000
-0.19400000 -2.56070000 -0.86820000
-0.76830000 0.91630000 0.88530000
2.05960000 2.58950000 0.10180000
-0.73300000 0.99150000 0.88200000
-0.68340000 -1.09350000 0.61930000
-0.72530000 -1.03360000 0.64290000
-0.81790000 0.93160000 0.91810000
-0.29220000 -2.38140000 -0.84570000
-0.56300000 0.74530000 0.73960000
-0.52890000 0.91320000 0.79640000
-0.59670000 0.83190000 0.79390000
2.09780000 2.64780000 0.09990000
-1.28580000 -4.01230000 -0.61440000
-0.52880000 -1.09530000 0.61010000
-0.66870000 -0.91230000 0.62430000
-0.58010000 -0.77570000 0.64390000
-0.66580000 0.94030000 0.85590000
-0.07030000 -2.57720000 -0.87930000
-0.00470000 -2.75200000 -0.88500000
1.58610000 0.31790000 0.25510000
-1.39620000 -4.01700000 -0.42980000
1.59940000 0.27680000 0.15130000
-0.73940000 -0.89430000 0.75350000
1.56480000 0.44780000 0.19250000
-0.71160000 -0.88090000 0.66190000
2.10390000 2.72220000 0.09820000
-0.02540000 -2.49230000 -0.83780000
-0.11380000 -2.29690000 -0.88180000
-0.89060000 0.91490000 0.76900000
-0.06490000 -2.44040000 -0.86210000
-1.14410000 -4.00280000 -0.42090000
-0.85840000 0.95560000 0.89880000
-0.89670000 1.01740000 0.81000000
-0.92960000 1.00780000 0.68560000
-1.29920000 -4.03080000 -0.37350000
0.86740000 -1.56670000 -1.06520000
-1.39280000 -4.06530000 -0.00830000
1.92460000 2.76970000 -0.32900000
-0.89140000 1.05380000 0.91210000
1.99130000 2.70400000 -0.25580000
-1.19780000 -4.03470000 -0.16170000
-0.93010000 1.08460000 0.82380000
2.03240000 2.71210000 -0.10910000
2.01070000 2.78350000 -0.20770000
-0.08860000 -1.66870000 -0.94720000
-0.67740000 1.10400000 0.88320000
-0.61510000 1.03430000 0.86530000
-0.16890000 -1.60920000 -0.93920000
-0.49280000 1.07010000 0.79110000
1.89110000 2.89830000 -0.36850000
-1.44940000 -0.84360000 0.56650000
-0.82560000 1.03140000 0.95740000
-0.80640000 1.08600000 0.96860000
1.97670000 2.87030000 -0.30700000
-1.41950000 -0.80110000 0.61200000
-0.10000000 -1.51530000 -0.89800000
2.03940000 2.95770000 -0.20830000
-1.47070000 -0.79890000 0.49020000
-0.73140000 1.19380000 0.94390000
1.94850000 2.97680000 -0.31670000
-0.81040000 1.17930000 0.97450000
2.00410000 3.00770000 -0.26290000
-1.47150000 -0.70590000 0.50550000
-0.59360000 -2.21790000 -0.85900000
-0.69500000 -2.09870000 -0.82590000
2.05540000 2.84780000 -0.13310000
2.06660000 2.88770000 -0.01650000
2.08410000 2.86950000 0.07190000
-1.36730000 -0.75780000 0.65070000
-0.58770000 1.15260000 0.86040000
-2.12440000 -3.92670000 -0.19350000
-2.04350000 -3.97580000 -0.35360000
0.54030000 -1.90750000 -0.73890000
-2.10860000 -3.90950000 -0.30270000
0.61400000 -1.82970000 -0.71040000
0.57330000 -1.84910000 -0.67610000
-1.27080000 -0.77790000 0.78040000
-0.80870000 -2.09840000 -0.89040000
-2.16810000 -3.88350000 -0.17900000
-2.13790000 -3.88950000 -0.09580000
-2.18190000 -3.85260000 -0.10550000
-0.37260000 0.95710000 0.73880000
0.43820000 -1.81480000 -0.69780000
-2.16930000 -3.81080000 -0.18640000
2.06760000 3.07600000 -0.09960000
0.40750000 -1.72040000 -0.82270000
2.02030000 3.09390000 -0.19880000
0.41330000 -1.74510000 -0.74400000
-2.09630000 -3.83110000 -0.33920000
0.88120000 2.72690000 -0.50660000
0.90700000 2.66590000 -0.55410000
0.79480000 2.59400000 -0.53710000
-0.22520000 1.00340000 0.70110000
-1.38570000 -0.62650000 0.64120000
0.50890000 -1.81490000 -0.65150000
-1.43800000 -0.60210000 0.58230000
-0.04570000 0.95640000 0.69610000
-1.33470000 -0.67470000 0.72410000
-2.09610000 -3.68850000 -0.35370000
-2.15450000 -3.69050000 -0.18950000
-0.02720000 -2.35120000 -0.85250000
0.43470000 -1.71500000 -0.68760000
1.04740000 2.80300000 -0.53530000
0.96960000 2.68880000 -0.60940000
-2.17120000 -3.58890000 -0.23280000
-1.34250000 -0.53500000 0.72610000
-2.07690000 -3.62420000 -0.41300000
-1.69990000 -0.87560000 0.11980000
-1.72890000 -0.83350000 0.07060000
-1.83450000 -0.84870000 0.05650000
-2.15930000 -3.53800000 -0.33540000
-1.71600000 -0.88820000 0.18890000
0.97510000 2.84240000 -0.47900000
-0.30130000 -2.18280000 -0.85110000
0.85160000 2.79050000 -0.48090000
-1.83630000 -0.75120000 0.03460000
-1.78750000 -0.74610000 0.02300000
-0.37250000 1.13590000 0.72990000
0.78200000 2.78020000 -0.52030000
0.82800000 2.91630000 -0.47800000
0.78050000 2.86330000 -0.52740000
-1.76130000 -3.94390000 -0.71270000
-1.70320000 -3.98690000 -0.65570000
-1.85330000 -3.96110000 -0.61450000
-0.43080000 -2.18690000 -0.83580000
-1.79960000 -0.63410000 -0.01410000
-1.95140000 -3.92960000 -0.60010000
-1.86420000 -3.90480000 -0.64540000
0.89350000 2.90550000 -0.45300000
0.62570000 -1.68710000 -0.70540000
0.63830000 -1.64150000 -0.79790000
-0.06530000 -2.26970000 -0.88940000
1.18310000 2.83890000 -0.60660000
1.07730000 2.77400000 -0.63290000
-1.75800000 -3.89440000 -0.79670000
-0.48150000 -0.95240000 0.62230000
-1.91510000 -0.70160000 -0.00080000
1.16420000 2.80670000 -0.68620000
0.42010000 -1.62630000 -0.76490000
-1.86980000 -3.79550000 -0.68970000
-1.81280000 -3.80420000 -0.75580000
-0.40120000 -0.87160000 0.63800000
0.34000000 -1.58130000 -0.92010000
-0.31960000 1.24310000 0.72610000
1.01200000 2.95770000 -0.45980000
-0.21730000 -2.08220000 -0.84990000
1.14810000 2.91100000 -0.54640000
0.37950000 -1.57850000 -0.86730000
-0.32250000 -0.91270000 0.61160000
-1.89370000 -0.57880000 -0.02630000
-0.13130000 1.16090000 0.69780000
-1.65010000 -3.98260000 -0.82320000
-1.66270000 -3.96280000 -0.89730000
-1.50030000 -3.97420000 -0.95120000
-1.57830000 -3.96260000 -0.96430000
-1.64480000 -3.92080000 -0.94650000
-0.45390000 1.25440000 0.77950000
0.37910000 -1.54580000 -0.74780000
-1.26210000 -3.95220000 -0.96450000
-1.45460000 -3.99130000 -0.84980000
-1.41070000 -3.93450000 -1.02150000
0.90250000 2.99430000 -0.45690000
-1.51570000 -3.90580000 -1.01630000
-1.87010000 -0.85660000 0.35070000
-0.30930000 1.36540000 0.73910000
-1.41230000 -3.87020000 -1.04640000
-0.94510000 1.08370000 0.70680000
0.72220000 -1.55000000 -0.97060000
-1.52800000 -3.82930000 -1.00530000
-0.98940000 1.08350000 0.65910000
-1.64720000 -3.84180000 -0.94060000
0.67260000 -1.48790000 -0.83320000
-0.26310000 -0.74210000 0.63780000
-1.95970000 -0.57390000 -0.06260000
-0.63720000 -2.02310000 -0.79030000
-0.20070000 -0.88010000 0.64340000
-1.95310000 -0.49330000 -0.05220000
0.49850000 -1.72440000 -0.63910000
-1.90600000 -0.45420000 -0.00950000
-1.48840000 -3.74670000 -0.99870000
0.56630000 -1.75050000 -0.63560000
-1.79600000 -0.53620000 -0.01220000
1.43320000 2.78420000 -0.51710000
0.60050000 -1.68260000 -0.65170000
1.39230000 2.62010000 -0.69010000
1.43710000 2.69850000 -0.64720000
-0.52400000 -2.03920000 -0.80180000
1.38480000 2.81520000 -0.69880000
1.36130000 2.71400000 -0.71970000
0.47280000 -1.65470000 -0.66100000
1.43280000 2.80030000 -0.64220000
1.46870000 2.85860000 -0.65530000
0.53760000 -1.64200000 -0.63960000
-0.89060000 1.30150000 1.01400000
-0.84310000 1.25650000 0.96390000
-0.44590000 -0.76020000 0.63650000
1.46270000 2.81660000 -0.57130000
-0.78820000 1.30020000 0.95340000
-0.82180000 -1.98590000 -0.82190000
1.54310000 2.86320000 -0.54140000
1.53300000 2.94160000 -0.61880000
1.29280000 2.86840000 -0.70070000
1.28080000 2.77910000 -0.73790000
0.61670000 -1.55090000 -0.70440000
1.24670000 2.89570000 -0.61870000
0.41540000 -1.55160000 -0.66720000
-0.64710000 1.22380000 0.89040000
0.46990000 -1.56060000 -0.63380000
1.32510000 2.94790000 -0.74440000
-0.52950000 1.31440000 0.80960000
-0.75740000 -1.92340000 -0.75870000
1.26330000 2.95640000 -0.70450000
-0.61260000 1.31550000 0.89190000
-0.71250000 1.31570000 0.94570000
0.37950000 -1.46680000 -0.68130000
0.34220000 -1.47720000 -0.73950000
-0.09650000 -0.97200000 0.65210000
0.52450000 -1.53230000 -0.62440000
0.58410000 -1.51310000 -0.66050000
-0.59650000 -1.94600000 -0.78380000
1.18340000 3.03200000 -0.55190000
1.21510000 3.02100000 -0.61780000
0.43960000 -1.48110000 -0.63250000
-0.64850000 -0.58830000 0.64060000
-0.56430000 1.40820000 0.89900000
0.42550000 -1.43740000 -0.66120000
-1.04840000 1.45770000 0.82110000
0.52810000 -1.45570000 -0.64640000
1.38630000 2.93360000 -0.72690000
0.50700000 -1.41780000 -0.68790000
-0.69480000 -1.72950000 -0.76160000
1.47070000 2.99590000 -0.68520000
-1.04250000 1.50580000 0.92190000
0.05870000 -0.94400000 0.68350000
-0.52310000 -1.91480000 -0.77400000
-0.46950000 -1.90350000 -0.77610000
-0.42530000 -1.98080000 -0.80310000
-1.72710000 -3.80470000 -0.82700000
0.25680000 -1.05370000 0.66280000
0.32170000 -1.12880000 0.67100000
-1.69560000 -3.71040000 -0.86910000
-0.60900000 -1.85220000 -0.79100000
1.44200000 3.07620000 -0.71300000
-1.60810000 -3.72650000 -0.93950000
0.61450000 -1.44160000 -0.76320000
0.71510000 -1.44570000 -0.90290000
-0.51110000 -1.69290000 -0.79150000
1.55900000 3.09170000 -0.68290000
1.46350000 2.76190000 -0.46160000
-0.42870000 1.37120000 0.74890000
1.52810000 2.83920000 -0.47830000
-0.47230000 1.41370000 0.83570000
-1.78250000 -3.68030000 -0.76180000
1.59540000 2.82580000 -0.42400000
-0.40950000 1.45470000 0.77430000
-1.64550000 -3.56830000 -0.87210000
-1.01360000 -0.80740000 0.88590000
1.36540000 -1.88450000 -0.88070000
-0.33570000 -1.99360000 -0.83510000
1.44290000 -1.88320000 -0.90300000
1.63190000 2.91010000 -0.47190000
1.60530000 3.02630000 -0.55970000
-0.10450000 -2.08110000 -0.88050000
-0.85610000 -0.81690000 0.87850000
-1.74650000 -3.47320000 -0.79350000
1.62350000 -1.89020000 -0.82530000
1.62290000 3.09230000 -0.59880000
-1.50880000 -3.61620000 -0.95700000
-0.41150000 1.54800000 0.80210000
0.78070000 3.01510000 -0.50670000
-0.92420000 -0.56280000 0.89130000
-1.57930000 -3.51340000 -0.93580000
-1.63120000 -3.46850000 -0.87970000
-0.80480000 -0.75590000 0.86150000
1.57220000 -1.85570000 -0.84700000
1.49660000 -1.82460000 -0.84390000
-0.36200000 1.56350000 0.74670000
-0.20010000 -1.93010000 -0.84220000
-1.44390000 -3.53990000 -1.00070000
-0.29380000 1.57780000 0.73750000
-0.05690000 1.41120000 0.68090000
-0.75410000 -0.73790000 0.80790000
1.27160000 -1.77260000 -0.96000000
1.30900000 -1.86810000 -0.89250000
0.96570000 3.09690000 -0.43620000
-1.54320000 -3.41200000 -0.95180000
-0.41460000 -1.87470000 -0.83410000
0.90710000 3.11170000 -0.46680000
-0.32370000 -1.86170000 -0.87400000
-0.82230000 1.40340000 0.99840000
-1.93180000 -3.98490000 -0.49420000
-2.03100000 -3.96870000 -0.45620000
-1.96260000 -3.96980000 -0.54350000
-0.25130000 -1.88320000 -0.85150000
0.73730000 3.22910000 -0.48430000
0.65770000 3.09540000 -0.52520000
1.26730000 -1.73540000 -0.89710000
-0.65980000 1.44450000 0.93240000
1.29730000 -1.75770000 -0.85540000
-0.92520000 1.47780000 1.00870000
1.36270000 -1.81270000 -0.82420000
-2.03140000 -3.91560000 -0.51060000
-0.38920000 -1.76310000 -0.85590000
-1.24830000 -0.59780000 0.80300000
1.42910000 -1.82050000 -0.83100000
0.85560000 3.23150000 -0.44570000
-1.08750000 -0.59070000 0.87410000
0.86360000 3.28690000 -0.42400000
-1.96510000 -3.84350000 -0.57930000
1.09070000 3.17120000 -0.45860000
-2.03930000 -3.79400000 -0.48020000
-0.85710000 1.57040000 0.99850000
-0.15970000 -1.88680000 -0.87290000
-0.77340000 1.49560000 0.98110000
-1.00760000 1.51810000 0.98180000
1.00400000 3.18530000 -0.42600000
-1.00630000 1.59880000 0.99040000
-0.23460000 -1.82150000 -0.88800000
1.59810000 -1.80790000 -0.75510000
1.52710000 -1.79670000 -0.77900000
1.67830000 -1.83380000 -0.72610000
1.05290000 3.32240000 -0.43560000
1.53150000 -1.75500000 -0.70020000
1.61680000 -1.76630000 -0.67230000
-0.20790000 -1.73470000 -0.93130000
1.14840000 3.20800000 -0.49950000
1.68410000 -1.77430000 -0.68200000
-1.33990000 -2.04190000 -0.93000000
-0.63220000 1.56620000 0.92650000
-1.41810000 -1.97460000 -0.81450000
1.41790000 -1.71380000 -0.77100000
1.45140000 -1.75220000 -0.75550000
-1.88590000 -3.79350000 -0.62670000
-0.75570000 1.58380000 0.94230000
1.35800000 -1.60580000 -0.82210000
-0.66680000 1.62690000 0.90790000
-1.40370000 -1.94750000 -0.87250000
-1.34890000 -1.91990000 -0.92540000
-0.83450000 1.62120000 0.95170000
1.42230000 -1.59770000 -0.77720000
-1.38370000 -1.83770000 -0.87800000
0.69040000 3.33770000 -0.44630000
-1.21530000 -0.39320000 0.80350000
-0.55490000 1.53220000 0.88100000
-0.48260000 1.52890000 0.85070000
1.30960000 3.04310000 -0.74340000
1.24690000 3.06390000 -0.71180000
1.54050000 -1.66700000 -0.66400000
-1.97500000 -3.68830000 -0.52400000
1.19880000 3.08870000 -0.64140000
1.04860000 -1.60280000 -1.06980000
-1.15300000 -1.91750000 -0.99770000
1.27070000 3.17670000 -0.67880000
-0.99550000 -0.57140000 0.89480000
-0.52610000 1.64340000 0.87720000
-1.29130000 -1.93820000 -0.98770000
-1.22160000 -1.89430000 -1.00980000
1.19610000 3.25250000 -0.62030000
-0.43730000 1.67860000 0.83510000
-0.83000000 -0.53360000 0.86180000
-1.90120000 -3.74090000 -0.57880000
0.78430000 -1.53860000 -1.03520000
1.36200000 3.09280000 -0.72500000
-1.87790000 -3.69480000 -0.65910000
-0.60550000 1.67690000 0.89310000
0.79060000 -1.45800000 -0.98090000
-0.71720000 -0.66670000 0.70580000
-1.06450000 -2.04950000 -0.95800000
-1.85990000 -3.62690000 -0.70060000
-0.69210000 -0.58860000 0.65620000
1.39350000 3.16760000 -0.72080000
1.52100000 3.14860000 -0.73830000
0.85860000 -1.45020000 -1.02120000
-0.37330000 1.70370000 0.77400000
1.43500000 3.16740000 -0.75630000
-1.08570000 -1.89630000 -0.95240000
-1.88160000 -3.64880000 -0.59910000
1.34220000 3.21730000 -0.68120000
-1.91280000 -3.63900000 -0.55140000
1.47330000 3.23190000 -0.76600000
1.40380000 3.27910000 -0.74720000
-0.95630000 -1.98180000 -0.88620000
-0.31360000 1.68750000 0.73590000
-0.24140000 1.65240000 0.74340000
-0.75010000 -0.53770000 0.78820000
-0.28110000 1.80750000 0.92610000
-0.25350000 1.73520000 0.86640000
-0.20290000 1.72720000 0.92410000
-0.23130000 1.79780000 0.96310000
1.16220000 3.27680000 -0.54910000
-1.27540000 -1.84740000 -0.98810000
-0.72380000 -0.42020000 0.67730000
-1.30600000 -1.80150000 -0.91390000
0.93540000 -1.47200000 -1.04950000
-0.76790000 -0.41630000 0.78260000
1.05660000 -1.53010000 -1.05320000
0.93810000 -1.40460000 -0.96870000
-1.23100000 -1.72210000 -0.92940000
1.37670000 3.29300000 -0.68730000
1.02460000 -1.43290000 -0.98750000
1.09710000 -1.48030000 -0.99320000
-1.19360000 -1.76210000 -0.99500000
1.30640000 3.40400000 -0.61610000
-1.81730000 -3.56680000 -0.74750000
0.98820000 -1.34650000 -0.89010000
1.03200000 -1.37810000 -0.90790000
0.91450000 -1.35450000 -0.87470000
1.13620000 -1.48450000 -0.94220000
-1.95140000 -3.54510000 -0.54520000
-1.90540000 -3.56150000 -0.63870000
-1.59330000 -2.06300000 -0.63160000
-1.96220000 -3.50240000 -0.60170000
1.14100000 -1.43110000 -0.88070000
1.20130000 3.45270000 -0.56010000
1.13020000 -1.37600000 -0.88550000
1.09690000 -1.32730000 -0.91450000
-1.90980000 -3.46150000 -0.67500000
-1.59390000 -1.96930000 -0.68250000
-1.99340000 -3.42060000 -0.63670000
-1.05230000 -0.34670000 0.87660000
1.22020000 -1.67170000 -1.00780000
-1.92790000 -3.32790000 -0.68590000
1.47590000 3.34690000 -0.75400000
-1.58570000 -1.99510000 -0.58240000
1.41310000 3.38810000 -0.69130000
1.45110000 3.41330000 -0.71540000
-0.97670000 -0.30610000 0.87640000
1.35290000 3.36960000 -0.63430000
-0.86340000 -0.36250000 0.85480000
-1.59790000 -1.93160000 -0.61870000
1.15500000 -1.56490000 -1.01560000
1.21040000 -1.60050000 -0.95270000
-2.06360000 -3.53190000 -0.45440000
-1.63860000 1.85650000 0.79370000
-1.56000000 1.81070000 0.71160000
-1.56060000 1.65210000 0.86140000
-1.51540000 1.64600000 0.77800000
-1.46840000 -1.85770000 -0.77220000
-1.61110000 1.72150000 0.89470000
-1.53050000 1.64730000 0.92040000
1.44010000 3.45410000 -0.64220000
-2.03210000 -3.41860000 -0.46260000
-2.01570000 -3.43020000 -0.56700000
-0.84880000 -0.28070000 0.79860000
-2.01860000 -3.36010000 -0.48760000
-1.57910000 1.77500000 0.94210000
-1.47610000 1.67370000 0.95460000
-2.11950000 -3.47360000 -0.37730000
-1.64180000 1.81630000 0.91220000
-0.78190000 -0.29940000 0.70320000
-1.55880000 -1.89530000 -0.72290000
0.82610000 3.41540000 -0.42270000
-1.39320000 1.44270000 0.73180000
1.24890000 -1.55130000 -0.86950000
0.71370000 3.56940000 -0.45320000
-1.57370000 -1.84540000 -0.66410000
1.20270000 -1.54150000 -0.89280000
0.92660000 3.44200000 -0.42990000
-1.32890000 1.42230000 0.74320000
-1.54800000 -1.82340000 -0.72140000
1.24760000 -1.43690000 -0.88210000
-2.08330000 -3.38840000 -0.35840000
-1.53010000 -1.77410000 -0.65000000
-1.43820000 1.51280000 0.71450000
-1.40800000 -1.84970000 -0.82100000
1.13840000 3.39990000 -0.48740000
-0.36770000 -0.68990000 0.60990000
-0.44300000 -0.61040000 0.63900000
1.02650000 3.46060000 -0.42870000
-0.30020000 -0.58210000 0.63260000
-2.02310000 -3.22900000 -0.47440000
-1.33010000 1.49060000 0.78050000
-1.39000000 -1.76200000 -0.80670000
1.34040000 -1.34730000 -0.86440000
-1.43480000 1.55560000 0.79450000
-2.04230000 -3.25830000 -0.56360000
1.11760000 3.48500000 -0.46230000
-1.48310000 -1.76900000 -0.75070000
-1.47850000 -1.73700000 -0.68230000
-1.22590000 1.47160000 0.76720000
1.40500000 -1.43830000 -0.82480000
-0.11680000 -0.90230000 0.68100000
-1.40100000 -1.72090000 -0.71930000
-2.02380000 -3.25740000 -0.62100000
-1.46770000 1.55200000 0.66040000
1.21220000 3.53970000 -0.49050000
-0.11540000 -0.81580000 0.69040000
1.28390000 3.51350000 -0.59010000
-1.56180000 -1.88930000 -0.55500000
1.22460000 -1.30950000 -0.91180000
-1.44580000 1.68420000 0.58390000
1.49230000 3.52860000 -0.61690000
-1.46710000 1.61390000 0.68650000
0.04720000 -0.70430000 0.70420000
-2.01190000 -3.13070000 -0.49120000
1.29080000 -1.22140000 -0.92560000
-1.47180000 1.74050000 0.61750000
-1.52330000 -1.78070000 -0.56540000
1.76070000 2.91690000 -0.41950000
1.69510000 2.95830000 -0.44210000
1.73600000 -1.74170000 -0.59690000
1.64860000 -1.72120000 -0.58150000
-1.28750000 1.50250000 0.85470000
-1.39900000 1.53240000 0.86520000
-1.52630000 -1.73300000 -0.53570000
1.60300000 -1.68300000 -0.59670000
-1.65860000 -3.34360000 -0.83120000
1.64450000 -1.68800000 -0.48810000
-1.56550000 -1.66110000 -0.52770000
-1.52060000 -1.65840000 -0.56840000
1.60170000 -1.62680000 -0.51290000
-1.40650000 1.57740000 0.92410000
-1.25380000 1.53330000 0.91480000
-0.13900000 -0.69310000 0.66590000
1.69000000 3.16540000 -0.58400000
-1.29120000 1.67160000 0.97380000
-1.47550000 -1.70290000 -0.60620000
-0.07690000 -0.70470000 0.68230000
-1.40820000 -1.68540000 -0.63490000
-1.14330000 1.49940000 0.82310000
1.73130000 3.04880000 -0.45260000
-1.80870000 -3.28020000 -0.74860000
-1.16340000 1.50860000 0.87770000
1.72090000 3.15790000 -0.49030000
1.49960000 -1.53420000 -0.69670000
-1.07960000 1.49000000 0.81110000
-1.35010000 -1.68070000 -0.68560000
-0.14980000 -0.48100000 0.68660000
1.59560000 -1.57540000 -0.60840000
1.60690000 -1.51720000 -0.52280000
-1.52160000 -1.60000000 -0.66130000
-1.73310000 -3.21990000 -0.78510000
-1.42090000 -1.59510000 -0.65680000
1.57650000 -1.41950000 -0.66470000
-1.14310000 1.55620000 0.94310000
-1.34500000 -1.61950000 -0.67550000
-1.61460000 -3.34290000 -0.90530000
-0.00710000 -0.36450000 0.70110000
1.60570000 3.18710000 -0.68740000
-0.94230000 -1.86310000 -0.85820000
1.70610000 -1.62900000 -0.42320000
1.55210000 3.29730000 -0.72940000
-0.99190000 -1.82510000 -0.90550000
-1.49060000 -3.20300000 -0.95280000
-1.47260000 -3.37770000 -0.99980000
1.64460000 3.25140000 -0.63890000
1.72800000 3.29090000 -0.55100000
-1.65060000 -3.23240000 -0.87230000
1.64160000 3.34520000 -0.60150000
-1.32790000 -1.75270000 -0.87930000
1.59680000 3.39180000 -0.67330000
-1.72510000 -3.17740000 -0.82550000
1.62480000 -1.52520000 -0.45420000
-1.56500000 -3.17960000 -0.90710000
1.62600000 -1.33560000 -0.61220000
-1.69790000 1.97420000 0.49650000
-1.30990000 -1.66550000 -0.78940000
-1.25250000 -1.66890000 -0.84250000
1.56160000 3.44500000 -0.68870000
-1.81740000 -3.02180000 -0.74400000
-1.66660000 1.83530000 0.85550000
1.60020000 -1.41620000 -0.44840000
-0.53420000 -0.45210000 0.66220000
-1.17400000 -1.65860000 -0.88200000
1.50380000 3.46080000 -0.68880000
-1.19360000 -1.62820000 -0.84180000
-0.59300000 -0.43830000 0.65200000
-1.68120000 1.90790000 0.88470000
-1.69480000 2.03440000 0.80350000
-1.05020000 -1.72310000 -0.92430000
1.50480000 -1.42400000 -0.73120000
-1.11560000 -1.72140000 -0.95860000
-1.13820000 -3.98250000 -0.78620000
-1.16110000 -1.68910000 -0.95380000
1.46630000 -1.31590000 -0.82350000
-1.10130000 -1.63630000 -0.96560000
-1.63180000 2.01980000 0.70020000
1.77960000 3.07650000 -0.42860000
-0.36250000 -0.52200000 0.64830000
1.83830000 3.05030000 -0.43070000
-1.07010000 -3.94020000 -0.89990000
-1.05920000 -3.95780000 -0.77520000
-0.99380000 -1.67600000 -0.91600000
1.89550000 3.02830000 -0.40410000
-1.48200000 1.83300000 0.46160000
-1.51480000 1.85700000 0.53440000
-1.47670000 1.82120000 0.55080000
-0.92910000 -3.94370000 -0.96300000
-0.82970000 -3.94700000 -0.75900000
-0.45270000 -0.35550000 0.64420000
1.60760000 -1.24530000 -0.70260000
1.93130000 3.04990000 -0.32720000
1.41350000 -1.26500000 -0.86350000
1.94280000 3.13280000 -0.33680000
-0.97140000 -3.92490000 -1.06750000
-0.83690000 -3.91900000 -1.04310000
1.89280000 3.12020000 -0.40120000
-1.58320000 -1.56310000 -0.54580000
-1.56190000 -1.58300000 -0.61350000
-0.77190000 -3.93350000 -0.97810000
-0.80550000 -3.87300000 -1.05960000
-1.60530000 -1.47060000 -0.58550000
-1.56110000 -1.50070000 -0.65500000
-1.53990000 1.86180000 0.62950000
1.38240000 -1.17530000 -0.90650000
-0.69280000 -0.38850000 0.62890000
-1.40150000 1.75710000 0.48720000
-0.62990000 -3.94990000 -0.71640000
1.52040000 -1.21560000 -0.79810000
1.46740000 -1.14170000 -0.84810000
1.77160000 3.20340000 -0.43570000
-1.47490000 -1.58100000 -0.67870000
-1.41560000 1.80970000 0.47240000
1.77010000 3.28870000 -0.49950000
-1.38350000 -1.52010000 -0.71220000
-0.72700000 -3.90550000 -1.00170000
-0.74610000 -3.84080000 -1.03510000
-0.65800000 -0.22140000 0.61730000
-0.63140000 -3.93100000 -0.87360000
1.82260000 3.16970000 -0.40880000
-1.49920000 -1.47510000 -0.69590000
-0.67560000 -3.85270000 -0.99480000
-1.45170000 -1.45240000 -0.70030000
-1.63620000 1.92230000 0.53230000
1.78800000 3.31980000 -0.44220000
-0.60830000 -3.89220000 -0.91000000
-1.42210000 -1.30380000 -0.73150000
-1.67540000 2.06450000 0.44060000
-0.62820000 -3.83860000 -1.01170000
-1.58100000 -1.38310000 -0.63750000
1.92100000 3.22240000 -0.31140000
-0.50230000 -3.88100000 -0.95450000
-0.54630000 -3.86260000 -1.04220000
-1.50130000 -1.34280000 -0.69770000
0.06580000 -1.48500000 -0.91450000
1.88580000 3.26800000 -0.37550000
-0.24560000 -0.33480000 0.66920000
1.85400000 3.33280000 -0.39830000
-1.56810000 1.90970000 0.55570000
-1.59070000 2.00640000 0.57620000
-0.53050000 -0.19400000 0.64960000
-0.34910000 -0.30780000 0.67000000
-1.58240000 2.00860000 0.61180000
-1.03730000 -3.97750000 -0.57190000
-1.64620000 2.03230000 0.55460000
-1.23530000 -1.59780000 -0.84370000
-1.27320000 -1.56040000 -0.84970000
-0.37410000 -0.14550000 0.64740000
-1.14410000 -1.57430000 -0.93360000
-1.01490000 -3.96450000 -0.41840000
2.03510000 3.17680000 -0.18310000
0.25090000 -1.51680000 -0.89630000
0.20650000 -1.45280000 -0.89870000
-1.16400000 -1.56290000 -0.87600000
0.13950000 -1.39260000 -0.93610000
1.98630000 3.22610000 -0.22730000
0.27330000 -1.43530000 -0.84850000
0.26740000 -1.34980000 -0.91030000
-1.01000000 -1.58610000 -0.99800000
-0.90390000 -3.94700000 -0.67750000
-1.07360000 -1.55110000 -0.99770000
-0.06070000 -1.42350000 -0.94180000
-0.14490000 -1.46190000 -0.89600000
-1.16580000 -1.48470000 -0.90720000
-0.16120000 -1.42050000 -0.91910000
1.98810000 3.33260000 -0.24590000
-1.11500000 -1.49780000 -0.98110000
-1.04910000 -1.40690000 -0.99510000
-0.03160000 -1.26270000 -0.96630000
-0.19640000 -1.34390000 -0.93650000
-1.11640000 -1.33090000 -0.94740000
-0.17240000 -1.25030000 -0.94990000
1.95210000 3.39800000 -0.34570000
-0.91420000 -3.95880000 -0.57750000
-1.34650000 -1.53650000 -0.78170000
2.01900000 3.29830000 -0.16560000
-1.64600000 2.16880000 0.69530000
1.99460000 3.37360000 -0.28020000
-1.48760000 1.83310000 0.96670000
0.20490000 -1.24920000 -0.94250000
2.01860000 3.44300000 -0.21870000
-1.25540000 -1.44700000 -0.87110000
-1.35600000 -1.39800000 -0.78620000
-1.11980000 1.59090000 0.96600000
-1.06210000 1.65890000 0.95870000
-1.15430000 1.66960000 0.96760000
1.67460000 3.46430000 -0.56690000
-0.98680000 -3.96980000 -0.31620000
-1.15110000 -1.35740000 -0.91770000
0.31960000 -1.50980000 -0.84690000
1.77640000 3.44890000 -0.51120000
-0.88140000 -3.93970000 -0.46450000
-1.24170000 -1.32090000 -0.87410000
1.80110000 3.42540000 -0.47750000
-1.10920000 1.79960000 0.99510000
-0.80870000 -3.91600000 -0.55400000
-0.86780000 -3.93000000 -0.31140000
-1.37520000 1.77880000 0.99050000
0.33370000 -1.40060000 -0.79100000
0.33910000 -1.30970000 -0.88370000
-0.81950000 -3.88500000 -0.40070000
-0.28500000 -0.11930000 0.64970000
1.57440000 3.47530000 -0.62830000
-1.28320000 -1.28660000 -0.82540000
0.52710000 -1.37500000 -1.00160000
0.50660000 -1.33430000 -1.02550000
0.59760000 -1.31630000 -1.03290000
-1.29270000 -1.21360000 -0.80010000
1.58810000 3.60340000 -0.58960000
0.61720000 -1.41100000 -0.92320000
0.47210000 -1.37340000 -0.91300000
-0.02770000 -0.08710000 0.71620000
0.44710000 -1.32190000 -0.94090000
-0.55290000 -3.90300000 -0.44900000
0.53830000 -1.40660000 -0.80210000
0.60040000 -1.36490000 -1.01720000
0.67850000 -1.39670000 -0.96530000
-0.20910000 0.03440000 0.66300000
-1.24340000 1.93940000 1.00200000
-0.51060000 -3.93850000 -0.72130000
-0.44160000 -3.89720000 -0.73430000
-1.20820000 1.80100000 1.01090000
1.71850000 3.60090000 -0.54410000
0.31450000 -1.24210000 -0.91620000
1.65490000 3.67890000 -0.57690000
0.18390000 -1.14600000 -0.95080000
-1.07620000 -1.18740000 -0.94700000
1.76710000 3.47780000 -0.29370000
1.74000000 3.53220000 -0.34410000
1.70770000 3.52300000 -0.24760000
1.67220000 3.58300000 -0.27280000
0.48460000 -1.27420000 -0.98980000
1.82640000 3.37650000 -0.39290000
1.80270000 3.43130000 -0.39460000
-1.12700000 1.91970000 1.01730000
1.86290000 3.42550000 -0.34970000
0.54560000 -1.25700000 -1.03360000
-1.00990000 1.84200000 0.97420000
0.62930000 -1.23690000 -1.02340000
-0.86650000 -1.90190000 -0.79340000
1.80240000 3.46980000 -0.42270000
0.57400000 -1.20130000 -0.99410000
0.48940000 -1.21940000 -0.93690000
-1.13920000 2.02150000 1.03240000
1.79690000 3.53630000 -0.47740000
-0.87760000 -1.78400000 -0.78910000
1.77800000 3.58780000 -0.43920000
-0.47660000 -3.87870000 -0.84890000
0.37690000 -1.37080000 -0.80500000
0.43520000 -1.40530000 -0.73230000
1.84050000 3.48160000 -0.24260000
0.42830000 -1.36750000 -0.82510000
1.93720000 3.46130000 -0.29650000
-1.65290000 2.01350000 0.88890000
-0.91230000 -1.70730000 -0.83140000
-1.49420000 2.00130000 0.93780000
-0.89760000 -1.65580000 -0.85750000
-0.89960000 -1.64410000 -0.92200000
-0.96140000 -1.63200000 -0.95350000
-0.94490000 -1.61050000 -1.03460000
-0.70600000 -3.89090000 -0.50200000
-1.69220000 2.07180000 0.84370000
0.39870000 -1.31060000 -0.86300000
-0.86960000 -1.61530000 -1.03420000
-0.82810000 -1.61600000 -0.95230000
-1.55730000 2.19980000 0.85310000
1.70070000 3.68600000 -0.41970000
1.64970000 3.65920000 -0.33980000
-0.82150000 -1.59040000 -1.00120000
-0.83600000 -1.61810000 -0.89120000
-0.74600000 -3.85330000 -0.40750000
1.63020000 3.73250000 -0.42800000
1.53820000 3.69670000 -0.35760000
-0.78170000 -1.53860000 -0.94520000
-1.63100000 2.23000000 0.82020000
-0.81490000 -1.76230000 -0.76530000
-0.64670000 -3.84680000 -0.34570000
1.71300000 3.68710000 -0.53790000
-0.37960000 -3.92690000 -0.60330000
-1.96390000 -0.45930000 -0.09650000
-1.94180000 -0.36690000 -0.03550000
1.74210000 3.68310000 -0.48150000
-1.75680000 -0.43610000 0.03950000
0.38420000 -1.26670000 -0.85960000
-0.41140000 -3.93120000 -0.50290000
0.42510000 -1.24710000 -0.83590000
0.29100000 -1.16170000 -0.89670000
0.36630000 -1.23680000 -0.78750000
0.31980000 -1.16950000 -0.83570000
-1.77130000 -0.35340000 0.06900000
-1.87740000 -0.34130000 0.03430000
-1.94200000 -0.34160000 -0.10570000
-1.94610000 -0.51340000 -0.13850000
-1.28530000 2.09910000 0.97530000
-1.42830000 2.22090000 0.87540000
-0.56710000 -1.73680000 -0.78920000
-1.92350000 -0.36190000 -0.14470000
-1.86220000 -0.28060000 -0.15500000
-1.87470000 -0.41730000 -0.18910000
0.30460000 -1.16690000 -0.75610000
0.32090000 -1.18590000 -0.68640000
0.39740000 -1.22390000 -0.68350000
1.54530000 2.35170000 0.63200000
0.49060000 -1.21050000 -0.70610000
-1.92460000 -0.27190000 -0.05990000
0.47380000 -1.21240000 -0.82430000
-0.17190000 -3.91920000 -1.07190000
-0.10360000 -3.93190000 -1.02740000
-0.23160000 -3.93420000 -1.01430000
-1.85710000 -0.24310000 0.01220000
0.25280000 -1.07880000 -0.83950000
-1.85140000 -0.21200000 -0.11280000
-0.55410000 -3.82570000 -1.15440000
-0.41320000 -3.90030000 -1.06650000
0.27260000 -1.07150000 -0.76840000
-1.85280000 -0.18430000 -0.06070000
1.47600000 2.67340000 0.42730000
1.53670000 2.59630000 0.47170000
1.57570000 2.59850000 0.43770000
1.56600000 2.70630000 0.43600000
-0.48870000 -3.80950000 -1.17120000
-0.40870000 -3.86590000 -1.13560000
-0.36080000 -3.81180000 -1.14700000
-1.78980000 -0.26960000 0.06020000
0.54220000 -1.18980000 -0.92110000
0.66520000 -1.18690000 -0.92950000
0.57850000 -1.18480000 -0.80910000
-0.82110000 -1.63870000 -0.78310000
-0.26390000 -3.92710000 -0.93210000
-0.80840000 -1.58160000 -0.84460000
-0.28440000 -3.88290000 -1.11500000
0.70570000 -1.15120000 -0.81180000
1.59810000 2.47820000 0.63110000
1.69670000 2.30190000 0.61510000
1.66030000 2.47800000 0.61610000
-0.76330000 -1.54230000 -0.77450000
1.51210000 -4.01380000 1.03110000
1.41500000 -4.05400000 0.93760000
1.55280000 -4.07020000 0.94720000
-0.78350000 -1.52080000 -0.81010000
-1.03010000 2.06450000 1.04540000
-1.10360000 2.21790000 1.02010000
1.67660000 -4.05680000 1.01050000
-0.77210000 -1.46390000 -0.86540000
-0.18160000 -3.84770000 -1.11030000
1.55910000 -3.98890000 1.06000000
1.51730000 2.59830000 0.59830000
1.52120000 2.60230000 0.53790000
1.78610000 -4.02120000 1.02770000
-1.64220000 -0.77020000 0.11090000
-1.30260000 2.29830000 0.91070000
-1.70740000 -0.60240000 0.03730000
-0.64260000 -1.53560000 -0.77500000
1.31140000 2.57760000 0.63060000
1.62450000 -3.92980000 1.06300000
-1.61170000 -0.83600000 0.16210000
-0.16800000 -3.72480000 -1.07780000
1.72510000 -4.07190000 0.90850000
-0.24970000 -1.15200000 -0.90880000
-0.25950000 -1.08620000 -0.86960000
-0.07760000 -1.04850000 -0.92950000
-1.55260000 -0.78300000 0.21610000
-0.09400000 -1.11200000 -0.96760000
0.00820000 -1.09620000 -0.97430000
1.91750000 -4.05730000 0.93550000
-0.75290000 -1.43370000 -0.73320000
-0.43980000 -1.65890000 -0.82420000
-1.61950000 -0.58810000 0.12940000
-0.04440000 -3.88480000 -1.05650000
1.36050000 2.65990000 0.60150000
1.46130000 2.59430000 0.62210000
-0.31340000 -1.66160000 -0.88010000
0.11980000 -3.89650000 -1.07880000
0.16400000 -3.87960000 -1.16210000
0.17210000 -3.93470000 -1.08850000
0.08160000 -3.80300000 -1.09880000
0.12190000 -3.82020000 -1.16760000
1.86970000 -3.97580000 1.02620000
1.89700000 -3.88530000 1.01310000
0.21810000 -3.93080000 -1.10930000
1.31700000 2.71960000 0.66860000
0.26610000 -3.82020000 -1.15400000
0.29380000 -3.90870000 -1.11450000
-1.66920000 -0.44190000 0.08970000
1.40050000 2.65710000 0.59340000
-1.51110000 -0.71340000 0.28140000
-0.03730000 -3.80800000 -1.06820000
0.08860000 -1.04430000 -0.94460000
-1.52460000 -0.67630000 0.21470000
-0.94860000 1.66800000 1.00480000
1.98220000 -4.01410000 0.98660000
0.16730000 -1.07670000 -0.93880000
-0.89640000 1.68120000 0.99010000
0.12640000 -3.70230000 -1.16520000
0.18370000 -3.70950000 -1.19060000
0.31440000 -3.69710000 -1.17630000
-0.84020000 1.73260000 0.94860000
2.07550000 -3.99400000 0.95380000
2.05420000 -4.03430000 0.86790000
0.01340000 -1.00560000 -0.90910000
-0.99440000 1.72150000 0.98190000
-0.99630000 1.77030000 0.96240000
1.38290000 2.68300000 0.49350000
-1.53480000 -0.71140000 0.34050000
0.16430000 -1.02200000 -0.88160000
-0.24770000 -1.58310000 -0.91750000
2.07310000 -3.93090000 0.97520000
0.09260000 -0.93060000 -0.90100000
-0.89160000 1.78250000 0.98060000
0.17200000 -0.96010000 -0.86390000
-0.18840000 -3.96890000 -0.61620000
-0.15370000 -3.96490000 -0.69980000
-0.06850000 -3.95430000 -0.62390000
-1.47220000 -0.61510000 0.39490000
-0.17820000 -1.00930000 -0.88130000
-0.81960000 1.65140000 0.87840000
-0.03740000 -3.95380000 -0.74190000
-1.46220000 -0.60740000 0.27600000
-0.77680000 1.66060000 0.85250000
-0.14510000 -0.93120000 -0.88520000
-0.27990000 -0.94040000 -0.87570000
-0.83330000 1.70840000 0.90030000
-1.44820000 -0.52070000 0.26920000
2.01300000 -3.79910000 0.98210000
-0.70300000 1.68700000 0.86480000
-0.03430000 -0.95060000 -0.87680000
-0.43630000 -1.51330000 -0.83530000
-0.79570000 1.72160000 0.83390000
2.11900000 -4.00380000 0.85440000
-0.79280000 1.78820000 0.87970000
2.13650000 -3.91510000 0.91830000
0.04160000 -3.96130000 -0.59720000
0.06970000 -3.93690000 -0.68720000
1.76210000 2.23010000 0.47640000
1.73000000 2.40560000 0.49480000
-0.20130000 -0.82680000 -0.91280000
2.16230000 -3.92350000 0.83130000
2.14180000 -3.95160000 0.78110000
-0.73810000 1.75820000 0.84940000
2.10120000 -3.90690000 0.71500000
2.15130000 -3.82510000 0.81070000
2.15630000 -3.85000000 0.88440000
-0.12700000 -0.75040000 -0.89650000
-0.25400000 -1.49040000 -0.88400000
1.70290000 2.45540000 0.40240000
-0.07340000 -0.86090000 -0.86770000
0.06630000 -3.94650000 -0.78750000
0.16640000 -3.96830000 -0.89730000
0.27230000 -3.97030000 -0.90010000
-1.64900000 -0.29040000 0.11500000
1.75570000 2.33360000 0.53900000
-1.49780000 -0.33470000 0.22020000
-0.97210000 -1.51910000 -1.05590000
-0.82040000 1.82410000 0.95430000
-0.91170000 -1.55930000 -1.08110000
-0.84310000 -1.53350000 -1.04590000
1.68240000 2.47260000 0.48390000
2.09100000 -3.81280000 0.95320000
-0.68420000 1.82510000 0.88330000
0.02850000 -0.89750000 -0.89300000
1.64600000 2.51490000 0.43900000
-0.87180000 -1.47910000 -1.06820000
-0.75560000 1.85920000 0.87930000
-0.91060000 -1.40970000 -1.06260000
0.27820000 -3.95790000 -1.02250000
0.17580000 -3.94570000 -1.00080000
-0.02990000 -0.82410000 -0.87740000
-1.00670000 -1.50600000 -1.01280000
1.99530000 2.45420000 0.31690000
0.13660000 -0.87190000 -0.89890000
-0.97060000 -1.31530000 -1.02540000
0.28980000 -3.95450000 -0.76810000
-0.79880000 1.87660000 0.91990000
1.18060000 -4.00660000 1.03040000
0.02520000 -0.75220000 -0.91000000
0.23570000 -3.97160000 -0.63180000
-1.76420000 -0.40310000 -0.22480000
-1.71410000 -0.25460000 -0.19250000
1.97650000 2.58760000 0.35930000
0.12920000 -0.73690000 -0.91040000
1.08710000 -3.89700000 1.11350000
1.32800000 -3.93400000 1.08000000
-0.86460000 1.87580000 0.96560000
1.69700000 2.52640000 0.36910000
-0.80000000 -1.38490000 -0.95490000
-0.98740000 1.91150000 0.99840000
-0.83820000 1.93040000 0.95770000
1.78010000 2.58550000 0.31760000
-0.84120000 -1.34130000 -1.03830000
-0.84670000 1.96620000 1.00520000
1.34140000 -3.87600000 1.08810000
1.09090000 -3.74820000 1.10310000
1.16960000 -3.77950000 1.09310000
-0.93770000 1.98370000 1.04240000
1.64960000 2.58540000 0.39470000
0.22590000 -0.97480000 -0.84960000
1.62730000 2.64500000 0.42930000
1.36310000 -4.01140000 0.99190000
0.24810000 -0.90570000 -0.80310000
-1.76520000 -0.12410000 -0.07320000
1.70600000 2.65960000 0.42350000
0.39280000 -3.95610000 -0.86170000
-1.65910000 -0.11760000 -0.11790000
1.76660000 2.65080000 0.35820000
1.76470000 2.68660000 0.41340000
-1.60180000 -0.39700000 -0.26460000
0.20330000 -0.80420000 -0.86000000
1.33560000 -3.80460000 1.06950000
-0.76550000 -1.34150000 -0.79120000
-0.74930000 1.98030000 0.93360000
-0.66600000 2.00790000 0.92050000
-0.80250000 -1.22980000 -0.93020000
-1.55810000 -0.17850000 -0.18280000
-1.53700000 -0.32580000 -0.25550000
-1.48930000 -0.21460000 -0.23840000
-1.49350000 -0.29630000 -0.28640000
0.95050000 -3.79820000 1.09550000
0.47670000 -1.18220000 -0.63120000
1.90920000 2.68850000 0.37750000
0.62190000 -1.15410000 -0.68210000
-0.72880000 2.08500000 1.06520000
-0.75330000 2.02730000 1.03140000
-0.91530000 -1.21040000 -1.03780000
1.85340000 2.72540000 0.36750000
0.59130000 -1.13050000 -0.63630000
0.93410000 -3.71920000 1.08700000
-0.68210000 2.05610000 0.96310000
-0.67830000 2.07530000 1.01810000
-1.50010000 -0.10210000 -0.16250000
-0.61060000 1.84280000 0.89820000
0.38890000 -1.16030000 -0.62240000
1.02590000 -3.63550000 1.06300000
1.73010000 2.36400000 0.59390000
1.70020000 2.46430000 0.57080000
0.29190000 -1.05190000 -0.64970000
-0.56300000 1.88840000 0.89030000
1.23340000 -3.58230000 1.02510000
0.26360000 -1.00990000 -0.69410000
-0.08050000 -3.93560000 -0.96050000
1.37750000 -3.69830000 1.04970000
0.39920000 -1.04620000 -0.59920000
1.68360000 2.76260000 0.46710000
0.47150000 -1.12200000 -0.60170000
1.33520000 -3.62780000 1.01990000
-0.82720000 -1.22010000 -1.00170000
-0.09200000 -3.92600000 -0.83150000
-0.31180000 -3.90210000 -0.82050000
-0.33880000 1.77930000 0.78160000
1.76710000 2.75670000 0.46590000
-0.26070000 1.72290000 0.76450000
-0.86650000 -1.19260000 -1.03860000
1.95180000 2.77260000 0.38550000
1.80870000 2.75470000 0.41670000
0.45070000 -0.85940000 -0.59130000
-0.40690000 1.79920000 0.81480000
0.30290000 -0.98080000 -0.62610000
-0.29910000 1.78740000 0.82550000
1.63610000 -3.84380000 1.05220000
-0.86520000 -1.13070000 -0.99500000
0.27000000 -0.61840000 -0.61380000
-0.82150000 -1.13780000 -0.87350000
1.88370000 2.84410000 0.37950000
-0.82430000 -1.08730000 -0.94270000
-1.79420000 -0.13350000 -0.01240000
-0.50730000 1.90900000 0.85270000
-0.44080000 1.90950000 0.80730000
1.44590000 -3.72860000 1.06040000
1.57790000 -3.72620000 1.02180000
1.39060000 2.70210000 0.43080000
1.32560000 2.74590000 0.44090000
-0.36460000 1.89920000 0.80870000
1.40770000 2.76320000 0.40280000
0.64180000 -1.07050000 -0.64860000
0.54540000 -0.90630000 -0.62370000
-1.72880000 -0.07460000 -0.00690000
-0.18470000 -3.92880000 -0.72870000
-0.29120000 -3.91400000 -0.61210000
-0.27670000 -3.89140000 -0.71380000
-1.69420000 -1.47030000 -0.52170000
-1.68430000 -0.11680000 0.07620000
-0.42550000 1.95410000 0.80060000
1.79970000 -3.77420000 1.00320000
1.29000000 2.83990000 0.40070000
-0.34490000 -3.88980000 -0.67750000
0.72070000 -0.97870000 -0.68690000
1.63750000 -3.63620000 0.98300000
1.34030000 2.97570000 0.36960000
-0.35550000 1.93880000 0.86890000
-1.66600000 -1.40830000 -0.59050000
1.44110000 2.86000000 0.39580000
1.26100000 2.97220000 0.37200000
-0.32810000 1.93110000 0.92550000
-1.70420000 -1.38060000 -0.56360000
1.32890000 2.72940000 0.54150000
-1.72180000 -1.35350000 -0.48600000
-1.68070000 -1.27360000 -0.55220000
-1.65200000 -0.01470000 0.06330000
1.26030000 2.87070000 0.45310000
-0.23820000 -3.95050000 -0.53210000
1.33440000 2.75620000 0.59640000
1.29780000 2.86580000 0.55760000
-0.25360000 1.90970000 0.97810000
0.70100000 -0.87220000 -0.69300000
-0.31730000 1.98880000 0.95920000
0.23790000 -0.83800000 -0.71560000
-1.65110000 -1.27960000 -0.62510000
-1.55870000 -1.28470000 -0.66450000
1.33840000 2.80340000 0.64770000
-1.47180000 -0.24550000 -0.32670000
-1.54080000 -0.12860000 -0.33830000
-1.52030000 -0.14490000 -0.39410000
-1.47650000 -0.19590000 -0.34810000
1.30510000 2.89420000 0.63950000
1.84700000 -3.67650000 0.99720000
-1.47960000 -0.15350000 -0.25060000
-1.66460000 -1.23320000 -0.50080000
-1.49170000 -0.05260000 -0.24980000
-1.71280000 -1.24100000 -0.46520000
1.59080000 2.85600000 0.43530000
-1.46210000 -0.06460000 -0.18730000
-0.57050000 2.02950000 0.89640000
-0.50240000 2.00650000 0.84450000
-1.48510000 -0.64200000 0.47060000
0.03510000 -3.93340000 -0.93760000
-0.52900000 2.09680000 0.90160000
0.02410000 -3.90090000 -1.00020000
1.81260000 -3.58220000 0.95270000
0.09450000 -3.90520000 -1.01350000
-0.60430000 2.11700000 0.93020000
1.22900000 2.97740000 0.52430000
-0.62720000 2.17270000 0.98420000
-1.43190000 -0.52440000 0.35450000
1.21670000 2.97490000 0.40640000
0.89410000 -3.53640000 0.92260000
0.87430000 -3.59240000 0.99730000
1.00880000 -3.51060000 0.94600000
1.19140000 3.03080000 0.48800000
0.05200000 -3.84610000 -1.04060000
-1.68350000 -1.14600000 -0.46730000
-1.45320000 -0.52010000 0.50520000
-0.42150000 2.01090000 0.85060000
-1.42130000 -0.45060000 0.41200000
1.10810000 -3.55260000 1.03060000
1.02750000 -3.53690000 0.99790000
-0.47730000 2.07610000 0.88690000
-0.70340000 -1.45820000 -0.71720000
-0.39660000 2.04620000 0.91490000
-0.62170000 -1.45070000 -0.74800000
-0.38140000 2.12280000 0.95080000
-1.38470000 -0.41530000 0.31290000
1.28410000 -3.51270000 0.97910000
-0.46600000 2.20710000 0.93720000
1.44730000 2.96130000 0.36970000
-0.70880000 -1.36010000 -0.66770000
-0.62480000 -1.38090000 -0.71540000
-1.36700000 -0.38900000 0.36650000
1.23000000 -3.47710000 0.92470000
1.36200000 3.10320000 0.36140000
1.49790000 3.12360000 0.38670000
-0.49650000 -1.41840000 -0.79540000
-1.35660000 -0.28910000 0.31510000
-1.32900000 -0.29600000 0.36670000
0.88310000 -3.50390000 0.82940000
0.84510000 -3.51360000 0.88060000
1.00880000 -3.47740000 0.83320000
