9.64110000 -5.40250000 0.51140000
-9.95710000 -5.42320000 0.30320000
-10.00830000 -5.50420000 0.58630000
-9.92370000 -5.24030000 0.79780000
-8.81780000 0.34750000 -0.41770000
-8.77450000 0.66280000 -0.30160000
-8.93750000 0.25250000 -0.84090000
-8.77770000 0.38430000 -0.70070000
-8.63550000 0.54500000 -0.62960000
-1.38450000 3.17540000 -3.58190000
-6.96980000 -2.73290000 2.64020000
-6.86820000 -3.19330000 2.83830000
-6.87810000 -3.35790000 2.90870000
0.04540000 1.51900000 -0.40010000
0.04240000 1.37070000 -0.42200000
0.16420000 0.99100000 -0.35420000
9.71530000 -5.30090000 0.86910000
9.71010000 -5.31160000 0.63400000
9.91580000 -5.50030000 1.26980000
5.91250000 2.99180000 -0.54490000
5.97860000 3.14950000 -0.59570000
6.02550000 3.17970000 -0.55900000
-9.45180000 -2.19400000 0.63400000
-9.55860000 -2.27100000 0.76030000
-9.39120000 -2.32740000 0.70530000
-0.16010000 1.21930000 -0.32100000
-0.16840000 1.40460000 -0.28760000
-0.45910000 1.05830000 -0.17520000
-0.07420000 1.41130000 -0.37770000
4.35330000 1.93150000 0.09850000
4.44060000 1.87590000 -0.02590000
4.47990000 1.73950000 -0.10900000
4.70230000 1.91820000 -0.06170000
6.70360000 0.86700000 0.96190000
6.88240000 0.79680000 0.85610000
6.87030000 0.87800000 0.93680000
5.43520000 -2.12490000 0.42920000
4.81690000 1.77620000 -0.12030000
4.51760000 1.12110000 -0.20730000
4.34940000 1.22220000 -0.25590000
0.56120000 -0.41870000 -0.32360000
1.23880000 -1.22290000 -0.36620000
1.05940000 0.39590000 -0.43930000
-3.51410000 -0.86300000 0.94010000
-3.57490000 -0.91850000 0.77110000
-5.36560000 -4.01150000 2.38300000
-5.24080000 -4.09370000 2.37620000
-3.78530000 3.37130000 -2.37880000
4.55690000 -5.84440000 3.85330000
3.34880000 -5.80020000 4.14020000
4.40280000 -5.82820000 4.00630000
6.85790000 -1.58010000 1.48710000
7.19750000 -1.52940000 1.21180000
6.81320000 -1.54920000 1.52860000
0.51190000 -2.18250000 3.47600000
-5.08640000 -3.81590000 2.40440000
-4.99090000 -4.04910000 2.37770000
-3.95150000 3.27540000 -2.23150000
-6.40490000 -4.27670000 2.91590000
-6.50590000 -4.34590000 3.00700000
3.97690000 0.32860000 0.64220000
3.87400000 0.53110000 0.52940000
-6.57040000 -1.25420000 2.80370000
-6.64300000 -1.48130000 2.81810000
-6.51190000 -1.45310000 2.87220000
-6.48310000 -1.18380000 2.73840000
-5.85380000 -5.51760000 3.71690000
-5.80290000 -5.52890000 3.61080000
-5.84710000 -4.91880000 3.64370000
1.88520000 5.60160000 -1.01240000
1.83610000 5.69450000 -0.97160000
1.84700000 5.55720000 -0.86510000
1.94090000 5.63760000 -1.14600000
2.02060000 5.50420000 -0.96640000
2.07400000 5.68440000 -1.19140000
-7.23380000 1.16590000 -1.87520000
6.71930000 -3.66450000 0.80810000
6.82900000 -3.64770000 0.90770000
6.95910000 -3.50630000 1.10700000
-9.20730000 -2.01980000 -0.63820000
-9.10530000 -2.14630000 -0.85990000
-5.21370000 -2.78560000 1.73690000
-5.79550000 -4.70560000 3.51870000
7.05260000 -3.54190000 0.93360000
7.25580000 -3.50560000 0.58750000
7.04920000 -3.61140000 0.75750000
7.07310000 -3.59580000 0.50330000
7.02190000 -3.54140000 0.34210000
0.56110000 -4.58370000 3.62210000
0.93560000 -4.75650000 3.50050000
0.85840000 -4.73150000 3.75210000
1.60150000 3.52660000 -3.70550000
-5.66800000 -2.53330000 1.73770000
-5.12580000 -0.73660000 1.68650000
-5.30470000 -0.90280000 1.89750000
-5.23010000 -0.97160000 1.98920000
2.27240000 -5.24630000 -4.00300000
2.34620000 -5.05420000 -3.96260000
0.69290000 -4.54330000 3.50610000
0.68950000 -4.68280000 3.76870000
0.67590000 -4.94940000 3.83350000
3.83850000 4.36490000 0.31090000
3.49590000 4.52210000 0.16380000
3.47130000 4.38850000 0.22040000
3.25360000 4.51920000 0.05080000
7.10410000 1.41360000 -0.73680000
6.90500000 1.68180000 -0.73250000
2.63320000 2.80750000 1.14610000
2.59420000 3.13810000 1.14340000
2.65540000 -3.29730000 2.85230000
2.70150000 -3.35750000 3.06900000
2.82430000 -3.67920000 3.13620000
6.75380000 0.91030000 -3.43110000
6.73940000 1.02380000 -3.37610000
4.56790000 -3.73760000 1.52890000
4.52320000 -3.71330000 1.41070000
2.68120000 3.38570000 1.10720000
0.33210000 2.15200000 2.55280000
0.28260000 2.14900000 2.48490000
0.26820000 2.25930000 2.41340000
0.37160000 2.00850000 2.45700000
8.18370000 0.28730000 -0.57080000
8.01710000 0.34140000 -0.51880000
8.07420000 0.31530000 -0.47140000
8.35680000 0.22040000 -0.61250000
8.28410000 0.13690000 -0.63060000
6.75940000 -5.01120000 3.06080000
6.20970000 -4.92350000 2.76520000
3.09950000 3.37290000 0.98140000
3.34970000 3.50000000 0.95250000
3.07280000 3.64360000 0.91930000
-2.90480000 4.49500000 -0.27480000
-2.58050000 4.63040000 -0.29170000
-2.58470000 4.50910000 -0.13510000
-3.32680000 -4.38020000 3.79960000
-8.92020000 -3.42760000 2.84510000
-8.96670000 -3.66710000 2.72670000
-8.85820000 -3.90030000 2.57980000
-8.92350000 -3.84420000 2.73820000
2.37800000 3.84030000 -3.54490000
2.40980000 3.58240000 -3.64650000
2.34630000 3.68860000 -3.56570000
2.14680000 2.51240000 0.41620000
2.30800000 2.41620000 0.48190000
-0.26220000 2.51960000 2.49270000
-0.33560000 2.24350000 2.58460000
-0.24570000 2.44220000 2.56040000
-0.26210000 2.39180000 2.65910000
7.81010000 0.31790000 -1.46980000
7.78640000 0.31320000 -1.58410000
7.77630000 0.46300000 -1.62890000
-8.20390000 -1.72480000 2.00540000
-5.82760000 -5.89380000 3.62990000
-5.34080000 2.47030000 -2.09820000
-5.27880000 2.72710000 -1.93560000
2.86450000 -1.88810000 1.32590000
2.73030000 -4.48990000 3.00260000
2.63870000 -4.63850000 3.21560000
4.01460000 -3.68450000 0.39050000
4.08580000 -3.97910000 0.56720000
4.25290000 -4.02390000 0.67770000
9.05470000 -3.91450000 2.80150000
8.78370000 -3.73050000 2.84030000
5.86120000 -3.36890000 -3.95310000
6.00340000 -3.20000000 -3.92970000
6.49760000 -3.35120000 -3.88880000
-2.57320000 4.37970000 0.39860000
-2.22060000 4.26500000 0.56030000
-2.31070000 4.42610000 0.37710000
-2.60330000 4.48910000 0.22630000
-3.44890000 -4.46340000 3.62640000
6.32690000 -4.00550000 -3.91070000
-6.98450000 1.41750000 1.25690000
-6.94190000 1.06880000 1.19690000
-6.91900000 1.38920000 1.12540000
-6.79030000 1.07830000 1.10080000
9.13000000 -3.78240000 2.81940000
9.29220000 -4.03900000 2.71650000
9.33410000 -3.42870000 2.64040000
9.23710000 -3.75990000 2.77850000
9.49520000 -3.56670000 2.53170000
-2.79860000 2.10080000 1.29280000
-2.78560000 2.12910000 1.42230000
-3.63050000 -4.48760000 3.62480000
-3.88010000 -4.56300000 3.47650000
7.04240000 -3.86170000 -3.62540000
6.69630000 -3.80780000 -3.79910000
6.72600000 -3.73620000 -3.73130000
-2.83780000 3.85980000 0.79810000
10.04900000 -5.47800000 1.98990000
9.92520000 -5.74910000 2.32030000
-6.72580000 0.86890000 1.19490000
-6.87270000 1.01900000 1.16710000
-6.50160000 1.09950000 1.14690000
3.52640000 1.87880000 -3.98280000
3.76670000 2.12100000 -3.90960000
3.43150000 1.97090000 -3.94680000
7.82500000 -0.92300000 -2.58630000
7.87520000 -1.22430000 -2.44810000
7.83710000 -1.05470000 -2.41720000
7.83190000 -1.18570000 -2.30200000
2.51740000 4.31940000 -3.39320000
9.81660000 -5.27690000 2.06580000
9.96200000 -5.45310000 2.14800000
9.89620000 -5.21400000 2.07390000
9.81040000 -5.07450000 2.36120000
9.79070000 -5.30900000 2.50120000
9.74610000 -5.18700000 2.30400000
7.95500000 0.76940000 -2.24580000
-6.44610000 0.67250000 1.19650000
-6.60510000 0.59630000 1.17290000
1.20390000 -5.81380000 3.80870000
2.11250000 -5.81300000 3.81390000
2.58700000 -5.72680000 4.04280000
7.83100000 -1.16540000 -2.54760000
7.76200000 -1.28470000 -2.71310000
-9.80280000 -4.94460000 -1.09590000
9.85310000 -5.10180000 2.14370000
9.77630000 -5.02660000 2.40580000
-5.65570000 1.43060000 -2.59270000
-5.68000000 1.24520000 -2.63410000
-5.84130000 1.02360000 -2.60880000
7.62040000 1.49200000 -1.75400000
0.92820000 -5.86120000 3.29950000
0.18800000 -5.87210000 2.73340000
1.82910000 -5.83760000 3.45210000
1.52990000 -5.76850000 3.72680000
1.25770000 -5.82020000 3.68660000
1.63460000 -5.82740000 3.66810000
-1.90160000 5.61640000 -1.12510000
-2.03580000 5.59470000 -0.85950000
4.89040000 -3.85430000 1.58270000
4.85850000 -3.96990000 1.46400000
4.91010000 -3.84590000 1.67380000
-6.38050000 2.92580000 0.25410000
-6.55300000 3.01340000 -0.07980000
-6.60760000 2.86270000 0.08010000
-6.43460000 2.93760000 0.12790000
-5.99180000 1.09370000 -2.63150000
-4.76030000 3.33760000 -1.18570000
-4.98750000 3.16020000 -1.41530000
-4.75320000 3.11710000 -1.89810000
-4.86260000 3.19500000 -1.76690000
-0.12840000 -2.54020000 -4.09140000
0.30490000 -2.86900000 -4.09460000
-0.15310000 -3.09230000 -4.07290000
0.49070000 -1.81770000 -4.10690000
0.43710000 -0.62700000 -4.12880000
-2.12240000 5.55860000 -1.10840000
-2.33970000 5.47910000 -0.96390000
-4.45720000 -2.36050000 0.91620000
-4.01050000 -2.69690000 0.83870000
4.96460000 -4.02110000 1.58600000
4.90730000 -3.97350000 1.59330000
-4.87190000 2.91510000 -1.55120000
-4.99910000 2.95540000 -1.38190000
-4.91570000 3.06890000 -1.58880000
-4.86880000 2.90190000 -1.63180000
-4.96290000 2.94490000 -1.77010000
-5.11780000 2.79830000 -1.75580000
0.43950000 -3.16740000 3.62630000
0.57190000 -3.42410000 3.57390000
0.69160000 -3.36640000 3.52350000
-5.10570000 -2.72250000 -3.38020000
-4.28350000 -2.98150000 -3.58930000
-4.20610000 -2.65180000 -3.61540000
1.64810000 -0.12510000 -4.09380000
2.53570000 1.00600000 -4.07710000
0.69570000 0.80810000 1.16450000
0.82510000 0.78820000 1.25180000
0.54100000 0.63990000 1.23800000
-0.03680000 0.71720000 1.02500000
-4.90390000 3.02120000 -1.84600000
-4.91540000 3.01720000 -1.73160000
7.40090000 -0.39150000 -2.70190000
7.50450000 -0.44790000 -2.85030000
7.30620000 -0.68900000 -2.80200000
7.31570000 -0.49940000 -2.74440000
-3.41730000 1.32750000 0.46680000
-4.96990000 -0.88920000 -3.43920000
-4.58010000 -0.00450000 -3.53090000
-5.20920000 -0.71950000 -3.33820000
-5.36800000 -1.28400000 -3.26580000
-3.45210000 -1.36220000 0.63140000
-3.55990000 -1.57890000 0.64910000
-3.56530000 -2.43740000 0.77700000
-4.76370000 -0.46320000 1.33190000
-4.42550000 -0.75010000 1.47560000
5.65550000 0.63290000 0.97730000
-3.58210000 1.86680000 0.74120000
-3.70800000 1.73900000 0.69280000
9.64830000 -5.86810000 -0.99890000
9.65510000 -5.80440000 -0.04310000
9.71730000 -5.81190000 -0.50650000
-7.76170000 -2.96490000 1.20190000
-7.83870000 -3.00400000 1.56250000
-4.87610000 -0.22290000 -3.44210000
-4.50060000 0.55450000 -3.47120000
-4.89710000 -0.00990000 -3.37350000
6.49200000 -3.61650000 1.22650000
6.50170000 -3.31320000 1.57690000
1.06840000 -5.15500000 -4.03200000
1.31870000 -5.40470000 -4.02050000
1.24750000 -5.56840000 -4.00040000
1.40640000 -5.58300000 -4.10890000
1.20060000 -5.60530000 -4.10080000
-8.16960000 0.14440000 1.34030000
-7.92390000 -0.28680000 1.40710000
-8.01250000 -0.59560000 1.34090000
-3.32980000 1.66440000 0.50970000
-3.11180000 1.15540000 0.43840000
-3.38660000 1.12600000 0.39920000
-6.63670000 -2.32690000 1.42850000
-6.50940000 -1.84770000 1.62370000
-6.63140000 -2.14750000 1.53840000
4.55540000 2.19220000 1.71880000
6.28370000 -1.44120000 1.39790000
-3.11190000 1.55160000 0.49070000
-3.34390000 1.43460000 0.42670000
2.65460000 -4.17080000 1.89170000
7.65260000 -0.83310000 1.32320000
7.57820000 -1.08310000 1.26760000
-9.96840000 -2.86020000 0.83700000
-10.03620000 -2.55060000 0.83400000
-10.06890000 -2.72690000 0.75580000
-9.96000000 -2.67330000 0.88150000
-6.45070000 -1.31470000 1.41630000
-6.41430000 -1.86990000 1.51050000
-6.37620000 -1.78370000 1.41820000
-6.52290000 -2.04070000 1.43780000
5.86800000 -1.96740000 1.02230000
5.72760000 -1.90770000 0.80760000
-7.52610000 -5.89480000 0.57530000
-6.88880000 -5.87600000 0.38750000
-6.49020000 -5.89550000 0.60180000
-6.57020000 -5.88090000 1.00850000
9.13650000 -2.05600000 -0.57170000
9.00410000 -1.70250000 -0.36390000
8.85980000 -1.69530000 -0.10170000
9.08080000 -1.95560000 -0.35010000
-1.50880000 3.62460000 1.67140000
-1.22950000 3.37710000 2.06430000
-0.89830000 -0.58210000 1.93980000
-0.92000000 -0.26240000 1.72190000
0.44220000 0.04560000 2.06410000
0.32580000 0.12630000 1.74480000
0.24370000 -0.66570000 2.22600000
0.30960000 -0.32360000 2.22440000
7.60930000 -1.62800000 -2.90230000
7.67000000 -1.76740000 -2.89840000
8.95760000 -2.00130000 -0.91300000
8.95060000 -2.06420000 -1.11920000
1.18470000 5.06940000 -0.02710000
7.98490000 -3.49600000 2.42260000
8.01880000 -3.35740000 2.11750000
7.91750000 -3.28300000 1.58690000
7.99080000 -3.26710000 1.78970000
-7.91650000 -5.90190000 1.42220000
-8.51480000 -5.89670000 1.28960000
-7.20560000 -5.86320000 1.24760000
-10.07320000 -2.50190000 0.50140000
-10.11070000 -2.64870000 0.56460000
-8.81470000 -0.83470000 0.17210000
8.65300000 -3.43770000 -2.05110000
8.99970000 -3.55930000 -2.16660000
-1.64660000 5.18360000 0.24430000
8.00680000 0.97130000 -1.51720000
7.93570000 0.80570000 -1.39040000
7.98310000 0.65440000 -1.51030000
-0.57890000 -5.54950000 -4.07500000
-0.69470000 -5.41010000 -4.00800000
-0.49690000 -5.46630000 -3.96830000
0.03500000 -5.30040000 -3.99870000
-0.20600000 -5.32670000 -3.93230000
4.00330000 -1.51890000 1.48450000
3.92480000 -1.42550000 1.51350000
4.21040000 -1.36760000 1.38420000
4.20000000 -1.54860000 1.36500000
4.21800000 -1.57210000 1.16160000
3.94820000 -4.86280000 2.92530000
4.17790000 -5.07100000 2.78830000
-5.22680000 -5.87150000 1.82130000
-8.08880000 -5.91470000 2.28900000
-6.97630000 -5.88960000 2.61340000
-7.89510000 -5.90300000 2.82270000
2.22920000 2.79220000 -3.96840000
2.36470000 2.62380000 -3.98420000
2.48040000 2.88640000 -3.88380000
-1.13740000 0.22270000 1.71340000
0.54890000 -5.47530000 -4.06850000
0.80260000 -5.61030000 -4.15820000
0.28400000 -5.59050000 -4.13020000
-0.10900000 -5.43330000 -4.03410000
-0.24700000 -5.53590000 -4.11290000
-6.75420000 -4.50000000 -2.33570000
-6.43940000 -4.67060000 -2.30760000
-5.63500000 -2.01690000 1.19420000
-5.70400000 -1.81720000 1.13830000
-0.99350000 0.06970000 1.38570000
-0.36530000 0.23290000 1.36950000
-7.54990000 1.93110000 -0.19130000
-7.99070000 1.85260000 0.19800000
-7.98860000 1.61670000 0.01210000
-6.40040000 -1.70160000 1.55840000
-6.35620000 -1.70460000 1.46500000
5.50450000 2.42760000 0.71210000
5.58110000 2.44290000 0.63870000
5.52090000 2.84020000 0.75510000
5.25740000 2.10970000 0.60810000
4.99630000 2.19020000 0.38780000
5.33150000 2.22470000 0.50300000
7.67820000 -0.08810000 0.75090000
7.78750000 -0.31720000 0.77180000
7.74300000 -0.22400000 0.86950000
-7.69500000 -4.32170000 2.58550000
-7.71460000 -4.37410000 2.68760000
-7.10330000 -4.35940000 2.21020000
-8.06760000 -4.66580000 2.94240000
-8.17510000 -4.49390000 2.84730000
1.05100000 -0.85430000 2.45370000
0.88550000 -0.28830000 2.22180000
0.56420000 0.85320000 1.04850000
0.60150000 0.96420000 0.91350000
-5.14120000 2.97190000 0.89190000
-5.11110000 2.97510000 1.12030000
-5.10490000 2.92200000 1.22090000
-5.12660000 2.87760000 1.10230000
-5.48210000 2.77070000 1.19370000
0.73320000 -1.33140000 2.39020000
5.11870000 -3.51150000 -3.97370000
5.75720000 -2.53340000 -3.85650000
5.53300000 -2.70910000 -3.89240000
5.45320000 -2.46860000 -3.93170000
5.49180000 -5.67360000 3.72570000
5.27700000 -5.69410000 3.68690000
-2.16500000 2.12180000 1.18290000
-2.36870000 2.14300000 1.13100000
-0.82180000 -4.04860000 1.90510000
-0.45910000 -3.89000000 1.85840000
-0.58320000 -3.87790000 2.04320000
5.39340000 -2.22460000 -3.95680000
-4.77050000 0.55880000 0.71210000
-4.81770000 0.48010000 0.84640000
-4.79560000 0.28150000 0.74680000
-5.16750000 0.14200000 0.95040000
-5.04330000 0.07150000 0.81340000
4.84740000 -0.65180000 -3.99500000
4.45910000 -0.36000000 -4.00790000
4.76350000 -0.15130000 -3.98640000
7.67560000 -0.04670000 1.93550000
7.71840000 -0.17500000 1.95390000
8.94530000 -2.88900000 -1.15400000
-0.07650000 -2.78510000 1.31920000
-7.48660000 -5.16140000 3.37660000
-7.38790000 -5.30890000 3.50960000
-6.30040000 -0.25180000 1.41350000
0.38890000 -0.14210000 3.04810000
0.21600000 -2.86070000 -0.09970000
-0.30670000 -2.97270000 -0.01510000
9.59290000 -2.93810000 2.29970000
9.73090000 -3.17000000 2.20020000
9.54500000 -3.32600000 2.41110000
1.92690000 2.87730000 -3.83380000
-7.56080000 -5.28000000 3.44590000
-6.02030000 2.88160000 -1.16560000
-5.52800000 3.03710000 -0.88650000
-5.64800000 3.10660000 -0.99070000
-6.44120000 2.58110000 0.92270000
2.63020000 2.17170000 -3.93540000
2.66930000 1.81020000 -4.06090000
2.44750000 1.87860000 -4.07470000
2.26980000 1.92890000 -4.10020000
-0.80680000 -2.57160000 0.04870000
-1.04500000 -2.15310000 0.08970000
-0.30600000 -2.34860000 -0.04080000
8.07190000 -3.33070000 2.32420000
7.95910000 -3.34530000 2.52430000
-1.97930000 -4.15480000 2.60580000
-1.85990000 -4.18300000 2.63250000
-3.98160000 -3.06100000 2.12990000
-4.00430000 -3.29700000 1.90550000
-3.88300000 -3.17870000 1.89010000
-4.34690000 -3.23720000 2.14770000
9.49800000 -5.81320000 2.67110000
9.07260000 -5.81800000 2.84830000
7.58700000 -5.82840000 2.76780000
8.79390000 -5.82280000 2.55520000
2.35470000 2.10300000 -4.08110000
1.04230000 -5.15200000 3.87210000
1.38220000 -5.30310000 3.52440000
1.29280000 -5.28810000 3.31810000
1.17680000 -5.32750000 3.50720000
-0.49970000 3.25650000 2.12190000
-0.02540000 3.17710000 2.12390000
-2.81570000 -3.86600000 1.77700000
-2.78740000 -3.75180000 1.69340000
9.69510000 -5.75670000 2.67380000
9.35870000 -5.76950000 2.99100000
-1.93670000 -4.17610000 2.75340000
-1.96360000 -4.11430000 3.01180000
1.23920000 -5.20850000 3.31890000
1.14950000 -5.25210000 3.39130000
5.56000000 2.51870000 -2.60050000
5.62670000 2.64620000 -2.23010000
-8.81580000 0.77650000 0.52690000
-8.91260000 0.59920000 0.30470000
-8.84050000 0.41880000 0.53710000
-8.84060000 0.89080000 0.40030000
8.25130000 -2.32530000 0.35820000
-6.31940000 0.39370000 -2.54680000
-5.93740000 0.40980000 -2.70320000
1.27740000 -0.50960000 1.86140000
-8.83640000 0.57820000 0.64470000
-4.23290000 3.84020000 -0.22260000
-4.07750000 3.87730000 -0.18590000
-4.24920000 3.89080000 0.04850000
-4.07630000 3.99830000 0.11610000
-6.89260000 1.79440000 -1.69160000
8.51330000 -0.01690000 -0.44200000
8.57470000 -0.28230000 -0.66790000
-0.97430000 0.43380000 1.12620000
5.03080000 -5.77860000 -3.93680000
4.91720000 -5.31710000 -3.96090000
4.33950000 -1.13600000 1.51610000
4.26300000 -1.29810000 1.28970000
-6.93420000 0.03010000 1.35800000
-6.98470000 0.34400000 1.32090000
-0.01890000 -0.34790000 3.03100000
0.07360000 -0.51810000 2.58780000
-0.29140000 0.28100000 2.87790000
8.63540000 -0.39470000 -0.76950000
8.61250000 -0.36680000 -0.61260000
8.60150000 -0.43940000 -0.57630000
8.72900000 -0.53650000 -0.72840000
-0.65360000 0.43020000 1.12580000
-0.85420000 0.26650000 1.18330000
2.99010000 2.22350000 0.05400000
3.09880000 2.21830000 0.17990000
4.70870000 -5.41760000 -3.91170000
4.45990000 -5.74110000 -3.96610000
4.89610000 -5.69740000 -3.99320000
6.63100000 -0.27500000 -3.72990000
6.89990000 -0.04640000 -3.53640000
-9.96670000 -5.05370000 -0.96230000
-4.22170000 -1.77410000 1.80160000
5.94480000 1.57840000 0.64040000
5.94590000 1.72460000 0.67660000
6.01880000 1.92460000 0.79190000
-5.58710000 -1.61900000 1.60910000
-5.63470000 -1.59650000 1.47900000
-9.96050000 -5.89110000 0.33900000
-2.56550000 -4.30710000 -3.61090000
-2.59470000 -4.18100000 -3.64380000
8.41030000 -0.28470000 -0.51590000
8.16140000 -3.08880000 0.88360000
7.94880000 -3.24220000 1.09510000
8.30160000 -3.06440000 0.80490000
1.09550000 -1.86030000 -0.31600000
0.76560000 -1.91630000 -0.25350000
3.94790000 -1.83520000 1.43480000
-7.11200000 -2.36600000 2.21630000
-4.64420000 1.57080000 -3.07440000
-4.85550000 1.35650000 -2.98010000
-4.87600000 1.84000000 -2.77390000
-5.05080000 1.58230000 -2.78970000
-3.76340000 -4.67590000 -3.47420000
-3.51470000 -4.59130000 -3.43200000
-3.63790000 -4.72240000 -3.42610000
-3.93360000 -5.20480000 -3.44680000
6.65400000 0.80570000 0.93720000
6.87670000 0.71030000 0.90120000
6.58280000 0.68800000 1.33910000
7.64390000 0.71460000 -0.49930000
7.68870000 0.60510000 -0.50870000
7.69000000 0.60070000 -0.44260000
-7.33510000 -2.36120000 -2.30440000
-7.74010000 -1.64510000 -2.30780000
-2.30460000 -2.36200000 1.29690000
2.68140000 -5.77380000 4.05120000
2.32760000 -5.81990000 3.86200000
3.61270000 -5.75550000 4.16480000
5.34490000 2.10170000 0.66740000
5.40100000 2.22930000 0.61470000
5.49090000 2.32180000 0.59100000
6.66390000 0.90640000 1.07790000
6.65340000 0.70190000 1.23210000
6.61040000 0.78470000 1.01160000
-7.65440000 -4.42190000 2.82050000
-7.84190000 -4.34930000 3.08000000
-7.90660000 -4.41680000 3.09790000
-7.44210000 -4.46680000 3.47910000
5.17530000 1.18510000 -3.67050000
0.30160000 1.44620000 -0.38130000
0.68960000 1.52060000 -0.34770000
-0.51200000 3.54730000 1.95820000
-0.54130000 3.65550000 1.98220000
-0.67570000 3.64770000 1.98080000
-0.70820000 3.77260000 1.83570000
-0.61570000 3.88660000 1.73610000
-0.73270000 3.91840000 1.65610000
3.91050000 -3.50220000 1.49420000
3.97480000 -3.60430000 1.63370000
4.21470000 -0.06630000 0.47410000
4.43130000 -0.36740000 0.40830000
8.21110000 0.31900000 -0.44600000
8.18480000 0.42550000 -0.37440000
7.76120000 0.04770000 0.07890000
8.26190000 -0.35700000 -0.11360000
7.66620000 0.25430000 0.06190000
-0.65310000 1.98920000 -3.99780000
-0.93740000 1.45330000 -4.10190000
-1.02110000 1.73200000 -4.02310000
-1.11770000 1.49830000 2.69470000
-1.07960000 1.29810000 2.68260000
-1.57490000 5.61610000 -0.79320000
-1.69940000 5.67460000 -0.74800000
-1.47600000 5.58840000 -0.59930000
-1.36150000 5.51230000 -0.44350000
-1.60720000 5.61030000 -0.40860000
1.26550000 5.72820000 -1.16730000
1.06720000 5.67550000 -1.31620000
8.80160000 -1.17120000 -0.93570000
8.92290000 -1.03410000 -0.97290000
8.84380000 -1.11610000 -0.92380000
-7.54340000 -3.03530000 1.46260000
-7.71510000 -3.09810000 1.54920000
-0.04550000 -1.04810000 2.60860000
-0.28830000 -1.07090000 2.67010000
-2.34420000 5.26580000 -0.22780000
-2.30260000 5.34570000 -0.33940000
-2.52830000 5.30820000 -0.30750000
-2.47880000 5.32020000 -0.48320000
0.54750000 4.92520000 -2.68930000
0.78250000 4.65050000 -2.99330000
0.20450000 4.78040000 -2.89310000
0.01990000 4.60790000 -3.08380000
-1.46680000 4.75170000 -2.68330000
-1.17140000 4.85960000 -2.51450000
4.78640000 1.76380000 0.60230000
4.58940000 1.75020000 0.59660000
-4.15640000 3.82820000 -0.10860000
-4.33210000 3.85310000 -0.02470000
-4.40960000 3.73480000 -0.16810000
2.26750000 -2.96000000 2.34070000
0.85960000 -2.69790000 3.32210000
0.81050000 -2.15380000 3.06040000
-1.22970000 4.39600000 -3.07150000
-1.27890000 4.62870000 -2.81550000
-1.17250000 4.61090000 -2.88200000
-1.11440000 4.61140000 -2.85570000
-3.77110000 3.95670000 0.00490000
-3.82910000 3.86500000 -0.05380000
-3.90520000 3.79690000 0.10090000
-4.01780000 3.73810000 0.03820000
-3.47100000 -4.53180000 1.31900000
-3.72980000 -4.52960000 1.40530000
-3.44210000 -4.50680000 1.48310000
-1.93290000 1.86710000 0.39610000
-1.73020000 1.76510000 0.38020000
6.18750000 -5.76300000 -0.43430000
4.82760000 -5.78350000 -1.04210000
-4.61250000 -2.27030000 1.06130000
-4.53820000 -2.16630000 0.99390000
2.31180000 -3.42770000 1.84970000
1.99990000 -3.09090000 1.60580000
-3.86720000 3.84550000 0.20980000
-3.84700000 3.83270000 0.33230000
6.69550000 1.49770000 -3.06920000
8.33690000 -5.78200000 -0.52300000
7.62050000 -5.75410000 -0.52070000
8.58700000 -5.78730000 -0.76260000
3.67570000 0.25130000 -0.02240000
3.66440000 0.44270000 0.02850000
3.56990000 0.53090000 0.10020000
-9.83920000 -3.08690000 1.51000000
-4.81160000 3.01080000 -1.98440000
-4.76070000 2.88320000 -2.21170000
7.58860000 -5.78710000 -0.66140000
6.32100000 -5.75120000 -0.59030000
6.32350000 -5.77690000 -0.70760000
4.91510000 -5.78190000 -0.33070000
2.28220000 -3.18740000 1.28910000
2.33970000 -3.18200000 1.44770000
2.33610000 -3.10130000 1.05530000
7.02370000 -4.73120000 -3.59810000
7.12070000 -4.96660000 -3.51980000
7.13140000 -4.77420000 -3.55830000
-9.95320000 -5.74480000 1.04610000
6.91910000 -3.32980000 0.66820000
6.94820000 -3.26870000 0.82240000
-4.47750000 3.28380000 -2.09820000
-4.48210000 3.22190000 -1.98340000
-4.64830000 3.06960000 -2.00830000
-0.61800000 -5.83780000 -0.02290000
-1.82550000 -5.79820000 -1.23450000
-1.91270000 -5.78070000 -1.83230000
-1.60130000 -5.83500000 -0.91200000
-0.23660000 -4.29670000 3.21610000
-0.18540000 -4.29530000 3.44730000
-0.27940000 -4.17730000 3.32700000
-0.31450000 -4.18490000 3.10780000
-0.25120000 -4.25840000 2.81180000
7.35760000 -5.52050000 -3.49990000
-4.68900000 3.47390000 -0.92320000
4.78850000 1.38530000 1.71380000
4.81650000 1.51240000 1.78230000
-9.91300000 -2.01840000 0.89260000
-9.97070000 -2.02480000 1.16870000
3.96090000 -5.69990000 -4.02030000
3.82460000 -5.77600000 -3.98760000
3.73550000 -5.72630000 -4.00720000
-7.70150000 1.69730000 -0.26550000
-7.74800000 1.63020000 -0.52370000
-7.86280000 1.51620000 -0.30370000
-7.89510000 1.37630000 -0.48510000
-2.23070000 -5.82530000 -1.11270000
-1.50060000 -5.82470000 -0.25950000
-1.75200000 -5.85880000 -0.08490000
0.98490000 -3.94860000 3.61250000
0.91390000 -4.06640000 3.66120000
0.95980000 -3.84580000 3.70850000
0.79120000 -3.63210000 3.71130000
0.82380000 -4.05660000 3.71520000
-6.36700000 -1.01410000 2.29590000
-6.55890000 -0.92760000 2.15210000
-6.43190000 -1.06200000 2.36530000
-6.43180000 -0.94800000 2.22050000
0.07510000 2.12320000 2.74660000
-0.17030000 2.07570000 2.73250000
0.22220000 1.61740000 2.79690000
0.12140000 1.81590000 2.81100000
0.08560000 1.70400000 2.81270000
1.08610000 -4.42520000 3.50760000
1.23160000 -4.07460000 3.53700000
1.18020000 -4.04920000 3.66010000
1.08920000 -3.95810000 3.51670000
-4.70350000 -2.36740000 1.40900000
-4.66880000 -2.17220000 1.27000000
-4.72050000 -2.36270000 1.34690000
-0.26470000 5.36770000 -1.59130000
-0.99740000 -0.01330000 1.50410000
-0.74570000 -0.21880000 1.41580000
-0.73100000 -0.57930000 1.45280000
7.39480000 -2.32940000 0.92110000
7.48010000 -2.55420000 0.98580000
6.01890000 -5.45350000 -3.90020000
5.58170000 -5.53020000 -3.91260000
5.71240000 -5.29040000 -3.95290000
5.68020000 -5.66630000 -3.92020000
-5.70480000 -0.97320000 2.18790000
-4.52920000 -1.35870000 1.07670000
-4.43960000 -1.71390000 1.16270000
-4.46090000 -1.32530000 1.10500000
7.18660000 -2.70550000 1.44200000
7.19080000 -2.88510000 1.23150000
7.33660000 -2.80830000 1.25990000
7.43480000 -2.73970000 1.14900000
0.85020000 -0.07880000 2.10190000
-2.09280000 -4.21980000 1.59990000
-2.02350000 -4.21830000 1.73060000
-7.05330000 -3.19720000 1.40490000
-7.07180000 -3.16500000 1.49940000
-7.22780000 -3.17580000 1.43050000
4.64140000 4.37800000 -0.46850000
4.52270000 4.37630000 -0.40050000
-9.19880000 -1.90730000 1.31170000
-9.21160000 -1.92810000 1.17320000
7.05740000 -2.55300000 1.73740000
6.68000000 -2.78260000 1.86100000
6.73890000 -2.84660000 1.81930000
-4.54280000 -2.27620000 2.14220000
-4.49250000 -1.77590000 1.96740000
-4.47520000 -2.26070000 2.15910000
1.27730000 -3.14450000 -0.25760000
1.26760000 -2.75900000 -0.32960000
5.45590000 3.57470000 -1.35240000
3.23620000 5.29220000 -1.89800000
3.30260000 5.11570000 -2.17240000
7.06020000 -1.63970000 1.22600000
7.26460000 -1.72650000 1.12160000
7.33370000 -1.66160000 0.91580000
2.04470000 4.57290000 0.16020000
1.96290000 4.73760000 0.03580000
-3.44930000 -2.48640000 1.05330000
-3.48470000 -2.67970000 0.79730000
-3.58800000 -2.76610000 0.86030000
1.65020000 -3.41580000 0.11770000
1.90030000 -3.39810000 0.25530000
3.76360000 4.44520000 0.01030000
3.92870000 4.48730000 0.05560000
4.98300000 2.70700000 1.22740000
5.01090000 2.45230000 1.29030000
4.82960000 2.87910000 1.29630000
4.99810000 2.30910000 1.32300000
6.48670000 0.56810000 1.52890000
6.51030000 0.48740000 1.39700000
6.29910000 0.59260000 1.59850000
-3.49050000 -2.55450000 0.78810000
-3.54080000 -2.48830000 0.94780000
-3.53420000 -2.60920000 0.95230000
3.81020000 -4.42490000 2.57160000
4.18570000 -4.36980000 2.41830000
3.01100000 0.12830000 1.24390000
3.79860000 4.59780000 -0.13710000
3.89040000 4.55720000 -0.14480000
-5.62130000 2.68190000 1.27220000
-5.60890000 2.78960000 1.03360000
-9.18560000 -2.37160000 -1.79180000
-8.69950000 -2.19530000 -2.03740000
-9.80900000 -4.38770000 0.65060000
-9.78320000 -4.05260000 0.45740000
-3.62970000 -1.44730000 1.16030000
7.00240000 -3.22050000 1.71710000
6.90700000 -3.04150000 1.66010000
6.98880000 -3.05870000 1.55760000
-3.00950000 4.64880000 -0.07710000
-2.76930000 4.77180000 -0.06580000
-2.78300000 4.85580000 -0.07790000
-2.89880000 4.57940000 -0.10850000
-2.74140000 4.65030000 -0.19990000
-1.70280000 3.71380000 1.18170000
-1.69100000 3.67580000 1.39980000
-1.53230000 4.01480000 1.19450000
-1.47720000 3.79400000 1.27570000
3.98430000 -0.13440000 -3.99910000
2.26150000 0.89970000 -4.09440000
2.72700000 0.35970000 -4.05630000
1.99610000 0.45090000 -4.08140000
3.53810000 -1.04550000 1.43020000
3.65490000 -1.12720000 1.49730000
0.27360000 -1.51760000 2.59400000
0.39990000 -1.67040000 2.54550000
0.45650000 -5.78080000 -2.05830000
1.76090000 -5.77380000 -2.28880000
6.98100000 -0.56640000 1.86320000
7.07760000 -0.68970000 1.84110000
7.09660000 -0.85680000 1.90640000
-5.68260000 0.28730000 1.10190000
-5.83830000 0.14120000 1.13700000
4.71710000 1.34880000 1.76970000
4.65890000 1.31040000 1.67240000
4.76280000 1.30050000 1.48510000
4.68480000 1.29350000 1.48270000
5.92940000 2.39760000 -3.06580000
7.22000000 -1.50310000 0.35590000
7.20530000 -1.80710000 0.29820000
7.20230000 -1.64430000 0.24270000
7.26910000 -1.87880000 0.20930000
7.21740000 -5.75910000 3.87770000
6.58270000 -5.78910000 3.75600000
7.65330000 -5.73960000 3.87670000
-1.63970000 -5.80980000 -1.70420000
-2.18400000 -5.78280000 -2.16250000
-1.58480000 -5.78530000 -2.00320000
0.38890000 0.10410000 1.58690000
-2.26340000 2.21800000 0.70480000
-2.38140000 2.25040000 0.84630000
3.15500000 0.65770000 -0.31540000
2.89900000 0.20230000 -0.22510000
8.12480000 0.25670000 -0.61380000
9.23820000 -3.08030000 0.48940000
8.94600000 -3.04820000 0.32810000
9.67350000 -3.24210000 0.72210000
-1.24470000 -5.25410000 -3.96300000
-1.46160000 -5.11480000 -3.90520000
-0.95580000 -5.51190000 -4.08460000
-1.20390000 -5.42300000 -3.94760000
2.05440000 -5.77770000 -2.61250000
2.85630000 -5.79320000 -3.55780000
3.32510000 -5.78100000 -2.78590000
1.26910000 3.86310000 0.87950000
1.45450000 3.63970000 0.81290000
1.20510000 3.91690000 0.85800000
6.01350000 -5.16260000 3.12740000
6.65520000 -5.31000000 3.47510000
0.15110000 1.54530000 2.87510000
9.12300000 -2.88570000 -0.81910000
-8.55790000 -4.86230000 2.69840000
-8.94260000 -4.99200000 2.48110000
-8.78690000 -5.02080000 2.56400000
6.57310000 2.45790000 -0.55280000
6.31330000 2.80120000 -0.63360000
6.46950000 2.41380000 -0.70780000
-0.18870000 -5.75630000 -2.13940000
0.43730000 -5.78420000 -2.39490000
-1.16450000 -5.77960000 -2.19950000
1.51620000 -5.66270000 3.72610000
1.87040000 -5.82530000 3.73120000
4.60280000 4.27990000 -2.09480000
4.72620000 4.47380000 -1.75270000
4.54050000 4.57590000 -1.81760000
6.29520000 2.79310000 -0.77570000
-2.36240000 -5.81310000 -2.36360000
-3.04300000 -5.79100000 -2.30210000
-3.39890000 -5.81020000 -2.96460000
-2.82720000 -5.81030000 -2.38930000
-0.17660000 1.93990000 2.68270000
-2.36920000 0.32050000 0.12360000
-3.37510000 -1.84050000 1.74530000
-3.15370000 -1.96480000 1.82790000
1.47590000 -4.29980000 -3.94970000
1.66110000 -4.40700000 -3.94440000
-4.24450000 -5.77180000 -3.45980000
-4.73670000 -5.77670000 -3.30990000
-5.04680000 -5.82870000 -3.02370000
5.25740000 -2.85130000 1.02520000
5.27010000 -2.71140000 1.07360000
8.04210000 -4.23420000 3.20670000
7.82660000 -4.00460000 2.87330000
7.87110000 -4.12870000 3.09350000
3.56200000 1.55720000 -3.95180000
-2.52820000 -5.81990000 -1.76090000
-2.53440000 -5.79750000 -2.11250000
-3.57020000 -5.78760000 -2.88430000
5.54720000 -3.16870000 1.14320000
5.39080000 -3.02000000 1.14780000
5.45810000 -3.06680000 1.00710000
6.64920000 2.29900000 -1.40560000
6.79190000 2.20970000 -1.29240000
6.55720000 2.18080000 -1.40060000
6.53900000 2.36730000 -1.35210000
-5.49220000 -4.53580000 3.18360000
-5.58890000 -4.53910000 2.71350000
-2.53030000 -4.41400000 1.23000000
5.68890000 -3.32590000 1.02410000
-1.34390000 -4.18740000 0.92720000
-1.39510000 -4.05990000 1.09070000
-1.21380000 -4.14820000 1.11160000
-5.03770000 -4.25050000 1.50630000
-5.01150000 -4.29750000 1.61920000
7.81060000 -0.48030000 1.31460000
7.83540000 -0.70840000 0.90980000
7.78100000 -0.74620000 1.45910000
8.13080000 -0.50530000 -2.04930000
7.96250000 -0.56500000 -2.34840000
-1.60730000 0.54610000 0.03460000
-1.52610000 0.83610000 0.05110000
-5.37370000 -4.56170000 1.99850000
-5.31420000 -4.52680000 2.24810000
1.27200000 -1.85680000 1.62640000
1.35080000 -1.63940000 1.83990000
7.77570000 -0.20480000 1.46060000
7.83950000 -0.41270000 1.52500000
7.76480000 -0.67150000 1.39290000
7.84000000 -0.59320000 1.55830000
-2.59820000 2.45280000 1.30770000
-2.55710000 2.19380000 1.18940000
-2.50560000 2.46620000 1.27890000
1.80030000 0.27640000 -0.55990000
1.93750000 -0.10910000 -0.49910000
9.62680000 -5.73870000 0.66950000
9.56860000 -5.77890000 0.78690000
7.12890000 -2.98860000 1.10000000
7.13120000 -3.02810000 0.88720000
7.00360000 -3.12660000 0.96340000
2.80930000 -4.36960000 3.29030000
2.90380000 -4.12920000 3.22000000
3.17720000 1.72680000 -3.81190000
3.13950000 1.77200000 -3.89040000
8.91750000 -5.74700000 1.23460000
6.29970000 -5.79840000 1.07410000
5.53820000 -5.75590000 0.90970000
6.30790000 -5.76570000 0.84600000
2.71120000 1.85010000 -0.59090000
0.38830000 -4.27090000 -4.01390000
0.19240000 -4.26140000 -4.05580000
-0.37760000 -4.32890000 -3.97420000
4.13560000 -4.13610000 1.54310000
4.00180000 -4.09370000 1.36950000
7.61800000 -5.75240000 1.19770000
6.46800000 -5.78560000 1.19760000
7.49930000 -5.77830000 0.92830000
-2.30780000 5.12700000 -1.74590000
-2.57200000 5.14690000 -1.43590000
-6.59720000 -0.24330000 2.21530000
-6.63090000 -0.19820000 2.03540000
-0.64040000 -4.20550000 -3.83310000
0.01060000 -4.25850000 -4.03220000
-4.12770000 3.06470000 -2.59040000
9.83120000 -5.29230000 0.35130000
9.80720000 -5.36450000 0.12650000
8.20520000 -0.47920000 -1.82570000
6.90570000 -5.80480000 1.67800000
6.42650000 -5.79750000 1.58530000
7.02960000 -5.80630000 1.35220000
6.61240000 2.67070000 -0.65620000
6.59940000 2.60270000 -0.56460000
6.79630000 2.37920000 -0.65380000
6.93170000 2.05700000 -0.69060000
-5.51800000 -1.26820000 1.21040000
-5.63060000 -1.51530000 1.35290000
-5.70330000 -1.40150000 1.19270000
-0.80180000 4.31360000 1.33670000
-1.03360000 4.55160000 1.15130000
2.56230000 -3.29770000 1.66230000
7.44790000 -0.79510000 -2.73140000
-6.16370000 -2.40330000 -2.55220000
-6.27100000 -2.23970000 -2.53650000
-7.04520000 -3.71100000 2.15040000
-7.11150000 -3.77140000 2.07300000
-6.94210000 -3.87750000 2.03660000
10.12770000 -4.28340000 0.43600000
10.11550000 -4.21510000 0.67610000
10.16990000 -4.27670000 0.54790000
10.17750000 -4.46750000 0.64870000
4.93140000 2.55730000 -3.16790000
4.94080000 3.25240000 -2.55000000
-0.04800000 2.35900000 2.67820000
0.11560000 2.41730000 2.63770000
0.20340000 2.21260000 2.70690000
0.33100000 2.22960000 2.64590000
-1.84130000 -4.80230000 2.90560000
-1.84200000 -5.05970000 2.97330000
-6.14080000 -2.83350000 -2.55690000
-0.00550000 -3.45730000 3.54300000
0.11580000 -3.47750000 3.62590000
-0.13560000 -3.91340000 3.55940000
10.06890000 -4.55110000 0.41360000
10.07600000 -4.67780000 0.29850000
10.08120000 -4.48530000 0.20930000
10.17480000 -4.47880000 0.49070000
-6.74010000 -1.19440000 1.79690000
-6.79370000 -1.56890000 1.99820000
-6.85940000 -1.10900000 1.77070000
4.65690000 4.61300000 -1.60970000
4.82490000 4.44200000 -1.57500000
4.69870000 4.55020000 -1.36390000
-9.26720000 -2.48000000 2.52070000
-9.38000000 -2.70250000 2.41710000
1.31450000 5.80530000 -0.20020000
1.45110000 5.81880000 -0.48230000
1.31610000 5.71360000 -0.30170000
1.68560000 5.95810000 -0.39720000
1.56500000 5.91790000 -0.24440000
1.72960000 5.84450000 -0.36740000
4.36650000 -4.53310000 2.63290000
4.69130000 -4.41950000 2.49690000
2.74250000 -1.39030000 0.30210000
6.64310000 1.60910000 -0.08420000
-8.30000000 1.22950000 -0.14980000
-8.48290000 1.06380000 -0.23200000
-8.64790000 1.11140000 0.04410000
1.05860000 -3.92990000 3.62040000
2.06390000 1.24870000 -0.61840000
4.62980000 -4.57120000 2.55600000
4.58480000 -4.82210000 2.43200000
4.81860000 -4.49570000 2.52980000
-8.57850000 1.19310000 0.03530000
-8.64100000 1.25650000 0.25700000
-8.54940000 1.42850000 0.12660000
-8.48670000 1.33280000 0.04040000
0.70080000 -5.86610000 2.64320000
1.40050000 -5.85430000 2.83740000
1.55740000 -5.82510000 2.67520000
3.41100000 -5.82230000 2.71530000
7.24070000 -1.79390000 0.84070000
7.30670000 -1.87700000 0.65960000
-9.16810000 -1.97240000 -0.52830000
-9.24950000 -1.94450000 -0.23760000
6.70100000 2.40160000 -1.10150000
6.83290000 2.24820000 -0.90410000
6.87260000 2.29540000 -1.00470000
6.82100000 2.32690000 -1.19050000
1.19240000 -4.38730000 3.50980000
1.08820000 -4.10070000 3.46890000
1.03330000 -3.95770000 3.47050000
6.73490000 2.46980000 -0.73440000
6.73520000 2.27420000 -0.88540000
-3.16370000 3.85560000 -2.65920000
-3.13290000 4.17280000 -2.34230000
-2.94620000 4.10300000 -2.53570000
-2.88940000 4.35070000 -2.26290000
7.14250000 -0.10230000 -3.23670000
0.20180000 -5.76270000 4.01490000
-0.08290000 -5.81120000 3.89790000
9.76060000 -4.70810000 -1.81020000
9.88680000 -4.67080000 -1.81080000
9.94990000 -4.53040000 -1.83460000
-4.63030000 -1.88920000 0.93820000
-4.61650000 -1.52110000 0.85700000
-4.85720000 -1.38490000 0.86360000
-5.65620000 -1.10670000 1.68790000
-5.51420000 -1.09590000 1.62880000
-3.04750000 -0.73410000 1.40120000
-3.10620000 -1.10290000 1.49180000
2.81830000 -1.70030000 0.24310000
2.89930000 -1.91480000 0.23170000
2.80130000 -1.71710000 0.35300000
2.84130000 -1.94480000 0.13720000
2.78630000 -1.69500000 0.14960000
2.66840000 -1.77410000 0.08570000
6.18680000 2.08440000 0.91470000
-7.48060000 1.78990000 1.09900000
0.21570000 1.20450000 2.94090000
0.19830000 1.24650000 2.84610000
0.16050000 1.41630000 2.80250000
5.52890000 2.21850000 0.07370000
5.99010000 2.38600000 0.03900000
-9.76320000 -3.57320000 1.53340000
-9.66110000 -3.57230000 1.79940000
0.99450000 2.22740000 0.12580000
1.37490000 2.49330000 0.11940000
1.18810000 2.18680000 0.34730000
1.21050000 2.34010000 0.22070000
4.39220000 -0.44740000 1.16880000
4.32450000 -0.41850000 1.07040000
4.60770000 -0.55700000 1.02640000
4.46530000 -0.43330000 1.04960000
3.55960000 -3.47260000 0.58110000
1.30710000 4.01480000 0.81850000
1.32500000 4.18510000 0.77720000
7.31100000 1.38980000 -2.39380000
7.12310000 1.31550000 -2.52750000
7.22360000 1.35530000 -2.32480000
7.44880000 -5.02360000 3.56640000
7.46440000 -4.89420000 3.45700000
7.65230000 -5.01510000 3.64820000
7.83710000 1.07460000 -0.57520000
7.80330000 0.96640000 -0.64430000
7.80780000 1.13730000 -0.51830000
-8.84840000 -1.96370000 0.17370000
-8.97030000 -1.97160000 0.18850000
-8.81930000 -2.06900000 0.30830000
-9.09120000 -1.94170000 -0.36420000
-6.97830000 -0.15720000 -2.35210000
-7.19530000 -0.11960000 -2.42260000
1.41260000 4.43960000 0.61830000
7.39430000 -4.77380000 3.37330000
-1.06160000 1.26210000 0.38240000
-0.96010000 1.14290000 0.44140000
-1.01130000 1.25900000 0.12480000
1.95840000 2.68220000 0.48040000
2.01360000 2.76500000 0.52370000
7.74100000 0.95440000 -0.73840000
0.95630000 -5.80100000 -0.70800000
3.14170000 -5.77760000 -0.93640000
3.56140000 -5.77440000 -1.27560000
3.65650000 -5.79230000 -0.30750000
5.84030000 1.37320000 -3.35880000
5.73760000 1.37060000 -3.35290000
5.43510000 1.43460000 -3.45780000
3.22950000 -1.02840000 1.29590000
5.29830000 -1.00800000 -0.01340000
5.27300000 -1.22700000 0.02800000
5.44420000 -0.71160000 0.53790000
2.18670000 3.81950000 0.63600000
2.40940000 3.87850000 0.67530000
2.21150000 3.63600000 0.71080000
1.49840000 -3.45350000 0.99730000
1.57410000 -3.51300000 1.09460000
1.67500000 -3.71510000 1.20550000
5.74460000 1.33230000 -3.69720000
5.72780000 1.20150000 -3.75220000
5.59630000 1.39790000 -3.78160000
2.44390000 -5.77120000 0.09000000
2.16110000 -5.80460000 -0.02660000
4.52090000 -5.79160000 0.00070000
2.33050000 -5.80580000 -0.20800000
2.70490000 -5.78440000 -0.75360000
5.25810000 -1.62050000 0.05420000
5.27760000 -1.78000000 0.18280000
2.72110000 -0.21080000 0.85310000
2.62340000 -0.32460000 0.94040000
2.70650000 -0.08550000 0.88440000
2.58910000 -0.24290000 0.89920000
4.34980000 3.17070000 1.26270000
3.92170000 3.73790000 0.86870000
1.54690000 -5.33930000 3.61430000
1.59430000 -5.32870000 3.53190000
1.43650000 -5.30010000 3.45790000
9.97640000 -4.25300000 1.31320000
10.15380000 -4.14570000 1.10300000
10.10030000 -3.97360000 0.89880000
10.13310000 -4.01610000 1.14540000
0.22750000 -0.94530000 2.23360000
3.47720000 2.01060000 -3.71630000
3.35050000 2.03780000 -3.78060000
3.46260000 1.95380000 -3.77490000
3.41200000 1.99790000 -3.87300000
6.41520000 -3.18700000 -3.89440000
9.84680000 -4.11440000 1.70200000
9.82020000 -3.94990000 1.62130000
2.10880000 4.65440000 0.27410000
2.04600000 4.60530000 0.20320000
4.70070000 2.53220000 -3.30410000
4.55830000 2.43470000 -3.40610000
4.35520000 -5.46220000 3.99120000
1.13640000 2.05980000 -0.18010000
-0.24020000 -5.42610000 3.61010000
-0.16610000 -5.30800000 3.49020000
-3.23400000 -2.47930000 1.47580000
-3.31340000 -2.44940000 1.37380000
-3.36910000 -2.59570000 1.44570000
2.60140000 5.75150000 -1.03330000
2.28170000 5.89500000 -1.03240000
2.65360000 5.62080000 -1.02830000
6.67380000 -4.36560000 2.54070000
6.55900000 -4.41990000 2.42150000
6.55890000 -4.35210000 2.41230000
-8.09170000 -2.11540000 0.82850000
-8.15250000 -2.27150000 0.91830000
-4.25070000 2.06330000 1.00590000
-4.02530000 2.04230000 0.92040000
-4.12910000 1.99410000 0.87020000
0.03710000 -5.29010000 3.60320000
-6.21030000 -3.97150000 2.66600000
-6.23450000 -3.92770000 2.84400000
-6.45970000 -4.10770000 2.92950000
-7.90980000 -2.93310000 1.21790000
-7.91980000 -2.96340000 1.43730000
-5.14200000 -5.79980000 3.37470000
-4.97140000 -5.72210000 3.17980000
-5.07500000 -5.58690000 3.34120000
-1.67950000 1.80030000 -4.05400000
-1.47280000 1.77140000 -4.01710000
-1.46570000 2.12260000 -4.02530000
-1.26770000 2.12150000 -4.03160000
-5.01820000 3.36480000 0.06070000
-5.26540000 3.19970000 0.01340000
-4.97310000 3.26820000 0.06660000
-4.91700000 3.33030000 0.19750000
2.81300000 -3.61630000 0.36460000
2.73340000 -3.77030000 0.38500000
-3.39070000 -0.35210000 1.26270000
-5.83130000 -0.67900000 1.10540000
-5.72430000 -0.73940000 1.11910000
-5.73010000 -0.70800000 1.26290000
8.79170000 -4.09380000 2.87780000
8.97500000 -3.99060000 2.82360000
-6.86550000 -0.84250000 1.73790000
5.99050000 1.65060000 -3.50510000
6.10860000 1.59850000 -3.56780000
-6.88220000 -1.02000000 1.66350000
-6.91180000 -0.90290000 1.89010000
0.86190000 1.20950000 0.65820000
3.42360000 4.22680000 -3.04460000
-2.93470000 -4.13290000 -3.67190000
-3.36050000 -4.43220000 -3.49990000
5.58970000 1.16660000 -3.80210000
1.09060000 -3.75500000 -0.07230000
1.22910000 -3.43850000 -0.18110000
0.97820000 -3.62680000 -0.17910000
0.55770000 -3.91390000 0.06530000
-2.20690000 -5.38720000 3.94150000
-2.60040000 -5.46910000 4.04600000
5.78360000 -2.75920000 1.41860000
-3.43840000 -3.89790000 -3.62150000
5.84460000 1.33210000 -3.72870000
5.94470000 1.44670000 -3.61920000
-2.95950000 -3.74200000 1.02170000
-3.08020000 -3.70150000 1.19260000
-3.28900000 -3.66960000 1.25050000
-8.61720000 1.01280000 -0.21790000
6.00450000 -1.12990000 1.52530000
6.10620000 -1.21640000 1.47590000
5.88920000 -1.37580000 1.18690000
-2.10030000 -3.91540000 1.58280000
6.89240000 -2.89040000 1.67010000
7.05010000 -2.71000000 1.71880000
-8.83340000 -5.06020000 -1.93780000
-8.77800000 -4.61190000 -1.93310000
-0.53990000 2.48890000 -4.04870000
5.70900000 -0.62430000 1.38110000
5.68480000 -0.81300000 1.31420000
5.81570000 -1.00020000 1.35710000
5.88390000 -1.25570000 1.31480000
5.88350000 -1.09590000 1.49180000
6.97760000 -2.66780000 1.81610000
8.14880000 -2.97290000 1.75970000
8.02640000 -3.13120000 1.60400000
7.93220000 -3.15070000 1.29730000
4.51850000 -0.91670000 1.46370000
-9.83260000 -4.61620000 -1.18580000
1.22470000 -5.45950000 -3.97490000
0.95040000 -5.31660000 -3.95420000
0.90650000 -5.47300000 -4.04290000
-5.35880000 -0.72770000 1.40690000
-5.45040000 -0.67770000 1.30450000
-5.67600000 -0.73120000 1.35150000
8.08730000 0.54320000 -2.16790000
7.97430000 0.58770000 -2.23910000
8.23200000 -2.80060000 1.77650000
5.68590000 -5.01920000 2.76910000
5.93610000 -5.11840000 2.99750000
5.92080000 -4.96590000 2.65340000
5.73950000 -5.19550000 3.04350000
1.17710000 2.58140000 1.62520000
0.95360000 2.44890000 1.76080000
3.60950000 3.27700000 1.05760000
3.82480000 2.76000000 1.20720000
5.48300000 0.61640000 -3.72510000
5.25400000 0.29280000 -3.82790000
-0.93150000 2.81630000 2.43710000
-0.82200000 2.63430000 2.51610000
-0.88060000 2.58610000 2.55870000
-1.01730000 2.75910000 2.46200000
6.07320000 2.25870000 -3.19090000
5.99600000 2.05280000 -3.37900000
5.84090000 2.24150000 -3.25320000
6.03340000 1.79080000 -3.39830000
-6.60800000 -5.74130000 -2.35190000
-6.69720000 -5.79580000 -2.32420000
4.44140000 -3.64470000 1.54790000
4.53220000 -3.76780000 1.65930000
-9.80480000 -5.91690000 0.76650000
-6.63930000 -0.77540000 1.62720000
-1.45320000 1.67200000 0.19950000
-4.29940000 3.35050000 -1.31980000
-4.42300000 3.24950000 -1.08420000
-4.47460000 3.26950000 -0.94580000
3.52580000 -0.78090000 1.10330000
3.77190000 -0.59560000 0.97650000
-0.80510000 5.04140000 -2.56990000
-0.57330000 4.92620000 -2.64560000
-0.49250000 5.05190000 -2.57670000
-0.54350000 4.88670000 -2.61140000
-8.79230000 -5.90900000 1.19400000
-8.90590000 -5.91810000 0.88280000
-8.21310000 -3.34170000 2.13990000
-5.42830000 -1.51330000 2.42030000
-5.30340000 -1.59420000 2.25730000
-5.53040000 -1.38690000 2.43580000
5.85430000 -0.64130000 1.50390000
6.16020000 -0.64010000 1.57100000
1.84170000 1.88930000 -0.71880000
1.74660000 1.61050000 -0.65540000
2.02400000 1.89960000 -0.77290000
-1.28570000 5.69480000 -1.23840000
-1.30680000 5.71240000 -1.10790000
-1.35780000 5.58130000 -0.68550000
-1.38850000 5.68060000 -0.88670000
-8.22080000 -3.49590000 2.65370000
7.65430000 1.38550000 -1.09840000
7.56670000 1.38740000 -0.96950000
7.52960000 1.42590000 -0.81070000
-3.11240000 -1.40890000 1.57830000
4.42330000 3.82680000 0.56530000
4.82900000 3.51840000 0.61640000
4.54770000 3.68720000 0.65600000
-0.64750000 0.50780000 2.51210000
-0.61010000 0.43290000 2.22270000
-0.48970000 0.46210000 2.27000000
-0.56170000 0.35620000 2.19380000
-1.13760000 5.55180000 -0.74890000
3.70840000 -0.07170000 1.35400000
-6.06090000 -3.63310000 3.21230000
-6.05000000 -3.50630000 3.06870000
-6.21940000 -3.43740000 3.15890000
-5.82190000 -3.74850000 2.75660000
-5.92770000 -3.72910000 3.08980000
-8.77950000 -2.05760000 -1.35200000
9.93460000 -5.06450000 1.65490000
9.89560000 -5.11250000 1.40200000
2.78870000 0.65000000 -0.48060000
2.71190000 0.81550000 -0.56500000
2.49850000 0.64970000 -0.56810000
-6.05280000 -2.47420000 2.81550000
-5.82300000 -2.43560000 2.68820000
-5.87570000 -2.57700000 2.71590000
6.18660000 -0.51970000 1.45480000
-8.65380000 -1.75700000 -1.68330000
-8.74900000 -1.57300000 -1.57620000
-8.69150000 -1.55230000 -1.63360000
-8.48940000 -1.45500000 -1.67920000
0.24210000 -3.38730000 3.64650000
0.13930000 -3.68330000 3.65180000
-0.02080000 -3.90940000 3.61570000
-6.20690000 0.47980000 -2.63150000
-6.01040000 0.87020000 -2.58430000
-6.02280000 0.63550000 -2.66480000
2.19230000 5.76500000 -1.89110000
2.23140000 5.77440000 -1.75020000
2.18810000 5.77280000 -1.52930000
9.03080000 -2.82740000 2.68630000
9.15490000 -2.55170000 2.51460000
6.52340000 -0.56240000 1.59000000
6.55260000 -0.33200000 1.61770000
9.33530000 -5.00920000 -2.31120000
9.19700000 -4.75430000 -2.43550000
9.38020000 -5.35360000 -2.33180000
7.16220000 -3.42040000 1.29060000
7.07230000 -3.28160000 1.29930000
7.05470000 -3.16410000 1.50260000
1.26270000 5.26100000 -0.04640000
0.53010000 2.93270000 2.02160000
-7.55530000 -4.52090000 3.42250000
-7.17190000 -4.86040000 3.68730000
7.32420000 -3.35820000 1.93300000
7.19830000 -3.35600000 1.92190000
-3.47470000 -2.75970000 1.55770000
-3.61120000 -2.84870000 1.65230000
-3.57210000 -2.74640000 1.54150000
-5.06350000 -5.84720000 3.17590000
-5.24630000 -5.86650000 3.36530000
