-4.69959593 -0.00736067 -5.87650824
-4.54967546 -0.00607029 -6.00044680
-4.39648962 -0.00532749 -6.12008429
-4.33716440 -0.08295157 -6.04188395
-4.76272392 0.06864077 -5.95395708
-4.61140490 0.06998001 -6.07894087
-4.45631313 0.07103566 -6.19885206
-4.29669523 0.07402680 -6.31341696
-4.23942327 -0.00408595 -6.23468781
-4.67347670 0.14561005 -6.15740633
-4.51596069 0.14730111 -6.27824593
-4.35534573 0.14956884 -6.39413929
-4.19165230 0.15181719 -6.50719833
-4.13612938 0.07519992 -6.42562485
-4.57550097 0.22289200 -6.35838223
-4.41299009 0.22452433 -6.47597647
-4.24698925 0.22843447 -6.58862495
-4.02573919 0.15510161 -6.61540842
-4.07939482 0.23064366 -6.69902468
-4.47068262 0.29875660 -6.55828285
-4.30313730 0.30213872 -6.67205572
-4.13383245 0.30415234 -6.78343296
-3.96064687 0.30774960 -6.88882828
-3.90791035 0.23474918 -6.80283642
-4.36064434 0.37195241 -6.75826216
-4.18846560 0.37700620 -6.86853456
-4.01422453 0.38007566 -6.97512245
-3.83616090 0.38310596 -7.07784939
-3.78422594 0.31263709 -6.98963928
-4.24518061 0.44476733 -6.95682383
-4.06866217 0.44859916 -7.06396866
-3.88809609 0.45145345 -7.16733027
-3.70325875 0.45556867 -7.26711512
-3.65346432 0.38817912 -7.17641163
-3.94127250 0.51619399 -7.25861979
-4.12523031 0.51288998 -7.15520906
-3.75438237 0.51973253 -7.35939169
-3.56400275 0.52498168 -7.45625353
-3.51545954 0.46132627 -7.36265659
-3.80690408 0.57772821 -7.45490456
-3.99515295 0.57568514 -7.35276461
-3.61326909 0.58109093 -7.55337906
-3.41727853 0.58593923 -7.64801168
-3.37020135 0.52915561 -7.55049515
-3.66366005 0.63198006 -7.65239096
-3.85947442 0.63113934 -7.55232286
-3.46365142 0.63867605 -7.74725819
-3.21769023 0.59290892 -7.73886156
-3.26167822 0.64366120 -7.84066868
-3.71402097 0.67785454 -7.75338697
-3.51115847 0.68242937 -7.84962320
-3.30606675 0.68814778 -7.94414806
-3.05817986 0.64740521 -7.93074656
-3.09967518 0.69212615 -8.03564358
-3.56013179 0.71798128 -7.95391321
-3.35253787 0.72183269 -8.05004215
-3.14308667 0.72626096 -8.14368820
-2.89226723 0.69849962 -8.12325764
-2.93353772 0.73228240 -8.23247433
-3.39896941 0.74565464 -8.15825176
-3.18753409 0.74757051 -8.25355911
-2.97499394 0.75258517 -8.34450722
-2.72236609 0.73981887 -8.31678486
-2.76224852 0.76010227 -8.43111515
-3.23147297 0.76081580 -8.36397934
-3.01769137 0.76448148 -8.45675468
-2.80382204 0.77005345 -8.54581642
-2.54825211 0.77071810 -8.51244354
-2.58745003 0.77989680 -8.62957859
-3.06100488 0.76406127 -8.56879711
-2.84611893 0.76980901 -8.65989113
-2.62770391 0.77961338 -8.74600983
-2.36900592 0.78890955 -8.70736885
-2.40500760 0.78491145 -8.82591152
-2.88838649 0.76278073 -8.77231407
-2.66767454 0.77002394 -8.86017323
-2.44179130 0.77460867 -8.93989849
-2.18093300 0.78709137 -8.89586163
-2.21279979 0.77667111 -9.01089573
-2.70697021 0.75512677 -8.97070980
-2.47650290 0.76085496 -9.05358315
-2.24302435 0.76348460 -9.12074852
-2.01053333 0.76734567 -9.18114853
-1.98349535 0.77947652 -9.07065105
-2.26963234 0.75336730 -9.21736526
-2.50645351 0.74825478 -9.14950657
-2.03391552 0.75688630 -9.27456951
-1.79524636 0.75727725 -9.33050251
-1.77455246 0.76897818 -9.23219395
-2.05512738 0.74941802 -9.36168480
-2.29428506 0.74758041 -9.30379677
-1.81368232 0.75267315 -9.41584873
-1.56589317 0.75551778 -9.46145916
-1.55082965 0.75920302 -9.37401104
-1.83091581 0.75188154 -9.49787140
-2.07643700 0.74883163 -9.44395256
-1.58185589 0.75809836 -9.54691315
-1.33302093 0.76430571 -9.58161545
-1.31648147 0.75823522 -9.49735355
-1.84764111 0.76006311 -9.57656097
-1.59815097 0.76655382 -9.62965012
-1.35002959 0.77414906 -9.66480064
-1.09991407 0.77944726 -9.68931675
-1.08663940 0.76656371 -9.60852623
-1.36860228 0.79877269 -9.74487877
-1.61576581 0.78821540 -9.70946407
-1.11300290 0.80469626 -9.76396942
-0.85119629 0.77888030 -9.72191715
-0.85620111 0.80691534 -9.79772282
-1.12488937 0.85979867 -9.81394005
-1.38592374 0.86116719 -9.79486847
-0.86108869 0.86799014 -9.84452629
-0.60581183 0.81173438 -9.82559109
-0.60995644 0.88433415 -9.86441803
-1.13699102 0.92839044 -9.84900284
-0.86315125 0.94193882 -9.87871933
-0.61810893 0.96267176 -9.91171074
-0.36826706 0.96092194 -9.91987228
-0.36283213 0.88288730 -9.87954044
-0.86610335 1.01643491 -9.91223907
-0.61993688 1.04907382 -9.94579697
-0.38036865 1.04651284 -9.95513153
-0.12036065 1.02249527 -9.94885540
-0.11131869 0.94319975 -9.91663742
-0.39198145 1.13700092 -9.98490715
-0.62586057 1.14600372 -9.97556114
-0.12493539 1.10342336 -9.96201324
0.14831784 1.08545673 -9.95272732
0.15550256 1.00745165 -9.94652939
0.66908646 1.07645392 -9.94881725
0.66112953 1.17374551 -9.98056602
0.91750115 1.14196670 -9.93793678
0.91591758 1.06027627 -9.91992188
0.43857977 1.04874158 -9.95106506
0.41891226 1.12681544 -9.96950150
0.67720962 0.98835105 -9.91660786
0.43422985 0.96665996 -9.92314720
0.15550256 1.00745165 -9.94652939
0.15983292 0.93797016 -9.91479015
0.14831784 1.08545673 -9.95272732
0.43124846 0.89227146 -9.88570881
0.16343993 0.86949551 -9.88571835
-0.10548294 0.87073684 -9.88387108
0.15983292 0.93797016 -9.91479015
0.16343993 0.86949551 -9.88571835
-0.09815162 0.81015092 -9.84722424
0.16655819 0.81505793 -9.84764385
-0.35626322 0.81000417 -9.84315777
-0.34506094 0.77728695 -9.76902294
-0.08861111 0.78380692 -9.77630615
-0.60110027 0.77910513 -9.75066566
-0.59317261 0.76470637 -9.66879940
-0.33681080 0.76524407 -9.68836880
-0.84324914 0.76686668 -9.63964939
-0.58411109 0.75743365 -9.58483124
-0.83277017 0.76045430 -9.55533981
-1.07450855 0.76118737 -9.52456760
-1.06139028 0.75922263 -9.43807793
-0.82102054 0.75952560 -9.46864414
-1.30269861 0.76030755 -9.40884972
-1.28786969 0.76414925 -9.31235027
-1.04812551 0.76265359 -9.34543896
-1.53333235 0.76654416 -9.27834225
-1.51245272 0.77630943 -9.16709232
-1.27095878 0.77062041 -9.20520496
-1.75119984 0.77953529 -9.12259579
-1.72542286 0.78815687 -9.00476646
-1.49026334 0.78377765 -9.04905701
-1.95498133 0.78836215 -8.95448303
-1.92542160 0.78818613 -8.83421040
-1.69849253 0.79084504 -8.88386822
-2.14827418 0.78930056 -8.77650738
-1.89481568 0.78316182 -8.71123028
-2.11455011 0.78106993 -8.65489578
-2.33243728 0.77952540 -8.58730125
-2.08203816 0.76249719 -8.53323555
-2.29691458 0.75728714 -8.46806431
-2.51041269 0.74939865 -8.39560127
-2.26259422 0.72898811 -8.35021591
-2.47333574 0.71737534 -8.28114510
-2.68382287 0.70496088 -8.20584679
-2.43785191 0.67568451 -8.16925907
-2.64619875 0.66414016 -8.09594631
-2.85268784 0.65387619 -8.01635647
-2.60935616 0.61463892 -7.98923111
-2.81374383 0.60533309 -7.91079617
-3.01705599 0.59652579 -7.82777548
-2.77619767 0.54789454 -7.80868530
-2.97609854 0.54050457 -7.72668123
-3.17378044 0.53522611 -7.64044571
-2.93524837 0.48052454 -7.62737608
-3.13170838 0.47161937 -7.54409218
-3.32452226 0.46801239 -7.45425940
-3.08896208 0.40499240 -7.44953775
-3.27997708 0.39944994 -7.36157131
-3.46821642 0.39370200 -7.27091742
-3.23517799 0.33071128 -7.26924610
-3.42128587 0.32411316 -7.17972517
-3.60420775 0.31862924 -7.08670568
-3.37506938 0.25175783 -7.09029293
-3.55576229 0.24588294 -6.99822140
-3.73309207 0.23984194 -6.90245438
-3.50710177 0.17220797 -6.91031408
-3.68262339 0.16596168 -6.81561232
-3.85492945 0.16096662 -6.71694279
-3.63301468 0.08992127 -6.73016834
-3.80430388 0.08327412 -6.63361979
-3.97236705 0.07881677 -6.53194857
-3.75339532 0.00679369 -6.54918242
-3.91819358 0.00181821 -6.44947624
-4.08087063 -0.00348970 -6.34520531
-3.86475325 -0.07651958 -6.36694527
-4.02547550 -0.08071292 -6.26423788
-4.18230724 -0.08244313 -6.15514803
-3.96968913 -0.15825887 -6.18202972
-4.12430191 -0.15926568 -6.07448339
-4.27681303 -0.15967624 -5.96276379
-4.06708813 -0.23738851 -5.99451351
-4.21776152 -0.23778899 -5.88416243
-4.36564875 -0.23840500 -5.76939344
-4.15827990 -0.31547180 -5.80490589
-4.30506325 -0.31658638 -5.69251156
-4.44811201 -0.31705546 -5.57425308
-4.24519014 -0.39488482 -5.61509275
-4.38636255 -0.39545161 -5.49843693
-4.52476788 -0.39802268 -5.37726450
-4.32537556 -0.47533411 -5.42318821
-4.46087790 -0.47611606 -5.30297375
-4.59502172 -0.48039758 -5.18104935
-4.39806318 -0.55589038 -5.23042345
-4.52844381 -0.55731785 -5.10758924
-4.65631199 -0.55975169 -4.98305416
-4.46317530 -0.63617337 -5.03497982
-4.58938169 -0.63863671 -4.91171551
-4.71351576 -0.64037663 -4.78633022
-4.52215815 -0.71709174 -4.84063101
-4.64593077 -0.71985823 -4.71680975
-4.76554871 -0.71983850 -4.58914661
-4.57750463 -0.79779500 -4.64670277
-4.69571543 -0.79816639 -4.52054548
-4.81365204 -0.80139226 -4.39351797
-4.62879467 -0.88123524 -4.45460224
-4.74259663 -0.88166553 -4.32730103
-4.85372972 -0.88426572 -4.19929647
-4.67168808 -0.96258390 -4.26151466
-4.78133535 -0.96647429 -4.13576794
-4.88691664 -0.96930903 -4.00667810
-4.70348644 -1.03871214 -4.06700993
-4.80857849 -1.04300332 -3.93954229
-4.90819645 -1.04658127 -3.81033540
-4.72432661 -1.10581827 -3.86847758
-4.82359314 -1.11176181 -3.74120545
-4.91821623 -1.11504626 -3.61007261
-4.73341799 -1.16617954 -3.66900682
-4.82498121 -1.16695189 -3.53950596
-4.91416931 -1.16887748 -3.40811920
-4.72935152 -1.20887744 -3.46668172
-4.81523514 -1.20867193 -3.33710289
-4.89861679 -1.20604229 -3.20439601
-4.71518707 -1.24032366 -3.26430750
-4.79795313 -1.24184883 -3.13443565
-4.87707281 -1.23931682 -3.00146484
-4.69641876 -1.27119339 -3.06338024
-4.77483463 -1.27188778 -2.93327379
-4.84862709 -1.26935577 -2.80077243
-4.67690754 -1.31782079 -2.86781001
-4.74954700 -1.31762540 -2.73786950
-4.81901836 -1.31828988 -2.60597396
-4.60044670 -1.31814337 -2.99590278
-4.51914740 -1.31437004 -3.12040830
-4.61425924 -1.26830018 -3.19084764
-4.43621540 -1.31151593 -3.24363327
-4.53092670 -1.26865220 -3.31694674
-4.62976265 -1.23888695 -3.39155984
-4.44482756 -1.26818275 -3.44102192
-4.54208946 -1.23964953 -3.51767850
-4.63836479 -1.20733297 -3.59407067
-4.45128870 -1.23901403 -3.64207625
-4.54614639 -1.20608151 -3.71989584
-4.63669300 -1.15806627 -3.79422569
-4.44876671 -1.20343244 -3.84350204
-4.53685999 -1.15741146 -3.92040300
-4.62249947 -1.10365808 -3.99528980
-4.43499327 -1.15739167 -4.04379416
-4.51776934 -1.10136080 -4.12007856
-4.59765148 -1.03887844 -4.19391060
-4.40901136 -1.09970880 -4.24176884
-4.48624420 -1.03453839 -4.31636286
-4.55900049 -0.95968062 -4.38609838
-4.37235498 -1.03185987 -4.43627405
-4.44269609 -0.95690441 -4.50780821
-4.50990009 -0.87737429 -4.57681084
-4.32504320 -0.95684588 -4.62850189
-4.39053631 -0.87643576 -4.69840336
-4.45683098 -0.79744297 -4.76949739
-4.26842594 -0.87471521 -4.81806040
-4.33363533 -0.79616249 -4.89061117
-4.39801455 -0.71559608 -4.96240902
-4.20898342 -0.79435432 -5.00820589
-4.27195454 -0.71491182 -5.08241796
-4.33477926 -0.63454121 -5.15579987
-4.14119291 -0.71284938 -5.19682598
-4.20292282 -0.63429660 -5.27255392
-4.26378250 -0.55437535 -5.34733343
-4.06674623 -0.63263500 -5.38371611
-4.12645245 -0.55310452 -5.46170187
-4.18558168 -0.47380897 -5.53803587
-3.98470354 -0.55105180 -5.56858301
-4.04208374 -0.47280216 -5.64775181
-4.09962940 -0.39415172 -5.72686148
-3.95277810 -0.39438626 -5.83416319
-3.89561319 -0.47217646 -5.75323439
-4.00928783 -0.31497324 -5.91381979
-3.85828209 -0.31407419 -6.01899052
-3.80189943 -0.39025128 -5.93547201
-3.91391206 -0.23645963 -6.10060310
-3.75737381 -0.23199241 -6.20049429
-3.70348358 -0.30970466 -6.11719131
-3.81128335 -0.15443675 -6.28403234
-3.65017033 -0.14838623 -6.38075733
-3.59780478 -0.22512077 -6.29559660
-3.70109844 -0.06841592 -6.46354246
-3.48555732 -0.13900205 -6.47226238
-3.53439379 -0.06212078 -6.55761862
-3.58388519 0.01408594 -6.64371729
-3.36519647 -0.05575721 -6.64916229
-3.41206813 0.02209172 -6.73458624
-3.45941877 0.09666611 -6.82285547
-3.23872614 0.02748763 -6.82448816
-3.28334951 0.10472073 -6.91141844
-3.32902861 0.17838584 -7.00092888
-3.10426950 0.11135800 -6.99815273
-3.14795446 0.18494499 -7.08833790
-3.19123888 0.25839511 -7.17852306
-2.96428061 0.19133782 -7.17251158
-3.00571728 0.26487595 -7.26366425
-3.04720283 0.33545220 -7.35627317
-2.81750727 0.27075085 -7.34492493
-2.85645127 0.34240234 -7.43813992
-2.89592314 0.41190335 -7.53272390
-2.66398931 0.35014430 -7.51569605
-2.70115423 0.41993842 -7.61100292
-2.73834848 0.48566633 -7.70907640
-2.50420547 0.42992869 -7.68365192
-2.53948379 0.49541202 -7.78320122
-2.57398987 0.55867648 -7.88440275
-2.33877158 0.50716180 -7.85036612
-2.37143993 0.56810945 -7.95391321
-2.40418649 0.62655485 -8.05893707
-2.16666126 0.57880342 -8.01794052
-2.19830322 0.63501036 -8.12567234
-2.22940755 0.68561608 -8.23670769
-1.98986888 0.64367110 -8.18573093
-2.01906681 0.69260514 -8.29802608
-2.04977059 0.73541039 -8.41323662
-1.80627275 0.69840193 -8.35193634
-1.83448362 0.73794210 -8.46882725
-1.86429775 0.76586956 -8.58906078
-1.64381051 0.76638770 -8.63957882
-1.61674333 0.74021006 -8.51864147
-1.67105377 0.78494090 -8.76126862
-1.44267797 0.78104067 -8.80623436
-1.41904187 0.76775622 -8.68390846
-1.46715486 0.78582054 -8.92826653
-1.23235691 0.78089392 -8.96805096
-1.21172166 0.77577186 -8.84640026
-1.25254250 0.77822530 -9.08821678
-1.01585782 0.77352351 -9.12154007
-0.99902511 0.77455962 -9.00251865
-1.03259277 0.76833290 -9.23720932
-0.79381645 0.76689595 -9.26747227
-0.77922213 0.77306414 -9.15205765
-0.80833238 0.76135349 -9.37972069
-0.56279165 0.76013154 -9.40904522
-0.55065089 0.76673955 -9.29720879
-0.57326078 0.75571334 -9.49768543
-0.32060367 0.75546890 -9.52176189
-0.31300840 0.75930077 -9.43165493
-0.32877564 0.75882179 -9.60604286
-0.07573730 0.76479435 -9.62017822
-0.06996022 0.76341617 -9.53593636
-0.08229640 0.77105033 -9.70076370
0.16984263 0.77359194 -9.70854473
0.17352784 0.76686668 -9.63031483
0.16834703 0.78820574 -9.78253269
0.42546156 0.77641696 -9.71192741
0.16984263 0.77359194 -9.70854473
0.16834703 0.78820574 -9.78253269
0.42661506 0.79071790 -9.78773308
0.16655819 0.81505793 -9.84764385
0.43111160 0.82270205 -9.85609055
0.68339723 0.79505813 -9.77945328
0.68323106 0.82970101 -9.84976482
0.68025947 0.90556562 -9.87959003
0.93299478 0.89931929 -9.85098743
0.93943655 0.82664144 -9.82496643
0.92759883 0.97742236 -9.88805485
1.19782186 0.95789182 -9.85190678
1.20173192 0.88759899 -9.82171154
1.19404864 1.03126371 -9.88060665
1.46693039 0.97697282 -9.82248306
1.47487760 1.06176198 -9.85407639
1.18739188 1.11383390 -9.87501431
1.45821106 1.14361882 -9.85739994
1.71737850 1.18055880 -9.85515213
1.72261775 1.07918119 -9.82196522
2.22997499 1.04277873 -9.68915081
2.21626067 1.13053966 -9.67608166
2.47564292 1.14341354 -9.61411667
2.49773479 1.06384408 -9.63283730
1.96503055 1.06528103 -9.76590538
1.95958579 1.16360891 -9.78847504
1.97259653 0.97454852 -9.73296356
2.23324966 0.95998359 -9.67099857
1.72208023 0.98858559 -9.78538609
1.71971464 0.91021854 -9.74590492
1.97332001 0.89410925 -9.70306110
1.46525896 0.90398210 -9.78228760
1.46231663 0.83515567 -9.75770378
1.71910846 0.83941740 -9.71777248
1.20302224 0.82513607 -9.78788948
1.45338213 0.80780488 -9.69133091
1.19881892 0.80171502 -9.72179031
0.94108856 0.79920262 -9.75439072
0.94141108 0.78399265 -9.67969799
1.19331551 0.78964269 -9.65026569
0.68379802 0.78038567 -9.70296383
0.68322128 0.77291739 -9.62400055
0.94031632 0.77770716 -9.60266113
0.42554957 0.76955485 -9.63256359
0.42565706 0.76776594 -9.55122471
0.68234152 0.77192050 -9.54301262
0.17608891 0.76672983 -9.54880047
0.17352784 0.76686668 -9.63031483
0.42703536 0.77308369 -9.46524239
0.18001851 0.76999468 -9.45547676
0.17608891 0.76672983 -9.54880047
0.18001851 0.76999468 -9.45547676
-0.06481852 0.76643658 -9.44717789
-0.05828875 0.77208662 -9.34004307
0.18409471 0.77395368 -9.35155773
-0.30366337 0.76823521 -9.32121563
-0.05188605 0.78458887 -9.22083569
-0.29451391 0.77877271 -9.20270252
-0.53827566 0.77421749 -9.17917347
-0.28617573 0.79019976 -9.08017159
-0.52656507 0.78621173 -9.05871487
-0.76458889 0.78148049 -9.03248882
-0.51470792 0.78263402 -8.93682957
-0.74996531 0.77891946 -8.91121864
-0.98129314 0.77261442 -8.88142395
-0.73450112 0.76251674 -8.78987026
-0.96355128 0.75945717 -8.75992966
-1.19162405 0.76178366 -8.72489548
-0.94659150 0.73643678 -8.63941193
-1.17153621 0.73555696 -8.60453510
-1.39588463 0.74097240 -8.56310749
-1.15194690 0.70202845 -8.48616791
-1.37261987 0.70361197 -8.44517136
-1.59059489 0.70394439 -8.40034199
-1.35055745 0.65785474 -8.33048916
-1.56561947 0.65588999 -8.28614044
-1.77905881 0.65034753 -8.23830986
-1.54167056 0.60050416 -8.17588711
-1.75293970 0.59539181 -8.12847805
-1.96122766 0.58760101 -8.07714844
-1.72638083 0.53290933 -8.02260399
-1.93229342 0.52583224 -7.97164583
-2.13585997 0.51703465 -7.91404104
-1.90440512 0.46059316 -7.86805916
-2.10586023 0.45064202 -7.81240940
-2.30634737 0.43923455 -7.75091410
-2.07559633 0.38094559 -7.71307468
-2.27312207 0.37064263 -7.65238142
-2.46950388 0.36037883 -7.58671141
-2.24131393 0.29885429 -7.55562735
-2.43511486 0.28875661 -7.49100399
-2.62701964 0.27871746 -7.42112112
-2.40061855 0.21600042 -7.39600945
-2.59053922 0.20641117 -7.32697773
-2.77878809 0.19811212 -7.25222731
-2.55421495 0.13280462 -7.23351765
-2.74003959 0.12443714 -7.15962791
-2.92347908 0.11741859 -7.08107471
-2.70151591 0.04875824 -7.06903219
-2.88229656 0.04223825 -6.99105597
-3.06220746 0.03391962 -6.91072416
-2.84241414 -0.03440829 -6.90149689
-3.01868868 -0.03827927 -6.81918049
-3.19290042 -0.04696930 -6.73561335
-2.97617674 -0.11496497 -6.73067713
-3.14761257 -0.12191509 -6.64634705
-3.31806087 -0.13141635 -6.56171417
-3.10345817 -0.20212945 -6.56147957
-3.27159977 -0.20961748 -6.47570276
-3.43652558 -0.21877642 -6.38856792
-3.22346735 -0.28635201 -6.38889980
-3.38671160 -0.29605836 -6.30274248
-3.54599690 -0.30300868 -6.21144247
-3.33646750 -0.37419087 -6.21801138
-3.49425721 -0.38148314 -6.12737656
-3.64958382 -0.38752434 -6.03393698
-3.44161820 -0.45873600 -6.04336929
-3.59587932 -0.46547076 -5.95098495
-3.74700212 -0.46986976 -5.85417223
-3.54159784 -0.54238135 -5.86741829
-3.69081497 -0.54515749 -5.77079105
-3.83904457 -0.54920447 -5.67201376
-3.63632846 -0.62332916 -5.68965721
-3.78276944 -0.62580216 -5.59096813
-3.92704010 -0.62984914 -5.48963928
-3.72677755 -0.70360208 -5.51092958
-3.86915207 -0.70809877 -5.41041183
-4.00837851 -0.71285909 -5.30682516
-3.81226087 -0.78670037 -5.33208418
-3.94918084 -0.79207671 -5.22908401
-4.08040190 -0.79234070 -5.12067795
-3.89004135 -0.87121606 -5.15207577
-4.01947355 -0.87235969 -5.04465675
-4.14573860 -0.87364990 -4.93364096
-3.95924926 -0.95350254 -4.96952534
-4.08223915 -0.95277953 -4.85872459
-4.20305014 -0.95239806 -4.74434614
-4.01720572 -1.02777374 -4.78070021
-4.13767385 -1.02839947 -4.66919518
-4.25576687 -1.03047204 -4.55475807
-4.06765509 -1.09697187 -4.59032965
-4.18419409 -1.09861410 -4.47720242
-4.29910040 -1.10038340 -4.36136723
-4.10697079 -1.15228903 -4.39427996
-4.21933508 -1.15434182 -4.28064489
-4.32813215 -1.15480161 -4.16253185
-4.13758612 -1.20195663 -4.19754648
-4.24426174 -1.20160460 -4.08228827
-4.34836674 -1.20355964 -3.96428323
-4.15770340 -1.23658955 -3.99801707
-4.25866079 -1.23596418 -3.88205528
-4.35659742 -1.23490858 -3.76342463
-4.17023468 -1.26798725 -3.79881048
-4.26606035 -1.26791906 -3.68225193
-4.35685110 -1.26970780 -3.56328893
-4.17586565 -1.30922866 -3.60399270
-4.26461363 -1.30886698 -3.48620248
-4.35194445 -1.31140816 -3.36621284
-1.50425136 -1.29702914 -5.31424475
-1.36535692 -1.29299188 -5.35636568
-1.33647156 -1.35092902 -5.25233889
-1.47360647 -1.35814297 -5.21627855
-1.22500598 -1.28933609 -5.39170265
-1.19819295 -1.34763491 -5.28800821
-1.39656889 -1.25419486 -5.46832991
-1.25265980 -1.25132060 -5.50645256
-1.10863340 -1.24795818 -5.53911114
-1.28227830 -1.22083235 -5.62363625
-1.13513374 -1.21693182 -5.65765381
-0.98732436 -1.21463490 -5.68895340
-1.16180992 -1.18240631 -5.77597189
-1.01190877 -1.18240631 -5.80903101
-0.86006230 -1.17883849 -5.83690977
-1.03460658 -1.13538814 -5.92491484
-0.88112766 -1.13209367 -5.95360518
-0.72541022 -1.12960124 -5.97919559
-0.90166515 -1.07553506 -6.06556940
-0.74333775 -1.07235813 -6.09155130
-0.58427733 -1.06710887 -6.11403370
-0.76086456 -1.00358069 -6.19707346
-0.59919411 -0.99781317 -6.21961498
-0.43608671 -0.99171340 -6.23897886
-0.61388606 -0.92046297 -6.31975079
-0.44849133 -0.91445118 -6.33925247
-0.28094605 -0.90527248 -6.35250711
-0.45966426 -0.83144093 -6.43475485
-0.28947973 -0.82532179 -6.45065928
-0.11766272 -0.81946665 -6.46121645
-0.29709452 -0.74289805 -6.54605436
-0.12304880 -0.73736542 -6.55735445
0.05190600 -0.73079664 -6.56300449
0.22797516 -0.72475541 -6.56438255
-0.12818073 -0.65599740 -6.65461636
0.04945245 -0.64976078 -6.65991497
0.22799471 -0.64416963 -6.66199636
0.22799471 -0.64416963 -6.66199636
0.04725305 -0.56987864 -6.75771475
0.22762327 -0.56450230 -6.75991392
0.22762327 -0.56450230 -6.75991392
0.40985075 -0.55943882 -6.75698137
0.22776012 -0.48452249 -6.85740089
0.41180575 -0.47937101 -6.85435152
0.59645748 -0.47602805 -6.84678555
0.41375104 -0.40050539 -6.95288420
0.60118866 -0.39540276 -6.94386244
0.78838193 -0.39278319 -6.93177986
0.60582203 -0.31503215 -7.04091883
0.79541993 -0.31095570 -7.02762461
0.98429447 -0.30590194 -7.01036215
0.80225271 -0.23049673 -7.12455463
0.99373728 -0.22524756 -7.10738993
1.18462551 -0.21993014 -7.08583498
1.00296485 -0.14576630 -7.20497465
1.19610143 -0.14000887 -7.18317604
1.38869047 -0.13332257 -7.15600109
1.20694208 -0.06038087 -7.28135729
1.40246367 -0.05369457 -7.25312662
1.59765279 -0.04708657 -7.21922636
1.41531789 0.02487758 -7.35142517
1.61345923 0.03110448 -7.31750536
1.81162989 0.03706719 -7.27742767
1.62898219 0.10912924 -7.41560841
1.82973337 0.11440787 -7.37553024
2.02986884 0.11882626 -7.32864904
2.05045509 0.19609833 -7.42646837
1.84748507 0.19167025 -7.47361374
2.25231123 0.19952948 -7.37399626
2.27523375 0.27575576 -7.47202063
2.07058215 0.27236378 -7.52485514
2.47817469 0.27898148 -7.41298866
2.50368762 0.35335040 -7.51187372
2.29772615 0.35071126 -7.57094431
2.70752788 0.35634172 -7.44699621
2.73609090 0.42896086 -7.54627228
2.52915192 0.42634112 -7.61170721
2.94110394 0.43315440 -7.47520733
2.97372365 0.50162905 -7.57590055
2.76623726 0.49880403 -7.64670134
3.17839456 0.50844234 -7.49848175
3.21356535 0.57494229 -7.60034800
3.00612807 0.56755239 -7.67841196
3.41953659 0.58131558 -7.51824713
3.45971227 0.63966328 -7.62298727
3.25084758 0.63310415 -7.70655489
3.66798067 0.64533287 -7.53426838
3.50134444 0.69283992 -7.72968245
3.71239901 0.69950640 -7.63999605
3.92134142 0.70406169 -7.54258728
3.97004151 0.74821585 -7.65082693
3.75801921 0.74263424 -7.74949694
4.17968798 0.75208682 -7.54701519
4.23285484 0.78443247 -7.65792322
4.01986504 0.78032690 -7.76271296
4.44268703 0.78556639 -7.54673195
4.49955893 0.80333763 -7.65899849
4.28691101 0.80398273 -7.77148104
4.71074963 0.80528283 -7.53796339
4.77025080 0.80966204 -7.64733696
4.55662537 0.80907547 -7.77181292
4.98059130 0.81057113 -7.51796341
5.04118729 0.80666119 -7.62214661
4.82760143 0.80521441 -7.75456953
5.24872255 0.80734545 -7.48727942
5.31061840 0.80095243 -7.58731794
5.10108900 0.79859668 -7.72380781
5.51619864 0.80328876 -7.44576502
5.57528925 0.79777563 -7.53818798
5.36931801 0.79474533 -7.68258619
5.78627491 0.79804927 -7.39125872
5.84206152 0.79405117 -7.47431803
5.63136911 0.79377747 -7.62487411
6.05078936 0.79568368 -7.31632280
6.10583258 0.79542953 -7.39415216
5.89463186 0.79299551 -7.55248928
6.30698538 0.79763877 -7.23063374
6.35844135 0.80604535 -7.30072165
6.15745544 0.80544895 -7.46858931
6.56222296 0.81034631 -7.13548326
6.40762997 0.82183206 -7.36681128
6.61496019 0.82936877 -7.19842482
6.82452774 0.83163649 -7.02948189
6.66273022 0.86207610 -7.25444651
6.87508392 0.87466657 -7.08423233
7.06773281 0.88958329 -6.90026474
7.08896351 0.97469521 -6.93295288
6.89774418 0.95440197 -7.11579609
7.27129841 0.97038442 -6.73714828
7.28816032 1.05247569 -6.76356983
7.10698938 1.06229973 -6.96284533
7.47606754 1.05458701 -6.55384493
7.47832584 1.13526094 -6.57388401
7.29279470 1.13961089 -6.79630661
7.68413162 1.17385316 -6.36680794
7.66742611 1.25889659 -6.39677906
7.44953871 1.21831024 -6.56445122
7.86095333 1.29350042 -6.20140362
7.99095201 1.26062667 -5.94135618
2.99703717 1.12448895 -9.52231979
3.00681233 1.22458577 -9.54893684
3.24471879 1.17901433 -9.40063858
3.23436713 1.09739232 -9.42500782
2.76700950 1.11187887 -9.58792019
2.74301147 1.20443952 -9.60232830
2.99841547 1.03185022 -9.49046230
2.75604177 1.02053058 -9.55976772
2.50164485 0.98029625 -9.61240578
2.75268888 0.93525255 -9.51924038
2.49518347 0.90377682 -9.57762718
2.23185182 0.88813668 -9.63982582
2.23051262 0.82926118 -9.60776329
2.48921084 0.84068823 -9.54122448
1.97372067 0.82695431 -9.67779255
1.96618414 0.80126530 -9.60836887
2.22278070 0.80039537 -9.54562283
1.71141553 0.80114800 -9.65935612
1.70247138 0.78443247 -9.58726501
1.95841289 0.78529269 -9.53703117
1.44467258 0.78953511 -9.62137032
1.43558168 0.78069854 -9.54666901
1.69246173 0.77462804 -9.51140022
1.18858433 0.78138274 -9.57676697
1.18390214 0.78182256 -9.49938679
1.42877817 0.77745306 -9.47016907
0.93747169 0.77821565 -9.52349186
0.93426549 0.78156847 -9.44304276
1.17869198 0.78451073 -9.41621017
0.68026918 0.77516574 -9.46016884
0.67932105 0.77961338 -9.35233974
0.92928022 0.79024881 -9.33609390
0.42910770 0.77981865 -9.35571194
0.43101382 0.79495060 -9.23603535
0.67799163 0.79332793 -9.23053265
0.18884543 0.79033661 -9.23236084
0.18409471 0.77395368 -9.35155773
0.19281411 0.79577166 -9.10813808
0.43267560 0.80127501 -9.11155987
0.18884543 0.79033661 -9.23236084
0.19281411 0.79577166 -9.10813808
-0.04613829 0.79109919 -9.09734631
0.19652866 0.79271209 -8.98236179
-0.04008750 0.78875315 -8.97236156
-0.27729017 0.78614330 -8.95648670
-0.03422244 0.77373850 -8.84872627
-0.26864898 0.77045411 -8.83348656
-0.50286049 0.76610416 -8.81493378
-0.26019353 0.74583066 -8.71176720
-0.49101302 0.74089432 -8.69367409
-0.71977007 0.73821580 -8.66915798
-0.47964457 0.70532256 -8.57477951
-0.70539081 0.70177436 -8.55164146
-0.92993474 0.70262474 -8.52076244
-0.69205755 0.65985864 -8.43532753
-0.91330725 0.65910596 -8.40524960
-1.13243580 0.65959466 -8.36999035
-0.89668959 0.60963422 -8.29231834
-1.11293447 0.60771829 -8.25751877
-1.32829952 0.60424799 -8.21924877
-1.09408808 0.54948789 -8.14847755
-1.30670631 0.54450268 -8.11125374
-1.51819074 0.53891122 -8.06917191
-1.28587556 0.48023129 -8.00577068
-1.49472070 0.47346684 -7.96526241
-1.70097542 0.46804166 -7.91811752
-1.47160256 0.40340874 -7.86430550
-1.67545247 0.39566696 -7.81932974
-1.87636018 0.38862884 -7.76873446
-1.64929438 0.32329205 -7.72092390
-1.84840345 0.31693819 -7.66998625
-2.04560637 0.30825785 -7.61630106
-1.82081819 0.24187513 -7.57414150
-2.01588035 0.23488604 -7.51911688
-2.20906568 0.22570714 -7.45991898
-1.98575342 0.16068323 -7.42383909
-2.17697406 0.15160203 -7.36501265
-2.36653304 0.14140664 -7.30177784
-2.14484334 0.07665643 -7.27061462
-2.33218312 0.06757524 -7.20797539
-2.51806664 0.05819126 -7.14096689
-2.29813647 -0.00777123 -7.11478949
-2.48196697 -0.01708678 -7.04878759
-2.66318774 -0.02676422 -6.97774220
-2.44558406 -0.09380194 -6.95750809
-2.62432194 -0.10213996 -6.88693142
-2.80203319 -0.11069332 -6.81194687
-2.58592534 -0.17911913 -6.79702997
-2.76083112 -0.18658701 -6.72230959
-2.93312716 -0.19214904 -6.64241743
-2.72015691 -0.26447529 -6.63412809
-2.89023399 -0.27017418 -6.55528212
-3.05783796 -0.27847323 -6.47386503
-2.84752655 -0.35089678 -6.47027779
-3.01264787 -0.35739738 -6.38853788
-3.17606783 -0.36616552 -6.30470705
-2.96687078 -0.43585244 -6.30292845
-3.12867832 -0.44510946 -6.22032833
-3.28623319 -0.45275334 -6.13359404
-3.07974386 -0.52332962 -6.13523626
-3.23627281 -0.53155071 -6.04960632
-3.38946819 -0.53612536 -5.95937204
-3.18506074 -0.60768902 -5.96397591
-3.33680987 -0.61299676 -5.87546301
-3.48723865 -0.61819708 -5.78393841
-3.28502131 -0.68975067 -5.79135752
-3.43440413 -0.69502932 -5.70088911
-3.58122611 -0.69873399 -5.60702848
-3.38215613 -0.77206701 -5.61823082
-3.52758050 -0.77726734 -5.52598286
-3.67153835 -0.78166598 -5.43067598
-3.47433567 -0.85580033 -5.44561243
-3.61661243 -0.86133331 -5.35161495
-3.75517440 -0.86707133 -5.25464582
-3.56140256 -0.94048232 -5.27228975
-3.69727635 -0.94391328 -5.17428446
-3.83031559 -0.95004213 -5.07459831
-3.63891912 -1.02066755 -5.09430456
-3.76879096 -1.02448940 -4.99397326
-3.89500713 -1.02731442 -4.88961411
-3.70427513 -1.09146833 -4.90926218
-3.82754898 -1.09346259 -4.80629110
-3.94992352 -1.09833062 -4.70080805
-3.75680685 -1.14921010 -4.71853018
-3.87574029 -1.14953268 -4.61292028
-3.99293423 -1.15138996 -4.50537443
-3.80072641 -1.19640422 -4.52420139
-3.91553497 -1.19840813 -4.41818047
-4.02800703 -1.20016778 -4.30977440
-3.83523250 -1.23389173 -4.32795620
-3.94548583 -1.23464453 -4.22138786
-4.05243540 -1.23573935 -4.11087084
-3.86289573 -1.26514292 -4.13089991
-3.96771431 -1.26759613 -4.02418518
-4.07021618 -1.26804590 -3.91259241
-3.88500714 -1.30314827 -3.93688369
-3.98523140 -1.30528903 -3.82796931
-4.08192635 -1.30566049 -3.71645498
-3.78168440 -1.30278659 -4.04261112
-3.67486191 -1.29690194 -4.14377356
-3.75523305 -1.26472223 -4.23555231
-3.56823540 -1.29959011 -4.24575758
-3.64541936 -1.26495719 -4.33821058
-3.72419691 -1.23591530 -4.43238354
-3.53240943 -1.25986421 -4.43643045
-3.60798073 -1.22939539 -4.53255892
-3.68347383 -1.19553423 -4.62724066
-3.49081612 -1.22965896 -4.63051510
-3.56413960 -1.19426346 -4.72729874
-3.63520432 -1.14801753 -4.81988811
-3.44163799 -1.18984509 -4.82306528
-3.51188183 -1.14747012 -4.91929150
-3.57630968 -1.08637583 -5.00784397
-3.38213682 -1.13938594 -5.01133347
-3.44532323 -1.08313048 -5.10339594
-3.50476527 -1.01513469 -5.19013977
-3.31198096 -1.08037376 -5.19551611
-3.36848092 -1.01099968 -5.28276873
-3.42221475 -0.93545800 -5.36572027
-3.22823739 -1.00513482 -5.37147760
-3.27954721 -0.92852747 -5.45477152
-3.33112049 -0.85058063 -5.53708792
-3.13641024 -0.92420679 -5.54306030
-3.18501186 -0.84481311 -5.62520981
-3.23442531 -0.76690584 -5.70825958
-3.03798461 -0.84218389 -5.71251202
-3.08522797 -0.76194006 -5.79493570
-3.13478780 -0.68479496 -5.87944078
-2.93505287 -0.75750190 -5.88006639
-2.98316598 -0.68024945 -5.96545267
-3.03121066 -0.60191184 -6.05027103
-2.82904172 -0.67336774 -6.04668283
-2.87561035 -0.59468782 -6.13233280
-2.92173934 -0.51603734 -6.21813869
-2.71734166 -0.58768904 -6.21011353
-2.76039147 -0.50946850 -6.29761982
-2.80418372 -0.43022180 -6.38374853
-2.63937545 -0.42379951 -6.46004343
-2.59738159 -0.50165832 -6.37181330
-2.67935562 -0.34320405 -6.54660177
-2.47149801 -0.41595984 -6.53091288
-2.50935698 -0.33638090 -6.61904478
-2.54778266 -0.25770098 -6.70814466
-2.33787227 -0.32974344 -6.68763733
-2.37370777 -0.25033078 -6.77719641
-2.40933800 -0.17123063 -6.86695147
-2.19795132 -0.24215852 -6.84128237
-2.23060036 -0.16252102 -6.93177986
-2.26448083 -0.08427123 -7.02257109
-2.05114889 -0.15465191 -6.99155521
-2.08137369 -0.07574732 -7.08335257
-2.11310339 0.00067456 -7.17694950
-1.89771879 -0.06847465 -7.14053679
-1.92700505 0.00814263 -7.23453426
-1.95671165 0.08487718 -7.32870770
-1.76631212 0.09101607 -7.38238335
-1.73908854 0.01473104 -7.28695822
-1.79335010 0.16708595 -7.47794437
-1.59961736 0.17237428 -7.52761126
-1.57471037 0.09655853 -7.43119001
-1.62470019 0.24781844 -7.62404299
-1.42556179 0.25355649 -7.66964388
-1.40307903 0.18017478 -7.57051468
-1.44829869 0.33095571 -7.76540089
-1.24483001 0.33733884 -7.80505848
-1.22491801 0.26173827 -7.70725822
-1.26525986 0.41022199 -7.90456867
-1.05793965 0.41516820 -7.94073677
-1.03987527 0.34351671 -7.84005356
-1.07598448 0.48417068 -8.04330730
-0.86459798 0.49073952 -8.07455730
-0.84911418 0.42165893 -7.97103930
-0.88085395 0.55262578 -8.18241596
-0.66561592 0.54942936 -8.21353054
-0.65243912 0.48745510 -8.10577965
-0.67854840 0.60698497 -8.32337379
-0.45807093 0.60980999 -8.34585667
-0.44834471 0.55219561 -8.23566151
-0.46863782 0.66180384 -8.45857334
-0.24386908 0.66483414 -8.47672558
-0.23600990 0.61349529 -8.36333370
-0.25217792 0.70875376 -8.59292221
-0.01828901 0.67015171 -8.48859215
-0.02330365 0.71560597 -8.60542393
-0.02864085 0.74980921 -8.72640133
0.20226663 0.75412971 -8.73340034
0.20436829 0.71962368 -8.61173916
0.19997928 0.77959383 -8.85715294
0.19997928 0.77959383 -8.85715294
0.43404412 0.78390461 -8.85958672
0.43392685 0.75873375 -8.73508072
0.20226663 0.75412971 -8.73340034
0.19652866 0.79271209 -8.98236179
0.43432760 0.79769731 -8.98581314
0.67336804 0.79712063 -8.98170757
0.66996628 0.78435433 -8.85595989
0.67613435 0.79878241 -9.10710239
0.91879153 0.79993594 -9.09523487
0.91233021 0.79584008 -8.96986961
0.92428517 0.79877269 -9.21826458
1.16586697 0.80356246 -9.19873428
1.15740180 0.80901694 -9.07551861
1.17259228 0.79319108 -9.31257439
1.41607058 0.78862596 -9.28605461
1.40710688 0.79960352 -9.17108059
1.42379296 0.77935928 -9.39090252
1.67523789 0.77549815 -9.35227203
1.66477847 0.78352356 -9.25200844
1.68382037 0.77309340 -9.43253517
1.93846190 0.77295655 -9.38300514
1.92683935 0.77532220 -9.30029774
1.94895065 0.77751178 -9.46053123
2.19866538 0.77859670 -9.40112686
2.18517566 0.77412969 -9.32604504
2.21171498 0.78595740 -9.47486115
2.46392274 0.78454006 -9.41775513
2.44816518 0.77461833 -9.34327793
2.47949433 0.80091327 -9.48669910
2.71839786 0.78282940 -9.35940742
2.73695111 0.80143142 -9.43383503
2.74913073 0.85211527 -9.48610210
2.99389935 0.85943699 -9.42209435
2.98698831 0.80638748 -9.36173344
2.99655819 0.94419688 -9.45742226
3.23962593 0.93086362 -9.37064838
3.24036860 0.85756004 -9.33388424
3.23790526 1.01101947 -9.40266228
3.50401306 0.99599510 -9.29520416
3.50233173 0.92359096 -9.27083588
3.49811888 1.07371688 -9.29667091
3.76468563 1.09320843 -9.21594810
3.76938796 1.01527166 -9.20362091
3.48020101 1.15236735 -9.26545906
3.73925114 1.17135060 -9.19135380
4.00561285 1.23568058 -9.15942860
4.03676605 1.14358926 -9.14136410
4.25035238 1.06009054 -9.01077843
4.25163269 1.15673685 -9.04182434
4.47766209 1.12592590 -8.90585232
4.47949028 1.03833103 -8.88719177
4.02074480 1.04970920 -9.11267376
4.25486851 1.25584674 -9.05426788
4.01003122 0.96361011 -9.08353519
4.24586535 0.96945572 -8.97540283
3.75985670 0.93840998 -9.17725754
3.99809575 0.88898706 -9.04013348
3.75211525 0.86715919 -9.14257622
3.49262500 0.86914349 -9.22646618
3.47794294 0.83584958 -9.16722870
3.73482275 0.81511652 -9.09568501
3.23641014 0.81134343 -9.27031708
3.22118044 0.78927130 -9.19498062
3.45842218 0.81828368 -9.09862709
2.97165132 0.78464758 -9.28442287
2.95379210 0.77201819 -9.20510769
3.20060372 0.77886075 -9.11788368
2.69952226 0.77264369 -9.28141212
2.68001103 0.76939845 -9.20086479
2.93214035 0.76842088 -9.12457085
2.43147898 0.77315211 -9.26496029
2.41391325 0.77555674 -9.18440342
2.66013813 0.77184218 -9.11864662
2.17169595 0.77696437 -9.24636745
2.15614367 0.78194976 -9.16101170
2.39616156 0.78184217 -9.09683800
1.91451287 0.78101116 -9.21563530
1.89642894 0.79319108 -9.09540176
2.13563561 0.79409033 -9.04607677
1.65224695 0.79452044 -9.13792324
1.63621569 0.80347449 -9.01560783
1.87747490 0.80495059 -8.97392559
1.39664745 0.80763853 -9.04850960
1.38406694 0.81080568 -8.92418098
1.62096667 0.80934918 -8.89171791
1.14774394 0.80917335 -8.95035839
1.13706958 0.80151939 -8.82397556
1.37057722 0.80279994 -8.79830742
0.90543872 0.78446192 -8.84387779
1.12696207 0.77768779 -8.69939232
0.89798027 0.76422739 -8.71907997
0.66605622 0.76317173 -8.73051643
0.89001364 0.73369008 -8.59626484
0.66221464 0.72993636 -8.60827923
0.43317416 0.72409075 -8.61334229
0.65853918 0.68749285 -8.48869991
0.43282223 0.68088484 -8.49472141
0.20691958 0.67620265 -8.49335289
0.20436829 0.71962368 -8.61173916
0.43160036 0.63114905 -8.37882710
0.20861070 0.62471706 -8.37860298
0.20691958 0.67620265 -8.49335289
0.20861070 0.62471706 -8.37860298
-0.01433010 0.61877394 -8.37419415
0.21056572 0.56810945 -8.26657963
-0.00973580 0.56240088 -8.26196671
-0.22924553 0.55601776 -8.25250435
-0.00520993 0.49951756 -8.15361881
-0.22176757 0.49299756 -8.14491940
-0.43806130 0.49038771 -8.12771511
-0.21472950 0.42704496 -8.03879070
-0.42819822 0.42370179 -8.02224159
-0.63928181 0.42087698 -8.00059891
-0.41859907 0.35420096 -7.91872311
-0.62767875 0.35147363 -7.89716911
-0.83398235 0.35136607 -7.86846924
-0.61434555 0.27725124 -7.79692554
-0.81917298 0.27572632 -7.76947737
-1.02259290 0.26947033 -7.74054241
-0.80449080 0.20007688 -7.67093420
-1.00536919 0.19275536 -7.64289951
-1.20520163 0.18566839 -7.60964441
-0.98807704 0.11544395 -7.54561758
-1.18512356 0.10895342 -7.51291943
-1.38123178 0.10367478 -7.47378016
-1.16554403 0.03126073 -7.41650772
-1.35884678 0.02500474 -7.37897110
-1.55010641 0.01860202 -7.33595085
-1.33640313 -0.05206224 -7.28236437
-1.52504301 -0.05698887 -7.23923635
-1.71207023 -0.06353813 -7.19280481
-1.50065410 -0.13613789 -7.14514112
-1.68574584 -0.14222756 -7.09900284
-1.86933196 -0.14806330 -7.04824018
-1.65987110 -0.22089779 -7.00520039
-1.84090590 -0.22683123 -6.95514202
-2.01986861 -0.23411378 -6.90024519
-1.81259716 -0.30735844 -6.86330509
-1.98894012 -0.31431845 -6.80926800
-2.16437411 -0.32251981 -6.75159550
-1.95804095 -0.39488482 -6.71822309
-2.13109946 -0.40289077 -6.66149855
-2.30174327 -0.40928361 -6.59853649
-2.09693551 -0.48196149 -6.57028723
-2.26572204 -0.48893118 -6.50885057
-2.43307185 -0.49659485 -6.44322014
-2.22918272 -0.56779683 -6.41812754
-2.39325809 -0.57459050 -6.35343647
-2.55623817 -0.58085620 -6.28407192
-2.35475397 -0.65380776 -6.26406193
-2.51447892 -0.65880299 -6.19503021
-2.67275763 -0.66626120 -6.12346697
-2.47422528 -0.73942792 -6.10756254
-2.62947345 -0.74544936 -6.03615570
-2.78328466 -0.75190109 -5.96054506
-2.58770442 -0.82628942 -5.94936228
-2.73929667 -0.83195925 -5.87457323
-2.88987231 -0.83786321 -5.79580498
-2.69623733 -0.91033596 -5.78706598
-2.84434962 -0.91559488 -5.70990181
-2.99073195 -0.91968101 -5.62696981
-2.79907155 -0.99257368 -5.62262964
-2.94472051 -0.99891764 -5.54295254
-3.08681130 -0.99944568 -5.45731306
-2.89521933 -1.06901515 -5.45330524
-3.03585386 -1.07173276 -5.36953259
-3.17443538 -1.07314003 -5.28272009
-2.98145533 -1.12957180 -5.27456760
-3.11744642 -1.13150752 -5.18906498
-3.25151205 -1.13774371 -5.10254526
-3.05743718 -1.18120408 -5.09214449
-3.18850183 -1.18458617 -5.00535154
-3.31683922 -1.18778265 -4.91609478
-3.12272501 -1.22171199 -4.90637827
-3.24835491 -1.22410703 -4.81752253
-3.37102246 -1.22694170 -4.72564650
-3.17988014 -1.25601268 -4.71794367
-3.29990840 -1.25929713 -4.62742615
-3.41725874 -1.25959051 -4.53323317
-3.22878480 -1.28955114 -4.52907896
-3.34398460 -1.29307985 -4.43729067
-3.45697498 -1.29482019 -4.34195423
-3.27645826 -1.34706807 -4.34828854
-3.38635945 -1.34781086 -4.25348949
-3.49625134 -1.35265923 -4.15933561
-3.16224599 -1.34284508 -4.43753529
-3.04763269 -1.34008837 -4.52593136
-3.11144471 -1.29003036 -4.61920547
-2.92922688 -1.33501518 -4.60977268
-2.99058533 -1.28575850 -4.70491362
-3.05665517 -1.25556338 -4.80601740
-2.86896324 -1.28450716 -4.78866673
-2.93102551 -1.25108600 -4.89038658
-2.99518943 -1.22031403 -4.99203777
-2.80387092 -1.24858356 -4.97147083
-2.86429071 -1.21756732 -5.07507706
-2.92470098 -1.18256259 -5.17800903
-2.73196530 -1.21480119 -5.15422583
-2.78870010 -1.17735255 -5.25761747
-2.84336233 -1.12836957 -5.35764599
-2.65119362 -1.17334473 -5.33424473
-2.70340252 -1.12643397 -5.43631649
-2.75204349 -1.06313050 -5.53151608
-2.56181979 -1.12335491 -5.51078272
-2.60897493 -1.06109715 -5.60739994
-2.65356898 -0.98971957 -5.69998932
-2.46298385 -1.05636632 -5.67858267
-2.50610185 -0.98465604 -5.77162170
-2.54727459 -0.90675807 -5.86097622
-2.35705113 -0.98016906 -5.84090805
-2.39580941 -0.90006208 -5.92916727
-2.43519306 -0.82041454 -6.01906919
-2.24277997 -0.89462721 -5.99476767
-2.27973962 -0.81447142 -6.08444500
-2.31666994 -0.73315215 -6.17399454
-2.12234092 -0.80750167 -6.14610624
-2.15769768 -0.72802043 -6.23702431
-2.19304419 -0.64780569 -6.32758093
-1.99555790 -0.72019047 -6.29416990
-2.02956557 -0.64079720 -6.38615274
-2.06355357 -0.56206846 -6.47886038
-1.86418045 -0.63370037 -6.44130421
-1.89596915 -0.55425829 -6.53394270
-1.92691708 -0.47498208 -6.62644529
-1.72628307 -0.54721028 -6.58482218
-1.75522721 -0.46781701 -6.67875147
-1.78360426 -0.38771972 -6.77111626
-1.58179736 -0.46003589 -6.72573996
-1.60857117 -0.38042748 -6.81957102
-1.63420165 -0.30093613 -6.91276789
-1.43024409 -0.37338954 -6.86291456
-1.45304942 -0.29385906 -6.95682383
-1.47692013 -0.21494459 -7.05090857
-1.27064598 -0.28717312 -6.99648142
-1.29205346 -0.20804350 -7.09090853
-1.31410599 -0.12929535 -7.18595171
-1.12592554 -0.12443714 -7.22328329
-1.10624826 -0.20237407 -7.12697935
-1.14583743 -0.04571807 -7.31906939
-0.95383489 -0.04120199 -7.35211945
-0.93686527 -0.11994045 -7.25600100
-0.97099996 0.03780029 -7.44847202
-0.77606481 0.04404658 -7.47632170
-0.76139235 -0.03546413 -7.37984133
-0.79063952 0.12251134 -7.57330036
-0.57927245 0.05099671 -7.49883413
-0.59060174 0.12815168 -7.59715176
-0.60239059 0.20549218 -7.69492197
-0.38956702 0.13564922 -7.61438513
-0.39868718 0.20960759 -7.71528339
-0.40844274 0.28251031 -7.81660318
-0.20145492 0.28722197 -7.83141184
-0.19383034 0.21508163 -7.72910595
-0.20782827 0.35802290 -7.93479395
0.00775186 0.29321396 -7.83947611
0.00370496 0.36458206 -7.94272137
-0.00023441 0.43254843 -8.04814625
0.21421181 0.43835473 -8.05144978
0.21564877 0.36924487 -7.94617128
0.21217860 0.50614512 -8.15738297
0.21217860 0.50614512 -8.15738297
0.42953783 0.51090562 -8.15668869
0.42820838 0.44436646 -8.04935741
0.21421181 0.43835473 -8.05144978
0.21056572 0.56810945 -8.26657963
0.43046641 0.57450247 -8.26597404
0.64556760 0.51823682 -8.14912224
0.65000546 0.57934111 -8.25979614
0.65408170 0.63759094 -8.37222004
0.86836171 0.58813876 -8.24590588
0.87595695 0.64395452 -8.35944366
0.88321996 0.69336772 -8.47618771
1.10653222 0.70041555 -8.45789814
1.09661043 0.65240026 -8.34062672
1.11697197 0.74237019 -8.57763290
1.34334385 0.75142193 -8.55039024
1.33003998 0.71130508 -8.43013763
1.35676503 0.78253609 -8.67344856
1.58754539 0.78618222 -8.63998890
1.57095718 0.75657344 -8.51735020
1.60406542 0.80345494 -8.76558018
1.83750463 0.80542958 -8.72508049
1.81789577 0.78968179 -8.60115242
1.85711348 0.81051242 -8.84974384
2.09171581 0.81236011 -8.80218697
2.06903791 0.81080568 -8.67788696
2.11399341 0.80635804 -8.92539215
2.34879136 0.80629951 -8.87140465
2.32433414 0.81608433 -8.74883461
2.37361050 0.79322034 -8.99118900
2.61407804 0.79000437 -8.92236233
2.58743119 0.80440301 -8.80685997
2.63960075 0.77967215 -9.03225422
2.88521981 0.77757031 -8.95393562
2.85682321 0.78824490 -8.84888268
2.91011691 0.76933968 -9.04291916
3.15420103 0.77116781 -8.95878410
3.12704611 0.77743345 -8.86920547
3.17873669 0.77124590 -9.03953648
3.41294837 0.79092318 -8.95097446
3.38854980 0.77931041 -8.87481689
3.43665314 0.80312246 -9.02652550
3.67619157 0.78720862 -8.94796371
3.64946651 0.78095263 -8.86958694
3.70349360 0.79473543 -9.02333927
3.92235851 0.78210598 -8.86105347
3.95190859 0.79497987 -8.93355560
3.98325706 0.82202768 -9.00038719
4.22332382 0.82105011 -8.89941978
4.19828033 0.79299551 -8.82966518
4.23498583 0.88945615 -8.94056416
4.47118139 0.87928033 -8.82066250
4.46091747 0.81703258 -8.78295994
4.47801447 0.95517421 -8.85474873
4.72263622 0.96031600 -8.72837543
4.71159983 0.88777500 -8.69417286
4.72913647 1.03725588 -8.75865936
4.96923256 0.99891782 -8.60899162
4.97840166 1.08611178 -8.63581562
4.71970367 1.12185931 -8.76424980
4.96983862 1.17073476 -8.65179729
5.21240807 1.11961114 -8.51322556
5.21719790 1.21735227 -8.54422188
5.42472315 1.02863419 -8.33552361
5.42398024 1.11748993 -8.36808491
5.65004921 1.10636592 -8.19190788
5.65136909 1.02157652 -8.18082333
5.20247650 1.02733409 -8.48321629
5.42221117 1.20726454 -8.36243439
5.18905497 0.94147944 -8.44653034
5.41606283 0.94535023 -8.29966831
4.95712137 0.91564369 -8.57555199
5.17495966 0.86016017 -8.40888596
4.94344568 0.84151924 -8.53879738
4.69878483 0.82460827 -8.65808296
4.90995646 0.80333763 -8.47816277
4.67162991 0.79810786 -8.59523869
4.43598127 0.79427600 -8.71469116
4.40855265 0.77909529 -8.64413357
4.63992882 0.78391451 -8.52808380
4.17114449 0.77671027 -8.75780773
4.14226866 0.77063978 -8.68485641
4.37822008 0.77131432 -8.57246304
3.89402986 0.77280015 -8.78592205
3.86617088 0.77078652 -8.70743752
4.11253309 0.76685679 -8.61051750
3.62285900 0.77515608 -8.79099464
3.59418845 0.77798086 -8.70479774
3.83666968 0.77481395 -8.61992073
3.36108160 0.77728695 -8.78814030
3.32824707 0.78540999 -8.68425083
3.56163740 0.78355283 -8.60529709
3.09591246 0.78501898 -8.76723194
3.06325364 0.79391432 -8.65679264
3.29399514 0.79416865 -8.57685184
2.82668638 0.79747242 -8.73574543
2.79686260 0.80618221 -8.61785889
3.02987170 0.79858685 -8.54402733
2.55956221 0.81274116 -8.68661690
2.53204536 0.80971092 -8.56445694
2.76533794 0.80142170 -8.49846458
2.29913378 0.81103057 -8.62552261
2.27459836 0.79679805 -8.50203228
2.50387335 0.79490173 -8.44283485
2.04641819 0.79496026 -8.55409527
2.02406263 0.76803964 -8.43229771
2.25004339 0.76921272 -8.38056755
1.79810131 0.76123625 -8.47876835
1.77892244 0.72086507 -8.35963917
2.00203919 0.72613382 -8.31434155
1.55443716 0.71519542 -8.39857388
1.53845489 0.66657406 -8.28218079
1.75921583 0.67395431 -8.24279690
1.31656981 0.66114885 -8.31411648
1.52234554 0.61093426 -8.16883850
1.30397940 0.60497141 -8.20072556
1.08619022 0.59553838 -8.22707844
1.29160428 0.54189265 -8.09091187
1.07641506 0.53278220 -8.11699200
0.86155838 0.52388686 -8.13637543
1.06698215 0.46521685 -8.00971985
0.85493076 0.45713276 -8.02846813
0.64207786 0.45082772 -8.04187012
0.84873337 0.38608721 -7.92398214
0.63791370 0.38200125 -7.93560505
0.42738727 0.37490460 -7.94413853
0.63460970 0.30906928 -7.83227205
0.42673239 0.30308679 -7.84052277
0.21712479 0.29773021 -7.84273148
0.21564877 0.36924487 -7.94617128
0.42603832 0.22937284 -7.73814774
0.21929488 0.22482750 -7.74054241
0.21712479 0.29773021 -7.84273148
0.21929488 0.22482750 -7.74054241
0.01178897 0.22036026 -7.73760033
0.22072203 0.15036067 -7.63973188
0.01572834 0.14650927 -7.63692665
-0.18714415 0.14151423 -7.62787485
0.02015646 0.06959873 -7.53785610
-0.18045799 0.06404657 -7.52925348
-0.38012427 0.05740912 -7.51712275
-0.17351766 -0.01506348 -7.43248034
-0.37061310 -0.02202329 -7.42063284
-0.56719041 -0.02938397 -7.40351629
-0.36049587 -0.10164159 -7.32402563
-0.55443388 -0.10813212 -7.30685997
-0.74584025 -0.11300021 -7.28238344
-0.54155034 -0.18868899 -7.21119118
-0.73105043 -0.19626464 -7.18968582
-0.91956335 -0.19937305 -7.16043949
-0.71609455 -0.27325311 -7.09168148
-0.90240806 -0.27810183 -7.06419325
-1.08711839 -0.28164986 -7.03172064
-0.88627911 -0.35689881 -6.96789885
-1.06880963 -0.36191344 -6.93710709
-1.24992275 -0.36671293 -6.90194654
-1.05077457 -0.44139472 -6.84214211
-1.22942436 -0.44617480 -6.80704927
-1.40678382 -0.45349652 -6.76918077
-1.20913124 -0.52732772 -6.71329641
-1.38301086 -0.53307545 -6.67478275
-1.55527747 -0.53977144 -6.63154697
-1.35895419 -0.61173564 -6.57887936
-1.52838612 -0.62033784 -6.53818560
-1.69724131 -0.62755179 -6.49214506
-1.50137746 -0.70110965 -6.44477415
-1.66801369 -0.70670080 -6.39852858
-1.83273399 -0.71357280 -6.34871483
-1.63927484 -0.78895825 -6.30730724
-1.80132663 -0.79360145 -6.25634003
-1.96207821 -0.80021918 -6.20308542
-1.77007556 -0.87470555 -6.16529417
-1.92927277 -0.88082469 -6.11225510
-2.08725810 -0.88790214 -6.05590153
-1.89707375 -0.95964146 -6.02098513
-2.05235124 -0.96598542 -5.96421099
-2.20546842 -0.97384483 -5.90512991
-2.01641798 -1.04065752 -5.87070274
-2.16619205 -1.04500735 -5.80993032
-2.31562400 -1.05161524 -5.74689102
-2.12612391 -1.10979664 -5.71083975
-2.27263308 -1.11443019 -5.64835739
-2.41775441 -1.11769521 -5.58040142
-2.22774577 -1.16346192 -5.54343176
-2.37090230 -1.16954231 -5.47817326
-2.51214290 -1.17484033 -5.40887737
-2.32230043 -1.20705926 -5.37123346
-2.46005130 -1.21066618 -5.30256319
-2.59701037 -1.21310008 -5.23045254
-2.40781307 -1.24065626 -5.19466543
-2.54210353 -1.24366701 -5.12446117
-2.67347121 -1.24609113 -5.04993582
-2.48777342 -1.27514267 -5.01798058
-2.61535811 -1.27524042 -4.94438410
-2.74378347 -1.27865195 -4.86852932
-2.56136036 -1.31910133 -4.84357357
-2.68695092 -1.32662809 -4.77109098
-2.80878782 -1.33035254 -4.69187355
