-90.15160000 85.12800000 -9.64570000
-89.97390000 85.29520000 -12.59800000
30.92940000 -38.29290000 49.16490000
30.00460000 -40.31380000 42.88980000
31.18760000 -40.32900000 43.74490000
28.55480000 -38.69800000 45.68850000
-76.02480000 78.67480000 58.85950000
-77.72200000 77.72870000 59.39880000
-76.61210000 78.31920000 60.04690000
-77.23430000 78.65640000 58.83720000
-56.97120000 17.75910000 12.13980000
-57.27410000 18.20590000 12.62110000
-58.16820000 20.01000000 10.97190000
-58.81390000 21.99770000 9.14230000
-58.56100000 19.98770000 7.36900000
-12.09240000 -0.33290000 -33.58910000
-23.19640000 6.93380000 -17.69290000
-24.24880000 7.91680000 -19.97740000
68.69820000 -47.20850000 25.68350000
65.60700000 -46.09580000 29.32970000
62.50650000 -46.71890000 17.71340000
64.42570000 -46.89260000 21.58880000
64.97450000 -47.40690000 17.61240000
106.24680000 -62.36750000 -10.71240000
106.34660000 -61.89430000 -14.27620000
107.39430000 -61.18240000 -12.52620000
108.06820000 -61.29870000 -7.53930000
108.04000000 -61.68640000 -4.24060000
-66.39230000 66.91150000 46.81210000
-68.63660000 68.62190000 42.47340000
-67.01110000 67.99990000 48.21090000
-59.69080000 60.92330000 56.70920000
-61.06820000 61.71850000 54.08840000
-61.15950000 63.02770000 56.29320000
-49.81120000 17.69280000 -12.90990000
-50.98710000 17.96560000 -13.43530000
-50.49770000 17.74660000 -13.93360000
-48.18840000 16.50230000 -17.57120000
-49.12750000 16.91030000 -17.19580000
-49.18440000 16.70460000 -18.54970000
-46.58610000 14.97540000 29.62930000
-46.99370000 15.56140000 28.29700000
-45.81020000 15.30060000 28.53090000
-45.36300000 15.49350000 25.17090000
-46.59640000 16.20420000 24.39400000
-47.15220000 16.60980000 22.45080000
18.99640000 -38.59820000 -41.19050000
17.84110000 -37.47950000 -41.49620000
22.36980000 -36.77140000 -36.19500000
20.41280000 -38.02760000 -38.01860000
21.85780000 -39.18990000 -36.26280000
-3.81630000 12.51200000 -106.18880000
-1.46230000 10.92690000 -106.31450000
-3.98300000 11.86040000 -104.66300000
2.54790000 3.43600000 -100.44980000
1.58490000 6.82850000 -103.62910000
4.73060000 4.84240000 -104.06920000
5.50750000 -13.13040000 -44.91100000
1.29430000 -10.16250000 -46.63150000
10.08180000 -17.02000000 -31.06760000
-80.78900000 80.74990000 51.24070000
-81.55090000 79.00440000 52.14090000
-80.57680000 80.00540000 52.78520000
-80.20910000 81.52690000 49.63800000
-79.73830000 81.42230000 49.18370000
-80.26820000 81.76270000 48.72250000
-54.91060000 61.59350000 -92.12810000
-57.75510000 61.48090000 -91.92380000
-56.36080000 60.53630000 -93.58640000
-30.53640000 28.70670000 -93.45560000
-30.72780000 24.54560000 -88.31640000
-34.95940000 25.96330000 -84.54230000
-29.97590000 18.36370000 -81.48620000
-25.92060000 -3.71010000 56.75920000
-23.59780000 -5.43480000 56.83750000
-24.38110000 -4.81330000 57.29620000
-23.12640000 -5.08420000 58.58890000
-24.91820000 -1.75340000 59.10330000
-26.11310000 -3.10410000 57.34100000
-36.93140000 6.03200000 45.52880000
-38.57410000 5.30980000 47.43610000
-38.05000000 4.92120000 48.43570000
-38.76250000 5.54410000 48.40440000
-89.14150000 86.89780000 9.31210000
-89.35470000 86.57650000 10.58650000
-88.74900000 86.93060000 10.36560000
-88.81020000 87.32360000 1.94750000
-88.62410000 87.35240000 3.48840000
-88.16100000 87.02460000 2.27990000
7.93980000 -23.82860000 50.45150000
8.77430000 -24.00840000 48.99950000
9.50040000 -24.96390000 49.22950000
9.98190000 -26.76790000 49.98270000
8.25820000 -28.07750000 51.46970000
8.47860000 -26.42520000 51.16550000
48.45870000 -20.76240000 -109.07820000
46.34930000 -19.33020000 -110.08380000
47.73860000 -19.40680000 -110.30460000
37.32360000 -14.80110000 -110.29620000
40.30230000 -17.09770000 -108.48720000
30.13450000 -38.58760000 -43.86960000
27.64130000 -37.80120000 -44.88490000
28.75160000 -37.41290000 -46.22170000
24.63450000 -33.51960000 -53.45700000
21.50460000 -31.84570000 -53.89790000
38.29140000 -29.52510000 -76.00180000
40.43420000 -31.91280000 -73.10950000
48.29200000 -29.28720000 -83.67720000
46.35230000 -29.62070000 -81.68700000
-91.40760000 80.94880000 -9.04240000
-91.39380000 78.37730000 -2.62510000
-91.72240000 79.64070000 -3.96090000
-91.57630000 78.87840000 -5.16540000
67.76090000 -40.10000000 77.66330000
72.55920000 -44.39670000 68.15040000
73.94360000 -44.56950000 69.69450000
71.88820000 -43.61010000 70.31920000
53.95550000 -19.56940000 -96.06510000
55.08900000 -19.38980000 -100.69910000
66.57700000 -28.02580000 -88.88080000
63.19540000 -25.38470000 -93.51440000
61.00770000 -24.58480000 -90.43420000
7.84150000 -8.37260000 77.01150000
23.68680000 -17.42620000 77.42870000
18.94700000 -14.24650000 78.55660000
29.74780000 -46.05210000 -23.58960000
30.12780000 -46.35080000 -24.46020000
29.20530000 -44.53160000 -22.86030000
29.22460000 -42.73940000 -23.32770000
28.77340000 -44.62790000 -23.94710000
50.52640000 -17.18510000 -111.42590000
49.99240000 -18.63540000 -110.80940000
57.61170000 -24.97490000 -105.45320000
56.44380000 -23.14150000 -107.02170000
59.27780000 -24.76030000 -105.24590000
42.22920000 -48.08500000 -16.74420000
40.90500000 -47.83270000 -17.98930000
43.04170000 -47.92940000 -19.21480000
40.57800000 -46.68790000 -23.28780000
39.02160000 -46.92780000 -21.95690000
-81.45940000 76.58360000 54.06690000
-82.63550000 76.55550000 51.56300000
-82.32850000 75.20170000 52.73930000
63.91600000 -23.67580000 -103.10490000
67.36770000 -26.56360000 -100.85150000
68.41570000 -27.47210000 -100.07410000
67.12260000 -27.52080000 -100.90520000
-22.17960000 7.54760000 51.72330000
-17.36010000 4.22710000 55.61050000
-17.64800000 3.90480000 51.59000000
-17.91920000 3.72510000 46.46830000
-15.17890000 23.43640000 -117.36350000
-14.48230000 23.50470000 -118.12450000
-17.83880000 26.94270000 -117.66310000
-19.49930000 27.93390000 -117.05410000
-17.83000000 27.82240000 -118.00420000
7.52600000 7.40470000 118.88720000
-1.35870000 14.73900000 119.44290000
-3.13110000 16.56190000 119.76280000
-3.73520000 16.20650000 118.74020000
-74.60330000 76.76130000 54.08620000
-77.31090000 78.72310000 48.04220000
-76.95200000 79.24920000 53.04760000
-74.66630000 75.66470000 46.76200000
-74.60670000 75.05310000 42.55870000
-76.68390000 77.72070000 46.16930000
1.69480000 -11.20110000 33.57730000
3.02840000 -12.15130000 29.06270000
-0.61260000 -9.58940000 29.18960000
-4.74180000 -6.60060000 33.32510000
-3.68460000 -7.36750000 27.52500000
-9.70380000 -2.77110000 28.27920000
-46.08890000 13.33830000 -41.51880000
-49.30370000 18.44450000 -40.01870000
-49.45320000 17.85430000 -38.16520000
-50.34680000 19.08330000 -37.51110000
108.36830000 -58.69810000 11.21730000
108.40800000 -58.71860000 8.81590000
106.21800000 -57.99200000 9.38640000
109.26940000 -59.33190000 8.16790000
109.42490000 -59.38540000 9.59260000
109.44030000 -59.81930000 9.31740000
-80.56690000 78.27580000 -53.97110000
-79.89990000 77.79780000 -55.58550000
-80.51390000 77.28390000 -54.56460000
-80.49910000 79.80920000 -52.08720000
-79.83070000 79.52230000 -53.01350000
-80.45940000 79.14920000 -53.21230000
-41.88100000 45.35020000 -77.92010000
-39.87790000 44.82430000 -80.85010000
-52.70350000 54.73710000 -67.82480000
-52.54200000 55.31090000 -69.17860000
-55.36150000 56.53850000 -63.93280000
-48.89520000 19.69790000 44.99150000
-50.62660000 17.89060000 35.65110000
-50.97150000 18.92110000 36.09970000
-52.23390000 19.23820000 33.54700000
105.56170000 -57.32410000 36.33630000
105.72240000 -56.91690000 35.87250000
105.44460000 -56.88780000 37.12870000
99.51590000 -52.92800000 41.70100000
-46.27570000 54.69200000 -102.45600000
-47.47880000 55.21960000 -101.64530000
-46.23510000 50.04890000 -102.91580000
-46.78720000 51.79520000 -102.57180000
-65.87210000 67.48110000 -81.44670000
-64.15450000 68.05450000 -79.86400000
-64.47750000 68.13940000 -81.31110000
-65.02670000 68.54900000 -79.94930000
106.06960000 -57.48070000 -31.57070000
105.98270000 -56.83070000 -32.90570000
104.44590000 -60.59480000 -27.08120000
104.57020000 -59.82000000 -29.56680000
20.59710000 -31.69450000 -53.56800000
19.18630000 -30.15410000 -55.61520000
21.19940000 -31.05090000 -55.24180000
10.97530000 -24.90190000 -60.10960000
13.47840000 -26.79070000 -58.46380000
11.50690000 -26.35470000 -58.06020000
-57.04330000 49.23570000 51.53640000
-57.74840000 54.95090000 54.81950000
-54.32280000 48.30800000 56.56440000
-48.96770000 38.25210000 57.70080000
-51.16520000 39.85280000 54.92150000
-51.18360000 41.70360000 56.99630000
-66.29660000 56.74830000 59.68880000
-64.87050000 55.88140000 62.32260000
-65.59950000 57.47190000 63.19620000
-64.80720000 54.08930000 59.65060000
34.69530000 -34.35890000 -22.32530000
36.93570000 -35.45800000 -25.89880000
21.87740000 -25.49230000 -20.83820000
42.90040000 -25.29940000 92.00790000
42.37370000 -22.64690000 96.98430000
41.23780000 -27.28590000 87.24460000
-57.62160000 18.06720000 -7.30180000
-57.70120000 18.10690000 -9.15350000
-57.28640000 17.61360000 -8.77000000
-58.08390000 19.01500000 -7.16600000
-58.50710000 19.58270000 -4.28160000
-86.93630000 86.62210000 23.48670000
-87.17370000 86.76790000 22.08440000
-87.50260000 86.80880000 22.78310000
-85.59830000 85.40010000 31.82420000
-84.98730000 85.09430000 32.78460000
-85.14960000 85.25630000 30.88840000
7.20180000 18.28550000 122.40130000
6.43610000 19.00400000 122.09920000
6.43190000 18.50130000 122.72130000
6.09370000 19.29540000 120.76060000
4.28620000 20.77940000 121.16900000
5.19270000 20.02570000 122.05850000
22.93180000 -25.60230000 47.00070000
22.58800000 -25.73490000 42.32050000
18.86090000 -22.80380000 48.43640000
30.66890000 -30.96820000 38.84700000
32.38750000 -31.67350000 42.62830000
35.79650000 -33.96620000 37.60920000
-31.95790000 -1.32860000 -50.88630000
-28.60580000 -3.14650000 -53.95010000
-26.36010000 -2.84420000 -56.08020000
-40.27100000 49.38970000 -107.36180000
-38.77330000 48.81390000 -108.17230000
-38.90090000 47.35740000 -108.35580000
-37.45390000 49.68540000 -107.09950000
-36.56110000 49.12130000 -106.36890000
-36.36910000 48.96560000 -108.02200000
24.99470000 5.14790000 121.48740000
25.42600000 4.39800000 122.01700000
27.45850000 3.53850000 121.14410000
31.34360000 0.49990000 118.27630000
31.59690000 0.42810000 119.50700000
33.84130000 -1.39850000 117.87640000
0.79570000 23.13110000 120.75220000
0.61030000 22.92680000 121.71920000
1.61940000 22.41510000 121.67580000
-4.96110000 27.43790000 119.98640000
-3.76490000 26.46820000 120.68470000
-3.55020000 26.41790000 119.35730000
83.96540000 -56.31450000 17.29800000
78.92790000 -55.81460000 14.69890000
83.27470000 -56.65970000 10.58390000
76.71400000 -55.90920000 10.28200000
-35.82600000 16.72910000 -31.66150000
-32.75710000 14.42260000 -30.61780000
-31.94400000 13.99940000 -34.85030000
-31.63990000 14.56800000 -42.77050000
-28.66130000 12.68270000 -45.88200000
96.74510000 -49.17420000 58.03920000
97.61590000 -49.90800000 56.02150000
94.92940000 -48.93370000 55.98160000
97.28280000 -49.90070000 60.92660000
97.32680000 -50.73820000 60.62990000
98.09790000 -50.47950000 58.93100000
47.52610000 -36.91860000 52.80720000
51.30100000 -40.30900000 42.05320000
51.63370000 -41.27710000 36.33440000
-71.10900000 64.58460000 -73.40270000
-72.68220000 66.74000000 -71.62980000
-72.83790000 67.48510000 -71.32980000
-71.71340000 66.85470000 -73.02540000
-56.31670000 36.51230000 -30.66420000
-54.31220000 34.93870000 -34.64880000
-52.54670000 36.12940000 -44.85820000
-50.30640000 33.97910000 -47.00440000
73.26270000 -32.17100000 92.82380000
71.48540000 -31.21230000 93.04490000
72.02630000 -31.22850000 94.85050000
77.55000000 -36.10820000 84.27270000
78.33570000 -35.87090000 86.78890000
23.75600000 -23.54240000 -59.68140000
21.91920000 -21.44890000 -63.38660000
23.34760000 -20.06380000 -70.06000000
21.95470000 -18.00220000 -73.09070000
19.35420000 -17.07300000 -71.78620000
-80.97590000 79.69120000 -29.81420000
-84.14780000 83.19000000 -32.77280000
-83.86460000 82.67130000 -28.82030000
-86.57830000 84.81570000 -29.53150000
-86.86740000 84.39950000 -30.80160000
34.33890000 -13.29430000 -105.78570000
27.21760000 -8.23600000 -107.24310000
34.24850000 -12.83960000 -110.05880000
30.31280000 -10.67600000 -105.18680000
29.33890000 -10.24950000 -104.27210000
26.88960000 -8.21410000 -106.07210000
52.75860000 -17.13680000 106.15350000
56.08790000 -19.15050000 106.80820000
58.20090000 -20.89420000 105.32620000
55.88850000 -19.09950000 109.92910000
55.14800000 -18.22140000 109.91170000
55.07780000 -18.90760000 110.87000000
-36.26710000 17.99060000 71.07610000
-34.25060000 16.05310000 72.14740000
-9.89400000 -14.33190000 56.74050000
-9.27100000 -12.64790000 56.02760000
-9.73690000 -15.54470000 57.62690000
-8.66170000 -16.41270000 58.50220000
-10.68370000 -15.14340000 59.15860000
-76.38090000 62.93990000 -38.30550000
-77.39630000 64.71210000 -38.18420000
-74.75260000 63.10810000 -46.29550000
-73.98150000 61.69460000 -45.78120000
-76.04870000 63.86430000 -42.65290000
79.02530000 -41.68480000 86.08980000
80.50860000 -42.83610000 84.31690000
81.12450000 -41.88870000 84.85400000
78.20950000 -43.70870000 84.38430000
79.38190000 -43.20760000 84.46320000
77.50110000 -42.33350000 86.07000000
94.27510000 -48.27760000 67.49120000
93.12890000 -48.08610000 69.05180000
93.99710000 -49.00080000 67.25780000
92.68240000 -50.52380000 66.87320000
93.02390000 -49.35120000 67.93980000
91.67350000 -49.58780000 68.98200000
-45.13770000 10.05040000 -34.43230000
-45.41480000 11.74090000 -32.33410000
-42.78750000 7.40500000 -38.62780000
-44.77210000 8.17430000 -37.56730000
-43.76580000 7.42290000 -39.28290000
-88.26170000 82.21870000 30.36210000
-89.06830000 80.95470000 29.02180000
-89.59890000 80.59370000 27.28290000
-89.39350000 79.09170000 28.92360000
-1.52100000 13.87590000 -119.67490000
0.61580000 12.04210000 -119.58440000
-1.42540000 13.17410000 -118.60030000
-10.70490000 20.04850000 -118.20560000
-12.20660000 21.27860000 -117.96020000
-12.26890000 21.99500000 -118.54280000
-19.44950000 -0.10740000 68.75610000
-17.10300000 -5.88150000 63.18620000
-18.30150000 -4.06550000 63.75310000
-20.49430000 -3.30000000 62.02960000
5.26870000 -13.80590000 33.53660000
14.96590000 -20.51780000 36.70290000
16.90850000 -21.82840000 38.58960000
18.26320000 -22.79620000 31.17330000
26.01850000 -30.75800000 68.04360000
24.46760000 -27.06770000 73.66480000
22.73930000 -27.40450000 71.15610000
22.92740000 -25.69770000 75.04420000
17.64840000 -24.28440000 73.25420000
21.11650000 -25.96230000 72.69790000
-75.96800000 76.59940000 -62.03880000
-75.52390000 76.65210000 -61.95630000
-74.99770000 76.15370000 -62.89480000
-70.93100000 73.19190000 -70.50280000
-71.53660000 73.61610000 -69.22560000
-70.80590000 73.22570000 -69.57130000
-31.65620000 12.79930000 -10.97520000
-34.05520000 14.58640000 -8.02680000
-29.99690000 11.81720000 -8.18320000
-37.19770000 16.77460000 -15.38620000
-33.94610000 14.48010000 -15.38020000
-34.96300000 15.46190000 -18.81230000
-49.15910000 32.59980000 -47.14100000
-49.32250000 34.55400000 -51.01160000
-45.09670000 34.82920000 -61.84610000
-47.33830000 35.89480000 -58.55030000
-45.17410000 32.80090000 -58.43890000
89.08490000 -47.66740000 -35.65860000
89.29480000 -48.52480000 -30.15790000
91.07350000 -48.86820000 -31.12790000
86.13360000 -48.27060000 -28.99280000
85.72240000 -47.17060000 -34.72600000
84.19760000 -47.32690000 -33.10030000
-20.82280000 37.82680000 -109.53690000
-22.24950000 39.19660000 -110.73510000
-14.39640000 32.58190000 -106.97790000
-14.67310000 33.49590000 -110.76090000
-18.32280000 35.23080000 -105.42880000
46.99190000 -45.58770000 46.42590000
43.08020000 -43.88920000 48.64650000
44.82340000 -45.28000000 44.99890000
50.09520000 -48.00170000 36.60920000
48.91330000 -47.10640000 41.33670000
46.77840000 -46.74910000 39.54100000
-6.49090000 -3.36040000 -54.35870000
-10.03170000 -0.65350000 -55.36860000
-17.15120000 3.78380000 -43.65870000
-19.94310000 6.03930000 -46.36800000
-22.91610000 7.89700000 -42.25000000
-71.09940000 43.09140000 7.33660000
-70.62970000 41.99100000 3.14600000
-75.04050000 51.63810000 10.09940000
-79.13810000 61.15320000 12.22060000
-77.99350000 57.90750000 7.54550000
-88.86160000 75.54340000 -22.53360000
-89.89590000 76.74050000 -21.08890000
-89.45080000 76.47380000 -23.88650000
-89.13930000 77.92060000 -27.80320000
-59.15060000 59.36130000 55.95200000
-60.33310000 59.49340000 53.22950000
-54.71150000 53.95920000 60.34870000
-23.81650000 23.04140000 82.13830000
-20.84790000 19.22740000 81.98830000
-25.80420000 22.84840000 79.28660000
-32.87030000 28.27090000 74.88860000
-30.16350000 28.14050000 78.66980000
-29.44870000 25.70420000 77.22730000
-56.60420000 50.71880000 -79.44820000
-59.40770000 52.20090000 -74.38180000
-58.49520000 52.26750000 -77.85330000
-58.50650000 52.74360000 -80.43040000
2.85330000 17.83770000 122.16750000
3.49790000 18.66420000 122.49940000
2.08120000 19.29920000 122.30200000
-2.49460000 22.88640000 121.72150000
-2.51670000 -22.57250000 -54.14830000
5.84310000 -28.54280000 -50.39830000
7.12370000 -29.96910000 -50.51820000
7.60780000 -29.81690000 -49.57470000
-59.33940000 26.10470000 -17.31160000
-59.16740000 25.44370000 -15.13970000
-60.33040000 27.33090000 -14.21560000
-59.28380000 24.46140000 -8.04040000
-58.92230000 22.35460000 -5.99230000
-32.06640000 30.37220000 -78.05540000
-27.95920000 26.53300000 -79.65830000
-29.73280000 31.02220000 -81.84040000
-33.91130000 29.31360000 -74.16970000
-34.72460000 31.14530000 -75.09220000
-15.77050000 -5.17830000 51.66560000
-19.25080000 -2.47480000 49.84030000
-14.80840000 -5.72860000 49.85300000
-22.08120000 -0.38500000 47.59890000
65.54560000 -36.91920000 90.46970000
63.63770000 -35.86230000 87.64370000
67.16760000 -38.25970000 88.44370000
68.05870000 -38.35310000 91.10340000
69.03770000 -38.64730000 91.90560000
66.63930000 -36.87890000 93.50220000
67.55860000 -47.43770000 -26.36570000
65.33010000 -46.11920000 -31.72210000
63.00620000 -44.18170000 -38.66790000
60.96690000 -44.13530000 -36.84810000
96.25710000 -47.09260000 -63.33500000
95.73030000 -46.77970000 -64.29630000
95.36630000 -46.34780000 -63.66710000
92.03610000 -43.84190000 -71.56580000
92.49030000 -43.76000000 -70.56180000
92.57150000 -44.26280000 -70.75350000
-53.92780000 47.40050000 76.05810000
-54.41540000 49.16810000 77.56180000
-56.51220000 49.89520000 73.87040000
-49.12240000 44.66300000 81.95010000
-49.97120000 46.21780000 82.65910000
-52.00190000 47.02290000 79.58070000
-44.49780000 45.48490000 100.39120000
-44.53110000 46.00530000 101.21970000
-46.91420000 47.94870000 100.01100000
-34.34540000 38.12510000 106.76900000
-34.19330000 38.53270000 107.80280000
-36.79090000 39.96460000 105.71500000
71.24870000 -49.41280000 -14.26340000
71.21800000 -49.67010000 -10.78670000
73.98070000 -50.00320000 -11.65130000
79.43980000 -49.06650000 -22.92130000
76.84650000 -49.49020000 -18.95710000
-40.27880000 44.85720000 -107.15990000
-42.30910000 46.61030000 -105.79600000
-40.74940000 46.59330000 -107.02270000
-35.62800000 45.21280000 -110.36900000
-37.15190000 47.00540000 -109.37960000
-35.11570000 46.02650000 -110.49200000
10.52240000 -28.66800000 49.92170000
11.80880000 -28.48220000 48.85570000
12.70230000 -30.85990000 48.65760000
12.19660000 -32.16250000 50.74090000
12.72410000 -32.40850000 49.82050000
13.95070000 -33.38480000 50.32030000
-46.75100000 50.74060000 101.61210000
-46.77580000 52.65490000 101.74770000
-48.29550000 52.40370000 100.55210000
-51.40830000 51.77190000 96.75700000
-51.28320000 51.13620000 96.08450000
-49.34700000 49.81150000 97.68040000
65.94670000 -35.12840000 67.42710000
59.50160000 -35.77130000 63.92670000
72.94600000 -37.67910000 64.06900000
104.11220000 -54.13450000 -35.55930000
105.58060000 -54.95590000 -33.01280000
105.30970000 -54.76320000 -35.62800000
103.66650000 -53.80740000 -39.38250000
104.41390000 -54.22030000 -37.18940000
104.82980000 -54.66170000 -38.16720000
-0.98630000 12.62060000 112.81220000
2.13020000 10.09530000 112.96660000
1.08440000 11.36980000 115.81550000
1.12080000 10.14680000 109.83580000
1.79060000 10.08040000 111.49650000
-1.36970000 12.61130000 111.24380000
27.92970000 -39.32590000 27.48310000
27.39560000 -38.56360000 28.18650000
27.80540000 -38.77310000 26.11330000
27.18660000 -41.57560000 30.48190000
26.93000000 -40.00950000 31.62640000
27.69940000 -40.78030000 29.80210000
83.84050000 -46.94940000 -75.91590000
83.19500000 -47.92680000 -72.28820000
81.68540000 -46.83690000 -75.19390000
83.75840000 -47.78400000 -73.51770000
-14.47110000 34.77040000 -117.35870000
-16.34030000 36.05020000 -116.67460000
-14.04260000 34.10690000 -115.89570000
-20.16960000 37.23290000 -117.17850000
-19.50820000 35.46530000 -117.60780000
-21.56610000 36.14070000 -116.93540000
33.33900000 -48.40140000 15.97990000
33.96890000 -48.71900000 16.16130000
33.33700000 -48.21400000 18.06040000
32.17840000 -46.86430000 25.36980000
32.63570000 -47.37290000 23.02330000
-69.62320000 63.22840000 73.56540000
-71.59120000 64.40160000 69.14490000
-68.96450000 62.38110000 72.83050000
-65.02040000 60.75810000 81.31410000
-66.44450000 61.94280000 79.87000000
-64.82320000 60.08640000 80.48480000
77.44450000 -50.50330000 48.56290000
74.51590000 -48.80110000 53.98670000
71.91380000 -50.37710000 45.63780000
73.63050000 -50.91890000 44.62630000
74.28320000 -52.07190000 40.79080000
78.91520000 -52.27210000 42.71620000
-83.79610000 81.03770000 45.47900000
-82.66000000 81.84250000 46.66090000
-80.19200000 81.82060000 47.46740000
-80.98540000 82.34950000 45.66280000
-23.45220000 5.52760000 73.52850000
-23.65870000 6.56890000 75.06720000
-26.02640000 6.59740000 71.24310000
-18.69840000 8.43390000 84.11220000
-21.54580000 10.52580000 83.44530000
-22.58020000 7.19500000 77.50430000
54.34210000 -37.20210000 57.98560000
55.80070000 -39.18000000 52.58020000
54.40440000 -35.26370000 63.26810000
13.80710000 -10.78840000 -78.04170000
16.65150000 -11.99210000 -79.06760000
14.10360000 -9.54030000 -80.65790000
3.03380000 -0.81070000 -82.36440000
-0.30490000 0.38160000 -80.04820000
4.03790000 -2.76770000 -80.40170000
-16.15870000 35.06860000 114.16070000
-30.54460000 46.02510000 109.84640000
-1.51060000 25.31770000 -120.00880000
-0.48410000 24.20170000 -118.35300000
1.14710000 23.40280000 -120.60420000
-7.94710000 30.13710000 -119.03600000
-4.56100000 27.40960000 -118.64970000
-52.33110000 18.81650000 -31.10270000
-54.05090000 19.85060000 -27.43100000
-59.99310000 27.37230000 -19.23320000
-52.29490000 49.58610000 -94.52590000
-54.44600000 50.99360000 -92.48750000
-52.47560000 50.09090000 -95.39450000
-43.94930000 44.72980000 -103.80810000
-43.56380000 43.73750000 -103.40580000
-45.69670000 45.45120000 -101.83390000
-69.07270000 46.36630000 -34.31110000
-64.43040000 39.74880000 -38.07510000
6.62160000 15.70870000 122.58860000
5.11160000 17.36920000 122.59190000
4.84120000 16.22970000 122.28110000
9.74960000 15.47150000 123.23350000
9.01780000 16.13800000 123.10140000
8.58290000 15.42260000 122.97490000
-63.95140000 62.64440000 -47.88110000
-64.65820000 62.06210000 -44.43580000
-62.91980000 60.82760000 -48.45990000
-66.40860000 63.86870000 -40.58440000
-67.58330000 65.81630000 -39.56430000
-67.70880000 65.08770000 -36.89290000
39.19700000 -5.83400000 117.74490000
38.89630000 -6.14460000 118.64460000
39.75080000 -6.65310000 118.16270000
39.91120000 -8.14070000 118.25660000
-26.16870000 11.82600000 -52.29620000
-25.47270000 12.03720000 -55.78150000
-29.87670000 15.07190000 -52.76400000
-24.89350000 12.02410000 -57.68980000
-27.53950000 14.95540000 -59.63480000
-30.58960000 16.16770000 -54.54240000
-71.05240000 64.60240000 72.30000000
-72.43900000 65.43290000 69.60870000
-77.75420000 69.71220000 61.49890000
-77.71610000 69.11560000 60.27880000
-76.18220000 68.09530000 63.01260000
-88.37620000 80.66200000 -28.92020000
-88.79130000 79.29220000 -28.31910000
-89.10330000 83.38270000 -22.76310000
-89.02490000 81.92420000 -24.76800000
26.04120000 -7.10310000 -111.66950000
29.85620000 -9.74380000 -110.82520000
25.71960000 -5.89720000 -116.82350000
27.56970000 -7.38390000 -115.63400000
25.97500000 -6.56930000 -115.17580000
5.27790000 -21.46950000 -60.97680000
6.32640000 -18.95470000 -65.91510000
6.81820000 -17.84660000 -68.85570000
82.10400000 -38.22060000 85.17190000
81.62800000 -37.91130000 86.37560000
81.81550000 -39.26460000 86.37830000
82.57660000 -40.53430000 84.97130000
83.02410000 -40.00900000 84.83530000
101.32860000 -51.63380000 -51.53010000
101.45710000 -52.30610000 -50.58000000
100.89520000 -52.80630000 -51.06020000
99.64780000 -49.68660000 -54.56580000
98.76030000 -49.11620000 -55.24780000
100.75910000 -50.53890000 -51.22580000
-43.34180000 50.24630000 78.82720000
-42.33890000 48.29770000 78.27160000
-50.56270000 53.64870000 68.62710000
-3.08170000 -19.28480000 -59.14560000
-5.33150000 -20.33510000 -57.49830000
-5.84090000 -20.57560000 -56.04290000
-4.97550000 -21.11940000 -56.45060000
-4.78810000 -21.30850000 -55.24490000
-74.49300000 64.43060000 50.69770000
-76.29150000 65.74310000 46.26060000
-73.40480000 63.12000000 50.83860000
-80.99410000 70.26860000 48.05500000
-80.12720000 68.97250000 42.49560000
-77.56570000 67.24590000 48.15020000
-64.85870000 50.29560000 30.10550000
-63.37660000 48.60120000 33.46320000
-59.84780000 45.28300000 40.46530000
-61.93460000 50.45960000 40.33120000
-32.62710000 5.35340000 -11.59680000
-24.49530000 -1.06130000 -9.93920000
-15.70100000 -7.82010000 -11.99670000
-11.01210000 -11.19950000 -6.69520000
-18.49060000 -5.62250000 -3.49490000
107.39810000 -57.34070000 -15.77400000
107.46210000 -57.10020000 -19.04150000
105.51300000 -56.34700000 -18.78070000
103.47470000 -54.19780000 -32.51960000
99.69350000 -62.33700000 4.70370000
102.81330000 -63.38290000 14.49390000
29.57430000 -40.20030000 -12.81130000
30.37310000 -40.69800000 -6.81350000
27.95300000 -38.88670000 -12.41280000
29.01580000 -39.56560000 -3.35480000
-2.02870000 21.65620000 -122.03130000
0.18970000 23.50860000 -122.33360000
-0.74740000 24.43050000 -122.23760000
0.17860000 23.97640000 -122.06000000
6.97270000 10.42710000 -121.66740000
9.28380000 8.53830000 -121.64970000
7.36580000 8.84300000 -121.04720000
1.39600000 11.97320000 -120.28400000
36.88650000 -34.18170000 -65.56580000
31.84390000 -35.39400000 -57.44940000
27.97850000 -33.79140000 -57.05010000
-18.72440000 -3.45590000 32.31090000
-11.96950000 -9.18720000 25.82810000
-11.74370000 -8.57950000 33.65960000
-7.27560000 -11.66720000 38.01030000
-13.18760000 -6.96010000 43.61100000
-14.68130000 -6.00070000 39.34700000
83.57430000 -49.94230000 70.46190000
84.20700000 -50.73900000 66.86330000
85.93770000 -51.51340000 67.16250000
84.78970000 -51.31020000 64.19910000
-71.33230000 44.93670000 -9.97110000
-69.69260000 41.68900000 -9.00220000
-74.69110000 50.97320000 -7.35060000
-59.73130000 65.00970000 -84.64510000
-60.38970000 65.54360000 -85.53280000
-60.98050000 65.91120000 -83.95660000
-59.61440000 64.58500000 -88.09280000
109.49340000 -59.92050000 -4.53450000
109.38060000 -58.79780000 -7.14670000
79.82850000 -47.13300000 -59.27230000
78.50410000 -45.82330000 -64.37710000
80.53410000 -47.32780000 -61.46080000
77.18220000 -44.84200000 -67.67330000
73.86260000 -42.41970000 -71.69910000
76.32990000 -43.98240000 -73.44670000
-6.67080000 2.31170000 77.42400000
-9.20850000 4.84550000 78.14240000
-0.07450000 1.20480000 83.71830000
-2.04330000 1.44850000 81.92780000
-4.10340000 3.56390000 82.66370000
75.41320000 -41.79570000 51.84220000
68.39170000 -41.50650000 50.70560000
80.84370000 -42.37320000 54.48590000
80.56940000 -42.85280000 51.57230000
77.75780000 -40.65370000 57.89860000
-82.79470000 68.47160000 2.29610000
-82.97150000 68.85880000 -2.61640000
-82.21860000 67.45110000 -0.31880000
-85.48850000 72.27340000 10.05500000
33.99400000 -49.07880000 -10.61750000
34.71850000 -49.28760000 -11.96200000
34.81460000 -49.47510000 -10.57360000
39.56310000 -48.69020000 -12.01050000
36.80070000 -49.49250000 -9.65250000
35.84220000 -49.29880000 -12.13350000
84.44840000 -38.56100000 -82.27440000
80.67010000 -35.64080000 -86.68800000
81.98110000 -36.45900000 -85.31750000
81.75710000 -36.51180000 -86.18960000
34.31460000 -39.39790000 -45.26960000
31.71200000 -40.52210000 -40.31180000
58.24030000 -46.30760000 -0.39260000
56.16910000 -45.45210000 3.60450000
59.83790000 -46.80680000 3.20620000
59.78250000 -45.90210000 17.46290000
58.60220000 -45.88110000 13.51220000
-2.24770000 -15.94970000 53.48160000
-1.16930000 -17.01950000 53.91440000
-2.76140000 -16.47920000 54.61430000
4.27720000 -21.23730000 52.25600000
3.55450000 -21.61610000 53.24400000
2.85360000 -20.49590000 53.16650000
109.52980000 -60.04630000 -2.73330000
109.38510000 -60.52120000 -0.47250000
108.72690000 -61.07080000 8.14350000
108.22550000 -61.25960000 10.82550000
107.86490000 -61.77400000 9.17700000
-42.53220000 13.24280000 34.39930000
-42.15320000 13.25750000 33.04930000
-45.57150000 12.74570000 33.93470000
-44.10260000 12.14550000 35.99440000
-45.17230000 11.50760000 35.68360000
78.47400000 -42.40230000 -50.10270000
80.31860000 -42.98400000 -49.18730000
84.78960000 -45.27750000 -42.77450000
83.97960000 -45.47210000 -41.21420000
86.50580000 -46.40900000 -39.16330000
38.30510000 -7.56080000 -117.38400000
36.85900000 -3.31580000 -117.48190000
38.99190000 -4.87930000 -116.86520000
37.81180000 -3.85950000 -117.88370000
58.76950000 -27.03640000 -79.88220000
62.95830000 -29.38870000 -77.19520000
61.72100000 -27.12820000 -82.04190000
60.01990000 -25.47320000 -84.92720000
58.35920000 -25.18880000 -83.85140000
57.15020000 -51.60010000 -22.60610000
55.26800000 -50.88060000 -24.46340000
58.86990000 -51.50060000 -25.43270000
57.84700000 -50.35270000 -29.93500000
53.80820000 -49.71080000 -28.28540000
53.87400000 -48.45260000 -33.46260000
-46.41400000 11.54190000 34.61460000
-47.46000000 11.54330000 35.22390000
-46.87910000 11.47390000 34.63040000
-46.30100000 10.91240000 36.00000000
-59.89350000 46.49970000 -40.91740000
-58.23640000 47.52030000 -47.30660000
-59.79500000 52.59920000 -48.59350000
-59.83380000 48.87760000 -44.39740000
11.54030000 -18.47240000 -17.29010000
13.25880000 -19.25750000 -23.77360000
7.91920000 -15.75680000 -21.13900000
-1.36810000 -9.45930000 -11.68060000
-2.06730000 -8.91530000 -15.47330000
-52.31910000 18.03450000 15.79170000
-53.92470000 17.23300000 14.96120000
-49.83890000 18.22500000 15.57050000
-50.68150000 18.32760000 16.62940000
-50.91880000 18.60570000 14.18690000
108.15650000 -60.87580000 13.56370000
107.90450000 -60.71330000 16.51280000
107.26680000 -61.43210000 15.08230000
19.15840000 -38.67830000 -42.57790000
20.93520000 -39.85230000 -40.82240000
21.75220000 -38.29010000 -43.97170000
19.20240000 -37.51330000 -45.16130000
21.95420000 -37.18550000 -45.70140000
24.24250000 -9.22040000 89.50700000
27.99060000 -4.78010000 97.03420000
31.61330000 -10.35040000 92.34140000
42.88860000 -12.88260000 96.82530000
40.95880000 -12.08020000 96.09470000
-50.89210000 18.89360000 -2.86610000
-51.85630000 19.47300000 -1.52410000
-51.90250000 19.33920000 -2.94490000
-49.35900000 17.64820000 -10.41440000
-49.59000000 17.92080000 -8.61870000
98.30310000 -58.60550000 -41.77430000
99.14920000 -58.85520000 -40.99160000
98.07270000 -58.92460000 -39.71740000
94.24050000 -56.46720000 -47.42780000
94.98760000 -56.28230000 -50.08960000
23.74000000 -41.04860000 39.28250000
22.33920000 -39.87690000 39.35110000
27.34430000 -42.85390000 36.75020000
28.98180000 -41.88380000 38.78830000
26.02970000 -41.63820000 39.13510000
0.51550000 -9.42860000 -79.79640000
2.74880000 -9.63500000 -81.86810000
1.34980000 -11.78360000 -76.46970000
0.58690000 -7.11340000 -83.62730000
-1.40520000 -7.58520000 -80.74030000
-85.70110000 75.49150000 42.90340000
-85.98390000 76.86740000 42.24230000
-85.99660000 75.41000000 41.48000000
-85.43080000 74.51230000 42.34800000
-89.31020000 87.26720000 -1.93720000
-89.26820000 87.23790000 -3.55400000
-88.57060000 87.15950000 -6.36000000
-88.81340000 87.08190000 -7.82580000
-89.15320000 87.07560000 -6.62620000
-64.82190000 45.10500000 -10.18280000
-66.04140000 47.58300000 -11.00240000
-65.69920000 45.98800000 -2.68210000
-64.69890000 45.58040000 -14.28020000
-62.77340000 42.56400000 -16.09240000
-63.27290000 44.36690000 -20.13050000
-61.18630000 38.36340000 7.72480000
-59.14530000 35.85160000 -3.03440000
-58.46320000 35.43760000 -8.73670000
-60.29330000 37.47240000 -4.50610000
-81.64470000 80.36990000 -49.52610000
-82.14460000 79.57100000 -49.66460000
-79.98760000 80.04790000 -48.20850000
-81.40260000 81.01110000 -47.25440000
-80.84990000 80.61750000 -45.30480000
-22.53990000 35.25160000 95.66770000
-20.78570000 32.90910000 95.12250000
-23.88760000 35.71870000 94.13170000
-29.12740000 39.50970000 90.74550000
-31.89930000 40.94540000 88.00590000
-32.14800000 42.60650000 89.83440000
-90.92910000 77.91040000 11.68900000
-89.83240000 76.45340000 12.52620000
-90.42010000 77.32300000 14.32370000
-88.54040000 75.15520000 16.08430000
-22.51650000 -2.69570000 -49.41570000
-21.09530000 -3.89530000 -50.25910000
-21.22730000 -3.52990000 -49.04850000
-19.69830000 -8.18340000 -52.76260000
-19.80240000 -6.32590000 -52.12260000
-21.52410000 -5.28250000 -51.74500000
-47.40430000 27.69360000 40.46780000
-44.84700000 25.23970000 41.00960000
-48.67750000 27.89390000 36.13570000
-42.07950000 23.69570000 45.46650000
-38.24700000 20.26480000 46.19200000
9.72030000 -25.57620000 8.18800000
16.40020000 -29.57910000 24.17080000
21.18470000 -33.23880000 20.86490000
20.17210000 -32.36970000 26.63390000
-28.35100000 42.97570000 -113.49500000
-26.93550000 42.17910000 -114.16950000
-22.32370000 40.07360000 -115.34690000
-23.84750000 40.72010000 -115.01330000
-23.27530000 40.66170000 -114.39920000
-81.80270000 69.95230000 -45.48930000
-83.80640000 71.81270000 -42.90220000
-82.56510000 70.85970000 -46.50160000
-34.71330000 42.78390000 -86.99240000
-33.43840000 41.19010000 -86.84570000
-31.73760000 41.22390000 -89.94540000
-27.16250000 35.58650000 -89.39720000
-23.43560000 33.14210000 -91.41780000
-26.52070000 36.42540000 -91.18870000
-70.85350000 74.36530000 71.06550000
-70.75830000 73.40810000 72.11580000
-70.12660000 74.11940000 71.74220000
-69.82740000 74.43040000 70.15360000
-70.98810000 75.14570000 68.55710000
34.78320000 -10.93260000 -93.28940000
35.92970000 -10.12860000 -95.34770000
32.14480000 -7.85130000 -95.76510000
44.58620000 -16.63290000 -90.40900000
42.13470000 -14.27680000 -93.00370000
41.85950000 -15.48940000 -90.61040000
57.81570000 -30.41000000 -93.56870000
59.22840000 -31.67110000 -89.57520000
54.35820000 -28.04940000 -93.67350000
55.49290000 -29.31280000 -89.91400000
54.49190000 -29.02230000 -88.93310000
51.26090000 -26.43810000 -91.67290000
31.10280000 -41.23660000 12.65490000
32.20630000 -42.52920000 11.92470000
26.49950000 -37.31100000 21.80120000
90.60650000 -50.61690000 -66.45990000
93.93090000 -49.36400000 -65.03450000
92.75430000 -49.88350000 -65.60310000
-54.48120000 46.57540000 -76.26490000
-55.60090000 49.28500000 -78.42320000
-53.08000000 47.55600000 -80.87570000
45.67310000 -10.53970000 114.38190000
42.96870000 -8.82240000 114.53030000
42.42440000 -8.46720000 116.12020000
44.53170000 -9.85610000 115.57020000
88.61820000 -43.42410000 71.83820000
85.43500000 -41.69540000 74.17910000
87.35770000 -42.22330000 75.39660000
87.03260000 -41.94730000 77.10110000
83.85470000 -45.72750000 -77.86510000
83.36100000 -46.43170000 -76.74610000
82.01210000 -45.37040000 -78.59940000
79.13730000 -42.20240000 -84.14900000
32.86890000 -45.06500000 -29.21370000
35.66500000 -43.40260000 -34.12540000
35.51080000 -44.40350000 -30.92610000
33.72670000 -43.55590000 -33.24490000
-64.89690000 61.32740000 82.22610000
-59.78390000 60.28860000 89.13180000
-60.68660000 60.07090000 87.95160000
-58.97810000 57.73050000 89.41370000
97.95580000 -53.21750000 -16.22600000
93.09550000 -51.10910000 -17.95560000
91.88670000 -50.40510000 -21.29810000
2.60380000 -19.45000000 64.17770000
6.84230000 -22.42380000 63.30220000
6.97890000 -21.77670000 64.71860000
10.72560000 -25.10240000 61.48130000
14.12580000 -26.60680000 61.22250000
10.86480000 -24.34760000 63.44120000
37.18940000 -23.75270000 76.86680000
35.25680000 -25.14710000 73.00600000
32.77970000 -23.08970000 74.93900000
25.95930000 -20.32360000 74.09670000
21.25940000 -17.12260000 75.57540000
105.45450000 -63.43890000 0.29300000
104.63140000 -63.61050000 0.64530000
105.01500000 -63.49160000 -1.14910000
104.97070000 -63.72430000 3.50250000
103.73520000 -63.69780000 3.72180000
40.39890000 -48.18290000 18.19190000
41.27640000 -48.53300000 15.27000000
49.92330000 -50.23440000 10.20340000
45.71450000 -49.19270000 11.36970000
-27.39510000 2.49980000 49.83400000
-29.24290000 3.65580000 48.90010000
-28.22530000 3.54170000 48.34040000
-32.18120000 6.53180000 44.30460000
-33.64290000 7.24180000 44.38390000
-53.31580000 54.55420000 -66.15170000
-55.49180000 55.91710000 -62.59300000
-55.50630000 54.08210000 -60.37030000
-61.92280000 60.83450000 -51.78990000
-44.92920000 40.85190000 84.45520000
-41.06770000 37.14490000 86.12730000
-43.78900000 33.02580000 77.61490000
1.78730000 -9.25320000 62.47070000
3.17470000 -10.74830000 59.68780000
-0.63530000 -8.05610000 59.18980000
6.33680000 -10.91020000 68.25190000
8.26900000 -12.96670000 65.64880000
-41.85340000 44.99020000 -105.92040000
-39.78680000 43.00040000 -107.12200000
-45.65700000 46.71820000 -102.87120000
-43.85030000 46.27030000 -104.42020000
-24.99360000 -1.60510000 53.13970000
-24.21430000 -3.62920000 54.18780000
-26.24620000 -1.73160000 53.10440000
-18.27830000 -9.05380000 56.89860000
-17.32480000 -8.91350000 56.16280000
42.79520000 -49.57550000 -0.44240000
40.79890000 -49.67740000 1.79770000
40.84050000 -49.61310000 -1.81170000
34.03650000 -48.93570000 7.61160000
34.94000000 -49.58240000 7.00360000
19.16360000 -6.82480000 102.70880000
17.48260000 -8.86360000 98.60690000
18.26730000 -4.66480000 105.09180000
21.57700000 -7.66060000 103.77110000
21.82490000 -6.24250000 106.64270000
-70.17660000 69.17650000 -37.98410000
-72.60200000 71.90560000 -39.06480000
-19.64380000 3.45080000 -75.81400000
-19.20460000 6.45890000 -80.83670000
-16.97330000 3.08090000 -78.87630000
-20.20710000 1.38530000 -71.19730000
85.26490000 -50.58610000 -58.73040000
88.66940000 -52.64940000 -58.81670000
91.44610000 -54.26170000 -56.60180000
90.50310000 -53.89760000 -55.96850000
31.90200000 -12.27060000 -103.02040000
25.50350000 -10.86600000 -98.97810000
27.45040000 -12.92670000 -97.57490000
103.95510000 -60.93500000 28.81160000
103.63610000 -60.40450000 31.62240000
102.88620000 -61.13780000 30.12870000
103.52910000 -62.96300000 19.43800000
103.51430000 -62.72740000 21.11610000
102.59130000 -62.95410000 20.10540000
-70.16490000 67.91850000 -75.08070000
-70.54660000 66.78220000 -74.72520000
-71.17430000 67.58770000 -73.71720000
-70.92600000 70.47510000 -73.12450000
-71.07450000 69.19340000 -73.42540000
-71.88260000 70.00780000 -71.98680000
26.74190000 3.65000000 -121.37480000
26.52550000 4.28750000 -121.05010000
27.65450000 3.31480000 -120.93490000
25.78470000 4.13440000 -117.77770000
24.83070000 5.27930000 -119.30820000
22.89550000 6.08650000 -117.08770000
-87.50880000 86.20450000 -18.52030000
-87.65390000 86.38130000 -19.70670000
-86.99680000 85.89910000 -20.15790000
-86.80700000 85.56150000 -18.84380000
-86.20690000 84.97830000 -20.66460000
-40.24140000 18.78940000 13.77400000
-42.20960000 20.17260000 16.21680000
-29.89530000 11.76420000 8.42700000
-27.44140000 10.13940000 11.33060000
-60.49990000 25.56910000 0.70500000
-60.25280000 25.08310000 3.82380000
-60.98400000 26.47070000 2.87150000
-60.64280000 27.11440000 -6.68410000
-60.18820000 25.57970000 -4.23210000
-61.01570000 27.00270000 -3.49860000
-63.72150000 70.59870000 80.28020000
-63.95610000 70.53410000 78.38570000
-64.61220000 71.18520000 79.49300000
-66.73340000 72.44110000 73.99950000
-67.39660000 72.84650000 74.93600000
-66.53770000 72.41820000 75.04290000
-42.61690000 51.58540000 83.92910000
-40.25790000 49.52570000 85.16740000
-42.97660000 51.35830000 82.11300000
-44.23700000 53.23750000 84.53570000
-38.50370000 49.51760000 92.21130000
53.08250000 -35.66730000 -59.62550000
54.02710000 -37.19770000 -56.14530000
45.70620000 -34.61610000 -56.56920000
49.78260000 -35.78950000 -56.84010000
-9.92440000 -10.09280000 54.29710000
-11.61720000 -9.12650000 54.44250000
-10.41790000 -9.36370000 53.46620000
-6.57440000 -13.26980000 55.03800000
-8.53540000 -12.22000000 55.54010000
-6.96690000 -12.35580000 54.43590000
96.31700000 -47.16690000 -61.02900000
97.47530000 -48.71250000 -60.74220000
97.95190000 -49.53670000 -59.02010000
97.34900000 -49.79460000 -60.17820000
33.01710000 -43.14280000 5.78780000
33.66890000 -44.82270000 -2.97650000
33.98070000 -44.54600000 -0.95810000
33.39700000 -43.56920000 -2.26030000
-57.40360000 21.43910000 17.13110000
-57.28210000 22.10280000 18.74460000
-60.91720000 28.63920000 20.26970000
-59.30530000 26.14720000 19.13570000
-86.05090000 84.82560000 33.51150000
-85.43980000 84.36130000 36.12360000
-85.27270000 84.85650000 35.01450000
-83.58240000 84.25870000 39.26350000
-83.41630000 83.95290000 40.20090000
-83.25860000 84.07240000 39.05310000
90.41420000 -45.79270000 63.62080000
94.17410000 -47.39510000 62.56390000
92.15270000 -47.02870000 60.57390000
86.80890000 -44.38960000 61.81300000
-33.77620000 35.39260000 96.50120000
-36.26420000 37.27200000 94.99730000
-35.88560000 36.40080000 94.21000000
-38.83350000 40.23900000 97.36520000
-42.66290000 43.48930000 99.03680000
-42.77800000 43.12830000 95.44000000
45.20410000 -9.94960000 -113.61620000
44.87490000 -9.47290000 -114.51630000
47.69100000 -11.90350000 -113.32920000
47.72610000 -12.22570000 -113.68820000
47.03830000 -11.62830000 -113.94900000
78.48930000 -47.59460000 -30.95200000
80.84490000 -46.31560000 -36.42910000
84.96450000 -48.85800000 -25.69030000
83.71060000 -48.01180000 -29.46360000
53.65280000 -16.80120000 -107.70230000
51.98580000 -15.16420000 -110.04710000
50.64080000 -14.85180000 -108.39310000
56.04850000 -18.41050000 -109.39450000
2.32660000 20.73020000 -112.55940000
1.18790000 20.57260000 -108.49090000
5.01750000 17.89290000 -109.83860000
14.17070000 8.66390000 -104.01580000
13.13800000 10.35490000 -106.20690000
-31.68210000 23.65430000 -69.85860000
-29.42640000 22.36190000 -71.80730000
-31.87670000 25.65830000 -72.56960000
-24.93880000 18.00820000 -72.17760000
-27.26240000 17.91390000 -67.60160000
-23.04280000 14.66660000 -69.22830000
88.45510000 -51.39680000 6.78860000
90.24770000 -51.64790000 5.09710000
89.22600000 -51.57760000 2.35910000
85.63060000 -51.25550000 2.87380000
-25.76190000 29.64340000 -110.49840000
-25.69770000 29.85540000 -111.71130000
-23.94920000 28.37420000 -111.74620000
-27.61470000 30.89130000 -108.85610000
-22.74850000 27.36660000 -110.85120000
-26.41050000 29.78590000 -106.25360000
-78.64530000 63.41730000 -26.51180000
-75.93100000 57.11000000 -25.18270000
-78.61360000 62.47540000 -22.97190000
-80.34100000 65.74550000 -20.96970000
-80.64440000 66.84210000 -24.43670000
-79.36190000 64.59320000 -25.24510000
15.25240000 -35.60080000 -47.02850000
13.72090000 -34.60270000 -47.88800000
14.47950000 -34.33270000 -48.92790000
9.52800000 -31.69210000 -50.57380000
-90.65330000 84.32820000 6.34490000
-90.54700000 84.26490000 8.91050000
-90.69070000 84.18780000 -5.00860000
-90.94750000 83.71740000 -2.17450000
-18.66860000 -5.34900000 -60.99040000
-15.61310000 -7.03190000 -62.08160000
-22.97970000 -5.47030000 -57.29190000
-19.66270000 -7.25410000 -58.62370000
99.46360000 -53.82790000 34.36660000
100.74630000 -54.64900000 37.16690000
100.98670000 -54.68270000 33.99810000
103.97310000 -55.68460000 36.12870000
101.98250000 -55.22300000 37.01630000
30.68370000 -20.52530000 -76.88110000
33.91630000 -21.54560000 -77.50040000
38.30700000 -23.85290000 -76.23070000
42.42080000 -25.21030000 -76.09280000
40.29960000 -22.60430000 -79.44260000
-17.40290000 11.53680000 89.59940000
-20.07000000 14.39230000 90.18060000
-18.68260000 20.34040000 98.45590000
-20.18390000 17.29510000 93.46660000
-15.72600000 14.76180000 95.50170000
91.01170000 -46.52930000 72.44500000
90.29320000 -46.32240000 73.47030000
89.88840000 -47.13780000 73.08430000
87.10580000 -44.76910000 77.84000000
87.65890000 -43.76510000 78.07980000
86.62690000 -43.64240000 79.27640000
85.11350000 -47.82150000 32.60940000
74.25750000 -49.05600000 19.17300000
76.35000000 -48.66630000 23.61520000
-49.27460000 36.19510000 54.36600000
-51.22240000 36.64170000 50.36290000
-52.20500000 38.89400000 51.34460000
-43.44000000 29.87720000 57.47230000
30.36320000 1.06580000 -120.41650000
30.62710000 1.28640000 -120.08690000
33.80820000 -1.55170000 -119.61280000
34.70240000 -1.91950000 -119.14320000
-57.71790000 53.36680000 78.48820000
-60.60920000 55.43340000 74.87690000
-57.60340000 52.74080000 76.44630000
-60.56590000 55.69700000 76.70560000
-59.60490000 55.40030000 81.07240000
-62.83520000 57.94830000 80.02970000
46.63370000 -26.05680000 -76.57810000
57.67930000 -29.46460000 -74.55740000
49.21830000 -28.42730000 -73.48640000
27.36640000 -5.82710000 -117.99980000
28.87490000 -6.97970000 -117.32890000
27.96280000 -7.01790000 -116.74020000
28.12370000 -3.52670000 -119.93270000
29.23500000 -5.47200000 -118.79380000
26.36500000 -4.00500000 -119.35880000
-4.28170000 -13.72720000 66.12800000
-2.74830000 -15.66030000 64.61030000
-0.10860000 -15.93540000 66.76500000
3.81910000 -19.73950000 64.94560000
-61.09450000 68.37870000 84.36760000
-62.08300000 69.15280000 83.15770000
-61.89450000 68.72860000 84.02760000
-63.88490000 68.55520000 82.68890000
-69.03850000 70.29370000 -75.96540000
-69.21560000 70.95620000 -75.05090000
-71.78580000 73.33390000 -69.87900000
109.14730000 -58.81230000 -11.92480000
108.98120000 -58.59350000 -10.80520000
109.17410000 -59.29650000 -10.94470000
107.87420000 -57.46880000 -17.75440000
108.19830000 -57.62930000 -19.46460000
68.11690000 -32.42260000 99.09190000
68.87940000 -31.74730000 99.45660000
72.23710000 -36.58620000 94.05830000
-48.38880000 25.10610000 -7.69980000
-47.35980000 24.68610000 -15.26990000
-50.25680000 26.99590000 -11.15640000
-53.64420000 29.67950000 -2.22360000
-52.33180000 28.94890000 -10.66940000
35.59080000 -3.66570000 119.77460000
39.80160000 -6.51100000 114.57040000
38.23400000 -5.17260000 115.19420000
39.02180000 -5.72230000 116.04460000
9.37340000 -17.27360000 -3.66460000
5.88740000 -14.85990000 0.35190000
11.77680000 -19.08110000 -0.29300000
-4.69640000 -7.09010000 5.45500000
-1.94250000 -9.21740000 -0.06220000
-5.32080000 -6.46120000 0.08210000
-38.63860000 51.31780000 106.68480000
-40.12140000 51.82810000 105.73260000
-42.01060000 54.50260000 103.26430000
-41.15840000 54.01360000 102.96560000
-42.72680000 55.12400000 101.85670000
90.07030000 -52.47730000 66.46580000
91.56040000 -52.75470000 64.77030000
86.67630000 -49.97790000 72.04500000
88.77680000 -50.81630000 69.90240000
86.96570000 -49.43540000 72.76840000
-4.87990000 21.15310000 100.70560000
-5.97230000 20.88930000 99.18240000
-1.69900000 15.38510000 97.49590000
2.00230000 15.17940000 100.56560000
2.93680000 12.64580000 98.60110000
-48.29620000 12.92100000 37.47950000
-46.79480000 11.69390000 39.72070000
-47.53650000 14.45120000 39.56650000
-46.28720000 10.62960000 38.39900000
-48.08390000 11.89340000 35.70240000
-46.20210000 10.66550000 37.04240000
68.63250000 -30.83140000 -98.09660000
69.61820000 -31.78240000 -96.98460000
62.66350000 -28.47650000 -101.57080000
63.68240000 -29.79600000 -100.29620000
62.01090000 -29.89500000 -100.52070000
-68.41800000 65.16990000 -33.54570000
-69.66120000 66.54010000 -30.11170000
-68.85890000 64.47110000 -30.28060000
-71.19870000 67.47940000 -21.80920000
-71.60860000 67.28580000 -18.15230000
-70.58630000 65.80240000 -21.91980000
-35.95080000 3.93910000 51.56270000
-37.33670000 7.01140000 51.41780000
-39.05470000 6.62520000 49.09540000
-36.67620000 3.89800000 49.37270000
-35.97780000 3.58850000 50.87260000
-16.47840000 21.59470000 -104.15700000
-14.63880000 19.49570000 -103.14980000
-18.25670000 22.20200000 -102.21330000
-11.79730000 16.95060000 -102.91730000
-9.43510000 16.36700000 -105.08860000
-7.96930000 14.65930000 -104.11000000
-25.68550000 32.05460000 111.31830000
-24.71510000 30.86280000 110.83870000
