2.55540000 0.46660000 0.02790000
3.08030000 0.13350000 0.04900000
2.55890000 0.15860000 -0.33190000
1.90850000 -8.45750000 0.32900000
1.08440000 -2.36500000 0.06550000
2.07480000 -8.31810000 0.21190000
2.44880000 -8.09380000 0.14410000
1.31660000 -2.11180000 0.07970000
1.96600000 -8.04000000 0.10820000
2.58850000 -8.10540000 0.21510000
2.45640000 -7.99100000 0.11570000
2.85550000 -7.93900000 0.19170000
2.83010000 -7.86960000 0.14010000
-2.85780000 8.78470000 0.05700000
-3.26530000 8.54690000 0.08670000
-2.86300000 8.65300000 0.14350000
-3.33410000 8.61000000 -0.07780000
-8.60020000 1.13480000 0.16750000
-8.67850000 0.67560000 0.17100000
-3.01080000 8.82180000 -0.11770000
-8.84200000 1.14690000 0.16550000
-7.63070000 3.52070000 -0.36120000
-6.83330000 3.08630000 -0.34320000
-7.83150000 2.21130000 -0.34350000
-8.36880000 0.82230000 0.15680000
-2.44430000 9.00750000 -0.04140000
-7.97210000 3.20220000 -0.16370000
-7.90900000 3.09330000 -0.15660000
-7.88360000 3.25700000 -0.17830000
-8.42510000 1.18610000 0.11090000
-8.50280000 1.41180000 0.15030000
-7.80140000 3.26030000 -0.14230000
-3.36060000 1.03180000 -0.11240000
-2.93750000 0.97170000 -0.10690000
-3.35210000 1.39800000 -0.12240000
-8.27990000 0.81170000 0.11060000
-8.32040000 1.10640000 0.00580000
-8.02440000 3.23940000 -0.07830000
-7.87150000 3.46220000 -0.12500000
-2.81520000 1.44120000 -0.07960000
-2.96670000 8.89440000 -0.25850000
-7.62160000 3.66660000 -0.11930000
-3.06980000 8.82470000 -0.31870000
-3.34440000 8.68970000 -0.28700000
-5.59290000 6.32550000 -0.23220000
-5.01890000 6.25280000 -0.22860000
-4.76430000 6.77560000 -0.21330000
-2.93630000 8.45300000 0.15980000
-2.54940000 8.55280000 0.15150000
-2.34370000 3.52650000 -0.13530000
-1.22010000 3.45390000 -0.10430000
-1.60870000 3.95040000 -0.11380000
-8.81310000 0.74890000 0.13370000
-8.93350000 1.06240000 0.08960000
-8.91450000 0.84940000 0.03450000
-2.25630000 8.74450000 0.16170000
-2.22590000 8.57530000 0.15040000
-8.76900000 0.52330000 -0.02300000
-8.97000000 0.82190000 -0.20790000
-2.45520000 8.89760000 0.12690000
-5.28780000 1.43380000 -0.15060000
-5.01370000 1.39620000 -0.17170000
-4.83610000 1.65040000 -0.15720000
-2.44100000 1.56450000 -0.09590000
-2.02310000 0.81260000 -0.07890000
-4.80540000 1.28520000 -0.13450000
-9.02500000 1.09050000 -0.08830000
-5.47920000 6.72470000 -0.03310000
-5.02310000 6.97910000 0.02010000
-5.53150000 6.80550000 0.14640000
-5.55600000 6.59490000 -0.19790000
-5.27130000 6.73850000 -0.19020000
-8.83320000 0.51860000 -0.24140000
-8.95390000 0.82140000 -0.27540000
-8.84140000 0.85240000 -0.29710000
-8.80680000 0.51460000 -0.28790000
-5.06960000 6.88710000 -0.15360000
-3.28590000 8.66090000 -0.33450000
-5.43790000 1.59980000 -0.17300000
-8.57780000 0.42740000 0.15030000
-8.68040000 0.36490000 -0.03740000
-8.68540000 0.50870000 0.11240000
-8.70380000 0.29380000 -0.06750000
-4.86430000 6.92330000 -0.17520000
-7.41880000 3.53650000 -0.15960000
-7.42420000 3.00570000 -0.16580000
-4.61690000 0.23480000 -0.10430000
-7.20190000 3.47180000 -0.18620000
-7.06530000 3.31210000 -0.19550000
-7.29990000 3.57410000 -0.22940000
-4.71750000 7.01790000 -0.03980000
-7.12800000 3.66700000 -0.20330000
-4.23890000 0.37190000 -0.12150000
-8.22200000 0.43220000 0.17890000
-5.39680000 6.95000000 -0.35390000
-4.27930000 5.67620000 -0.33600000
-5.99990000 6.29260000 -0.36250000
-8.02920000 0.32020000 0.14240000
-4.35130000 0.72030000 -0.12190000
-6.99980000 2.40970000 -0.18050000
-6.95180000 2.84590000 -0.21680000
-8.06290000 0.44690000 0.11250000
-8.21970000 0.57910000 0.18540000
-2.04860000 8.22630000 -0.19160000
-2.65470000 7.90870000 -0.21250000
-2.11890000 7.96560000 -0.20370000
-8.16410000 0.65010000 0.08460000
-8.01890000 0.54280000 -0.07250000
-3.31290000 1.66270000 -0.09140000
-2.83090000 1.70220000 -0.06080000
-2.11560000 6.08180000 -0.11810000
-2.50110000 5.25530000 -0.09110000
-1.61150000 4.79050000 -0.06840000
-8.70040000 0.33570000 -0.28550000
-1.84850000 6.14040000 -0.11450000
-2.49270000 6.01620000 -0.10960000
-1.58820000 8.50910000 -0.10560000
-2.30840000 8.30370000 -0.10390000
-6.59470000 3.35480000 -0.20390000
-6.71260000 2.84030000 -0.21720000
-6.41220000 2.88360000 -0.20730000
-8.74540000 0.36020000 -0.22310000
-1.95590000 7.65540000 -0.18040000
-1.47950000 6.41350000 -0.14360000
-1.64810000 5.57240000 -0.13530000
-1.30000000 5.95620000 -0.10980000
-0.05430000 2.68820000 -0.05160000
-0.98290000 2.80730000 -0.06880000
-0.34170000 2.47060000 -0.05070000
-4.06640000 5.49970000 -0.15660000
-4.14130000 5.89000000 -0.14790000
-4.58480000 5.62350000 -0.16040000
-3.14320000 5.81760000 -0.15950000
-3.36080000 4.81530000 -0.15010000
-2.88490000 5.17030000 -0.16170000
-4.66290000 6.01230000 -0.16420000
-4.61140000 6.35690000 -0.21210000
-4.39910000 6.11250000 -0.19490000
-2.30450000 8.47780000 0.11000000
-1.79600000 8.60640000 0.06010000
-8.22270000 0.81530000 -0.03100000
-2.35720000 8.36700000 -0.00110000
-1.85620000 8.70800000 0.12780000
-1.29490000 3.16920000 -0.07850000
-8.08860000 0.67420000 -0.16000000
-0.49510000 3.46980000 -0.06520000
-1.68840000 8.75310000 0.15760000
-1.47220000 8.68520000 0.10630000
-4.00860000 6.09520000 -0.19040000
-8.20200000 0.94170000 -0.14450000
-1.11050000 8.61800000 -0.07110000
-6.72070000 3.71050000 -0.22880000
-8.05430000 0.77780000 -0.21440000
0.03200000 3.50110000 -0.04790000
0.01310000 3.07960000 -0.02550000
-1.62900000 8.95130000 0.17380000
-2.73080000 5.90730000 -0.14900000
-3.74260000 5.48060000 -0.15480000
-3.91480000 5.48650000 -0.16730000
0.32080000 3.26790000 -0.04140000
-0.34000000 3.74930000 -0.04600000
-1.45870000 1.36990000 -0.05950000
-3.54310000 5.70090000 -0.17020000
-3.59440000 6.00050000 -0.14960000
-7.96010000 0.59210000 -0.19150000
-1.28050000 8.48150000 -0.16170000
-3.58960000 6.32560000 -0.14000000
-3.92570000 6.28810000 -0.17790000
-3.21780000 6.26790000 -0.16780000
-8.97230000 1.40250000 0.11740000
-0.89620000 8.13660000 -0.15210000
-1.71330000 7.30260000 -0.13460000
-1.15050000 7.64560000 -0.12990000
-8.72010000 1.90250000 0.16220000
-8.91170000 1.83220000 0.14360000
-9.08600000 1.42910000 -0.05740000
-9.07360000 1.71230000 0.02010000
-6.39010000 6.50850000 0.13520000
-5.94080000 6.59110000 0.13710000
-5.52580000 6.93250000 0.18800000
-9.00970000 1.90780000 0.08010000
-6.25380000 6.83050000 0.11040000
-5.84430000 7.00550000 0.15660000
-6.03190000 7.04980000 0.07110000
-0.20820000 8.05160000 -0.12980000
-0.61150000 7.51460000 -0.13550000
-6.14390000 3.46770000 -0.20120000
-6.27660000 3.70150000 -0.20610000
-6.27650000 3.47300000 -0.22430000
-9.14250000 1.72880000 -0.15960000
-5.32520000 7.19630000 0.17580000
-5.56740000 7.28640000 0.14340000
-8.14310000 4.26050000 0.15440000
-8.57480000 3.54640000 0.06470000
-8.55960000 3.40430000 0.11900000
-6.19750000 7.03300000 -0.07880000
-5.74990000 7.32000000 -0.02080000
-8.27890000 4.21480000 0.07430000
-4.01740000 0.56750000 -0.32910000
-3.61670000 0.86120000 -0.35680000
-3.12520000 0.70740000 -0.32820000
-8.42270000 1.55220000 0.09700000
-5.18600000 7.00000000 0.12620000
-1.33510000 8.83240000 0.16310000
-1.31420000 9.03130000 0.17160000
-1.98200000 2.07540000 -0.08740000
-0.66470000 9.02620000 0.20430000
-4.96930000 7.13870000 0.16360000
-8.58350000 3.79310000 -0.12050000
-8.35510000 1.54210000 -0.04850000
-3.53340000 1.15010000 -0.33590000
-8.59630000 3.85180000 -0.27280000
-8.75140000 3.50780000 -0.24410000
-4.72020000 7.11960000 0.12680000
-1.10500000 8.28640000 -0.18160000
-8.48320000 3.86820000 -0.31450000
-8.65990000 3.59200000 -0.31610000
-4.49370000 7.36010000 0.16670000
-1.44130000 1.91370000 -0.07380000
-8.32450000 1.89890000 -0.06520000
-6.93820000 4.72360000 -0.32910000
-7.29220000 4.27670000 -0.33260000
-7.42350000 4.35570000 -0.33480000
-8.35580000 2.19890000 0.08030000
-4.20210000 7.22300000 0.13760000
-4.04270000 1.53490000 -0.11270000
-5.08850000 0.93450000 -0.11770000
-4.73350000 0.73390000 -0.09370000
-8.02390000 4.64720000 0.10670000
-8.25110000 4.43240000 -0.05860000
-4.14550000 7.12620000 -0.01580000
-3.97930000 7.20030000 0.10840000
-3.97410000 7.08810000 -0.00330000
-8.25880000 1.76700000 -0.22050000
-7.62700000 4.95140000 0.14720000
-3.80590000 7.08430000 0.01750000
-3.74290000 7.21200000 0.12280000
-3.61020000 7.44270000 0.15380000
-3.62890000 7.11150000 -0.03600000
-7.93680000 4.91440000 0.01790000
-5.00410000 1.24060000 -0.33710000
-8.36120000 4.38100000 -0.21260000
-9.09620000 1.19650000 -0.24040000
-9.05540000 1.29310000 -0.30580000
-4.09150000 1.10230000 -0.36650000
-0.51600000 0.72830000 0.41430000
-8.36760000 4.36710000 -0.27170000
-8.28390000 4.43610000 -0.32170000
-0.20520000 0.56130000 0.71570000
-6.30120000 4.12810000 -0.21570000
-5.97580000 3.83880000 -0.21120000
-0.27720000 0.69030000 0.61680000
-9.12430000 1.39250000 -0.28960000
-8.64260000 1.48590000 -0.30660000
-0.04950000 0.71760000 0.66440000
-0.42830000 0.84980000 0.33490000
-0.70130000 8.72810000 0.05040000
-9.15690000 1.68000000 -0.26160000
-5.60410000 4.31700000 -0.21890000
-5.29560000 3.95980000 -0.18280000
-8.27610000 3.70920000 -0.34490000
-9.11740000 1.88630000 -0.31190000
-4.57260000 1.53230000 -0.34490000
-0.18460000 0.84810000 0.51910000
-0.16650000 0.95660000 0.32660000
-2.99250000 6.56720000 -0.15050000
-4.02930000 1.31950000 -0.36660000
-0.91150000 8.80710000 0.15130000
0.13130000 0.74050000 0.61610000
-4.38770000 1.80410000 -0.14510000
0.03180000 0.91320000 0.42490000
-8.12460000 4.71910000 -0.15430000
-8.17120000 4.71540000 -0.28330000
-4.20060000 2.18590000 -0.15580000
-8.07570000 4.88400000 -0.19360000
-1.18380000 0.59530000 -0.05660000
-8.09370000 4.90560000 -0.30480000
-8.08920000 4.75660000 -0.34060000
-7.99780000 4.90680000 -0.34950000
-8.25030000 1.37650000 -0.20260000
-8.09090000 1.03820000 -0.22740000
-2.28100000 6.50440000 -0.09870000
-8.03980000 4.72640000 -0.34880000
-7.79350000 5.32990000 -0.21020000
-7.85060000 5.18800000 -0.11350000
-7.77160000 5.33310000 -0.29930000
-1.07070000 0.44470000 -0.00280000
-0.80240000 0.64950000 0.13850000
-3.94100000 1.88430000 -0.32530000
-3.90960000 1.42880000 -0.34390000
-3.80500000 1.85330000 -0.13160000
-7.93950000 3.62800000 0.07570000
-7.75840000 3.90450000 -0.06750000
-7.74450000 4.14020000 0.09510000
-7.71090000 3.84700000 -0.12090000
-4.95590000 3.83870000 -0.20060000
-5.52730000 3.62790000 -0.20890000
-5.18680000 3.66780000 -0.18220000
-3.98630000 6.82260000 -0.34780000
-3.33130000 6.98360000 -0.19360000
-2.81250000 7.39300000 -0.21450000
-2.69320000 6.89720000 -0.16600000
-7.55080000 4.28420000 -0.07630000
-4.85410000 4.36510000 -0.18760000
-4.59390000 3.88510000 -0.17040000
-3.92610000 6.58250000 -0.20030000
-5.21460000 4.31570000 -0.20510000
-7.37320000 3.67240000 -0.19860000
-7.44330000 3.73130000 -0.13360000
-0.88890000 0.75100000 -0.01630000
-2.34230000 7.03290000 -0.13180000
-7.29770000 3.72900000 -0.21410000
-7.24780000 3.89200000 -0.16550000
-0.67620000 0.84500000 0.05910000
-4.20590000 6.80160000 -0.21000000
-0.68340000 1.21850000 -0.05690000
0.39780000 8.11950000 -0.14070000
-8.19020000 3.77870000 0.16680000
-7.45450000 4.88720000 0.16390000
-8.09060000 3.52420000 0.16540000
-0.22730000 8.86650000 0.17700000
-7.52530000 4.53720000 0.06510000
-7.88430000 0.31760000 -0.05860000
-0.48810000 8.65010000 -0.13540000
-4.63690000 6.95150000 -0.13940000
-3.72370000 1.20340000 -0.31940000
-3.69480000 1.04170000 -0.37290000
-0.28460000 8.76170000 0.02760000
-4.38350000 7.03140000 -0.12190000
-7.72300000 0.32920000 -0.18410000
-0.33190000 8.80020000 0.13480000
-0.12820000 8.73680000 0.01360000
-5.14300000 4.55030000 -0.21960000
-4.26680000 6.98450000 -0.18700000
0.02930000 8.76340000 0.11410000
-7.60110000 0.24540000 -0.19610000
-0.14650000 8.62680000 -0.11590000
0.24390000 8.71350000 0.01500000
0.24060000 8.60290000 -0.14770000
-7.86810000 0.44690000 -0.13160000
-6.40160000 4.96780000 -0.24110000
-6.29390000 4.73810000 -0.21520000
-6.27320000 5.09560000 -0.20610000
-4.13190000 7.06710000 -0.13430000
-5.72160000 5.05570000 -0.19640000
-5.43310000 5.00370000 -0.22930000
-0.34930000 8.56230000 -0.17210000
-7.46360000 4.92170000 -0.34640000
-7.72250000 4.53530000 -0.34590000
-7.75600000 0.57340000 -0.18360000
-3.91970000 6.94300000 -0.17580000
-7.53540000 0.47590000 -0.18120000
-0.53220000 1.02790000 -0.00580000
-0.31780000 1.00510000 0.12730000
-7.22680000 4.29490000 -0.14980000
-6.58450000 4.64090000 -0.20120000
-6.25550000 4.45590000 -0.23660000
-0.14010000 8.50190000 -0.15450000
-7.12020000 4.17300000 -0.33260000
-5.53040000 4.74360000 -0.22980000
0.39580000 8.50670000 -0.16630000
-7.15830000 0.47940000 -0.17350000
-5.97350000 3.62150000 -0.32790000
0.02470000 1.00500000 0.23120000
-1.46260000 6.84390000 -0.12730000
-5.46300000 4.58890000 -0.20550000
-1.90030000 9.06660000 0.12750000
-2.06540000 9.15440000 -0.09040000
-1.62130000 9.17190000 0.07270000
-3.56180000 6.51670000 -0.16410000
-2.00880000 8.97330000 0.16110000
-7.89790000 0.83290000 -0.22130000
-7.59190000 0.88600000 -0.21220000
-2.76520000 8.94310000 -0.33380000
-7.16520000 0.77630000 -0.17840000
-3.50990000 6.80750000 -0.19140000
-6.49550000 2.12510000 -0.19390000
-6.36740000 1.82090000 -0.17930000
-6.23980000 1.92960000 -0.13260000
-6.05550000 1.69730000 -0.18320000
-6.41900000 2.18430000 -0.16470000
-6.15960000 2.01920000 -0.15920000
-6.02930000 1.83330000 -0.14630000
-2.39490000 9.11020000 -0.24510000
-5.86740000 1.97160000 -0.17740000
-6.26500000 3.65780000 -0.32950000
-5.88410000 2.20220000 -0.19010000
-2.06810000 9.08670000 -0.33820000
-2.94500000 8.64920000 -0.34650000
-6.17520000 2.09720000 -0.19680000
-2.57020000 9.05680000 -0.29690000
-6.29330000 2.29760000 -0.19620000
-2.15350000 9.14640000 -0.32830000
-6.05560000 2.50090000 -0.19820000
-5.75210000 1.75690000 -0.18040000
-1.98060000 8.56640000 -0.35730000
-5.84370000 5.43970000 -0.19360000
-5.97000000 3.48010000 -0.32750000
-6.08730000 3.55070000 -0.32990000
-1.95270000 5.99510000 -0.34550000
-5.63040000 2.29750000 -0.16380000
-5.37430000 2.00950000 -0.17650000
-3.16100000 7.02180000 -0.34670000
-1.78800000 9.25930000 -0.23500000
-1.99980000 9.21750000 -0.30600000
-0.51490000 1.93340000 -0.04660000
-1.33790000 9.29890000 -0.13400000
-3.81040000 7.03780000 -0.09270000
-1.66240000 9.25990000 -0.31210000
-4.99400000 4.71860000 -0.18870000
-3.64960000 6.96820000 -0.13320000
-7.44960000 5.48820000 0.11130000
-4.76940000 4.95150000 -0.21760000
-1.27880000 5.70050000 -0.12610000
-0.68960000 6.17930000 -0.10030000
-6.49380000 0.40550000 -0.15340000
-6.37240000 0.29920000 -0.17640000
-7.76460000 5.12800000 0.03580000
-5.12340000 2.43790000 -0.19000000
-3.50170000 7.19260000 -0.11140000
-3.43570000 7.12740000 -0.16360000
-6.80080000 0.75650000 -0.14700000
-1.46760000 9.08260000 0.18080000
-7.47410000 5.63590000 0.00400000
-1.34960000 9.15950000 0.13800000
0.12310000 5.28880000 -0.08330000
0.32450000 6.09380000 -0.08990000
-1.01850000 9.17710000 0.17460000
-5.49720000 2.75640000 -0.18370000
-6.56520000 1.15590000 -0.17330000
-6.57220000 0.67300000 -0.17270000
-6.18440000 0.63410000 -0.14210000
-0.87690000 9.29120000 0.03920000
-6.89260000 1.12530000 -0.16540000
-7.21060000 5.45580000 0.13720000
-7.25800000 4.99470000 0.09180000
-7.00970000 5.43330000 0.12080000
-5.26520000 2.16890000 -0.14340000
-0.41000000 9.22770000 0.18500000
-7.11710000 5.08280000 -0.04040000
-1.20430000 4.80790000 -0.10840000
-0.33550000 1.24280000 -0.03620000
-5.18270000 5.27280000 -0.18480000
-6.83230000 5.55130000 0.06110000
-6.59660000 5.73720000 -0.07130000
-5.26400000 2.28350000 -0.17620000
0.12840000 9.33970000 -0.00850000
-4.64320000 2.30270000 -0.16520000
-0.61130000 9.37760000 -0.14370000
-5.34890000 5.59730000 -0.19250000
-0.16760000 1.11560000 0.03700000
-7.20550000 4.86210000 -0.10860000
-7.21280000 4.73130000 -0.12350000
0.01460000 1.12410000 0.03340000
0.07890000 1.17480000 0.00210000
-4.60280000 5.14780000 -0.18210000
0.05920000 1.60860000 -0.03030000
-5.05200000 2.65790000 -0.16780000
0.38450000 9.23010000 0.20990000
-5.05030000 5.56610000 -0.17630000
-5.91600000 1.31370000 -0.32110000
-4.61560000 2.66410000 -0.32370000
-7.51420000 5.15900000 -0.36170000
-2.62280000 4.60030000 -0.14390000
-2.82990000 3.94400000 -0.12650000
-4.29280000 2.98870000 -0.16400000
-6.77710000 1.87570000 -0.15950000
-7.30080000 1.69910000 -0.16450000
-6.80290000 1.42470000 -0.16340000
-6.87020000 5.27360000 -0.32110000
0.88310000 0.65510000 -0.33410000
0.66300000 0.68300000 -0.32980000
0.83020000 0.95080000 -0.33020000
-7.55080000 1.39970000 -0.18910000
-7.78780000 1.50840000 -0.22950000
-7.48860000 1.15110000 -0.21540000
-7.55720000 5.45380000 -0.34610000
-4.46720000 4.17510000 -0.18610000
-4.01150000 3.45620000 -0.16510000
-3.75140000 3.92840000 -0.16470000
-4.74900000 3.05150000 -0.16850000
0.70460000 7.65900000 -0.35900000
-0.16670000 9.03950000 -0.35510000
-7.87290000 1.20160000 -0.22900000
-1.17220000 9.36620000 -0.28100000
-7.31910000 1.14210000 -0.18090000
-1.20180000 9.34400000 -0.33630000
-1.31170000 9.26550000 -0.35920000
-0.42170000 9.35050000 -0.32750000
-0.42850000 9.40610000 -0.28350000
-6.94150000 4.92630000 -0.14570000
-6.99630000 5.00950000 -0.19410000
-6.66100000 4.92830000 -0.16840000
-7.87040000 2.01320000 -0.22780000
-7.96960000 1.59690000 -0.26410000
-7.66410000 1.76770000 -0.19070000
-2.21850000 4.73050000 -0.07130000
-4.33250000 4.56760000 -0.17290000
-4.07130000 4.63600000 -0.18550000
-7.99390000 1.66230000 -0.30850000
-7.42470000 1.43440000 -0.32190000
-5.78530000 3.16780000 -0.19430000
-0.16160000 9.41880000 -0.22070000
-0.27380000 0.80140000 -0.31180000
-1.23480000 2.35920000 -0.32190000
0.65210000 3.09520000 -0.33760000
-5.37310000 2.96730000 -0.20070000
-3.04620000 2.11900000 -0.10360000
-3.48410000 2.25490000 -0.11370000
-6.75730000 5.45320000 -0.17820000
-6.81150000 5.10490000 -0.19300000
-6.69360000 5.36890000 -0.23320000
-3.03820000 2.41970000 -0.12430000
-6.07310000 7.21230000 -0.25960000
-6.00650000 7.18480000 -0.33560000
-6.35150000 6.78380000 -0.34470000
-6.69230000 1.32640000 -0.19690000
-5.50390000 7.21800000 -0.36190000
-5.56890000 7.44540000 -0.32680000
-5.69320000 7.45780000 -0.19180000
-7.02330000 2.27950000 -0.34350000
-5.77200000 7.40210000 -0.30790000
-1.12550000 6.47450000 -0.09380000
-5.65820000 7.49030000 -0.25430000
-6.37380000 1.49140000 -0.15770000
-6.58010000 5.14550000 -0.19370000
-4.22190000 5.05960000 -0.16900000
-0.87220000 6.68260000 -0.12390000
-5.31960000 7.63780000 -0.25950000
-5.33880000 7.56650000 -0.34540000
-6.38890000 5.57120000 -0.21010000
-4.29460000 7.32210000 -0.34330000
-4.95440000 7.32120000 -0.36940000
-5.29140000 7.63610000 -0.31750000
-8.67610000 3.06400000 -0.33070000
-1.49070000 7.23360000 -0.15280000
-0.75430000 7.18740000 -0.14810000
-4.59840000 7.59250000 -0.35090000
-4.92720000 7.75230000 -0.28040000
-4.80280000 7.72770000 -0.33850000
-7.24990000 3.78040000 -0.33510000
-1.38580000 4.10510000 -0.06440000
-7.93290000 3.46760000 -0.33910000
-6.59870000 1.90730000 -0.18980000
-5.07820000 3.24730000 -0.17110000
-3.99940000 5.14810000 -0.16960000
-4.63780000 7.79870000 -0.29040000
-4.37430000 7.76410000 -0.32000000
-4.08050000 5.22660000 -0.19170000
-8.77360000 3.04270000 0.08150000
-8.88910000 2.70520000 0.04920000
-8.77140000 2.65770000 0.15450000
-8.45770000 3.00140000 0.17660000
-4.12360000 7.72750000 -0.32700000
-3.90850000 7.72390000 -0.35620000
-4.34270000 7.78850000 -0.26290000
-4.14810000 7.77440000 -0.27030000
-0.27770000 6.70510000 -0.12140000
-3.95880000 8.00760000 -0.32260000
-8.88200000 2.98940000 -0.07970000
-3.59810000 7.22770000 -0.36100000
-3.52790000 7.65980000 -0.34360000
-2.46020000 2.64270000 -0.12260000
-8.32070000 2.69850000 0.17320000
-7.03900000 6.10880000 0.07370000
-8.19640000 2.90970000 0.12940000
-3.50520000 7.39170000 -0.00260000
-8.06110000 3.41960000 0.09940000
-8.12890000 3.05650000 0.01620000
-3.46250000 7.39130000 -0.11810000
-3.35090000 7.39700000 -0.18360000
-6.94450000 6.07870000 0.11930000
-7.43490000 5.79730000 -0.22820000
-3.04410000 7.60680000 -0.22110000
-5.20460000 3.50260000 -0.20150000
-7.14210000 6.15830000 -0.16940000
-0.12470000 7.31620000 -0.14040000
-6.94440000 6.29530000 -0.01380000
-7.20730000 6.09220000 -0.28630000
-7.34140000 5.82670000 -0.32010000
-3.67190000 8.11920000 -0.34760000
-6.51030000 6.12690000 0.14360000
-6.58000000 5.90740000 0.08420000
-4.72540000 3.54170000 -0.19120000
-8.92450000 2.34360000 0.12420000
-9.01950000 2.47510000 -0.04980000
-9.09880000 2.10360000 -0.12190000
-6.52700000 5.78310000 -0.17240000
-6.42140000 5.77220000 -0.22240000
-9.14230000 2.15180000 -0.27160000
-0.89370000 4.23850000 -0.06260000
-9.08860000 2.51670000 -0.23610000
-9.06570000 2.47970000 -0.31420000
-6.24060000 6.25280000 0.10110000
-6.30140000 6.10920000 0.02330000
-6.55400000 6.57510000 0.11440000
-0.26800000 4.13000000 -0.04850000
-0.14040000 3.85580000 -0.08090000
0.20210000 4.05600000 -0.05610000
-8.99540000 2.88910000 -0.24030000
-6.84190000 6.44150000 -0.32970000
-6.64910000 6.15560000 -0.34900000
-0.35630000 4.47860000 -0.08060000
-5.40380000 7.53050000 -0.07790000
-3.16610000 2.87280000 -0.10610000
-9.02770000 2.75890000 -0.30030000
-4.88380000 7.50240000 0.15770000
-4.98760000 7.58020000 0.07040000
-3.26540000 3.09680000 -0.13750000
-6.14300000 6.13210000 -0.17940000
-8.50320000 2.30240000 0.15900000
-6.18940000 5.94460000 -0.33990000
-4.91100000 7.69280000 -0.11460000
-8.26420000 2.21230000 -0.09160000
-2.21250000 7.37030000 -0.14570000
-4.43900000 7.64930000 0.14830000
-8.17060000 2.24900000 -0.19130000
-8.08490000 2.19430000 -0.23560000
-4.58680000 7.76740000 -0.11050000
-4.39000000 7.57970000 0.18330000
-4.34130000 7.72520000 -0.04120000
-4.11160000 7.51170000 0.18740000
-4.20580000 7.63220000 0.13450000
-8.27900000 1.69280000 -0.31560000
-8.43850000 2.20650000 -0.33620000
-4.01190000 7.62960000 0.14320000
-4.43110000 2.85560000 -0.32400000
-3.46130000 1.96840000 -0.32470000
-4.21160000 2.42060000 -0.32460000
-8.13280000 2.66910000 -0.14050000
-6.89200000 6.46820000 -0.27760000
-6.55830000 6.78070000 -0.15270000
-4.09620000 7.73980000 -0.06180000
-4.01610000 7.83810000 -0.03440000
-4.21200000 7.75100000 -0.17400000
-6.53350000 6.67810000 0.07670000
-4.02080000 7.97500000 -0.26240000
-3.88880000 8.11180000 -0.12520000
-3.80530000 7.40080000 0.20320000
-3.82890000 7.62800000 0.19820000
-4.46160000 2.57100000 -0.32850000
-3.88240000 7.87000000 0.13650000
-3.42960000 7.94420000 0.17620000
-3.43880000 7.69440000 0.12350000
-3.34330000 7.67660000 -0.02010000
-3.61030000 8.09570000 0.16730000
-6.47350000 6.86770000 -0.28750000
-8.01990000 2.73690000 -0.19820000
-7.91670000 2.78880000 -0.15710000
-2.53120000 1.40790000 -0.32480000
-3.22350000 7.97850000 0.12640000
-6.14690000 0.40590000 -0.15970000
-5.63110000 0.35590000 -0.10330000
-3.20460000 7.69560000 -0.14730000
-8.84740000 3.21260000 -0.19210000
-8.90670000 2.96970000 -0.31760000
-3.09150000 7.87240000 -0.07270000
-8.85890000 3.18590000 -0.28990000
-3.71710000 8.19570000 0.08270000
-3.50130000 8.35700000 0.12290000
-3.54750000 8.42350000 0.01400000
-3.58410000 8.49260000 -0.21180000
-8.05210000 2.84710000 -0.20140000
-7.97230000 2.96540000 -0.19480000
-3.74600000 8.34530000 -0.27230000
-3.75540000 8.24350000 -0.32470000
-6.17290000 5.68190000 -0.18070000
-6.01290000 5.88940000 -0.22770000
-5.79030000 5.79960000 -0.19230000
-5.90450000 6.26590000 -0.21170000
-5.42720000 0.36670000 -0.11570000
-5.69150000 5.97170000 -0.24340000
-0.95160000 2.32460000 -0.04620000
-3.55600000 8.50410000 -0.31700000
-5.32170000 5.88440000 -0.19350000
-0.90790000 2.56310000 -0.07820000
0.00700000 7.15820000 -0.12240000
-7.63890000 2.20450000 -0.18650000
0.45510000 7.46620000 -0.12360000
-3.00100000 8.09860000 0.07430000
-2.85370000 8.11240000 -0.03900000
-2.96210000 7.94610000 -0.15210000
-7.46040000 2.20900000 -0.18360000
-2.89940000 7.85390000 -0.20240000
-7.19510000 2.19150000 -0.16690000
-7.32620000 2.23640000 -0.20660000
-7.42560000 2.28200000 -0.21580000
-7.21230000 2.38280000 -0.19820000
-5.27630000 5.95500000 -0.22880000
-4.98570000 6.04690000 -0.20460000
-7.81480000 2.54450000 -0.17970000
-7.42640000 2.59460000 -0.18210000
-7.47850000 2.40480000 -0.21110000
-2.90910000 8.29080000 0.15160000
-2.76280000 8.27920000 0.11650000
-2.51760000 8.44190000 0.10810000
-6.07690000 1.38030000 -0.17520000
-2.76070000 8.07540000 -0.16370000
-5.19150000 5.45720000 -0.20690000
-6.58610000 2.52100000 -0.18800000
-6.50090000 2.60000000 -0.21540000
-5.87770000 6.50950000 0.07230000
-5.80120000 6.47550000 -0.08960000
0.21600000 3.78860000 -0.05670000
7.12100000 4.34460000 0.22870000
6.86260000 4.20760000 0.19180000
7.63780000 3.94510000 0.25800000
2.05770000 2.73710000 -0.03670000
2.30240000 3.11740000 -0.02410000
1.78910000 3.19630000 -0.03220000
7.41780000 4.23990000 0.21020000
2.58470000 3.13490000 -0.04540000
6.69550000 1.47040000 0.06700000
6.80600000 1.43640000 0.11280000
7.04950000 1.71110000 0.15870000
2.62970000 8.92420000 0.15410000
2.69840000 8.82560000 0.27260000
3.11960000 8.71200000 0.19950000
7.51510000 3.49390000 0.25770000
3.02770000 8.85340000 -0.02880000
6.99820000 2.33900000 0.05740000
6.38630000 1.33680000 0.05950000
0.35290000 0.64740000 0.65850000
7.00930000 1.93140000 0.08620000
3.13380000 4.98660000 -0.37450000
3.26670000 4.84780000 -0.37450000
3.20620000 4.75050000 -0.37590000
7.20100000 1.76870000 0.16220000
7.17520000 1.60260000 0.17110000
7.26350000 1.65410000 0.11010000
0.24670000 0.79880000 0.50350000
0.44060000 0.69330000 0.52320000
7.56440000 4.33730000 0.17500000
7.70920000 4.26840000 0.33420000
7.49820000 4.55760000 0.22080000
1.49920000 3.04640000 -0.05910000
1.20370000 2.76630000 -0.03060000
1.37650000 5.38060000 -0.05430000
0.95040000 5.10110000 -0.06860000
1.58170000 5.26680000 -0.03160000
7.83230000 3.91110000 0.29020000
7.82400000 4.12430000 0.40470000
3.64480000 5.45830000 -0.35050000
3.57680000 5.61040000 -0.34850000
7.46090000 4.35100000 0.14990000
3.22020000 8.66810000 -0.35340000
4.51240000 7.09110000 -0.34820000
2.55440000 2.02080000 0.00780000
4.48760000 3.57280000 -0.37460000
3.67870000 5.51310000 -0.34780000
5.21810000 4.04350000 -0.33650000
6.86530000 5.61860000 0.37830000
6.83650000 5.54970000 0.30280000
7.13710000 5.32700000 0.38900000
0.75100000 0.46560000 0.38310000
0.60330000 0.59960000 0.45510000
0.39630000 0.74640000 0.42890000
0.48650000 9.12790000 0.25450000
0.35510000 8.90270000 0.23230000
5.55980000 2.41890000 -0.34990000
5.67810000 1.31160000 -0.32410000
5.29030000 1.97890000 -0.36480000
6.77620000 4.77970000 0.22800000
6.61940000 4.48720000 0.19760000
6.85930000 4.56220000 0.21300000
7.63310000 1.27730000 0.24440000
7.31790000 0.69240000 0.22830000
7.68100000 1.04760000 0.20650000
0.14950000 0.88070000 0.35440000
7.17880000 1.15120000 0.18210000
6.64720000 4.93180000 0.21690000
1.95360000 3.41680000 -0.03990000
1.48110000 3.31570000 -0.02400000
6.24860000 4.55320000 0.16580000
6.72650000 4.87790000 0.25460000
6.78780000 4.89160000 0.21950000
7.05890000 4.56890000 0.16840000
6.94960000 1.30960000 0.16310000
7.53170000 1.50380000 0.23080000
6.87990000 4.80910000 0.14870000
6.75340000 4.96120000 0.14070000
1.20900000 9.08870000 0.26740000
0.85080000 9.23740000 0.16370000
7.78140000 1.33520000 0.25880000
6.79980000 4.40180000 0.17260000
7.95300000 1.45540000 0.18680000
7.99570000 1.35520000 0.08480000
1.27190000 9.26490000 -0.01170000
0.69750000 8.88000000 0.25420000
1.83810000 8.76120000 0.28370000
6.95080000 4.89600000 0.06450000
7.25380000 4.61600000 0.06160000
7.64220000 0.77680000 0.11270000
7.84400000 0.75210000 0.06400000
1.34270000 9.13400000 0.23970000
7.09110000 4.86590000 0.04480000
6.50270000 5.11890000 0.22630000
0.55770000 0.51140000 -0.34480000
8.20480000 1.02360000 0.06730000
6.52240000 5.21790000 0.17290000
7.27670000 1.50750000 0.16860000
7.41950000 1.54180000 0.16830000
6.35410000 5.35970000 0.19930000
6.53580000 5.26900000 0.07220000
7.33980000 1.58540000 0.06910000
2.06010000 9.02220000 0.22720000
6.73150000 5.12780000 0.08150000
6.82740000 5.16530000 0.05300000
6.58450000 5.30610000 0.02250000
6.55330000 5.53530000 0.02110000
7.30300000 1.78790000 0.10280000
0.72350000 1.32480000 -0.01740000
0.33740000 1.00140000 -0.00960000
0.67800000 0.77210000 -0.01360000
0.71000000 6.37880000 -0.06080000
7.38150000 1.74980000 0.09380000
7.48020000 1.65290000 0.16080000
7.56010000 1.77120000 0.23050000
7.41360000 1.81030000 0.15320000
7.17080000 4.87560000 0.06410000
7.26180000 4.99270000 0.28720000
6.89120000 5.37060000 0.15030000
7.07590000 5.11400000 0.11930000
7.82280000 1.66040000 0.27560000
0.92690000 0.42200000 0.18910000
7.94510000 1.60120000 0.26410000
6.90360000 5.24140000 0.07770000
5.18820000 2.96340000 0.02960000
5.33600000 2.29860000 0.06280000
5.73070000 2.48370000 0.04250000
7.97190000 1.93000000 0.27340000
0.91130000 0.52540000 0.09270000
1.08190000 0.42130000 0.02230000
0.65390000 6.78670000 -0.10860000
1.53090000 0.26400000 -0.01210000
0.42410000 9.41580000 -0.26060000
4.69160000 3.69980000 0.01070000
5.48930000 3.99180000 0.02440000
7.51540000 4.70300000 0.38250000
2.96870000 3.28000000 0.00630000
2.86000000 2.63150000 -0.02560000
1.43470000 0.76940000 -0.00940000
0.40320000 9.36820000 -0.32260000
1.67870000 0.55930000 0.03510000
1.57470000 9.18150000 -0.34660000
0.83070000 0.64250000 0.05060000
0.96220000 0.58200000 0.04490000
5.79640000 3.39290000 0.04960000
1.01450000 0.69340000 -0.00110000
6.19150000 3.82340000 0.06110000
6.21880000 3.33420000 0.07760000
0.33940000 7.15460000 -0.12580000
6.54540000 3.42900000 0.06280000
1.23960000 9.34310000 -0.22070000
1.02310000 0.95470000 -0.02500000
6.50220000 3.79280000 0.03350000
8.14040000 0.22820000 0.23830000
1.11880000 9.35450000 -0.29530000
7.45340000 5.36150000 0.41250000
7.67640000 4.56620000 0.41360000
7.92180000 4.59160000 0.43450000
7.88590000 4.92520000 0.38620000
8.00070000 4.62970000 0.43040000
8.37760000 0.70640000 0.34250000
0.77550000 6.90580000 -0.12790000
0.83200000 7.12460000 -0.12070000
2.36950000 3.40840000 -0.38150000
2.51510000 3.64220000 -0.37960000
3.64750000 3.31280000 -0.38420000
3.25960000 2.37610000 -0.39230000
7.34340000 4.59360000 0.07810000
8.85810000 0.43660000 0.42980000
8.49770000 1.04170000 0.41880000
6.43370000 2.88270000 0.05420000
8.70550000 1.10880000 0.46710000
7.38250000 5.61290000 0.38730000
7.79300000 5.31510000 0.05990000
8.10040000 4.66350000 0.27320000
8.35530000 0.81480000 0.22390000
8.91480000 0.86190000 0.45440000
8.06520000 4.97690000 -0.09620000
7.42940000 5.63950000 0.30590000
0.86850000 5.82440000 -0.07180000
1.92970000 2.70520000 -0.37200000
1.72020000 2.75710000 -0.36880000
2.05170000 3.77700000 -0.37770000
1.09850000 6.21190000 -0.03080000
8.17170000 0.35060000 0.15330000
8.22680000 0.56860000 0.10610000
8.09270000 0.37050000 0.09560000
5.80860000 4.39160000 0.02070000
1.16700000 6.35590000 -0.07110000
1.34890000 6.25320000 -0.03970000
1.12660000 6.61190000 -0.07110000
8.36060000 0.94300000 0.14330000
8.27930000 0.83560000 0.10560000
1.44290000 6.51700000 -0.05280000
8.05370000 4.89770000 -0.31290000
7.14040000 5.84840000 -0.32730000
7.91660000 5.18260000 -0.31350000
8.96370000 0.57620000 0.34920000
1.62010000 6.23770000 -0.01780000
1.52950000 1.65490000 -0.32700000
1.25250000 1.62860000 -0.32520000
9.04110000 0.41490000 0.03850000
8.05900000 3.53610000 0.35080000
8.06780000 3.67170000 0.41850000
3.40850000 0.69250000 0.03070000
1.67220000 6.44690000 -0.02080000
1.83820000 9.24520000 -0.31920000
1.35870000 6.90150000 -0.03090000
1.56590000 6.77770000 -0.06490000
2.35630000 8.85250000 0.29670000
9.07550000 1.11390000 0.29230000
7.94650000 3.35190000 -0.32010000
1.12890000 6.89760000 -0.04590000
8.96470000 1.24700000 0.41810000
9.17060000 0.88610000 -0.02120000
1.98110000 9.16500000 -0.02480000
8.26140000 4.22040000 0.38960000
8.39380000 3.77400000 0.44760000
8.48610000 3.76540000 0.41440000
8.50140000 3.87300000 0.29500000
8.59090000 1.48390000 0.45370000
8.82220000 1.36360000 0.45420000
1.31090000 1.93060000 -0.00870000
1.12820000 7.12700000 -0.01640000
0.34570000 2.29700000 -0.01520000
8.38050000 3.08540000 0.44120000
8.51320000 1.81140000 0.39500000
8.47150000 1.59720000 0.33290000
8.67670000 1.72080000 0.44190000
1.33770000 7.11390000 -0.07320000
1.46110000 7.08830000 -0.07310000
0.71790000 1.57790000 -0.32190000
8.55270000 2.07340000 0.43010000
1.78190000 6.71420000 -0.09140000
1.77400000 7.06030000 -0.06880000
8.47800000 4.17930000 -0.01120000
2.48840000 9.08740000 -0.17360000
8.92320000 1.84680000 0.45760000
2.13960000 6.57420000 -0.36000000
8.98750000 1.89480000 0.42800000
9.06840000 1.63340000 0.33480000
9.05570000 2.13210000 0.26330000
8.29890000 1.16320000 0.08790000
8.38020000 1.13590000 0.18670000
8.38610000 1.54140000 0.16790000
4.12090000 0.81850000 0.03580000
3.48600000 5.99210000 -0.03640000
3.48780000 5.66150000 -0.05080000
3.60430000 5.96020000 -0.05180000
3.27060000 5.68090000 -0.06720000
3.01400000 6.50820000 -0.05950000
3.04800000 5.42870000 -0.04770000
3.55820000 6.26840000 -0.05230000
3.71690000 6.13710000 -0.02650000
3.79550000 5.88320000 -0.02350000
3.67950000 5.41880000 -0.02350000
3.91760000 5.97230000 -0.04620000
1.16840000 1.45450000 -0.00210000
4.08500000 5.71640000 -0.02060000
8.15710000 4.91090000 -0.22900000
8.44580000 4.36220000 -0.21440000
1.82460000 9.27320000 -0.25180000
1.72350000 0.95720000 0.02030000
4.10250000 6.00630000 -0.01930000
2.33630000 9.15370000 -0.29770000
1.71800000 1.51620000 -0.00570000
8.16700000 4.86210000 -0.27960000
2.39480000 9.09120000 -0.34330000
4.75980000 1.25440000 0.04940000
5.34520000 0.45090000 0.07150000
8.01480000 5.11250000 -0.28480000
4.12370000 7.04290000 0.26340000
4.05120000 7.23290000 0.31120000
3.94390000 7.25050000 0.21590000
8.19870000 1.61470000 0.06350000
4.22530000 7.00650000 0.30810000
4.36630000 7.20250000 0.33330000
4.44970000 6.86320000 0.32660000
4.79480000 7.12140000 0.33460000
8.29450000 1.66740000 0.07630000
4.58260000 7.16040000 0.31530000
3.04650000 1.26720000 0.02420000
3.40140000 1.14540000 -0.00240000
6.75800000 3.62740000 0.03570000
6.86510000 3.21900000 0.04720000
3.60170000 1.35070000 0.05270000
8.08620000 1.71600000 0.15960000
5.17510000 6.83710000 0.35370000
5.19690000 7.11970000 0.34300000
6.58770000 3.94200000 0.05500000
6.80950000 3.68510000 0.07480000
6.69220000 3.91760000 0.12450000
5.15640000 7.21230000 0.27520000
5.74560000 6.99730000 0.31630000
6.96660000 3.55080000 0.17090000
6.99500000 3.67910000 0.19390000
3.89230000 5.36360000 -0.03250000
4.19060000 5.46490000 -0.01270000
6.95860000 3.32840000 0.07040000
0.38790000 3.85970000 -0.08780000
0.70060000 3.74350000 -0.05720000
0.60320000 4.00330000 -0.04830000
1.85650000 5.61740000 -0.04500000
1.77430000 6.15730000 -0.04580000
1.55910000 5.69750000 -0.04560000
1.38780000 5.86100000 -0.05290000
1.82500000 6.28590000 -0.08500000
2.81220000 9.01350000 -0.28770000
2.90390000 8.97110000 -0.33090000
0.88250000 4.58270000 -0.05140000
3.30520000 8.82530000 -0.29300000
3.43750000 8.70470000 -0.34280000
3.03700000 1.59560000 0.05560000
3.62300000 1.87870000 0.02730000
3.07730000 1.96810000 0.01700000
1.11210000 4.30530000 -0.06650000
3.73190000 7.80120000 0.31750000
3.69750000 7.69260000 0.27900000
4.00100000 7.40780000 0.30400000
1.40520000 4.10300000 -0.02260000
1.39950000 3.79930000 -0.02370000
3.73340000 7.52150000 0.13890000
3.93020000 7.14970000 0.06640000
2.10370000 4.08070000 -0.02510000
1.74790000 5.14340000 -0.04900000
3.84020000 8.16330000 0.29910000
3.78510000 8.04780000 0.32590000
3.98620000 8.09230000 0.22520000
4.08020000 7.91170000 0.32200000
9.18100000 1.45000000 0.06980000
3.40530000 7.89640000 0.24750000
3.55510000 7.72970000 0.16260000
1.93040000 5.36600000 -0.08420000
3.26070000 7.92740000 0.10290000
3.27070000 8.06150000 0.27100000
2.91560000 8.16580000 0.16830000
1.52890000 4.38880000 -0.07450000
3.07060000 7.92340000 -0.06280000
3.44270000 7.65970000 -0.05690000
1.70620000 4.36420000 -0.04400000
2.24110000 6.03570000 -0.06180000
2.00020000 5.04940000 -0.06390000
2.12120000 4.84120000 -0.02770000
2.56610000 5.19570000 -0.03350000
1.97470000 0.59970000 0.02810000
4.15020000 7.65660000 0.31990000
2.07580000 0.30050000 -0.00270000
9.17240000 1.63910000 -0.29200000
9.22550000 1.39100000 -0.25770000
9.18610000 1.21850000 -0.28540000
3.76560000 1.38880000 -0.35420000
4.05900000 1.13240000 -0.31520000
3.89460000 1.10320000 -0.36190000
3.78650000 5.12500000 0.00890000
4.35980000 5.44100000 0.05230000
8.99420000 1.43530000 -0.30820000
9.26550000 1.24210000 -0.19620000
4.30870000 7.50130000 0.31960000
4.43680000 7.44900000 0.30450000
9.26420000 1.03970000 -0.26810000
4.36840000 7.56750000 0.35050000
9.26380000 1.60400000 -0.19320000
4.28870000 7.68430000 0.28850000
4.39110000 7.62770000 0.33490000
4.37630000 7.66010000 0.25450000
4.44000000 5.62990000 0.00530000
4.46990000 5.75140000 -0.02850000
9.25880000 1.65270000 -0.25980000
4.28280000 5.26970000 0.06350000
4.65410000 5.08120000 0.08150000
4.48090000 7.32070000 0.31260000
8.14040000 3.16530000 0.32870000
4.61520000 7.26550000 0.25630000
4.60930000 7.35240000 0.12480000
4.97550000 5.56780000 0.13180000
4.52430000 5.57340000 0.07240000
4.71250000 7.26590000 0.25430000
2.09090000 0.68730000 -0.00030000
4.92060000 7.28070000 0.28020000
4.80800000 7.34170000 -0.00980000
5.08740000 5.12970000 0.12440000
4.44770000 7.57240000 0.31200000
4.81660000 5.64000000 0.06010000
4.54420000 7.46010000 0.09150000
4.44670000 7.60580000 0.17700000
4.47730000 0.72180000 -0.34500000
4.63070000 0.99170000 -0.32200000
5.07440000 5.71680000 -0.01820000
2.38450000 0.90130000 -0.00570000
4.18420000 7.87770000 0.28460000
4.27840000 7.88040000 0.13140000
8.76170000 3.01700000 0.40950000
7.12910000 2.47690000 0.09710000
7.19700000 2.36050000 0.16410000
4.40470000 7.84160000 -0.05440000
2.01980000 6.05340000 -0.09660000
2.27810000 5.41500000 -0.35380000
4.64610000 2.12440000 0.03220000
3.02930000 8.30940000 0.30180000
4.39530000 6.08170000 -0.04580000
2.87920000 0.46150000 0.00530000
2.23580000 6.20700000 -0.36720000
3.19080000 8.54830000 0.30900000
3.54730000 8.42060000 0.28080000
3.94260000 8.24000000 0.12200000
7.26680000 1.85580000 0.17850000
7.42450000 1.91410000 0.21060000
4.20350000 1.51210000 -0.29110000
3.50910000 8.52270000 0.17170000
2.91960000 0.93930000 0.01120000
7.51020000 2.60630000 0.22190000
3.89550000 8.43050000 -0.18810000
4.55320000 6.91480000 -0.34750000
4.16400000 8.21530000 -0.18890000
4.08660000 1.69420000 -0.34630000
4.37680000 1.72810000 -0.33250000
4.91460000 1.47750000 -0.32140000
3.40790000 8.69620000 -0.06410000
2.04990000 1.47560000 -0.01940000
2.21080000 1.22210000 0.01350000
7.96250000 2.36240000 0.31790000
8.02750000 2.29180000 0.29110000
7.97130000 2.81430000 0.34550000
7.76710000 2.86600000 0.30690000
4.13720000 6.48710000 -0.06080000
3.23970000 7.24080000 -0.09140000
8.75700000 3.59430000 0.01710000
8.75480000 3.73750000 -0.20230000
3.74980000 8.55510000 -0.28690000
3.74800000 7.32090000 -0.03420000
4.08820000 6.79250000 -0.00120000
3.96660000 6.82790000 -0.06020000
3.89940000 8.39410000 -0.33460000
1.53040000 4.67960000 -0.05070000
5.64210000 1.57760000 0.05370000
8.85030000 3.44460000 -0.11830000
8.44860000 4.18440000 -0.30180000
8.67800000 3.83270000 -0.28400000
8.83530000 3.12490000 -0.30860000
1.93610000 0.60040000 -0.32830000
2.55220000 0.95530000 -0.34230000
8.91390000 3.20310000 -0.29190000
2.17800000 1.92160000 -0.00660000
1.85710000 2.22430000 -0.02320000
2.36620000 1.89400000 -0.01770000
8.40710000 4.40820000 -0.26340000
4.21420000 6.78380000 0.19110000
4.28330000 6.66060000 0.15380000
4.31500000 6.76030000 0.31090000
4.59450000 6.58760000 0.07940000
4.53810000 6.73450000 0.27550000
5.92480000 0.39300000 0.08130000
4.97330000 7.29630000 0.15610000
4.86280000 6.69860000 0.26320000
4.81100000 6.79170000 0.31020000
6.27100000 0.93770000 0.10110000
6.33680000 0.46750000 0.10880000
8.94340000 3.22230000 -0.23510000
4.32750000 6.53150000 -0.01480000
4.14720000 6.62300000 -0.01480000
3.15420000 1.56210000 -0.34460000
6.44100000 0.80310000 0.10190000
6.50460000 0.60740000 0.10440000
1.27590000 4.19620000 -0.34070000
4.85200000 6.46380000 -0.03050000
1.91870000 3.79370000 -0.05610000
2.68260000 1.35870000 0.01990000
0.71000000 7.22920000 -0.10660000
5.53380000 5.86950000 -0.02040000
6.53440000 5.96800000 0.34650000
6.63850000 6.03810000 0.39620000
0.96350000 7.31150000 -0.13070000
6.71830000 5.62020000 0.17350000
4.93430000 0.68570000 -0.33640000
6.83810000 6.18880000 0.39500000
2.16550000 6.74000000 -0.07330000
2.95640000 4.36900000 -0.00810000
2.85550000 3.89870000 -0.01230000
3.57640000 3.39590000 0.00940000
2.54520000 3.91040000 -0.05010000
2.42920000 6.76700000 -0.06650000
6.40940000 6.56270000 0.38200000
2.78540000 4.34620000 -0.04510000
2.71740000 3.96710000 -0.06100000
2.69060000 4.44440000 -0.01370000
2.78150000 2.05920000 -0.00020000
1.87050000 7.64890000 -0.07040000
2.21190000 6.99370000 -0.06130000
2.21650000 6.83070000 -0.10230000
6.34390000 6.05350000 0.22560000
2.32810000 6.95350000 -0.08060000
2.80840000 1.54150000 -0.00010000
6.38610000 5.91120000 0.07470000
2.36730000 6.79710000 -0.09530000
1.04940000 7.51190000 -0.11220000
2.99290000 1.41550000 0.06210000
6.88980000 6.23340000 0.34020000
6.88540000 6.37200000 0.08590000
5.37790000 1.51410000 -0.35410000
1.04640000 7.21200000 -0.09050000
1.22820000 7.17430000 -0.03210000
1.26530000 7.24470000 -0.08680000
7.08650000 2.83660000 0.04910000
7.23810000 2.91410000 0.16100000
1.51530000 7.38410000 -0.07890000
7.11480000 3.12770000 0.15500000
1.26950000 7.52490000 -0.12640000
1.44870000 7.76050000 -0.08740000
0.72590000 2.54810000 -0.03620000
7.36530000 5.86870000 0.07930000
6.64310000 5.59520000 0.04520000
6.45580000 5.43620000 0.03580000
6.34740000 5.86550000 0.02380000
2.26230000 4.92570000 -0.38140000
1.32260000 7.65860000 -0.12410000
0.40470000 2.76780000 -0.01610000
1.08770000 7.81960000 -0.11270000
2.60390000 7.13260000 -0.05670000
6.22820000 6.25570000 0.34800000
2.58830000 7.42070000 -0.09380000
5.66030000 6.29270000 -0.00230000
5.99800000 5.98530000 -0.00610000
0.62210000 2.72470000 -0.04990000
5.88950000 6.33790000 0.22920000
6.04620000 6.19110000 0.08400000
5.14900000 5.63600000 0.09650000
5.49820000 5.63910000 0.00620000
1.37010000 2.52980000 -0.03910000
5.43050000 5.54950000 0.16240000
5.59890000 5.35060000 0.17450000
2.96990000 4.66170000 -0.04860000
5.89200000 5.40570000 0.19350000
5.56080000 5.59170000 0.12770000
7.91960000 3.12150000 0.28600000
5.46900000 5.62330000 0.06340000
5.71200000 5.54550000 0.09200000
3.52290000 4.59720000 0.00510000
3.43220000 4.99870000 -0.04310000
7.78360000 3.57900000 0.27410000
7.59330000 5.68040000 -0.16290000
7.92990000 3.46530000 0.22850000
7.97520000 3.21110000 0.22220000
8.03680000 3.30930000 0.23960000
7.74380000 5.49400000 -0.24530000
7.88870000 3.72090000 0.25350000
8.00270000 3.53540000 0.24040000
7.94730000 5.24100000 -0.23740000
7.86240000 5.31880000 -0.29720000
7.64430000 5.50240000 -0.31210000
0.55170000 3.59710000 -0.04570000
0.37240000 3.71890000 -0.07570000
7.12560000 6.20700000 -0.17230000
7.55280000 5.72880000 -0.30530000
6.13410000 5.42000000 0.17960000
6.12330000 5.48460000 0.08290000
1.11750000 2.70840000 -0.34030000
1.09450000 2.24520000 -0.35570000
7.33270000 5.99500000 -0.26380000
7.11050000 6.12440000 -0.32140000
6.27810000 5.44160000 0.11650000
6.27610000 5.46880000 0.02110000
6.17950000 5.57510000 -0.00470000
1.38910000 1.84540000 -0.33620000
2.31060000 7.60560000 -0.06900000
4.11140000 1.85160000 -0.39620000
6.64660000 6.44200000 0.34700000
4.03070000 4.17520000 0.00620000
6.67560000 6.53580000 0.18070000
6.32490000 6.72150000 0.31100000
6.46310000 6.73970000 0.07640000
6.76850000 6.57010000 -0.14190000
8.10710000 2.03570000 0.18610000
4.34490000 4.53600000 0.05670000
4.70050000 4.54340000 -0.00030000
1.62840000 2.22670000 -0.34870000
8.42630000 2.21550000 0.31320000
3.84970000 4.89500000 0.03440000
0.93690000 3.53970000 -0.05150000
1.12190000 3.53930000 -0.01890000
1.49190000 3.56300000 -0.05860000
6.45670000 6.83540000 -0.19460000
6.73530000 6.63960000 -0.27240000
6.82230000 6.57180000 -0.21310000
8.07030000 2.52090000 0.35180000
8.12540000 2.83680000 0.30260000
8.16510000 2.51220000 0.26540000
8.21670000 2.81530000 0.30000000
8.33210000 2.64760000 0.31540000
8.38760000 2.77250000 0.42570000
6.52710000 6.72910000 -0.31880000
5.73610000 7.09120000 -0.34730000
0.78680000 3.30300000 -0.00980000
6.44060000 6.84650000 -0.26910000
4.85340000 2.01060000 -0.33720000
4.83900000 1.82730000 -0.31430000
4.52760000 1.88060000 -0.32000000
4.59820000 2.00780000 -0.35650000
0.88500000 3.11880000 -0.01890000
5.13020000 6.72450000 0.34230000
5.25590000 6.61500000 0.30210000
5.02890000 6.61350000 0.17530000
7.07780000 6.24450000 -0.29930000
5.53040000 6.57160000 0.31890000
5.71230000 6.62140000 0.36930000
0.98030000 2.90410000 -0.06010000
5.81500000 6.83730000 0.37530000
5.43620000 6.48850000 0.15090000
8.25160000 2.14770000 0.08930000
4.67100000 2.21930000 -0.40020000
8.30510000 2.18930000 0.11730000
8.18900000 2.05030000 0.10010000
8.24930000 2.52620000 0.21710000
4.98200000 2.07720000 -0.37560000
5.06440000 6.52630000 0.03140000
8.76240000 2.65820000 0.45340000
8.89430000 2.41010000 0.42390000
5.38740000 6.46580000 0.01600000
5.66290000 6.34820000 0.04570000
4.19700000 4.74060000 0.05920000
4.23280000 4.99620000 0.04010000
1.56430000 8.13270000 -0.11250000
8.96890000 2.67300000 0.23530000
0.21310000 8.83200000 0.18420000
4.68670000 4.67070000 0.05180000
2.09610000 3.52140000 -0.06050000
9.03120000 2.82160000 -0.01000000
4.39030000 4.69430000 0.05580000
1.18870000 8.76980000 0.25230000
4.35010000 4.76850000 0.00700000
9.13370000 2.48340000 -0.14490000
9.18530000 2.03000000 -0.06440000
4.27940000 4.86500000 -0.01050000
8.14870000 1.86730000 0.08940000
2.64590000 3.71210000 -0.04320000
4.46130000 4.88990000 0.05710000
4.37590000 4.95450000 0.01810000
5.81340000 6.48840000 0.34560000
1.30300000 3.17450000 -0.02310000
0.82960000 8.17950000 -0.11720000
0.90520000 8.30770000 -0.14860000
8.88800000 2.24330000 -0.30860000
0.46080000 8.77570000 0.16170000
0.61670000 8.61870000 -0.11980000
0.88310000 8.65900000 0.05170000
0.60430000 8.76630000 0.21850000
0.76160000 8.74790000 0.17360000
1.29420000 8.55530000 -0.07720000
5.77330000 7.15360000 -0.02320000
5.29320000 7.27220000 0.06640000
6.04880000 6.90740000 0.26680000
6.08060000 7.01020000 -0.02060000
1.27080000 3.43160000 0.02110000
9.22990000 1.93730000 -0.22560000
9.17070000 2.20560000 -0.21170000
1.44160000 3.47970000 -0.01790000
9.16630000 2.04890000 -0.27870000
1.22430000 8.46680000 -0.13700000
9.12170000 2.51060000 -0.25070000
9.05890000 2.33090000 -0.27930000
9.08040000 2.48630000 -0.29600000
4.62880000 7.03600000 -0.34730000
4.66330000 7.09110000 -0.34810000
8.25990000 3.00190000 0.36040000
3.59810000 7.40980000 -0.08050000
6.46370000 4.19680000 0.11170000
6.16570000 4.44470000 0.13290000
6.24730000 4.29880000 0.05290000
8.07300000 3.06640000 0.26410000
8.16450000 3.00980000 0.25680000
5.18150000 4.76740000 0.09980000
8.09190000 3.31920000 0.29030000
5.41830000 4.83530000 0.12700000
5.68100000 4.65960000 0.10220000
5.64810000 4.87640000 0.13500000
5.52760000 4.92110000 0.07670000
5.41980000 5.05600000 0.13420000
5.34480000 4.64360000 0.02610000
4.90520000 4.70360000 0.02660000
1.33120000 8.66000000 0.20210000
4.60220000 6.99330000 -0.34750000
3.06850000 7.83570000 -0.09920000
8.82870000 3.19690000 0.19780000
1.75980000 8.54460000 0.07710000
1.82570000 8.61210000 0.25290000
5.63940000 4.98430000 0.09620000
5.56260000 5.08720000 0.11400000
4.77200000 7.40960000 -0.24760000
6.86120000 0.50870000 0.17890000
8.94160000 3.18240000 -0.07690000
6.88540000 0.27830000 0.10640000
7.00940000 0.40290000 0.15830000
4.84380000 2.01340000 0.06030000
7.14100000 0.20000000 0.07240000
7.13840000 0.46320000 0.21250000
7.20600000 0.37290000 0.13490000
8.98810000 2.98640000 -0.26350000
9.07600000 2.82180000 -0.21690000
6.72190000 0.68050000 0.14980000
6.64840000 0.54930000 0.13500000
6.61670000 0.68320000 0.06840000
1.25420000 5.99140000 -0.02770000
8.90680000 3.25010000 -0.15580000
6.86240000 0.77470000 0.18720000
2.33280000 8.09650000 -0.10380000
6.55470000 0.83160000 0.09920000
