55.43383000 -19.77636000 0.38560600
-1.34398400 2.04425000 3.16442900
8.22276500 44.44178000 0.82501100
5.93580000 3.55718400 1.00885000
18.23222900 -47.55202900 1.82863000
28.65893900 -2.51189000 0.98877000
-7.40326900 45.99338900 1.16015600
-13.92247000 38.98416900 -0.33859400
29.22697100 -3.13827300 1.00848400
-30.91148000 -43.61365900 -1.72888300
15.58814000 6.17999800 -0.38754300
-16.88178100 52.16711000 1.10687600
-7.84679400 -52.75231900 -1.13479100
42.38422000 -18.15163000 1.06429600
15.20388000 -3.13072400 -0.45391900
18.63656000 12.18985000 0.80694500
53.05344000 14.41140000 1.09505400
41.31872900 -32.37525200 0.60419100
-45.40591800 -14.20516000 1.12775000
-34.99678000 -18.37528000 0.23069200
41.37960100 -32.47565800 0.29686300
-1.93077700 2.66277100 0.95153700
-8.25761000 23.96517900 0.44903500
16.58709900 16.92999100 -0.26305400
-1.32090200 40.32897900 0.58230500
1.28787100 3.50805900 2.01727300
-39.10974100 -4.43661500 0.24908300
-31.77771000 4.38761900 0.27331400
39.27459000 -10.67934000 -0.24194400
53.99778000 6.62414700 0.27719000
52.89498100 -6.68464800 1.78882000
19.43526100 -46.84565000 1.85822300
-13.55153000 31.91972000 0.25286800
-12.13133000 -39.95325100 0.24981600
16.97006000 -47.83129900 1.80379900
-10.43111000 50.26353100 -0.40968900
-22.28412100 -39.30292100 0.33740200
-18.39406000 -25.15773000 0.49328600
-19.73697100 -10.58742000 0.62347400
3.46332300 5.47672100 2.08874500
-41.84080100 6.05776600 0.08599800
-17.88674000 -12.13939000 0.46136500
-16.94605100 53.12228000 -1.03097600
-36.92591900 -37.26068900 -0.84643700
1.14566900 19.00737000 0.56957900
37.55265000 1.89164000 0.91955600
-42.83068100 -17.74566100 0.32544000
1.49930600 17.69207000 0.59143000
29.69087000 -30.14497000 1.52325900
26.16168000 48.31544900 -0.15597600
-13.13440000 -52.50389100 -0.95916300
17.61449100 30.70215000 0.72344900
4.02351100 55.87344000 0.88318000
-23.15809100 -37.43507000 -1.41198800
12.12892000 -36.26918000 0.63561900
28.97794900 -30.73842000 1.40345200
-43.45235100 -31.84886900 0.69708300
26.93676000 47.99190100 -0.07474300
29.59557000 -31.01598000 1.69671100
47.71485900 -5.15077100 -0.00891100
29.36442900 -31.13979900 1.56577200
8.85964400 0.36723900 0.61914000
23.29029100 -51.71431000 -0.91855000
49.78667800 31.87517900 1.23623400
0.70621500 14.45954000 0.55133000
21.11698900 -52.57210900 -0.95430400
8.05448100 40.36249200 0.49716100
34.21770100 34.67800100 1.71934600
-0.15692100 14.31767000 0.53601000
-29.22575000 -49.49129900 -0.23544700
-42.07622900 3.64807100 0.06677100
-38.68265900 -34.09439100 -1.32537900
-54.88040900 1.36085500 0.02038500
-42.01612900 1.93642800 0.06384200
-45.00698900 -14.04225000 1.06307500
-7.08680100 35.78905100 0.43444700
-29.28882000 -49.28315000 0.09946200
4.52241600 32.99425900 0.35876400
-54.89073900 14.81590000 0.31243900
-0.26687300 56.82080800 -0.43315600
10.41127000 -9.11387300 -0.62036200
3.97159100 32.17573200 0.41650300
2.61364300 -0.73109400 5.12664800
-1.97071600 56.46902100 0.52350400
-1.04138600 -27.52133900 0.51092400
19.82591100 40.78196000 0.56115600
-1.54165200 -52.86486100 -1.08595400
-0.80540400 56.50048100 0.56008100
-0.51337700 -35.27636000 -1.07995700
29.46990000 20.84437900 0.69311400
-1.67715000 -53.14656800 -0.92583900
-9.93607500 -35.64535900 0.38153000
-42.48716000 28.72145100 1.15808100
28.79116100 20.67461000 0.70098800
-14.40483000 43.06144000 -0.40301600
-10.51063000 -36.77700000 0.38964700
-29.44367000 -48.65102000 -1.67547500
12.54051000 55.92947000 -0.51760100
-38.47464000 21.10998900 0.11608800
-14.04759000 44.44660900 -0.29406800
-37.64522900 -14.64783000 0.38524600
-3.81502600 56.84511900 -0.29150500
6.21604200 -36.78965000 -1.00622700
13.09763000 -22.13656000 0.72637800
55.19187900 -9.51775300 1.04639500
24.29653900 45.04787100 1.72870900
6.92973500 -38.31094000 -0.99359200
-42.88991200 14.16784000 0.22705000
-23.08964900 -51.67781100 0.52448800
13.19073000 -21.28167000 0.84130800
13.52238000 -51.58956900 -0.99979700
-53.99726100 12.26434000 -1.01202500
-19.11895900 48.77479200 -0.43234500
5.66718700 -27.75330900 0.72430300
-16.76872100 30.60688000 0.38342300
20.24756100 -52.90261800 -0.88667600
38.22386900 9.64152500 1.03631600
41.60213100 -18.00182900 0.86451300
-7.02555100 42.58757000 0.21325600
-23.13225900 7.47670900 0.38452100
41.34890000 -6.51943800 0.80499200
-17.12060000 26.18174900 0.39019800
-7.00724200 28.07375000 0.37945500
-9.90924400 -53.04023000 -0.69042700
55.00801100 -7.70529700 0.81076600
41.39991000 0.39870600 0.19946200
7.56964900 -26.28842000 0.56524600
9.41967600 7.36345700 0.62963800
-18.00682100 -10.18908000 0.42999300
-49.33990900 -1.95974300 1.15972800
-37.50822800 38.87400100 0.11270000
-26.51812000 9.19964400 0.31854100
42.20034000 -9.20714000 -0.15741100
19.94467000 -53.14889100 -0.79673000
-28.81389000 -49.39368800 0.49368600
-9.44347100 -45.19197800 1.66370000
-3.01190900 -53.17462900 -0.85383800
46.76849000 11.48457000 2.06011400
36.27372000 -32.71051000 1.56604100
-10.48617000 -52.46287200 0.69713800
-45.55387100 11.13516000 1.13439900
-38.03072000 27.81480000 0.97973600
30.37693000 1.92438300 0.91705300
17.71619000 -5.23291400 0.72631700
29.11956000 -33.75463100 -0.61068500
-38.82280000 28.05351100 1.14294400
-33.04692100 -44.49530000 -0.97406100
28.09853900 13.46398000 0.92095900
-20.13751000 -46.15755100 -1.43243000
-0.54924600 44.86616100 -0.17761300
6.71594900 33.87775000 -0.10284500
-24.20849000 17.36967100 0.51837200
-14.71478000 13.02205000 0.50201400
-50.11201900 -28.39014100 0.16837800
29.55364000 15.40729000 1.12268100
-39.27909900 1.90973700 0.22021400
47.04818000 -26.30203100 -0.20012000
29.32776100 14.87525000 1.01428200
-10.38314000 40.52795000 0.37725700
-54.38608200 25.22670900 -0.10144100
-26.35346000 39.39915800 0.88372800
-47.21421100 2.39842200 1.26513700
-10.50557000 31.61425000 -0.41998400
44.11776000 -23.02206000 2.07761700
-32.07914000 -26.89764000 0.85674100
-24.65517000 -50.16276200 -1.59926900
-47.50788100 0.92702100 1.26959200
32.42903100 42.08081800 1.22940600
24.39127000 9.00070800 0.89440800
-39.81570100 2.69053600 0.13525300
-2.28098800 -3.37410700 0.63561900
4.28390000 -16.40980000 0.69451800
26.54313100 43.41510000 1.72810100
-39.23421100 -2.15310300 0.20031600
51.92198900 21.72796100 0.39181900
4.14568000 -15.62523000 0.62121500
26.66737900 44.44129900 1.73418400
16.15836900 52.56700900 1.56186200
1.81201700 3.24047900 5.09472700
-54.34420000 3.22887400 -0.94043100
43.11713000 2.66197400 1.36560100
26.13116100 -2.94559500 0.96209700
29.90012900 49.53664000 0.87599500
28.26021000 9.74918400 0.72503600
35.80867000 -41.05888000 0.15820200
7.01662600 34.83478200 0.36193700
-46.11426900 -27.39200000 1.03679100
-50.32529100 29.96960100 -0.49688800
0.02552200 3.24423800 3.46124300
54.61148100 -22.04541000 0.61740200
-9.72770700 -9.92266100 0.45733500
-50.88457900 29.63678900 -0.34936600
24.21677000 -27.78788900 0.74359000
10.42223000 55.26525100 -0.81303000
46.80543100 29.31900000 0.55923100
23.49810000 -27.48308000 0.72967400
26.79674000 -50.81557800 -0.85105100
-21.41798000 55.98212800 -0.07631800
-23.20060000 -15.76727000 0.29595800
27.76046000 -50.73019000 -0.84015300
-49.90597200 22.47079100 1.18426500
48.48889900 31.21291900 1.57087200
-11.18151000 45.75173200 -0.08474800
29.23778000 -49.91193000 -0.80274700
55.37387100 -11.12454000 0.33256800
-54.24895100 -8.53656900 -0.56341900
-46.71172000 16.09279100 1.19793700
28.84185000 -49.05289800 -0.76672500
-7.03584200 22.74847000 0.51330500
-12.48568000 42.65601000 -0.39364700
12.55980000 30.62450000 0.56744300
5.13114700 -16.60557000 0.98913600
7.54653300 -43.33935200 1.61858400
20.21299900 39.21609100 0.58721800
13.28454000 29.75439100 0.69183200
18.10565000 -30.67313000 0.77740400
-52.99322100 25.20286900 0.57782000
-24.06730100 33.12344000 0.41595500
-45.04631000 6.17272200 1.07092300
6.89115300 -42.83504900 1.44145800
6.41665700 23.91478000 0.51708900
6.52400300 15.46695000 0.79168600
-15.47061000 -22.25311100 0.38330100
26.22604900 -1.65527200 0.87133700
5.24875800 16.73920100 0.69598300
-16.28809900 -37.52656900 0.36737100
-16.05549000 -21.63600900 0.42993200
3.54885700 -28.56690000 0.56317000
49.49342000 -0.26502000 2.09511800
44.46931800 5.53633800 1.91367000
40.19620900 -10.51766000 0.85967900
-5.29255400 -53.04668000 -0.97293600
26.97098000 -1.47321700 0.86938400
40.72987000 -11.15017000 0.83569200
13.35406000 -42.29713800 1.38861300
12.36723000 -30.76981000 0.66393900
-29.77807000 19.11162000 0.31671000
41.99892000 -11.32221000 0.83166400
44.06552100 6.29446300 1.70816000
48.55077000 3.49581800 2.12287600
4.16568300 -37.96482800 -1.04034500
-26.99622900 -50.64868200 0.38698800
-31.56131900 -44.85564000 -1.75726400
5.58877000 -39.75318900 -1.02044800
-26.55201900 -51.01047900 0.20515000
-28.58157900 21.74115900 0.36090100
4.97723000 1.17815400 3.64245600
-9.88362600 50.62244000 1.24154600
-26.12965000 -51.21479000 0.04547500
-30.84207000 -47.02898000 0.48602300
3.22404900 1.81144000 5.05102400
-6.24859900 6.53560300 0.43109000
-7.58824800 -36.67524000 0.37914900
30.60215000 -48.51884100 -0.83187800
14.65593000 -29.87130000 0.68585100
-55.23191100 1.49502600 -0.45111200
0.98601900 1.04890100 3.15484600
47.06697800 4.51282400 2.16596700
11.45795000 -40.82727100 0.52648800
-36.38637900 -26.13106000 1.37095600
-52.96809000 27.60788000 -0.04742500
29.05599000 -28.05867000 0.87385800
-14.29407000 -42.12302000 1.10981500
-33.02721000 -0.32904800 0.27862400
-1.78693400 -1.71225000 0.74505500
51.07252100 7.43046800 1.83503500
-6.21955900 -16.32323100 0.45556500
-20.80673000 -51.52256000 -1.46497200
15.16866000 40.76356100 0.51962200
50.42384000 8.18848100 1.91746000
-7.78243000 -16.08395000 0.61157100
-11.74283000 46.58097800 1.17419400
-16.90860000 13.03638000 0.61700400
-51.36536000 -5.26959600 0.90032200
-20.43100000 -51.84487200 -1.38642300
-42.73751100 -8.43052900 0.22084800
0.44870100 28.72805000 0.43212800
27.11272000 52.30334900 1.22991300
-18.59182900 11.54646000 0.36090100
9.32692100 39.38642900 0.46960300
-49.24103900 -29.04762100 -1.35139400
-39.67322200 -29.58098000 -1.43390000
33.17623900 -46.36671100 -0.22119200
-20.15780100 -51.39598800 -1.44242000
-9.90540900 26.33046000 0.70104900
9.32107800 -24.78906100 0.67022600
34.57807200 27.81510900 0.74269200
-0.47362800 2.81875200 3.47784400
-43.66157200 -8.49865400 0.63115800
34.75669900 -43.37134900 -0.07110700
-0.51134300 2.27483600 3.48431400
-10.14603000 14.68985000 0.56603900
-0.27928100 43.23683200 0.30056700
-26.76635000 39.57791100 1.04574600
30.37443000 36.71363100 0.36397000
-3.51670200 40.32865900 0.62164200
38.79753100 -33.68256000 -0.16353800
42.18214000 36.56057000 0.64948200
2.07372200 5.61883200 0.95538300
-29.13670900 -46.41836900 0.90749000
-52.78147900 -14.94555000 -1.12669100
1.77326800 40.51932900 0.59289500
34.30196000 -44.35540000 -0.20739800
-25.73210000 -50.82378000 0.53332800
3.71142500 -53.47274000 -0.39035500
1.31512400 40.06943100 0.59579400
-10.68822000 15.23936000 0.43548500
10.94195000 43.07334900 -0.13769600
5.11030700 23.85108900 0.57525500
1.64134100 5.76141200 0.79699600
-26.12225900 -50.96815900 0.38176200
31.90460000 23.56236100 0.07735200
44.43875900 35.36465100 0.89990200
-3.40432500 -2.45132400 3.37634300
-0.81960000 1.79560300 3.45105000
5.47657700 25.16157000 0.65380800
46.14344000 34.60607100 1.03704800
30.07868000 -30.62492000 1.78657100
40.83483100 -15.49645000 -0.20367500
-26.60959100 7.16796500 0.38702400
4.15966700 -2.87208900 1.91229200
-18.26675000 11.84230000 -0.77124100
39.55015900 -16.87418900 -0.21746900
37.48671000 30.87964100 0.36760400
2.87952900 2.59480900 5.05804300
46.21448100 34.52912900 1.16668100
20.56208000 18.30101000 0.65014500
-20.63542900 -34.93228100 0.34613000
-21.45676000 16.86883900 -0.74896300
22.26203900 17.53393900 0.67034800
0.95929900 -1.28838200 0.85656600
-10.03845000 -31.19875000 0.30169600
-21.81996900 -34.58620800 0.32659900
-0.53871700 41.23691900 0.47515800
33.60667000 -24.31502000 0.83624200
-16.53702900 40.88452100 0.24523800
8.03311400 -37.50882000 0.54107600
8.55561300 -43.53707100 1.69151800
42.25920900 -30.83746000 1.16995500
52.94295100 2.85961700 1.50926000
-46.60551100 11.70401000 1.15661600
14.94759000 55.87416100 -0.43512000
-14.15865000 -20.98918000 0.52404800
17.62052900 17.78809000 1.00903300
50.55431000 9.39835500 1.89827300
32.67081100 -17.51515000 -0.32629500
53.43569200 25.86642100 0.71076300
19.44684000 26.93151100 0.78503300
-20.85490000 54.22089000 -0.70808400
-13.48295000 -52.63336200 -0.01710500
-37.71601900 -35.33989000 -1.04028400
-20.60257000 13.81887000 0.40429700
-55.04378900 22.06835900 -0.30822900
-20.64226000 54.92641100 -0.59599800
-34.46033100 -25.50095900 0.70840300
14.05930000 39.18644000 0.51553200
-4.05431400 -14.88051000 0.48327500
19.96161100 27.31218900 0.87176400
-15.67805000 -50.98914000 1.05062800
3.12901500 41.95809200 0.28991600
-4.89082900 35.27373100 0.30419800
-51.43487900 -26.51342000 -1.39097400
-39.51105100 20.58888100 0.05425900
21.42901000 56.40572000 0.00985600
27.95751000 28.75729900 0.66754100
16.39534000 50.14514200 1.63675500
-27.77708100 -37.00775100 -1.45434700
-31.77770000 24.13688100 0.29492100
-17.18821900 -51.69606000 -1.37252500
36.89526000 -23.55887000 1.31588700
5.50067800 -7.20261800 0.68859800
-15.50753000 -40.75993000 0.44036900
-45.47534900 -5.23348500 1.20654700
21.60835100 40.70809900 0.48722800
-11.38157000 11.31615000 0.57000700
26.25338900 6.60474400 0.87683000
-44.87802100 -5.66760400 1.09717100
1.46792300 -53.46905900 0.33399000
31.95219000 7.78715300 0.93866000
15.67094000 23.57074900 0.79949900
-26.78083000 -33.70550200 0.46447800
-13.45203000 48.46543900 -0.18625200
-19.87009000 -34.24459100 0.27093400
-47.94763900 -5.34345400 1.21390100
8.38624200 31.94500900 0.45336800
-23.31740000 38.00489000 -0.46405100
14.56162000 6.75659400 0.82849000
7.64933100 56.89619100 0.10762400
16.76165000 38.32357000 0.02978400
-18.99859000 52.32648100 -0.81918700
8.50837900 -28.25736000 0.62084900
7.49148400 56.76013900 0.49745500
20.97007000 -8.84283800 -0.40228400
11.82735000 19.27849000 0.61578300
15.90656000 -36.50709900 0.71423200
-32.36040900 -40.06882100 0.97290000
-37.99052800 -13.73346000 0.29602000
-41.01517100 36.00386000 -0.31967300
-6.42825000 -38.75119000 -1.18518200
-23.72238000 55.15121800 0.50873700
-47.31563200 13.02735000 1.20373500
-48.92443100 31.41157000 -0.01641900
17.36562000 -53.46929200 -0.16417000
-30.31825100 -28.66900100 0.65828100
6.14704900 -21.03076000 0.68353200
-0.09183300 32.60142100 0.49999900
-7.68313800 45.01113100 0.83926300
-30.91921000 -29.51030000 1.12172000
9.07699300 47.33663900 1.39479400
-15.81573000 -19.60747900 0.47692900
6.00034200 -22.00247000 0.76556300
24.03867900 -39.60025000 1.45208700
-7.78373900 44.52021000 0.49719100
-7.85393100 12.72448000 0.46838300
6.41200200 -22.64418000 0.80889800
46.79002000 -29.20159000 -0.22174200
-8.19926500 -2.05881900 0.46386600
17.71995900 -53.17385900 1.06339300
14.60044000 -53.12284100 -0.92157100
33.11724900 16.03329100 0.01620200
-7.23100800 -2.48167800 0.43798700
17.43678100 -53.41426800 0.79977500
31.21769000 37.37873800 1.65001100
-54.73584000 -9.71968500 -0.27287700
-49.14236100 31.15327100 0.09655800
22.30075100 19.87739900 0.11639900
48.05450800 -2.30144500 0.02551400
-48.56152000 31.55308000 0.07495100
32.01738000 -24.18450000 0.68304300
19.24095900 1.13306200 0.84161300
53.54888200 6.74989900 0.20949300
-27.09264000 -3.42752500 0.40203900
-21.59837000 52.48590100 -0.81834600
5.86120100 -44.20999100 -1.08293200
53.80292100 7.94145900 0.24583100
-20.34804000 56.27582900 -0.01695000
17.40427000 -9.13026200 0.76409800
-21.90700000 -35.63034800 -1.38159300
29.38456900 50.49155000 0.58123600
18.18014000 -53.44265000 0.69200100
-10.96705000 -42.03458000 1.10320700
53.87801000 3.36712800 1.21337000
17.87833000 -53.31885100 0.93654200
28.89112100 51.21204000 0.32634100
-12.04534000 -41.91791900 0.93516700
7.95233200 18.74634900 0.69634900
-7.36819300 42.12897900 -0.29120000
-2.40832800 -1.97673600 0.87933200
7.60294200 18.35940900 0.63946400
29.23613900 50.71892900 0.34057200
-48.92847800 -29.40468000 0.27399800
-30.53159000 -11.06681000 0.34234600
2.87952800 -49.27719100 1.44493800
23.74109100 55.93867900 0.21039500
3.18677500 -43.77784000 1.61194000
-5.21126300 48.99916100 -0.20186800
22.22113000 31.93174900 0.65624900
-4.77957300 -4.02827300 0.97643900
3.78314300 -44.01178000 1.61357100
22.43961000 -53.20000800 -0.28942600
13.78113000 22.56063100 0.88262800
-36.76110100 27.64702000 0.68603500
-23.52930100 43.70813000 1.00180100
-30.95848100 9.32690800 0.25579700
-26.75890000 0.97545200 0.36370800
-38.03628900 26.41727100 0.47100800
-49.06604000 -3.74479100 1.16796600
14.18403000 -53.52014900 0.81087500
55.03617900 -6.81552000 0.81338100
-20.01369100 -24.09264900 0.54266400
-31.99609900 -22.30596900 0.50335200
-24.61153000 -3.14168500 0.35681200
2.13282200 -1.40324600 1.61700400
-19.19533000 -23.94743000 0.50854500
0.06158700 41.80202100 0.30847100
-24.11033100 -3.90218000 0.66027800
26.83029900 -8.55824500 0.83166400
-19.03067000 -25.67383000 0.44696000
-27.66651900 2.05593500 0.34045400
-4.51014100 -53.35720800 0.17608600
-19.28755000 -25.58522000 0.40966800
-40.19533900 -7.26958500 0.18725500
26.23576900 27.64440000 1.07440200
0.17701000 -34.24953800 0.40551700
-8.11990000 3.85268800 0.47570700
8.27417800 -9.50985000 0.65612700
-14.69285000 42.39365000 0.16168100
34.17202000 -1.10182200 0.84533600
13.76754000 5.46805300 -0.41255200
-4.94396900 -0.72428500 2.70037800
13.66779000 -22.56491100 0.71270700
-16.35854000 -3.96809400 0.51782200
-5.58970300 39.08367900 0.37368700
-5.21781700 0.24664100 2.45825200
-2.55136400 12.26880000 -0.53668300
20.56200000 42.25495900 0.81122800
-5.57554400 -0.20269800 1.75341800
24.27924900 -28.36379100 0.72442500
-27.74716000 -9.86252200 0.38006600
20.55195000 3.83106600 0.77917400
-29.20183000 31.73403000 0.61785900
-4.47194700 25.23350000 0.33526500
10.42202000 56.80630100 -0.13199400
32.13653900 0.03971100 0.86688100
-5.53177300 24.55448000 0.35363700
1.62078600 -41.38481900 0.73352000
-4.96365500 16.77924000 0.47265500
-20.14703900 -9.78333100 0.48144500
2.51827900 23.55989100 0.65191600
42.78858900 -7.28742200 1.03851300
-19.69924000 -10.08683000 0.60833700
55.46257000 -17.75898900 0.11441200
15.80466000 -16.43796000 0.85150000
19.73031000 -43.84489800 1.86811600
17.92818100 27.58345000 0.63702300
-1.83010400 1.16978300 1.48852500
28.86104000 34.44440100 1.48886200
47.03644200 25.81567000 1.94599100
18.52689900 27.14572000 0.71136400
42.15623900 21.40501000 0.85409100
-54.48754100 24.01432000 -0.33960100
-19.73613000 9.09606700 0.64032000
-22.62159000 -51.34724000 -1.50432700
-0.53805500 -23.88151000 0.59326100
31.02461100 -17.69850900 -0.33777000
-32.52632100 -0.58609000 -1.08520600
-23.47092100 -51.26694900 -1.49274300
-30.48315000 33.78247100 -0.64941500
44.31803900 -4.25015400 1.77957700
-11.25241000 -15.06362000 0.45526100
-31.71443900 32.64452000 -0.67987200
17.16835000 31.74157000 0.58477700
-24.13505000 1.42344700 0.46228000
24.62602000 -33.13214900 -0.65929700
-0.98984200 8.49460800 0.35388100
9.25265600 -53.39300900 -0.84135000
-40.31694000 27.25281000 1.15692100
-4.54406900 39.36655000 0.38885400
-51.38309100 29.08853000 -0.53936900
37.59619100 19.91774900 0.91796900
26.73391900 9.66342700 1.21441700
8.73365500 40.55569800 0.64822300
-25.67935900 20.44968000 0.36438000
-42.04010000 12.46421000 0.04034300
1.24886400 0.09374200 0.92468300
2.49945400 18.42649100 0.57177600
-8.10558500 5.29575200 0.41699100
2.95538400 -39.05061000 -1.04358000
-35.33219100 -27.84634000 -1.42309700
-26.63843000 21.17618900 0.48712200
26.25580000 17.70648000 0.79669100
-48.36634100 -29.86335000 -0.18005500
-5.68606900 33.16375000 -0.31445400
3.32903000 19.02825000 0.68823100
-51.01086000 29.62298000 -0.12597800
42.87365000 28.46627000 0.68413600
-2.74683500 44.31446800 0.64715500
0.27734200 2.29371600 3.50701900
-18.97590100 -0.03078800 0.49060100
21.26306000 12.75624000 0.82195900
18.92989900 -5.88305500 1.00866700
-31.70369900 29.01910000 0.16131500
51.84870900 -6.42067100 0.00784400
-23.52541900 14.75632000 0.40979000
0.20478500 56.02516200 -0.80773900
54.64881900 0.79462600 0.76710700
-33.20209900 28.18880100 0.23223800
-24.44446000 15.22289000 0.34228500
16.95360900 -5.43217800 0.76135200
36.77132000 21.07064100 0.79638600
7.83411600 21.25217100 0.81439100
30.35573000 48.58520900 0.39714400
-27.25915000 -45.70988800 -1.59924000
8.17622600 20.11724100 0.80224500
-17.87808000 -40.03738000 0.23083400
16.47880000 -5.79623600 0.79247900
18.11280100 38.57189900 0.70416200
-34.01081800 17.78620900 0.18170100
-50.28818900 30.16840000 0.06805400
-19.69323000 18.46907000 0.49841300
20.66243900 -34.10351900 0.70184200
-39.97555900 36.66793100 -0.01321500
55.53125000 -18.67019100 0.66753100
41.27447100 -2.58602100 0.09973000
-39.72200000 -33.14662200 0.76300000
-39.98490900 36.30374100 0.15878200
6.43316400 51.02423100 1.44062800
23.69051000 -30.20108000 0.73779200
37.34415100 12.44240000 0.87573100
50.01186000 26.75888100 1.65875500
16.15685100 44.95937000 0.14064500
19.07255900 39.14501200 0.80169600
-16.16468000 33.64860900 0.28716900
42.13124100 2.63654500 0.96942100
16.67612100 -39.91856000 0.41491600
-9.80881700 14.53306000 0.61730900
20.66941100 41.48535900 0.63330000
-9.52321900 -53.04182800 0.15963200
18.21546000 18.74056100 1.19250500
1.78585600 -1.69942100 1.08844000
32.83443800 -45.98881900 -0.65881400
-54.85118100 -3.25402200 -0.48860900
-29.54998000 35.76762000 1.09469600
1.67247800 -26.63668100 0.62103200
-20.28531100 -2.33615100 0.38873300
-53.75243000 -18.96861100 0.09034000
27.48580900 37.08955000 1.52304700
0.57105300 -26.96987900 0.54772800
-13.09893000 -23.79353000 0.37188700
-53.79793900 -20.24340100 0.00534500
-20.71050100 -40.58227200 0.53247100
1.13713700 44.80612900 0.98761000
-21.14491100 -4.44969600 0.43756100
17.45656000 14.66177000 0.71453800
37.70916000 -33.89236800 1.13909400
12.42484000 38.99198900 0.42330800
1.62768400 26.71093900 0.44866800
16.61775000 17.37805900 0.67529200
-18.68190000 9.19498600 0.49438500
39.81095100 -1.96698200 0.88537500
-10.27290000 -48.45658900 1.47509700
40.00751100 -33.22185100 0.61202600
-21.75202000 -37.27856800 0.29516500
12.07147000 39.86438000 0.53350700
-26.22467000 -23.99357000 0.49584100
-52.28300900 -25.21726000 0.14556300
-8.74285600 45.01414900 0.84820500
16.44499000 19.36955100 0.66717400
-26.59577900 -23.61066100 0.44041200
-30.00095900 -1.95775600 0.32849000
34.98891800 -3.20446000 0.83996500
16.96339000 19.91861900 0.72149600
-27.28528000 -23.53945900 0.37169000
17.79219100 -13.05525000 0.81817500
-49.99932900 14.56862000 1.12872300
54.63287000 -12.07632000 0.02024900
-27.51219900 -1.84256000 0.33819600
-15.95645000 29.94300100 0.40747100
46.66103000 -18.88097000 2.14386200
20.33156000 47.32614100 1.67543900
21.28561000 55.60932200 1.20616900
-15.03677000 30.05779100 0.48828100
-49.20253000 27.46598100 -0.97454900
-2.64373300 4.99816900 1.24084500
-18.54921900 17.88417100 0.72369400
12.89176000 -53.32397100 -0.93305600
23.53681900 34.00914000 0.66033800
-14.68756000 40.09114100 0.43133500
51.68648900 -10.05197000 2.02691600
-15.09020000 48.69202000 -0.29995700
-14.63320000 39.28284800 0.27920400
36.83960000 -37.23664900 -0.43646400
-25.37645900 32.45013000 0.24102700
41.00585900 -30.99111000 1.29767500
-55.46046800 10.06645000 -0.37127800
32.10300800 -47.79142000 -0.56738400
-39.32999000 -17.72971000 0.21767300
38.90712000 -31.74875100 1.40851600
-21.07889000 -11.49040000 0.67291300
42.52394100 36.64788100 1.04919700
14.54784000 -20.89838000 0.86108300
-54.12868100 -5.94335100 -0.76764000
-36.20090100 27.52117000 0.49896200
42.18711100 36.95917100 0.93794700
-3.65755900 0.27625500 4.47924800
-1.65279700 3.72929600 4.84649700
-50.46130000 28.79126000 -0.94043100
-29.91375000 -22.80285100 0.56041000
53.89366900 -21.28960000 1.28209900
-13.58518000 -11.55018000 0.52362100
46.42229100 2.38793200 0.24609900
-1.10455200 3.78304100 4.86975100
4.53893300 39.33037200 -0.11718900
41.15659000 -16.20645000 0.81616100
23.24247000 -35.56079900 0.73022400
-3.23203100 0.48370400 4.78649900
1.84403500 46.00598900 -0.04480100
8.52112100 -40.76083000 -1.00803000
9.26492800 49.80815900 -0.18107000
39.58197000 28.91445000 1.94044600
32.43141900 44.16738900 1.09006700
6.37361800 -41.40848200 -1.06170800
-13.09625000 -16.82818000 0.39660600
39.01971100 -16.13165100 0.95202600
23.28964000 16.73745000 0.77624400
4.69415800 13.45444000 0.55657900
-41.52439900 -20.76824000 0.51317700
-0.14445700 -30.93954100 0.45342900
17.26551100 54.63917200 -0.44276300
35.85437000 -13.79786000 0.87707400
30.71287900 -26.20857000 0.78729100
-1.95684900 43.87934100 0.34197900
5.10724100 48.60472900 1.42289700
-54.22888200 -19.66474000 -0.55267200
-41.23708000 -20.31123900 0.25284200
-25.24671000 6.34801500 0.42529300
19.58760100 -53.36937000 0.43468000
40.89630100 21.99873900 0.23730400
-48.14056000 31.86454000 -0.17016700
-2.06761400 44.33324100 0.63369700
40.95214800 -20.12849000 1.11892200
38.68766000 3.11225500 0.89794800
-37.50479900 14.20752000 0.31445200
19.07370900 -38.22882800 0.58209100
-27.73880000 -6.29979300 0.34790000
-37.87046800 13.92470000 0.44268700
-4.66852400 41.31298100 0.36236500
36.86520000 -17.67255000 -0.29907300
22.57543900 -26.91906900 -0.64141900
-40.74856900 -20.14197000 0.15715300
29.70323000 -43.41918900 1.80164600
-38.36325800 -7.82051500 0.26800400
18.04449100 -23.84914000 -0.61950800
-46.09833900 -29.88946000 -1.35571400
1.93195300 -44.36505900 1.65703500
-8.27972000 -25.25843000 0.39129500
40.62657900 -32.83390000 -0.07353100
-38.29264800 9.42958800 0.22064100
8.30717300 21.82336000 0.70605400
16.90766000 -3.59127600 0.76666200
22.03990900 35.53041800 0.68054100
29.41213000 44.93553900 1.46590000
-24.72862100 -35.84568000 0.32586600
-30.24856000 39.69294000 1.12057500
34.26363000 27.88415900 0.24643300
7.04835100 48.06573900 -0.03309400
-27.42576000 -25.34199000 0.32142800
53.39571000 -23.70125000 0.04675400
28.33300000 17.10598000 1.06420900
10.21921000 41.07403200 0.42214900
-15.13083000 -18.00316000 0.44018600
-1.11669400 -11.34442000 0.50750600
-5.35692400 11.66565000 0.52429100
9.98589100 40.55048000 0.51330500
-13.86412000 -17.57496100 0.52624500
-26.43342000 -3.58412200 0.41601600
-39.41455800 -26.10075000 1.44219500
-6.83929600 47.33356900 1.27218300
-37.59429900 -35.63502900 -0.89404400
-0.25390300 5.43097100 3.60778800
24.43362000 29.84203900 0.12900700
-29.49947000 40.32334100 1.12652600
-4.97925900 -22.51643000 -0.95953500
29.97956100 48.17269100 1.16698900
-25.73955900 -3.25716000 0.34674100
-26.95323000 39.88727200 1.09841900
-10.11286000 37.17715800 0.37664700
-17.50812900 -36.86006200 0.57611100
10.40126000 -43.70274000 1.79864400
31.86992100 14.00053000 0.90978900
44.50151100 11.67021000 1.81606700
-35.16912100 -40.55324200 -1.20691000
35.34594000 9.48441100 0.83941600
-4.99049600 44.40821100 0.66656400
-14.07545000 -50.28834900 -1.35102400
-28.41542100 26.54656000 0.46124300
-12.66405000 43.51260000 -0.37265100
10.19602000 -38.94871900 -0.96871000
11.87415000 -50.60572800 -1.02748300
-44.40467100 14.98853000 0.85186800
-27.45739900 39.35216100 1.14328000
22.51634000 -10.41227000 0.77709900
12.17335000 -1.92433900 0.71227900
-44.05484000 15.77125000 0.75909400
-28.15403900 38.88636000 1.12716700
13.28363000 40.64683900 0.71209600
28.47096100 5.80744600 0.87713500
-45.27784000 -30.47837100 -1.33130000
49.49023800 -4.86176100 2.14937200
20.75316000 -41.98954000 1.33354300
21.88796000 27.81340000 0.68444700
-20.81430100 -3.13220200 0.37689200
50.80083800 -25.99703000 0.99255400
3.98541200 54.16899100 1.17174200
35.33021900 -16.75209000 0.84667900
45.78002200 -27.34771000 1.54830300
11.96846000 -37.59841900 -0.92148900
45.39769000 -30.07865900 -0.08762200
-22.13833000 33.01459100 0.21295100
4.62618700 56.40288200 0.74796300
17.46369000 39.51903200 0.77658000
-22.55946000 33.81848100 0.23956200
11.16118000 -38.16970800 -0.89952900
25.10924000 -22.83225100 0.69506700
4.98939600 55.00014900 1.06586600
-39.01274900 5.99542200 0.22546300
17.05781900 40.10586900 0.75280700
-34.87659100 -24.81337900 0.42062300
5.12986600 55.89899800 0.89507200
36.65959900 7.30429600 0.85986200
-33.64038800 -39.75528000 -1.69159000
41.80902100 -3.81682800 0.82775800
26.65947000 -40.34217800 1.98907500
-8.10489700 -53.05302800 0.31064000
-43.51258900 -3.47016900 0.62506000
-3.67907400 -49.51813900 -1.19200500
21.58942000 33.08591800 0.61914000
-19.16374000 44.10231000 0.18753000
37.51734200 -12.34827000 -0.30847300
-2.89242900 -47.27590200 -1.18539700
-53.95904900 23.48335100 0.48059100
-30.02724100 -23.23840000 0.50212500
-41.08044800 -22.23619100 0.94306900
25.07189900 37.31919900 0.43349400
42.36827100 12.25817000 0.99302300
-52.95249200 27.39328000 -0.55664200
24.27680000 36.14572100 0.32648200
-32.43368900 -13.39800000 0.29754700
38.31411000 -33.16778900 1.18312400
-33.68481800 -17.24946000 0.27036000
-51.09751900 -27.26309000 0.19577600
-32.89170800 -12.36124000 0.26247300
-52.69313000 27.88960100 -0.37054500
47.59812900 27.29567900 1.90747600
38.36193100 8.88107500 0.88586300
-6.59015800 23.20789000 0.45062200
-0.44903900 -28.13754100 0.59826600
0.63578000 -52.55633200 -1.15840800
52.50363200 -22.33758900 -0.16477400
38.22478900 -6.45118900 0.96398900
-55.43241100 14.83504000 -0.49731500
-51.63623800 29.13285100 -0.20843600
-50.94118100 4.54694700 0.92346200
39.88512000 -6.82070000 0.86083900
-55.28253900 15.64191000 -0.58062800
47.56404100 -0.78086700 0.18940500
-55.33952000 4.80326500 -0.51648000
19.60703100 45.69036900 1.42823900
-8.64116900 -17.15554000 0.57134900
23.99486000 -13.34735000 0.75884900
10.50765000 -5.85741200 0.67755000
19.45439900 45.17401100 1.21827700
-32.86639000 -13.40313000 0.25847100
-11.65927000 4.97821800 0.46020500
-2.15772900 -38.01973000 0.35253800
19.79003900 44.30426000 0.87167900
5.85970400 44.60337800 -0.09515500
55.15869100 -10.81040000 1.21746500
-26.56596000 34.94995900 0.18829200
19.09868000 28.05056000 0.96209700
-33.18243000 24.18905100 0.48681600
-3.47100800 -2.98445100 1.59991500
-3.42684000 39.07651900 0.37957700
47.06795100 -28.55748900 1.10011500
11.44532000 15.65223000 0.83166400
35.76229900 29.26652900 1.60342900
1.60837900 -40.38616200 0.33599800
15.92661000 -10.39681000 0.71990900
11.10615000 15.79563000 0.81310900
-52.16053000 26.93050000 0.50451700
45.33519000 20.87845000 1.93616200
-2.36970900 40.08216900 0.36141900
45.21834900 32.33736000 1.61013400
37.71583200 0.84654200 1.03094500
-13.60435000 27.14389000 0.38726800
40.53907000 -31.39677000 -0.31967700
-51.68029000 27.16062000 0.57366900
24.72088100 46.89957000 -0.05778000
18.69236900 36.92599900 0.50805600
19.32287000 46.97145800 1.61776600
-0.62201900 4.56545600 0.56109500
24.08809100 45.72903800 0.02042600
-24.48502000 -12.11736000 0.37457300
5.91722400 32.95340000 0.38220100
31.07259900 10.16636000 0.80834900
-51.53583100 26.75984000 0.69879200
-50.64891100 -0.68929900 1.01253000
5.30174200 32.47707000 0.41534300
27.72234000 52.92112000 0.10112400
-9.79747400 27.84530100 0.38684000
45.05802900 -18.35787000 2.11813300
-7.67111800 44.24150800 0.38684000
-28.76876100 -30.74780100 -1.39154200
-29.49992000 -49.24436200 -0.53747500
22.24024000 34.04774100 0.85174500
21.45887000 55.96978000 -0.39179600
40.27341100 30.74696000 0.48312300
12.90955000 -19.92775000 0.89166200
27.96913900 52.35520200 -0.00224000
-45.83437000 9.49328600 1.18627900
17.28622100 44.49982100 0.83923100
-53.88361000 -20.85160100 -0.11746900
16.70565000 -42.31377000 1.29071700
44.83219900 4.88572400 2.01419500
16.57667000 46.43859100 1.52093200
53.90193200 1.11403500 0.14496000
-9.17175100 43.34817900 0.25115900
18.17742900 44.63187000 0.91263400
-53.75949100 -21.27959100 -0.03349000
-42.05405000 26.14534000 1.21460000
-5.97143600 -4.43701400 0.60235500
-9.62712700 40.32709100 0.56640500
-38.42388200 -34.97794000 0.23492300
53.74578100 0.75340400 0.10811600
-7.27318500 -28.25346900 -0.99066300
-9.25301200 40.41806000 0.57751400
29.17535000 -23.28465100 0.82507200
-32.21616000 25.77662100 0.19097800
41.83282100 1.87020100 0.19457900
44.87540800 0.35724300 2.05740600
-21.74819000 -14.45936000 0.46600300
24.46414900 41.46143000 0.12459500
-49.25389900 16.98447000 -1.17602600
43.69123100 22.92009900 0.34635100
-45.29552100 27.89852000 -0.90313800
54.01879900 6.03426400 1.11986500
-4.45920200 56.67334000 0.15267900
-54.74322900 12.70896000 -0.81701800
-24.70167900 -37.39465000 0.46710200
20.99912100 -0.39528500 0.83691300
29.87865100 -22.55934900 0.87731800
-54.73675200 11.13383000 -0.86688300
29.59453000 18.60786100 0.69360300
22.06823900 1.11591500 0.88977000
-35.12216200 -34.18644000 -1.48407100
-28.02898000 -49.55292900 -1.54529500
13.91742000 53.07170900 -0.39570900
3.16541900 5.16642400 3.02160600
-1.07066200 43.06520100 0.29626400
7.66615300 -53.63681000 -0.17153800
18.53076900 -42.28059000 1.31920000
-31.43824000 -30.05855900 -1.38885600
-1.89141700 43.30873100 0.23632700
8.17330900 -53.57428000 -0.57096600
18.98768000 -41.90050900 1.08634100
-30.15681100 -30.13166000 -1.37079000
-2.14887900 43.57669100 0.25817800
7.50800900 -53.62075000 -0.57590200
3.00456300 4.40953800 3.95184300
-19.35285000 37.77085100 0.19665400
52.48429900 -24.72859000 -0.15222300
-31.93088900 12.18392000 -0.91668800
-1.51526600 -0.83554100 0.72619500
-18.70667100 37.83744800 0.16915800
52.81008900 -24.56576900 -0.07843100
26.45775000 17.04664000 0.89965700
31.74560900 31.68572000 1.51729400
-32.85353900 34.77302900 1.08145100
24.87035000 3.09223600 0.98944100
-41.13077900 -33.48909000 0.53222700
-22.95443900 54.39176900 -0.42893000
53.05141100 12.97812000 0.20926000
35.35051000 28.98885900 0.28720000
0.83208900 15.54931000 0.59570200
-42.81580000 -32.34289200 0.68969700
30.19632900 23.14736000 -0.01355200
55.08953100 -21.12216000 0.36257100
27.29603000 21.98168900 0.78503300
7.16367700 38.88058100 -0.11618100
38.80410000 -21.79323000 1.10324500
4.04799300 -3.77409900 0.76440300
-6.20977800 56.78752900 -0.00112200
-43.45315900 -32.26147800 0.58795200
11.53084000 -20.64362900 0.76367100
-37.07547000 -3.88552500 0.28100500
-39.98831900 -34.20381900 -1.07519600
3.96357900 -41.58102000 0.68402000
41.94332900 -30.16449900 -0.24787100
7.76264400 5.87686000 -0.45196600
-44.86803100 -31.31299000 0.65686000
-36.92590000 40.35308800 0.04492100
-54.92715100 -0.29700400 -0.55628800
19.67596100 7.54127900 0.80621200
2.22775300 -2.25344800 1.46820100
-37.07236100 39.73651900 0.13268900
3.20356400 -41.03577000 0.50402700
19.50688900 6.99947500 0.79052600
-54.91041900 1.00872800 -0.66723700
-52.90549100 14.64239000 -1.15100200
41.06182100 34.85226100 0.21240300
-14.32920000 5.12604900 0.51348900
20.69195000 11.56501000 0.74883900
1.36359300 -20.64673000 0.64721600
42.45753100 -22.74066000 -0.27962300
6.34777400 43.00584000 0.21240100
40.11842000 13.54223000 0.78448400
3.78894700 -1.44598800 4.10675000
-1.96723000 6.36271300 0.67620700
-18.02809000 -28.16031100 0.29717900
-37.35285900 -7.36842700 0.29742300
3.34753100 -1.29700100 4.54406600
-52.98049200 -24.10386100 -1.17920600
38.75326900 37.23463800 0.38790300
-11.66323000 22.22561100 0.37817400
12.57919000 45.38454800 1.28170100
-53.10818100 -22.90546000 -1.24929400
38.67115000 38.45748100 0.51993800
47.23405100 -11.78157000 -0.13183200
-35.11280800 -17.29995900 0.21099700
-53.13290000 -23.56629000 -1.20333100
5.74260300 -53.11013000 -1.02179400
-49.06882100 25.42235900 1.11676000
29.79664000 -50.66309000 -0.44929400
-8.27822100 25.95661900 0.37109300
-19.45266900 -6.87443200 0.41900600
3.79244600 -10.38822000 0.51904200
21.51065100 -15.86988000 0.79376100
54.14241000 12.86531000 0.89787000
3.62256300 -41.32931100 -1.09448300
4.60744600 -10.43107000 0.58258000
5.90238400 -52.55672100 -1.08023900
53.69136000 13.00733000 1.03054800
38.37608000 -3.79513700 0.95452900
0.97571000 0.00305600 3.39312700
6.66548600 -53.04224000 -1.02721600
-4.51654100 -53.18367000 0.41560000
23.98181000 -52.25585200 1.08627100
-4.83542900 33.44894000 0.34057500
33.31803900 14.43743000 0.88946400
-16.71904000 38.24977100 0.22158700
-40.35237100 34.87879900 0.47384600
-26.06823900 -25.63165100 0.33474000
-20.85368900 -36.58945800 0.33355600
54.24721100 3.16429800 0.75374800
5.18034000 25.96429100 0.68688900
54.80250200 -19.36659000 -0.10838500
51.61471900 10.78598000 1.68295400
4.78274100 26.25233100 0.64715500
18.37120100 -53.37799100 -0.67744500
-38.48809100 10.91416000 0.49108900
-42.96955100 16.77915000 0.26721100
22.47345900 27.60256000 0.64312600
11.87371000 12.95099000 0.77795300
4.94727500 25.90938000 0.74279700
-26.94916000 42.27434900 -0.74591200
-38.06325100 11.28881000 0.40698100
4.61172700 26.03661900 0.61016700
-42.53587000 16.82068100 0.10723800
24.62451000 -17.38814000 0.82537700
-3.37615000 -5.03801500 0.40435700
43.69794100 0.03127000 0.38037900
-28.05619000 -41.30958900 1.35980200
54.60612900 -0.80119800 0.24406400
-12.31008000 -52.78538100 -0.13795900
-17.91935000 -42.60664000 1.37483700
16.34555100 -6.64197500 0.80847100
54.66824000 -0.19274200 0.37781700
22.93894000 12.44426000 -0.16234600
9.44137600 -43.47324000 -1.01225700
-18.09371000 -42.05936100 1.13639300
54.76107000 -0.69829100 0.39562200
30.49828900 -49.89746100 -0.74171300
-12.04411000 -52.76261100 -0.60646100
-26.12136100 25.19162000 0.23248200
12.31795000 13.99959000 0.94470200
30.25625000 -49.25795000 -0.86912100
-12.32127000 -52.45047000 -1.12406100
-11.42539000 -2.81486500 0.46820100
54.71394000 0.19107100 0.53550100
2.12900100 -30.38814900 0.43017500
-13.24031000 -52.27866000 -1.17821100
51.08166900 -18.92911000 1.97501700
4.61964200 1.75280400 4.13653600
-30.46376000 -48.06477000 0.22265500
-20.78092000 -41.74232100 1.13491600
-13.55709000 -52.47110000 -0.89435900
-9.06491900 46.28091800 1.07058700
-6.64910800 -2.72074300 0.60845800
32.54372000 -43.69212000 -0.64453200
22.66811900 17.06424000 0.69702000
3.83402600 43.92778000 0.43054100
-13.75540000 -52.28088000 -1.16691600
19.67954100 -11.78228000 1.02801500
29.29307900 -35.30894900 -0.60599600
9.51219800 45.33829900 1.17984000
23.33793100 -4.18922800 -0.28094600
-44.28541900 34.46414900 -0.18863000
-9.20293700 45.14358100 0.82751400
-52.58873000 9.90108100 -1.22668600
-19.47403900 15.52369000 0.31604000
8.21991400 -34.88473900 0.51934700
22.75663900 -6.52784900 -0.32080200
-18.58964000 16.59119000 0.37670900
-45.26382800 -26.34936000 1.18978300
2.95800400 56.77072100 0.23156000
-52.18672900 8.97791700 -1.23718400
22.90910000 -8.60749600 -0.31213500
17.19749100 -30.67303100 0.65014500
-51.67705200 -26.77313000 -1.24097300
12.37754000 -42.42853900 -0.99166900
-52.72423900 9.32716800 -1.24707100
5.37746000 3.85452700 1.79614300
17.62167900 -30.85063000 0.68945200
16.48850100 50.29990000 0.05906200
-51.17065000 -27.48494900 -1.24509000
11.00810000 -43.61188900 -0.98951600
49.31195800 10.04061000 2.00096200
4.97085000 3.74778000 2.65258800
-28.50429900 13.36239000 0.45367400
1.56328900 -41.08234000 0.51110700
14.68218000 6.73399500 -0.35280400
-34.91634000 42.37731900 0.36932400
-35.22985800 -20.98628000 0.37445700
-53.53801000 14.57264000 0.65942400
-45.69282900 -15.80866000 1.09117300
18.50637100 -36.49359100 -0.80768100
-55.13911100 0.66824300 -0.22131400
-2.34298200 3.88887800 2.07995600
-15.38613000 -6.90979200 0.44622800
-44.79729800 -16.82385100 1.00829000
-55.16281900 -0.15223900 -0.33903600
-50.50220900 -27.66580000 0.34394800
-2.43132400 4.69023900 2.05481000
36.23030900 23.55224000 0.85162300
-23.76081100 40.38293800 0.17803900
23.22143900 50.11219000 1.70278700
14.07238000 6.88644400 0.77392500
27.93545900 -30.84421000 -0.53729000
53.54803800 19.93051000 0.51543300
-7.85153700 13.82126000 0.47491400
22.46674000 -53.04373900 0.71961500
-30.05687000 -11.55888000 0.33465500
35.35828000 27.87463000 0.96222000
10.37963000 -53.65494200 0.12174800
51.45307200 17.34429000 1.41918000
2.57414300 56.85617800 0.04441200
-3.14694400 -40.65961800 0.32946700
52.10614000 15.68276000 1.28748200
-42.83779100 -2.56309900 0.27703800
2.73999000 -6.31015200 0.44201600
19.19565000 46.58832900 0.41948400
15.88769000 1.58605400 0.68475200
8.65917000 24.28253900 0.56805300
-2.38253500 5.19705600 0.72137400
-16.61208900 -20.77512900 0.48907500
16.11527100 6.21261200 0.78295800
3.02272900 -5.88918100 0.51116800
18.56856900 53.71971100 -0.38418100
51.92108900 -0.16933500 0.06136900
-17.79015000 -6.37621900 0.44958500
-18.23377000 36.37001000 0.25726200
51.77370800 -9.88010900 -0.01180200
5.66678600 14.54404000 0.59448100
-17.46924000 -36.43397100 0.58905000
-10.80760000 40.25491000 0.34338300
-53.22589900 0.03044100 0.54593100
27.81954000 -5.23005500 0.85803100
-17.48261100 37.31988900 0.27151400
23.83118100 32.90980100 0.70196400
3.34143800 -5.67162100 0.48278700
-36.23452000 38.90554800 -0.48825200
-7.74202800 40.31811100 0.40948400
-23.99982100 -15.05122000 0.33508200
-37.01038000 38.82220100 -0.36020000
-21.85434000 14.61095000 0.49408000
4.52333500 -14.10936000 0.63287300
6.75063000 0.92084500 0.62237400
-22.36302000 15.51341000 0.65161100
53.57146100 -1.30592100 1.45735300
46.67055900 4.36160400 0.15212200
6.27967600 18.98011000 0.55340500
34.77206000 42.08499900 1.12497900
38.86996800 11.45670000 0.78326300
5.24986400 -14.41712000 0.96386700
51.11340000 -0.11185300 1.91787800
23.86533900 8.56110000 0.85436900
15.43006000 56.72699000 0.06329900
43.45472000 -31.40889900 0.60367400
53.14413100 0.62462900 1.51031600
-17.99202900 30.47720000 0.36828600
-48.41201000 31.07115900 -0.64264000
-27.31174100 20.29600000 0.47436500
-32.42414900 -45.15304200 0.30834900
-21.74122000 -13.67044000 0.64300500
30.67507900 -14.80240000 -0.41113400
-3.43052900 -4.00792900 0.66760200
53.66684000 22.37727900 0.65607100
1.85741900 20.70280100 0.51654000
54.30456200 5.05865400 0.67398400
-32.72137100 -44.80505000 0.20635900
21.60025000 -2.09038500 0.81402500
9.57830800 -33.59133100 0.54998700
36.76802100 -16.90062000 0.88763300
1.76083800 -29.81271900 0.60980100
-34.21857800 -39.89009100 0.58355700
4.81890600 -53.38428100 -0.82869800
54.37577100 0.67592000 0.29916400
37.53850900 -1.05662500 0.89489600
10.61515000 22.79216000 0.57482800
-42.71381000 -19.29006000 0.54271800
10.51491000 45.80085000 1.33029100
29.77944900 25.37488900 0.73840200
11.74971000 26.25799900 0.57867300
45.36853000 -2.43799100 2.13054200
10.41451000 56.72546000 0.62570700
-13.08447000 -29.12888900 0.34686300
-21.47702000 36.97692900 0.43746900
-29.21375100 45.54658900 1.00610400
16.27195000 29.90139000 0.57910100
9.21613800 56.50751100 0.82642000
-26.75721000 33.34911000 0.21148600
15.22940000 -0.51477200 0.76385400
5.19749500 -53.46624000 -0.59885400
9.25939500 56.73918200 0.61755800
-50.67921800 16.45418000 -1.20269900
-2.84255400 -46.47095900 1.62015000
-28.53165100 10.54640000 0.29846100
-41.85620900 31.44194000 0.93914800
-37.16095000 6.86024100 0.18060200
-4.44595700 -46.61608100 1.61836800
-22.14862100 -15.49056000 0.31207200
31.18091000 -27.65860000 1.44493000
-39.46534000 2.44177200 0.20068300
13.85482000 12.05536000 0.94482400
25.06702000 43.49980200 0.09743300
12.19055000 -40.75677100 0.60443000
25.67704000 -39.08176000 1.89923100
-29.74834100 43.77994200 1.02255200
15.30813000 38.71786900 0.54144200
-0.93361700 -44.13436100 1.66499100
-3.79584000 2.39553800 4.30938700
-0.30992400 -41.20834000 0.42376600
15.03446000 -33.35221900 0.60839700
53.64928100 -14.66054000 1.75952000
-26.94931000 49.86225100 -0.63049700
53.28231800 14.38905000 0.25473000
25.41175100 8.03911000 1.09423800
-13.42931000 22.23778000 0.36920200
-16.92292000 -52.46633900 0.17970600
-4.98448700 -50.63219800 1.18890300
-0.43113000 49.14928100 1.39974500
-37.84484100 -17.87245900 0.41227900
30.74111000 -37.28189100 1.96071300
-2.27020200 -1.22679700 2.26385500
18.68975100 40.06601000 0.89526300
-17.67857000 -16.70968100 0.42590300
31.02080900 -37.93331900 1.93022700
3.88512800 56.80492000 0.15549700
-6.26921400 27.72637900 0.48303100
23.25532900 37.90081000 0.51979300
24.58518000 40.48310100 1.43579100
3.72488800 56.55360000 0.63838900
24.61051900 39.93727900 1.29202300
4.34062100 56.68952900 0.54903700
-1.83337300 -53.39876900 -0.40766600
28.63662900 -16.13488000 0.84539700
-21.91464000 54.68539000 0.71361700
-35.25297200 37.16162100 0.79080200
-15.31456000 -16.64639100 0.47479200
-55.29803100 9.88362500 -0.67736900
3.58447100 6.79605100 0.64465200
-10.26299000 49.29446000 1.24172900
11.74041000 56.67388200 -0.35184300
42.82070200 -20.22349000 -0.28826300
54.46945200 8.23545600 0.50463700
11.33832000 16.31097000 0.73211600
-21.88097000 55.62699900 0.50681600
54.77557000 -1.97309900 0.32216000
13.52632000 56.38493000 -0.24888400
41.21292900 -19.56283000 -0.30810900
7.93034900 50.74137900 -0.37700700
-54.43006100 4.02212100 -0.90020900
43.95700100 25.59305000 1.97835800
15.42560000 -41.22362100 0.71203500
39.11386100 -21.53570000 -0.34385800
9.12940900 15.70797000 0.59509200
-55.00191100 7.15545700 -0.86053600
-22.25736000 4.29482300 0.34051500
-2.72295200 -0.72106200 1.25933800
10.18057000 16.57002100 0.58898800
-26.20297100 29.65274000 0.28173700
2.52985800 56.65108100 -0.65700300
-44.22959100 -20.70375100 1.11348000
47.70423900 33.46897100 1.23270400
-26.69380000 30.67255000 0.24908300
13.10999000 56.55556900 0.83962200
-2.71546500 -1.25007600 1.66442900
-2.08331800 3.70836300 2.43689000
-6.84376000 -41.07574800 0.38775500
-30.65556900 -13.77476000 0.32267700
-44.09526100 18.46334100 0.76623500
-14.07002000 15.61737000 0.70318600
53.23968100 -24.18153000 0.45782400
41.94612900 11.29046000 0.86871200
-2.96649600 5.80681600 1.05731200
-2.50933100 56.76787900 0.08112800
1.73874600 4.46304700 2.02197300
19.71429100 30.14761000 0.57470600
-49.61751900 30.51137900 0.23736600
11.99968000 -18.70289000 0.74926700
55.02347900 -6.73992100 0.58072700
23.09100900 41.78939800 1.14076700
-2.28392800 45.40024900 1.16229200
-17.30151900 11.25061000 0.33996600
46.19004100 -14.93484000 -0.15998300
29.27236900 -32.43058000 1.89259000
-2.80567200 44.93690100 0.98684600
-4.55076800 -1.64902700 2.94189500
19.33359000 -10.87844000 0.84667900
-31.76162000 6.84524900 0.37030000
0.10943100 21.34917100 -0.39660700
28.90465000 -33.65584200 1.91826400
-45.22884000 31.36297000 -0.84192000
44.28725800 -30.42958100 0.90785500
42.03731200 28.27656900 1.96269500
49.03102900 -4.97081100 0.00246600
-54.67253900 -8.38165200 0.02355600
44.54676100 -18.04693000 2.00778100
5.64025300 -44.33408000 1.66835000
-13.96115000 47.61325800 -0.13855200
-54.73783100 -9.62242900 -0.09027600
44.71653000 -18.62438000 2.12443700
-31.82550000 -46.24739800 -0.20782600
20.61959100 40.25016000 0.44934000
-31.77656900 -45.92995800 -1.62060600
47.44743000 -24.62015000 1.82409500
25.81395000 -11.18186000 0.91973900
-7.76743300 17.25241100 0.45245300
-37.34547000 -17.68611000 0.39378300
-19.91719100 -42.38262900 1.42353300
13.02873000 -42.66762900 1.55393400
20.29167000 55.86528000 1.20072000
-21.96682000 45.78892900 -0.46707700
42.18492900 -27.90836900 1.77593900
18.77363000 55.11967800 1.36385700
13.55798000 39.80971900 -0.01065200
41.08818100 -28.86545900 1.73501100
-3.44173100 6.48734900 0.90978900
-19.38619000 -42.19628100 1.27747200
11.04905000 -29.72370000 0.71057000
-21.18168100 -42.68536000 1.53328100
46.51298900 -21.28121000 -0.23218600
-23.48691000 19.98921000 0.36682100
54.54880100 -0.68859500 1.01802500
31.73056000 -48.05870100 -0.69201800
-55.11817200 12.15584000 -0.70276000
-50.80403100 -27.73221000 -1.33397300
-37.27623000 19.36447000 0.28149300
-13.21940000 -9.48595800 0.55938700
16.07789000 42.57086900 -0.01757900
-50.61636000 -28.14909900 -1.22835100
-45.66722100 17.82844900 -1.07391500
-4.14015300 51.99745900 1.26050400
24.70725100 43.13753900 1.69071600
-31.84793100 -44.89038800 0.60278300
11.11598000 56.64450800 0.83002300
17.04537000 -25.56753900 0.68255500
-34.54851200 -40.82622900 -1.53979600
-25.60570900 -41.88319000 1.47143600
-34.48370000 -26.61241000 1.25389300
47.42355000 -28.00093100 -0.26100300
4.67563100 -22.56502000 0.85363700
-35.45740100 -26.58532900 1.39443700
-11.07920000 34.10994000 0.33624200
