-8.00320200 -14.74084500 0.05448200
15.80557800 -24.82251000 -4.05601100
6.11110500 18.38769500 -3.67579400
-14.04846300 10.40881300 0.62334500
-4.21344800 19.76995800 -1.75941300
13.32983700 -8.89996300 1.01183100
-9.35486300 -12.82678200 -0.10574900
-13.80788000 12.53924600 -1.03581000
-22.32407000 -20.92254600 1.10470200
-18.70524000 -4.05505400 -2.20208200
-24.94805300 -14.78289800 1.06062400
22.60220900 -8.31524700 -1.80943600
-15.65626200 11.60113500 -1.35745600
-20.32856900 -4.87854000 -3.09270900
23.46260300 -20.50445600 -3.44151300
-16.44790600 11.33020000 -1.60816100
21.13601100 -8.21112100 -0.80565500
-17.14103300 14.31994600 -1.39497200
-10.32605300 -21.53436300 -3.18336700
-17.47894100 11.79455600 -2.25850000
23.51094100 -18.83551000 0.43819000
-21.27616300 23.06195100 -0.69615400
-3.89964100 5.63848900 0.80712900
-0.35208200 6.60406500 2.63166700
-28.85561900 -11.40722700 0.92644000
-27.31641600 -5.01135300 0.52126800
-15.64153500 7.63830600 -0.17968100
31.41838100 -6.30572500 -1.13761400
7.07686000 16.09631300 -0.37202500
3.36349900 7.42950400 0.14395100
-14.03056500 -25.04010000 2.14971200
19.14661800 8.34094200 -3.06586100
24.98003600 -19.53784200 -2.84672500
2.20219800 -22.55511500 2.97738300
-27.57892800 1.85876500 0.80175000
-0.28890500 -29.96466100 -3.05880500
5.25403600 -16.92950400 3.48238900
-18.05570000 -11.23913600 2.38898500
7.56732500 -20.20617700 -2.22179800
-25.24504100 3.14312700 2.62107000
22.30470100 4.96337800 -3.34277600
3.77123500 19.97039800 -4.04099200
-11.40717600 29.03601100 -2.88196800
17.21529400 6.32074000 -1.06676600
29.13049700 -1.24261500 0.99377700
11.53865100 -17.22796600 2.95968800
5.39875700 -3.47302200 0.74913300
17.36985400 7.00964400 -1.84546300
-0.52558300 19.35992400 -2.05698400
-26.46142000 6.07330300 0.30767300
8.75532500 -16.81042500 3.17046500
-22.37252400 5.24041700 -1.37027200
-6.09834800 17.91711400 -1.63509600
1.17513500 19.47961400 -0.63360000
17.47468900 8.60174600 -1.92135800
2.66496100 21.00860600 1.36240800
16.37646100 -6.89697300 0.17342800
-23.13647100 3.11877400 1.25891000
14.34091900 26.88262900 -3.13892000
-21.53670100 -21.30273400 -2.80964700
11.36176000 -10.78179900 1.01372700
24.70875900 18.17010500 -0.31461500
-22.62794900 4.53503400 -1.05861100
6.65306100 -15.43341100 2.63437800
10.67339800 -29.56579600 -0.03664000
15.96141900 20.15075700 0.08892600
-13.90560900 16.36999500 -3.77897000
12.78958500 -28.45129400 0.12659300
-22.68707700 3.84314000 0.03697200
-0.84917200 -21.09942600 3.34010500
-17.26187100 21.47522000 1.54568700
-5.28269800 7.05249000 0.03163900
16.82056400 19.03936800 -1.87670900
25.75399000 -15.11431900 -0.14533500
-3.57962300 17.96929900 -0.47981100
-14.53375800 22.83789100 1.54617100
-21.03431900 7.93884300 -1.27585800
11.11786700 -28.29107700 0.98314500
-4.56625700 10.93713400 -0.29942200
15.93439100 19.29870600 -0.54733500
24.76097700 -7.33325200 2.37875500
-22.09786000 5.26110700 -3.63566400
13.60584400 8.08880600 -2.52585500
10.75169300 -6.58215300 1.88410100
-21.63650100 -9.66796900 4.05750100
-30.11628200 2.13324000 -3.58251700
-8.64596000 9.35247800 1.69337700
-11.62503900 17.09484900 -1.16944600
5.69623800 -16.77758800 -0.26843600
-10.51472800 -26.65667700 1.44175700
-30.65238200 0.63232400 -3.36095900
11.37490700 -5.46997100 2.36570100
-15.28685400 -16.67474400 0.14970200
2.21490200 -17.14465300 3.43019800
-14.98854800 12.93933100 -2.91205500
-14.29880800 18.65362500 0.29556300
-30.74945100 -7.04046600 -2.85836600
23.09799600 17.63751200 0.36295900
31.00806400 0.22613500 -0.07179600
26.59752100 -0.84838900 -4.16471300
-30.29565200 -8.55664100 -2.85919900
-23.38888000 6.12530500 2.11045400
30.67077400 4.52258300 -0.07086900
25.67322200 15.69305400 -0.06576800
-14.13461700 25.97320600 -0.41203100
12.15287200 6.67486600 -1.98564900
27.03654300 -1.93286100 -4.32718600
10.16524200 -0.76635700 0.81751900
-6.96111400 -1.96618700 2.56845700
23.47143900 -10.55993700 -2.16392700
9.74977100 -13.90191800 2.47256100
1.49667100 14.61651600 2.10881000
-20.23099300 -16.19116200 -4.15106200
13.86887800 8.27941900 -1.58732600
-9.22115800 -2.75146500 2.22798600
-7.14768700 -11.48962400 1.65032400
-6.75763800 -17.99615500 -0.87524200
-3.42087500 14.45288100 -0.69455100
27.83856200 7.88525400 0.61263800
-12.44367400 -26.97699000 -3.20970900
-26.90605500 -3.00170900 2.57919700
5.38544000 -11.68255600 1.63898800
-6.14778800 -18.71460000 -1.34673100
27.39438800 7.20861800 0.92360500
8.18738400 13.16705300 0.22474300
21.87432700 12.86773800 -4.26945600
-12.59854900 -26.18768300 -3.47791100
5.39789300 6.87249800 1.92179900
14.55181200 -21.79016100 2.56643500
-8.72830300 17.55804400 -1.96467100
1.31458200 0.73522900 -0.73636200
24.83398600 1.22540300 2.51232100
-12.91215600 11.58630400 -1.18378800
5.67692200 13.66821300 1.19430400
20.41560400 17.14709500 0.00522200
-8.01436100 11.88842800 -1.26905400
10.17565800 -0.00476100 -1.01866300
8.18398000 -30.28515600 -1.74045600
13.09882500 -0.46820100 1.82233000
5.87966700 -27.92083700 1.01284200
0.57619700 6.28179900 0.45584500
4.85581700 -23.92627000 2.45135500
17.25838900 -5.50994900 -0.03527800
4.61101500 17.11486800 0.63698600
12.49051900 1.86145000 2.57051700
9.81896200 15.13458400 -2.13248900
0.53837300 27.96429400 -4.40267800
25.54868900 4.13299600 2.30997000
-9.15586500 13.62579300 0.11642600
10.47347800 0.29284700 2.10216400
-18.18346200 -8.18634000 -2.56746300
8.10489800 16.13220200 -2.12103400
9.74477400 -11.16308600 -0.14167800
-10.21129600 -20.24249300 2.73482500
-9.59119200 5.63037100 1.84784700
14.09201900 -12.36621100 2.59280800
-9.64325000 -13.66259800 1.98120300
-8.33488000 22.19982900 1.53800200
24.87459200 19.98992900 -1.37567500
9.61419500 4.43689000 -1.74815000
28.83595500 -10.40527300 0.02063500
-0.66307800 8.18188500 0.00838100
-6.86142000 6.40301500 2.29971400
-1.41233100 24.01263400 0.60045800
12.90235900 -14.99145500 2.68846500
16.55943300 -21.89453100 -3.33742900
-15.66672800 4.11908000 1.45296700
7.45472000 -17.02008100 -1.39860500
-13.60382000 -14.62536600 -0.71965900
-0.58107700 24.35498000 -0.27436400
12.58622600 -16.40844700 2.95814300
-22.05670900 3.45825200 0.03433900
-14.21431400 -0.92095900 1.20156700
-20.75885400 13.94555700 -4.57552500
4.15667300 28.51721200 0.08852200
-2.46727800 18.23541300 -1.66039500
-6.51847800 -0.91980000 2.74783900
-14.25732100 5.26153600 -0.43389200
10.45625600 -7.51678500 1.09484400
24.85303900 9.75085400 0.97859000
-16.65735800 26.87377900 -1.45292300
7.15009800 -15.26178000 1.34414100
-20.84502200 8.06726100 -0.31418200
-4.18975300 19.15405300 1.72500000
-15.23863100 27.38092000 -2.76587700
4.13278400 9.98034700 -2.02878400
23.04120300 8.41674800 1.21061200
-27.37097500 0.95538300 -4.41128900
-16.95829400 26.68109100 -2.18635600
-14.00684500 19.50122100 -1.06973600
8.46933300 -14.78210300 2.19644500
25.72521200 -4.23577900 -4.29398700
-15.68320800 27.10205100 -1.02682100
3.93051300 16.65094000 0.82641200
-12.30837600 -17.20501700 -2.02093700
3.59176600 7.93072500 -0.30527600
-6.79770800 28.40203900 -0.25499200
-18.15757600 24.95373500 -0.22719400
-1.57141500 -29.69335900 -3.13205500
-2.31666200 -2.18804900 1.83564200
-11.62324800 -22.71624800 3.20463200
-12.55256000 -13.95404100 0.00140400
-24.95057500 -6.65252700 2.58754800
16.21490700 0.50683600 2.69479700
13.51235400 -10.64819300 2.31597400
14.91919900 27.16009500 -2.65465200
11.13137500 -23.67071500 -4.02545700
21.26612100 23.19281000 -1.32474500
-10.58293400 -23.97082500 2.53526500
-0.62629800 -19.46325700 0.91914600
0.06021100 -31.27636700 0.41551800
12.07618200 -8.30865500 -1.11171000
-23.10665700 13.69470200 0.09007100
-10.91634200 -28.02221700 1.32252700
13.10378100 6.99529900 1.80016900
-0.64685300 -27.01940900 2.63573500
-7.72452400 21.19708300 0.53361100
10.12102100 -27.39874300 0.88863200
-26.11474800 -16.98931900 0.89397200
-18.06773400 -8.97387700 3.41979100
11.54507500 22.12689200 -0.09220900
-7.55192000 -30.99493400 -0.71287900
4.92488800 -12.92749000 0.91344600
18.97227100 19.77612300 -4.47028100
-20.53813200 -24.35595700 -0.89005300
31.29527100 6.15551800 -1.57862300
-7.50179100 -30.71405000 -1.29733800
7.67885700 21.99884000 -1.38247700
-28.80442000 7.95654300 0.62923000
6.28383200 -23.21539300 2.85627700
31.06282200 6.42364500 -0.78216800
-20.80700500 -23.92407200 -1.37315200
2.25514600 13.14947500 -1.58526600
27.35641500 12.47619600 0.13092500
18.49155000 -3.98407000 2.92395000
6.13759900 6.28625500 1.84956400
18.81336000 -22.94665500 0.49474700
-28.11852300 -7.58013900 -4.09628900
21.96556500 19.92327900 0.24247200
19.70842000 -3.96899400 3.04837400
7.11868900 19.51202400 -3.74256700
17.03384400 -24.20575000 0.60892900
6.39297500 4.45111100 1.11292200
23.18971600 1.26428200 1.79756300
-3.95256600 -5.92340100 2.29868100
-12.64712300 -28.92828400 0.08425500
22.53734800 -7.74108900 -1.86838300
-13.49797800 -18.85839800 -0.99263000
3.80420400 16.42425500 2.77052100
-11.40563200 -10.07275400 -0.63630600
21.91048000 14.64355500 0.06684700
25.11956600 15.81250000 -4.03380800
-26.65144500 -17.38793900 0.32589900
3.49831000 14.75787400 2.36899600
-6.16818000 25.05761700 0.33522000
28.88950700 -8.16015600 0.14248500
2.40782500 -15.14135700 2.60640100
13.64337000 -28.48107900 -1.12758300
-20.87890200 -18.60223400 -3.92136800
28.60623000 -6.02624500 0.59792600
-13.75979400 8.50335700 1.31427500
15.91132800 16.73645000 -3.89059800
-1.46973700 -20.43402100 -0.86277200
10.80801100 16.96838400 -3.86089100
4.22349600 12.70220900 0.55732900
3.28115200 29.82721100 -3.53811300
-13.16561500 7.85241700 1.41652800
-11.20533800 -21.78802500 2.80074900
0.12294900 6.70599400 2.31386400
-7.08552700 -9.43731700 0.14090700
-16.66044200 22.30200200 1.46616700
-16.37447400 16.40588400 1.49813500
-22.63093900 16.70422400 -0.25834800
-13.28726400 6.89166300 0.89301800
-11.45294300 -26.90283200 1.70886000
9.16165200 -24.07147200 -4.02933900
-19.02476900 -3.78973400 0.76848600
-24.08484500 16.88757300 -0.00841100
19.85432100 -20.49408000 1.19464900
-16.72742500 -11.84338400 1.01075900
21.44912300 -8.85821500 2.85131300
23.83867800 -10.67877200 -3.60001200
11.76943800 6.03863500 1.95697800
-18.34883500 18.53656000 1.65804700
21.89795500 13.97424300 -3.31106200
31.67945500 -0.81488000 -2.38134700
1.09484200 22.63085900 -4.79179400
15.37805400 -27.65942400 -0.88130600
9.53019800 -6.19439700 -1.39471600
5.61768300 -13.26696800 0.92215400
14.56233600 -8.65216100 2.86645100
-1.24742500 -10.98870800 2.40097600
9.93996300 -20.05859400 2.70981400
6.24098300 -17.40875200 -0.28538300
11.74071600 -1.29950000 -0.72526400
-1.36229400 -9.95269800 1.71048700
10.52411900 -19.34436000 3.16870700
-20.19242300 0.77117900 -0.14712800
3.29426000 -18.75134300 0.19765100
-16.33961700 18.20477300 -2.28656100
10.87054200 -3.63757300 -1.14641100
22.40953400 14.14660600 -2.89065600
-18.04213300 0.90637200 0.52011300
-9.27142000 20.94409200 -4.52635400
20.41406600 -10.13769500 -1.33837600
-12.24207200 -6.68988000 0.92881500
20.37991100 -24.57092300 -2.30817200
-18.96962700 0.57641600 -0.16004900
12.20854400 16.50067100 -2.56815900
-23.24737200 5.42016600 0.29634000
-4.83866400 8.37042200 1.78563400
6.02989400 1.51037600 1.89840900
-29.91557900 8.69641100 -2.86534400
25.05771600 -10.43396000 2.07952000
28.20320500 14.50390600 -1.31808400
13.17466200 16.42785600 -3.09524600
7.29310800 1.79724100 2.16270100
-13.61428800 -21.51635700 3.23874700
18.40879800 -10.38201900 2.82690600
-29.75006700 10.00677500 -2.69657200
26.38263300 14.38732900 -0.21220300
-15.84479700 -19.48577900 -3.79685400
8.89113600 14.29309100 -0.58317200
-9.52604900 -12.17248500 2.50120100
6.32227600 19.09277300 -1.26054200
19.81414800 24.19689900 -2.49949300
-12.07816400 -19.96685800 -0.73843400
-26.96988500 6.72436500 0.27617100
19.49412200 7.19683800 1.79935100
6.57800400 -16.83239700 3.25761000
1.55781700 8.16314700 -1.93131800
-19.93780500 5.61694300 -1.85627100
22.55616600 -22.78247100 -1.90767900
28.94611900 1.87768600 1.00210800
23.22358700 3.24035600 2.27837600
-19.26845900 -12.17858900 3.09252100
-24.70279300 11.99267600 -0.31008400
13.05739900 9.63970900 -1.66129900
14.30909700 19.70196500 -2.98439200
21.33558500 -20.15771500 0.24727100
-11.90668800 6.94787600 0.20122500
-2.62447500 -1.59326200 0.50832500
-12.13404100 -5.09448200 1.26704200
-14.01826200 4.05322300 1.18197600
19.43951000 5.82153300 2.13132500
29.54954700 -11.81555200 -0.99778800
6.30089000 8.98718300 1.12370700
-21.38659900 -7.35699500 4.35115600
30.98297500 4.94580100 -0.45706700
-14.29836700 1.97583000 1.24425900
5.44407800 8.49383500 1.16001600
8.99703100 16.36560100 -0.98372400
-4.56165200 26.93243400 -4.68038200
21.18177600 -3.04986600 -0.76773200
-24.28356700 -11.74353000 -4.28588700
-8.99015000 -26.45977800 1.26698300
-13.68153200 0.36010700 1.34984500
2.45197800 23.55291700 1.00245100
-6.90529100 30.60357700 -1.69477300
-16.53573600 -10.55072000 1.58219500
21.04901900 -0.45495600 -1.50915600
2.87972900 22.92388900 1.61776500
-11.85030500 20.80181900 1.84207300
-12.62181100 3.82489000 1.26511700
-4.25618600 31.12555100 -1.89505800
-29.27017600 -12.16656500 0.11769200
-4.76997900 -2.92364500 3.69684700
-12.19901100 -11.51062000 1.44096200
0.12776500 17.68225100 0.40782500
23.44689000 -2.39715600 -1.90685100
-5.81872500 -2.74151600 3.60055300
23.70413000 -7.22918700 -3.72138900
-2.18987200 17.23156700 -1.59081000
10.13082000 20.74084500 -3.80637700
4.60368400 -28.48974600 -3.63312000
20.63953600 18.66278100 0.37223100
-23.66823200 -20.90966800 -0.71380800
-10.66118800 10.82196000 0.88539400
31.42985900 -2.08892800 -0.38610200
5.29090200 -20.82244900 -1.40346500
-14.48421100 -6.78271500 -1.07419700
-8.35773600 19.84722900 -2.98503500
23.21589300 21.42749000 -2.21606800
27.00284200 -17.16943400 -1.73029300
-22.00775900 -16.71734600 3.06079200
-5.54325200 12.82562300 -0.48854300
-14.41150700 -22.43609600 3.57769400
14.92986900 21.89563000 -0.31909800
3.64970600 19.16564900 1.09120600
-0.02800400 -23.43151900 -2.84943800
22.28538700 22.49749800 -1.60974500
14.08211000 20.57812500 -0.59307900
-16.22994800 10.20623800 -1.25838200
-2.85036100 15.06622300 -0.88917800
-15.88272700 16.31823700 -0.56959200
-8.54713200 7.26391600 2.24138800
9.44565100 -14.77764900 2.97366100
4.52187800 25.66095000 -0.36442200
-11.09157800 24.11029100 -0.27089900
-14.35734900 -15.16064500 1.04544600
-0.76545000 8.28118900 2.58571700
4.27557000 24.97100800 -0.37853400
12.77976600 28.34979200 -1.68227400
-11.93962700 11.19427500 0.44970900
12.42801900 5.28686500 2.49567800
-17.33619500 -4.37829600 1.01944700
18.32888600 -26.24487300 -1.27175100
-1.14623600 19.54626500 3.21576700
-4.29340200 -1.86889600 3.53112700
8.69261600 13.76660200 -0.52884600
23.84482800 11.27258300 -2.10366100
17.23061000 18.44738800 -3.47973500
14.00905800 13.63281300 -2.97747800
9.18415200 9.60949700 -1.84731500
-7.16822400 -29.71423300 -2.76267100
-16.11934100 -9.64648400 -0.53863600
-20.24583800 2.43225100 -1.30366800
7.36002100 20.50878900 1.05831700
-20.69269200 -4.41461200 1.48055700
0.40741100 -0.82080100 1.72328400
12.23303600 7.67334000 0.56066900
-0.75056800 10.05590800 -1.91677200
-22.06850200 0.20257600 0.16484500
-9.27639800 -30.35968000 0.04292700
12.26319500 -25.51007100 1.50140400
-16.09516700 -5.75018300 0.96568600
7.58145900 22.10131800 -2.19946500
0.20391900 8.03057900 1.09337900
-20.72102000 1.75408900 -0.12126100
13.45796200 -5.64752100 2.77604700
-12.36470900 19.66674800 1.73654600
-8.35150600 -8.22668500 1.51403500
4.53771500 -7.85565200 -0.75847500
4.30740200 -3.58685300 0.27266400
21.35054400 7.59228500 1.52341600
5.26319900 15.85730000 2.32479500
8.90107300 -26.04254200 2.29409200
-7.59049500 -7.60327100 2.00097800
6.46640000 15.99408000 1.32137900
-3.02357000 31.23761000 -2.55879000
-6.24439100 -22.78039600 3.25511000
5.02351000 -20.45440700 2.90090900
-27.15644300 3.88208000 1.10687800
0.28658200 -29.98626700 1.26916900
-26.10683100 -11.46875000 -4.17415800
-18.82768600 -16.87567100 2.85773800
-24.74964500 -9.93261700 2.94935200
-10.60675500 -29.72058100 0.01006900
-6.03657900 -4.33172600 3.35372500
13.56261100 28.14428700 -1.60440800
1.86330200 -18.74725300 3.55181900
-11.97184900 -24.07910200 2.80861100
-28.42602700 -5.82769800 -4.04340600
7.52805100 -5.73437500 0.27407400
-8.20234200 -29.21264600 1.45446600
11.19398900 28.18341100 -0.33536500
5.25940800 -22.71936000 -3.08784300
-13.65574600 -24.07098400 3.25085600
-8.90697800 16.15747100 -1.38240900
4.34822800 -24.33007800 -3.90118800
22.09704600 -6.31768800 -0.53682200
12.89865700 26.61138900 0.02064700
-14.23710200 -13.18420400 0.42907200
0.82677100 13.03778100 -1.35310000
3.96079500 -23.57861300 -3.28824600
-16.16934600 18.25585900 -2.90116900
-10.44222900 -23.18707300 3.12321900
-18.83388700 25.50720200 -1.51067000
16.01232900 13.52002000 -2.78724700
-13.90711500 -13.68988000 1.50017300
28.17092300 -12.72076400 -3.72025700
26.44605400 -8.71856700 1.78899800
-18.23662600 16.69567900 1.50297200
21.10271300 18.12298600 -4.51916000
14.63851100 -1.03930700 2.33459200
-13.73523500 -14.26501500 0.96285200
31.34945100 -7.64599600 -1.99710600
28.43397700 -6.03833000 1.33461000
-19.17433200 20.00280800 -0.49603800
13.51806100 -0.90081800 1.69859700
-12.16999200 16.53912400 -1.74528200
14.45860100 7.71551500 -1.46710600
2.25879600 -10.65509000 1.01022300
26.78104800 -6.31500200 1.85208300
-14.06200400 -16.64563000 -1.43764100
-19.38136500 19.35101300 -0.09430500
-15.77602300 17.38568100 -3.36037900
4.47426700 -5.77606200 0.28663900
0.74327900 -10.26568600 1.05064600
5.01605400 8.95220900 0.58548500
-0.38800400 -18.08618200 0.57206200
-10.92868900 18.67694100 -0.84231900
-19.84932500 16.77185100 0.83368500
-24.75428800 -13.09429900 2.40201900
11.24331000 16.19726600 -2.20776200
-16.43267400 -26.69635000 -1.96032700
21.08310300 8.98950200 -1.41530200
-12.98237500 10.90228300 0.74686300
-11.76629500 18.17022700 -0.79616900
1.65931400 -15.67852800 0.00538600
29.67738200 5.23797600 0.24867500
0.90402900 -4.84179700 0.38252100
-30.89095700 5.09350600 -0.35663400
-15.66524400 -27.41204800 -1.56473000
8.50003500 20.45904500 -3.73499900
5.43912700 14.92077600 0.30625200
-7.64288500 -26.74865700 2.95420300
-2.32894100 23.69409200 1.19028700
29.41293300 0.33807400 0.15289500
30.58453400 -10.46923800 -1.72319000
-16.88411700 -7.10766600 1.29445300
-5.00402300 -5.80218500 0.20382800
6.35768500 13.26812700 -0.68996700
-16.12821000 -14.52966300 -3.23330900
8.71203900 -14.03778100 -1.26704800
-2.92847200 24.35308800 0.81811000
29.40278400 12.26232900 -1.58623100
18.17974300 24.22955300 -3.35890600
-12.14321400 26.39251700 -4.31925200
-15.34100700 -15.17517100 -2.92729000
21.55983500 13.48187300 -3.32514600
0.12763500 -8.18341100 0.90453300
25.97418600 -12.52630600 0.99155400
17.07938200 0.52648900 2.47512200
-0.48881700 17.35131800 -0.44066600
-0.71622200 -13.92620700 4.41276200
-23.51133500 -7.50811900 3.15402500
27.98320600 5.77722200 0.47905600
7.00342600 20.93457000 -2.32488300
2.30381300 -7.72625700 1.39892900
-6.85499300 -0.11883500 1.01018400
-3.45116100 -13.37316800 3.65689900
16.25863100 -23.95489500 1.92592800
1.67742100 -15.60644500 3.42497000
12.31952200 -28.67022700 -1.89414800
-4.05948200 -3.91345200 0.33562200
30.49470700 -4.39001500 -3.56229400
-2.61249700 -13.40539600 4.29992900
13.07333700 -8.25054900 0.70778000
2.73647400 -15.77325400 3.05744100
4.61914300 -13.67138700 0.95384900
14.52425000 7.01403800 -0.28445400
28.62773300 10.49334700 -0.17196700
-13.89473900 7.69384800 1.35842200
-29.12176100 11.83526600 -2.66971800
-16.21993600 13.97460900 -2.22304600
-5.73461200 18.66210900 -1.84345400
20.15590700 -12.28002900 1.87118600
10.77157300 -12.92761200 0.39371700
-28.40554000 13.34912100 -2.60045400
-26.76351500 -17.02581800 -1.94056700
-8.05866300 16.38543700 -1.26603900
-2.93165100 2.24316400 1.00847300
3.00735600 -1.52984600 0.19528400
6.04366100 -8.42981000 0.59982700
-6.29733100 -17.92346200 2.41587100
-12.13880500 -19.83282500 0.12093900
-12.35422400 -25.23187300 2.07009900
-1.62515000 9.83148200 0.23105800
7.27047200 26.32067900 -0.44497500
0.74501100 -22.61383100 2.95216900
26.47102000 17.48242200 -1.50853700
-9.66813300 -6.04650900 1.99892500
-26.50549900 -5.20758100 2.50438100
-1.72341900 10.38873300 0.13795000
-9.50353200 19.98901400 0.31821600
16.13034100 -9.80444300 2.97813100
28.17606000 14.90240600 -1.73986100
9.45719400 -15.84924300 2.84744800
-31.20841400 -6.44500700 -2.22481000
-10.23123500 -20.10131800 -0.01584400
-10.15767600 -6.73504600 1.39787100
-11.61411000 8.15564000 1.38740000
16.66914000 6.18084700 -1.77194200
9.57811000 -22.23431400 2.84461200
20.27904900 -5.37005600 0.35018700
-10.52982900 -19.71118200 -0.95665000
-26.58642200 -6.19091800 1.46360700
-12.07700000 7.12310800 1.15930000
10.17277400 18.89910900 -3.50892100
5.05553700 -15.79089400 1.72129600
-3.92433700 -9.59100300 2.05451700
22.54494500 13.40979000 -4.49758000
-1.43167600 21.12451200 -4.37813400
2.46249700 -12.65222200 1.48739500
13.78409300 -14.42773400 2.93316800
-20.78099400 3.71997100 -1.75489000
14.77774700 27.44982900 -2.20006600
-7.87804600 -27.24060100 2.52212700
9.75277100 -28.11761500 1.04749700
1.56857900 -12.04943800 1.73661100
26.17080100 -12.69635000 -4.52029000
14.92107600 -12.68933100 2.74738100
8.42719200 -29.33313000 1.03152800
-20.67741600 4.16314700 -2.11395200
-7.47137600 -20.19268800 2.47002000
6.89941400 -3.53161600 0.79303100
15.19257200 -24.55719000 1.43455100
-21.73123900 -22.25378400 -2.18697400
8.25926400 17.64770500 -3.61704300
-7.50346600 -19.33917200 2.06458900
-6.65569300 9.25677500 -0.70061100
-13.77885800 -17.67462200 0.49864200
-20.37287100 23.63299600 -3.15717900
-1.53526900 -25.87207000 -3.76713800
10.25914400 -1.67840600 0.92001600
12.75985200 2.52209500 -1.07131500
25.07838100 17.23712200 -3.68858000
-13.31595600 11.79785200 -1.87736400
20.03024700 -24.96923800 -1.91198500
-17.50642800 13.32397500 -0.11466300
-0.35045400 -18.56469700 4.07662900
-14.86374100 -15.50280900 2.68508600
-17.82065000 0.30200200 0.71377900
11.15805100 -11.80902100 2.38781300
16.01182600 18.32714800 -4.73860000
18.88730600 13.57196000 -3.49753400
-26.77079800 -15.96313500 -2.85892500
-14.09702000 -17.54827900 2.45770300
-9.47525600 17.84277300 -2.14272800
4.04179300 6.54400600 2.05497400
1.06885100 19.30615200 -3.75497600
7.59626600 10.41046100 0.61204300
23.81059300 -5.48858600 -2.76178800
-1.40862900 14.63177500 -0.54912900
-15.06764200 -16.44604500 2.42844700
7.99705500 2.12884500 1.70753100
-20.61595200 -14.23461900 2.98592900
-8.02958300 4.60137900 1.14019800
31.59952200 2.51916500 -2.14877400
-20.18388400 10.88739000 0.69159900
0.18984100 -31.24957300 -1.57168400
0.12467600 -21.35095200 0.10001800
-17.53434400 6.99884000 -2.16278100
10.01615000 29.28186000 -0.93143300
0.51149200 -31.45910600 -0.89224100
30.58507700 7.49493400 -2.25398200
6.90679600 -27.20129400 -3.96286400
3.54486800 -27.62377900 1.33974100
1.83485900 -31.43548600 -0.98222500
-4.74329500 18.61846900 -3.10098000
-5.34406900 21.99481200 2.57515700
-31.15771500 -2.97503700 0.24770600
30.68088700 7.64685200 -1.79805700
5.01354400 30.68353300 -0.77788200
-6.96112200 -10.11077900 1.59195500
-27.73686800 -14.24316400 0.66410100
14.13551400 -3.22161900 -0.54778900
7.05337100 -30.91888400 -0.41247200
-5.08613900 -14.57373000 2.62986700
23.31839400 -21.66333000 -2.14525400
22.90582100 21.08972200 -0.55033900
-14.87632900 1.68292200 -0.13494000
26.38483000 -16.96447800 -3.35335400
13.33592000 -4.58020000 2.56851400
18.24469400 -20.21087600 2.34714900
3.18643900 -13.08148200 1.65585000
26.98947300 9.84454300 -3.97026900
-10.91302600 19.60565200 -0.27540400
23.86589400 6.45092800 1.98481500
26.55893900 -17.39715600 -2.86143500
23.10748300 7.98108000 -3.96872100
-3.45691000 15.54650900 -1.17780700
-10.86705400 -19.29950000 -1.20270700
-9.94054500 19.60687300 -0.45163300
-5.04213200 -14.64337200 0.30176700
-6.92320800 22.26617400 1.53361500
-2.42609400 -30.67578100 1.19845200
24.96143200 9.85797100 -4.20976500
-18.55972100 12.80865500 2.09910300
1.47763400 -29.26916500 0.69855300
28.24421900 -13.81066900 -0.70326000
-8.07583000 23.80181900 1.38577500
18.04295200 -21.68920900 1.79743800
-30.60439500 -5.94482400 0.35820800
14.11344100 0.59869400 0.14457000
14.53730800 20.99603300 -0.27059700
27.14802600 -14.92004400 -0.35977700
18.67514800 -16.21814000 2.02152300
8.43900200 -6.26678500 0.92238900
14.25283600 2.82940700 -1.10155600
-1.78098700 -6.08300800 1.39179400
5.41150800 -24.33721900 2.59981900
25.33386200 -18.57202100 -0.63684800
7.78250100 4.65289300 -1.81650800
13.37921100 1.82104500 -0.24514700
3.09458500 -23.90863000 2.41977500
-3.93416800 25.67242400 -0.59705400
10.35780700 6.59576400 -2.06755700
25.82740200 -18.18988000 -0.57691000
19.05140700 8.50750700 -1.89476100
21.21937200 -18.35705600 1.67588200
1.28413500 -24.60992400 3.05071600
-1.51552500 22.69421400 1.57492800
25.73311600 -18.52716100 -1.00652500
-28.75451700 -14.19030800 -1.04260500
19.76145400 9.02539100 -1.74477500
20.62186800 -18.00152600 2.00234000
16.84967800 7.31756600 1.16079300
-30.79850000 -8.89447000 -1.49320600
1.69620100 10.78344700 -0.93359100
-3.15568100 31.49426100 -1.78415700
1.07733000 23.71337900 0.26365900
19.76739900 16.84210200 -3.39148800
11.36285000 21.80413800 -0.80124100
28.25474000 -8.86401400 -0.04782000
19.17037000 0.78527800 2.75082100
-23.02827800 -20.57080100 0.82942400
-18.09264000 19.03918500 -4.83724400
-22.47802700 11.63647500 2.05176400
-1.85008900 19.22766100 0.55857800
28.47453500 -11.35467500 -4.00604200
-5.48019600 -24.28985600 -3.46634700
-14.03971700 -18.31225600 2.72955700
-11.10425000 23.23089600 -4.95056700
-5.15887500 19.91314700 0.59024000
24.37716900 -12.32025100 -4.17335300
-13.46425100 25.70910600 -0.63603800
16.02829400 -7.25299200 2.91374400
-4.25882000 7.96081500 1.91912900
-20.78739400 -7.13842800 4.01172800
29.72142200 2.93090800 -3.66321800
-4.05983000 -26.45593300 3.20093900
-19.42567800 7.67498800 -1.79993600
-16.28424100 -12.58837900 -0.24841200
7.62963300 -19.41925000 2.44556600
11.50105000 -25.63427700 2.05689600
15.09510600 -27.40728800 0.11636700
4.12648500 3.93530300 1.28096600
-5.41698200 -25.52710000 3.42481400
-6.37443200 27.05102500 -0.79505000
15.58436300 -26.00006100 0.83834500
19.97014400 3.80987500 -2.33554600
-25.01215000 7.88745100 2.31442900
-20.90369800 18.42895500 -0.14088100
-4.80739200 27.74462900 -0.58751100
-17.78722200 -23.99853500 1.33337600
-31.36235400 3.21344000 -0.40919800
15.39421500 -27.10339400 0.56215100
17.65624800 -10.88311800 2.95658600
22.93043100 21.92456100 -2.04365000
1.92540900 -30.23541300 -2.58104100
-3.99246200 -18.19696000 -0.61545600
-1.10225300 -17.57977300 4.42576600
-3.20974200 29.62854000 -0.19521000
-28.08703200 -10.28826900 1.31504500
-4.70052900 -16.34094200 0.53183800
28.75957900 -7.66369500 0.28714900
-0.73259800 -31.54675300 0.29564100
-2.03748300 -18.16058300 3.81612000
-15.32567900 -4.94574000 0.29905500
-23.45263300 -6.56170700 3.22447100
20.83423600 -1.84338400 2.55946100
-20.94677200 9.37756300 0.72765400
-20.25274700 -12.15344200 3.60641200
-7.75732400 25.87451200 -0.39491800
-2.05472900 -17.31890900 4.50130200
-21.24845900 4.13171400 -1.82583700
5.60653800 25.17095900 -0.31597900
-6.99687700 24.62890600 0.51904500
-1.89261700 -13.67248500 0.09423100
-15.46026300 -0.89477500 1.09029200
-1.80281400 25.60858200 -0.45142400
4.17830000 -10.90423600 2.15151300
0.82422800 -9.45764200 -0.41083000
-7.26634700 -21.43109100 3.02446200
-8.72666500 12.36535600 0.86453600
10.24921400 22.18347200 -0.23757000
-9.80227700 -10.86828600 2.25031900
-29.22822600 -4.40466300 -3.89665200
-22.96432900 2.19451900 2.73010500
14.86909500 -21.34442100 -2.79271700
-0.71933200 -25.99676500 2.80918300
-12.71020300 14.00824000 -1.47029100
7.88522800 -15.83935500 0.17237900
-6.14249300 -28.14837600 1.86662700
-18.39790000 -7.37585400 2.64880100
-22.93166000 0.30047600 0.70101300
7.31218500 -15.19866900 0.38280800
-27.70155700 -1.33911100 1.99616000
26.05024000 -1.91650400 2.16732400
5.12734500 23.58544900 0.30595800
18.52984600 23.88281300 -0.09816600
-26.26627500 6.86181600 0.53958100
-27.28393200 -1.18090800 2.49319300
9.24554200 -12.88501000 0.03169600
26.83818800 -3.78460700 1.51302400
-23.01873000 -2.71460000 3.11298400
-9.42056600 -19.64947500 0.25986100
-16.50975000 -10.83996600 1.32839200
21.94995100 -18.48400900 -3.93775700
29.35154900 -12.12323000 -3.13619400
-5.16717700 -9.09643600 2.46462200
0.35544300 23.98303200 0.00403200
9.16752200 22.05084200 -0.92293400
-16.79239500 -11.86541700 1.72270000
1.49054600 2.76019300 1.27853100
20.48666800 -19.40509000 -3.98076600
6.39804000 -3.51055900 -1.13579600
-4.89002300 -17.32946800 3.35441900
22.57840200 -22.17028800 -0.69344700
14.62553700 24.02734400 0.14251100
6.10440300 3.60522500 0.49448200
-25.67129300 5.43615700 2.48489300
9.53684000 -26.35736100 1.24583600
8.15399000 26.10852100 -0.28468900
-26.38334100 -18.05285600 -0.79385900
-10.84029900 13.85815400 -0.37936600
3.29595100 10.91638200 -2.44312800
6.82815400 -29.03253200 -3.27905800
24.31624200 20.17419400 -2.54835700
23.77171300 -14.87298600 1.18291600
2.27938700 9.69018600 -2.04490100
-7.03945400 30.48162700 -2.43539400
-20.09033600 -23.94079600 0.59796700
10.23757200 -28.03448500 -3.58066000
-16.89908800 -11.99206500 -0.78663200
20.94057300 -22.67431600 0.21446200
-17.91609000 -26.00781300 -0.09128000
-16.68859700 -19.89050300 3.13247700
12.93571900 -27.46325700 -3.45433800
-10.21084200 28.69177200 -3.56857900
16.17401500 26.28582800 -0.75915100
4.68346700 4.44305400 1.35113300
-18.10636300 -19.58789100 2.71589900
16.08895700 7.26739500 1.45684800
-29.56246800 7.75470000 0.32508300
1.69976000 13.95208700 1.53576500
-16.47699200 12.38165300 -3.27795100
-0.19212600 5.23187300 2.22117600
-16.66888000 -4.22161900 0.83972400
1.86951100 -26.28796400 -3.98355900
-29.57839600 5.98596200 0.51993400
-17.58071300 12.45867900 -2.18076300
23.97356800 12.06579600 0.46523800
-18.73573300 3.44158900 -0.44131200
20.18068500 8.14740000 -0.70146700
19.79248200 -14.42895500 2.13720300
18.72435000 17.67077600 -1.99814800
-1.52316400 9.08935500 1.89120800
-13.06213400 -28.40191700 0.68090400
7.40695500 30.37072600 -2.23861700
30.30597700 -5.54412800 -0.00958200
27.38918300 2.04589800 1.37285800
-2.55788600 -4.19354200 2.57108100
10.88102200 20.62530500 -3.61171200
-24.04969400 15.43487500 -0.03503400
7.24572200 -6.78546100 -1.10358900
-4.79503700 30.55212400 -0.81045300
-0.18585900 11.75891100 -0.17007400
2.73064400 -19.11547900 3.30987500
-30.95196300 -2.30065900 -3.21893000
4.41924100 30.51019300 -0.52726400
9.81011100 -9.66033900 -1.14510600
-23.11521900 5.97631800 -0.81277300
-31.74290800 -2.68231200 -2.13353000
-17.96319600 -3.94995100 1.58950400
-6.55084400 -19.28027300 2.99413300
-20.18745200 17.91680900 0.06119000
6.78833400 23.92669700 -0.16497800
22.76139600 -6.91455100 -3.49651000
-31.96300300 -1.46991000 -0.67891800
6.84602400 4.97418200 1.55794600
28.93922400 5.20184300 -3.75787200
-21.68301800 15.91137800 -0.18116900
-4.06593400 -30.56903100 1.21048700
15.23270400 -14.94543500 2.69142500
-7.99011900 -24.27233900 3.30471800
-31.78937900 -1.89996300 -1.76343400
27.40899100 3.17846700 -4.05457200
5.97590700 -6.71569800 0.53375300
-24.23615300 -5.52618400 2.43071700
17.92883900 4.07690400 2.33512900
-22.98531700 2.93237300 -3.78849100
-1.09908800 12.54992700 -0.89621500
22.29512200 -6.70312500 -0.87291000
-18.50610400 4.34576400 -1.04899600
0.12624600 17.43182400 1.55838600
-27.22464800 9.40051300 0.27664300
-31.00899500 4.16064500 -2.53954500
4.66454900 1.78979500 0.46821100
6.12533800 -15.91552700 1.05142200
-5.55531200 -15.85101300 0.33656700
2.02318800 3.96179200 1.87302200
-3.70079800 17.14141800 -1.19458000
-30.40079100 3.16046100 -3.38457900
9.62837200 -24.00787400 3.15653600
5.86177600 -16.16131600 1.95873800
-17.70728700 -23.00848400 -3.50073800
3.26468900 6.25286900 1.73758800
19.25371900 17.56701700 -2.91123300
17.39120900 -4.18731700 0.18605900
-27.73738900 5.78241100 -4.28774000
-14.85688800 -28.12915000 -0.58976900
6.58342700 -14.85748300 1.18352900
10.38461800 21.73767100 -4.63862800
3.53486900 6.16760300 2.04607000
-2.10445000 -3.30206300 1.97162600
16.35241900 -1.73779300 0.56870400
13.12872800 18.27166700 -4.57943300
24.59127000 -3.43841600 -1.84369000
-4.20478200 -16.64508100 4.59002600
-21.29400400 21.11309800 0.20525200
-3.14336500 -25.80700700 2.90106400
-12.37039000 25.74774200 -0.64230500
9.18863700 -8.94445800 1.14924100
7.23373700 19.04418900 -2.42720600
-8.47022800 10.26361100 1.48935300
-4.81430800 -12.48162800 2.37715300
-1.73369300 -24.66857900 3.20932200
9.79251900 -0.21069300 1.98824800
14.52729800 27.61108400 -1.39926700
-4.44976500 -11.46759000 2.81577900
7.60129500 18.63000500 -2.01473400
-7.33917500 10.34552000 0.90587000
-22.66662400 -18.07989500 1.54760700
19.76610400 -22.50677500 -4.06530800
-4.75575100 -10.54608200 2.39067200
1.91988700 17.57354700 0.79014600
25.98653400 8.62152100 0.88628300
22.12627400 -9.42028800 -1.35114300
26.74341000 15.71344100 -3.20331700
-15.93642200 7.12243700 -0.48857900
18.75188300 -25.07299800 -3.04980300
25.72103700 9.89862100 0.84060600
-29.75253300 -2.10742200 0.90243800
22.04373900 -8.47491500 -1.09768700
-13.64987800 -12.35577400 -0.06756900
6.22721800 29.99212600 -2.88532800
18.54253400 -24.14361600 -3.73840000
-28.58124900 -2.00146500 0.68333200
16.01528400 18.65863000 -3.40349200
7.76028600 19.06817600 -4.26173500
-14.70769700 -9.91894500 -0.16236700
8.58218600 28.42358400 -3.62415700
21.64876400 7.81323100 -3.50557700
16.53223600 19.05902100 -2.87207400
-16.23321700 -12.10925300 -1.27516700
-28.23397600 -0.39111300 0.72571100
13.72539500 6.99237200 2.11047600
11.42406000 27.01873800 -3.81014300
-15.43741900 -12.67901600 -0.35803600
-8.00735400 -18.62786900 -1.72721300
-1.99047900 14.59796100 -1.85982500
7.51695400 -26.69781500 3.10917900
22.05873300 8.70910600 0.08743600
-19.71416100 11.87146000 1.62144500
-30.29822900 -3.76416000 0.70075600
12.48973700 22.77392600 -0.03447700
0.23761100 -6.48718300 -0.28345600
11.22395600 -4.32165400 1.96144400
-3.16203500 8.31921400 2.88209000
5.10369400 16.64062500 2.24092700
8.06618000 9.64819300 0.12675500
27.34711800 -9.30865500 0.80852000
8.16244500 30.18103000 -1.66206000
-10.43839800 -10.28662100 1.68859800
9.26325800 -5.40527300 0.40925000
22.75742900 -15.51025400 -3.30702800
29.58818100 -2.23834200 0.14798800
27.93998500 -7.63677900 1.41197700
0.27458100 -27.82751500 1.02407800
25.26259800 17.68933100 -0.36713000
-2.05534100 5.96356200 1.90727800
-3.04221300 -19.40167200 -0.59728800
-1.04261100 -27.76226800 1.94121000
-13.70956800 -10.10089100 -1.10498600
10.81291700 21.74377400 -1.58969300
-18.43368100 -2.26178000 0.84965200
-0.08590000 16.62738000 0.39956900
-16.47243100 -10.45684800 -0.69453900
18.55169700 -2.45117200 2.54779400
-1.87180900 -28.52227800 1.62940000
0.04336100 15.73724400 0.17259600
-26.39791300 8.27972400 0.28777800
-0.72541600 25.46887200 -0.60456500
2.64665700 -21.94390900 -1.14627100
5.04277700 20.80004900 -0.26862700
12.74464800 12.61682100 -2.03817600
-16.39369600 25.05279500 -0.18788900
20.81684100 21.94061300 0.06193500
-28.79187800 -8.06109600 1.22155500
-23.19460100 21.58331300 -1.78434200
-9.92002000 -24.60858200 -3.84971200
9.87563100 -14.46667500 -0.29656700
0.36801500 2.59759500 -0.56524800
20.17433700 22.39227300 0.30800100
-24.74942800 19.69494600 -1.87142400
-17.71095100 -8.04223600 1.97233900
0.50169300 -20.56915300 3.28709800
-28.93329000 1.12255900 0.64719200
17.02649700 -20.04187000 -2.85781300
-25.22565800 18.96099900 -2.30875400
-12.03748000 -15.85852100 0.05207300
-17.91821700 -6.96948100 1.96347200
1.84254100 1.74414100 0.81305000
-9.06000000 -8.09124800 1.52011200
-19.90626300 -11.11163300 4.14563800
-26.61749100 -13.70459000 1.24158700
12.75041400 -6.48657100 2.41966700
7.66253900 -0.09533700 1.61937500
-23.04435700 -21.41241500 -1.68861800
4.91934100 -2.43817100 0.87555300
16.15319400 -22.70111100 2.69432600
7.21306800 -26.23101800 3.19424800
3.90370200 -0.03533900 0.34419700
18.77087000 18.05548100 -4.74527900
-8.69578600 -5.50030500 2.77662000
28.62207000 3.69537400 0.89117600
-26.92621000 -9.13378900 -4.19552100
4.34529100 14.27026400 1.76007500
-12.91322300 13.18847700 -1.07069000
-20.54660400 -12.79058800 2.95986600
-1.89800400 18.69738800 0.02339200
-1.58687600 30.15551800 -3.50977900
-12.88594600 -16.75207500 -0.88800400
-4.99751600 17.64825400 -2.40736500
-17.40914500 8.87786900 -1.08961800
-3.90913100 19.60479700 -0.87277600
-14.33493300 -14.70886200 0.50476300
-21.06641400 23.76086400 -1.69642100
-3.93957700 16.82501200 -2.35502500
18.97126800 -11.46746800 2.34411700
-19.55847400 0.40277100 -0.25895900
11.44080300 5.48571800 2.29489700
24.05289800 -13.18695100 -3.73269500
-22.41069200 22.43597400 -1.18445400
-14.79673500 9.34887700 0.37451700
-19.89154200 -6.44512900 -3.02251900
-31.57512500 4.58416700 -1.24014500
-9.51311600 -24.52246100 2.37906600
-31.45560100 5.01989700 -1.51231900
-16.62255900 -3.24408000 2.14857200
0.74142400 14.25500500 -1.10663000
3.98668500 -8.38958700 1.11564500
13.00513800 -3.40521200 2.35096500
20.66395800 14.25817900 -3.66269500
0.98798200 -23.58563200 -2.73738900
27.78157800 1.51599100 1.33301200
-16.79787800 -1.92773400 2.49434800
-17.93565200 -10.37231400 3.25569900
-8.79935800 -17.85473600 0.12366900
-9.97888200 24.56402600 -4.86744500
-28.46633900 -13.51251200 -2.60334600
5.03822400 18.94311500 -2.74141100
3.55032600 -26.58685300 3.04579000
15.04402400 15.76001000 -4.23783100
2.10468200 6.24798600 0.03953400
-28.59495700 -14.20990000 -2.01836200
12.69932600 -9.30645800 0.09032000
-0.77548900 -31.12396200 1.08678600
3.94291600 18.98028600 -2.83065000
-14.31863800 28.29113800 -2.22684100
-28.90642500 -13.50085400 -1.88136300
0.88862100 5.54284700 0.47904100
17.60388800 15.82110500 -3.93690800
-4.32285400 -28.36236600 1.44230100
22.92622600 10.06640600 -3.68254300
15.37488000 14.02063000 -2.77707100
22.77999300 13.93792700 0.31203700
-14.42114200 28.32434100 -1.59981900
1.67745600 4.74957300 0.68320100
-15.76895000 16.89209000 1.13883000
29.84340500 -9.84704600 -0.42156300
-5.06910400 9.09057600 1.49180200
16.06545300 14.32055600 -3.33782500
22.13546600 -20.20764200 0.24460400
0.11243600 4.38757300 1.99720600
13.82994000 -27.54583700 -2.65614700
-22.54610300 -10.17669700 3.04938800
-13.99419400 -17.07141100 1.34469200
-7.04324300 4.15216100 1.22774700
-29.76788100 -10.72210700 0.32000700
13.46838600 -25.43859900 -4.25763500
-23.38803100 -9.56658900 3.20960700
11.84404800 9.58538800 -1.84958700
6.76696700 17.74939000 -3.26737700
-28.43291500 13.75311300 -1.55260800
-16.85858200 7.22656300 -0.86041000
-19.34427100 -20.35339400 -3.79487000
-23.56868400 -8.35504300 3.82533100
-27.83946200 14.60034200 -2.30763600
-2.99244700 14.10668900 -0.78187300
-20.35688800 16.92321800 -4.73167100
25.98917600 -18.06988500 -3.09559100
8.42430400 15.53405800 0.30668400
-23.83692900 -8.24505600 3.03649000
-28.30351300 -8.21856700 1.24826300
-24.84681300 12.78588900 -4.47895700
-12.72811700 3.76776100 0.41786400
-29.21422200 -0.27471900 -4.03488900
-10.50537300 -6.20202600 -0.15552900
12.46368300 -25.20263700 2.45474100
-27.75563600 -8.66943400 1.15100000
-14.44387400 1.43359400 0.19420800
-11.04360800 -11.46154800 1.97963600
-0.38328400 28.33233600 -0.20247500
-26.20065300 3.65325900 2.49836300
31.15229800 -2.57800300 0.05926500
11.93919600 -25.82641600 1.36421000
6.87375000 -14.98467900 2.15994500
20.43771400 -10.33850100 2.24194000
-12.29524800 -29.21722400 -0.60224200
-8.31759800 0.59692400 2.26986200
30.48422800 -2.56842000 0.13812400
-21.18848800 -6.34973000 2.59071600
29.21940400 -6.53930700 0.19586000
8.34450700 17.50482200 -1.80772700
-10.11489500 -19.72216800 2.04697800
-20.88095100 -3.15808100 -0.19284900
20.06800700 7.35870400 1.12681200
-17.63089000 2.40545700 0.83716600
-26.84738700 16.76721200 -1.04597700
11.03590200 -5.73400900 -1.32817400
-17.44117500 1.41937300 0.62282000
-21.90608200 -3.38012700 0.76708700
13.72788800 -7.46862800 2.00309100
-29.98030500 -3.46698000 0.72244800
-24.14662000 -18.00598100 1.23437100
1.50996900 -5.93371600 0.41594000
-21.28268200 -2.01556400 -0.12925300
-29.34985900 10.48785400 -2.87463700
13.76692100 -8.78002900 1.94246100
-15.05135300 -19.37780800 3.17216100
8.35714200 22.13531500 -3.04943100
9.85983400 -15.12683100 3.04737700
-6.06082300 -17.48022500 2.24739600
19.92147400 -18.39093000 -3.17795200
3.58291900 16.31549100 0.61682100
-22.16377300 1.00268600 0.14693300
-25.09330700 -13.02111800 1.36451200
1.28052900 -20.15649400 3.44546700
-6.83231000 -18.00683600 2.08943400
3.01554800 5.08715800 2.04520900
14.01118100 17.86145000 -3.61553000
-3.96763600 -6.95031700 2.03629100
-15.89558600 18.00244100 1.67070200
20.88266200 10.79724100 -2.56665500
-5.10966900 -6.49456800 1.77942800
21.81701300 15.00720200 -1.49168800
-18.24867100 13.75476100 -4.11761700
2.68069400 19.17047100 -0.86797900
8.25980400 -15.01178000 1.75156600
-13.72206700 -8.22186300 -1.11417300
2.38967800 -11.35034200 1.37887200
0.43909800 1.01867700 -0.37666000
22.56458900 -11.45636000 1.89590200
1.22512700 7.93176400 -0.58587400
-23.36787200 -20.45739700 -2.25395200
23.61643200 -21.18798800 -0.94748700
-3.62961600 17.48065200 -1.90160800
-4.26696900 5.18035900 2.06252000
10.38154700 5.28839100 1.81108800
1.79786400 6.92834500 -0.49356700
-17.88103700 19.04669200 1.82291800
6.33051500 -21.26397700 2.30427000
1.66777200 23.43774400 1.78603700
7.84119700 29.94909700 -2.45808200
23.76722300 -18.64349400 -4.07742900
6.11415400 17.96630900 -2.80188200
-26.76773100 2.75146500 -4.45719000
-12.00631000 -14.75030500 0.21721100
1.93470500 24.04357900 0.70119500
10.67129400 -11.45904500 0.91684500
-16.93177200 26.41803000 -2.86061700
-28.05508000 -14.08856200 -2.85529900
-25.06432000 6.05346700 -4.43034300
-21.57688900 -12.59033200 2.94660400
5.77290300 4.08197000 -1.75157500
10.49149100 -11.58343500 1.61954100
20.07432600 22.97100800 -0.14999400
10.75295400 21.84790000 -2.58752600
-3.34607500 -17.80987500 0.84460600
10.56583300 -12.59491000 2.40647000
12.93255200 7.86236700 -0.99089000
-5.13558600 -27.77636700 2.44922600
-2.85232900 27.69488500 -0.75377300
9.46771000 -18.85125700 3.22130000
10.92609200 -12.92327900 2.55315000
10.62910100 22.39263900 -2.75653500
5.17499100 -8.44915800 0.98081400
10.01108800 -5.84484900 1.26184000
-4.97883300 -13.00048800 2.35147300
-8.19651200 23.74542200 -4.88924000
15.97486400 10.60351600 -2.13565500
11.27147200 21.78772000 -2.71589700
23.46396600 -16.99041700 -4.43647000
-16.96635600 -3.12750200 -1.34322000
-18.16237800 7.33319100 -1.47780200
-14.38180800 6.36834700 0.60272900
25.39212000 6.83544900 1.34294600
27.49673300 -11.07946800 -4.37945300
1.96831900 -30.41033900 0.58811400
0.91954200 24.51812700 -0.35622400
-22.83688000 3.14636200 0.39658000
-25.35920500 -19.41998300 -0.34339000
10.67587500 -17.93597400 -1.98704300
15.82959200 -27.09283400 0.06868200
-4.12669800 -3.92767300 2.89979000
-23.61836600 7.61828600 2.05728100
19.83605400 -2.16125500 -0.43823800
30.33555000 8.67303500 -0.99253200
6.18522400 14.78039600 0.96821900
17.89109200 -25.53503400 0.29391500
6.10361400 -17.64721700 3.35759400
29.77976000 10.45819100 -1.16839200
20.03166600 0.73266600 -1.52064600
-12.17723100 2.22174100 1.63247400
11.64133600 0.07019000 1.55571300
5.31646500 10.81237800 -0.06607300
15.20447700 25.40118400 0.01612300
7.24117900 -15.68963600 0.94078600
-18.74527700 -19.68176300 2.37058300
-14.27010100 27.92681900 -1.13054100
30.94780900 2.81701700 -0.11721800
5.99359500 10.53045700 0.71672900
-25.75959800 12.08367900 -4.40160000
-9.78619000 20.35455300 1.37557600
-18.78838500 -18.44860800 2.82407900
31.06019200 1.98700000 -0.23353600
17.64480400 6.48980700 -1.56477900
2.52083800 -10.38671900 -0.42220500
2.35947200 -0.35614000 0.57357900
-16.88007000 -9.59454300 1.32415400
-13.83635200 -7.65087900 0.15942200
6.18250900 -19.59423800 -1.79081500
-26.54502700 2.52825900 2.57023500
-19.64607800 -7.22515900 3.80231900
13.11971000 20.43115200 -2.69640900
-27.27116800 -2.79473900 1.52209800
6.57560600 -17.88726800 -1.08511200
-16.56711600 -23.59960900 1.33658600
13.22282100 19.47174100 -3.73827300
-28.01244500 -2.28259300 0.77509900
-15.00492500 -0.97277800 -0.05129100
5.85961700 16.66345200 0.20438400
-21.77037200 7.49273700 -1.20207700
0.75398400 15.85333400 2.47933500
-17.40049700 14.51153600 1.97309500
12.84377500 -27.84509300 -3.06646900
-7.60951000 22.11956800 -2.70815700
6.96449300 25.60028100 -0.28553800
-4.80030600 3.61035200 2.20029500
21.95403700 0.51739500 2.29209500
12.94703100 -28.06951900 -2.33505200
-14.37104400 27.60241700 -3.04420300
14.99167100 0.82678200 2.68890800
22.93123100 13.41638200 -2.47659300
12.67012000 -28.73986800 -0.39060800
-4.14183100 -17.55035400 0.25882500
-2.18696900 -23.44043000 3.14461100
-3.36554000 -7.99023300 -0.05427200
19.45601700 17.16064500 -0.23362900
-3.31037400 9.27270500 2.97880900
-22.49593500 -16.60546900 2.47939300
8.49591600 -11.72259500 0.27576500
32.02781300 -0.31341600 -1.31698600
17.02896700 0.15484600 -0.30325500
-12.29896000 21.26007100 1.86315500
8.64786100 19.73461900 -3.78476300
4.62657600 1.29895000 1.87763800
6.22112800 -10.62616000 1.15765200
10.73835400 -21.04516600 2.83526600
10.02719500 5.76635700 1.50329100
22.70371400 -6.21380600 -1.51037700
6.38935100 19.90368700 -3.13335800
10.95434000 -7.43603500 1.64763900
7.01898600 -10.31628400 1.16483500
10.80888600 -18.66876200 3.19854700
9.25456000 5.63873300 1.68861600
19.65002400 15.90643200 -3.81164100
7.05532000 20.66668700 -3.49457600
-3.92152400 19.40661600 2.90466900
6.44677700 19.40649400 -4.43423200
-1.16889200 -10.61785900 -0.25405500
7.79450900 6.68969700 1.40692900
20.44393200 16.24493400 -3.21578800
-17.74965100 23.42736800 -0.26319700
-8.60768500 13.41803000 -1.59620200
8.00353500 6.12744100 1.63453700
25.33441900 -1.21136500 -2.88925100
-15.03212500 -12.69189500 1.68942900
2.30274700 -19.56970200 0.38603200
5.73692800 19.74548300 -2.41649100
-14.24273100 -18.02679400 -0.25164400
-22.94368000 6.30145300 1.75998900
5.91900500 -7.65478500 0.91481200
-15.87083000 -10.33538800 -2.24551900
-22.22401000 -20.16595500 1.32143000
-17.05070500 6.30236800 -0.72219200
-12.66430700 -22.89776600 3.34348900
-18.80195400 -8.93426500 -3.18498000
3.39549100 -2.33178700 0.19090100
26.82193800 4.21978800 0.87872700
26.18972800 -6.09729000 1.92163000
-10.40385400 -28.64917000 -2.78054800
-24.10490000 -2.12005600 2.70499500
31.51336500 -5.53094500 -2.38016100
13.48874400 -9.82128900 -1.14809500
25.99291600 5.09991500 1.41432300
5.48042300 -4.24108900 0.29301000
-22.12694200 8.33081100 1.24445200
-2.11347500 26.48742700 -0.48809400
14.36348200 -8.47894300 -0.46488300
-21.96763400 -5.34527600 2.96067400
-5.91745400 27.55670200 -4.48520500
-0.08365600 19.50671400 -1.56164900
-3.55230500 27.50677500 -0.53262900
12.08830900 22.38262900 -4.59537900
-8.69354100 9.45636000 -0.62908300
-7.65668000 -14.51281700 2.47561200
5.84965500 30.80041700 -1.92113900
-4.46898400 8.51440400 2.02900400
-28.38348600 10.45422400 -3.73645700
6.56882100 -27.50360100 1.20606600
-21.24040000 12.31787100 1.56408200
-8.10632600 -15.35571200 2.33587600
4.72610900 31.00134500 -1.51161600
-6.50084600 -25.13909900 2.92217600
-30.18865800 8.94580100 -1.78009600
21.81537800 22.74078400 -2.01564600
-5.46130000 -1.05957000 0.91367900
-14.27252100 19.83264200 -4.86834900
-6.98722600 -13.03826900 2.24877500
-14.67070400 19.41046100 -1.72391300
10.48441300 13.45752000 0.06908600
-23.33642200 -11.91113300 3.19886600
9.37416300 24.20782500 -4.56655300
-16.73170100 2.49267600 -1.07309200
12.33643300 12.77063000 -1.00683300
7.68172500 4.95703100 1.97684500
-13.70112000 18.07653800 -4.03902500
-20.22939300 2.04241900 -2.70073100
-19.87231300 -1.51574700 -0.40354300
-8.50016800 15.69177300 -1.23172900
-11.03279400 -18.16088900 -1.96952800
-15.13035600 16.90332000 -4.23719900
-7.04565000 -6.22778300 0.18472600
-6.79376200 17.63031000 -1.71199800
28.10373300 -3.97149700 1.28448100
5.17924800 9.98877000 -0.26200200
-18.37003100 14.82220500 -4.35852600
7.01427700 -13.77337600 1.20659700
-4.96143200 -20.36492900 3.22475800
