6.68860000 1.10080000 -18.27520000
7.08780000 0.98350000 -18.46430000
7.94110000 1.11020000 -18.28700000
8.30270000 1.01560000 -18.39940000
9.16660000 1.20470000 -18.08250000
8.64380000 0.99190000 -18.40240000
8.50870000 1.14640000 -18.23450000
9.63310000 1.03220000 -18.27820000
10.00670000 1.03760000 -18.25720000
8.10040000 1.49600000 -17.61970000
8.47160000 1.33190000 -17.93990000
8.01520000 1.33220000 -17.96160000
9.07450000 1.59450000 -17.38050000
9.67160000 1.43280000 -17.70060000
7.86090000 1.75410000 -16.88510000
7.62580000 1.52810000 -17.52920000
6.99290000 1.46280000 -17.61200000
6.59000000 1.66930000 -17.10650000
6.64860000 1.80760000 -16.08880000
5.78690000 1.67910000 -16.90590000
5.42570000 1.74510000 -16.28450000
5.48010000 1.86620000 -15.25470000
4.63620000 1.74800000 -16.06480000
4.10340000 1.81420000 -15.35780000
4.55390000 1.89020000 -14.54300000
5.41010000 1.95200000 -14.06390000
4.34580000 1.94370000 -13.71410000
5.31140000 2.01410000 -13.13950000
4.27390000 2.00670000 -12.74310000
5.23150000 2.06950000 -12.19750000
4.23320000 2.05880000 -11.76700000
5.17770000 2.11330000 -11.25880000
4.21510000 2.09200000 -10.88770000
5.15240000 2.13510000 -10.29720000
4.23210000 2.10790000 -9.94540000
5.17920000 2.11330000 -9.32550000
4.21640000 2.04630000 -8.85030000
5.27230000 1.99330000 -8.43780000
3.47670000 2.06880000 -9.58020000
3.21070000 2.02140000 -8.94140000
3.46330000 1.79290000 -8.00620000
2.58600000 1.94920000 -8.66700000
2.32470000 1.80590000 -8.11830000
2.54750000 1.36300000 -7.44520000
1.60440000 1.70060000 -7.94540000
1.36520000 1.38160000 -7.51750000
1.56540000 0.89190000 -7.08690000
0.67210000 1.20990000 -7.36990000
0.42240000 0.86610000 -7.10080000
0.54760000 0.48570000 -6.81240000
1.70170000 0.44800000 -6.68540000
-0.27830000 0.71580000 -7.00140000
-0.55390000 0.37270000 -6.74870000
-1.14600000 0.69090000 -7.00750000
-1.61200000 0.29270000 -6.70410000
-2.44860000 0.62750000 -6.95950000
-1.68750000 1.04540000 -7.23690000
-2.39570000 1.16300000 -7.35070000
-3.51190000 1.03480000 -7.23330000
-2.72820000 1.47800000 -7.73720000
-3.43660000 1.58090000 -7.91400000
-4.54690000 1.48090000 -7.70220000
-3.80410000 1.73010000 -8.43800000
-4.46530000 1.77720000 -8.69860000
-5.27680000 1.72920000 -8.47090000
-5.72120000 1.42890000 -7.57090000
-6.44450000 1.70920000 -8.39180000
-5.78300000 1.79180000 -9.23430000
-6.42320000 1.79280000 -9.50040000
-7.25870000 1.77050000 -9.25660000
-7.55010000 1.69860000 -8.29830000
-8.19310000 1.75510000 -9.15920000
-8.42440000 1.68210000 -8.16830000
-8.99720000 1.74510000 -9.04860000
-9.20490000 1.67790000 -8.09530000
-9.80270000 1.73400000 -8.94400000
-9.91070000 1.67600000 -8.01920000
-10.63010000 1.72190000 -8.81250000
-10.71870000 1.67440000 -7.90450000
-11.52450000 1.70840000 -8.66740000
-11.51900000 1.67400000 -7.76910000
-12.28520000 1.70440000 -8.50390000
-12.25680000 1.67590000 -7.62600000
-13.05670000 1.70740000 -8.30830000
-12.93400000 1.69280000 -7.45680000
-13.84540000 1.70530000 -8.05070000
-13.72560000 1.70300000 -7.20140000
-14.66150000 1.70260000 -7.74170000
-14.44250000 1.71180000 -6.90260000
-15.39710000 1.70100000 -7.40950000
-15.16590000 1.71830000 -6.71770000
-14.40940000 1.67740000 -6.10990000
-15.45300000 1.72510000 -6.29060000
-15.17040000 1.71130000 -5.80420000
-14.48200000 1.53710000 -5.30660000
-15.38380000 1.70550000 -5.40540000
-15.11100000 1.63950000 -4.99630000
-14.58700000 1.34040000 -4.65230000
-15.25750000 1.61680000 -4.63840000
-15.06100000 1.46680000 -4.32350000
-14.65580000 1.08550000 -4.18010000
-14.18670000 0.68400000 -4.35700000
-14.38020000 1.03270000 -4.44040000
-14.17260000 0.96540000 -4.61520000
-14.44840000 0.76080000 -4.11500000
-13.92790000 0.27250000 -4.35400000
-14.14640000 0.41610000 -4.22140000
-13.86990000 0.45560000 -4.51440000
-14.36410000 0.48430000 -4.01230000
-14.22500000 0.07640000 -3.92920000
-14.10810000 0.22480000 -4.14610000
-13.88390000 -0.12290000 -4.20440000
-13.72350000 0.04040000 -4.41560000
-14.07720000 -0.17740000 -3.97750000
-14.00940000 -0.44300000 -3.99870000
-13.80990000 -0.76220000 -4.25280000
-13.81840000 -0.44820000 -4.19380000
-13.62460000 -0.46600000 -4.36910000
-14.06960000 -0.77010000 -3.97320000
-14.11860000 -1.11720000 -4.17240000
-13.89690000 -1.24320000 -4.55660000
-13.86300000 -1.03690000 -4.35250000
-13.69060000 -1.01040000 -4.49640000
-14.14040000 -1.34490000 -4.46600000
-14.40340000 -1.46350000 -4.38360000
-14.18130000 -1.54920000 -4.79730000
-13.81310000 -1.42110000 -4.89270000
-13.90870000 -1.58160000 -5.10040000
-14.43770000 -1.60530000 -4.63960000
-14.55980000 -1.75400000 -4.84330000
-14.61600000 -1.66220000 -4.55830000
-14.38140000 -1.78390000 -5.09590000
-14.42930000 -1.32920000 -4.07400000
-14.40980000 -1.13590000 -3.80430000
-14.70220000 -1.43680000 -3.91380000
-14.57470000 -1.46470000 -4.15490000
-15.13080000 -1.77210000 -4.11140000
-14.78170000 -1.62990000 -4.26970000
-14.91230000 -1.60850000 -4.03240000
-14.89320000 -1.43840000 -3.56330000
-15.02390000 -1.61690000 -3.84530000
-15.27080000 -1.70750000 -3.60990000
-15.22390000 -1.74900000 -3.86600000
-15.71300000 -2.12030000 -3.58810000
-15.43940000 -1.94320000 -3.88940000
-15.48860000 -1.90910000 -3.62570000
-15.60970000 -2.16520000 -4.19580000
-15.35330000 -1.97030000 -4.15750000
-15.27340000 -2.00890000 -4.45540000
-15.53940000 -2.19590000 -4.51020000
-15.66340000 -2.14010000 -3.90240000
-16.15670000 -2.40540000 -3.53000000
-15.90140000 -2.30390000 -3.93630000
-16.36060000 -2.45800000 -4.20220000
-15.92060000 -2.33670000 -4.20820000
-15.83570000 -2.28880000 -4.51240000
-16.73750000 -2.30230000 -3.37290000
-17.14500000 -2.34910000 -3.95990000
-17.20010000 -2.50000000 -4.93960000
-17.27560000 -2.81170000 -6.04900000
-17.76590000 -2.43050000 -4.12100000
-18.21030000 -2.63610000 -4.65000000
-18.33290000 -2.96230000 -5.70310000
-18.63700000 -3.31950000 -6.64880000
-17.94720000 -3.19310000 -6.79370000
-18.99450000 -2.91090000 -4.75460000
-19.40810000 -3.20160000 -5.35580000
-19.64220000 -3.52930000 -6.36360000
-20.11180000 -3.47370000 -5.49720000
-20.57840000 -3.76380000 -6.04950000
-20.81910000 -3.93130000 -6.71990000
-20.28820000 -3.91170000 -7.30220000
-19.11660000 -3.70100000 -7.52110000
-17.90220000 -3.46170000 -7.70190000
-20.40930000 -4.01510000 -8.02310000
-19.85980000 -4.04960000 -8.51260000
-18.65580000 -3.94970000 -8.77900000
-17.39450000 -3.75130000 -8.92180000
-17.38070000 -3.49900000 -8.16460000
-20.00650000 -4.01910000 -9.25860000
-19.44130000 -4.05270000 -9.75850000
-18.15960000 -4.08720000 -9.99590000
-16.87420000 -4.03320000 -10.14290000
-16.89320000 -3.79880000 -9.39960000
-19.53390000 -3.96520000 -10.52730000
-18.95920000 -3.96870000 -11.05790000
-17.62170000 -4.02630000 -11.28920000
-16.29730000 -4.05650000 -11.40400000
-16.29320000 -4.05080000 -10.60680000
-18.94540000 -3.89790000 -11.80020000
-18.21790000 -3.89090000 -12.28520000
-16.88020000 -3.94000000 -12.50350000
-15.48260000 -3.99390000 -12.57780000
-15.64470000 -4.06170000 -11.85190000
-18.12730000 -3.81840000 -13.03730000
-17.42470000 -3.79610000 -13.53540000
-16.00590000 -3.85100000 -13.68530000
-14.60110000 -3.89500000 -13.74440000
-14.76070000 -3.96940000 -12.99620000
-17.29970000 -3.68130000 -14.28500000
-16.50170000 -3.63570000 -14.73270000
-15.00460000 -3.71280000 -14.81250000
-13.56640000 -3.75600000 -14.84710000
-13.82810000 -3.85900000 -14.14560000
-16.29270000 -3.42030000 -15.52480000
-15.20440000 -3.41430000 -15.83270000
-13.85710000 -3.48180000 -15.95340000
-12.43230000 -3.57780000 -15.85460000
-12.77830000 -3.70060000 -15.24190000
-14.70060000 -3.33210000 -16.17490000
-13.96090000 -3.16190000 -16.73210000
-14.47850000 -3.21790000 -16.49090000
-13.48250000 -3.25640000 -16.62110000
-12.68970000 -3.29540000 -16.66490000
-11.18900000 -3.26330000 -16.94030000
-11.62080000 -3.48330000 -16.28500000
-11.90300000 -3.28610000 -16.80340000
-14.02700000 -2.72280000 -17.50660000
-13.37940000 -3.00410000 -17.16050000
-13.97510000 -2.96820000 -17.10580000
-12.76960000 -2.77810000 -17.63230000
-12.73090000 -3.04080000 -17.20740000
-11.58770000 -2.80090000 -17.76730000
-12.07150000 -3.05350000 -17.27910000
-12.15270000 -2.79180000 -17.70470000
-10.18600000 -2.82960000 -17.87290000
-10.95460000 -3.00320000 -17.50620000
-10.93800000 -2.76270000 -17.90070000
-10.13440000 -3.19040000 -17.21320000
-12.87690000 -2.12800000 -18.30840000
-12.20310000 -2.51890000 -18.06170000
-12.80430000 -2.49480000 -18.00270000
-11.55600000 -2.23670000 -18.42020000
-11.65360000 -2.55320000 -18.10190000
-10.30840000 -2.17880000 -18.58780000
-10.76190000 -2.49890000 -18.25530000
-10.94050000 -2.19950000 -18.52930000
-9.03190000 -2.19070000 -18.67340000
-9.57920000 -2.54330000 -18.30130000
-9.69330000 -2.18400000 -18.64340000
-8.90950000 -2.82270000 -17.96110000
-8.94380000 -2.55500000 -18.33150000
-11.19650000 -2.05450000 -18.61680000
-10.22780000 -1.68720000 -18.91190000
-9.95910000 -2.00600000 -18.75610000
-9.62440000 -1.94500000 -18.82580000
-9.57690000 -1.67780000 -18.98080000
-9.28440000 -1.87730000 -18.89210000
-7.67650000 -1.68570000 -19.07450000
-8.19710000 -1.94930000 -18.92120000
-8.32560000 -1.63290000 -19.09130000
-7.73270000 -2.30700000 -18.65900000
-7.75940000 -2.01100000 -18.90070000
-9.87630000 -1.47070000 -19.02520000
-8.92190000 -1.66470000 -19.01940000
-8.85680000 -1.09710000 -19.14150000
-8.58960000 -1.44520000 -19.13160000
-8.25050000 -1.38040000 -19.16000000
-8.19520000 -1.08960000 -19.19540000
-7.85280000 -1.32300000 -19.18730000
-6.53750000 -1.07590000 -19.22300000
-7.00320000 -1.24790000 -19.20160000
-7.06230000 -1.06090000 -19.23780000
-7.25820000 -1.44230000 -19.15820000
-7.55220000 -1.06710000 -19.21810000
-8.49680000 -0.87970000 -19.16810000
-7.75940000 -0.71400000 -19.21040000
-7.47790000 -0.44430000 -19.18700000
-7.48770000 -0.76710000 -19.22570000
-6.32490000 -0.49600000 -19.24240000
-6.81600000 -0.67100000 -19.24720000
-6.92530000 -0.40050000 -19.22370000
-5.79020000 -0.76980000 -19.25740000
-5.71340000 -0.51100000 -19.25750000
-5.44610000 -0.70410000 -19.26530000
-5.09330000 -0.50280000 -19.26230000
-7.17150000 -0.23730000 -19.17610000
-6.20850000 -0.03140000 -19.15270000
-5.97490000 -0.32580000 -19.23200000
-5.65270000 -0.27240000 -19.23080000
-5.58270000 -0.06620000 -19.19070000
-5.34360000 -0.20970000 -19.22940000
-4.47740000 -0.20910000 -19.25030000
-4.44640000 0.03220000 -19.19260000
-4.17260000 -0.13080000 -19.23670000
-3.82810000 0.04910000 -19.17930000
-6.20420000 0.44460000 -18.93070000
-5.66060000 0.17540000 -19.10630000
-5.04710000 -0.00900000 -19.18150000
-5.02830000 0.46850000 -18.97200000
-4.73500000 0.19560000 -19.12360000
-4.41850000 0.26940000 -19.09960000
-4.38000000 0.49740000 -18.97680000
-4.09060000 0.33470000 -19.06990000
-3.16730000 0.27990000 -19.10190000
-3.07160000 0.47890000 -18.97560000
-2.81900000 0.31200000 -19.08350000
-2.40720000 0.42110000 -19.00050000
-4.67500000 0.65590000 -18.84840000
-3.72950000 0.49070000 -18.96350000
-3.58600000 0.83920000 -18.61540000
-3.33880000 0.63510000 -18.84900000
-2.30240000 0.79730000 -18.58660000
-2.94980000 0.67750000 -18.78140000
-2.97170000 0.83050000 -18.59760000
-1.26930000 0.84770000 -18.60350000
-1.70420000 0.68420000 -18.78780000
-1.91480000 0.56640000 -18.89710000
-3.67540000 1.10580000 -18.03670000
-3.03070000 0.95690000 -18.36570000
-2.58720000 1.12590000 -17.93420000
-1.86810000 1.00580000 -18.25530000
-1.29720000 1.19980000 -17.85660000
-0.13150000 1.18150000 -18.07230000
-0.65820000 1.02840000 -18.38610000
0.01140000 0.92270000 -18.62780000
-2.27730000 1.36230000 -17.25760000
-1.41850000 1.43220000 -17.04960000
-0.12930000 1.45910000 -17.18460000
1.24220000 1.48260000 -17.31550000
0.80450000 1.28620000 -17.92260000
-1.00290000 1.52380000 -16.48980000
-0.21630000 1.58510000 -16.20190000
1.08560000 1.60730000 -16.34680000
2.21530000 1.65220000 -16.26000000
2.22370000 1.57000000 -16.95390000
0.14900000 1.67230000 -15.55950000
0.94040000 1.72290000 -15.28000000
2.21210000 1.75240000 -15.40540000
3.31050000 1.78720000 -15.37430000
3.33950000 1.68060000 -16.30110000
1.31700000 1.78000000 -14.65110000
2.05190000 1.82600000 -14.34080000
3.27790000 1.85440000 -14.48350000
2.21360000 1.88690000 -13.53550000
3.29480000 1.93940000 -13.27800000
2.40870000 1.94590000 -12.75070000
3.26930000 2.00030000 -12.29100000
2.29180000 1.98960000 -11.87540000
3.25330000 2.04300000 -11.35240000
2.30260000 2.02540000 -10.89440000
3.29100000 2.06770000 -10.39050000
2.32030000 2.03280000 -9.72440000
1.26940000 1.99690000 -10.69180000
1.13280000 1.99430000 -9.90540000
1.40020000 1.93470000 -8.80560000
0.47700000 1.95820000 -9.58960000
0.22060000 1.91550000 -8.94060000
0.46680000 1.68500000 -7.98120000
-0.60770000 1.82280000 -8.56590000
-0.55550000 1.64400000 -7.94120000
-0.46360000 1.21710000 -7.39080000
-1.58130000 1.59070000 -7.87970000
-1.47440000 1.85760000 -8.89520000
-2.64710000 1.79780000 -8.68630000
-1.85140000 1.88950000 -9.52290000
-2.57830000 1.88200000 -9.78730000
-3.71180000 1.84150000 -9.56610000
-2.95060000 1.86740000 -10.44750000
-3.65070000 1.84140000 -10.73500000
-4.52550000 1.82780000 -10.50300000
-4.90350000 1.81680000 -9.47960000
-5.79570000 1.80180000 -10.40860000
-5.11860000 1.77890000 -11.26490000
-5.81790000 1.74970000 -11.52810000
-6.68940000 1.73960000 -11.30240000
-6.98850000 1.77840000 -10.30200000
-7.66410000 1.72120000 -11.18900000
-7.97020000 1.76030000 -10.16550000
-8.67130000 1.70220000 -11.06770000
-8.85810000 1.74440000 -10.05020000
-9.58070000 1.68550000 -10.93620000
-9.66270000 1.73000000 -9.93710000
-10.47110000 1.66790000 -10.79250000
-10.60750000 1.71350000 -9.78430000
-11.43080000 1.65150000 -10.61030000
-11.52670000 1.69840000 -9.61500000
-12.40070000 1.63530000 -10.40840000
-12.37420000 1.68630000 -9.43460000
-13.28040000 1.62270000 -10.18260000
-13.14730000 1.67810000 -9.23770000
-14.14730000 1.61240000 -9.91870000
-14.05650000 1.67210000 -8.95010000
-15.07500000 1.60510000 -9.57290000
-14.94060000 1.66770000 -8.62540000
-16.00560000 1.60140000 -9.17930000
-15.73290000 1.66630000 -8.26470000
-16.82240000 1.60530000 -8.75240000
-16.46550000 1.66880000 -7.87000000
-17.60640000 1.61350000 -8.28900000
-17.27930000 1.66690000 -7.52280000
-16.28880000 1.70260000 -6.90650000
-17.50710000 1.68560000 -6.98170000
-17.16240000 1.70890000 -6.44130000
-16.18850000 1.73990000 -5.90960000
-17.33870000 1.72800000 -5.93610000
-16.93060000 1.75540000 -5.45220000
-15.98750000 1.74510000 -5.02420000
-17.02200000 1.77190000 -4.98380000
-16.60480000 1.77940000 -4.57020000
-15.75720000 1.69830000 -4.24590000
-16.60500000 1.79390000 -4.14220000
-16.25800000 1.75710000 -3.79460000
-15.74500000 1.62830000 -3.63960000
-15.21650000 1.40370000 -3.92940000
-15.25640000 1.26590000 -3.45490000
-14.87810000 1.03320000 -3.75740000
-14.95470000 0.95330000 -3.52710000
-15.01280000 0.85720000 -3.29620000
-14.71830000 0.63250000 -3.62640000
-14.61040000 0.79190000 -3.92920000
-14.84580000 0.60520000 -3.37020000
-14.73450000 0.32930000 -3.37010000
-14.46790000 0.03820000 -3.60760000
-14.59760000 0.32930000 -3.59470000
-14.47380000 0.31190000 -3.75810000
-14.61750000 0.03030000 -3.38970000
-14.52470000 -0.28160000 -3.39810000
-14.29380000 -0.59610000 -3.67570000
-14.36930000 -0.26740000 -3.61600000
-14.22960000 -0.22740000 -3.79630000
-14.47070000 -0.60020000 -3.43380000
-14.54350000 -0.92950000 -3.42060000
-14.34860000 -0.90240000 -3.67610000
-14.71770000 -0.29940000 -3.03720000
-14.57150000 -0.56840000 -3.26840000
-14.65070000 -0.69320000 -3.08500000
-14.67360000 -0.94740000 -3.12750000
-14.84260000 -1.25810000 -3.18320000
-14.71490000 -1.23310000 -3.43790000
-14.63730000 -1.24800000 -3.61800000
-14.72490000 -0.87130000 -2.84390000
-14.83850000 -1.25080000 -2.89720000
-15.07560000 -1.56790000 -2.88480000
-15.33460000 -1.70520000 -3.21800000
-15.09900000 -1.50570000 -3.15770000
-15.09150000 -1.52310000 -3.34880000
-15.41890000 -1.88240000 -2.92770000
-15.47460000 -2.09920000 -2.67330000
-15.27840000 -1.86050000 -2.72750000
-15.63320000 -2.07710000 -3.15150000
-15.50760000 -1.88500000 -3.43650000
-15.57290000 -2.08690000 -2.89100000
-15.97340000 -2.22230000 -2.36950000
-15.81670000 -2.20950000 -2.78290000
-15.70680000 -2.21570000 -2.55140000
-16.21470000 -2.34790000 -2.94350000
-15.89060000 -2.26060000 -3.02480000
-15.92530000 -2.27140000 -3.24290000
-16.07210000 -2.27710000 -2.64680000
-16.51410000 -1.89380000 -2.04270000
-16.29570000 -2.16340000 -2.51790000
-16.83130000 -2.08520000 -2.61520000
-17.01940000 -1.93270000 -2.10130000
-17.48030000 -2.01030000 -2.27020000
-17.77340000 -2.21570000 -3.08260000
-18.31530000 -2.21770000 -2.01120000
-18.91650000 -2.49420000 -2.57070000
-18.97630000 -2.66180000 -3.66110000
-19.89850000 -2.89780000 -2.46260000
-20.17480000 -3.11920000 -3.22820000
-20.09540000 -3.24510000 -4.41130000
-20.99830000 -3.55890000 -3.22390000
-21.31210000 -3.78880000 -4.19920000
-21.88700000 -4.14640000 -3.19130000
-22.14660000 -4.20160000 -4.19120000
-22.82680000 -4.27650000 -3.47430000
-23.18590000 -4.34010000 -4.42390000
-24.00250000 -4.37420000 -3.35320000
-24.21580000 -4.36850000 -4.46150000
-23.70870000 -4.34670000 -5.60150000
-23.24420000 -4.19190000 -6.55770000
-24.96940000 -4.36280000 -4.89510000
-24.84120000 -4.32930000 -5.92350000
-24.01180000 -4.22070000 -7.05050000
-22.97070000 -3.91490000 -7.81140000
-22.72250000 -4.02510000 -7.02890000
-25.48680000 -4.25740000 -6.47990000
-25.08340000 -4.19870000 -7.47550000
-23.94530000 -3.86440000 -8.43460000
-22.69070000 -3.81820000 -9.15990000
-22.54820000 -3.88870000 -8.46360000
-25.65200000 -4.07330000 -8.19530000
-25.02380000 -3.79680000 -9.11200000
-23.66180000 -3.69530000 -9.89300000
-22.32960000 -3.76320000 -10.50770000
-22.16620000 -3.82430000 -9.75220000
-25.46210000 -3.63120000 -9.78140000
-24.63460000 -3.51000000 -10.67150000
-23.18200000 -3.57380000 -11.39930000
-21.75580000 -3.67760000 -11.88480000
-21.73540000 -3.75550000 -11.12470000
-24.86880000 -3.27750000 -11.44450000
-23.92680000 -3.24080000 -12.31860000
-22.42810000 -3.41430000 -12.77330000
-21.01710000 -3.49720000 -13.34610000
-21.11220000 -3.66000000 -12.49650000
-23.36130000 -3.14650000 -12.99900000
-24.24340000 -2.92390000 -13.01820000
-22.95350000 -3.03040000 -13.56310000
-21.77070000 -3.12590000 -14.04220000
-20.18130000 -3.25800000 -14.52480000
-20.80690000 -3.31570000 -14.04820000
-20.95880000 -3.17590000 -14.36060000
-20.12650000 -3.51180000 -13.78770000
-22.65440000 -2.90140000 -14.08790000
-22.32830000 -2.82650000 -14.46550000
-21.96700000 -2.68460000 -14.97670000
-21.78140000 -2.90820000 -14.57580000
-20.58400000 -2.79590000 -15.42300000
-21.11970000 -2.97500000 -14.77210000
-21.30480000 -2.73970000 -15.20170000
-19.19510000 -2.87640000 -15.82440000
-19.75370000 -3.06390000 -15.19270000
-19.86530000 -2.83490000 -15.64780000
-18.90570000 -3.26840000 -15.04470000
-19.10970000 -3.08200000 -15.41350000
-21.64610000 -2.61330000 -15.31210000
-20.89360000 -2.57270000 -15.73930000
-20.69510000 -2.41160000 -16.09630000
-20.58400000 -2.61400000 -15.79720000
-19.54520000 -2.56640000 -16.26600000
-20.14350000 -2.64850000 -15.89980000
-20.12910000 -2.48330000 -16.19350000
-18.61900000 -2.79530000 -16.18860000
-18.79240000 -2.57160000 -16.51500000
-18.24020000 -2.72150000 -16.43930000
-18.04200000 -2.49800000 -16.85290000
-20.83680000 -1.92310000 -16.61800000
-20.15650000 -2.25280000 -16.49390000
-20.67120000 -2.20110000 -16.39030000
-19.55530000 -2.00470000 -16.93030000
-19.62980000 -2.31150000 -16.59910000
-18.80770000 -2.30240000 -16.87630000
-18.78960000 -2.04660000 -17.14160000
-18.41870000 -2.24130000 -17.06270000
-17.32630000 -2.33260000 -17.26290000
-17.28250000 -2.02580000 -17.55050000
-16.89760000 -2.28370000 -17.42300000
-16.58580000 -2.03730000 -17.70100000
-19.14470000 -1.82560000 -17.20500000
-18.04120000 -2.04790000 -17.32300000
-18.03500000 -1.51190000 -17.66140000
-17.69050000 -1.83070000 -17.57690000
-16.87050000 -1.51610000 -17.91750000
-17.40190000 -1.70340000 -17.72370000
-17.49580000 -1.46150000 -17.81990000
-16.05800000 -1.92450000 -17.90310000
-16.08760000 -1.58230000 -18.05790000
-15.74200000 -1.83060000 -18.01190000
-15.35380000 -1.65130000 -18.14770000
-17.73960000 -1.30860000 -17.81980000
-16.72860000 -0.97120000 -18.10110000
-16.44430000 -1.32480000 -18.07780000
-15.44230000 -1.06310000 -18.27970000
-16.09480000 -1.21480000 -18.17110000
-16.13100000 -0.94970000 -18.22020000
-14.74920000 -1.32400000 -18.35270000
-14.72840000 -1.03690000 -18.39310000
-14.41080000 -1.23730000 -18.41690000
-14.06990000 -1.00810000 -18.47930000
-16.37110000 -0.76860000 -18.19890000
-15.27290000 -0.48210000 -18.30730000
-15.02870000 -0.83350000 -18.35960000
-14.67260000 -0.75380000 -18.40810000
-14.60840000 -0.48590000 -18.38930000
-14.32760000 -0.68290000 -18.44240000
-13.41610000 -0.74930000 -18.57460000
-13.24610000 -0.48020000 -18.55480000
-13.03740000 -0.72210000 -18.62620000
-12.51290000 -0.61690000 -18.68270000
-14.88020000 -0.28920000 -18.31990000
-13.95890000 -0.48910000 -18.45070000
-13.85020000 -0.00940000 -18.30310000
-13.58310000 -0.28790000 -18.45240000
-12.70710000 -0.06470000 -18.45980000
-13.27390000 -0.18780000 -18.45700000
-13.31580000 0.02030000 -18.35710000
-11.17860000 -0.08040000 -18.70680000
-11.35500000 -0.62240000 -18.86270000
-11.61690000 -0.30450000 -18.74780000
-11.97740000 -0.12760000 -18.61610000
-13.53060000 0.14820000 -18.24950000
-12.43570000 0.34620000 -18.20130000
-12.24400000 0.08340000 -18.45180000
-11.84840000 0.14130000 -18.47640000
-11.75970000 0.35690000 -18.31230000
-11.48220000 0.20240000 -18.48990000
-10.55140000 0.05420000 -18.74020000
-10.53270000 0.26390000 -18.58940000
-10.23710000 0.14380000 -18.71380000
-9.88870000 0.30680000 -18.60000000
-12.01040000 0.49210000 -18.12270000
-11.13150000 0.34070000 -18.41040000
-11.07000000 0.67040000 -17.99050000
-10.51500000 0.47820000 -18.34990000
-9.93330000 0.70700000 -18.08210000
-9.23900000 0.57370000 -18.42510000
-9.13620000 0.72460000 -18.23130000
-8.86840000 0.63050000 -18.41480000
-8.46070000 0.74860000 -18.27390000
-11.00450000 0.98810000 -17.33380000
-9.78100000 1.04180000 -17.35020000
-9.16060000 0.87680000 -17.89260000
-8.47010000 1.06970000 -17.45100000
-7.20590000 1.05560000 -17.84790000
-7.84960000 0.90190000 -18.09620000
-7.25790000 0.79620000 -18.44630000
-9.52340000 1.21450000 -16.59490000
-8.52420000 1.26000000 -16.53760000
-7.18170000 1.26920000 -16.81500000
-5.81760000 1.27560000 -17.08480000
-6.13430000 1.13690000 -17.73830000
-8.19440000 1.35560000 -15.81720000
-7.19280000 1.39250000 -15.77440000
-5.84990000 1.40250000 -16.07290000
-4.49450000 1.41930000 -16.32470000
-4.95580000 1.33740000 -16.89270000
-6.85110000 1.47760000 -15.08280000
-5.88180000 1.51980000 -14.99190000
-4.56770000 1.54170000 -15.25270000
-3.26090000 1.56720000 -15.46190000
-3.64660000 1.47730000 -16.10240000
-5.44840000 1.57620000 -14.41810000
-4.60640000 1.62240000 -14.16020000
-3.32340000 1.64690000 -14.40410000
-2.04430000 1.67560000 -14.58650000
-2.44290000 1.61810000 -15.21790000
-4.29080000 1.68300000 -13.42340000
-3.26380000 1.72240000 -13.32960000
-2.10460000 1.74730000 -13.52280000
-0.85550000 1.78070000 -13.62890000
-1.27030000 1.72100000 -14.30310000
-2.83200000 1.77670000 -12.71520000
-2.12350000 1.81590000 -12.42760000
-0.92920000 1.84570000 -12.60300000
0.14490000 1.88410000 -12.54660000
0.09520000 1.83560000 -13.27070000
-1.74140000 1.85800000 -11.76660000
-0.96120000 1.89540000 -11.51900000
0.19150000 1.92900000 -11.65690000
1.41050000 1.97720000 -11.47480000
1.22860000 1.91490000 -12.62570000
-0.59800000 1.93490000 -10.84810000
0.29100000 1.96830000 -10.42680000
-0.70000000 1.92920000 -9.69370000
-1.79070000 1.90020000 -10.64900000
-2.93080000 1.82520000 -11.58590000
-3.80490000 1.75590000 -12.49710000
-4.18170000 1.79100000 -11.50670000
-5.17360000 1.72310000 -12.41660000
-5.45160000 1.63390000 -13.59120000
-6.45450000 1.62440000 -13.26220000
-6.45570000 1.69120000 -12.31720000
-7.21880000 1.61830000 -13.00650000
-7.43600000 1.67190000 -12.16510000
-8.24650000 1.58250000 -13.06190000
-8.47190000 1.64690000 -12.07020000
-9.27810000 1.56050000 -12.92420000
-9.45940000 1.62590000 -11.93010000
-10.26170000 1.54080000 -12.77510000
-10.48180000 1.60570000 -11.76900000
-11.34710000 1.52070000 -12.58920000
-11.39950000 1.58910000 -11.59390000
-12.37950000 1.50450000 -12.37520000
-12.40590000 1.57210000 -11.38680000
-13.38410000 1.49150000 -12.12030000
-13.36670000 1.55900000 -11.13780000
-14.38130000 1.48200000 -11.82190000
-14.36850000 1.54740000 -10.83670000
-15.40830000 1.47390000 -11.48040000
-15.25940000 1.54130000 -10.51100000
-16.42640000 1.46960000 -11.07690000
-16.23950000 1.54070000 -10.11450000
-17.39160000 1.47030000 -10.62880000
-17.14970000 1.54460000 -9.66620000
-18.34890000 1.47500000 -10.12660000
-18.07800000 1.55110000 -9.15040000
-19.28900000 1.48360000 -9.57180000
-18.93820000 1.56060000 -8.62160000
-20.19810000 1.49790000 -8.95080000
-19.82260000 1.56490000 -8.16660000
-18.65110000 1.63040000 -7.56730000
-20.07270000 1.59990000 -7.51800000
-19.62280000 1.64380000 -6.94230000
-18.43580000 1.69900000 -6.45090000
-19.97840000 1.67240000 -6.31380000
-19.26600000 1.72110000 -5.83120000
-18.09380000 1.75270000 -5.41140000
-19.57430000 1.75050000 -5.24960000
-18.82670000 1.78360000 -4.79600000
-17.62150000 1.80220000 -4.45920000
-18.77710000 1.81380000 -4.27220000
-18.22850000 1.83810000 -3.86110000
-17.17670000 1.85130000 -3.62670000
-18.18920000 1.86790000 -3.37810000
-17.58050000 1.88990000 -3.05560000
-16.86460000 1.84620000 -2.97120000
-16.30880000 1.73810000 -3.32920000
-16.13730000 1.67840000 -2.72910000
-15.73460000 1.50750000 -3.12570000
-15.64340000 1.32590000 -2.66490000
-15.34010000 1.16930000 -2.99380000
-15.33520000 0.97300000 -2.66050000
-15.12180000 0.76790000 -2.93650000
-15.17000000 0.57340000 -2.54990000
-14.94840000 0.36790000 -2.97680000
-14.93400000 0.59040000 -3.18960000
-15.00460000 0.22660000 -2.71300000
-14.87430000 0.04490000 -2.90000000
-15.06110000 0.24420000 -2.54790000
-14.74000000 0.03160000 -3.17890000
-15.44600000 1.01160000 -2.25660000
-15.28550000 0.60540000 -2.13090000
-15.12400000 0.27010000 -2.34440000
-15.83260000 1.45740000 -2.27790000
-16.22680000 1.70020000 -2.34350000
-16.25950000 1.69290000 -1.91560000
-16.65120000 1.80630000 -2.42610000
-17.03490000 1.87630000 -2.10240000
-16.96950000 1.89220000 -1.51500000
-17.73000000 1.93740000 -2.09170000
-17.98330000 1.96690000 -1.65260000
-17.90000000 2.00640000 -1.00980000
-18.68360000 1.99090000 -1.45090000
-19.04340000 2.01980000 -1.02570000
-18.85550000 2.05630000 -0.48850000
-17.89430000 2.05030000 -0.34160000
-18.80800000 2.09660000 0.10820000
-17.77280000 2.07840000 0.17980000
-18.67780000 2.14830000 0.89730000
-19.64070000 2.12270000 0.53410000
-19.91100000 2.16310000 1.08900000
-19.52680000 2.22330000 1.82390000
-20.61660000 2.17730000 1.47850000
-20.81380000 2.21790000 2.07460000
-20.38820000 2.28550000 2.87270000
-21.48050000 2.24270000 2.53170000
-21.63190000 2.28390000 3.16200000
-21.15930000 2.33530000 3.78360000
-19.97630000 2.35050000 3.66690000
-20.65990000 2.39760000 4.51370000
-19.46460000 2.40460000 4.34980000
-19.98520000 2.46630000 5.35830000
-21.24470000 2.44100000 5.22810000
-21.16960000 2.48960000 5.89230000
-20.35510000 2.55100000 6.63110000
-21.67110000 2.53760000 6.51060000
-21.46530000 2.58650000 7.19230000
-20.53190000 2.64400000 7.95060000
-21.90470000 2.63820000 7.84520000
-21.63400000 2.67970000 8.55580000
-20.55450000 2.72880000 9.30280000
-21.95820000 2.72070000 9.21590000
-21.66850000 2.74500000 9.92990000
-20.50940000 2.81600000 10.64910000
-21.97840000 2.77460000 10.59470000
-21.56320000 2.83180000 11.32080000
-20.26150000 2.91770000 12.02260000
-21.91340000 2.85850000 12.11730000
-21.15250000 2.92270000 12.81610000
-19.75880000 3.00720000 13.35640000
-21.09640000 2.95550000 13.62140000
-20.18720000 3.02030000 14.31410000
-19.39680000 3.05610000 14.14720000
-18.98550000 3.09080000 14.86350000
-19.77290000 3.04710000 14.86710000
-20.30100000 3.01350000 14.92890000
-19.59410000 3.04070000 15.35460000
-19.08120000 3.07510000 15.38670000
-18.05820000 3.11280000 16.10840000
-18.53110000 3.11220000 15.51060000
-18.89280000 3.07540000 15.71310000
-19.24350000 3.01470000 16.11110000
-18.31930000 3.00760000 16.67310000
-17.17930000 3.07780000 16.93420000
-17.16660000 3.16960000 16.27120000
-17.42590000 3.17060000 15.93490000
-17.92330000 2.98020000 17.01080000
-18.50570000 2.89780000 17.03920000
-17.68560000 2.90040000 17.37610000
-17.07790000 2.96930000 17.37440000
-15.92240000 2.83410000 17.99440000
-16.01900000 3.03670000 17.60700000
-16.89570000 2.88540000 17.67530000
-16.54980000 3.00000000 17.49840000
-16.20090000 3.11010000 17.26210000
-16.37500000 3.15130000 16.91410000
-17.21760000 2.57540000 17.91860000
-16.10820000 2.20340000 18.33480000
-15.36500000 2.48140000 18.38170000
-14.85850000 2.07950000 18.63900000
-15.11390000 2.98330000 17.96910000
-15.59220000 1.86140000 18.53980000
-16.16490000 1.66760000 18.39480000
-15.23370000 1.46190000 18.61750000
-14.62960000 1.67240000 18.77440000
-13.32430000 1.40130000 18.97520000
-13.59070000 1.81820000 18.94050000
-14.32080000 1.38880000 18.82740000
-14.10460000 1.74680000 18.86910000
-13.89700000 2.09860000 18.82750000
-14.22440000 2.36780000 18.65940000
-14.65650000 0.94300000 18.65620000
-13.96810000 1.11240000 18.84770000
-13.56360000 0.73340000 18.79480000
-13.02510000 0.98400000 18.97000000
-11.79690000 0.56120000 18.92800000
-12.47300000 1.07530000 19.03610000
-12.72330000 0.75060000 18.93990000
-12.42080000 1.46910000 19.08310000
-12.71120000 1.68960000 19.05410000
-13.24410000 0.15670000 18.54580000
-12.73220000 0.43870000 18.79510000
-12.30670000 0.04930000 18.58550000
-11.70950000 0.15400000 18.74280000
-10.59270000 -0.15700000 18.53630000
-10.76140000 0.15740000 18.82650000
-11.49420000 -0.09600000 18.53800000
-11.21890000 0.15730000 18.78660000
-11.87600000 -0.38860000 18.10650000
-11.22880000 -0.30940000 18.29370000
-10.94530000 -0.53470000 17.93590000
-10.38280000 -0.44510000 18.13700000
-9.06800000 -0.68110000 17.74840000
-9.86000000 -0.43300000 18.18490000
-10.09720000 -0.62820000 17.80470000
-9.34620000 -0.40280000 18.25730000
-9.66030000 -0.19220000 18.55290000
-9.98400000 0.02120000 18.75590000
-10.41400000 -0.83940000 17.21890000
-9.78070000 -0.77610000 17.45460000
-9.44760000 -0.93700000 17.01290000
-7.94040000 -1.09230000 16.69060000
-8.31770000 -0.55970000 18.02610000
-9.22230000 -1.21880000 16.27310000
-8.27610000 -1.44290000 15.80800000
-6.80810000 -1.61870000 15.48340000
-7.92470000 -1.76680000 15.18180000
-7.15670000 -1.95360000 14.67540000
-5.83750000 -2.06380000 14.37470000
-6.94790000 -1.89650000 13.96690000
-6.31040000 -1.79830000 13.44270000
-5.18140000 -1.86610000 13.08940000
-6.29220000 -1.56840000 12.71560000
-5.81820000 -1.53460000 12.14930000
-4.83920000 -1.72240000 11.74680000
-5.99350000 -1.47490000 11.33420000
-5.73280000 -1.57500000 10.70390000
-4.82700000 -1.84880000 10.30330000
-6.02230000 -1.64610000 9.90460000
-5.73920000 -1.89850000 9.33970000
-4.89000000 -2.22100000 8.97690000
-6.11350000 -2.14750000 8.59570000
-5.90820000 -2.47180000 8.09730000
-4.98090000 -2.72380000 7.77550000
-6.20850000 -2.82550000 7.45400000
-5.96650000 -3.02870000 6.91630000
-5.07370000 -3.13040000 6.58280000
-6.31100000 -3.24520000 6.17880000
-6.01530000 -3.35100000 5.65790000
-5.11290000 -3.38190000 5.33210000
-6.24630000 -3.48660000 4.91290000
-5.89470000 -3.56020000 4.26730000
-6.84710000 -3.59870000 4.09480000
-6.35940000 -3.66890000 3.27840000
-7.31380000 -3.69100000 3.06540000
-6.70780000 -3.72070000 2.26690000
-7.64810000 -3.73640000 2.15850000
-7.01200000 -3.76150000 1.24220000
-7.96580000 -3.75390000 1.06510000
-7.33940000 -3.79430000 0.37550000
-6.28420000 -3.81810000 0.20780000
-7.18540000 -3.81100000 -0.43410000
-6.59820000 -3.84610000 -0.94820000
-5.51260000 -3.90210000 -1.02410000
-6.43540000 -3.87100000 -1.71430000
-5.80680000 -3.91380000 -2.15010000
-4.63130000 -3.97350000 -2.14370000
-5.58890000 -3.93260000 -2.89260000
-4.93760000 -3.97600000 -3.27930000
-3.68250000 -4.01930000 -3.12730000
-4.68940000 -3.98730000 -3.90230000
-3.93330000 -4.01810000 -4.13430000
-2.62220000 -4.05740000 -3.95770000
-3.63100000 -4.03490000 -4.66750000
-2.85920000 -4.07420000 -4.91210000
-1.47880000 -4.08260000 -4.66750000
-2.47870000 -4.09100000 -5.29970000
-1.64950000 -4.10910000 -5.42700000
-0.28330000 -4.06480000 -5.30190000
-1.27900000 -4.10650000 -5.81690000
-0.43320000 -4.06480000 -5.95230000
0.97640000 -3.95540000 -5.81440000
-0.06460000 -3.96130000 -6.29470000
0.80680000 -3.82560000 -6.39480000
2.25610000 -3.72430000 -6.30630000
1.13350000 -3.56960000 -6.64250000
2.05440000 -3.41210000 -6.73550000
3.61540000 -3.32860000 -6.67360000
2.41420000 -3.07840000 -6.84650000
3.36180000 -2.91480000 -6.90690000
4.72760000 -2.83010000 -6.80140000
6.20780000 -2.50190000 -6.26500000
5.74970000 -2.61710000 -6.50300000
5.47850000 -2.90760000 -6.52000000
3.78610000 -2.60320000 -6.95010000
4.72530000 -2.42210000 -6.91860000
5.39340000 -2.44780000 -6.70980000
6.86030000 -2.01400000 -5.80770000
6.77030000 -1.82930000 -5.91310000
5.41780000 -2.25080000 -6.74760000
5.16330000 -2.09220000 -6.88500000
5.86730000 -1.67320000 -6.65250000
6.17170000 -2.08570000 -6.36290000
6.54490000 -1.48890000 -6.17800000
7.08110000 -1.18940000 -5.70190000
6.76710000 -1.63820000 -5.93450000
4.76870000 -1.80330000 -7.08170000
5.58950000 -1.60960000 -6.87610000
6.47510000 -1.23260000 -6.33820000
3.74780000 -2.23000000 -7.04210000
3.27060000 -1.97200000 -7.13520000
3.38240000 -1.74020000 -7.28230000
4.48630000 -1.64960000 -7.36090000
5.34680000 -1.53230000 -7.12220000
5.60630000 -1.51610000 -6.94550000
3.33000000 -1.65210000 -7.60930000
4.43040000 -1.62100000 -7.70760000
3.19130000 -1.75990000 -8.04180000
4.42160000 -1.74320000 -8.13180000
3.50690000 -1.90500000 -8.44310000
4.30770000 -1.90740000 -8.54800000
5.42430000 -1.77150000 -8.31720000
6.90290000 -1.58820000 -8.08720000
6.31890000 -1.66090000 -8.16920000
4.68830000 -1.99980000 -8.84960000
5.51460000 -1.96100000 -8.86640000
6.11670000 -1.80100000 -8.49230000
6.73360000 -1.81430000 -8.58860000
7.62780000 -1.71030000 -8.41960000
7.26660000 -1.63190000 -8.22250000
7.74650000 -1.42720000 -7.87860000
6.07110000 -1.91640000 -8.79900000
5.95240000 -2.04470000 -9.13370000
6.78050000 -2.04040000 -9.18530000
7.25680000 -1.87050000 -8.77660000
7.76230000 -1.98730000 -9.08850000
8.33640000 -1.71980000 -8.49840000
8.45050000 -1.87850000 -8.84510000
6.91500000 -2.33260000 -9.90990000
7.90720000 -2.33690000 -9.94400000
7.11780000 -2.63450000 -10.64530000
7.99180000 -2.71300000 -10.83920000
6.83950000 -3.06060000 -11.62360000
8.00150000 -3.10490000 -11.79750000
7.14940000 -3.35280000 -12.42670000
8.07110000 -3.35440000 -12.70040000
7.00370000 -3.37700000 -13.36120000
8.12400000 -3.26030000 -13.70560000
6.89550000 -3.19980000 -14.49710000
8.15420000 -3.05950000 -14.67210000
7.25650000 -3.01560000 -15.38530000
8.25560000 -2.88210000 -15.66250000
7.00260000 -2.84040000 -16.42750000
8.27190000 -2.67000000 -16.66120000
8.42090000 -2.43010000 -17.32000000
7.90840000 -2.52060000 -17.22740000
7.80390000 -2.27910000 -17.74260000
8.35230000 -2.23980000 -17.71190000
9.50850000 -1.94340000 -17.92740000
8.83620000 -2.19040000 -17.68380000
8.90790000 -1.97490000 -18.00760000
10.07290000 -2.11200000 -17.52910000
10.10120000 -1.91000000 -17.85050000
8.91510000 -1.71760000 -18.31510000
9.39640000 -1.67790000 -18.26970000
10.68380000 -1.33620000 -18.30960000
10.19740000 -1.69450000 -18.09860000
10.02160000 -1.41380000 -18.37520000
11.24160000 -1.59450000 -17.98940000
11.24640000 -1.30090000 -18.24280000
9.70360000 -1.62730000 -18.26010000
10.10560000 -0.97010000 -18.57660000
10.70050000 -0.97310000 -18.49640000
11.81620000 -0.52880000 -18.45870000
11.25860000 -0.95330000 -18.41480000
11.27280000 -0.60890000 -18.53920000
12.28660000 -0.91780000 -18.24390000
12.54320000 -0.48330000 -18.32490000
12.73490000 -0.78900000 -18.20350000
13.15250000 -0.58860000 -18.18670000
10.90940000 -0.30680000 -18.65000000
11.25830000 -0.33270000 -18.59480000
11.38620000 0.02290000 -18.59030000
11.63730000 -0.17040000 -18.55510000
13.51350000 -0.25340000 -18.18750000
13.35940000 0.09710000 -18.20810000
13.81790000 -0.31560000 -18.12690000
12.00980000 -0.04900000 -18.48490000
12.26110000 -0.25850000 -18.42120000
12.86030000 0.62610000 -18.19110000
12.33690000 0.38980000 -18.36350000
12.66440000 0.03360000 -18.34340000
13.07460000 0.31260000 -18.23430000
13.99940000 0.70220000 -17.94970000
13.41160000 0.47810000 -18.13710000
13.41550000 0.77950000 -18.04740000
14.40820000 0.32080000 -17.97840000
14.63270000 0.65800000 -17.85820000
14.79500000 0.43950000 -17.89380000
15.16120000 0.64940000 -17.76430000
13.14890000 0.88290000 -18.05120000
14.22680000 1.01310000 -17.77680000
15.13200000 1.17410000 -17.50330000
14.55700000 0.94140000 -17.75480000
14.47790000 1.18780000 -17.62170000
15.71850000 1.03620000 -17.51310000
15.79920000 1.28450000 -17.34630000
16.03080000 1.13770000 -17.38730000
14.03260000 1.42310000 -17.47230000
15.26070000 1.48960000 -17.24170000
5.94190000 -3.05270000 -15.70800000
5.91390000 -3.21960000 -14.75960000
4.74530000 -3.27370000 -14.88620000
5.86520000 -3.36290000 -14.02390000
4.92940000 -3.45140000 -13.77400000
3.54040000 -3.49690000 -14.05660000
4.57520000 -3.53530000 -13.10390000
3.70590000 -3.54580000 -12.93400000
2.32040000 -3.63860000 -13.21230000
3.30480000 -3.39670000 -12.35380000
2.48250000 -3.34590000 -12.13680000
1.08560000 -3.47920000 -12.38470000
2.09420000 -3.11050000 -11.56340000
1.23210000 -3.06160000 -11.36250000
-0.16580000 -3.19950000 -11.57150000
0.83870000 -2.84780000 -10.79960000
0.01060000 -2.79250000 -10.56810000
-1.40300000 -2.92590000 -10.76950000
-0.40100000 -2.63330000 -10.06180000
-1.23980000 -2.60490000 -9.88100000
-2.60790000 -2.71070000 -10.03990000
-1.61280000 -2.45320000 -9.40550000
-2.44500000 -2.42610000 -9.24100000
-3.83590000 -2.54510000 -9.42980000
-2.83730000 -2.31020000 -8.84500000
-3.63810000 -2.29540000 -8.71050000
-4.99830000 -2.38310000 -8.82470000
-4.00330000 -2.20000000 -8.38520000
-4.82500000 -2.20380000 -8.29250000
-6.18800000 -2.26250000 -8.37950000
-5.18540000 -2.12590000 -8.01850000
-5.99620000 -2.10090000 -7.90160000
-7.32520000 -2.10490000 -7.89340000
-6.36190000 -2.02100000 -7.63760000
-7.13330000 -1.96640000 -7.45610000
-8.38630000 -1.88240000 -7.25170000
-7.42170000 -1.91000000 -7.12570000
-8.41850000 -1.82110000 -6.76400000
-7.30450000 -2.07360000 -6.81190000
-6.04040000 -2.29970000 -6.97550000
-6.39530000 -2.49620000 -6.84940000
-7.16020000 -2.47850000 -6.64260000
-6.16030000 -2.00140000 -7.23420000
-4.85260000 -2.13310000 -7.22760000
-5.15660000 -2.31700000 -7.07760000
-5.00310000 -2.02120000 -7.59400000
-3.70650000 -1.94910000 -7.48940000
-3.97800000 -2.05630000 -7.24510000
-3.83720000 -2.02610000 -7.88990000
-2.45430000 -1.90630000 -7.77380000
-2.81120000 -1.87200000 -7.52940000
-2.64570000 -2.09800000 -8.27320000
-1.28750000 -1.97440000 -8.15660000
-1.61580000 -1.88110000 -7.87900000
-1.47670000 -2.21530000 -8.73640000
-0.11670000 -2.09730000 -8.58070000
-0.48440000 -1.97950000 -8.25240000
-0.25080000 -2.33610000 -9.23090000
1.16160000 -2.21010000 -9.04480000
0.76140000 -2.09910000 -8.67310000
0.96460000 -2.49710000 -9.85420000
2.37920000 -2.37540000 -9.68650000
2.02650000 -2.23510000 -9.21790000
2.23440000 -2.70590000 -10.56720000
3.68580000 -2.54760000 -10.29050000
3.25560000 -2.39290000 -9.82920000
3.50880000 -2.95310000 -11.29490000
4.72160000 -2.85770000 -11.13400000
4.71020000 -2.59420000 -10.48940000
4.72310000 -3.24610000 -12.03500000
5.83620000 -3.16170000 -11.85270000
5.88490000 -2.77110000 -10.95400000
5.87760000 -3.46470000 -12.82530000
5.83310000 -2.33040000 -9.86320000
4.63400000 -2.23420000 -9.51940000
3.40090000 -2.11610000 -9.03300000
2.15680000 -1.99920000 -8.55180000
2.11020000 -1.83860000 -8.12390000
0.92830000 -1.89830000 -8.18100000
2.14090000 -1.71780000 -7.82580000
1.13290000 -1.72380000 -7.72540000
-0.27610000 -1.77290000 -7.77780000
0.96050000 -1.72440000 -7.41320000
-0.11860000 -1.75770000 -7.37250000
-1.48680000 -1.75410000 -7.42690000
-0.42020000 -1.93220000 -7.15970000
-1.35250000 -2.01600000 -7.11570000
-2.67950000 -2.03960000 -7.17480000
-1.67760000 -2.28070000 -7.02510000
-2.46790000 -2.42440000 -7.00560000
-3.83730000 -2.40450000 -7.04710000
-2.80120000 -2.69170000 -6.95410000
-3.62050000 -2.81380000 -6.95140000
-4.99930000 -2.72200000 -6.95010000
-3.98640000 -3.06610000 -6.89400000
-4.84940000 -3.14490000 -6.85510000
-6.26740000 -2.93890000 -6.73560000
-5.25860000 -3.39070000 -6.76230000
-6.13240000 -3.41450000 -6.58730000
-7.28050000 -3.18340000 -6.32370000
-7.70520000 -2.66720000 -6.35560000
-8.62300000 -2.78590000 -5.88050000
-8.06630000 -3.18950000 -5.97860000
-7.68070000 -3.47890000 -5.95610000
-8.64100000 -3.25770000 -5.59040000
-8.98470000 -2.89650000 -5.58160000
-9.28110000 -2.88660000 -5.34050000
-9.27380000 -3.09180000 -5.17820000
-9.55290000 -2.86690000 -5.09190000
-9.77630000 -2.51940000 -5.02200000
-9.26780000 -2.66540000 -5.46220000
-9.16220000 -2.30900000 -5.67050000
-9.78840000 -2.92780000 -4.75310000
-10.01770000 -2.60360000 -4.69490000
-10.18750000 -2.61440000 -4.46480000
-10.18420000 -2.77150000 -4.34540000
-10.34720000 -2.60800000 -4.25150000
-10.53510000 -2.60560000 -3.96930000
-10.45260000 -2.44970000 -4.22110000
-10.62990000 -2.38460000 -4.04270000
-11.05720000 -2.17490000 -3.71980000
-10.98880000 -2.40540000 -3.62140000
-11.25010000 -2.21650000 -3.50830000
-11.45920000 -1.95890000 -3.47470000
-11.10480000 -1.99640000 -3.76850000
-11.25320000 -1.86090000 -3.69900000
-11.37570000 -1.62990000 -3.67960000
-11.63020000 -1.69800000 -3.45750000
-11.85350000 -1.71970000 -3.28930000
-11.86060000 -1.91310000 -3.19540000
-12.09130000 -1.74970000 -3.11680000
-12.23460000 -1.53040000 -3.12190000
-11.81350000 -1.49290000 -3.40130000
-12.16430000 -1.19840000 -3.22960000
-11.77360000 -1.28450000 -3.47340000
-11.39380000 -1.23420000 -3.73110000
-11.17530000 -1.49110000 -3.87430000
-10.54760000 -1.41920000 -4.50860000
-10.95630000 -1.43740000 -4.08280000
-10.93550000 -1.23620000 -4.11850000
-11.83890000 -1.10310000 -3.42850000
-12.07400000 -0.88600000 -3.21260000
-11.70590000 -0.94640000 -3.47350000
-11.32880000 -0.80960000 -3.64960000
-11.07010000 -1.04190000 -3.96610000
-11.78710000 -0.75260000 -3.31460000
-12.05830000 -0.57910000 -2.94160000
-11.64310000 -0.62120000 -3.27160000
-11.27490000 -0.51360000 -3.34120000
-10.94240000 -0.64020000 -3.75930000
-10.94290000 -0.88990000 -4.00830000
-11.65400000 -0.50970000 -3.10660000
-12.10830000 -0.35450000 -2.45870000
-11.95810000 -0.42440000 -2.73050000
-12.12670000 -0.44210000 -2.66840000
-11.34900000 -0.34370000 -2.92070000
-11.07220000 -0.39720000 -3.23800000
-10.96710000 -0.77370000 -3.90420000
-11.72250000 -0.43630000 -2.90790000
-12.12570000 -0.21990000 -2.04270000
-11.72950000 -0.27990000 -2.49570000
-11.35190000 -0.15490000 -2.39220000
-10.95030000 -0.22690000 -2.88160000
-10.90450000 -0.44150000 -3.44690000
-10.91410000 -0.51610000 -3.59330000
-11.96310000 -0.04400000 -1.58990000
-11.17590000 0.06270000 -1.84040000
-11.87260000 0.14300000 -1.01970000
-11.22250000 0.25170000 -1.18600000
-10.24080000 0.23270000 -2.01790000
-10.86230000 0.42830000 -0.87980000
-10.05360000 0.57120000 -1.05970000
-10.75280000 0.64840000 -0.12540000
-9.83820000 0.86450000 -0.14980000
-10.47350000 0.91730000 0.75200000
-9.70250000 1.14460000 0.81590000
-8.82560000 1.17950000 0.17500000
-9.23970000 1.46160000 1.46590000
-8.63510000 1.62750000 1.57060000
-7.74580000 1.58390000 0.95750000
-8.27370000 1.89570000 2.35390000
-7.72380000 1.96420000 2.56630000
-6.82090000 1.88410000 2.00700000
-7.46370000 2.11890000 3.48060000
-6.91160000 2.17630000 3.76920000
-5.99750000 2.11720000 3.23720000
-6.71210000 2.29150000 4.78000000
-6.19920000 2.32150000 5.12730000
-5.27670000 2.25280000 4.67410000
-6.04710000 2.43740000 6.21820000
-5.49710000 2.46070000 6.57850000
-4.56600000 2.38380000 6.19910000
-5.28900000 2.57010000 7.63090000
-4.75400000 2.59540000 8.09200000
-3.81820000 2.51590000 7.83340000
-4.50970000 2.70250000 9.14780000
-3.90240000 2.72450000 9.59430000
-2.90140000 2.63590000 9.32910000
-3.58400000 2.82340000 10.63180000
-2.88140000 2.83220000 11.04160000
-1.85350000 2.74640000 10.88830000
-2.48630000 2.91810000 12.09520000
-1.75050000 2.93090000 12.62790000
-0.64940000 2.82760000 12.46670000
-1.26710000 2.99790000 13.64620000
-0.22150000 2.96810000 14.20110000
-1.20200000 3.07790000 14.68760000
-0.25170000 3.03610000 15.48060000
0.31690000 2.98610000 15.15380000
-1.23600000 3.12620000 15.98510000
-0.34410000 3.05370000 16.33280000
0.11160000 3.01700000 16.05510000
0.38910000 2.97440000 16.56750000
1.37630000 2.89990000 16.16440000
0.63740000 2.97400000 15.82530000
0.87590000 2.93940000 16.33750000
-0.94320000 3.07320000 16.91910000
-0.20920000 3.00590000 16.87910000
0.21850000 2.90180000 17.27360000
0.65560000 2.90920000 16.94160000
1.79350000 2.73050000 17.19590000
1.08750000 2.89950000 16.73240000
0.92530000 2.84860000 17.18030000
1.59220000 2.44940000 17.77490000
2.03090000 2.45600000 17.64610000
2.14560000 2.09320000 17.90940000
2.55160000 2.40520000 17.51820000
2.74320000 2.11080000 17.75660000
2.53920000 2.60650000 17.16660000
1.87850000 2.84570000 16.00820000
0.85580000 2.68670000 17.69420000
2.40840000 1.51380000 18.04250000
1.81380000 1.81210000 18.11070000
2.87620000 1.81100000 17.85710000
2.98680000 1.53720000 17.92010000
1.07950000 2.08190000 18.11640000
0.67780000 1.35640000 18.39550000
1.58890000 1.53740000 18.19870000
1.92430000 0.91860000 18.13970000
2.78920000 1.07470000 17.97110000
3.07520000 1.31100000 17.90990000
1.09940000 0.88620000 18.34720000
1.90530000 0.27180000 17.99060000
1.26010000 0.55600000 18.26860000
2.60400000 0.40330000 17.84620000
2.90040000 0.71440000 17.87140000
0.50060000 0.73230000 18.45580000
0.86450000 0.40140000 18.32610000
1.67110000 -0.23040000 17.77460000
2.69720000 -0.12080000 17.54960000
3.30410000 -0.70200000 16.87910000
2.38070000 -0.55240000 17.32350000
1.69080000 -0.75840000 17.24960000
2.45720000 -0.85140000 16.97560000
2.70290000 -1.11450000 16.43870000
3.30340000 -1.05350000 16.44350000
4.16980000 -1.34020000 15.57350000
3.74960000 -1.08020000 16.27910000
3.39320000 -1.22490000 16.05620000
4.20260000 -1.09120000 16.12930000
3.95520000 -0.27720000 17.04960000
2.96390000 -1.43740000 15.43500000
3.78840000 -1.58170000 14.83470000
4.57190000 -1.66970000 14.33430000
5.63290000 -1.54330000 14.42240000
4.98540000 -1.42350000 15.08440000
4.88900000 -1.25220000 15.57010000
5.39640000 -1.84000000 13.30130000
6.45200000 -1.63120000 13.54950000
6.27280000 -1.96150000 12.10830000
4.89770000 -2.09250000 12.26820000
5.32280000 -2.21790000 11.32380000
6.13420000 -2.27140000 10.36930000
4.79780000 -2.43330000 10.38820000
5.47080000 -2.46980000 9.69110000
5.92050000 -2.55760000 8.77540000
6.88310000 -2.33110000 9.20580000
6.70590000 -2.57220000 8.01370000
7.49930000 -2.38060000 8.24710000
7.14440000 -2.77010000 6.81830000
8.13060000 -2.54750000 7.22600000
7.97790000 -2.82440000 6.00980000
8.86280000 -2.68130000 6.19780000
8.60740000 -2.89120000 5.00400000
9.37490000 -2.71040000 5.51180000
10.07190000 -2.48210000 6.23480000
10.03170000 -2.72520000 4.56290000
8.91180000 -2.95890000 3.91610000
9.67530000 -2.87920000 2.93900000
8.10750000 -3.10450000 2.98200000
8.63320000 -3.04410000 2.25570000
9.02060000 -2.93070000 1.29370000
7.55980000 -3.15810000 1.54250000
7.18090000 -3.21650000 2.49450000
6.18950000 -3.30010000 1.79780000
5.59250000 -3.30710000 2.89330000
4.98140000 -3.38080000 1.83630000
6.76650000 -3.21670000 3.46650000
6.30560000 -3.16210000 4.45410000
5.41790000 -3.23280000 4.03400000
7.94230000 -3.06450000 4.09420000
7.16520000 -3.03860000 5.10200000
6.58490000 -2.94620000 6.08180000
5.78900000 -3.06900000 5.44770000
5.22120000 -2.97860000 6.43730000
4.42510000 -3.06440000 6.00440000
4.71510000 -3.17740000 4.91930000
5.92500000 -2.83680000 7.12620000
