-0.13490000 0.03840000 -2.94130000
-0.05580000 0.09800000 -2.92070000
-0.17180000 0.14120000 -2.88450000
-0.06450000 0.15010000 -2.89440000
0.04350000 0.15580000 -2.89180000
-0.07140000 0.19790000 -2.85810000
0.03400000 0.20410000 -2.85610000
0.13900000 0.21200000 -2.84630000
0.02560000 0.24660000 -2.81410000
0.12880000 0.25460000 -2.80490000
0.23600000 0.25980000 -2.79120000
0.12090000 0.29030000 -2.75800000
0.22470000 0.29490000 -2.74490000
0.21240000 0.31950000 -2.69100000
0.35470000 0.32000000 -2.65850000
0.33750000 0.34390000 -2.60400000
0.46910000 0.34830000 -2.56180000
0.32090000 0.36580000 -2.54830000
0.44820000 0.36780000 -2.50680000
0.48770000 0.38360000 -2.42310000
0.46530000 0.39740000 -2.36670000
0.61990000 0.40300000 -2.25370000
0.43910000 0.41120000 -2.30280000
0.55900000 0.42560000 -2.14680000
0.62310000 0.42230000 -2.10500000
0.69740000 0.42070000 -2.01040000
0.61600000 0.44070000 -1.96080000
0.69880000 0.43760000 -1.89140000
0.75610000 0.44610000 -1.79520000
0.69120000 0.45730000 -1.77630000
0.62540000 0.47320000 -1.70530000
0.69380000 0.47450000 -1.64130000
0.73170000 0.47560000 -1.59210000
0.56620000 0.50560000 -1.47610000
0.66010000 0.49600000 -1.42790000
0.61920000 0.50890000 -1.27800000
0.45020000 0.54790000 -1.01630000
0.36010000 0.56020000 -1.00440000
0.30420000 0.57050000 -0.94430000
0.24590000 0.58010000 -0.90880000
0.18440000 0.59500000 -0.77520000
0.12580000 0.59060000 -0.85560000
0.06140000 0.59840000 -0.75190000
-0.00570000 0.60340000 -0.66410000
-0.06770000 0.60120000 -0.66580000
-0.10370000 0.60730000 -0.58710000
-0.10650000 0.60890000 -0.53270000
-0.19930000 0.60660000 -0.53380000
-0.20200000 0.60480000 -0.44950000
-0.26500000 0.59960000 -0.40670000
-0.32590000 0.59160000 -0.43550000
-0.46770000 0.57150000 -0.30260000
-0.54660000 0.56270000 -0.19450000
-0.67100000 0.54900000 -0.09670000
-0.63740000 0.55200000 0.01080000
-0.69960000 0.54220000 -0.01600000
-0.69650000 0.54310000 0.07850000
-0.75970000 0.52830000 0.02040000
-0.75750000 0.52860000 0.08380000
-0.75400000 0.52600000 0.14690000
-0.81800000 0.51930000 0.12110000
-0.87660000 0.50930000 0.19100000
-0.87000000 0.50730000 0.28730000
-0.93410000 0.49470000 0.26140000
-0.92600000 0.49000000 0.35800000
-0.99510000 0.47740000 0.26690000
-1.02100000 0.46700000 0.33470000
-1.08100000 0.45460000 0.37400000
-1.04490000 0.46520000 0.43640000
-1.03840000 0.46530000 0.50240000
-1.10630000 0.44960000 0.44430000
-1.12900000 0.43840000 0.51530000
-1.12050000 0.43380000 0.58220000
-1.17260000 0.41250000 0.65950000
-1.21090000 0.40610000 0.59660000
-1.26700000 0.38590000 0.64050000
-1.31500000 0.35610000 0.84910000
-1.41830000 0.31820000 0.83850000
-1.39330000 0.31780000 1.00860000
-1.38060000 0.31480000 1.08470000
-1.44370000 0.28760000 1.02650000
-1.49010000 0.24910000 1.04270000
-1.47540000 0.24160000 1.11800000
-1.46150000 0.23640000 1.19400000
-1.52370000 0.20450000 1.13340000
-1.51310000 0.20440000 1.21060000
-1.57660000 0.17440000 1.14780000
-1.62220000 0.13390000 1.15940000
-1.61150000 0.13400000 1.23980000
-1.65730000 0.08490000 1.17230000
-1.64170000 0.08290000 1.25290000
-1.67710000 0.03030000 1.22500000
-1.64870000 0.02480000 1.34480000
-1.67850000 -0.03150000 1.31310000
-1.64600000 -0.03850000 1.43100000
-1.67030000 -0.09730000 1.39540000
-1.63400000 -0.10590000 1.51210000
-1.66070000 -0.16290000 1.43460000
-1.62100000 -0.17270000 1.55080000
-1.60860000 -0.23430000 1.54670000
-1.56220000 -0.24490000 1.66080000
-1.58330000 -0.29020000 1.53790000
-1.53210000 -0.29950000 1.64950000
-1.49640000 -0.30430000 1.72330000
-1.49200000 -0.34420000 1.63030000
-1.45390000 -0.34690000 1.70270000
-1.41320000 -0.34640000 1.77420000
-1.38840000 -0.38260000 1.71300000
-1.32590000 -0.38310000 1.81800000
-1.32110000 -0.41350000 1.72080000
-1.25580000 -0.41150000 1.82080000
-1.16980000 -0.42490000 1.83630000
-1.10790000 -0.42900000 1.81410000
-1.05880000 -0.43410000 1.77350000
-0.96620000 -0.42970000 1.88740000
-0.96780000 -0.44300000 1.78770000
-0.87340000 -0.43950000 1.89370000
-0.87850000 -0.45390000 1.79530000
-0.80770000 -0.44840000 1.87060000
-0.75710000 -0.44780000 1.91810000
-0.76690000 -0.46090000 1.82170000
-0.71850000 -0.45650000 1.86680000
-0.65510000 -0.46820000 1.83710000
-0.58100000 -0.46210000 1.89540000
-0.59430000 -0.48710000 1.80690000
-0.54600000 -0.47790000 1.84100000
-0.49700000 -0.47080000 1.87200000
-0.51040000 -0.49210000 1.78660000
-0.46340000 -0.48960000 1.81640000
-0.41620000 -0.48920000 1.84380000
-0.40610000 -0.49610000 1.77140000
-0.33770000 -0.49490000 1.80420000
-0.32690000 -0.49850000 1.73340000
-0.26110000 -0.49910000 1.75680000
-0.30160000 -0.50000000 1.67100000
-0.37290000 -0.50180000 1.53160000
-0.33340000 -0.49930000 1.44980000
-0.32930000 -0.50020000 1.38420000
-0.27230000 -0.51010000 1.15880000
-0.28820000 -0.51680000 1.08310000
-0.31760000 -0.52360000 1.04650000
-0.23750000 -0.52260000 0.98860000
-0.26620000 -0.52940000 0.92540000
-0.23990000 -0.53120000 0.85360000
-0.30140000 -0.54080000 0.84050000
-0.34220000 -0.55000000 0.86690000
-0.39560000 -0.56240000 0.87340000
-0.42840000 -0.56790000 0.81020000
-0.48850000 -0.56600000 0.86450000
-0.50670000 -0.57220000 0.76970000
-0.57870000 -0.56750000 0.83570000
-0.63830000 -0.56710000 0.80790000
-0.77280000 -0.56820000 0.74660000
-0.93020000 -0.56110000 0.73980000
-0.99640000 -0.56490000 0.59990000
-1.05020000 -0.55880000 0.62000000
-1.12270000 -0.55090000 0.58090000
-1.14840000 -0.55380000 0.49070000
-1.18630000 -0.54590000 0.56960000
-1.20370000 -0.55030000 0.50800000
-1.21920000 -0.55060000 0.44590000
-1.25700000 -0.53410000 0.52490000
-1.27430000 -0.53830000 0.46220000
-1.28890000 -0.53650000 0.39860000
-1.32730000 -0.51970000 0.47790000
-1.34230000 -0.51760000 0.41350000
-1.35530000 -0.51270000 0.34900000
-1.39620000 -0.50080000 0.42800000
-1.41770000 -0.50050000 0.32910000
-1.36700000 -0.50850000 0.28440000
-1.43630000 -0.50080000 0.23020000
-1.37910000 -0.51100000 0.21960000
-1.44750000 -0.50270000 0.16400000
-1.39120000 -0.51810000 0.15510000
-1.45780000 -0.50630000 0.09740000
-1.40270000 -0.52580000 0.09020000
-1.47090000 -0.51100000 -0.00410000
-1.41200000 -0.52950000 0.02420000
-1.42320000 -0.53080000 -0.07680000
-1.48210000 -0.51620000 -0.10730000
-1.48790000 -0.51830000 -0.17710000
-1.43370000 -0.53000000 -0.21430000
-1.49180000 -0.51730000 -0.24780000
-1.49630000 -0.51820000 -0.35490000
-1.44070000 -0.52700000 -0.42440000
-1.49810000 -0.51660000 -0.49970000
-1.49630000 -0.51660000 -0.60980000
-1.43980000 -0.52500000 -0.60280000
-1.55200000 -0.50320000 -0.61630000
-1.54520000 -0.49710000 -0.72960000
-1.59980000 -0.48000000 -0.73730000
-1.59130000 -0.47750000 -0.85330000
-1.57860000 -0.47310000 -0.97050000
-1.64290000 -0.46060000 -0.90210000
-1.62500000 -0.45830000 -1.06150000
-1.67720000 -0.43320000 -1.07280000
-1.71510000 -0.40120000 -1.16640000
-1.68500000 -0.40160000 -1.33530000
-1.76260000 -0.36750000 -1.17760000
-1.74130000 -0.36750000 -1.30560000
-1.71280000 -0.36610000 -1.43540000
-1.75110000 -0.32110000 -1.44770000
-1.70530000 -0.32050000 -1.62650000
-1.76030000 -0.26950000 -1.54680000
-1.72300000 -0.26910000 -1.68260000
-1.69380000 -0.26980000 -1.77620000
-1.66290000 -0.32020000 -1.76370000
-1.65750000 -0.27060000 -1.87050000
-1.62630000 -0.32050000 -1.85590000
-1.61370000 -0.27010000 -1.96160000
-1.58290000 -0.32060000 -1.94790000
-1.56500000 -0.26990000 -2.05160000
-1.53360000 -0.32030000 -2.03790000
-1.51090000 -0.27090000 -2.14260000
-1.47730000 -0.31870000 -2.12710000
-1.44760000 -0.27090000 -2.23080000
-1.41460000 -0.31770000 -2.21220000
-1.33600000 -0.27050000 -2.35130000
-1.34500000 -0.31720000 -2.29040000
-1.39980000 -0.21840000 -2.32850000
-1.31910000 -0.21960000 -2.40920000
-1.23920000 -0.21920000 -2.48930000
-1.33490000 -0.16310000 -2.42010000
-1.24900000 -0.16180000 -2.49600000
-1.16040000 -0.15750000 -2.56680000
-1.24580000 -0.10500000 -2.48640000
-1.17460000 -0.09310000 -2.54890000
-1.07600000 -0.09490000 -2.62620000
-1.16040000 -0.04410000 -2.54220000
-1.07620000 -0.03830000 -2.60930000
-0.98830000 -0.03160000 -2.67080000
-1.06900000 0.01590000 -2.58110000
-0.98490000 0.02410000 -2.64400000
-0.89490000 0.03460000 -2.69830000
-0.97890000 0.07800000 -2.61470000
-0.90140000 0.09350000 -2.65740000
-0.79900000 0.09950000 -2.71690000
-0.88380000 0.13820000 -2.63610000
-0.79200000 0.14830000 -2.68220000
-0.69400000 0.16090000 -2.72260000
-0.69900000 0.11190000 -2.75570000
-0.59250000 0.17080000 -2.76000000
-0.59590000 0.12070000 -2.79280000
-0.48900000 0.17460000 -2.79400000
-0.47090000 0.12480000 -2.83190000
-0.38490000 0.17710000 -2.82170000
-0.38680000 0.12920000 -2.85710000
-0.28040000 0.18310000 -2.83900000
-0.27950000 0.13460000 -2.87400000
-0.17610000 0.19040000 -2.85040000
-0.27970000 0.22660000 -2.79800000
-0.17830000 0.23340000 -2.80820000
-0.07640000 0.24020000 -2.81520000
-0.22810000 0.26890000 -2.75730000
-0.07890000 0.27780000 -2.76780000
0.01990000 0.28390000 -2.76640000
-0.08060000 0.30620000 -2.71380000
0.01380000 0.32300000 -2.68410000
0.10970000 0.32680000 -2.67620000
0.19510000 0.35280000 -2.60720000
0.05450000 0.36010000 -2.59590000
0.17870000 0.38380000 -2.52130000
0.25630000 0.39270000 -2.47310000
0.33730000 0.39220000 -2.44970000
0.31130000 0.41510000 -2.36230000
0.33110000 0.42710000 -2.26790000
0.38830000 0.45010000 -2.09710000
0.42730000 0.45090000 -2.06090000
0.54300000 0.43840000 -2.04700000
0.46550000 0.45470000 -1.98720000
0.52460000 0.45530000 -1.95160000
0.56390000 0.46080000 -1.88790000
0.61690000 0.45670000 -1.84570000
0.47440000 0.48540000 -1.76670000
0.53680000 0.47880000 -1.74680000
0.57000000 0.49520000 -1.57180000
0.50850000 0.52420000 -1.30760000
0.48640000 0.53630000 -1.16330000
0.40470000 0.55160000 -1.11250000
0.34920000 0.55900000 -1.09000000
0.24900000 0.56710000 -1.10470000
0.22670000 0.57140000 -1.02390000
0.21410000 0.57570000 -0.97860000
0.18630000 0.58420000 -0.90920000
0.06650000 0.59000000 -0.86390000
-0.02510000 0.58960000 -0.84280000
0.00090000 0.59450000 -0.76640000
-0.06060000 0.59190000 -0.76860000
-0.12460000 0.59410000 -0.74590000
-0.15640000 0.59670000 -0.73460000
-0.16120000 0.60230000 -0.66920000
-0.19540000 0.60440000 -0.61620000
-0.25760000 0.60050000 -0.61760000
-0.26130000 0.60320000 -0.53440000
-0.31910000 0.59300000 -0.63300000
-0.32330000 0.59520000 -0.53540000
-0.41610000 0.57860000 -0.53730000
-0.38720000 0.58180000 -0.45060000
-0.44920000 0.57280000 -0.45080000
-0.51250000 0.56420000 -0.39120000
-0.57380000 0.55390000 -0.43510000
-0.57660000 0.55770000 -0.26920000
-0.67030000 0.54900000 -0.29760000
-0.67160000 0.55140000 -0.23620000
-0.64080000 0.55520000 -0.17570000
-0.73420000 0.54370000 -0.17140000
-0.79490000 0.53180000 -0.10400000
-0.76190000 0.53110000 -0.04300000
-0.82300000 0.52150000 -0.00640000
-0.88530000 0.51250000 -0.00160000
-0.88210000 0.51270000 0.09470000
-0.94510000 0.49950000 0.06750000
-0.94090000 0.49930000 0.16460000
-1.03460000 0.47080000 0.10660000
-1.00180000 0.48120000 0.16960000
-1.06010000 0.45940000 0.20700000
-1.11800000 0.44310000 0.27810000
-1.17530000 0.43000000 0.35160000
-1.16660000 0.43120000 0.45250000
-1.23300000 0.41190000 0.39300000
-1.22220000 0.40880000 0.49480000
-1.28740000 0.39040000 0.45220000
-1.34840000 0.36810000 0.43450000
-1.32620000 0.36510000 0.65060000
-1.39990000 0.33500000 0.64730000
-1.36540000 0.34070000 0.80450000
-1.47520000 0.29390000 0.83690000
-1.45710000 0.29240000 0.95040000
-1.52070000 0.26430000 0.89420000
-1.50640000 0.25880000 0.96850000
-1.56520000 0.22200000 0.91000000
-1.54780000 0.21280000 0.98220000
-1.53450000 0.20710000 1.05670000
-1.59390000 0.17200000 0.99500000
-1.58550000 0.17330000 1.07050000
-1.64510000 0.13100000 0.96920000
-1.63130000 0.13240000 1.08210000
-1.68430000 0.08710000 1.01760000
-1.67190000 0.08630000 1.09380000
-1.71940000 0.03650000 1.03020000
-1.70360000 0.03440000 1.10740000
-1.74330000 -0.01950000 1.04250000
-1.71690000 -0.02430000 1.15840000
-1.74920000 -0.08110000 1.08900000
-1.71310000 -0.08860000 1.24160000
-1.72750000 -0.14970000 1.20510000
-1.69490000 -0.15590000 1.31870000
-1.69950000 -0.21610000 1.27890000
-1.67750000 -0.22040000 1.35560000
-1.65250000 -0.22520000 1.43210000
-1.65960000 -0.27950000 1.35020000
-1.63170000 -0.28280000 1.42560000
-1.57810000 -0.33170000 1.44850000
-1.52780000 -0.33910000 1.55840000
-1.51980000 -0.37380000 1.46550000
-1.48470000 -0.37770000 1.53560000
-1.44750000 -0.38050000 1.60640000
-1.41560000 -0.40370000 1.54530000
-1.36090000 -0.41160000 1.65100000
-1.34600000 -0.42610000 1.55370000
-1.30860000 -0.42970000 1.62270000
-1.26850000 -0.42810000 1.68980000
-1.25510000 -0.43750000 1.59230000
-1.19450000 -0.43250000 1.68920000
-1.14370000 -0.44120000 1.65330000
-1.05380000 -0.44830000 1.67430000
-1.00770000 -0.46570000 1.63400000
-0.94540000 -0.46010000 1.71690000
-0.88000000 -0.47540000 1.69940000
-0.81340000 -0.46670000 1.77460000
-0.81630000 -0.49430000 1.68180000
-0.77220000 -0.48610000 1.72900000
-0.72650000 -0.47760000 1.77430000
-0.73080000 -0.49710000 1.68250000
-0.66390000 -0.49230000 1.74740000
-0.62470000 -0.50140000 1.69780000
-0.55720000 -0.49780000 1.75400000
-0.61630000 -0.50600000 1.61830000
-0.49730000 -0.50100000 1.71620000
-0.44820000 -0.50240000 1.66980000
-0.45120000 -0.50500000 1.59080000
-0.46060000 -0.50590000 1.50660000
-0.50060000 -0.50570000 1.43920000
-0.48450000 -0.50590000 1.35800000
-0.41340000 -0.50800000 1.28480000
-0.34040000 -0.51170000 1.18180000
-0.41440000 -0.51580000 1.17780000
-0.35000000 -0.51730000 1.12940000
-0.43640000 -0.53340000 1.10380000
-0.39340000 -0.53300000 1.07280000
-0.34500000 -0.53420000 1.00840000
-0.37040000 -0.54640000 0.96940000
-0.30860000 -0.53750000 0.92650000
-0.37290000 -0.55480000 0.91470000
-0.41630000 -0.55730000 0.94270000
-0.45000000 -0.56080000 0.93550000
-0.60140000 -0.55810000 0.96670000
-0.72490000 -0.55960000 0.91350000
-0.81180000 -0.56100000 0.83460000
-0.88840000 -0.55410000 0.87290000
-0.98720000 -0.55290000 0.79000000
-1.05730000 -0.55400000 0.68790000
-1.06200000 -0.54700000 0.75720000
-1.13610000 -0.53890000 0.72110000
-1.16800000 -0.54520000 0.63060000
-1.19920000 -0.52900000 0.71280000
-1.21940000 -0.52860000 0.65030000
-1.23780000 -0.52770000 0.58750000
-1.27010000 -0.50990000 0.66980000
-1.29040000 -0.51240000 0.60580000
-1.31020000 -0.51820000 0.54210000
-1.33420000 -0.50500000 0.65770000
-1.36330000 -0.50430000 0.55930000
-1.38010000 -0.50150000 0.49370000
-1.42720000 -0.50020000 0.54300000
-1.46390000 -0.49610000 0.39150000
-1.52100000 -0.49050000 0.39540000
-1.49930000 -0.49270000 0.20590000
-1.56750000 -0.48520000 0.14360000
-1.51430000 -0.49190000 0.10370000
-1.58300000 -0.48050000 0.00260000
-1.52610000 -0.49300000 -0.00010000
-1.59210000 -0.48110000 -0.10420000
-1.53670000 -0.49740000 -0.10500000
-1.59950000 -0.48320000 -0.21260000
-1.54470000 -0.50080000 -0.21190000
-1.60620000 -0.48530000 -0.35920000
-1.55070000 -0.50350000 -0.32030000
-1.55360000 -0.50440000 -0.43000000
-1.60860000 -0.48650000 -0.47090000
-1.60710000 -0.48480000 -0.58420000
-1.55390000 -0.50430000 -0.54130000
-1.66190000 -0.46500000 -0.55140000
-1.65510000 -0.46150000 -0.72530000
-1.70810000 -0.43830000 -0.73240000
-1.69560000 -0.43670000 -0.91120000
-1.75380000 -0.40870000 -0.81940000
-1.73680000 -0.40430000 -1.00120000
-1.78430000 -0.36950000 -1.01050000
-1.80490000 -0.32390000 -1.16590000
-1.84640000 -0.27460000 -1.11000000
-1.81930000 -0.27300000 -1.28180000
-1.78010000 -0.32280000 -1.31620000
-1.79330000 -0.27130000 -1.41360000
-1.83420000 -0.21750000 -1.33200000
-1.81610000 -0.21580000 -1.42050000
-1.79430000 -0.21400000 -1.50920000
-1.82390000 -0.15560000 -1.42290000
-1.80330000 -0.15360000 -1.51280000
-1.76720000 -0.15320000 -1.64950000
-1.75720000 -0.21290000 -1.64470000
-1.72780000 -0.15470000 -1.79080000
-1.71580000 -0.21460000 -1.78580000
-1.68740000 -0.15280000 -1.88220000
-1.67910000 -0.21430000 -1.88040000
-1.64550000 -0.15020000 -1.97190000
-1.63510000 -0.21250000 -1.96940000
-1.60050000 -0.15110000 -2.06150000
-1.58850000 -0.21290000 -2.05930000
-1.54700000 -0.15800000 -2.15540000
-1.53680000 -0.21710000 -2.15270000
-1.48640000 -0.16370000 -2.25180000
-1.47440000 -0.22020000 -2.24550000
-1.41430000 -0.16320000 -2.33910000
-1.48190000 -0.10700000 -2.24730000
-1.41070000 -0.10690000 -2.33370000
-1.33140000 -0.10490000 -2.41360000
-1.39440000 -0.05410000 -2.31640000
-1.31850000 -0.05060000 -2.39330000
-1.23700000 -0.04980000 -2.46660000
-1.30210000 0.00100000 -2.36720000
-1.22570000 0.00400000 -2.44090000
-1.14980000 0.00940000 -2.51380000
-1.21260000 0.05690000 -2.41360000
-1.13870000 0.06230000 -2.48500000
-1.06050000 0.06940000 -2.55210000
-1.12410000 0.11290000 -2.45340000
-1.04810000 0.11970000 -2.51930000
-0.96800000 0.12820000 -2.58040000
-1.03290000 0.16740000 -2.48400000
-0.95420000 0.17510000 -2.54370000
-0.87150000 0.18420000 -2.59850000
-0.93530000 0.21570000 -2.50320000
-0.85480000 0.22510000 -2.55710000
-0.76770000 0.23380000 -2.60300000
-0.78170000 0.19330000 -2.64440000
-0.67460000 0.24510000 -2.64420000
-0.68620000 0.20550000 -2.68520000
-0.57550000 0.25470000 -2.68130000
-0.58550000 0.21520000 -2.72240000
-0.47400000 0.25790000 -2.71220000
-0.48200000 0.21840000 -2.75480000
-0.37570000 0.26200000 -2.73760000
-0.38070000 0.22110000 -2.78170000
-0.36100000 0.31070000 -2.64590000
-0.22330000 0.30430000 -2.69120000
-0.21710000 0.33730000 -2.62380000
-0.08080000 0.33220000 -2.65870000
-0.21120000 0.36810000 -2.55520000
-0.08040000 0.36740000 -2.57430000
0.04960000 0.38070000 -2.53790000
0.04430000 0.39910000 -2.47910000
0.16770000 0.40070000 -2.46200000
0.11690000 0.41450000 -2.40810000
0.23410000 0.41610000 -2.38430000
0.10570000 0.42680000 -2.34770000
0.17460000 0.43230000 -2.30240000
0.23770000 0.43550000 -2.25390000
0.27460000 0.45250000 -2.14390000
0.37460000 0.47630000 -1.91390000
0.45750000 0.47700000 -1.85070000
0.38980000 0.49790000 -1.74980000
0.38630000 0.52360000 -1.52590000
0.34660000 0.54550000 -1.32350000
0.33020000 0.55730000 -1.17640000
0.25280000 0.56540000 -1.18010000
0.20980000 0.57070000 -1.06810000
0.12810000 0.57780000 -1.05130000
0.12740000 0.58090000 -0.98140000
0.04640000 0.58090000 -1.05340000
0.03960000 0.58630000 -0.93220000
-0.04480000 0.58540000 -0.96900000
-0.13820000 0.58520000 -0.92630000
-0.14790000 0.58810000 -0.83720000
-0.24680000 0.59350000 -0.77860000
-0.25320000 0.59810000 -0.69910000
-0.31140000 0.58770000 -0.75550000
-0.37630000 0.57970000 -0.71810000
-0.38320000 0.58460000 -0.59330000
-0.44390000 0.57060000 -0.62330000
-0.53610000 0.55220000 -0.64080000
-0.50990000 0.56160000 -0.50930000
-0.57030000 0.54970000 -0.56860000
-0.66710000 0.54450000 -0.48080000
-0.70020000 0.54420000 -0.38150000
-0.78070000 0.53800000 -0.26390000
-0.85790000 0.52540000 -0.22880000
-0.87260000 0.51940000 -0.13100000
-0.94970000 0.50550000 -0.12710000
-0.94820000 0.50110000 -0.02950000
-1.01150000 0.49360000 -0.09160000
-1.04030000 0.47990000 -0.02440000
-1.03770000 0.47410000 0.04120000
-1.12820000 0.44880000 0.07970000
-1.12290000 0.44020000 0.17890000
-1.18990000 0.43470000 0.08340000
-1.18510000 0.42670000 0.18390000
-1.18190000 0.42750000 0.25090000
-1.24690000 0.41330000 0.18920000
-1.24090000 0.41230000 0.29120000
-1.30380000 0.39340000 0.24650000
-1.41180000 0.34400000 0.38200000
-1.48220000 0.30560000 0.48270000
-1.47250000 0.30230000 0.64490000
-1.49210000 0.29210000 0.72520000
-1.55480000 0.26310000 0.66800000
-1.54580000 0.26530000 0.74410000
-1.53410000 0.26580000 0.81940000
-1.59600000 0.23310000 0.76240000
-1.58210000 0.22910000 0.83750000
-1.63560000 0.18720000 0.77470000
-1.61890000 0.17950000 0.84800000
-1.60380000 0.17310000 0.92080000
-1.65880000 0.13210000 0.85800000
-1.70220000 0.08730000 0.86810000
-1.69500000 0.08740000 0.94270000
-1.74460000 0.03910000 0.83950000
-1.73260000 0.03800000 0.95340000
-1.77130000 -0.01480000 0.88670000
-1.75940000 -0.01650000 0.96460000
-1.79540000 -0.07190000 0.85800000
-1.77460000 -0.07570000 0.97380000
-1.78110000 -0.13690000 0.97950000
-1.75450000 -0.14320000 1.09220000
-1.75210000 -0.20560000 1.09140000
-1.72270000 -0.21230000 1.20370000
-1.74040000 -0.26640000 1.08700000
-1.70780000 -0.27220000 1.19880000
-1.68360000 -0.27530000 1.27410000
-1.67880000 -0.32550000 1.18890000
-1.65330000 -0.32750000 1.26270000
-1.62460000 -0.32810000 1.33690000
-1.59430000 -0.36510000 1.28330000
-1.55120000 -0.36880000 1.39360000
-1.51440000 -0.39300000 1.33660000
-1.46670000 -0.39370000 1.44030000
-1.45850000 -0.41230000 1.31530000
-1.38470000 -0.42000000 1.40410000
-1.38020000 -0.41860000 1.48460000
-1.32610000 -0.43400000 1.45880000
-1.29220000 -0.43790000 1.52600000
-1.27210000 -0.44740000 1.43180000
-1.23910000 -0.44910000 1.49670000
-1.20290000 -0.44820000 1.56040000
-1.18830000 -0.46660000 1.46590000
-1.13360000 -0.45940000 1.55670000
-1.10420000 -0.48120000 1.49160000
-1.06690000 -0.47390000 1.54890000
-1.02090000 -0.49600000 1.51160000
-0.96310000 -0.48700000 1.59400000
-0.93730000 -0.50410000 1.52590000
-0.87850000 -0.49860000 1.60530000
-0.83420000 -0.50580000 1.56170000
-0.77400000 -0.50270000 1.63590000
-0.77950000 -0.50800000 1.53020000
-0.68980000 -0.50440000 1.63510000
-0.73510000 -0.50920000 1.48730000
-0.55940000 -0.50720000 1.56430000
-0.65770000 -0.50850000 1.43690000
-0.54630000 -0.50840000 1.30900000
-0.50410000 -0.51150000 1.24480000
-0.53460000 -0.52050000 1.20420000
-0.46610000 -0.52610000 1.15560000
-0.56380000 -0.53220000 1.16210000
-0.49480000 -0.53890000 1.11530000
-0.50040000 -0.54900000 1.05750000
-0.43400000 -0.55200000 1.01330000
-0.56180000 -0.55320000 1.03560000
-0.72240000 -0.55280000 1.00630000
-0.81880000 -0.55350000 0.94950000
-0.92070000 -0.54650000 0.93890000
-0.96500000 -0.53430000 0.98030000
-1.01550000 -0.54090000 0.87060000
-1.06650000 -0.52740000 0.89650000
-1.10190000 -0.53070000 0.80960000
-1.12880000 -0.51040000 0.89300000
-1.15290000 -0.51510000 0.83340000
-1.17650000 -0.52240000 0.77360000
-1.20530000 -0.51000000 0.85900000
-1.22830000 -0.51150000 0.79680000
-1.24940000 -0.50930000 0.73350000
-1.29190000 -0.50670000 0.78760000
-1.32850000 -0.50450000 0.85840000
-1.38850000 -0.50330000 0.67690000
-1.42150000 -0.49820000 0.76290000
-1.46300000 -0.49530000 0.62730000
-1.51710000 -0.48410000 0.64420000
-1.55930000 -0.48200000 0.48730000
-1.57040000 -0.46790000 0.66110000
-1.60000000 -0.46680000 0.55580000
-1.61660000 -0.46300000 0.48320000
-1.64030000 -0.46060000 0.37440000
-1.60180000 -0.47930000 0.29200000
-1.66730000 -0.45690000 0.22760000
-1.62010000 -0.47800000 0.18470000
-1.68790000 -0.45420000 0.07950000
-1.63370000 -0.47500000 0.07670000
-1.70220000 -0.44890000 -0.08660000
-1.64380000 -0.47080000 -0.03160000
-1.65070000 -0.46650000 -0.14070000
-1.71190000 -0.44350000 -0.29050000
-1.65750000 -0.46430000 -0.28780000
-1.71490000 -0.44210000 -0.44170000
-1.66170000 -0.46540000 -0.43740000
-1.71480000 -0.44120000 -0.55660000
-1.76630000 -0.41460000 -0.46530000
-1.76450000 -0.41280000 -0.64020000
-1.81080000 -0.37690000 -0.62630000
-1.79980000 -0.37340000 -0.84740000
-1.84600000 -0.33290000 -0.77310000
-1.83370000 -0.32860000 -0.93660000
-1.86700000 -0.27930000 -0.94320000
-1.88130000 -0.22150000 -1.03190000
-1.85600000 -0.21830000 -1.20150000
-1.87320000 -0.15910000 -1.14090000
-1.84170000 -0.15720000 -1.33450000
-1.84090000 -0.09740000 -1.29150000
-1.81640000 -0.09570000 -1.42300000
-1.82410000 -0.03900000 -1.29070000
-1.79960000 -0.03730000 -1.42250000
-1.77930000 -0.03540000 -1.51180000
-1.79620000 -0.09360000 -1.51290000
-1.75580000 -0.03470000 -1.60230000
-1.77330000 -0.09260000 -1.60370000
-1.72830000 -0.03520000 -1.69260000
-1.74730000 -0.09350000 -1.69600000
-1.67940000 -0.03390000 -1.82690000
-1.71700000 -0.09400000 -1.78730000
-1.67940000 -0.09150000 -1.87830000
-1.62570000 -0.02750000 -1.96380000
-1.64170000 -0.08720000 -1.96940000
-1.58090000 -0.03020000 -2.05600000
-1.59800000 -0.08860000 -2.05990000
-1.52530000 -0.04370000 -2.14860000
-1.54350000 -0.09970000 -2.15420000
-1.46360000 -0.05320000 -2.23440000
-1.49740000 0.00850000 -2.13490000
-1.43750000 -0.00220000 -2.21550000
-1.37340000 -0.00320000 -2.29180000
-1.37950000 0.04860000 -2.23000000
-1.28390000 0.05230000 -2.34050000
-1.35210000 0.09970000 -2.20480000
-1.26310000 0.10290000 -2.31250000
-1.19580000 0.10760000 -2.38380000
-1.23950000 0.15250000 -2.28250000
-1.17600000 0.15650000 -2.35180000
-1.10710000 0.16120000 -2.41980000
-1.11630000 0.20010000 -2.34760000
-1.01220000 0.20830000 -2.44420000
-1.05680000 0.24010000 -2.34090000
-0.98800000 0.24510000 -2.40320000
-0.91350000 0.25080000 -2.46050000
-0.94430000 0.28890000 -2.33900000
-0.87340000 0.29400000 -2.39460000
-0.79750000 0.30150000 -2.44490000
-0.83400000 0.25880000 -2.51250000
-0.71610000 0.30880000 -2.48950000
-0.74910000 0.26640000 -2.55800000
-0.62980000 0.31610000 -2.52860000
-0.65840000 0.27610000 -2.59880000
-0.52580000 0.34220000 -2.52500000
-0.56200000 0.28370000 -2.63390000
-0.45460000 0.30710000 -2.62490000
-0.34000000 0.37130000 -2.52850000
-0.20520000 0.39780000 -2.48600000
-0.08040000 0.39900000 -2.48830000
-0.16120000 0.41960000 -2.43120000
-0.04170000 0.41630000 -2.42680000
-0.04530000 0.43020000 -2.36690000
0.02160000 0.43900000 -2.29800000
0.02370000 0.45300000 -2.20360000
0.10810000 0.45500000 -2.18980000
0.17540000 0.45420000 -2.17440000
0.13600000 0.47580000 -2.05360000
0.23340000 0.47230000 -2.04090000
0.22870000 0.49530000 -1.88340000
0.28880000 0.48220000 -1.93630000
0.31200000 0.50070000 -1.79030000
0.27160000 0.52400000 -1.62260000
0.35630000 0.51740000 -1.61000000
0.33890000 0.54040000 -1.41640000
0.27890000 0.54310000 -1.46350000
0.21800000 0.55960000 -1.32910000
0.24770000 0.56420000 -1.23040000
0.15950000 0.57080000 -1.24240000
0.18030000 0.57190000 -1.18040000
0.12710000 0.56810000 -1.31780000
0.13020000 0.57600000 -1.14370000
0.04610000 0.57050000 -1.26800000
0.05470000 0.57630000 -1.15640000
-0.02110000 0.57650000 -1.17000000
-0.05430000 0.58030000 -1.12360000
-0.11220000 0.57870000 -1.10540000
-0.12410000 0.58060000 -1.02830000
-0.20900000 0.57510000 -1.03860000
-0.22710000 0.58220000 -0.93470000
-0.31770000 0.56330000 -1.04640000
-0.29460000 0.57910000 -0.88800000
-0.23840000 0.58670000 -0.85680000
-0.37300000 0.56380000 -0.96410000
-0.39350000 0.56880000 -0.84960000
-0.46460000 0.56130000 -0.78000000
-0.47710000 0.55480000 -0.90820000
-0.54870000 0.54430000 -0.84570000
-0.48580000 0.55870000 -0.71040000
-0.61460000 0.53240000 -0.80870000
-0.62580000 0.53520000 -0.68960000
-0.63190000 0.54180000 -0.60010000
-0.68300000 0.52690000 -0.74000000
-0.69540000 0.53710000 -0.57260000
-0.63430000 0.54650000 -0.54060000
-0.74830000 0.52270000 -0.69990000
-0.78540000 0.51920000 -0.60870000
-0.75840000 0.52920000 -0.54470000
-0.76120000 0.53690000 -0.48270000
-0.85000000 0.51270000 -0.54890000
-0.82300000 0.52800000 -0.48460000
-0.79370000 0.53570000 -0.42080000
-0.91520000 0.51630000 -0.48790000
-0.88670000 0.52450000 -0.42210000
-0.88860000 0.52510000 -0.32480000
-0.82630000 0.53380000 -0.35780000
-0.94780000 0.51400000 -0.42270000
-0.94950000 0.51380000 -0.32390000
-1.00830000 0.50110000 -0.42340000
-1.00940000 0.49800000 -0.32330000
-1.01040000 0.49580000 -0.22370000
-0.95010000 0.51080000 -0.22510000
-1.13590000 0.46160000 -0.33980000
-1.06900000 0.47460000 -0.22250000
-1.07070000 0.47590000 -0.15580000
-1.01150000 0.49570000 -0.15750000
-1.15850000 0.45110000 -0.28870000
-1.12780000 0.45280000 -0.22180000
-1.13080000 0.45630000 -0.12100000
-1.10180000 0.46660000 -0.05480000
-1.21890000 0.42820000 -0.22030000
-1.19150000 0.44150000 -0.15330000
-1.19300000 0.44250000 -0.08550000
-1.19270000 0.44050000 -0.01780000
-1.25160000 0.42070000 -0.11750000
-1.25190000 0.41910000 0.01910000
-1.34070000 0.38660000 -0.04450000
-1.31030000 0.39680000 0.09150000
-1.24990000 0.41630000 0.12120000
-1.36950000 0.37500000 0.09650000
-1.39460000 0.35910000 0.20410000
-1.42780000 0.35110000 0.10200000
-1.48500000 0.32470000 0.10820000
-1.47940000 0.32090000 0.24970000
-1.56460000 0.27710000 0.22610000
-1.55830000 0.27460000 0.33340000
-1.57310000 0.26110000 0.50190000
-1.63550000 0.23110000 0.42300000
-1.62030000 0.23150000 0.57270000
-1.68640000 0.19770000 0.43700000
-1.67340000 0.19640000 0.55080000
-1.66250000 0.19430000 0.62590000
-1.65080000 0.19370000 0.70080000
-1.60650000 0.23360000 0.68620000
-1.71170000 0.14990000 0.56310000
-1.69710000 0.14480000 0.63700000
-1.68400000 0.14160000 0.71060000
-1.67010000 0.13590000 0.78400000
-1.72410000 0.09120000 0.68230000
-1.71010000 0.08840000 0.79350000
-1.75930000 0.04020000 0.69000000
-1.78520000 -0.01260000 0.77250000
-1.81370000 -0.06850000 0.74270000
-1.82710000 -0.12700000 0.74950000
-1.80520000 -0.13160000 0.86500000
-1.80600000 -0.19210000 0.86690000
-1.78030000 -0.19870000 0.97990000
-1.79700000 -0.25190000 0.86360000
-1.77030000 -0.25940000 0.97580000
-1.73250000 -0.31480000 1.00290000
-1.70120000 -0.32170000 1.11440000
-1.66940000 -0.35930000 1.06350000
-1.63370000 -0.36320000 1.17350000
-1.58620000 -0.38910000 1.14080000
-1.53660000 -0.40990000 1.10740000
-1.49930000 -0.41110000 1.21250000
-1.43110000 -0.43190000 1.22640000
-1.38830000 -0.42900000 1.32600000
-1.36550000 -0.45590000 1.23840000
-1.33530000 -0.45110000 1.30300000
-1.30390000 -0.44780000 1.36700000
-1.28550000 -0.47770000 1.27860000
-1.25380000 -0.47220000 1.34100000
-1.22130000 -0.46740000 1.40350000
-1.18810000 -0.49140000 1.34280000
-1.13970000 -0.48720000 1.43290000
-1.10570000 -0.50080000 1.36790000
-1.05670000 -0.49950000 1.45470000
-1.02360000 -0.50650000 1.38750000
-0.97350000 -0.50590000 1.47100000
-0.94170000 -0.50980000 1.40330000
-0.89080000 -0.50930000 1.48410000
-0.89300000 -0.50990000 1.36380000
-0.82080000 -0.51060000 1.42250000
-0.72500000 -0.51050000 1.34480000
-0.65280000 -0.51200000 1.28990000
-0.60490000 -0.51470000 1.25480000
-0.65870000 -0.51960000 1.22680000
-0.63960000 -0.53700000 1.14900000
-0.56870000 -0.54510000 1.10260000
-0.66750000 -0.54480000 1.10240000
-0.75780000 -0.54590000 1.05980000
-0.78590000 -0.53270000 1.12660000
-0.84660000 -0.53820000 1.08060000
-0.87460000 -0.54250000 1.03050000
-0.91020000 -0.52660000 1.08560000
-0.97430000 -0.51580000 1.09030000
-1.00200000 -0.52050000 1.03650000
-1.02890000 -0.52360000 0.98120000
-1.06610000 -0.51140000 1.03870000
-1.10450000 -0.50960000 0.95190000
-1.11760000 -0.50620000 1.06890000
-1.16900000 -0.50630000 0.95010000
-1.22180000 -0.50550000 0.97750000
-1.25810000 -0.50800000 0.88380000
-1.28760000 -0.50610000 0.97220000
-1.37640000 -0.49770000 0.89700000
-1.43530000 -0.48550000 0.90090000
-1.48550000 -0.48380000 0.74760000
-1.51710000 -0.46950000 0.83530000
-1.53840000 -0.46760000 0.76590000
-1.57910000 -0.44420000 0.81610000
-1.62260000 -0.44630000 0.67620000
-1.66810000 -0.41110000 0.68580000
-1.69800000 -0.41190000 0.57710000
-1.65210000 -0.44570000 0.56860000
-1.72400000 -0.41040000 0.46670000
-1.67680000 -0.44160000 0.45860000
-1.75420000 -0.40650000 0.31660000
-1.71540000 -0.43470000 0.25370000
-1.77330000 -0.40420000 0.20250000
-1.78340000 -0.40120000 0.12550000
-1.73990000 -0.43010000 0.08300000
-1.79680000 -0.39490000 -0.00920000
-1.75760000 -0.42290000 -0.12460000
-1.81110000 -0.38750000 -0.21990000
-1.76470000 -0.41830000 -0.29350000
-1.81290000 -0.38100000 -0.39230000
-1.85540000 -0.33840000 -0.45340000
-1.85360000 -0.33620000 -0.61140000
-1.89190000 -0.29240000 -0.45590000
-1.88890000 -0.28940000 -0.61560000
-1.87950000 -0.28470000 -0.77810000
-1.90810000 -0.23300000 -0.72060000
-1.89490000 -0.22610000 -0.90630000
-1.90630000 -0.16880000 -0.86640000
-1.89470000 -0.16320000 -0.99230000
-1.89790000 -0.10800000 -0.90760000
-1.88970000 -0.10390000 -0.99190000
-1.87070000 -0.09950000 -1.11980000
-1.87430000 -0.04600000 -0.98850000
-1.86270000 -0.04270000 -1.07400000
-1.84860000 -0.04040000 -1.16050000
-1.82830000 0.01560000 -1.15760000
-1.81200000 0.01710000 -1.24480000
-1.79370000 0.01740000 -1.33210000
-1.78940000 0.07230000 -1.24160000
-1.75950000 0.07240000 -1.37240000
-1.77620000 0.01880000 -1.42020000
-1.72620000 0.07330000 -1.50320000
-1.75500000 0.02010000 -1.50890000
-1.70150000 0.07400000 -1.59100000
-1.73010000 0.02040000 -1.59790000
-1.67310000 0.07420000 -1.67820000
-1.68610000 0.02040000 -1.73040000
-1.63960000 0.07350000 -1.76420000
-1.59080000 0.10210000 -1.84600000
-1.63840000 0.02460000 -1.86320000
-1.55220000 0.10240000 -1.93460000
-1.60100000 0.02800000 -1.95500000
-1.50470000 0.09540000 -2.02210000
-1.55360000 0.02330000 -2.04650000
-1.46570000 0.05780000 -2.11590000
-1.41890000 0.13150000 -2.08160000
-1.32410000 0.15020000 -2.17740000
-1.29450000 0.19880000 -2.14780000
-1.21090000 0.19640000 -2.24750000
-1.20510000 0.23500000 -2.17690000
-1.11960000 0.23580000 -2.27530000
-1.14170000 0.26520000 -2.16820000
-1.05540000 0.26730000 -2.26600000
-1.02220000 0.29600000 -2.22510000
-0.93050000 0.33060000 -2.24860000
-0.83290000 0.34090000 -2.33340000
-0.75950000 0.34580000 -2.38130000
-0.68100000 0.35070000 -2.42330000
-0.59880000 0.35590000 -2.45930000
-0.42710000 0.36760000 -2.51210000
-0.53720000 0.38510000 -2.42710000
-0.41400000 0.39370000 -2.46110000
-0.33070000 0.39560000 -2.47540000
-0.40040000 0.41090000 -2.40740000
-0.32080000 0.41250000 -2.41960000
-0.24100000 0.41740000 -2.42790000
-0.31220000 0.42550000 -2.36310000
-0.23650000 0.43380000 -2.37030000
-0.15930000 0.43520000 -2.37270000
-0.23080000 0.44420000 -2.28080000
-0.16200000 0.45120000 -2.23560000
-0.07220000 0.44480000 -2.27670000
-0.09800000 0.45600000 -2.18570000
-0.03520000 0.48240000 -2.02140000
0.07420000 0.48300000 -2.01870000
0.14170000 0.49810000 -1.90330000
0.03980000 0.50270000 -1.87930000
0.20340000 0.51500000 -1.74260000
0.18290000 0.54400000 -1.51970000
0.19830000 0.55210000 -1.43910000
0.14130000 0.56320000 -1.36990000
0.08830000 0.56200000 -1.42000000
0.03950000 0.56830000 -1.34610000
-0.00790000 0.57050000 -1.24690000
-0.06870000 0.56790000 -1.31680000
-0.08180000 0.57170000 -1.26300000
-0.09330000 0.57690000 -1.20990000
-0.12950000 0.57880000 -1.16180000
-0.17070000 0.57550000 -1.22420000
-0.18280000 0.57540000 -1.17040000
-0.19380000 0.57310000 -1.11730000
-0.23610000 0.56660000 -1.17930000
-0.31810000 0.55750000 -1.13710000
-0.45280000 0.55160000 -1.01750000
-0.55220000 0.53800000 -0.99160000
-0.59720000 0.53130000 -0.92530000
-0.66240000 0.51840000 -0.90500000
-0.70140000 0.51550000 -0.84910000
-0.76980000 0.51060000 -0.79530000
-0.80910000 0.51120000 -0.70490000
-0.86970000 0.49790000 -0.71010000
-0.87650000 0.50080000 -0.61440000
-0.93330000 0.48660000 -0.68320000
-0.93790000 0.49200000 -0.61870000
-0.94200000 0.50110000 -0.55380000
-0.99980000 0.48730000 -0.62310000
-1.00360000 0.49600000 -0.55730000
-1.00640000 0.50080000 -0.49040000
-1.13810000 0.45890000 -0.56200000
-1.14010000 0.46200000 -0.49350000
-1.14200000 0.46270000 -0.42500000
-1.24780000 0.42570000 -0.32250000
-1.33900000 0.39150000 -0.23480000
-1.34030000 0.38850000 -0.14840000
-1.42970000 0.35570000 -0.10880000
-1.42980000 0.35380000 -0.00330000
-1.48800000 0.33150000 -0.10460000
-1.48800000 0.32930000 0.00180000
-1.54480000 0.30230000 -0.02840000
-1.54070000 0.29530000 0.11480000
-1.62250000 0.24870000 0.12580000
-1.64530000 0.23110000 0.27600000
-1.69730000 0.19750000 0.28660000
-1.73830000 0.15800000 0.37380000
-1.72500000 0.15510000 0.48820000
-1.75930000 0.10370000 0.45920000
-1.74110000 0.09620000 0.57110000
-1.77620000 0.04460000 0.54080000
-1.80010000 -0.01050000 0.62220000
-1.83440000 -0.06320000 0.55220000
-1.82300000 -0.06680000 0.66600000
-1.85380000 -0.12010000 0.55570000
-1.83880000 -0.12440000 0.67200000
-1.85710000 -0.17980000 0.59740000
-1.83660000 -0.18480000 0.71400000
-1.82870000 -0.24340000 0.71260000
-1.80360000 -0.29650000 0.70540000
-1.76210000 -0.30710000 0.89170000
-1.72920000 -0.34720000 0.84520000
-1.70200000 -0.35350000 0.95330000
-1.65760000 -0.38170000 0.90870000
-1.62750000 -0.38640000 1.01590000
-1.60400000 -0.40800000 0.89760000
-1.57230000 -0.40980000 1.00310000
-1.50890000 -0.43810000 1.02220000
-1.47150000 -0.43510000 1.12530000
-1.44740000 -0.46680000 1.03970000
-1.40770000 -0.46190000 1.13960000
-1.35640000 -0.48410000 1.11780000
-1.31470000 -0.47930000 1.21520000
-1.30280000 -0.49570000 1.09340000
-1.26220000 -0.49430000 1.18850000
-1.23390000 -0.49520000 1.25100000
-1.22290000 -0.50160000 1.12880000
-1.16660000 -0.50200000 1.24980000
-1.14280000 -0.50630000 1.15840000
-1.08520000 -0.50640000 1.27440000
-1.02250000 -0.50700000 1.19400000
-0.99340000 -0.50640000 1.24880000
-0.96380000 -0.50700000 1.30280000
-0.88810000 -0.50420000 1.24710000
-0.85900000 -0.50610000 1.29940000
-0.82880000 -0.50880000 1.35150000
-0.80960000 -0.50910000 1.26300000
-0.77990000 -0.50990000 1.31390000
-0.73130000 -0.51270000 1.27810000
-0.76040000 -0.51450000 1.22850000
-0.71180000 -0.52560000 1.19640000
-0.78900000 -0.52150000 1.17910000
-0.83840000 -0.51230000 1.21210000
-0.86720000 -0.51740000 1.16150000
-0.91690000 -0.50550000 1.19520000
-0.94580000 -0.50940000 1.14290000
-1.02530000 -0.51020000 1.12250000
-1.07680000 -0.50770000 1.15540000
-1.18350000 -0.50450000 1.06910000
-1.26250000 -0.50310000 1.03570000
-1.34100000 -0.49790000 0.99620000
-1.39480000 -0.48650000 1.01890000
-1.48290000 -0.46860000 0.93750000
-1.54490000 -0.44180000 0.91990000
-1.63590000 -0.40860000 0.79210000
-1.68600000 -0.37700000 0.80120000
-1.70490000 -0.37550000 0.72960000
-1.76260000 -0.33920000 0.69930000
-1.72290000 -0.37330000 0.65670000
-1.79400000 -0.33270000 0.55140000
-1.74910000 -0.37130000 0.54630000
-1.81580000 -0.32890000 0.43830000
-1.77460000 -0.37010000 0.43460000
-1.83550000 -0.32530000 0.32300000
-1.79740000 -0.36880000 0.32040000
-1.85420000 -0.32230000 0.20750000
-1.81710000 -0.36710000 0.20530000
-1.86750000 -0.31670000 0.09110000
-1.83210000 -0.36020000 0.07000000
-1.88190000 -0.30900000 -0.06490000
-1.84990000 -0.35040000 -0.14320000
-1.88960000 -0.30120000 -0.22090000
-1.85510000 -0.34410000 -0.29790000
-1.89350000 -0.29740000 -0.33800000
-1.91760000 -0.24530000 -0.29970000
-1.91910000 -0.24010000 -0.45820000
-1.92930000 -0.18480000 -0.37980000
-1.92640000 -0.17990000 -0.54020000
-1.91650000 -0.23720000 -0.57840000
-1.91770000 -0.17510000 -0.70190000
-1.91980000 -0.12070000 -0.56150000
-1.90740000 -0.11340000 -0.78390000
-1.88620000 -0.05300000 -0.84400000
-1.86550000 0.00120000 -0.80110000
-1.85150000 0.00950000 -0.98480000
-1.83130000 0.05990000 -0.89840000
-1.82640000 0.06390000 -0.98100000
-1.81510000 0.06580000 -1.06630000
-1.84100000 0.01260000 -1.07030000
-1.80470000 0.06990000 -1.15400000
-1.78570000 0.11660000 -1.06180000
-1.77610000 0.12090000 -1.14920000
-1.76080000 0.12380000 -1.23700000
-1.74110000 0.16800000 -1.14330000
-1.72500000 0.16990000 -1.23010000
-1.69390000 0.17160000 -1.35890000
-1.72960000 0.12390000 -1.36720000
-1.65960000 0.17320000 -1.48560000
-1.69480000 0.12470000 -1.49570000
-1.61930000 0.17310000 -1.61190000
-1.66970000 0.12530000 -1.58170000
-1.64090000 0.12540000 -1.66740000
-1.57320000 0.17320000 -1.73860000
-1.60730000 0.12460000 -1.75250000
-1.54250000 0.17760000 -1.82530000
-1.50530000 0.17770000 -1.91180000
-1.45820000 0.16930000 -1.99390000
-1.46770000 0.22180000 -1.89040000
-1.42350000 0.21590000 -1.97090000
-1.37280000 0.20540000 -2.04470000
-1.37980000 0.24840000 -1.94040000
-1.33370000 0.24340000 -2.01200000
-1.28340000 0.23720000 -2.07780000
-1.28950000 0.27170000 -1.97360000
-1.24020000 0.26170000 -2.03690000
-1.19250000 0.26390000 -2.10280000
-1.19550000 0.28350000 -1.99580000
-1.15060000 0.28860000 -2.06190000
-1.10370000 0.29230000 -2.12680000
-1.11220000 0.32230000 -2.02530000
-1.06660000 0.32360000 -2.08860000
-1.01850000 0.32680000 -2.15590000
-1.03210000 0.36320000 -2.05770000
-0.98470000 0.36200000 -2.12310000
-0.92840000 0.35740000 -2.18300000
-0.94460000 0.38580000 -2.09020000
-0.89220000 0.38360000 -2.14700000
-0.83530000 0.38800000 -2.20210000
-0.86840000 0.36230000 -2.24020000
-0.77260000 0.39140000 -2.25270000
-0.80440000 0.36890000 -2.29310000
-0.70590000 0.40110000 -2.29810000
-0.73370000 0.37500000 -2.34000000
-0.63310000 0.40130000 -2.33510000
-0.65800000 0.37980000 -2.38030000
-0.55640000 0.40040000 -2.36470000
-0.47930000 0.40570000 -2.38900000
-0.53500000 0.41240000 -2.31370000
-0.46190000 0.41860000 -2.33570000
-0.38750000 0.42320000 -2.35160000
-0.41040000 0.42670000 -2.28780000
-0.30400000 0.43530000 -2.30490000
-0.39750000 0.43280000 -2.23220000
-0.29480000 0.44960000 -2.20240000
-0.23140000 0.46630000 -2.11490000
-0.14140000 0.47030000 -2.09550000
-0.13740000 0.48950000 -1.97010000
-0.08180000 0.50570000 -1.86900000
-0.00830000 0.52200000 -1.76180000
0.08380000 0.51940000 -1.77210000
0.04460000 0.53090000 -1.68600000
0.12690000 0.52700000 -1.67820000
0.07280000 0.54430000 -1.56610000
0.03110000 0.55830000 -1.46880000
-0.00970000 0.56510000 -1.38970000
-0.08850000 0.56060000 -1.42480000
-0.13470000 0.56450000 -1.36070000
-0.15740000 0.57160000 -1.27830000
-0.18490000 0.56120000 -1.37110000
-0.22250000 0.56090000 -1.33460000
-0.24580000 0.56260000 -1.25200000
-0.31780000 0.55600000 -1.19380000
-0.36710000 0.54590000 -1.27570000
-0.44690000 0.54110000 -1.20430000
-0.45250000 0.54560000 -1.13250000
-0.51030000 0.53830000 -1.14380000
-0.53040000 0.53780000 -1.07470000
-0.62370000 0.52440000 -1.07770000
-0.64510000 0.52060000 -0.99220000
-0.73280000 0.50940000 -1.02230000
-0.75780000 0.50610000 -0.88680000
-0.77870000 0.50370000 -0.95210000
-0.84960000 0.49550000 -0.89870000
-0.86120000 0.49550000 -0.80480000
-0.91890000 0.48560000 -0.84330000
-0.92830000 0.48490000 -0.74740000
-0.98690000 0.47440000 -0.78580000
-0.99500000 0.47760000 -0.68820000
-1.04880000 0.46590000 -0.79210000
-1.05650000 0.46870000 -0.69300000
-1.06030000 0.47370000 -0.62630000
-1.14940000 0.44850000 -0.64780000
-1.24290000 0.42940000 -0.56500000
-1.24400000 0.43060000 -0.49530000
-1.24670000 0.43350000 -0.42600000
-1.29990000 0.40270000 -0.49510000
-1.30490000 0.41010000 -0.42620000
-1.30630000 0.40690000 -0.35670000
-1.36180000 0.38220000 -0.42530000
-1.36450000 0.38260000 -0.35580000
-1.36700000 0.38160000 -0.28620000
-1.42160000 0.35460000 -0.35390000
-1.45460000 0.34450000 -0.28270000
-1.42900000 0.35990000 -0.21420000
-1.48680000 0.33370000 -0.21080000
-1.54370000 0.30380000 -0.17130000
-1.61160000 0.26270000 -0.16540000
-1.62530000 0.25280000 -0.01970000
-1.70410000 0.20220000 0.08220000
-1.75160000 0.16320000 0.14630000
-1.74820000 0.16060000 0.25960000
-1.79220000 0.11780000 0.19330000
-1.78110000 0.11150000 0.30810000
-1.82440000 0.03190000 0.27950000
-1.81010000 0.02540000 0.39370000
-1.81080000 -0.00720000 0.50960000
-1.84620000 -0.05790000 0.43840000
-1.87130000 -0.11180000 0.40230000
-1.88240000 -0.16960000 0.40300000
-1.86860000 -0.17650000 0.51950000
-1.87480000 -0.23030000 0.44150000
-1.86580000 -0.23500000 0.51980000
-1.85240000 -0.23820000 0.59760000
-1.84300000 -0.28920000 0.51720000
-1.85640000 -0.28600000 0.44040000
-1.88990000 -0.22320000 0.32560000
-1.87130000 -0.27890000 0.32510000
-1.90370000 -0.21690000 0.21000000
-1.88590000 -0.27300000 0.20940000
-1.91350000 -0.21060000 0.09330000
-1.89630000 -0.26610000 0.09260000
-1.92290000 -0.20370000 -0.02420000
-1.90730000 -0.25980000 -0.02510000
-1.92760000 -0.19590000 -0.14260000
-1.91320000 -0.25260000 -0.14280000
-1.93000000 -0.18960000 -0.26060000
-1.92760000 -0.13310000 -0.22070000
-1.92540000 -0.12670000 -0.38020000
-1.91100000 -0.06980000 -0.38010000
-1.90550000 -0.06420000 -0.54170000
-1.89880000 -0.05980000 -0.66240000
-1.88080000 -0.00500000 -0.62140000
-1.85270000 0.05150000 -0.65890000
-1.84040000 0.05490000 -0.77770000
-1.81170000 0.10830000 -0.77380000
-1.80200000 0.11290000 -0.89480000
-1.77320000 0.16220000 -0.85000000
-1.76240000 0.16550000 -0.97340000
-1.79740000 0.11650000 -0.97720000
-1.75230000 0.16490000 -1.05720000
-1.71100000 0.20230000 -1.01000000
-1.69530000 0.20460000 -1.13540000
-1.66140000 0.23410000 -1.00360000
-1.63720000 0.23690000 -1.16810000
-1.67930000 0.20660000 -1.22010000
-1.60020000 0.24160000 -1.33240000
-1.64910000 0.20930000 -1.34580000
-1.56840000 0.24730000 -1.45560000
-1.61590000 0.21330000 -1.47130000
-1.54300000 0.24760000 -1.53700000
-1.57630000 0.21320000 -1.59570000
-1.50090000 0.24800000 -1.65900000
-1.53180000 0.21370000 -1.72040000
-1.45650000 0.25260000 -1.78200000
-1.50260000 0.21980000 -1.80610000
-1.42160000 0.25250000 -1.86280000
-1.40760000 0.28040000 -1.75560000
-1.37310000 0.27960000 -1.83320000
-1.33410000 0.27770000 -1.90620000
-1.32460000 0.30720000 -1.80250000
-1.28670000 0.30490000 -1.87190000
-1.24180000 0.29250000 -1.93420000
-1.23830000 0.33050000 -1.83740000
-1.19680000 0.32230000 -1.89880000
-1.15410000 0.31820000 -1.96100000
-1.15430000 0.35930000 -1.86870000
-1.11620000 0.36040000 -1.93140000
-1.07700000 0.36460000 -1.99510000
-1.07070000 0.38860000 -1.90000000
-1.03300000 0.39370000 -1.96370000
-0.99120000 0.39360000 -2.02790000
-0.98430000 0.40820000 -1.93280000
-0.94490000 0.40780000 -1.99520000
-0.90110000 0.39960000 -2.05440000
-0.87470000 0.42100000 -1.94370000
-0.83610000 0.41320000 -1.99810000
-0.81270000 0.40250000 -2.06930000
-0.85220000 0.39560000 -2.10860000
-0.78030000 0.39940000 -2.14080000
-0.70640000 0.40930000 -2.16600000
-0.73810000 0.39950000 -2.20940000
-0.64640000 0.41580000 -2.20580000
-0.67600000 0.41790000 -2.25320000
-0.58260000 0.41460000 -2.23690000
-0.60680000 0.41060000 -2.28660000
-0.52080000 0.42030000 -2.23000000
-0.44530000 0.43670000 -2.15100000
-0.37860000 0.44990000 -2.12050000
-0.34820000 0.46670000 -2.03650000
-0.29100000 0.46890000 -2.06900000
-0.30170000 0.47860000 -1.97860000
-0.22300000 0.48630000 -1.96850000
-0.17420000 0.50660000 -1.84930000
-0.14220000 0.51960000 -1.78450000
-0.08830000 0.52180000 -1.77690000
-0.12320000 0.53540000 -1.69030000
-0.04480000 0.53560000 -1.67540000
-0.09250000 0.54550000 -1.59300000
0.00700000 0.54640000 -1.56940000
-0.05820000 0.55330000 -1.50860000
-0.14820000 0.55670000 -1.48320000
-0.19940000 0.55390000 -1.49310000
-0.33740000 0.54330000 -1.37210000
-0.48710000 0.52650000 -1.31500000
-0.60130000 0.52160000 -1.25190000
-0.63250000 0.52020000 -1.15390000
-0.71430000 0.51420000 -1.09510000
-0.75700000 0.50460000 -1.16520000
-0.80540000 0.50440000 -1.11290000
-0.89660000 0.48770000 -1.06630000
-0.91030000 0.48490000 -1.00380000
-0.93680000 0.48210000 -0.94280000
-1.00700000 0.46890000 -0.88660000
-1.02280000 0.46810000 -0.98840000
-1.10240000 0.44960000 -0.86480000
-1.11200000 0.45040000 -0.76450000
-1.16270000 0.43390000 -0.87210000
-1.17150000 0.43090000 -0.76930000
-1.17630000 0.43520000 -0.70090000
-1.23220000 0.41730000 -0.77350000
-1.23620000 0.41810000 -0.70380000
-1.24010000 0.42370000 -0.63450000
-1.29350000 0.39380000 -0.70540000
-1.29510000 0.39350000 -0.63450000
-1.29910000 0.40160000 -0.56490000
-1.35310000 0.36960000 -0.63490000
-1.35760000 0.37890000 -0.56450000
-1.35750000 0.37670000 -0.49440000
-1.41750000 0.35900000 -0.56400000
-1.41820000 0.35740000 -0.49340000
-1.41860000 0.35330000 -0.42370000
-1.47790000 0.33450000 -0.49190000
-1.47880000 0.33150000 -0.42160000
-1.48060000 0.33050000 -0.35150000
-1.53870000 0.30630000 -0.38390000
-1.54090000 0.30360000 -0.27770000
-1.59600000 0.27850000 -0.38160000
-1.62510000 0.25770000 -0.25430000
-1.70730000 0.20850000 -0.17580000
-1.70580000 0.20440000 -0.04700000
-1.75870000 0.17170000 -0.07830000
-1.75410000 0.16590000 0.03380000
-1.80110000 0.12700000 -0.03500000
-1.79660000 0.12220000 0.04100000
-1.79470000 0.11970000 0.11710000
-1.82560000 0.06900000 0.08500000
-1.81850000 0.06330000 0.20020000
-1.84960000 0.01360000 0.10850000
-1.86870000 -0.04540000 0.20790000
-1.86560000 -0.04790000 0.28560000
-1.85640000 -0.05280000 0.36230000
-1.88540000 -0.10430000 0.28670000
-1.89680000 -0.16220000 0.28690000
-1.89160000 -0.10030000 0.20890000
-1.90780000 -0.15620000 0.17070000
-1.89850000 -0.09480000 0.09290000
-1.91650000 -0.15020000 0.05430000
-1.90630000 -0.08610000 -0.06260000
-1.92240000 -0.14290000 -0.06290000
-1.91250000 -0.07820000 -0.18040000
-1.91340000 -0.07410000 -0.26000000
-1.88850000 -0.02600000 -0.14130000
