95.70033300 45.26863100 -0.69237600
-88.49443100 24.31300000 1.25439500
-35.69134100 29.79180900 -3.66503900
-53.66284200 21.96727000 -3.84674100
-29.81196000 -11.04912000 -3.87847900
-41.33937100 63.63356000 1.58026100
10.76572000 91.47605900 1.74560500
68.45491000 -73.39376100 1.58770800
-106.78710200 -5.94902800 0.88250700
75.52371200 56.29568100 1.83654800
11.90315000 2.69475000 1.70599400
3.65187800 98.87313100 1.64190700
-67.90926400 -31.06468000 1.12487800
56.58628800 12.77979000 -3.28930700
31.05875000 100.82460000 -3.04418900
75.19872300 -66.71291400 1.52087400
29.60279100 0.31295000 1.83947800
-12.33566000 -4.57121700 -0.84352400
99.69033100 34.78566000 -3.03851300
101.29350300 10.51852000 -3.20404100
33.02711100 51.99763900 2.01007100
29.16777000 1.53422900 1.77056900
-15.25037000 54.30434000 -3.54980500
-82.81913800 66.93383800 0.57055700
-23.20104000 30.00861000 1.77850300
-22.72014000 44.77917900 -3.47296100
-89.66560400 -55.45694000 0.51849400
8.14999200 103.05380200 -3.56115700
-25.81459000 -36.32738900 1.50775100
-81.89553800 67.88484200 -1.76904300
-98.93357100 40.27092000 -0.93151900
-87.31433100 -61.84994100 0.44635000
-83.35491900 -10.94891000 1.21698000
4.00585400 103.45829800 -3.54644800
55.78418000 -91.50952100 0.62994400
-100.59429900 35.79457900 0.33020000
61.46374900 -20.67417000 1.84124800
-59.87353900 -89.26423600 -0.55578600
-69.23560300 34.85152100 1.43981900
-10.87363000 42.40531200 -3.58490000
30.19327900 15.44712000 1.71966600
-101.46060200 -29.34164000 0.80828900
-42.56472000 16.65403900 -3.89428700
56.60189100 82.90712700 -3.27600100
-82.04379300 67.56194300 -3.02801500
29.19742000 13.46711000 1.88537600
-29.86342000 38.78046000 1.78576700
-101.12860100 -34.98413100 0.57952900
-81.32450900 68.10411100 -3.52233900
-48.42309200 -9.39101000 1.49304200
95.84623000 12.89611000 -3.24945100
-8.32259900 -101.69760100 -3.04956100
-73.42233300 76.69502300 -0.76519800
-102.17639900 -30.88952100 0.78802500
-76.26384700 69.80695300 -2.85595700
18.68574000 13.02856000 1.91449000
-18.69418900 -102.56320200 -3.35940900
-66.96524800 82.29557800 -3.08538800
50.86196100 91.82618000 -3.42163100
-3.15727000 29.23967000 1.89001500
-8.54407300 104.99549900 -3.43689000
-58.45132800 -90.31060800 -1.49353000
-28.62482100 -39.63668800 1.43994100
-25.97427000 -103.63610100 -3.24361200
-4.77848800 -84.62225300 -3.35730000
12.48775000 30.74004900 -3.47937000
-9.11778500 105.18560000 -3.21588100
90.60411800 -56.31959900 -1.00439500
-85.21267700 63.45224000 -3.41156000
75.56320200 21.36343000 -3.29205300
8.78831500 -24.41035100 -3.61853000
0.09956200 -25.40092100 1.74963400
104.52590200 -19.01874000 0.84221600
-32.90491100 -0.09421200 1.70703100
-100.08650200 22.45575000 -4.11773700
67.60040300 13.94609000 -3.26464800
-3.08195900 -25.04858000 1.60644500
52.01123800 -20.25498000 -3.35504200
-102.01319900 24.61499000 -4.10150100
35.38602100 14.42480000 1.78595000
-10.18413000 55.94115100 -3.51629600
22.22849100 -3.68960600 1.81207300
-105.43009900 -2.80419500 0.95953400
-1.41419800 -26.16511900 1.62463400
44.09711800 95.29480700 -3.38458300
-10.20107000 14.52623000 -3.70941200
34.42594100 15.55090000 1.86517300
-65.93244200 -84.87226100 -2.82305900
10.21018000 6.53596000 1.57418000
34.41426800 13.38031000 1.80114700
30.77277900 31.76330000 -3.28118900
-63.73170100 -86.52687800 -2.69787600
-7.14328400 15.03959000 -3.69433600
36.14300900 36.85117000 1.89904800
1.01340500 -26.98893000 -3.64306600
-62.86098100 -87.11580700 -3.11798100
-56.70925900 42.70708800 -3.83868400
-40.85343200 3.75421500 1.58825700
-33.25577900 -52.37693000 1.27404800
32.33886000 -1.73211700 1.86871300
9.33741200 7.66226000 -0.77835000
-60.89033100 52.48669100 -3.82690400
-39.78961200 -71.84913600 1.14581300
35.41215100 -47.34664200 -3.57928500
-1.76307300 -33.19773900 1.59417700
-76.95520000 -18.85893100 1.13134800
9.28392400 7.55415700 0.98411700
79.84124000 -70.52587900 -3.04522700
11.34324000 59.67287100 -3.58227500
-28.70803100 56.35831100 1.70379600
12.09646000 -100.90930200 -2.97119100
-46.83396100 -7.44704800 1.36706500
27.47271000 69.52652700 1.95953400
-41.90132900 -94.90814200 0.90289300
-105.60700200 13.63253000 -4.07214400
-46.68700000 -43.62464100 1.23706100
-27.26217100 55.09220900 1.74469000
78.57083100 -47.23384100 1.45605500
-32.57177000 15.31228000 1.84997600
-44.12707900 -6.20816400 1.38684100
-24.07963000 -82.31147800 1.22772200
67.81722300 80.74881000 1.91870100
-104.73930400 14.09311000 -4.12286400
91.42500300 -16.71484900 1.60711700
-58.67837900 78.78759800 -3.79443400
-24.70719000 -74.59207200 1.33441200
-53.45875200 17.49200100 -3.83355700
-50.40683000 85.22728700 -3.78375200
-106.10949700 10.19231000 -3.86993400
92.76730300 49.93558900 1.65756700
-43.56926000 -54.32011000 1.18243400
-34.10221900 2.24425500 1.73327600
-100.25209800 -38.23086900 -1.72863800
-49.84135100 77.67106600 -3.75506600
63.43196900 48.55244100 -3.39740000
48.22642900 -1.01014300 1.86889600
48.40145100 25.75628100 -3.37060500
-100.18630200 -38.31885100 0.04461700
56.24647900 5.45088000 1.73754900
62.91082000 60.05680100 -3.40502900
-90.84668700 41.55942900 1.16302500
46.36103800 28.11899000 -3.40924100
2.96271400 -106.81720000 1.24263100
57.68672900 3.96285600 1.85845900
-55.85348900 -1.03296700 -3.95355200
-48.65687900 -95.92746700 -1.76422100
-48.21915100 -5.99696000 1.43560800
57.69018900 1.77414700 1.80279500
-2.19242800 -12.66735000 1.34114000
69.59398700 -64.21386000 -3.48773200
-4.89894200 -15.63174000 -3.75649500
95.86216700 -25.44741100 -3.33886700
-8.39959000 26.92783900 -3.50927700
65.02416200 -67.55983700 -3.52966300
-51.94511000 -94.17350000 -1.96978800
-93.53441600 -30.81912000 0.88690200
7.72065100 -107.05300100 0.09002300
65.93508900 -61.00265900 -3.52764900
-2.92359600 -12.78867000 -1.13429900
-41.99480100 49.08836000 -3.72180200
-98.86395300 23.39065900 0.91223100
-9.04049700 28.33939900 -3.50225800
63.92594900 -84.62003300 -3.31256100
-58.38818000 51.19855900 -3.78143300
-38.40118000 47.68494000 -3.66949500
-12.76287000 25.02677000 -3.51794400
72.06183600 -65.52993000 -3.49530000
-97.62499200 32.21612200 1.10797100
10.38029000 104.80509900 -3.32470700
-40.41614900 46.80830000 -3.73437500
49.05183000 -1.02795800 -3.40643300
75.57981900 -64.78484300 -3.44659400
76.80539700 45.05453900 -3.35662800
-22.25740100 -44.06544900 1.48193400
-8.59847300 -33.18663000 1.65698200
39.79496000 9.03612900 -3.46460000
9.14353800 -60.00547000 -3.46502700
61.62035000 77.04551700 -3.41021700
96.92990100 42.67569000 -0.88122600
87.93612700 -43.08317200 -3.41119400
-98.75856000 -14.83727000 1.02539100
7.26807200 31.83412900 1.97998000
24.69075000 13.43621000 1.82910200
97.08998900 42.34233100 0.51873800
50.27336100 11.43643000 1.84552000
93.34552800 19.91296000 1.66107200
14.85746000 5.16508200 -3.61716900
-90.47421300 48.12559100 -3.96905500
22.34059900 -103.24610100 -3.11724600
69.97891200 48.59598200 1.80896000
-82.32032800 -60.74816100 0.36090100
39.01368000 -47.22657000 1.68579100
-8.70335600 78.27850300 -3.64105200
-93.58831800 49.44670900 -3.91217000
-86.20358300 -54.79776000 0.38165300
-27.08896100 -102.97329700 0.98869900
-12.67656000 71.33531200 -3.66571000
-23.71661900 102.81230200 1.06184500
-14.71535000 54.62200900 1.73535200
26.28239100 -30.52452100 -3.53607200
-4.19937700 78.72821800 -3.65490700
-27.38283900 -103.71180000 0.72767400
-57.08803900 89.39566000 0.71374500
-7.03198600 87.13259900 -3.65496800
-58.59613000 -3.83771500 -3.99969500
47.37278000 9.56485700 -3.40161100
-23.31010100 -104.55560300 0.92055800
-1.80705800 -78.40426600 -3.34747300
4.65292500 88.25209800 -3.60827600
-105.69470200 13.28502000 1.05670200
-95.55333700 -47.62432900 0.49627700
27.61780000 35.77389900 -3.44793700
-0.45059200 99.18565400 -3.59179700
-1.28775600 -80.70864100 -3.41754200
-38.70291900 25.40799000 1.68237300
39.37731900 -91.95816000 -3.36926300
54.02465100 -92.54997300 -0.20435000
-25.35088000 12.02934000 -3.82257100
-24.12264100 103.13169900 -0.36739700
-43.91616100 68.14911700 1.45343000
-55.29853100 82.35472900 -3.79577600
-19.61915000 -51.96202100 -3.63153100
-5.57562600 -38.27664900 1.55737300
-33.25462000 -101.75370000 0.81304700
83.75160200 -55.09516100 1.52929700
54.70130200 -18.27259100 1.84393300
-90.51093300 -50.18619900 0.58654800
15.05282000 -19.08716000 1.73999000
49.03834900 64.28608700 1.98486300
98.89180800 37.30970000 -2.99523900
18.12471000 -18.56119900 1.83691400
87.18138900 -49.53612900 1.52270500
4.49122100 11.25721000 -0.62013700
-37.71474800 98.90476200 0.88745100
-23.14633900 -34.63435000 -3.68158000
52.84907200 -85.87573200 1.61761500
-38.84299900 98.24478100 -3.55035400
-104.35949700 -24.34791900 -1.63861100
1.63635000 12.08071000 -0.64405100
-88.35032700 45.77180900 1.20733600
45.21017800 40.17039900 -3.42218000
3.23038400 11.75107000 -0.74897700
-32.17887100 -102.40689800 0.52689700
6.21922800 -44.34389900 1.72784400
7.45526400 34.44778100 -3.50299100
-43.46060200 -92.69957700 0.77014200
5.60030700 78.85755200 -3.42218000
21.47393000 -53.61130900 -3.58575400
-103.82170100 -25.35849000 -3.81317100
38.58451100 98.11062600 1.64660600
5.06871100 24.87373000 1.99231000
20.93745000 -98.17440800 1.56988500
-9.48136100 -59.17326000 1.47955300
59.25363900 82.52384900 -3.41729700
-49.56787900 16.65097000 1.66833500
-62.09312100 86.18617200 0.39758300
-7.39930200 -60.85015900 1.45764200
23.48107900 -97.83209200 1.51373300
-26.75661100 -4.88568900 1.71008300
-49.34019900 19.76489100 1.53894000
-43.29402200 24.11742000 -3.88995400
72.03898600 13.83320000 1.61462400
43.29768000 -6.74491500 1.74926800
8.38217400 -58.20541000 -3.56475800
32.21622100 -13.13532000 1.85211200
67.03646900 -83.28449200 -1.14544700
16.01564000 19.35277900 -3.43933100
-17.26671000 56.20789000 -3.55731200
89.60652900 55.03477100 1.66020300
38.03025100 -27.78844100 1.87518300
67.76100900 -82.89997100 0.05523700
-36.06385000 81.49143200 -3.70837400
-9.93259800 105.23459600 1.24657800
90.81858100 54.30561800 1.29945200
-71.38799300 -73.44798300 0.40283200
16.08527900 -25.73210000 1.78045700
56.94755200 -53.28097200 -3.57012900
-47.09865200 -33.30810200 -3.85321000
105.10019700 -7.19554900 -3.06234600
-2.43581100 105.78350100 1.09942200
-17.05932000 -104.13659700 -3.32852900
-48.67409900 32.67372900 1.62713600
70.16198700 78.99050900 1.75390600
61.99459800 -51.36180100 -3.54675300
-15.07370000 -103.07109800 -3.34728000
-1.30361900 105.34929700 1.50031600
104.68389900 -17.05330100 1.23333000
16.27450900 -106.05580100 -1.13890000
84.70260600 -29.22608000 1.64099100
-59.55022000 -12.69552000 -3.85766600
-39.90058900 77.05687000 1.56744400
57.47242000 35.43777800 1.84838900
15.95341000 -106.07779700 0.09624800
-7.86421600 28.15218900 1.73950200
50.09296000 29.23889000 1.86816400
-56.54148900 14.23509000 1.59033200
38.37126200 -24.89661000 -3.60064700
104.63520100 -15.39705000 -2.98193400
-25.99592000 102.67140200 -1.90387000
-57.23370000 16.43654100 1.49444600
49.42649800 30.65122000 1.80914300
36.72290000 3.55450400 1.75665300
77.27539100 -74.05198700 1.06842000
0.13319500 -62.71025100 1.66925000
104.98930400 -15.85300000 -1.96617000
-57.73783100 11.55177000 -3.91430700
-49.00453900 65.38333100 -3.74926800
21.49292900 -81.63453700 -3.41436800
-47.53953900 3.54555500 1.66308600
15.33310000 -43.01675000 -3.54162600
-62.37469900 -67.86718800 0.82269300
89.44799800 11.90392000 1.66174300
34.09450900 -22.27029000 -3.52710000
-1.32674800 12.44305000 1.71122700
90.88932800 45.80725900 1.66778600
1.32384600 66.94642600 1.84814500
-56.80003000 89.32817800 -3.50695800
48.85321000 -7.99437900 1.72509800
8.50148600 -50.09814100 1.71856700
35.74163100 -28.55215100 1.86200000
61.80577100 -30.20528000 1.82812500
-17.75750000 -23.19337100 -3.71368400
-40.71921900 54.26723900 1.61547900
-36.86555900 -22.33554100 1.40106200
-94.45778700 49.31655900 -2.64111300
-10.86814000 35.24139000 -3.61004600
11.20276000 -50.66326900 1.63006600
-15.08583000 -48.08332100 -3.68518100
18.18625100 -105.38259900 1.31438900
20.45673000 -28.18240000 1.75286900
7.87677000 -50.35046000 -3.51641800
47.84534100 94.39864300 0.18078600
-85.91195700 55.71001100 1.12048300
-15.59999000 -45.09431100 -3.71319600
-70.98253600 -31.73368100 -3.92779500
39.35376000 53.14049900 1.84393300
65.69920300 78.10420200 1.92010500
46.32300900 95.17063100 1.17852800
69.50187700 -19.74139000 -3.43750000
-16.34362000 -105.25009900 -3.19820000
97.07917000 -38.61391100 -3.33166300
-31.65529100 -10.79029000 1.53515600
30.80691900 -102.40229800 -2.64164300
65.67912300 -13.70075000 -3.44525100
-83.54345700 61.70645900 1.17071500
24.97270000 28.85948000 1.95190400
7.21492400 105.52390300 0.87939500
-28.76479000 16.99865000 1.92602500
0.93763900 80.17976400 -3.62377900
26.29548100 28.03038000 1.86895800
5.37448600 105.17680400 1.47943100
-39.69134100 -90.39629400 -3.34564200
26.81204000 32.59231900 1.90118400
-78.60607900 55.42985200 -3.87188700
15.94058000 -25.71495100 -3.54730200
42.60932900 -9.30958200 1.78808600
-56.76096000 10.29747000 1.55877700
28.29224000 34.03881100 1.92358400
-55.89238000 90.38617700 -0.59912100
30.86366100 25.88648000 -3.32251000
73.66284200 -77.04326600 -3.13507100
-59.83427000 8.55639300 1.38507100
42.18970100 -15.67343000 -3.55938700
27.85856100 32.95245000 1.85589600
-4.29079200 -66.63490300 1.50396700
58.57627100 65.32399700 -3.40966800
-106.00700400 1.57615300 1.01770000
15.58569000 47.71289800 -3.52526900
55.92668200 67.96531700 -3.46173100
6.30492100 105.67669700 -0.10272200
37.51860000 45.34402100 -3.25506600
-60.62033100 -64.95320100 0.84912100
60.86574900 72.24648300 -3.41217000
15.24181000 49.03467900 -3.45129400
40.70822900 35.23658000 1.93689000
-39.13898100 54.99754000 -3.71179200
-52.09730100 92.60440100 0.35821500
12.37013000 47.74433900 -3.38952600
-7.19424800 105.46810200 1.14597900
-12.82524000 -105.91970100 1.07239700
67.94843300 -58.32566100 1.68701200
-41.74602900 58.18674900 -3.71795700
-1.91933100 -103.28830000 1.33422900
24.99436000 -104.40309900 0.19137800
105.83460200 8.04433700 1.32036800
-35.56174100 86.26802100 -3.75305200
-85.46394300 -64.24420900 0.32812500
94.07512700 -49.84717200 1.24047900
12.22892000 -105.74949600 -3.01029900
82.08970600 -40.03352000 -3.33844000
-106.68840000 -6.59480300 -3.35229500
93.98027000 -50.22633000 0.65701000
27.81236100 -9.98915500 -3.49285900
67.69154400 -81.99846600 1.51196300
-102.00579800 29.45521900 -3.97503700
-106.46589700 -6.12978400 -3.88940400
-92.22409100 45.24309200 1.12152100
-67.61110700 56.16161000 -3.82196000
66.03720100 -81.85771200 1.58007800
-94.38760400 49.68761100 0.32360800
33.71410000 -15.58860000 1.85913100
-65.34723700 59.42752800 -3.71514900
55.48662900 -50.86735900 1.79827900
-93.90309100 50.65869900 -0.95544400
40.78809000 0.35768900 1.86450200
-60.64009100 60.65910000 -3.78253200
60.42826800 -83.37188700 1.56140100
-102.83730300 -2.66265900 -4.11377000
26.28984100 102.43479900 1.56378200
-24.67156000 -18.05829000 1.54431200
-60.29119900 55.21662100 -3.77899200
-55.70212900 -37.93986100 -3.67614700
58.66191900 -85.79286200 1.60711700
97.89959700 -41.43185000 0.60163500
86.47688300 11.37722000 -3.28503400
24.48010100 -43.53150900 1.76165800
-93.07463800 43.72954900 1.18176300
82.95538300 64.29089400 -3.19781500
23.12339000 66.30500800 -3.54400600
9.66355100 29.19524000 -3.44354200
49.49906900 57.57846100 1.97149700
19.14723000 56.34748100 1.81347700
97.37457300 -0.42604100 1.60296600
8.43065500 27.86566000 -3.40289300
18.42651000 68.45004300 -3.56048600
-58.83354900 19.65949100 1.51446500
31.59721000 48.48870100 1.97302200
15.51618000 40.81008100 2.02417000
6.09497300 29.59989000 -3.35723900
-8.31620900 9.54191700 -3.29470300
30.59569000 46.23693800 1.91180400
-59.29784000 -2.27504300 -3.94732700
15.59571000 55.89450100 1.95959500
45.71209000 -38.71189900 1.80011000
32.20537200 46.64440900 1.99603300
26.85926100 41.07199900 -3.36212200
-40.96730000 -22.34149900 -3.88836700
39.55662200 -30.34379000 -3.41558800
-19.80857100 55.28939100 1.73425300
91.85273700 -27.11257900 1.58429000
-85.06089800 -64.82666800 -3.66455100
-40.17972200 5.09664900 1.72033700
-18.49921000 54.15919100 1.78595000
73.22535700 -74.92546800 1.53778100
37.54024900 -100.47570000 1.14097100
-13.09474000 15.90013000 1.86895800
29.79904000 -59.97209900 1.68536400
8.87734200 -106.99829900 -0.64816900
-29.15562100 27.81197900 -3.63360600
-37.88114200 16.77668000 -3.73297100
59.49969900 13.50426000 -3.29815700
39.42433200 -14.06670000 1.86096200
-45.68909100 -18.51137900 1.36187700
57.18228900 -14.32336000 1.81939700
60.79616200 19.20412100 -3.33032200
-8.79393000 -42.73103000 -3.60553000
100.44480100 -30.88888900 1.30101200
82.76425900 66.06587200 0.57244900
-52.98614900 -60.60570900 -3.62469500
42.87305800 84.27493300 -3.45550500
-101.87780000 -27.02074100 -4.01495400
32.89516100 4.34773300 -3.52490200
38.77864100 -21.22521000 1.86731000
-102.32620200 -30.20360900 -3.97790500
-32.89876900 14.34104000 -3.75720200
-1.01279800 -106.70490300 -3.11528900
43.34190000 80.58348800 -3.49346900
10.55020000 -7.08319700 -2.32937800
34.02779000 -23.88065900 1.75579800
1.99651400 -107.14389800 -2.98636100
-63.15306100 -25.25931900 1.10687300
79.64373000 69.49403400 1.42602500
-98.37299300 37.37863900 -4.01190200
-42.76825000 -11.62195000 -3.93145800
-25.93956900 -100.21199800 1.08611600
79.93392900 69.45310200 0.74609400
45.28438900 83.92822300 -3.49041700
28.63108100 -102.97080200 1.48533300
-100.84580200 33.12197100 -4.01532000
40.84759900 5.09422300 -3.35278300
-3.59036400 -12.74576000 1.62823900
54.68586000 10.07353000 1.84973100
41.37184100 43.17424000 1.78595000
30.61185100 -102.44860100 1.45568200
19.20929000 -31.16906000 -3.67993200
-9.37712500 55.64093000 1.79309100
31.63710000 -102.38400300 1.23047700
-106.84010300 -8.32896400 0.21508800
-17.50021000 -55.15794000 1.49749800
-11.77226000 60.61867100 -3.63855000
88.90807300 57.06628000 -2.47924800
-71.78986400 78.11669900 -0.51928700
-12.66732000 -2.36043600 1.10234700
24.46100000 -39.37902800 -3.62719700
-49.30997800 18.73687900 -3.91595500
-34.36539800 54.79016900 -3.65094000
-42.50354000 11.51949000 -3.82843000
-59.61201900 -26.82354000 -3.92327900
-29.84243000 44.71218900 -3.51532000
-5.51027100 105.23680100 1.42414000
53.59354000 16.49877000 1.83758500
-7.41862900 101.73750300 -3.59161400
-25.14263900 19.03022000 -3.77697800
-29.16004900 98.76345100 1.42732900
-18.82658000 -38.52648200 1.48748800
-18.84390100 -105.76380200 -1.63774600
-12.07668000 5.08427400 1.64017300
29.11986000 88.85444600 -3.52020300
11.39848000 95.12278700 -3.60968000
-69.81286600 78.80700700 -3.80743400
-52.58150900 92.00737000 1.02429200
-77.01537300 72.70262100 -3.57440200
-12.20878000 4.08269500 1.28207900
98.90529600 -38.69125000 -1.84583300
7.52464400 92.20208700 -3.59820600
51.11368200 -29.31866100 1.86712600
-12.75605000 2.84733200 1.55440200
-45.77716100 29.46301100 -3.85620100
3.44458700 -41.30831100 -3.65399200
4.51467800 92.40892000 -3.40161100
57.24541100 3.13076000 -3.35058600
12.92502000 -42.14952900 -3.68658400
-39.66869000 96.37310000 1.40747100
-26.22855000 -62.78768900 1.33789100
-7.46079300 -28.99683000 1.58441200
26.96523100 101.57569900 1.69561800
68.88136300 80.24659700 1.28991700
11.70223000 -16.14341000 -3.65704300
105.88900000 -8.64185100 0.91354900
-27.42882900 -61.13705100 1.21563700
-10.62291000 -28.94527100 -3.66204800
21.20980100 -100.01090200 -3.01483200
92.55494700 51.23701900 1.38387600
6.41627100 -46.70507000 -3.67425500
-51.17488900 -93.80512200 0.66717500
-37.88877900 11.70699000 1.78747600
46.79468900 60.15811200 -3.48730500
31.08566100 -97.21649900 1.40777600
-97.01262700 44.19165000 0.54339600
45.40362200 62.60004000 -3.46276900
21.07068100 -105.00540200 1.41722500
-38.82434100 8.33980200 1.70025600
-36.03179900 0.56546000 1.56384300
-39.94731900 -97.48954800 -3.46691900
20.50486000 20.22295000 -3.49762000
23.68383000 -104.66410100 1.01733100
-20.08676900 23.32040000 -3.72961400
-35.23579000 -53.14030100 1.27948000
-20.42025000 -1.68079400 1.77215600
-97.26497700 30.07588000 0.97552500
75.24524700 68.03648400 -3.29284700
-39.44014000 10.92556000 1.65448000
44.95122900 -28.22345900 -3.56311000
-89.06865700 -10.96695000 1.15130600
-60.73312000 -6.65960700 1.31677200
-42.87337100 -45.62746000 1.26019300
-37.48691200 -100.63279700 0.66143600
-36.48410000 8.55135000 1.63586400
2.57262600 -13.09513000 -3.36724500
-83.06183600 -39.19353100 -3.72125200
83.23877700 -34.67982900 1.64666700
-55.76675000 -0.15274800 1.44171100
-38.12141000 9.88366700 1.57305900
-84.10130300 -40.26556000 -3.87109400
-24.28787000 3.97205400 -3.84265100
-52.65671900 -66.00267000 0.97906500
55.47713900 90.12299300 1.12146000
-1.03747700 -41.88214100 1.56988500
-76.54042100 -73.82380700 -3.53015100
-57.90749000 -66.78642300 0.91113300
48.88597900 6.83305400 -3.30395500
-87.02427700 26.42053000 -4.07006800
-1.96143900 -39.23812100 1.60284400
105.26270300 11.84465000 1.36950700
-47.38882100 -24.25518000 -3.90814200
50.59709200 4.74015800 -3.30175800
24.06743000 -55.53039200 -3.49810800
-59.02664900 -57.98677100 0.94561800
57.93384200 -9.55104100 1.85565200
4.26661700 -103.16680100 1.39233400
-97.48851000 -38.45138900 -3.93536400
26.54801000 -54.46693000 -3.45123300
10.52280000 41.92594100 -3.37030000
67.94201700 -82.26281000 -2.97003200
60.27428100 45.26762000 -3.41668700
-64.79303700 83.94978300 1.05535900
-102.44840200 -29.58683000 0.69317600
-22.88653900 53.77618000 -3.66894500
-104.34729800 13.37028000 0.98864700
70.29715000 78.91459700 -1.04156500
54.73191100 18.67637100 -3.33612100
3.41111500 -12.30809000 1.37846100
67.04995700 -82.15171800 -3.34423800
80.78600300 67.72245000 1.66284200
40.09513100 -2.99615300 -3.45971700
-22.88954000 50.98709100 -3.56854200
23.91820000 -22.24192000 -3.47656300
26.08200100 102.05789900 1.70422400
-91.14537000 54.94332100 0.78710900
-50.05252800 -14.30085000 1.39727800
23.22184000 -14.99461000 -3.48761000
66.13871800 81.43491400 -3.26611300
10.02239000 -48.09508100 1.52636700
-49.85464100 -12.68851000 1.35650600
4.39465200 11.81661000 -3.52754500
-5.93676900 11.01767000 -2.13121200
105.19960000 -9.03385400 1.45373000
98.11163300 23.65373000 -3.12384000
17.99597000 48.55448900 1.88726800
-4.94514900 11.38537000 -0.30061300
101.77670300 -9.39515700 1.49816900
-0.90287800 86.27020300 1.71826200
86.91346700 -61.79027900 -1.61981200
-80.85989400 68.12072800 -3.71783400
-63.55041900 -42.21931100 1.01763900
-102.97160300 -29.91865900 0.22827100
-96.37976100 -37.31530000 0.71044900
-1.66934800 57.14083900 -3.62548800
11.89481000 26.60399100 -3.35479700
-11.12548000 -6.84104500 1.35345500
-75.54171800 19.87878000 1.33221400
-0.27290800 -22.09618900 1.77087400
-25.78437000 2.41798800 1.77008100
18.85498000 81.55061300 -3.55908200
81.38545200 -69.20887000 0.78631600
-20.86441000 -20.51815000 1.63562000
27.96043000 -50.14799100 1.85656700
70.10195200 70.87534300 -3.19787600
18.75424000 -103.53900100 -3.15313900
16.59781100 25.65941000 -3.43939200
18.62476000 103.29160300 -3.51965300
66.89610300 47.43994100 1.86462400
-90.62915000 56.07484800 -1.09106400
82.15026100 -68.21685800 1.22631800
16.55710000 24.09900100 -3.37103300
2.34546700 -31.64867000 -3.72637900
-3.07555800 48.10937900 -3.43072500
-25.17499000 -26.41468000 -3.72570800
103.28790300 22.98444900 -2.82348600
-84.13423900 -66.71460700 -2.71917700
-19.31113100 -104.98439800 1.06292100
-27.13345900 -25.21257000 -3.70819100
18.33799000 -105.73300200 -0.74075500
-81.67662000 -44.31166100 0.73382600
-20.80349000 -104.90619700 1.04991100
105.83329800 -10.00113000 0.80267200
-20.42878000 -23.95607000 -3.83075000
37.22663100 28.89345000 -3.29119900
-21.95083000 -105.03749800 0.76427100
-84.24543800 -44.95764200 0.76599100
22.36932000 -104.41629800 -2.91903600
-37.13758100 -48.62537000 -3.55914300
-56.59537100 -7.71194800 1.32360800
-15.20249000 -13.68910000 1.70886200
-29.34450000 -18.57556900 -3.84802200
70.53082300 -49.57574800 1.70532200
61.58636900 85.71145600 -2.35833700
-11.13458000 75.97052800 1.72808800
-29.37048900 -103.29319800 0.60515400
-9.25621400 28.01664000 1.77887000
-35.27814900 50.44446900 1.68512000
-16.75068100 102.62770100 1.47561600
16.75226000 102.08789800 -3.54846200
-10.18676000 26.50565000 1.86200000
-24.12709000 69.19747200 1.70092800
-39.74103200 50.68133200 1.65539600
-24.31409100 8.11777900 -3.81842000
13.02634000 -87.22950700 1.60766600
61.39574800 56.96841000 1.93469200
15.11744000 -50.91553100 -3.47137500
85.15647900 61.20843100 1.73596200
2.58596100 12.01449000 -2.19841100
13.88798000 -91.08344300 1.60046400
-67.76013900 81.84381900 -1.46661400
59.44588100 -89.18161000 -0.43615700
63.16975000 55.33789800 1.91467300
-52.42828000 85.90560900 -3.62811300
61.09769100 -87.85975600 -1.37652600
-25.34936000 18.62412100 1.90777600
-5.61735700 71.37452700 1.79467800
60.48728900 -88.48737300 -0.06378200
-15.93583000 -6.11938900 1.77356000
18.60355000 -93.66645100 1.59863300
-47.36494100 82.62534300 -3.78198200
41.07527900 -98.47368600 1.51002700
-106.14669800 -11.16470000 -3.82647700
-50.22810000 82.96594200 -3.75195300
21.05256100 -89.32414200 1.63867200
-29.51461000 14.01961000 1.67236300
56.07066000 87.77629100 1.91253700
-90.34062200 -32.63699000 0.86364700
9.45774500 -35.74565100 -3.69183300
-17.14403000 -91.26743300 1.11035200
-48.25717900 87.03373700 -3.72882100
-92.47090900 -40.07957100 0.66674800
54.32223900 89.66076700 1.85827600
44.50975000 -96.57621800 -3.28273100
100.20729800 18.99790000 -3.24505600
-28.89294100 12.15901000 1.76135300
56.46833000 -90.34690900 1.57318100
-99.56642900 4.49063100 1.12994400
104.05840300 15.45114000 -3.21317700
44.55003000 -94.39836100 -3.34674100
56.69884900 -90.81838200 1.09088100
-99.42418700 12.84687000 1.10675000
41.24379000 -94.28745300 -3.34686300
-13.04982000 -32.46212000 -3.65454100
31.96270000 24.86615000 1.92895500
-100.28610200 10.29601000 0.98468000
-65.01899700 -85.58869900 0.03875700
-10.03839000 -36.28350100 -3.67834500
31.65024000 93.68080100 1.79931600
64.33731800 -85.17404200 -2.82580600
-100.16770200 7.56311800 1.08258100
45.49922900 -19.37277000 -3.35919200
-63.70122900 -86.63606300 -0.59021000
41.77372000 91.50895700 1.66662600
-64.22048200 60.69752900 -3.75512700
51.82357000 -93.71051800 1.10494500
72.21872700 -46.43272000 -3.48608400
-23.11722900 -94.61704300 -3.28729200
102.25379900 -0.82652900 1.55865500
-87.21124300 60.03738000 -3.82336400
67.73288700 81.38954200 0.85852100
-56.44606000 -71.85135700 -3.46740700
39.44636900 14.38332000 -3.42511000
-27.49279000 -95.73095700 -3.30981400
56.17298900 44.28974900 -3.40368700
-16.87306000 -12.30833000 1.67456100
-23.21460900 12.71926000 -3.80340600
-91.83580800 -55.06367900 0.19952400
49.15612000 44.94009000 -3.44323700
47.18048100 -14.15465000 -3.47741700
-35.53007900 -101.55799900 0.31231700
-41.93532900 51.04610100 -3.55029300
86.06768800 56.97467000 -3.29937700
-35.33055100 -7.83132600 1.54156500
4.96053400 13.19675000 1.92665700
48.13533000 -15.09658000 -3.40313700
-21.78943100 17.64485900 -3.65228300
-17.31184000 44.44997000 1.77014200
5.90236800 11.52070000 1.91692000
-39.52743100 74.65048200 1.36914100
-22.10094100 19.72528100 -3.64770500
45.61460100 -33.41928900 -3.45434600
-31.00783900 96.50662200 1.43035900
22.42931900 21.09493100 -3.37640400
-74.69579300 68.54914900 -3.15411400
0.12483600 -107.10160100 -2.90206000
-26.65646000 98.01764700 1.46099900
7.74126900 -17.37062100 -3.61114500
-28.58428000 97.54615000 1.51013200
-56.46527900 -80.91732800 0.80011000
10.09372000 44.89839200 -3.41680900
-95.70317100 47.25632100 0.10479700
98.18829300 39.56985100 0.99261500
59.37636900 -9.14369000 1.64648400
24.54291000 -45.59236100 1.72833300
-20.32718100 -39.03696800 1.40539600
-15.72706000 57.67557900 1.64221200
-72.19267300 59.27990000 -3.82830800
31.17275000 -21.28985000 -3.61224400
-12.24398000 19.25325000 -3.68292200
89.50451700 -57.45509000 -3.08551000
-25.18718000 6.30241000 1.79150400
70.19441200 -79.54099300 1.52612300
18.76275100 2.43079400 1.85913100
-14.08082000 20.70656000 -3.70599400
-43.51367200 92.06353800 1.37384000
99.25116700 24.95293000 1.57843000
9.92183500 -62.00917800 -3.58374000
-43.20653900 4.58707800 -3.85546900
99.34671000 -37.93561200 0.41343900
-15.99489000 18.74897000 1.81127900
-51.91619100 87.61602800 1.34588600
-0.66550400 100.73239900 1.41876200
-52.22258000 -27.35646100 -3.82452400
98.91253700 -38.79602100 1.05566800
57.00593900 -20.78845000 1.65637200
-104.83219900 16.68530100 -4.10064700
94.63215600 -2.46338500 -3.22174100
-53.73368100 -25.31246900 -3.91210900
57.34769100 -26.28136100 1.84515400
-56.85265000 87.63446000 -3.74969500
-12.09154000 4.15035900 0.51997100
-54.58134100 -24.13135000 -3.82922400
-86.31749700 -63.93560000 -1.76544200
-1.84295300 101.98930400 1.59149200
25.44150000 -101.10929900 1.56695600
-60.46249000 86.88094300 -3.61773700
-92.81687900 -52.95317800 0.51019300
2.61710300 -31.25399000 1.74444600
2.04486000 104.25409700 1.52807600
24.47917900 -103.78910100 1.52732700
34.59402800 84.24622300 -3.53741500
-49.72578000 7.90304200 -3.86236600
-85.19782300 -65.28833800 0.20208700
-25.21629000 -32.76503000 1.51721200
-33.14542000 34.70085100 1.75207500
37.64675900 83.93063400 -3.55273400
-15.49303000 104.43139600 1.07080100
-40.98622100 97.32652300 1.32922400
-9.94141400 37.35863900 -3.44763200
-15.48486000 104.73780100 0.53215600
-31.49892000 35.96517900 1.68359400
36.24200100 83.86208300 -3.45806900
70.25495100 36.63901900 1.72601300
-15.92914000 104.69249700 -1.20204900
-9.76759900 47.99828000 -3.46923800
-25.19978000 -34.25207900 1.42572000
36.31074100 81.53574400 -3.52758800
-23.87828100 -44.84624900 -3.67340100
-100.95480300 16.78539100 1.02227800
-29.48073000 53.96630100 -3.65606700
-14.41433000 -40.74475100 -3.74212600
-45.14600000 -26.43176100 1.35235600
-25.29161100 55.39614900 1.64599600
38.96283000 24.18654100 1.79516600
-19.16486000 -56.34769100 1.48156700
-45.96377900 -28.14827900 1.23754900
-21.80876000 57.00949900 1.74279800
40.52978900 22.97942900 1.72723400
29.90740000 -90.14914700 -3.38324000
-83.83062700 -35.00048100 -3.90966800
-40.76116200 94.65760800 -3.71545400
15.42511000 100.29360200 1.61242700
94.93079400 -9.62600300 1.40991200
-30.21303000 -7.28706000 -3.86169400
5.65900300 76.28482100 -3.61511200
18.40516100 98.49980900 1.52197300
-86.51969900 38.32923900 1.23577900
69.25042000 11.34702000 -3.30847200
-76.52475700 73.26064300 1.06689500
-87.19979900 37.14632000 1.07623300
-52.68275100 -87.46087600 0.66503900
68.06980900 5.86657900 -3.28155500
-102.82820100 5.28199400 1.04089400
-79.36515000 70.41380300 -3.48181200
-32.70069900 -7.18661100 1.65478500
66.32028200 7.20887400 -3.30432100
104.79509700 -17.69751000 0.13276900
-77.70851900 69.38030200 -3.55395500
-73.55452000 67.05541200 1.23590100
18.88912000 -62.85889100 -3.56500200
27.34810100 -35.97879000 1.85443100
-54.90462900 22.06333000 1.51861600
100.91680100 32.17944000 1.29083300
-50.38346900 3.39764400 1.43719500
21.75507000 -9.09545900 1.82574500
-53.33110000 25.70015000 1.54815700
-36.44257000 6.84380300 1.72717300
-50.71781900 1.32553100 1.57537800
-28.07972000 91.37925700 -3.71020500
-71.70010400 -4.96073900 1.35034200
42.15776100 -94.74548300 1.61261000
-26.73823000 95.70152300 -3.67163100
-72.67775000 69.98303200 1.09198000
33.88238100 100.23940300 1.06231700
54.42046000 5.80228000 -3.35583500
-17.23255000 -22.10006000 -3.81146200
-48.18442900 94.64681200 0.47406000
46.97377000 74.10199000 1.85180700
-55.52859900 -56.71194800 -3.67401100
11.99015000 36.63396800 1.87170400
58.07577100 5.83336600 1.74511700
-105.82749900 14.24385000 -3.33917200
81.75769000 -8.64856900 1.69647200
-64.83305400 -62.27574900 -3.63324000
-8.45898400 91.39363900 -3.60351600
-65.58709700 -63.51551100 -3.52166700
-13.00754000 -24.62969000 1.56195100
-74.50720200 -51.20557000 0.78839100
83.14804100 -11.69465000 1.72119100
-5.04427300 91.83805800 -3.64624000
87.76899700 -60.73791900 0.40966800
-65.97798900 -65.52961700 -3.59008800
16.18829900 -21.40069000 1.80511500
-15.80962000 -33.77907200 -3.78912400
58.39564100 -11.54288000 -3.33215300
-0.31387500 -51.81462100 1.61035200
25.65134000 47.11652000 -3.48931900
1.97548700 48.22562000 -3.44061300
-106.18080100 -5.46717100 0.92791700
-29.59823000 10.77714000 -3.84484900
17.70412100 35.60351200 2.01165800
-106.45010400 10.57393000 -2.12280300
58.79983100 -16.88425100 -3.46453900
-43.31401100 -98.42311100 -2.31854200
-102.87709800 28.39572000 0.73407000
-22.64776000 24.51549900 1.91748000
20.19717000 40.89009900 2.01245100
41.91376900 -98.58891300 1.03115100
43.54032100 -51.70920200 -3.59759500
54.55625200 54.66320000 -3.33966100
-18.60578900 21.30925000 1.81048600
-69.48258200 -15.97493000 -3.97564700
82.96074700 -66.68540200 -3.19079600
-59.87496900 16.82802000 1.53533900
55.62719000 55.82057200 -3.42755100
-67.69164300 -28.07905000 1.14965800
-79.07018300 -27.88098000 1.04040500
-31.87628000 33.79044000 1.67962600
-27.45578000 -31.36220000 -3.71270800
-17.09653100 -100.66860200 1.01831100
53.14526000 59.07582900 -3.46331800
-22.24420900 22.90041900 1.79278600
-43.84405900 -24.08760100 -3.78460700
-12.70326000 26.50597000 -3.64294400
-66.26818800 82.89315800 0.75598100
-21.11268000 21.41861900 1.79888900
43.97768000 -74.49643700 1.74816900
25.46349000 5.49446500 1.80633500
-82.10530900 -22.87818900 1.06695600
65.05535900 -73.29789700 -3.48797600
11.47050000 104.93630200 -3.12841800
16.96948100 48.31507900 -3.43347200
50.68761800 -78.95667300 -3.49511700
-106.79129800 -8.89857900 0.73761000
49.36372000 51.10985900 1.97845500
-20.97219100 92.91953300 1.54956100
14.21791000 50.01956900 -3.54882800
54.53076200 -74.61907200 -3.51550300
57.70415900 50.25151100 1.90228300
14.08647000 -36.65229000 -3.53582800
-43.95172900 -4.47644000 1.48138400
27.64477000 -19.75950100 1.75708000
-26.81493000 90.07919300 1.57366900
19.59756100 20.22270000 1.94140600
-22.61626100 -31.45070100 1.53735400
76.93505100 -74.10166200 -1.50518800
-28.54743000 -0.43990700 -3.75500500
4.17387700 28.88843900 -3.40698200
4.64980100 -106.06240100 1.36106400
-57.30691900 -25.74416000 -3.91119400
16.48778000 12.31650000 -3.53686500
43.05815100 -76.88742100 -3.52172900
31.46760000 11.77353000 1.83197000
2.65244900 26.82435000 -3.46075400
-54.96440100 -26.19430000 -3.77972400
19.36911000 7.98807100 -3.45550500
-58.21717100 -83.68665300 -3.33508300
36.16434900 -63.21286000 -3.59320100
-3.18962500 12.04658000 1.36642600
-93.20121800 -52.02872100 -3.76525900
-67.92633100 -77.61032100 -3.49719200
-4.05564900 105.08950000 -3.48919700
-38.24644900 -8.36223600 -3.89910900
-4.18173500 11.70644000 0.84185200
34.20780900 30.96896000 -3.30682400
-91.93251000 -52.97937000 -3.78527800
-39.26408000 -7.22007400 -3.78967300
79.07586700 35.72895100 -3.32128900
7.31475900 33.48574100 1.85931400
-92.68457000 -53.48667900 -3.58892800
-36.75544000 -35.88069200 -3.72534200
-45.04674100 -7.27070200 -3.94439700
42.99448000 95.56214900 1.77740500
18.51816900 50.79150000 1.98352100
77.16622900 36.22679900 -3.34753400
-25.92408000 37.10380900 -3.67340100
-99.70366700 -31.97757000 -3.99096700
77.94161200 70.25855300 1.81445300
-8.99876400 99.71666000 1.39508100
43.25544000 96.26136800 1.62689200
70.48638900 78.94288600 0.87707500
5.81729100 40.94409200 1.89428700
-101.34960200 -32.69575100 -3.90301500
58.23608000 -0.82842600 -3.32067900
2.60591400 11.90354000 0.32536200
69.73033100 79.57961300 1.57598900
-29.54700100 -90.06355300 -3.16717500
55.31034100 -16.95484000 -3.44818100
-82.14823900 -8.22503300 1.20599400
53.31029900 -2.02885600 -3.35247800
101.82499700 -4.13192400 -3.18655900
-67.49362200 7.23762900 1.45697000
-79.77092700 -7.86830500 1.27575700
51.05789200 -5.15999400 -3.27832000
39.76981000 -37.72718800 1.86254900
-74.48554200 -9.53553000 1.31604000
11.41715000 -20.97954000 -3.69067400
38.34936100 38.75069000 -3.45495600
-67.83850900 0.78703300 1.41851800
-76.89369200 -9.85607900 1.29742400
41.92141000 -36.53828000 1.86334200
76.99289700 67.67048600 1.86328100
-73.83061200 48.76652100 -3.70202600
65.14647700 82.89235700 -2.71435500
71.83177900 -78.82546200 1.50756800
-74.28318000 41.12094900 1.35638400
23.32844000 103.18080100 1.34649700
16.64555900 -41.88533000 1.80059800
-64.22136700 -22.98522900 1.24810800
72.61737100 -77.90780600 1.44024700
23.33064100 103.18589800 -0.04223600
79.41680100 68.94088700 1.74029500
-92.05615200 34.01982900 1.22351100
-72.27424600 59.07041900 1.33001700
34.39012100 33.34787000 1.96514900
79.97395300 68.34390300 1.80413800
86.39370700 -61.80719000 1.32605000
75.13981600 -74.82530200 1.51416000
64.77998400 -15.33447000 1.66290300
-58.38480000 -21.34913100 -3.91558800
2.53962300 -66.66287200 1.51147500
15.57588000 104.19290200 1.63067600
19.91715000 -45.05833100 1.80920400
14.68086000 -34.29402200 1.80896000
41.37162000 -21.03793000 -3.56878700
10.97021000 105.29190100 -0.89099100
-68.33058900 54.32304000 1.41613800
-88.47492200 -48.21279100 -3.82232700
39.56584900 -23.60714000 -3.45306400
73.44600700 -76.27732800 1.53778100
11.97969000 105.17450000 0.51312300
-73.00530200 51.49530000 1.37017800
39.85541900 -25.64368100 -3.50293000
-21.00421900 15.46007000 1.84582500
-35.78844800 -101.31060000 -1.49546800
-71.44204700 46.36140800 1.40319800
12.84537000 104.88580300 1.53509500
-103.50029800 26.05455000 -3.21624800
-68.09252900 44.06314800 1.41485600
-68.63831300 -82.47599000 0.32159400
-22.13548100 14.63050000 1.78155500
-37.94121200 -99.98094900 -3.44244400
30.52615900 28.29698900 -3.25616500
10.19404000 21.86631000 -3.50103800
-64.15492200 54.91296000 1.39636200
-34.54314000 -99.85545300 -3.47973400
99.16597000 -34.84421900 1.31825800
-51.75008000 12.03025000 1.48834200
7.08848300 59.33007000 1.75482200
80.38403300 -69.77136200 1.46868900
9.27738200 -46.83488800 -3.55841100
22.94269900 -98.05387100 -3.09204100
19.43210000 36.98745000 -3.33917200
-72.83386200 -32.22942000 -3.83050500
101.64990200 -29.90897900 1.08805800
-74.32717900 -34.63702000 -3.93151900
-5.75985300 -57.49546100 -3.59985400
-28.10363000 18.79011000 1.77288800
80.64547700 -70.02282000 1.26757800
-94.72744800 39.99472000 -4.00561500
-5.36821600 -78.33027600 1.54034400
16.13207100 -54.11695900 1.74383500
23.71441100 -5.63073900 -3.59326200
-10.71895000 41.57378000 1.84783900
-30.21754100 101.04250300 1.39545800
-26.95262000 102.38189700 -0.05788000
84.42574300 7.08347100 1.72888200
78.89230300 -72.00813300 1.30810500
11.77594000 47.23519900 1.90631100
9.00041500 -106.62210100 -2.85950000
-27.52564000 101.16359700 1.43306400
71.40672300 -58.89376800 -3.51532000
82.68219000 9.49994500 1.71099900
9.98692300 46.57666000 1.93743900
64.69288600 41.21057900 1.84027100
21.02551100 -8.72371700 -3.55938700
-29.24331100 101.21440100 1.33812100
-13.74066000 2.15872000 1.79641000
-106.69290200 5.63895800 -3.31921400
-104.93160200 -12.89962000 0.94384800
-80.40551800 12.67553000 -4.11010700
7.50478500 19.92023100 -3.58471700
-86.77130100 -21.09235000 1.08398400
80.48745700 68.20655800 -2.70245400
-27.37783100 -7.98773600 1.65142800
-105.34300200 -11.09641000 0.91973900
-50.42657900 7.17881800 1.67596400
-24.31226000 -6.53093700 1.67511000
-89.79006200 -24.01329000 1.01483200
82.81809200 65.41155200 -2.86291500
-105.99539900 -13.41106000 0.75982700
10.59045000 6.27813500 -2.37909500
-25.43605000 -5.60723500 1.60205100
81.75276200 66.84317800 -2.27203400
-78.80522200 13.62611000 -3.88525400
98.39771300 37.64780000 -3.23913600
-12.36521000 -106.15529600 -3.12443200
76.65088700 -73.90406000 1.42016600
20.16168000 -105.39640000 -1.05309500
55.97156100 -86.23890700 -3.40570100
-10.10739000 -106.86609600 -2.52309000
-81.83773000 -69.61942300 -0.80273400
47.29985000 -47.48965800 1.67919900
-81.78125800 -69.56511700 -3.01831100
62.68275100 85.11694300 1.73291000
-9.69265400 -13.49931000 1.74865700
61.69292100 -85.29016100 -3.39666700
-80.97882800 -70.57646200 -2.37597700
74.00524900 -26.19045100 -3.45843500
92.39341700 -0.79241200 1.62365700
62.91585900 84.04086300 1.93060300
-32.80030100 -35.63007000 1.37371800
59.47711200 -86.21067000 -3.41510000
70.30918100 76.75618700 1.93609600
22.33618900 -34.58301900 -3.66845700
-20.43477100 88.72628800 -3.66778600
58.37812000 -57.60952000 1.59942600
-12.44596000 3.13514000 0.83427700
68.86630200 78.52118700 1.91784700
-8.97983000 46.25621000 1.77819800
2.08185900 34.12228000 -3.41754200
68.11097700 -74.68727900 -3.31726100
-37.79547900 -81.58027600 -3.42547600
14.33928000 -78.43137400 -3.45520000
8.76039100 18.71190100 1.92785600
72.29675300 -72.48159800 -3.48584000
4.96606600 -72.57971200 -3.49743700
55.86479200 -90.81221000 -3.21398900
21.99047100 48.79798100 -3.53106700
-100.53130300 35.35089100 -3.49054000
39.78477100 72.96734600 1.96533200
-45.90486900 -33.71382100 1.29919400
97.85423300 -25.53356900 1.30023200
56.38235100 -90.97480000 -1.53875700
-25.16655900 41.04409000 -3.70239300
-45.50297900 -35.26752900 1.24749800
-66.69936400 -82.17566700 -3.51300000
-1.04889300 -43.79721800 1.60516400
-95.12828800 -49.19817000 -3.32159400
67.67627700 -65.13623000 1.49890100
-43.07210900 2.62160900 1.59576400
7.95292000 -21.97615100 1.71582000
-33.29953000 -43.39754900 1.34027100
68.94798300 -63.05221200 1.66101100
100.93869800 22.47702000 -3.25256300
-38.01477100 26.69241900 1.58032200
-82.15222900 56.65214200 1.22509800
16.48041000 35.72613100 1.92114300
-37.62447000 24.54649000 1.62731900
-24.51162000 44.82621000 1.78717000
-35.12258900 40.87596100 1.61895800
-67.88025700 25.58371000 1.47137500
-83.80885300 57.00034000 1.00018300
-57.68713000 -86.09293400 0.73529100
106.18309800 0.27153600 1.12347400
46.57067100 -35.12904000 1.87347400
-83.36881300 54.57310100 1.20819100
-74.56498000 23.12332900 1.25360100
106.09660300 -2.29061100 1.17987100
73.24205800 29.57862100 -3.34680200
-81.98571800 51.50985000 1.25909400
-52.65557900 55.37776200 1.53393600
34.38213000 79.45200300 1.92108200
24.20710900 -0.48057200 1.76123000
-50.99222900 34.69289000 -3.84497100
-18.07477000 100.61019900 1.53795700
-55.16635900 -86.01232900 0.60571300
35.76318000 23.65483100 -3.28643800
-35.59819000 5.97721100 -3.89001500
-54.37450000 35.36069900 -3.82635500
-24.15829100 -42.27008100 -3.66546600
10.84937000 5.64928300 1.79015900
28.82539900 17.56185900 -3.35730000
62.72943100 -85.84252900 1.49658200
-20.58245100 99.70284300 1.52887000
-45.43336100 0.37601900 -3.92736800
-25.74184000 -35.77056900 -3.68090800
12.44475000 3.32739900 -3.55311000
78.35086100 71.28724700 1.01867700
86.26933300 44.33361100 -3.32226600
55.85919200 -11.98927000 1.86608900
21.21624900 96.69255800 -3.53149400
32.69825000 23.74642000 1.82543900
77.21991700 72.16111800 1.62127700
87.51998900 46.38470100 -3.28411900
54.02597000 -11.37679000 1.74273700
-22.60869000 51.17087900 1.67956500
0.53237000 -12.96990000 -1.13669000
-55.91122800 55.40634900 -3.71624800
-11.33179000 8.08769500 -3.74389100
19.02975100 -54.46912000 -3.65063500
86.93139600 49.37305800 -3.17132600
-10.83229000 -20.42456100 1.59967000
24.03307900 62.22456000 -3.56323200
72.42819200 77.10283700 1.23205600
56.25286100 -9.12977600 1.81939700
-9.20568300 -20.00178000 1.63256800
82.43241100 56.32402000 -3.16510000
26.58956000 60.83168000 -3.53820800
31.04324900 -14.70724000 1.87756300
-9.67748200 8.09128400 -2.83474900
-49.00011800 -34.19121900 -3.85113500
48.44908900 -91.22013900 1.59960900
-41.09964000 16.08142100 1.63970900
-54.76110800 90.90766900 0.88250700
41.78078800 -28.53227000 1.79364000
15.28097000 25.45281000 1.84405500
95.13147700 35.68941900 -3.27862500
-4.09161800 -12.35074000 1.28530900
-51.96677000 91.01651000 1.40435800
-30.69496900 60.93335000 1.69696000
-74.44978300 67.83067300 -3.51739500
23.73683000 4.62593500 1.88488800
-53.13760000 88.88950300 1.39355500
-43.08021900 77.52355200 -3.76232900
-26.06879000 61.67741000 1.67840600
-58.41075900 88.73631300 0.57495100
20.74959900 5.06359900 1.82116700
46.85506800 20.09738900 1.77667200
-31.65755100 -101.94129900 0.88729400
44.49092100 -11.13508000 1.86425800
-104.58390000 8.97367500 -4.15838600
-85.03383600 64.11094700 -0.68762200
-55.02767900 90.20715300 1.20813000
8.99921800 23.42561000 1.84112500
-42.33757000 17.16834100 1.72448700
-29.02368000 -62.29398000 -3.59216300
-106.10870400 7.76480100 -4.04235800
-85.40767700 63.68771000 0.31463600
-39.00112200 -100.06320200 -2.97973600
-59.53408800 -87.15603600 -3.50195300
58.38489200 88.19259600 1.57269300
9.01697300 26.16879100 1.89141800
-85.07685900 63.35585000 1.11315900
47.35855900 26.06195100 1.74566700
-56.86225100 -86.53560600 -3.50689700
-19.10894000 103.01349600 0.89935000
-37.01432000 -100.94879900 -1.37849100
48.71017800 23.24781000 1.77459700
91.76849400 52.47571900 1.48233600
7.98235100 28.14749900 1.85125700
-20.04921000 102.02120200 1.37639400
-13.52535000 -1.53586900 1.78104700
-84.38828300 64.15264900 1.07800300
-67.96404300 -82.79312100 -3.44116200
-103.39270000 23.49432900 -4.05639600
75.96884900 52.29000100 1.80761700
-10.37926000 -7.85791400 1.11865200
-37.33269900 -24.82795000 1.34448200
-66.27291100 -84.18692000 -3.31274400
20.82906000 7.33868800 1.89263900
-40.30225000 -24.55961000 1.43109100
75.88871000 73.84866300 0.51733400
-23.19115100 -104.96340200 0.06042000
-103.81060000 22.80373000 -4.07800300
-93.68541700 -52.36301000 -0.53381300
31.38121000 6.77745400 -3.37487800
-73.49852000 71.15715800 1.23852500
-36.03247800 99.40914900 -3.26556400
45.87318000 -20.17839100 1.77215600
-42.91529100 49.99459100 1.43151900
90.36802700 3.17810600 1.67401100
-14.09182000 104.79869800 1.03971000
-40.78673900 10.31943000 1.69885300
-27.10766000 16.43658100 1.60553000
34.57735100 6.22528600 -3.48864700
-104.87329900 -0.04892000 1.02130100
-40.03834900 -54.49092100 -3.57763700
21.24898900 15.18436000 -3.38586400
-62.72254900 -23.02862900 -3.75885000
-33.22898100 -3.66803000 -3.75848400
39.45782900 -95.45567300 1.52319300
5.35780400 77.42320300 1.79919400
-104.40039800 22.98225000 -2.04431200
-38.56845100 -34.88105000 -3.69061300
-77.24519300 -48.72773000 -3.79657000
28.20624000 97.72611200 -3.50170900
90.12081100 -42.51884100 -3.35235600
6.43079800 73.24817700 1.85296600
-91.88501700 51.75954100 -3.92993200
-95.95156900 -42.47095100 0.62402300
91.04371600 -39.63124100 -3.39068600
26.99041900 98.77837400 -3.54834000
-33.63037900 -10.96246000 1.60290500
104.75599700 6.60587100 -3.18826400
59.34175100 -34.80872000 1.81475800
12.71145000 80.40054300 1.80639600
-35.35965000 26.99604000 -3.72967500
-95.78986400 37.89432900 1.18713400
22.68357100 101.51439700 -3.50518800
-21.88913900 -1.52540600 -3.83715800
-19.30604000 -51.87836100 1.36932400
8.67111800 83.23188800 1.79364000
81.78344700 -68.79380800 -0.55108600
-97.59475700 -43.94821200 0.22766100
105.25769800 4.72596800 -3.16336500
-99.92091400 -7.48296700 -4.13684100
92.28011300 16.45363000 -3.07605000
-30.89271000 76.26979100 -3.69885300
-12.83738000 94.75029800 1.60595700
42.79573100 -43.81406000 1.70849600
-54.10039100 -71.21032700 -3.52423100
17.15247000 104.16449700 -2.76617400
-23.23852900 72.55336000 -3.70062300
-28.03576100 42.71711000 -3.65704300
34.80675100 -55.19800200 1.83679200
38.07286800 24.96764900 -3.23376500
-35.43801900 70.92706300 -3.74255400
-6.43643800 51.68732800 1.81890900
3.65136000 -12.16416000 0.78842700
19.07980000 -38.73580900 1.75036600
-26.48218000 68.08748600 -3.68768300
80.39254800 37.78625100 1.72845500
-73.55616000 -0.49413700 1.39862100
-34.25394100 -14.43998000 -3.79162600
-10.95647000 30.60133900 1.82946800
-28.41727100 73.52825900 -3.71722400
81.59133100 27.21861100 1.74444600
-7.72740700 -68.18386800 1.57220500
-47.57912800 -76.53529400 -3.47125200
19.62364000 58.22555900 1.99340800
-88.50676000 -4.72372400 1.18884300
-78.67343900 -24.06786900 1.14465300
-16.55283000 -78.53677400 1.41546600
-50.19429000 -74.53736100 -3.51678500
12.81215000 -106.42680400 0.75301000
81.47583800 24.80767100 1.68225100
47.57262000 32.28139100 -3.38604700
-43.25814100 -73.18049600 0.96270800
-19.34602900 -84.05834200 1.32763700
-45.10773100 -80.60559100 -3.26940900
78.38320900 25.14707000 1.73596200
-71.38861800 78.06076000 -3.67199700
-103.94380200 -25.19203900 0.70709200
44.94382900 35.62995900 -3.40472400
-22.57876000 -82.82984900 1.31585700
