0.31970000 0.44570000 -0.37540000
0.27760000 0.35050000 -0.29870000
0.24320000 0.76180000 -0.40580000
0.23310000 0.60530000 -0.44320000
0.34890000 0.76440000 -0.47330000
0.15630000 0.60620000 -0.38560000
0.32310000 0.60890000 -0.46310000
-0.70860000 -5.20990000 -0.64390000
-2.54340000 -2.25010000 -0.59370000
0.47350000 0.55740000 -0.35410000
-0.85510000 -5.24260000 -0.56280000
0.44620000 0.91540000 -0.45980000
-1.75170000 -0.87180000 -0.40980000
-1.82260000 -0.76340000 -0.32250000
-1.96550000 0.60360000 -0.33310000
-1.94630000 -2.15860000 -0.41820000
-2.10560000 -2.21880000 -0.39210000
-1.97950000 -2.47180000 -0.41200000
-2.17140000 -2.45280000 -0.37570000
-1.99010000 -0.66540000 -0.28810000
-1.83500000 0.89890000 -0.37590000
-1.89450000 0.96650000 -0.39300000
-1.97510000 -1.96710000 -0.40570000
0.24940000 0.84750000 -0.38980000
0.67980000 -1.93780000 -0.39370000
-2.02550000 -0.88220000 -0.29650000
-2.15940000 -2.11760000 -0.35920000
0.68960000 0.06390000 -0.38100000
0.60630000 0.14080000 -0.38630000
0.55390000 0.22120000 -0.33620000
0.67520000 0.27010000 -0.32170000
0.85040000 0.06920000 -0.40300000
0.92870000 0.35940000 -0.35690000
-2.30730000 -2.26750000 -0.34750000
-2.08780000 -1.88630000 -0.32100000
-2.28760000 -2.00050000 -0.32280000
-2.62090000 -1.43950000 -0.39910000
-2.41260000 -1.50560000 -0.39520000
-2.36700000 -1.32180000 -0.40690000
-2.69820000 -1.33410000 -0.38510000
-2.24120000 -1.72310000 -0.34290000
-2.31060000 -1.70710000 -0.38850000
-2.45600000 -2.14010000 -0.38150000
0.88120000 0.40940000 -0.29330000
0.12580000 -0.87670000 -0.38470000
-2.83530000 0.06550000 -0.33930000
-2.49240000 -1.94690000 -0.41680000
-2.33290000 -1.57290000 -0.41200000
-2.52310000 -1.70000000 -0.39480000
0.68750000 0.34430000 -0.26050000
0.76990000 0.69520000 -0.30950000
1.05030000 0.84970000 -0.42830000
0.80350000 0.74980000 -0.38030000
-2.39860000 -0.89480000 -0.30720000
0.57210000 0.60450000 -0.30490000
-1.85110000 -1.82750000 -0.38320000
0.53520000 0.51680000 -0.25940000
-1.94820000 -1.69720000 -0.30130000
-2.09920000 -1.61440000 -0.31930000
0.84290000 0.50310000 -0.26560000
0.86480000 0.66340000 -0.27840000
-0.53800000 -0.46910000 -0.32130000
0.54750000 0.43020000 -0.23840000
0.49160000 0.10490000 -0.32140000
0.51690000 0.01200000 -0.28160000
0.44190000 0.20140000 -0.29430000
-1.65390000 -2.11660000 -0.36540000
-1.87280000 -2.35130000 -0.40570000
0.43310000 0.28960000 -0.23540000
-1.74340000 -2.04100000 -0.40410000
0.37210000 0.05730000 -0.23300000
0.33290000 0.18430000 -0.22310000
-1.68010000 -2.24300000 -0.35960000
-1.68870000 -2.46600000 -0.41120000
-1.71490000 -1.84180000 -0.42670000
-1.84280000 -1.74870000 -0.33540000
-0.16610000 -0.74970000 -0.34840000
-0.13950000 -0.59710000 -0.32960000
0.01580000 -0.56920000 -0.31080000
-0.01500000 -0.50970000 -0.28670000
-0.02740000 -0.39440000 -0.29000000
-0.15670000 -0.39340000 -0.30400000
-0.24900000 -0.59830000 -0.36380000
-0.15690000 -0.06490000 -0.37070000
-0.02420000 -0.16200000 -0.30720000
0.06940000 -0.11890000 -0.23970000
-0.11330000 -0.27400000 -0.28980000
-0.25800000 -0.19200000 -0.28990000
-0.00680000 -0.21910000 -0.25550000
-0.07890000 -0.14180000 -0.34390000
-0.15210000 -0.15520000 -0.31440000
-0.35960000 -0.63620000 -0.41460000
-0.41840000 -0.60030000 -0.42480000
-0.34170000 -0.40330000 -0.36890000
-0.23330000 -0.42450000 -0.35020000
-1.89480000 -1.21550000 -0.41360000
-2.51040000 -3.25400000 -0.35860000
-1.91000000 -0.96560000 -0.38730000
-2.06160000 -1.20110000 -0.42150000
-0.30110000 -0.28820000 -0.31330000
-0.37480000 -0.16860000 -0.29720000
-2.13170000 -1.01520000 -0.31130000
-2.16610000 -1.13410000 -0.36690000
0.19030000 -0.68490000 -0.34670000
-2.13090000 -1.42140000 -0.39230000
0.28080000 -0.58660000 -0.26840000
0.09100000 -0.67670000 -0.35350000
0.19080000 -0.53700000 -0.32280000
0.10260000 -0.55740000 -0.33960000
0.09920000 -0.45130000 -0.27170000
0.21950000 -0.44770000 -0.27260000
-2.22460000 -3.30190000 -0.59160000
-2.61540000 -2.78440000 -0.59300000
0.03540000 -0.40190000 -0.21470000
-2.43260000 -1.15700000 -0.31150000
0.14140000 -0.18990000 -0.19930000
0.17530000 -0.34330000 -0.21300000
-1.88180000 -1.47440000 -0.30200000
-0.00320000 -0.32710000 -0.22660000
0.02900000 -0.24520000 -0.19600000
-2.60230000 -1.08250000 -0.29330000
-2.04790000 -2.91970000 -0.39760000
-2.29710000 -2.95240000 -0.41330000
-2.05290000 -2.70180000 -0.37890000
1.20090000 4.86960000 -0.80050000
1.60780000 4.67870000 -0.77540000
1.26820000 4.69200000 -0.70120000
1.28470000 6.47620000 0.29520000
1.45580000 6.40580000 0.28870000
1.30600000 6.42720000 0.17390000
-0.36510000 4.71460000 -0.29710000
-0.28210000 4.54390000 -0.35830000
-0.15070000 4.70990000 -0.32490000
-2.21270000 1.02000000 -0.37880000
1.07910000 6.49280000 0.22660000
-3.24870000 3.24070000 -0.58240000
-3.43070000 3.21420000 -0.60800000
-3.01950000 3.55370000 -0.59070000
-3.27950000 3.47200000 -0.67350000
1.01980000 6.55240000 0.35920000
-0.88470000 1.88760000 -0.70290000
1.05480000 6.55180000 0.43870000
-0.31910000 4.98010000 -0.35420000
0.00970000 4.79730000 -0.37880000
-0.23670000 5.01750000 -0.35160000
-2.38070000 1.13150000 -0.31180000
-0.13400000 4.79410000 -0.34170000
-0.35610000 4.86290000 -0.31740000
1.14580000 5.18110000 -0.75720000
1.72890000 4.93960000 -0.80250000
1.27020000 4.95940000 -0.81750000
-2.59580000 4.14660000 -0.74500000
-2.73470000 4.16750000 -0.76390000
-2.47530000 4.29610000 -0.76090000
1.56720000 6.37310000 0.28180000
1.38590000 6.46590000 0.42390000
-2.78570000 4.27770000 -0.72940000
-0.74390000 4.78970000 -0.26720000
-0.58510000 4.52420000 -0.31380000
0.54970000 3.31810000 -0.36350000
0.80420000 3.17790000 -0.36730000
0.63640000 3.50980000 -0.36510000
-2.89430000 4.09040000 -0.74610000
-2.79400000 3.99730000 -0.73690000
-2.53280000 5.57720000 0.22040000
-2.81310000 5.30140000 0.09130000
-2.65990000 5.21520000 0.08230000
1.41260000 6.52360000 0.51150000
-2.95410000 5.18240000 0.07630000
-2.83560000 5.41390000 0.17610000
-0.88820000 1.09040000 -0.38760000
-0.96700000 1.15450000 -0.42600000
-2.95300000 5.29360000 0.16410000
-3.28570000 3.66810000 -0.74280000
-2.90560000 3.97450000 -0.73520000
-3.06240000 3.81320000 -0.73760000
-3.10970000 3.99660000 -0.72630000
-2.77580000 5.53710000 0.27390000
-2.83020000 3.87870000 -0.67200000
-3.04120000 5.63050000 0.16060000
-2.32070000 5.74130000 -0.06210000
-2.84910000 5.57110000 0.06580000
1.13140000 6.56850000 0.51480000
-2.92250000 5.46500000 0.03030000
-3.28210000 5.44390000 0.19650000
0.93000000 5.30330000 -0.69260000
1.56100000 5.16340000 -0.73000000
1.11380000 5.35160000 -0.60830000
-0.59850000 4.96770000 -0.25650000
-2.38760000 1.38180000 -0.39450000
-2.50740000 1.42580000 -0.44290000
-2.50790000 1.33570000 -0.41110000
-2.39790000 1.53490000 -0.39620000
-2.51270000 1.51400000 -0.43850000
-2.96440000 4.17120000 -0.69160000
1.69310000 5.26130000 -0.60060000
-0.86340000 1.29800000 -0.37790000
-2.97500000 5.34600000 0.26020000
1.15920000 6.63360000 0.60070000
-2.34220000 1.60170000 -0.33620000
-2.49490000 1.65350000 -0.38160000
-1.68710000 1.22650000 -0.69030000
0.38030000 5.17910000 -0.77330000
-0.23200000 5.12490000 -0.77890000
-0.51550000 5.33370000 -0.68650000
1.64000000 6.54430000 0.55180000
0.42970000 5.30500000 -0.70950000
-0.25160000 5.37220000 -0.66460000
1.21800000 6.64290000 0.67980000
-2.83530000 4.36520000 -0.62240000
-2.24710000 1.69880000 -0.32600000
-2.23350000 1.45590000 -0.31570000
-2.09700000 1.63920000 -0.35490000
-2.42540000 1.28430000 -0.35190000
-2.32240000 1.44930000 -0.35800000
-2.45200000 4.97970000 -0.08800000
-2.36280000 4.85760000 -0.16490000
-2.31640000 4.93370000 -0.19120000
-2.38680000 5.16130000 -0.06640000
-2.31110000 1.32710000 -0.32000000
-2.32330000 1.22730000 -0.30680000
-3.52900000 3.35410000 -0.72130000
-2.49420000 5.12120000 -0.00310000
-2.57810000 5.04340000 -0.00180000
-0.75910000 1.54990000 -0.43520000
-1.16720000 1.86070000 -0.45160000
-0.96470000 1.58540000 -0.44780000
-0.86250000 1.71400000 -0.40760000
0.77700000 6.64990000 0.51580000
2.30680000 5.02170000 -0.70890000
-3.63880000 3.56290000 -0.71620000
-3.53550000 3.86090000 -0.64710000
-2.40140000 1.69030000 -0.34170000
1.95580000 5.14560000 -0.67930000
-1.00340000 1.42870000 -0.42040000
-0.82770000 1.39310000 -0.41340000
-2.39280000 5.32970000 0.06680000
-2.60070000 4.62680000 -0.14320000
-2.50540000 4.79860000 -0.10000000
0.68640000 6.71310000 0.59170000
-0.49520000 1.22640000 -0.44870000
-0.60480000 1.21080000 -0.42200000
-2.52820000 5.33640000 0.13080000
-0.61510000 1.38870000 -0.45240000
0.80250000 6.71530000 0.66950000
0.80000000 6.70250000 0.76220000
-0.45560000 1.38300000 -0.44170000
-2.90890000 1.07210000 -0.39400000
-2.63350000 1.06220000 -0.34140000
1.04080000 5.44920000 -0.56040000
1.90350000 5.44130000 -0.52960000
1.76610000 5.31480000 -0.56040000
-0.28760000 1.38710000 -0.38440000
-0.49620000 1.54900000 -0.35080000
-2.85310000 1.17650000 -0.33580000
-0.79710000 1.80220000 -0.34370000
1.21710000 6.62940000 0.73630000
1.10440000 6.62730000 0.81100000
-2.72780000 1.13910000 -0.31310000
-2.82540000 1.26600000 -0.30100000
-2.58120000 1.18100000 -0.30240000
-2.70480000 1.28060000 -0.31350000
-0.73780000 1.18510000 -0.35640000
-0.94760000 5.26980000 -0.67430000
-0.94810000 5.05510000 -0.75480000
0.88460000 6.64540000 0.84580000
-3.24680000 3.97760000 -0.67590000
-0.57940000 5.43850000 -0.56880000
-2.37140000 5.57980000 0.22900000
-2.55180000 1.25710000 -0.34180000
-0.55790000 1.08120000 -0.36720000
-3.33650000 4.03820000 -0.56470000
1.93310000 6.49960000 0.58190000
1.72300000 6.54270000 0.73160000
-2.15470000 5.57970000 0.18520000
-0.15250000 1.14710000 -0.45530000
1.43890000 6.59100000 0.76830000
-3.06580000 4.18710000 -0.59770000
-3.20800000 4.17640000 -0.54220000
-2.70120000 1.50710000 -0.40250000
-2.61630000 1.34550000 -0.39210000
-2.60610000 1.56210000 -0.42300000
-0.10580000 1.04240000 -0.43380000
-2.61430000 5.60940000 0.25770000
-2.72370000 1.40560000 -0.36170000
1.43410000 6.29690000 0.85310000
1.53650000 6.30790000 0.83040000
1.42180000 6.41890000 0.84810000
-3.62800000 4.08430000 -0.44140000
1.57120000 6.38760000 0.85770000
-3.48030000 4.16990000 -0.48110000
-2.87200000 5.57060000 0.35570000
-2.37440000 4.48550000 -0.74210000
0.11680000 1.12340000 -0.44760000
1.74420000 6.30680000 0.87490000
-2.58340000 1.71960000 -0.41860000
-2.70770000 1.68350000 -0.41040000
-2.65780000 4.49010000 -0.67880000
-3.07680000 5.27900000 0.27830000
-3.24420000 5.33090000 0.33210000
1.73640000 6.48740000 0.82570000
-2.96660000 5.58160000 0.45020000
-3.14230000 5.45100000 0.38080000
1.40970000 6.53900000 0.83340000
1.58340000 6.45360000 0.87200000
-1.13920000 5.59010000 -0.38790000
-0.37950000 5.65680000 -0.48410000
-0.41310000 5.54460000 -0.49780000
-2.83340000 1.43000000 -0.31310000
-1.35830000 4.26370000 -0.35370000
-1.40150000 4.36870000 -0.36760000
-1.64440000 4.40130000 -0.30710000
-0.62790000 5.75540000 -0.43280000
-0.01230000 1.53660000 -0.39850000
0.02920000 1.59540000 -0.45270000
-0.24080000 1.69200000 -0.42120000
-0.06930000 1.48250000 -0.34090000
1.28950000 6.56320000 0.80140000
-0.32140000 1.63130000 -0.34250000
-2.90920000 4.39230000 -0.55070000
-1.64910000 4.27070000 -0.27980000
0.84510000 5.84300000 -0.42700000
1.65940000 5.68770000 -0.45390000
1.38530000 5.60910000 -0.52350000
1.31300000 6.49410000 0.87750000
-3.01710000 4.36100000 -0.53730000
-2.85560000 4.66160000 -0.45820000
-3.06980000 4.58780000 -0.51610000
-2.94690000 4.67740000 -0.46900000
-2.99660000 4.52630000 -0.51880000
0.93920000 6.59090000 0.88950000
1.09590000 6.52050000 0.91090000
1.26240000 6.43900000 0.91570000
-1.64220000 4.56570000 -0.32900000
-1.47930000 4.47570000 -0.35700000
-1.97980000 1.03710000 -0.41900000
-2.93870000 4.79020000 -0.39070000
-3.02850000 4.74840000 -0.44240000
-2.07230000 1.12480000 -0.39810000
-1.92000000 1.28960000 -0.42710000
0.47420000 5.39550000 -0.60270000
-3.38710000 4.57800000 -0.41900000
-3.19660000 4.64750000 -0.45880000
-3.34840000 4.43520000 -0.49840000
-3.74840000 4.58130000 -0.27150000
-2.03500000 1.28210000 -0.37520000
-2.13540000 1.33710000 -0.32110000
-2.21820000 1.15800000 -0.32360000
0.13860000 3.09850000 -0.69540000
0.61530000 4.24750000 -0.65950000
1.90990000 3.37260000 -0.71810000
-3.30110000 4.31260000 -0.53010000
-0.03610000 5.51300000 -0.54210000
0.25470000 5.53520000 -0.54100000
-3.11010000 4.41830000 -0.54270000
-1.83450000 4.52850000 -0.27200000
1.04600000 6.42240000 0.91010000
1.45930000 5.49670000 -0.17850000
1.32070000 5.39620000 -0.23930000
1.32910000 4.96130000 -0.33390000
-0.20760000 1.46960000 -0.32520000
-0.17410000 1.39530000 -0.33870000
1.37750000 6.39190000 0.88370000
0.11240000 1.35380000 -0.32310000
0.19560000 1.27550000 -0.33880000
1.29750000 5.58490000 -0.16120000
1.35040000 6.30470000 0.87320000
-0.14370000 5.74380000 -0.48170000
0.06760000 5.69460000 -0.48730000
0.86660000 6.34890000 0.84420000
-1.53460000 4.61020000 -0.32530000
-1.29890000 4.67790000 -0.29550000
-1.49780000 4.73900000 -0.32000000
-1.33690000 4.53590000 -0.29660000
-1.71130000 4.80910000 -0.24720000
-1.56640000 4.78210000 -0.30040000
-1.47830000 4.89290000 -0.23200000
-1.64880000 4.91550000 -0.18170000
-2.00290000 1.48890000 -0.38330000
-0.66010000 5.48440000 -0.50740000
-0.46560000 1.65390000 -0.32950000
-0.50550000 0.93810000 -0.32610000
-0.63320000 1.01510000 -0.31800000
-3.15360000 4.76550000 -0.40480000
-1.95380000 4.89420000 -0.16990000
0.90280000 3.41790000 -0.37080000
0.89210000 3.53230000 -0.42830000
0.77120000 3.47800000 -0.38740000
-0.21400000 5.91550000 -0.36820000
0.96400000 3.73110000 -0.43680000
0.82930000 3.74000000 -0.46650000
0.85070000 3.61840000 -0.47000000
0.73560000 3.60130000 -0.43770000
0.30940000 5.03320000 -0.80370000
0.77830000 4.94330000 -0.78870000
0.71860000 3.71990000 -0.43820000
0.52670000 4.76390000 -0.65620000
0.45730000 4.83780000 -0.70130000
0.97770000 4.77780000 -0.70320000
-2.07230000 2.00920000 -0.40290000
-2.33570000 2.02260000 -0.41660000
-2.26960000 1.91680000 -0.42360000
-0.01820000 5.87480000 -0.33510000
1.00990000 3.56440000 -0.40230000
-2.14910000 2.09800000 -0.37090000
-2.40130000 2.13690000 -0.35000000
-3.08880000 4.84630000 -0.32100000
-1.39460000 5.04110000 -0.17920000
-1.50300000 5.08320000 -0.14580000
-2.45460000 1.83900000 -0.40520000
-2.54150000 1.90080000 -0.42140000
0.34880000 5.60860000 -0.48880000
-3.21570000 4.82870000 -0.28960000
-0.73080000 1.02470000 -0.31800000
-2.31480000 1.80160000 -0.36030000
0.33330000 5.68720000 -0.44350000
-3.29380000 4.73860000 -0.36320000
-3.34440000 4.73900000 -0.28980000
-1.70600000 5.08900000 -0.13090000
-1.51740000 5.20390000 -0.14920000
-1.64890000 5.20300000 -0.16230000
-3.45060000 4.59970000 -0.36100000
-1.55480000 5.31650000 -0.15940000
0.01600000 5.50340000 -0.23800000
-0.08190000 5.51430000 -0.19460000
-0.10460000 5.36070000 -0.18510000
-0.00110000 5.62130000 -0.19190000
-2.51950000 2.07220000 -0.36960000
-1.40230000 5.25830000 -0.11300000
-0.13450000 5.65290000 -0.09310000
-1.40930000 5.42630000 -0.05730000
-0.47850000 5.02730000 -0.31170000
-2.61880000 1.97800000 -0.38030000
-0.46870000 5.15730000 -0.31560000
-3.20000000 4.88670000 -0.21300000
0.57680000 3.71710000 -0.36380000
-0.61020000 5.15090000 -0.25250000
-2.14970000 1.79910000 -0.38960000
-2.10030000 1.91880000 -0.43080000
-1.98740000 1.70320000 -0.42630000
-1.77010000 5.16790000 -0.11130000
-1.52670000 5.41900000 -0.10180000
-1.63630000 5.39140000 -0.14560000
-0.43160000 5.28230000 -0.26410000
-3.24680000 5.05160000 -0.17030000
-3.11220000 5.17720000 -0.20260000
-2.99020000 5.05010000 -0.26700000
0.75660000 4.25360000 -0.42440000
0.46770000 4.00370000 -0.42110000
0.87060000 4.09310000 -0.36250000
-0.55180000 5.39620000 -0.24050000
-0.61530000 5.34200000 -0.23340000
-1.65540000 5.47760000 -0.08040000
0.63600000 3.82590000 -0.36500000
0.85120000 4.66940000 -0.65350000
0.74140000 3.90750000 -0.36580000
0.49040000 3.86740000 -0.37320000
-3.50430000 5.06120000 -0.09830000
-1.51570000 5.53790000 0.00740000
-0.15070000 5.04160000 -0.32130000
0.61440000 4.22930000 -0.42620000
0.01910000 4.97680000 -0.35290000
-1.45980000 5.64430000 0.06060000
-3.16710000 5.25830000 -0.12090000
-0.00700000 5.08280000 -0.26110000
-0.24910000 5.19150000 -0.23720000
-1.68010000 5.60420000 0.06260000
0.91560000 3.84180000 -0.40690000
0.76090000 3.81810000 -0.41760000
-0.17310000 5.25720000 -0.19480000
-0.34410000 5.36190000 -0.17160000
-2.32380000 2.35120000 -0.32500000
-2.00240000 2.45060000 -0.41740000
-2.32060000 2.48160000 -0.39660000
0.00330000 5.31570000 -0.20860000
0.89470000 3.91920000 -0.36330000
-2.01510000 2.33730000 -0.35610000
1.06640000 3.81660000 -0.37020000
1.01530000 4.04850000 -0.35100000
-0.38430000 1.99850000 -0.46750000
-0.48010000 1.94630000 -0.42350000
-0.37630000 1.80800000 -0.41910000
-2.60340000 2.15450000 -0.31490000
-2.25070000 2.22320000 -0.31680000
-0.47430000 5.57700000 -0.14110000
-1.94810000 5.86040000 -0.13100000
-2.41450000 5.84850000 0.01800000
-0.51620000 5.76660000 -0.08890000
-0.58290000 2.15760000 -0.42200000
-0.20090000 5.48420000 -0.13240000
-2.48050000 2.41270000 -0.36290000
-1.81410000 5.77140000 -0.20530000
-2.61680000 2.27880000 -0.32140000
-0.52880000 1.80540000 -0.34400000
-0.64030000 2.05710000 -0.36210000
3.06580000 3.98350000 -0.88040000
3.28190000 3.73780000 -0.85520000
3.05140000 3.83880000 -0.79090000
-1.96410000 2.05980000 -0.34310000
-0.24360000 5.73310000 -0.01240000
-0.20190000 4.63760000 -0.62800000
-1.36090000 5.84720000 -0.28160000
-1.76480000 6.00440000 -0.06740000
-1.89690000 2.21520000 -0.33380000
-0.35920000 5.66270000 -0.05430000
2.79390000 4.34990000 -0.86570000
3.30950000 4.08760000 -0.85330000
3.35010000 3.83050000 -0.89180000
-1.45760000 6.03380000 -0.04400000
-1.43870000 5.97000000 -0.15240000
-1.56950000 6.19800000 0.16280000
-0.44530000 2.41330000 -0.42000000
-0.63770000 2.47130000 -0.43400000
-0.54380000 2.36050000 -0.45410000
-0.44010000 2.50280000 -0.36900000
-0.70930000 2.43160000 -0.44740000
-2.71260000 2.00350000 -0.32500000
-0.26650000 2.26920000 -0.47080000
-0.42980000 2.19290000 -0.46230000
-0.04070000 4.73920000 -0.65230000
-0.29000000 2.13570000 -0.44740000
-0.30820000 2.01090000 -0.46660000
-2.02240000 6.04640000 0.05920000
-1.72230000 6.20350000 0.14850000
-0.78390000 4.67990000 -0.64850000
-1.09380000 4.52030000 -0.61290000
-1.51720000 4.49180000 -0.63630000
-0.28040000 2.37260000 -0.43250000
-1.87580000 6.15460000 0.14680000
-1.72410000 6.24210000 0.23410000
-1.76470000 6.24810000 0.31470000
-0.18800000 2.51090000 -0.36220000
-0.88610000 4.17090000 -0.61980000
-1.03930000 1.95040000 -0.38580000
-1.22500000 2.10220000 -0.42890000
-2.69170000 5.86340000 0.17210000
-0.87190000 2.11310000 -0.33060000
-1.10780000 2.24350000 -0.34140000
1.29290000 4.25660000 -0.42200000
1.14670000 4.16340000 -0.36280000
1.27510000 3.99180000 -0.40100000
1.09300000 4.40470000 -0.36900000
-2.34620000 6.02300000 0.21300000
-2.17100000 6.09870000 0.29920000
2.61320000 3.74240000 -0.71790000
2.79030000 2.56500000 -0.74110000
-0.78890000 2.15690000 -0.34140000
3.12630000 3.61860000 -0.73700000
2.13660000 4.23460000 -0.70760000
-1.96700000 6.21120000 0.36380000
-2.39950000 6.06780000 0.38290000
1.43850000 4.56900000 -0.68690000
-2.25780000 6.21820000 0.44110000
2.56120000 4.37890000 -0.87490000
1.85160000 3.32920000 -0.47370000
1.38820000 3.23850000 -0.47910000
2.06430000 3.11280000 -0.48750000
0.76320000 4.54150000 -0.35000000
0.91300000 4.51700000 -0.41030000
1.16710000 4.92170000 -0.35190000
-1.20370000 2.62660000 -0.33490000
2.75110000 4.10180000 -0.83040000
2.41110000 4.37810000 -0.85690000
0.98240000 4.97420000 -0.26720000
-0.92570000 2.37880000 -0.34810000
-1.07700000 2.68030000 -0.32860000
1.70240000 3.17510000 -0.47490000
-1.29290000 4.42890000 -0.34840000
1.33730000 4.38060000 -0.42040000
1.17660000 4.69820000 -0.39410000
1.45320000 2.20370000 -0.74380000
1.37080000 4.69550000 -0.35800000
-0.91390000 4.32080000 -0.38300000
-0.80740000 2.43290000 -0.42500000
-0.96360000 2.59200000 -0.37970000
-1.11280000 4.16340000 -0.36350000
-0.85590000 4.21980000 -0.39320000
-3.16770000 5.70390000 0.30160000
-0.99930000 4.43310000 -0.31820000
2.81380000 3.92180000 -0.74600000
-2.36890000 4.20970000 -0.69400000
-1.19480000 4.55530000 -0.27730000
0.97250000 4.41710000 -0.40470000
-2.76120000 5.93630000 0.32460000
-1.14640000 2.49630000 -0.68500000
-0.56510000 3.39840000 -0.67030000
1.14460000 5.08490000 -0.29730000
-1.20960000 4.08300000 -0.31910000
-2.34590000 3.95980000 -0.58610000
-2.35430000 4.10370000 -0.61980000
-1.84760000 4.31340000 -0.60250000
-2.86920000 5.94800000 0.40040000
-3.26350000 5.72170000 0.38290000
-3.07350000 5.95870000 0.44130000
-0.11370000 1.79560000 -0.47850000
-0.19980000 1.77810000 -0.47130000
-1.14400000 4.95640000 -0.29980000
-1.32750000 4.88910000 -0.29150000
-1.20010000 4.79880000 -0.30360000
-1.19880000 5.06970000 -0.26020000
2.31790000 2.75950000 -0.49110000
2.07380000 3.01780000 -0.47710000
2.26290000 2.73450000 -0.45670000
-0.00420000 1.82710000 -0.44090000
2.07790000 2.88840000 -0.42640000
-0.14100000 1.99310000 -0.40190000
-0.13060000 2.06860000 -0.38740000
0.30810000 4.13330000 -0.40190000
0.34700000 4.30060000 -0.33310000
-2.68030000 5.99830000 0.39540000
-1.02120000 4.74660000 -0.26670000
0.06760000 2.11840000 -0.37250000
-1.01900000 4.95350000 -0.26770000
-2.26520000 5.82440000 0.32410000
-2.59750000 5.73770000 0.40080000
-2.08670000 5.73120000 0.25950000
-2.04610000 5.85660000 0.28960000
-0.89910000 5.05610000 -0.22010000
0.52160000 4.66870000 -0.30370000
-1.98150000 5.95180000 0.34800000
-1.87520000 6.01360000 0.40380000
-2.25520000 5.91090000 0.52100000
0.84730000 4.97920000 -0.25400000
0.62290000 4.88630000 -0.29250000
-0.85750000 4.05160000 -0.33040000
-0.56410000 4.19230000 -0.38550000
-0.45390000 4.36930000 -0.40320000
-0.66880000 4.40390000 -0.35840000
-2.64210000 5.75270000 0.55700000
-2.53370000 6.07540000 0.43260000
-2.79950000 6.07130000 0.44590000
0.53710000 0.90650000 -0.47930000
0.56520000 1.03410000 -0.44580000
0.83470000 0.93930000 -0.47710000
0.81330000 0.88870000 -0.46450000
2.09370000 3.31070000 -0.46500000
0.72940000 1.13190000 -0.37670000
0.21880000 1.18840000 -0.39720000
0.98630000 1.03350000 -0.43580000
0.64390000 1.23790000 -0.31950000
1.78950000 2.65570000 -0.46820000
1.54170000 2.73270000 -0.46930000
1.72510000 2.56510000 -0.50640000
-0.30830000 4.34020000 -0.40390000
0.45010000 1.71100000 -0.42330000
0.21010000 1.69150000 -0.46320000
0.52310000 1.63860000 -0.46380000
1.65510000 2.79100000 -0.42350000
0.73790000 1.58330000 -0.46430000
0.16700000 1.60850000 -0.47190000
0.54760000 1.47910000 -0.43080000
2.57200000 4.06380000 -0.36580000
2.42000000 4.15980000 -0.39750000
2.46740000 4.00770000 -0.38020000
1.89340000 2.77430000 -0.39410000
1.59230000 2.88380000 -0.38670000
0.30320000 1.48680000 -0.42780000
0.27430000 1.40050000 -0.34850000
1.99850000 2.49400000 -0.45160000
1.90290000 2.46180000 -0.50400000
0.98390000 1.70950000 -0.46530000
0.75810000 1.45140000 -0.38630000
1.00610000 1.54920000 -0.40450000
2.11350000 2.52900000 -0.40280000
1.90750000 2.88880000 -0.39050000
2.18530000 2.67090000 -0.40710000
1.32210000 1.57180000 -0.74940000
0.51730000 1.34480000 -0.33080000
0.64120000 5.54880000 -0.52920000
0.79570000 5.64730000 -0.52670000
0.88480000 1.40680000 -0.33270000
-2.92370000 6.13900000 0.50500000
-2.67420000 6.32960000 0.63490000
-3.04840000 6.15390000 0.58190000
-3.04050000 6.18340000 0.66610000
1.87980000 3.01910000 -0.42640000
-2.79130000 6.28490000 0.70540000
-2.74970000 6.27750000 0.76930000
-2.48920000 6.41040000 0.70180000
0.51260000 5.82660000 -0.44480000
1.65470000 3.05210000 -0.41290000
-1.04720000 5.40830000 -0.58740000
1.42640000 2.99570000 -0.39410000
1.49920000 3.12340000 -0.45410000
0.30430000 0.96640000 -0.45320000
0.12230000 0.96050000 -0.41730000
0.08050000 0.90620000 -0.37010000
-1.04580000 5.15710000 -0.25490000
-2.45390000 6.41060000 0.61140000
-1.65720000 5.80470000 0.18230000
-1.41560000 5.75610000 0.06790000
0.70850000 5.35340000 -0.26820000
0.53970000 5.18390000 -0.32500000
0.66810000 5.09410000 -0.30130000
0.60340000 5.44910000 -0.24940000
-1.70810000 5.90510000 0.21830000
-1.37410000 5.86130000 0.07660000
-1.61770000 5.97580000 0.24110000
0.21380000 4.89790000 -0.38190000
0.49140000 4.99330000 -0.35350000
0.34690000 5.02280000 -0.36040000
0.43230000 5.19620000 -0.28210000
-1.83120000 5.77550000 0.22290000
2.41880000 1.54240000 -0.76320000
1.87300000 1.37070000 -0.76000000
-1.90040000 5.57800000 0.09090000
-1.70270000 3.88160000 -0.36240000
-2.26910000 4.07530000 -0.33180000
-2.01510000 3.83600000 -0.36590000
-2.19260000 4.13490000 -0.28780000
-1.18350000 5.48190000 -0.49180000
-1.80260000 4.00720000 -0.30060000
0.47020000 5.39770000 -0.18840000
0.28220000 5.17750000 -0.24090000
-2.30710000 4.38040000 -0.20850000
0.54710000 5.42440000 -0.22630000
-2.34790000 3.99860000 -0.32980000
-1.47410000 5.68570000 -0.29790000
-2.31140000 3.79040000 -0.30110000
-2.03190000 3.68360000 -0.33080000
-1.35860000 6.01270000 0.27380000
-1.27320000 5.89060000 0.09140000
-1.21200000 5.92130000 0.15650000
1.61400000 1.07610000 -0.76290000
1.86060000 1.19600000 -0.78460000
0.47190000 5.71150000 -0.47220000
2.06010000 1.20970000 -0.77170000
-0.92030000 5.43520000 -0.13630000
-1.00890000 5.46220000 -0.17040000
-1.44900000 6.12100000 0.38050000
-0.98130000 5.65810000 -0.03890000
-1.42810000 6.15720000 0.09690000
-0.89930000 5.61860000 -0.03170000
-2.77210000 2.19230000 -0.62290000
-3.61740000 2.34930000 -0.57360000
-2.31000000 3.55410000 -0.59100000
0.67280000 5.57760000 -0.19580000
-1.41800000 6.32030000 0.27120000
-1.34950000 6.26180000 0.12380000
0.76170000 5.48410000 -0.19670000
0.47760000 5.59430000 -0.16990000
0.40950000 5.48570000 -0.15030000
-1.54750000 6.30620000 0.32440000
0.34890000 5.58080000 -0.14300000
-1.10470000 5.32510000 -0.21160000
0.51420000 5.67760000 -0.16330000
0.60820000 5.70160000 -0.12680000
1.04310000 1.18690000 -0.33800000
-1.22210000 5.25060000 -0.16990000
-1.26350000 6.10910000 0.32120000
1.04780000 1.36030000 -0.31350000
-1.29230000 5.39550000 -0.08410000
1.06120000 1.27030000 -0.31300000
-1.38010000 6.41190000 0.41610000
-1.29710000 6.39300000 0.26120000
-1.09110000 5.60380000 -0.12000000
-1.17730000 5.55000000 -0.11260000
-1.07860000 5.72710000 -0.03440000
0.70030000 1.92010000 -0.36390000
0.54410000 2.14060000 -0.36130000
0.55050000 1.85080000 -0.35390000
0.66290000 2.11030000 -0.40340000
-1.67280000 6.09360000 0.48520000
-1.21670000 5.79620000 -0.00230000
-1.63140000 6.35460000 0.43390000
1.18280000 5.55390000 -0.14140000
-1.66550000 6.42300000 0.47260000
0.48860000 2.34550000 -0.36570000
0.40510000 1.94260000 -0.34090000
0.77240000 1.76040000 -0.40540000
-0.72280000 5.18240000 -0.19120000
1.36640000 5.64870000 -0.10870000
1.23590000 5.80190000 -0.04980000
0.93610000 1.78030000 -0.43210000
0.81650000 1.90170000 -0.40140000
0.97410000 5.16080000 -0.21100000
0.99410000 5.51840000 -0.09810000
1.64120000 3.41800000 -0.43410000
0.78840000 2.07380000 -0.46350000
-0.81570000 5.23640000 -0.16530000
1.67570000 3.52800000 -0.45250000
1.45930000 3.74130000 -0.43700000
1.33790000 3.35680000 -0.42850000
1.56040000 3.83130000 -0.45420000
0.64210000 2.29740000 -0.43940000
0.70530000 2.41970000 -0.47300000
1.81580000 3.61200000 -0.43910000
-0.65740000 3.06860000 -0.43790000
-0.84580000 3.00080000 -0.42360000
-0.75030000 2.92430000 -0.41660000
-0.74370000 3.17720000 -0.41500000
-0.73300000 5.50330000 -0.12790000
0.79040000 5.16480000 -0.24150000
-0.50260000 3.14290000 -0.44840000
-0.59150000 3.31190000 -0.37690000
-1.84490000 6.31360000 0.42590000
-0.62650000 5.65550000 -0.13320000
0.60900000 2.55670000 -0.41740000
-0.81480000 3.25410000 -0.35480000
-0.77730000 5.66190000 -0.03320000
0.84030000 5.31670000 -0.19390000
0.28390000 2.21090000 -0.35980000
-0.83660000 5.44810000 -0.10490000
-2.23860000 6.34340000 0.48370000
0.84380000 5.54650000 -0.11230000
0.26700000 1.81680000 -0.36810000
1.54340000 4.09530000 -0.41650000
1.69540000 4.05710000 -0.36340000
-0.89870000 2.63340000 -0.43130000
0.14950000 1.89360000 -0.35900000
-0.72860000 2.63100000 -0.42180000
-0.84550000 2.78680000 -0.43740000
-1.00920000 5.88070000 -0.31940000
-2.15400000 5.96460000 0.67630000
0.73650000 5.71220000 -0.04440000
-0.96880000 2.80050000 -0.39440000
-1.63940000 6.12270000 0.65870000
-1.89990000 6.09030000 0.75990000
-1.01940000 2.97960000 -0.33940000
0.77620000 5.81620000 0.04330000
-0.97210000 6.22530000 0.38890000
-0.75290000 2.80010000 -0.40640000
-1.15280000 6.21820000 0.49980000
-0.47180000 5.94390000 -0.34310000
2.13270000 4.46080000 -0.80930000
1.73220000 4.71390000 -0.82660000
-1.37760000 6.20740000 0.73030000
-0.86250000 6.27350000 0.66210000
-1.15690000 2.93640000 -0.32320000
2.39610000 3.19250000 -0.42490000
2.04370000 3.59310000 -0.38270000
-2.70800000 2.50140000 -0.38560000
-2.57270000 2.48050000 -0.40140000
-2.47540000 2.61870000 -0.38870000
-2.51020000 2.69680000 -0.34330000
-1.05700000 3.38280000 -0.39500000
-1.23240000 3.37570000 -0.41490000
-1.24070000 3.20080000 -0.39950000
-2.18420000 2.61040000 -0.40590000
-1.49800000 6.24830000 0.82580000
-0.97380000 6.29800000 0.75640000
2.27960000 3.70260000 -0.45440000
2.13500000 3.82300000 -0.41540000
2.38640000 3.44990000 -0.41450000
2.46360000 3.57130000 -0.47130000
-1.13720000 3.16100000 -0.34950000
-1.28410000 2.93740000 -0.38410000
1.97380000 4.31210000 -0.36550000
2.05740000 4.47710000 -0.40660000
1.81470000 4.60440000 -0.32620000
-2.41320000 3.26210000 -0.33100000
-2.60170000 2.95460000 -0.36420000
-2.56060000 2.77830000 -0.32640000
1.94780000 4.82530000 -0.36380000
1.91420000 4.65120000 -0.37790000
-2.12940000 2.78660000 -0.32530000
2.15150000 4.55780000 -0.40800000
1.64360000 2.05130000 -0.45560000
1.74530000 1.98860000 -0.50390000
1.80680000 2.15550000 -0.49280000
-2.23720000 3.37560000 -0.30000000
1.93670000 2.11710000 -0.49370000
1.79920000 1.91180000 -0.47740000
2.06950000 4.72770000 -0.36770000
-0.24290000 6.13150000 -0.15800000
2.22260000 3.51930000 -0.38750000
-0.96970000 3.22590000 -0.32750000
-0.81450000 3.40970000 -0.34500000
-2.13790000 6.07120000 0.83410000
2.01490000 3.90380000 -0.37580000
1.82030000 4.86190000 -0.33440000
0.05330000 5.99120000 -0.23880000
1.87260000 5.06000000 -0.30650000
-1.87880000 6.25400000 0.90030000
2.23930000 3.92020000 -0.46050000
2.00810000 5.01110000 -0.29430000
0.22230000 5.81490000 -0.37330000
0.22980000 5.95520000 -0.32950000
2.07810000 4.89890000 -0.27580000
2.09830000 4.17080000 -0.42740000
2.29530000 4.16400000 -0.43370000
2.18330000 4.25580000 -0.44070000
0.38130000 6.12280000 -0.23690000
0.15300000 6.16180000 -0.18170000
2.32300000 3.98940000 -0.44630000
-2.59840000 3.19650000 -0.39070000
-2.76360000 2.91980000 -0.39370000
-2.56680000 3.51000000 -0.37820000
-2.82930000 3.01600000 -0.34960000
1.46350000 4.64100000 -0.31900000
1.79280000 4.24900000 -0.33910000
1.58770000 4.80590000 -0.26780000
-1.73780000 6.56540000 0.53890000
-1.56260000 6.60500000 0.50100000
-1.59090000 6.52920000 0.49690000
-1.38390000 6.46780000 0.46390000
-2.47100000 3.55460000 -0.36320000
-1.98610000 3.02730000 -0.62700000
-1.40370000 6.62960000 0.51580000
-0.04950000 6.16940000 -0.08520000
-1.53600000 6.64120000 0.54950000
-1.85670000 6.55710000 0.63300000
1.95190000 2.29170000 -0.50670000
2.09120000 2.31290000 -0.43120000
2.50710000 3.69220000 -0.47070000
1.84930000 2.38880000 -0.50960000
-1.62160000 6.63250000 0.64740000
-1.43080000 6.68290000 0.65460000
2.48550000 3.86680000 -0.41730000
-2.13240000 6.46640000 0.55280000
0.05460000 6.28080000 -0.03170000
1.62180000 2.15990000 -0.39850000
0.03800000 6.36490000 0.09190000
1.73960000 2.24920000 -0.43600000
-2.02460000 6.51500000 0.60890000
-2.13900000 6.50060000 0.70740000
1.74120000 2.36460000 -0.46140000
1.68140000 2.49190000 -0.48640000
-0.40130000 6.19930000 -0.13340000
-1.96060000 6.51070000 0.74530000
1.66260000 2.31390000 -0.39810000
-1.70290000 6.55990000 0.77610000
-2.92700000 2.67980000 -0.38240000
-2.92720000 2.50380000 -0.39090000
-0.53820000 3.57130000 -0.65190000
-2.80250000 2.64890000 -0.36760000
-2.81620000 2.53310000 -0.36670000
-0.65690000 6.09010000 -0.20900000
-1.16390000 6.51840000 0.42540000
-1.21280000 6.58090000 0.47180000
-1.26680000 6.70640000 0.58050000
-1.04090000 6.70170000 0.54380000
-0.32520000 2.78210000 -0.44870000
-0.21660000 2.69730000 -0.39510000
-0.21470000 2.80130000 -0.45970000
-0.38850000 5.92880000 0.01470000
-0.17060000 2.87390000 -0.45270000
-0.29670000 2.90510000 -0.46880000
-0.48230000 5.96080000 0.02150000
-0.22840000 5.88330000 0.06470000
-1.30630000 6.71910000 0.66550000
-0.12100000 2.76610000 -0.39830000
-3.19370000 2.36700000 -0.33170000
-0.02220000 2.83060000 -0.36460000
-3.33180000 2.33450000 -0.29080000
-2.97930000 2.95450000 -0.29980000
-1.10390000 6.75890000 0.65580000
-1.14580000 6.69630000 0.75620000
1.73390000 4.84990000 -0.28650000
-1.20330000 6.62100000 0.84570000
-0.26960000 6.10090000 0.13700000
-0.46490000 6.03240000 0.09070000
1.66220000 5.02890000 -0.22200000
-0.60230000 6.27760000 -0.05060000
-0.88400000 6.37590000 0.83690000
2.32600000 4.33620000 -0.43280000
-0.34050000 3.12920000 -0.44610000
-0.36370000 3.02600000 -0.44700000
-1.12050000 6.50950000 0.91800000
-1.51670000 6.47450000 0.91240000
-1.56300000 6.39800000 0.92000000
-2.82370000 3.39250000 -0.28580000
-0.22990000 3.10560000 -0.42310000
-0.41320000 3.27390000 -0.39590000
-0.28590000 3.27620000 -0.36760000
-0.37800000 6.34590000 0.04570000
0.15040000 3.14390000 -0.39580000
0.18110000 3.29300000 -0.44560000
0.02950000 3.42220000 -0.41530000
-0.00700000 3.30040000 -0.35760000
-0.49950000 6.43100000 0.14420000
-0.09810000 3.16700000 -0.35850000
-0.22650000 3.37130000 -0.34710000
-0.10240000 2.97370000 -0.40610000
-1.08050000 6.57500000 0.90200000
-0.24050000 6.32760000 0.07560000
2.40980000 4.44010000 -0.41340000
2.25940000 4.58650000 -0.35750000
2.42590000 4.57100000 -0.31230000
-3.10970000 3.17900000 -0.29360000
-2.95470000 3.63920000 -0.24630000
-1.74280000 6.46820000 0.88390000
1.24400000 2.53010000 -0.48860000
1.19000000 2.63720000 -0.42100000
1.15710000 2.50530000 -0.44160000
1.37500000 2.52540000 -0.49160000
1.39790000 2.63600000 -0.49270000
1.39010000 2.71030000 -0.46260000
1.34460000 2.79190000 -0.39960000
-0.43720000 6.10680000 0.20740000
-2.20090000 6.29990000 0.90520000
-1.49800000 3.60590000 -0.36990000
-1.20180000 3.56760000 -0.38940000
-1.18000000 3.72260000 -0.40520000
1.30020000 2.84270000 -0.37770000
2.33660000 4.77320000 -0.25090000
2.20420000 4.75790000 -0.27310000
-0.42010000 6.48410000 0.29800000
-0.18980000 6.48970000 0.24640000
0.11970000 2.47130000 -0.47080000
0.19300000 2.45420000 -0.45980000
0.34710000 2.79340000 -0.46430000
0.34890000 3.16600000 -0.45980000
0.27970000 3.08670000 -0.46180000
0.24780000 2.80190000 -0.45610000
2.29670000 4.95640000 -0.20220000
2.14870000 5.00500000 -0.20080000
0.12760000 2.70450000 -0.39830000
0.18350000 2.92520000 -0.39740000
-0.85690000 6.01310000 -0.20290000
1.20090000 3.02690000 -0.45530000
1.08270000 3.04170000 -0.47580000
1.15050000 3.22000000 -0.45490000
0.65530000 2.85560000 -0.38120000
0.51320000 2.86010000 -0.39520000
0.49830000 2.60940000 -0.37490000
0.39150000 2.62370000 -0.42110000
2.46210000 4.77050000 -0.25580000
2.41800000 4.96010000 -0.24110000
-1.08280000 5.95320000 -0.18520000
-2.28760000 5.94620000 0.75170000
2.38250000 5.14920000 -0.56720000
1.03800000 1.66430000 -0.45650000
-1.19280000 3.88580000 -0.34010000
2.35110000 5.25810000 -0.51030000
-2.67490000 3.88000000 -0.59470000
0.46660000 3.19920000 -0.40620000
-0.76840000 6.16120000 -0.06350000
-0.88230000 6.09350000 -0.05850000
1.95100000 5.16960000 -0.26800000
0.30180000 3.50970000 -0.40910000
-1.05110000 6.03380000 -0.09460000
-1.00230000 6.14610000 -0.02670000
2.07770000 5.09550000 -0.22160000
1.17540000 2.86920000 -0.39300000
1.86310000 5.24560000 -0.20600000
-1.27740000 4.00290000 -0.30920000
2.07540000 5.19880000 -0.22490000
-0.75270000 6.27550000 -0.01870000
2.02750000 5.29780000 -0.20310000
0.19250000 3.43220000 -0.45050000
2.12590000 5.59230000 -0.43940000
-0.84780000 6.20150000 -0.00090000
-0.93100000 6.27950000 0.02780000
0.89010000 2.70950000 -0.46430000
0.82420000 2.73410000 -0.47760000
0.70750000 2.66800000 -0.45900000
0.95400000 2.57360000 -0.39850000
0.81380000 2.39100000 -0.46420000
-0.87280000 6.35470000 0.07180000
-2.52980000 5.98640000 0.87720000
1.00310000 2.77150000 -0.42230000
1.76400000 5.84840000 -0.32250000
0.88540000 2.95440000 -0.46520000
0.77150000 2.95310000 -0.40970000
2.05560000 5.73540000 -0.30100000
-1.27160000 5.99950000 -0.08850000
1.08300000 2.45800000 -0.37790000
0.96910000 2.38560000 -0.38530000
1.55470000 0.94530000 -0.48840000
1.10000000 2.63090000 -0.37750000
-1.11280000 6.18370000 -0.01990000
-1.22600000 6.09040000 -0.03230000
-2.69340000 5.75140000 0.70230000
-2.63810000 5.82520000 0.78680000
1.42170000 1.01550000 -0.48080000
-0.60410000 3.75900000 -0.41500000
-0.82750000 3.62370000 -0.42280000
0.07510000 2.54410000 -0.42990000
2.47800000 5.60300000 -0.25040000
2.07910000 5.77410000 -0.22520000
2.33110000 5.70820000 -0.21300000
1.75510000 1.18540000 -0.50010000
1.18680000 1.02430000 -0.46600000
-0.03740000 2.56560000 -0.36780000
1.57130000 1.19200000 -0.45850000
1.94000000 5.36640000 -0.12950000
-0.47040000 3.50190000 -0.35820000
-0.43840000 3.65390000 -0.42130000
-0.73200000 3.54670000 -0.38890000
-3.19760000 3.50840000 -0.29770000
-3.07200000 3.84310000 -0.23990000
-3.20580000 3.73720000 -0.30290000
0.08900000 2.77880000 -0.35900000
0.05800000 3.00570000 -0.35140000
1.49350000 5.24050000 -0.20060000
-0.07370000 2.40770000 -0.44420000
-3.12420000 5.64130000 0.84310000
-0.13440000 2.64270000 -0.35450000
-0.67290000 3.37720000 -0.34060000
0.98880000 3.22300000 -0.40300000
1.57640000 5.17570000 -0.18030000
-2.24370000 6.36180000 0.85100000
-2.87610000 6.15950000 0.83440000
-1.02480000 5.83050000 0.09300000
-0.34360000 2.56270000 -0.34910000
-3.21020000 3.97720000 -0.27590000
-2.65330000 6.11160000 0.91370000
-3.11320000 4.11430000 -0.18880000
-3.24350000 4.23690000 -0.19350000
1.69700000 5.43670000 -0.07790000
-3.08560000 5.95880000 0.89170000
1.78330000 5.04820000 -0.27750000
1.68040000 1.69940000 -0.39640000
1.34320000 1.65830000 -0.38790000
1.53370000 1.55240000 -0.35710000
1.72820000 5.21550000 -0.16770000
-3.01230000 5.80400000 0.89840000
-2.39680000 6.15120000 0.91900000
1.83230000 5.38890000 -0.08570000
1.22570000 0.94460000 -0.46080000
-1.22260000 6.25810000 0.05560000
-0.44480000 3.88430000 -0.38780000
1.52580000 2.58920000 -0.49090000
1.52210000 2.47480000 -0.43470000
-2.99690000 4.12510000 -0.17130000
-0.68240000 3.91240000 -0.34270000
-0.65430000 4.00860000 -0.32010000
1.20770000 1.13080000 -0.41060000
1.76120000 5.62730000 -0.02410000
-2.36090000 3.65010000 -0.31340000
1.48440000 5.64230000 -0.10370000
0.02450000 3.95070000 -0.42390000
1.42550000 5.77310000 0.05360000
1.60620000 5.65300000 -0.08570000
-2.51910000 3.86050000 -0.32870000
-1.07340000 6.42770000 0.20750000
-0.38710000 4.15710000 -0.34730000
-2.71400000 3.54550000 -0.30900000
-0.13670000 4.04920000 -0.34510000
-2.64220000 3.88260000 -0.31880000
-2.22510000 6.48910000 0.65160000
-2.28670000 6.45260000 0.74080000
1.27110000 1.23830000 -0.35570000
1.08880000 3.40440000 -0.37400000
-1.17850000 6.47670000 0.34680000
1.37700000 3.44160000 -0.38640000
2.02300000 5.54700000 0.04250000
2.01440000 5.62980000 0.08380000
1.10550000 3.64810000 -0.37760000
-0.59020000 5.82510000 -0.05270000
1.35200000 3.62300000 -0.37920000
-0.60520000 5.94760000 0.07860000
-0.72850000 5.83330000 0.05790000
1.18300000 1.64700000 -0.40580000
1.19550000 1.50440000 -0.33950000
-0.86520000 5.82220000 0.09260000
2.19400000 5.11440000 -0.17000000
-0.07820000 3.70930000 -0.41330000
0.13280000 3.72890000 -0.38870000
2.23890000 5.21680000 -0.18150000
2.31100000 5.28840000 -0.18260000
2.43220000 5.20060000 -0.18860000
2.35230000 5.12630000 -0.16730000
-2.56540000 4.05880000 -0.31080000
-0.88600000 5.96830000 0.21680000
-0.60980000 6.04870000 0.22810000
-1.46730000 3.18060000 -0.37720000
2.48180000 5.08220000 -0.21260000
1.31380000 1.35610000 -0.34160000
-2.80590000 3.98290000 -0.22570000
2.21860000 5.36430000 -0.15320000
-0.78370000 6.07060000 0.27090000
2.40230000 5.34700000 -0.12760000
-2.87750000 4.31170000 -0.18740000
-0.02690000 4.32380000 -0.34950000
0.19570000 4.55260000 -0.33620000
0.03450000 4.62150000 -0.39320000
2.15190000 5.46270000 -0.02120000
2.04140000 5.42260000 -0.08400000
-0.74050000 6.49450000 0.24320000
-0.05080000 4.18990000 -0.32550000
0.07360000 3.86060000 -0.41960000
-0.79940000 6.20140000 0.32840000
-0.39850000 6.19980000 0.28840000
2.40280000 5.43880000 0.02860000
-0.11020000 3.60890000 -0.42980000
-0.22080000 3.57170000 -0.40670000
2.45800000 5.53320000 0.15040000
2.40820000 5.63360000 0.18850000
0.26530000 4.77470000 -0.35600000
-0.20830000 3.47740000 -0.36160000
-0.35840000 6.28560000 0.37660000
-0.47990000 6.30260000 0.46280000
-0.05090000 4.63630000 -0.38110000
-0.02480000 4.94150000 -0.78750000
-1.11230000 5.97040000 0.24330000
-0.04470000 4.85630000 -0.74000000
-1.45600000 2.79630000 -0.43130000
-1.42810000 3.03190000 -0.41380000
-1.55740000 2.62640000 -0.38710000
1.36270000 5.74450000 -0.01420000
-1.68470000 2.95240000 -0.32930000
1.30700000 5.91740000 -0.31710000
1.53130000 5.96890000 -0.25930000
1.29730000 2.41530000 -0.47900000
1.17650000 2.41340000 -0.42960000
1.25820000 2.33340000 -0.41440000
1.64330000 6.05420000 -0.13970000
-0.56620000 6.29950000 0.60100000
1.47140000 6.02130000 -0.15890000
1.22890000 5.98010000 -0.20610000
-3.34400000 1.35500000 -0.61370000
-2.18660000 1.66600000 -0.66990000
1.39500000 6.08020000 -0.08100000
0.18510000 5.02630000 -0.32870000
1.28600000 6.26960000 -0.01500000
1.44670000 6.27320000 0.06900000
1.30410000 6.17550000 -0.05150000
-0.61510000 6.51410000 0.32580000
0.37030000 3.64780000 -0.35830000
-1.50570000 3.31820000 -0.33950000
0.86210000 5.95050000 -0.34920000
0.99990000 5.97630000 -0.26480000
1.03800000 2.08000000 -0.44800000
1.20650000 1.95300000 -0.47750000
1.15980000 2.10930000 -0.39650000
-1.75330000 2.46270000 -0.41960000
-0.93140000 6.52650000 0.36240000
-1.84300000 2.62300000 -0.36990000
1.12060000 1.80020000 -0.46240000
0.99240000 1.89470000 -0.46200000
0.21150000 5.24270000 -0.20800000
-0.79160000 6.55780000 0.44610000
0.78050000 6.05600000 -0.23780000
0.88170000 2.09810000 -0.48110000
0.13230000 5.34690000 -0.19940000
-0.46980000 6.68080000 0.50980000
-0.83030000 6.63040000 0.49500000
0.80220000 6.11200000 -0.12710000
-1.66080000 2.58750000 -0.36070000
0.29600000 5.39340000 -0.16940000
0.18680000 5.47080000 -0.19830000
0.25500000 5.52020000 -0.15460000
-1.91320000 3.14240000 -0.32000000
0.12250000 5.50720000 -0.22420000
0.89360000 2.23950000 -0.45230000
0.23260000 5.64940000 -0.15330000
-0.40180000 2.86200000 -0.42830000
0.57890000 6.23020000 -0.12080000
-0.59700000 2.63130000 -0.36130000
1.01100000 2.20920000 -0.39660000
0.09280000 5.61740000 -0.19920000
0.06660000 5.76230000 -0.08820000
1.18020000 2.25040000 -0.36880000
-0.65440000 2.81240000 -0.35370000
0.26260000 5.73700000 -0.13110000
1.16420000 2.32880000 -0.37550000
-0.53340000 2.72050000 -0.33960000
2.91150000 4.87120000 -0.65800000
3.42600000 4.60850000 -0.64280000
3.36590000 4.47650000 -0.65940000
3.35300000 4.75310000 -0.59860000
-0.55590000 2.87900000 -0.34360000
-0.32820000 2.65900000 -0.36440000
-0.41550000 2.71700000 -0.36760000
-2.81110000 1.66690000 -0.35400000
-0.83850000 6.76360000 0.61780000
-0.85280000 6.76110000 0.68500000
0.36870000 5.80050000 -0.07830000
-2.92350000 1.55890000 -0.30800000
-2.86330000 1.75820000 -0.31700000
0.56280000 5.82540000 0.00510000
0.28860000 5.88750000 0.04340000
-0.48880000 2.84860000 -0.35720000
2.84140000 4.54930000 -0.75590000
2.42760000 4.64390000 -0.82860000
2.44030000 4.72210000 -0.76140000
-1.72010000 4.63100000 -0.76460000
-2.11360000 4.52620000 -0.76170000
-1.06690000 4.87600000 -0.78350000
-0.51880000 3.03660000 -0.41670000
0.65560000 6.20210000 -0.10140000
1.96900000 4.72970000 -0.84280000
-2.01750000 4.36160000 -0.66170000
-2.23220000 4.38530000 -0.74660000
-1.91420000 4.50660000 -0.73860000
1.50190000 1.94500000 -0.47990000
1.34860000 1.86720000 -0.49310000
-0.45710000 2.97240000 -0.39400000
-0.01280000 5.83700000 0.02370000
-1.39340000 2.42130000 -0.43380000
-1.36660000 2.72030000 -0.41520000
1.33460000 2.02880000 -0.41650000
1.46000000 2.09850000 -0.39020000
0.76620000 6.24790000 0.01560000
0.66310000 6.32450000 0.02950000
0.43620000 6.37200000 0.00220000
1.64870000 1.88710000 -0.50070000
1.49620000 1.80930000 -0.48090000
1.86050000 1.85710000 -0.42060000
-2.41280000 4.67310000 -0.68000000
-2.00990000 4.89440000 -0.67410000
-1.62160000 4.83130000 -0.75160000
-0.61380000 2.97020000 -0.38350000
0.70180000 6.47550000 0.15820000
0.01660000 6.00000000 0.15320000
-1.48890000 5.02520000 -0.69340000
-2.01190000 4.99940000 -0.59550000
-1.74950000 5.06220000 -0.57640000
0.49210000 5.95780000 0.13170000
-1.27610000 2.47400000 -0.38300000
0.41840000 6.08200000 0.20990000
1.02350000 6.05060000 -0.14240000
1.93050000 4.45150000 -0.72880000
1.40170000 2.33450000 -0.41180000
1.57000000 2.35530000 -0.39010000
1.38570000 2.23890000 -0.37770000
0.18890000 6.38130000 0.01680000
-2.31070000 4.84430000 -0.62500000
-2.29900000 4.91510000 -0.55620000
2.18480000 4.86430000 -0.77200000
1.27150000 5.87040000 0.04500000
1.09260000 5.87650000 0.00620000
1.08090000 6.14170000 -0.09290000
0.86040000 5.91310000 0.09370000
0.18140000 6.47970000 0.18400000
2.37410000 4.91750000 -0.72990000
0.05500000 6.46110000 0.26270000
2.55740000 4.79750000 -0.69240000
1.07200000 5.99300000 0.08560000
0.40000000 6.52220000 0.21100000
1.10530000 6.03250000 0.15880000
-1.27730000 1.30910000 -0.34010000
2.73350000 4.66780000 -0.69850000
-0.06800000 6.08310000 0.17060000
0.24450000 6.20720000 0.25960000
-1.83200000 3.52760000 -0.31960000
-1.73930000 3.71060000 -0.38110000
-1.46790000 1.19050000 -0.31210000
1.03140000 6.25800000 -0.04430000
-1.50480000 3.48690000 -0.33310000
0.88750000 6.18740000 -0.05580000
-2.54340000 4.69350000 -0.60980000
2.71500000 4.81360000 -0.67330000
-1.38800000 1.37440000 -0.31020000
0.88980000 6.28600000 0.04710000
1.00780000 6.34770000 0.03400000
2.89390000 4.45140000 -0.81780000
-1.29130000 1.64000000 -0.39840000
-1.15720000 1.33110000 -0.41760000
-1.17610000 1.60600000 -0.44370000
1.21030000 6.34870000 0.04190000
1.39910000 6.36440000 0.13220000
-2.47850000 4.86490000 -0.49400000
-0.08770000 6.19340000 0.23240000
3.20770000 4.23930000 -0.81250000
-1.84360000 4.16860000 -0.26850000
0.95420000 6.44870000 0.14530000
3.10980000 4.46380000 -0.69130000
-0.07730000 6.46500000 0.22590000
-1.42030000 1.73540000 -0.35070000
-2.41090000 4.96550000 -0.44890000
-1.54350000 1.59540000 -0.31840000
-1.48840000 0.99900000 -0.35620000
-1.59310000 0.96180000 -0.42770000
3.16730000 4.51690000 -0.66320000
2.83620000 5.01800000 -0.59090000
-3.07920000 1.99310000 -0.37870000
-3.00510000 1.94970000 -0.33110000
-2.86690000 2.16890000 -0.33990000
0.16220000 6.28040000 0.35270000
0.69050000 6.12810000 0.20770000
-2.70680000 1.85010000 -0.38100000
0.03410000 6.31550000 0.49130000
-1.86300000 4.71170000 -0.30200000
-0.73210000 4.78210000 -0.72340000
-1.32240000 4.66340000 -0.72080000
-0.96180000 4.83140000 -0.77560000
-2.98700000 1.67630000 -0.30700000
-2.82920000 2.03620000 -0.31020000
0.76500000 6.35000000 0.10280000
2.84430000 4.31700000 -0.41070000
2.52050000 4.29200000 -0.43750000
2.63330000 4.20760000 -0.40980000
0.78750000 6.43350000 0.13470000
-2.01330000 4.65680000 -0.27400000
0.85950000 6.36640000 0.11110000
2.70390000 4.39430000 -0.41540000
-2.08420000 4.86460000 -0.22750000
2.67580000 4.49530000 -0.34390000
2.90320000 4.55930000 -0.32200000
0.77120000 6.16480000 0.24110000
0.49490000 6.26070000 0.33940000
2.74140000 4.11680000 -0.36990000
0.66180000 6.25960000 0.41810000
0.96960000 6.17800000 0.32390000
-2.85070000 2.35900000 -0.40230000
1.09030000 6.11610000 0.27730000
-2.09610000 4.52030000 -0.21830000
-2.99820000 2.22100000 -0.39710000
-2.73100000 2.34620000 -0.37780000
0.67750000 6.26210000 0.51780000
