-8.75767100 -8.44727300 11.71002200
22.50530200 0.88559300 13.68719500
-21.72878300 3.24963800 -16.06140100
29.96688100 5.00955700 -10.22100800
-27.92723800 7.81274400 -13.73535200
-11.48812100 7.38056600 -28.05554200
-7.57674200 -0.19936900 -23.50927700
-25.59948000 -1.71979500 4.46545400
-2.56237800 -6.36503600 12.32452400
-6.57298000 -6.46279100 20.06115700
24.22739000 -3.66634800 3.83068800
7.20711400 -8.29756900 -6.40899700
-28.25166300 3.16745400 -2.91076700
-16.88267700 -8.16107200 2.39508100
-19.83768800 -5.29051200 -11.24939000
-11.75125300 -6.99330100 -17.20440700
-2.75636600 -6.36645500 17.36572300
9.05123500 -8.37652200 -6.18676800
-12.63519700 -2.56724900 -19.45874000
-13.34510800 1.15505000 -24.77746600
-28.51145200 5.82012900 -5.41931200
-9.34276200 3.98400500 -25.81280500
-15.59898000 -5.85546100 10.21136500
-17.96764400 -7.55577900 -7.50054900
16.93498000 4.27563200 -24.93621800
2.44443700 8.55955900 -30.57818600
-10.36594800 4.24260100 -25.88305700
-3.76615200 -2.96357000 22.28842200
-25.38689800 0.69739500 2.95001200
12.90333900 -8.44186800 1.89984100
-18.78324500 -6.85950500 -9.01995800
24.55245600 -1.20246900 -1.34960900
-17.82472400 1.83952300 19.78573600
11.40394600 -8.37437400 -1.50018300
-12.83151000 -7.32832300 14.82879600
25.55582400 -2.96433300 -3.47595200
-1.36872500 1.35113500 -28.22106900
-11.80586600 1.66248100 -23.89471400
30.36840400 4.72875600 -0.05279500
-14.24310300 -6.40459800 -5.14080800
-14.63731800 -6.04909500 16.05511500
-23.37311600 1.57886100 -15.54071000
-14.46757100 4.61540000 -26.62799100
11.60128600 3.73915100 -26.24951200
-28.64279600 3.28303500 7.28289800
24.93183500 -0.39955500 12.05450400
-0.00282200 -8.16312000 -4.70819100
12.42861600 2.30589400 -25.32727100
-16.60497500 -8.16030100 7.04681400
-22.58985100 2.87227200 -17.80169700
-8.15684800 -3.95253000 22.15579200
14.25661900 2.66110600 -25.07263200
-17.07510400 6.24167800 -26.44793700
-6.47826700 -2.41150700 21.77948000
0.87988600 -8.45996100 -12.03607200
-0.33534500 -7.85721600 18.77282700
-0.60816500 -8.09707600 2.10797100
-27.02157200 5.72764600 -11.07098400
-30.05852500 7.12184500 -11.14715600
-16.00266300 -1.88835100 -16.17053200
24.82024800 -3.63982800 -0.65362500
-9.99833700 -3.70400200 19.18762200
8.50962100 -3.99121300 -19.21740700
2.48740000 5.91227500 -28.78924600
27.25002300 2.31348400 -0.77508500
-15.66447400 -3.03883700 -15.19397000
11.09003100 6.27648400 -26.35931400
-24.00426900 5.55526000 18.28997800
5.25729300 -8.43785100 -16.46844500
-17.56758300 -1.13868000 19.63995400
-24.50909400 2.28093700 -15.05023200
-0.25663600 7.86424800 -30.84613000
1.18409300 6.33028400 31.21289100
10.41992200 7.17684200 27.67727700
24.09732800 4.78121000 -14.97119100
14.93945700 4.24434300 24.02526900
1.28775300 -4.69413800 -20.53924600
5.69549400 -1.21192900 22.59903000
-20.52882400 -6.78033400 2.86572300
2.21039200 -0.16664100 26.70459000
23.49420900 -4.93222800 -4.78363000
-8.17910500 -8.22619600 4.42773400
10.03642300 1.96982200 -26.28741500
13.21780400 1.94822400 -22.74847400
23.35586200 5.68516500 18.22049000
21.80744000 1.87895200 -19.00677500
-5.91938400 -8.10347700 1.55603000
-5.13277600 -1.29393200 -22.58697500
20.50447100 -0.81154300 -12.38616900
9.30007800 2.21940400 -26.76342800
25.84525300 3.27982000 -11.22015400
5.97802700 4.24107400 26.22662400
-3.92590500 -5.74155000 -18.31549100
9.62832600 -8.33515200 2.50958300
1.76974200 -6.07611500 -3.91943400
4.43126500 -5.17325600 19.08221400
28.04754600 6.89874800 -12.00598100
-23.31681800 3.85433200 17.33544900
4.86725500 -6.23366500 0.12188700
4.12935400 -8.35022400 -9.54528800
14.71470300 -6.19721200 -9.92865000
-23.61805700 5.20738200 18.75436400
27.14549300 2.57064800 -6.58526600
21.14709500 -4.32476800 0.77636700
2.20876800 -1.43399600 -23.79821800
11.49859000 -6.25519200 -13.33465600
1.30534400 7.88629900 31.53738400
-9.25354400 -7.32285300 17.58783000
28.84449400 4.27287300 2.89056400
-8.60720800 6.09169200 -27.89874300
19.10702900 1.03706900 -18.33239700
-23.41898700 6.76335000 -17.83374000
-29.27412400 4.76755100 -1.06567400
-25.79297300 -1.17952700 5.57263200
-7.96431200 4.69119100 -27.82208300
29.08262600 3.98401600 2.56079100
0.85397100 -2.39858600 -23.20111100
24.78339400 0.56477000 8.94781500
2.36803800 5.77006900 28.76367200
-5.95742800 5.71307900 -27.39117400
-0.19561700 8.24567800 31.11886600
8.04195800 -8.42803200 15.44030800
29.25873900 7.38032000 11.40832500
16.00123800 1.76414700 -21.38745100
17.35926800 -0.46610300 16.83288600
3.13537500 5.28914600 28.26153600
6.96458100 -0.31826000 23.47601300
29.86599700 5.90566800 -1.31994600
16.19887500 -1.76870700 16.77533000
-16.69522100 -1.53434400 -19.95764200
5.31866100 -3.61242700 20.80755600
-15.67790000 -3.56259900 18.92840600
1.61076300 -6.31667300 10.81134000
21.25790000 -5.15860400 9.92627000
16.92197800 -1.98917400 15.30194100
-6.49050300 5.28750600 -26.22229000
-14.63474700 -2.04803800 -21.11157200
14.43034400 -4.73071300 -18.63702400
5.62955700 2.79898700 -26.44250500
-7.13770700 -2.58773000 23.80807500
17.11378500 5.23999000 23.17916900
28.12801700 4.79142000 6.44323700
-20.99066200 -3.39807100 -5.41339100
-6.93288100 -8.42679600 15.13763400
-13.89654000 -6.38645200 6.03326400
-14.31980500 -3.31111500 -16.85113500
-26.34565400 2.74782900 -0.85559100
0.83859300 -6.47850800 14.12725800
-14.12813000 -6.40576200 9.55639600
-22.58514000 -1.42847800 -4.20947300
20.47528100 6.53818500 23.77893100
18.59641600 -7.45932400 -7.31976300
-26.94178800 4.48956700 -1.67382800
-6.25735400 7.35046400 29.33575400
-0.93438600 -2.50606500 23.02145400
18.67500300 -8.00517700 -0.87439000
-28.22269800 4.84969700 -3.66210900
-8.95417900 5.65679900 26.33145100
-9.51367700 4.09651900 27.14514200
29.77843900 2.98543700 -3.18756100
-7.11530100 5.19295900 -27.41375700
-17.49762000 -3.08076500 -16.90399200
30.08345400 5.83780600 -0.63604700
7.80914100 -8.14476000 16.50317400
0.58517200 0.13158800 -27.42132600
-6.70092200 3.23485000 -25.16729700
-7.44435900 5.57055000 -27.20159900
-19.54932400 -2.02438700 -15.97064200
10.51023300 0.84172100 23.85644500
26.65217200 1.23316000 -4.59887700
-13.88349500 1.05026600 -22.33709700
-4.92865400 -2.72719600 -21.47253400
4.80239000 -8.31515900 -8.23602300
-18.73498500 -2.35895500 -16.70776400
-19.17132600 7.26329200 -24.12463400
-0.64903700 -3.58776900 24.13601700
-4.39934500 -1.56458100 -22.76403800
27.73362700 6.83596600 -12.94433600
-17.92342400 -2.02690500 -17.82702600
20.65209200 6.72811500 20.68203700
-9.77525300 6.16701500 -28.35314900
-30.18138100 6.56268700 -9.42822300
-4.85243200 1.60552600 -24.98205600
12.33241100 5.57395600 28.05221600
-6.13660600 3.31277000 -27.66217000
-28.74188600 4.81517800 -10.65942400
7.56217200 -6.26887900 -0.24054000
-12.73092100 -7.95987300 -13.92102100
-2.04236600 3.26193000 -27.18695100
16.75066400 5.12534300 25.94787600
-24.26188300 2.17590700 -11.32727100
17.66158700 -5.54706200 14.18646200
-1.05042300 4.51218800 -27.93200700
-10.41828100 -6.30599200 8.12030000
-26.71234500 4.92014300 -10.04541000
-28.89639300 4.10228000 -7.09106400
19.38404100 -5.06959500 13.00329600
-15.03049100 -7.53334800 -12.40728800
-12.57016100 -8.33825700 10.87286400
-9.16360700 5.41663400 28.00650000
-26.90113800 2.89415000 1.59130900
-12.27310600 2.12192500 23.52288800
-8.74417500 -6.28489700 5.92627000
-22.78516000 -2.39702600 3.41766400
22.61359000 -3.58779700 -10.36657700
-12.21277500 -0.01637300 21.88729900
30.59434500 6.87839100 8.26312300
-2.34618900 4.40409900 -29.74096700
-7.04027200 -6.29406700 3.18743900
-15.29602200 -8.34558900 -6.20050000
-22.16360900 -2.46049500 6.22851600
-5.28455700 5.60768100 30.19281000
2.76135500 0.21677400 24.95294200
-22.50223200 4.87909700 13.76818800
1.45981600 -8.23363500 -7.69818100
18.19195400 -3.76843100 -16.37329100
30.03585100 6.82965900 11.05127000
23.11234500 6.97253500 -20.61010700
-23.06433500 5.62657200 13.78820800
21.13717300 5.84409700 18.01333600
-7.58953700 -3.40962200 22.80206300
1.10250400 -8.22104600 -18.11346400
-4.72480800 2.39315800 26.48367300
31.43201800 6.73321100 -5.80169700
25.17408800 5.02081500 -13.45105000
29.57725500 6.04250100 5.77075200
-8.04127500 -6.48573300 11.66845700
25.61232000 7.07620200 16.38134800
-0.60075400 -2.69674700 -25.14898700
14.41419600 -8.44950500 -7.35272200
11.75638200 1.79399100 26.06915300
23.75437200 -1.36760700 -12.28479000
-15.06205000 -8.27722200 2.41876200
23.26932900 4.81206200 -15.07336400
-25.71336400 5.48471800 -17.20843500
18.23761000 -0.54207600 15.78979500
-14.15943300 -8.26192500 -0.49963400
-13.93056100 -4.28519400 19.29486100
9.28194500 -6.36543700 -19.08667000
22.72415200 -2.12984100 13.20935100
-7.12015900 -6.36771400 -10.57293700
0.88870000 7.08802400 31.53988600
27.61228200 0.52426500 4.48126200
7.75092700 -7.73898700 -17.57067900
-25.33381700 6.17009700 13.47345000
-7.12003000 4.99733700 27.09524500
1.60976300 -8.12112400 -6.28106700
28.01096300 4.36946300 0.59942600
-3.36043000 3.71438700 -29.05328400
-8.28550100 5.39677400 26.57196000
2.97783100 -4.01110100 -21.27252200
-20.10911600 -4.51819600 -3.46643100
24.50219300 -0.37753700 2.89715600
26.34026000 4.11061100 14.83966100
2.60108500 -7.69022800 -19.33435100
-22.69524400 6.16291000 -17.52026400
8.86931900 -6.37057900 -10.50189200
4.75689400 6.33117700 28.36224400
0.13989100 -6.89137300 -20.49200400
-7.09870900 7.06547500 29.19335900
5.37019800 -4.99421700 -19.44000200
0.60847700 1.14891800 -26.06787100
14.99821500 -1.37195600 21.55932600
-2.34391500 -6.45378100 16.51947000
12.13394200 -5.09452200 -19.62194800
26.06760800 -1.97156100 0.17901600
16.22374000 0.51499400 -20.16229200
9.90552700 -6.41685900 -7.72540300
-17.66659900 -3.77156800 16.05932600
15.51419800 5.40123300 -26.34375000
-16.02866400 7.88513800 -26.15960700
-8.50224100 -5.73499300 16.89923100
-1.32352500 -8.19342000 2.81915300
23.30144500 -4.18346800 -8.09320100
-22.90832500 7.00466200 17.83767700
16.81492800 -8.06965300 -7.48480200
28.83815000 5.96186800 8.03625500
12.34047600 -4.11410700 -20.72100800
-0.72330600 -6.00019800 21.78985600
-15.33447300 1.55578600 -23.97100800
-16.56195100 1.89251700 -20.89703400
6.54249200 -6.95032500 19.36035200
-11.25738100 6.92521300 -28.46783400
19.09655800 -5.45824400 -4.70800800
-7.70101500 -5.58808100 -20.80688500
4.04286200 6.93701700 -29.29126000
20.27065700 -4.80555000 5.70660400
9.16954800 5.53520200 -26.21856700
-18.73440900 -2.96049100 -15.80548100
-5.97764400 -6.12720900 -20.62896700
28.60513700 6.85429800 14.14337200
-20.68199500 4.67960500 -20.08038300
-4.78235600 3.11221300 -25.99707000
-17.99761000 5.84494000 25.03277600
-20.79231300 5.34111400 -19.33599900
-1.15833400 -5.00744200 -22.76770000
-21.37947800 -3.90674600 -11.17157000
-27.93422300 3.90078000 10.05328400
11.08719400 3.60238600 -23.85028100
-7.53164700 -6.37953200 -7.27014200
-27.81699400 5.67195100 -7.71295200
-13.11145000 5.45526900 26.85000600
-27.39024400 2.28838300 8.74810800
-8.98200600 -6.41244500 -8.30419900
-18.15512500 -0.15733700 -16.06604000
27.20795400 6.74654600 12.99713100
-1.06469600 -6.21132700 7.77935800
-17.13287700 -4.16585900 -12.45056200
1.68745600 -8.08655500 -4.17022700
27.39218100 7.47419000 13.98608400
18.56626100 7.89106800 25.28060900
19.39967500 -0.12574400 -19.77099600
24.82799900 -0.23793400 -12.28064000
22.87223800 1.70668800 16.72589100
-13.64687000 -1.38851200 -22.43463100
0.17655000 7.66151700 -30.09564200
-22.79660000 -0.70301400 -13.69421400
21.71258900 2.65676500 18.33697500
15.45903800 -0.07724400 20.06189000
-1.11349100 1.69860800 28.17388900
-17.84671000 0.31418200 -21.00457800
-5.93714700 -3.11811400 -23.99304200
24.09716400 -3.46815500 6.82629400
-16.73946800 -6.71706800 -12.45636000
-3.90124000 -6.33463300 17.42504900
24.12252800 4.66501500 -15.67395000
-12.64666600 -5.98019800 -13.73663300
5.19975100 1.18682100 26.84509300
24.17223700 -2.62070500 9.48437500
-17.25682800 -5.68200300 -13.75250200
-16.12706900 0.26638800 22.20993000
-29.45713800 4.04318200 6.42071500
-13.81517800 -5.64134600 -13.30236800
-14.26859300 8.00415400 -27.25885000
-15.23484000 -2.56886300 20.24096700
-11.09370400 3.09993700 24.18356300
-17.32340000 -6.40733300 -1.81543000
-22.60740700 2.01935600 12.18878200
21.20566600 -6.71977200 0.56658900
-1.42165100 -4.79498300 20.66436800
-0.14515700 7.31208800 -31.36120600
-17.27137800 -6.40249600 0.86132800
-10.77896800 4.72801200 24.99264500
23.07061600 6.83189900 -21.52246100
-21.62852500 -3.54099300 -0.54522700
-15.79481300 -6.52984600 0.32836900
3.16562900 -6.36891600 -14.28619400
6.28407300 -6.26860000 17.20147700
24.02002100 5.61914100 -19.45520000
6.84587200 -8.50253300 -14.16925000
-19.83796700 0.07457000 14.44488500
-1.01750900 0.66942600 25.79394500
-16.54089200 -6.43672900 -1.65222200
-29.08581500 5.67708200 -0.87817400
2.52086300 -4.83636500 20.14416500
-18.81991800 -1.85337100 12.50488300
5.55733500 -5.79001600 20.98761000
-3.41605300 -3.08910800 -21.86517300
24.48090700 3.29476700 -15.87579300
-9.44816600 6.70310300 -27.94622800
-29.18027900 5.92896700 -0.18066400
11.92316200 -6.39331100 13.21319600
-10.18507000 6.26449400 -26.93127400
-14.20460900 -0.89235700 22.49847400
-27.31206900 5.14574400 8.55395500
26.05218100 1.36910200 4.92565900
30.77688600 6.59202100 -2.92804000
-15.15882500 7.99996700 -27.74542200
-14.33996200 0.82130400 23.68267800
28.21752900 6.63328000 -11.32885700
-27.81830600 6.00227400 9.05938700
22.98238800 -2.07222700 1.53607200
-5.80694400 -6.41221200 -12.69873000
13.74195700 5.04354500 25.21606400
-12.28441200 -8.49517800 -10.05706800
4.59286700 3.44359600 28.60806300
-25.36582600 1.85712400 -1.94775400
-25.72797800 6.15188200 -17.66076700
25.46724300 3.81786300 11.96191400
19.90240900 4.15605500 18.34048500
20.13305300 -0.25699200 -14.92492700
-6.74935000 -5.65917200 21.01458700
-24.27763400 4.19223000 14.77221700
13.21583600 -6.12663300 12.77050800
-29.13653600 6.65732200 -7.12255900
-26.84595500 2.79325900 4.51275600
-23.97254900 4.19696800 15.30206300
16.16600600 -4.76993400 -12.33136000
14.30420700 -5.60794100 12.90118400
-26.50214000 3.73960500 -7.00933800
17.54176100 -3.43281700 -13.36511200
-15.72136900 1.53504200 21.32931500
22.35304300 -3.50939200 -3.17492700
-25.48978400 7.50314500 -16.65478500
-12.64978400 -6.11650100 13.04864500
12.54005100 -6.16581500 -17.74993900
7.95549200 -0.72078700 25.15890500
-21.56279000 -5.41369600 -6.21563700
-12.82477200 3.97451800 -26.83606000
-19.27645100 -4.80843400 -6.17358400
24.92636900 0.33979000 7.88513200
15.37531300 -6.46781900 -0.39526400
-22.03501900 7.16928900 22.20697000
-26.82876200 0.73542800 -3.58557100
-15.25966300 -0.93246500 -18.88940400
2.38962900 3.85980900 -29.75579800
-14.08713900 5.41363900 -27.34161400
-14.53708500 6.50368500 25.47482300
22.82238800 4.41466500 -20.35412600
-19.17174100 5.62083600 -20.72558600
16.11822500 -6.56047100 3.48278800
22.10681200 4.52189600 19.08606000
10.73785500 -5.33939200 -19.98999000
25.74624600 0.37769500 -0.18725600
-25.63690900 0.61966700 10.01019300
-18.85876500 6.65545800 -22.78295900
17.46886600 -1.29494100 -20.30505400
16.59644300 -6.47244300 6.03985600
-20.01083600 1.91438300 20.27020300
-10.64756800 -4.75406600 17.61242700
11.86891300 -1.52351200 -20.43682900
10.90530200 -6.59069800 11.76763900
-4.84168700 -6.32019400 -2.75067100
-24.76852400 -2.57600400 -0.77099600
13.66324200 -6.49332400 10.80676300
-24.91118600 -1.83560600 -5.69714400
-19.78175000 -5.05297100 -1.11602800
10.37106700 -6.37007500 -13.80493200
12.79552700 -6.53042200 10.15582300
2.48326600 -3.92821500 21.22131300
-25.13055000 -2.34286500 0.44189500
-8.80901100 -6.50358600 -14.64013700
-19.22151900 -3.92107400 13.28949000
-6.74585800 -6.29999500 16.44451900
4.90524000 -3.62302600 -23.78448500
15.16241800 2.89694600 -24.92547600
29.32970400 4.67217600 1.24285900
12.28925400 3.92887500 -24.01336700
-14.86076000 2.24611900 -22.69940200
16.68827100 2.10790000 -23.48425300
-1.10539700 -5.33171800 19.88208000
-16.99259000 0.94896700 22.17419400
15.54286200 -8.33937800 8.71344000
13.14992300 -2.45607200 -21.84686300
21.76841000 5.21342100 20.06127900
-16.29309700 0.85247800 22.69043000
2.71849300 1.74142500 27.99920700
5.05792400 5.99186300 29.89556900
10.43981900 -8.29942300 -2.08746300
7.47731300 -3.17988200 -20.52166700
11.49683600 -2.97997900 -22.06768800
-15.55777000 1.42718500 23.48709100
-11.26006300 -8.35751300 11.97937000
-24.40347300 2.40082600 10.55548100
12.86611500 0.65284600 -24.21252400
-12.66749400 -8.24091300 0.69354200
-28.46904400 5.09082400 -1.50939900
6.82778500 -6.34051100 -8.92547600
18.77077300 5.58109500 -24.69696000
21.88806200 3.79214500 19.08532700
12.73160800 -0.61765100 -23.36938500
19.73869100 6.49857600 -24.60260000
16.92101300 -7.02354400 11.95477300
27.74826400 4.15147700 -7.98718300
22.58891300 -2.48208800 -12.23150600
-24.45856900 -0.42177600 10.61431900
-17.94607500 4.69413000 21.79162600
-4.69022300 6.87156700 30.92099000
22.42746200 5.40802900 -21.57727100
18.41554600 6.36374700 23.10690300
-4.97235300 -6.21303600 3.94482400
-22.35797500 -5.38367500 3.32904100
-27.91197600 4.85309600 11.39154100
30.33276700 4.86117700 4.92352300
-2.43611100 5.86370100 -28.63879400
-21.58335900 -5.18631700 7.29791300
18.64115700 6.99246500 -23.32177700
4.96166000 -6.33417500 -10.98883100
26.06685600 5.69399600 16.69720500
-28.63882400 7.02761100 -14.22674600
-8.55101000 -3.95041300 -22.36389200
-21.34188100 4.84561200 18.02291900
28.56770700 1.10837200 -5.27093500
11.93090800 -7.92752800 14.63201900
-4.50002000 6.05793800 28.74838300
-29.06640600 4.46960800 -5.52716100
-8.20620200 -2.27868300 -24.06463600
-17.00175900 1.79375300 -23.06512500
-15.37541200 -6.95683300 13.05151400
27.03651800 -0.85243600 -5.93328900
-25.18499000 2.45076000 -3.09161400
0.75111100 -3.23307400 -24.60491900
-22.52780900 7.51718100 19.32397500
20.45660800 -1.65487700 16.04187000
-27.38927100 3.04349500 10.05603000
24.10996200 -4.49963400 -3.08380100
-28.97444500 5.57526400 -5.25775100
1.71204600 -4.40651100 -23.42633100
-22.91433000 7.13084400 18.63302600
18.46481300 7.72706600 24.44171100
-0.42067000 -8.48067500 15.80304000
14.83239700 3.19358800 25.65020800
-13.43793500 -0.38120300 20.98446700
5.68335000 -0.87589500 -25.97076400
-3.87770400 -2.58055100 24.60049400
-30.74074600 7.84873600 5.32617200
-4.78323200 -8.41716000 10.85601800
-12.07433100 -8.31292000 -2.12707500
25.71965400 -1.17071900 8.72906500
-15.40336400 -0.89041100 19.15039100
29.44871900 6.70748600 -12.02478000
3.67431900 -8.06525800 1.68426500
24.96487000 -1.62356600 9.83441200
25.42676500 0.55684700 4.32464600
-20.71746100 2.80131500 -19.46801800
-16.96755200 -6.25774400 -5.13702400
-11.70257200 -7.73837300 -15.63665800
-4.20352000 -6.44716600 -14.09973100
-24.09550100 -2.33882100 7.89001500
-20.06453700 -2.12099500 15.28576700
2.65012200 -8.02748100 17.85845900
-28.00581400 4.66154100 4.12701400
-3.78662400 -6.29819900 -17.08929400
11.21326100 -4.10211200 18.60199000
9.97927500 2.13738300 26.73977700
1.00143100 8.29144900 -30.75183100
-12.64579200 -8.22127500 11.72094700
-7.08224100 -6.91297100 -19.18103000
-20.22552500 8.37727400 23.12313800
5.78529200 -7.86463500 -18.26550300
9.44880500 -5.21102900 20.82061800
-19.80804100 5.31733700 -18.70092800
4.80529400 -7.36739300 18.91680900
10.36960400 4.89884200 28.23068200
-25.93800700 -0.49275600 -5.25994900
-22.53764300 2.66699200 17.63925200
3.45259100 -8.30141400 -7.81512500
-12.46484300 -4.82328000 19.57067900
24.04963300 -3.02504300 8.47735600
6.85111600 3.34872400 27.55279500
3.88466100 -7.04263300 19.68011500
18.97522000 7.35205800 25.82980300
10.91430300 -1.03232800 -20.99658200
-10.85477400 -5.40734900 19.62646500
4.60298400 -6.31058500 9.38555900
9.97822600 -8.27558900 -14.56640600
18.69612900 6.54009200 25.57995600
4.30147100 -6.25643200 -7.23309300
4.89797000 -6.48741100 12.73877000
12.29312900 -6.40255000 -11.68591300
14.05136900 -4.79554000 14.92651400
21.99789400 -3.65761600 -4.57800300
9.11847500 -4.36207600 -21.55432100
1.00675800 -5.68278900 -18.97522000
-15.59491200 -2.44662500 17.16693100
15.11997200 -8.44539600 7.01678500
29.94858900 6.05785300 -11.28039600
-3.33264400 0.50913400 -27.26190200
7.51050800 7.18902700 -30.26300000
-13.32026900 -3.38703200 18.00555400
-8.80352400 -2.96203200 -21.01165800
-30.39041100 7.04541000 9.41931200
-1.90609500 -3.29222300 -24.55291700
17.12943600 -8.25006100 4.77014200
-12.14111700 4.90536300 -25.77362100
7.71021900 6.78927600 -30.19909700
-6.34052800 -6.50738500 15.57800300
19.43069800 -2.74928300 12.55743400
22.31324000 -1.61264200 -9.35449200
-11.63367100 -6.52324300 -10.97454800
-16.40727000 -6.04637100 8.10742200
16.47869100 -6.49611300 -1.23425300
-24.41381100 1.28701400 -13.86450200
8.68110700 -6.58902000 15.02313200
2.06815400 6.69596900 -31.31286600
-12.04604500 -6.44605600 -9.62939500
26.87808200 5.18383800 -14.38177500
3.34824000 6.29106900 30.92559800
-27.55933800 5.89744600 12.78247100
27.55736900 -0.27280400 -2.96002200
-12.74218800 -6.47986600 -10.77301000
-5.83967900 -8.54736700 -15.68951400
29.43608100 5.68189000 3.63928200
-18.12149800 -0.14289500 -20.18920900
-30.31397600 6.89585900 1.52398700
22.80055000 6.97652700 -19.34863300
-26.83458700 1.19040300 -8.03241000
29.30103700 3.61146300 -9.60632300
24.12543900 -0.95201900 3.45776400
-23.15255000 -3.92434700 6.51751700
-9.76007700 5.35523200 26.06408700
2.75024000 -6.15287000 18.06793200
-17.96731800 7.22081000 25.72210700
27.99723400 1.98846800 -9.76812700
-8.13018800 -1.21082300 -24.84552000
-17.46422800 7.55211600 25.85455300
9.83560900 5.82401700 -27.17962600
-2.44809300 -6.20122900 3.48748800
27.50163300 3.76763500 5.52343800
-8.87708300 1.43721000 23.62399300
-8.82766600 -6.48880800 10.90918000
8.12517900 -8.29600500 0.80365000
30.13571900 6.88275300 8.15167200
-19.54433400 6.92279800 -24.42218000
-18.85120400 5.90633600 -21.83825700
20.57552000 3.55022400 17.15161100
11.36440200 -0.26726100 -24.01263400
7.15776800 -8.31007400 3.09869400
-5.86288600 2.99518400 -27.52471900
20.15940900 0.40278200 15.49731400
10.80791100 0.37738600 -21.98962400
26.94786100 3.43405200 2.12298600
7.60229200 -6.97309500 -18.96746800
21.50004200 2.25856400 15.93139600
10.09703100 -1.41533700 -23.68743900
-5.93523000 3.94947900 -27.97222900
27.33594100 2.16308400 -3.98553500
22.69569400 -1.28831900 10.09893800
8.68445000 -1.09384300 -24.65734900
-15.61850500 -7.75629000 -11.12115500
28.59050800 2.48885500 6.68908700
-4.99043400 0.32519500 26.84277300
23.13975100 -1.33506000 8.88879400
-4.05802500 6.47129400 -29.11157200
30.67385100 7.41136600 -8.58361800
-1.09124300 -8.23266600 7.04162600
-14.03893500 2.81562800 25.23382600
-9.37325100 -1.95178600 -24.07275400
23.69311500 6.31070400 -17.92785600
6.55861300 5.13059200 27.70272800
-0.95415200 -8.34447500 10.40570100
-26.56735600 6.29570000 11.69317600
-11.01006000 1.59207900 25.33276400
6.37290100 0.68582600 -26.93359400
7.16735100 4.62259300 28.12786900
-13.96934500 -7.61364700 -13.53222700
1.22759900 -8.36005400 10.26886000
-21.75532500 3.58311500 14.25018300
-6.41314600 7.03601100 28.83783000
-9.89617800 2.31031800 25.98925800
18.70989200 -0.11444500 19.36798100
-19.79683300 1.19506100 16.54785200
17.04477300 -6.42818100 -3.02960200
-0.07069900 7.83020800 30.49288900
-14.02019500 1.83380500 -24.87695300
8.29958200 -3.97746300 22.32614100
0.02332200 -6.25087400 -8.02063000
-3.06440900 7.67020400 30.18719500
-28.98413100 7.21688100 10.70990000
30.42439300 6.83818100 9.56738300
-20.04607000 6.54682900 -23.46380600
-6.50061000 4.62995100 -27.41803000
24.83046000 5.98138000 15.40936300
15.82389800 -5.91280400 15.13970900
-1.19957900 -6.28205100 -6.12487800
26.00358600 7.33363500 15.59210200
-8.13254700 4.61486800 28.29873700
-6.28773700 4.38831900 -27.84918200
-15.24115400 -3.53424800 16.10137900
-1.44818800 -6.26414100 -7.08898900
2.32380700 7.80127300 30.60711700
-18.57393300 -6.64650000 9.48950200
-7.10912100 -7.84339900 17.42059300
-10.63268700 -6.11553600 -15.03863500
-27.64841100 1.53707100 6.21752900
-6.36324700 -6.37669000 -9.62420700
16.07467700 -8.43246800 5.24902300
17.64695000 6.87524800 26.41171300
29.05081900 3.08443800 3.32727100
-6.08403100 6.61155700 30.35186800
-18.56111700 -4.30069000 9.54754600
4.31310600 -5.39250400 -22.08508300
10.63439400 -7.98379100 -15.23626700
-19.26445000 0.06212600 -15.48559600
7.08609400 0.99338500 24.35528600
5.92664900 7.59407000 -29.34783900
-14.03670300 -1.85582000 19.23999000
7.01536300 -0.96281600 -25.43743900
18.75522600 -7.92294300 2.06274400
25.21461100 1.60052100 9.69262700
-24.89284500 1.95851100 9.22589100
-13.29890300 -6.57263900 16.26666300
15.79606200 1.88571200 21.81488000
15.93755700 -3.56099700 14.34100300
19.79427000 -7.53851700 0.69512900
-1.91354100 -8.14242900 -3.03411900
-22.52187000 5.06462900 -16.79180900
-12.24486900 6.17877300 -28.26702900
-7.17407100 4.04858400 28.48996000
26.27566900 3.24013400 -10.44238300
-16.59978900 -4.45719900 16.80249000
-0.47133200 -8.46297500 12.78125000
6.48104900 0.43450900 23.83416700
-7.55562000 5.01863100 28.90567000
-16.38245600 -6.44873000 0.88311800
-18.68978100 -3.22148900 15.48431400
2.98809100 -8.07719400 -3.23730500
3.76061400 8.56360600 -30.85894800
9.04521200 -2.75297500 21.07116700
-7.60247800 4.99718100 -27.86041300
-17.02458200 -4.43197600 16.29675300
-9.81903800 -6.32071700 0.48156700
-2.60976500 -8.09626000 -1.85296600
-18.23367100 -4.24165300 14.45599400
7.37089800 -8.18257900 -3.07446300
-2.00300400 -5.55422200 22.15258800
-5.07950700 -8.36048500 -5.80761700
26.25142700 2.42853900 -9.33172600
-12.04923200 -4.12270400 -18.05688500
-24.06825600 4.72780600 15.74231000
16.48749000 -6.89276500 -12.63989300
-19.78301600 6.83474700 -23.02612300
21.74779900 5.48236800 18.53671300
10.30772400 -5.01944700 17.65399200
20.79011200 -1.48632400 -11.65039100
-8.37102400 6.37863200 27.97747800
-5.63095900 1.43259200 -24.34576400
6.23175400 -1.23284900 24.81460600
-21.49907700 3.67962300 -19.39654500
8.81542000 -4.59144600 21.66156000
18.19058600 -5.97858000 -12.20343000
-3.75423200 -1.99984200 -22.82006800
-8.74481200 -5.71834900 -17.17523200
28.31098900 3.61324500 10.40747100
14.54350700 -6.85312700 14.76104700
-18.92113500 2.93590500 19.64309700
5.71194300 5.79242700 28.58255000
24.24237800 4.44789800 -15.27600100
6.22954900 -3.21517200 -23.75695800
18.69641300 7.45282100 -25.74127200
25.92870300 0.45748500 -5.17559800
-14.98589500 7.11286200 25.90823400
-25.36674900 5.52254500 12.26452600
15.29995300 6.60052100 25.75738500
8.84651000 4.44574400 26.32391400
12.85143100 -2.44329100 -19.18335000
-5.31468200 1.39350900 25.69668600
-14.50974800 6.79881300 26.41610700
14.61754200 6.33782600 25.71008300
12.80377800 -3.31415700 -18.26727300
-7.12252200 4.65199900 -27.78759800
10.05037100 5.41214400 26.66424600
-14.70244600 -6.40984300 -8.96301300
15.37410900 4.14145900 -23.20062300
15.32795700 -8.49839000 1.45379600
-12.94662500 3.70993800 24.23642000
0.90441100 -6.23384100 7.37786900
9.65651500 6.59242600 27.38671900
26.70140100 1.70640900 11.22259500
-1.34915000 2.21896800 -26.67450000
-16.88653600 7.12153400 -26.98095700
17.06748400 5.29294600 -23.01904300
26.51681900 3.26437400 8.72540300
3.59711100 8.58100900 -30.54791300
-2.94261200 -8.45194200 -16.76965300
-16.57455800 -5.81229400 -8.73193400
1.01445300 -5.58756300 -22.15985100
-1.47009400 -8.51532400 -11.16467300
18.54172100 -2.34788100 17.02496300
4.13418800 -6.11727500 -17.91943400
9.34624100 -6.36227000 -8.72332800
7.41382800 7.70699900 -29.47161900
16.10546900 -0.59334800 -21.94195600
11.14774400 1.35623600 -25.14831500
18.21390500 0.78196700 17.19104000
19.47123700 -1.42121900 17.06958000
11.03374500 -6.35088300 -7.96533200
-5.07034900 5.17923000 28.00820900
-15.52561200 8.21244200 -27.12365700
-14.50034300 -5.51454900 -17.07647700
18.71204800 2.18707700 18.44928000
-1.87923200 8.11112200 31.01074200
10.63351800 -6.34082000 -6.89404300
-21.45190800 2.53037300 13.53033400
28.53562200 6.19174200 -13.10278300
19.51672000 5.64116300 20.98669400
30.43688600 5.93670800 -1.60607900
-22.19236000 -3.26543400 3.10321000
29.86153400 4.59452400 7.19934100
18.06842800 5.10504900 22.21130400
-7.00350600 4.74099000 -25.73712200
-12.06412300 -6.37769700 -3.76129200
-22.96174600 -2.38481500 -10.89032000
3.99383400 4.00182300 27.11694300
31.24504100 6.92520500 -7.89428700
-19.57456000 0.12540400 15.25860600
-9.19403100 -6.33879900 -3.48327600
10.16097000 3.72055200 -24.31384300
20.34905200 -6.56106900 -7.34381100
13.32011900 5.89584100 -26.92468300
9.14217900 -6.41425700 -12.60058600
-1.69542300 5.53914600 30.63934300
14.08858400 6.90584800 -26.09863300
-13.75824500 -5.18862900 14.40704300
-17.33072700 -1.71590000 -15.19360400
16.58330000 -3.06967200 -15.63635300
5.72885600 1.20199800 -27.52093500
20.99625400 6.47456700 22.68716400
-25.64920400 0.00922000 -8.93902600
12.75544700 6.67340900 -25.92578100
-17.09517700 -0.94795600 -15.89520300
26.67926800 2.32114100 -7.82281500
20.78451000 2.96626400 -17.99957300
17.48741900 -1.34287300 15.46148700
9.59282900 6.73696900 27.71835300
-17.08961500 -0.18511200 -16.82251000
-8.16303300 -2.40259600 21.02960200
-6.13140900 -3.66577100 -20.71185300
-18.21706200 2.55475600 22.48767100
-22.51736800 -5.23964700 -0.24578900
-17.36850700 -0.25471100 -16.37005600
-22.42302700 -1.71323800 -4.96246300
24.12941000 5.62158200 18.10650600
7.52724600 1.20920600 26.41272000
-18.55123100 4.71623200 23.85501100
-23.41084700 5.50917100 15.10263100
9.88718600 6.69710200 28.23812900
16.54442000 -4.57085800 -16.84417700
-26.18956000 3.28092200 -5.99035600
-21.72188600 4.59532900 -19.91363500
-21.06286600 4.23630500 21.20855700
-30.84346000 6.77619900 2.33941700
18.00949700 -4.43549000 -15.38409400
-8.65929200 -3.29657000 22.56872600
6.47746800 -0.10023500 25.80905200
25.25856800 4.47309500 16.56726100
-8.38766900 6.12365200 -26.85241700
-31.34133100 6.96215400 4.19390900
5.25693600 -6.25348700 -5.22094700
7.08354600 -0.01431300 25.66143800
23.62995500 -4.70701600 0.09826700
26.61816000 5.16141100 15.68481400
-16.47708900 7.24943900 -25.20929000
-14.89067100 -6.40827200 4.39502000
8.41915900 -6.28016700 -5.27929700
20.33409300 3.08616800 -21.64196800
6.86647400 0.57936100 25.99365200
6.90972800 5.29754500 -27.47039800
-17.36054600 6.67221300 -24.11621100
19.07299600 -2.71986600 -16.92547600
21.07334100 0.93586100 -14.82366900
8.93481800 -6.22847400 -4.69873000
24.21809400 2.14419300 -15.15893600
-16.78300500 7.85215400 -27.14813200
-16.82682400 -0.74751300 20.72375500
-16.66076700 -8.19432800 5.55542000
10.63415100 -6.31650500 -4.99743700
-22.68750000 -0.18684000 -9.87554900
17.65525400 2.56681300 -20.85937500
-22.08753200 7.90899700 20.58154300
-18.17551000 -0.84999500 -19.13916000
-17.52988800 -7.91214800 6.52471900
-1.03518800 -6.19685400 -5.15167200
20.91473000 4.05001400 -18.77545200
-23.05718600 -0.31391100 -8.35308800
-7.38826800 -6.47755100 -15.31738300
-17.76258900 -1.38652000 -19.04449500
-2.15809100 -6.23561900 -3.47991900
15.20429500 7.23948400 -26.10498000
19.38021900 4.04810100 -20.37890600
15.00626900 4.51680600 -26.20971700
-0.44488900 -6.14868900 -1.17456100
5.91927700 -8.25165200 -4.13604700
7.01115200 0.84115300 -24.47869900
-1.27533200 -8.07472600 -0.12970000
19.60190400 -1.50344300 -12.96807900
13.82525300 -6.94833400 -15.23724400
-9.21891000 5.36979700 25.68710300
-15.97392300 6.69726200 -27.34930400
-24.57877000 4.26637300 -17.11047400
-0.38599800 1.20362900 27.89288300
19.01556400 -4.59864400 14.24920700
-10.42919500 -8.15879800 2.46496600
16.87566200 -5.09221600 -10.21368400
14.13856500 -0.74220500 -20.17053200
-3.61504100 -8.08829500 -17.77648900
-26.95645100 4.79565400 -2.51800500
-15.52265200 -7.76467900 10.33099400
12.10873600 -4.47725700 17.42376700
-4.44036400 -8.37922300 -16.68255600
17.17260400 -5.43141200 -8.88574200
13.57543900 -5.47731000 -17.96026600
-27.62049900 4.91014100 -2.79632600
-14.54069100 -7.59089700 12.08276400
-17.36006400 -3.71595800 16.91339100
-12.75074000 5.15206700 -27.59759500
-10.92231200 -2.13916800 -21.02002000
-27.92743700 4.49847000 -2.61755400
29.41723300 7.06979100 -9.24792500
-17.92681900 -4.11731700 10.62194800
14.29868300 1.57466500 22.63760400
28.94974100 5.07765200 11.63427700
-19.14661400 -5.32438700 3.77581800
-15.25479500 -3.12028500 -15.72534200
-28.52380800 3.92224500 -3.98803700
21.93731700 -2.06906900 14.16803000
8.51698500 5.17376700 28.47549400
14.50107600 -3.55700700 19.53936800
-14.84142700 -2.19677700 -17.82629400
-3.54964700 -7.66459700 18.80658000
-28.47723000 6.24018900 -6.83557100
21.66653400 -4.36525000 -10.29071000
-21.95910600 5.42533900 17.17971800
21.62154800 -6.11131300 4.96374500
-0.95092700 -6.47303800 21.14227300
24.17566300 -3.43401000 -7.90216100
5.95239400 -8.22243100 -0.35278300
-10.34246800 -8.40936300 -3.59753400
-21.19847900 4.13732900 17.58172600
-20.02011900 5.62959900 -19.61444100
5.31212800 -8.27000000 4.19616700
-2.81504400 -7.11898800 19.77252200
-23.32503100 -3.32646600 -7.32055700
8.28471000 -6.25353200 3.92614700
-8.05193200 -8.40174500 -5.02215600
3.52836200 8.13274800 -31.54785200
-22.23096500 3.94633500 19.53881800
-26.90658600 5.39555400 9.72503700
-27.85951200 4.93760300 0.40631100
-8.85097100 -8.50267800 -6.04528800
-25.68108000 6.47913900 -17.69287100
8.37814500 -6.32391700 4.92871100
-24.58564400 0.51261100 6.91961700
-24.13120700 6.11631000 13.81671100
-7.79559500 -8.51426300 -7.51989700
23.60231400 1.65378200 13.06372100
9.58896300 -6.27778200 5.18804900
1.13366200 -6.49316400 16.85162400
15.95366300 -1.11864100 18.17865000
15.63260700 -2.31201200 20.06152300
2.16925700 7.37228400 30.04724100
-26.73423800 2.33059700 10.23980700
20.68780500 5.15763100 17.80221600
3.24910200 -3.20796800 -22.08569300
-13.49367900 -4.79995700 -19.00402800
-29.43345300 6.60122700 3.57366900
6.59162500 -1.27530500 -22.86706500
6.78467400 6.78432100 -28.52331500
-19.69982900 -3.77016400 -8.83483900
19.98641800 -0.81572900 -14.04235800
11.00138100 3.12598800 -26.25805700
12.17992800 6.25802600 26.65206900
-19.68230100 -2.92899700 -10.91253700
-21.24660100 0.98265800 12.35821500
16.77147700 -1.71206700 15.76849400
11.34670400 2.83453000 24.91479500
-23.13988100 -1.89856700 0.97558600
-27.13007400 4.25035100 11.96283000
3.88056600 -0.52788500 -24.32739300
12.12381000 -6.36909500 5.66326900
22.87721300 -2.24292900 -6.69586200
-23.79096600 4.97673800 17.82153300
-25.71085700 1.16246000 1.60363800
23.14141500 5.23901400 18.76178000
10.27162000 -8.42574300 -6.87457300
10.33097600 -8.39786900 4.50250200
14.67680000 -8.33636100 9.96600300
3.54912500 4.72721900 29.84423800
-13.00955600 6.85201600 -26.74475100
10.00404100 -0.44103600 -21.47534200
11.09566500 5.57968300 -26.63757300
-22.69952800 5.64641600 20.52020300
19.11979700 7.75769000 -25.50860600
-13.39463600 5.33698300 25.11050400
-3.87113600 -4.24457200 -20.52557400
13.20489900 -6.40448400 7.77056900
-19.45053100 -5.66315500 10.35736100
10.92983000 6.08950000 -26.55078100
-5.45361200 -6.49515900 -15.10522500
20.16562100 -2.67407400 -15.51440400
13.63448000 -5.31119500 18.12060500
-20.17347000 -5.70174400 9.00476100
21.80624800 -2.52524200 9.19708300
21.30435600 -3.93135800 -5.93212900
2.79281400 5.72972100 -30.77233900
17.49828300 3.13354500 23.89431800
22.54407900 -1.95478800 9.27642800
-21.25025600 -3.98310100 10.41436800
-30.13457500 6.16655000 -7.91564900
13.67606900 -6.33472100 -5.12335200
-13.00377100 5.02546700 26.79794300
-4.95047000 3.94721700 -28.50494400
-10.81459400 -8.51184500 -6.03979500
25.43288400 2.46196400 -14.22692900
-10.62382500 -4.83876400 -20.72424300
2.32448100 -8.33579300 -17.63940400
18.17857400 7.05361600 23.95529200
25.93668400 1.60812000 7.32763700
-15.07818200 -8.11339600 9.31683300
18.37920800 -7.82414600 5.90142800
14.66763100 -4.61154900 -14.79541000
-0.57584500 -8.48828900 14.64776600
-3.85039400 -8.50555800 -16.10656700
21.46320700 1.51968000 17.76647900
11.46684300 6.81025300 28.71612500
1.65733300 0.68408400 -27.79132100
2.16006700 -8.46689200 -16.75653100
-2.60191500 -8.30095700 17.33612100
13.87423500 -6.46458400 2.20312500
12.18107600 7.34894200 28.40210000
1.93553600 8.18346200 -31.64379900
6.69628100 -6.45377000 -11.90374800
-21.40126000 -3.93616500 1.58532700
-3.73721500 -8.45425400 15.77002000
27.58724600 1.65695600 8.66754200
-0.41847300 -5.93027500 -18.45935100
3.53878000 -6.36751900 -12.17590300
13.57628400 -6.40194300 3.28472900
-12.46653600 -5.94187200 -18.35235600
31.11858000 5.86964900 -2.58245800
-27.66289100 0.95779400 3.71789600
-15.19271300 -2.86458600 17.19622800
-8.58129500 3.50505100 25.28656000
16.61505100 -6.54716500 4.49487300
-6.54553200 -6.95750000 -19.34893800
-7.83397000 2.55564100 27.33438100
23.44924500 -4.34894600 4.99920700
-7.90205800 -6.43075600 -8.20678700
-9.20791400 0.97075700 22.98767100
27.08811600 1.28271900 9.64758300
29.48833800 3.90257300 1.77825900
-10.02374600 2.66168200 23.91873200
-8.38192000 1.65798200 26.55090300
15.21017500 -2.31601700 17.28735400
-18.76309200 3.16663600 -22.59271200
-26.60384400 0.51195500 -6.21563700
20.49663400 8.05548300 -23.58276400
-17.90776800 0.78753700 18.55905200
-7.05372300 1.04838600 26.71157800
-11.07438700 -6.38510900 10.10083000
1.03455200 -8.43232000 16.45922900
-29.59611100 7.52552000 9.68286100
17.69657100 7.94685000 25.76309200
-0.38336700 7.08925600 30.05709800
-23.79366300 5.86911000 14.04657000
-30.95916000 7.67455300 4.26886000
9.83358000 -8.30304000 -4.22216800
-17.95813900 8.10763500 24.84246800
12.84375800 5.43040500 25.86920200
-3.43649800 3.76920300 29.35434000
-8.99231900 -1.21022000 24.15741000
4.68958700 -2.72754700 21.47702000
-6.19864800 1.59306900 -26.76428200
-19.60221100 8.28320300 23.27429200
4.36747200 -1.28288300 23.02487200
-9.75136900 -0.34237700 24.41272000
-5.19326000 4.72795100 29.58126800
-28.27365500 5.05889500 -12.70904500
-20.42097100 8.13434600 23.61288500
4.58256700 1.57247900 25.30011000
-9.25275700 0.13551300 24.99704000
30.58343100 7.07015000 -10.14025900
18.00167800 -7.23822400 -9.29882800
-6.31507000 -2.09039300 24.54852300
2.51065000 1.51287800 26.01821900
24.52177000 -1.24888200 -2.70080600
14.93527200 -5.90983600 11.45404100
-16.54934700 -6.60516400 12.32116700
26.89602300 0.27669000 -9.35748300
29.98258600 3.28110300 -5.27325400
-7.61470300 -8.09993700 16.27978500
-0.82212400 -1.62713600 25.72384600
23.59266300 -2.14434200 -3.40631100
-16.76298300 -8.17171500 -0.28039600
-23.29417800 6.48918900 16.74179100
26.34355200 5.38204700 -14.43194600
-4.80704900 6.21853300 -28.60870400
5.33393600 -6.81049000 -20.17785600
9.24486700 -8.49815400 9.81640600
-16.13225600 -8.24769600 1.01532000
-24.12859000 5.58467100 17.09182700
-26.27220500 7.02754000 -16.73815900
8.34697700 -8.12020100 -16.17553700
4.00702400 -6.32335300 -9.37304700
-6.04618300 0.09912900 24.47470100
-2.50176600 -8.19020100 3.29107700
5.67771900 7.78035700 -31.17028800
19.78310000 -1.53562500 -12.37329100
-6.66735300 -0.28249400 23.80828900
10.85767000 -4.59995300 -17.48724400
28.63716100 7.15117200 -12.16149900
7.39478100 3.31296000 -28.27325400
1.49183700 -6.19713600 -0.39685100
21.36399800 -1.46166000 -11.04559300
-24.70879400 1.23883100 8.38909900
28.46511800 1.71061300 -8.11468500
-19.73374700 6.39969600 24.11038200
-3.42609400 -4.71838400 20.44494600
29.18347500 1.99522200 -4.36297600
22.66088900 2.00347300 -17.94384800
5.39783100 -6.16267400 3.14086900
23.60913800 -0.81538000 -8.64422600
-21.21679700 1.52572600 12.86694300
28.75135000 1.46546000 -5.93823200
21.88123300 0.06401600 -16.89935300
-0.53110700 -8.38557800 -8.44427500
23.23018300 2.09523200 -13.07220500
11.84978100 1.35183000 -22.58087200
-25.71641900 4.27915200 -15.88165300
-10.17675000 3.94848600 26.66757200
-23.91527900 6.07161700 13.66626000
-0.74219600 -8.33661700 -6.57788100
11.06611400 2.50463700 -23.33990500
0.61741000 1.05134600 25.96435500
22.05107100 -1.62238500 -14.03991700
-12.42794400 5.21410400 25.25103800
18.06155000 1.82133100 19.11669900
-1.76500300 -8.34072900 -8.50915500
5.27109000 2.01438900 25.15182500
-17.25120500 -6.34764100 2.46911600
28.84022100 2.12485300 0.08966100
30.42009000 7.50943500 -8.36749300
-24.57041900 -2.36753800 6.45294200
-7.03763800 -5.82372700 -17.54693600
28.60914600 1.51702300 -0.92413300
20.62456500 -7.03916200 -4.10473600
-8.91180200 -0.93746200 -22.71637000
30.42441200 7.49405800 -7.42327900
-2.10586700 0.76638800 27.50769000
-20.55315800 0.97846200 14.12420700
-8.83998500 -3.80367700 -20.17962600
12.28689000 -6.34023300 1.02087400
0.48736600 4.69319400 -28.07757600
11.47584000 -6.85672800 17.42419400
13.31152300 -0.64689300 21.04934700
11.39897200 -6.36757700 4.40246600
-24.71740300 4.72361400 -13.74578900
-29.93399800 5.80225000 -8.32617200
-9.07398400 -5.76107800 -20.20922900
10.74210700 -6.30730800 1.90014600
15.87397000 7.37619000 25.89608800
-16.12268800 -8.23793800 3.91607700
10.00198400 5.84847600 28.70285000
-4.35552000 -5.56932400 -21.99700900
-8.12756200 -4.39256300 18.97210700
30.64187200 6.37905700 6.76239000
4.15831200 -6.25573000 17.61584500
8.37683500 1.74030400 -26.88452100
-7.64454600 -6.28244000 9.26355000
-21.95894600 -0.90646400 13.44061300
-30.12982200 4.86148800 1.82623300
30.46120100 6.62128600 7.39666700
16.59919400 3.06026100 22.01660200
13.23363200 4.72982200 -26.47747800
-30.50908700 5.37249800 2.86785900
14.47446100 1.59758800 24.72476200
-21.30101800 -1.25534100 14.21801800
27.46923400 3.77779400 12.54095500
14.49371600 5.50827500 -26.67639200
-28.91877700 7.81216800 -11.83984400
-16.53830000 -6.42633800 -3.64715600
-7.57672900 3.58380500 -25.50994900
2.39108600 -6.45714200 -16.24536100
12.84137300 0.41133900 24.67712400
26.28358800 -1.65589100 -6.56524700
5.33625800 5.38007700 27.40249600
4.39195600 -7.90641000 17.99823000
11.31648100 6.05423600 -25.18066400
2.44222200 -6.19606800 0.89532500
-19.76381700 -7.03873400 -4.01135300
-22.09917400 3.45966000 -18.75012200
1.32940200 1.94202600 -28.64190700
-18.48268700 -5.12729600 7.42279100
-3.59061000 4.66468000 29.87020900
-17.13399500 -7.93831600 -7.14660600
12.53187000 -8.09281900 13.34234600
-19.75090400 -4.59443700 6.34674100
1.16735900 -7.40038300 19.69561800
-11.24841000 -3.49665800 21.45959500
18.80414200 -4.17053200 -9.73889200
11.66822600 -8.30453500 13.49224900
28.64961200 7.12308900 13.96136500
5.89659500 1.92602300 -25.77459700
22.58633400 0.11060700 -11.81579600
11.51471300 -8.49218000 12.45373500
-5.64540000 -8.05912800 17.43896500
4.75302300 5.31027100 -28.05493200
6.70300900 -6.39300900 -20.19671600
3.93641700 6.73993300 30.63180500
-7.96707900 5.69439200 -26.46093800
11.53035000 -7.44506100 -16.06671100
-21.84245300 -5.74818400 4.07257100
29.57697700 5.70988800 -2.38452100
-29.95963700 5.20211400 0.04382300
22.37642300 -2.23035800 8.54290800
23.26621100 6.98885800 -19.64019800
28.89602700 4.80693100 -2.09564200
-9.87046400 -6.43618400 -14.63354500
3.71780900 -0.83087900 23.74237100
-19.71837600 6.01068100 21.23617600
28.46012900 2.41359500 7.54907200
4.63118000 -4.65148900 19.59167500
23.59027300 6.14971500 -20.83129900
6.77505000 7.17115000 -30.73407000
15.15289700 -6.48008300 8.25421100
23.32851800 5.26545600 -20.35528600
-30.64056800 5.83190200 1.31127900
-3.27769500 5.69839500 -30.00061000
26.26216500 1.92580000 12.50360100
-22.07856800 7.50472300 19.76242100
21.97883600 2.75143100 -15.35845900
-24.72348400 4.69590000 14.48724400
4.98100800 -6.18465800 -2.71197500
-24.73996700 -0.73896800 -9.85852100
-4.50387000 -2.16403400 -22.15277100
24.95334600 -1.17919500 10.78088400
0.47133600 -6.55138400 21.10595700
-18.81845900 -2.06325500 17.28601100
14.35368000 -2.66914600 -21.01983600
-3.62751600 -0.70357900 -23.88238500
23.80803700 4.82996900 -14.69372600
-13.99850300 -6.45564300 2.82360800
-3.28569700 -5.28419500 -22.47491500
13.05311800 -5.67979800 14.17401100
-31.26334400 7.29851200 6.53186000
2.23505800 -8.25836200 6.29303000
22.48848000 6.16057700 -18.36694300
6.78969800 -6.24870700 6.15417500
28.15775300 6.81169300 11.50457800
16.42131400 -2.31039000 -20.02911400
2.03344700 -6.38346500 -14.55218500
10.44104000 1.14370700 26.05487100
-17.45629900 4.21042600 -21.94464100
24.49496800 1.06742100 10.51104700
29.10142900 5.32368700 3.15075700
1.69629900 -7.99426300 1.54266400
15.18772700 -6.30966900 -8.52221700
-15.09732400 -2.31581900 17.87976100
1.36168400 -6.30614900 -9.83013900
-7.86142700 5.74901600 29.11892700
28.73054900 5.00648100 2.76037600
-28.47581900 6.28849800 11.92431600
1.58962400 -6.25250600 -8.74371300
-4.98931500 5.75890400 -28.92211900
-9.47192500 -8.35807000 13.48529100
-11.87631600 -5.41073200 -15.69195600
-13.89157300 -8.46032000 -6.47882100
6.69297400 -8.59535200 12.59259000
-4.20501300 5.52080500 -29.53051800
-21.44304700 6.72008500 19.90148900
-3.17850400 7.83110800 30.91558800
-30.48525600 5.34348700 1.93988000
24.75490200 4.06090000 -15.57720900
-23.85786100 5.75444800 13.32104500
-23.86175200 0.03551500 12.03527800
-19.17610200 -7.58834800 0.38012700
-26.14774300 6.58136400 -14.25390600
-15.85286900 6.72547900 26.61950700
23.80664400 0.86789100 -11.25549300
-12.75355100 -8.50960500 -6.69928000
-18.49834400 -7.81523100 -1.34820600
-23.47146600 -1.03490400 11.35681200
7.77941000 -6.43266300 -12.25238000
16.21708700 7.67583500 27.45318600
-9.13598300 5.83750200 27.39614900
-9.26416000 -6.41379500 -9.74426300
-29.55739600 7.83303500 -10.44525100
-23.72506000 0.67881800 9.39129600
-19.13451600 4.24297300 20.46096800
6.58576200 3.84233900 28.02545200
26.14363500 -1.55547700 1.56103500
-19.59847600 -6.82550000 6.73431400
21.79137800 5.00055300 20.24908400
-3.62506300 -3.76674800 -23.91754200
-20.20515400 3.81995400 -21.21972700
28.88056600 5.31487700 0.93060300
21.00230400 5.26492700 21.87500000
5.86912900 3.55954700 28.13052400
29.34988800 4.47626100 -10.88519300
-2.39512500 -8.47112300 13.44946300
28.86990700 4.92616700 1.72772200
-23.63385800 0.20484200 -3.32598900
-16.85717600 6.04445600 23.71041900
24.92531600 4.11851700 -15.26898200
-15.84781300 -6.32294800 -14.30242900
-18.88736000 -6.41900600 -10.04113800
-25.01368700 4.26198600 11.60034200
9.62150600 -6.45282000 10.85803200
-10.01303800 -6.29145100 5.71038800
24.98743400 2.51735700 15.07159400
19.14218900 -5.04091300 -6.81701700
-5.90486700 5.26259100 -26.32611100
20.91140400 0.98494700 15.51647900
-21.45970500 7.71357000 22.90820300
17.13978600 -6.47852300 4.08313000
-12.00038500 0.69987500 22.62957800
-25.67412600 0.93354400 -11.25305200
6.76296900 -6.36081700 -10.46038800
-11.25009100 4.71885700 26.17019700
-8.34931600 5.15756400 -28.07470700
-5.19121400 -2.55962400 24.35382100
4.39240700 -6.19703300 -4.84277300
5.72251700 0.25517500 -24.49200400
18.87580100 -5.33879900 7.10070800
8.27712500 7.01909400 -28.17840600
-2.91347900 2.13162400 -26.25231900
-16.50309900 -2.35744500 16.18469200
-23.94652600 4.43481100 -14.57196000
8.56927100 6.64148100 -27.58136000
20.82211300 5.72291900 18.71746800
19.04446400 -5.78822300 0.63879400
16.56766500 -4.24101600 13.14733900
-15.79992500 -3.31992300 15.63769500
-8.86978300 -6.41041600 14.83984400
20.45340000 5.30526400 18.32782000
20.40811900 -4.88497500 2.99420200
29.44958900 6.77652700 12.53881800
5.36057700 -6.59806100 14.08966100
-8.01392600 -6.46934500 14.12921100
6.88229400 2.64624000 27.21670500
3.12157400 1.07192000 -25.79040500
8.22264200 -2.46170200 -20.78112800
-1.88034600 1.91408500 -28.51605200
20.85672800 5.92152000 18.93548600
26.43790100 7.28717200 15.72134400
-15.02957500 -0.94950100 -21.98504600
-3.41877200 -6.30548100 9.93890400
24.44139100 -1.21925400 -0.34661900
-21.26580000 3.01684600 15.75250200
-30.59074400 7.86272400 6.83477800
8.98800300 -8.57748400 13.98345900
-4.01499900 -6.37480200 10.28741500
-9.00956300 -4.51608700 -19.18493700
-4.92925100 -6.32022100 10.66650400
1.51143500 -2.04014000 -25.67443800
-28.57226600 5.79532600 1.22802700
-27.39245200 5.48381800 12.78418000
-20.60212700 4.90102800 -20.40631100
30.51807800 5.81048800 5.22595200
-29.04116100 7.80053300 -12.47241200
-23.63959100 -0.11768700 -4.34924300
21.66795700 5.94502300 18.15649400
-15.04797900 -5.97125200 -10.67224100
7.51005200 5.71503400 27.28149400
29.15918000 3.51162100 2.63543700
-30.86000100 6.38488800 3.07208300
-5.70764600 -7.18086200 19.25848400
-13.15313500 -6.21339400 -12.55206300
