-2.89930000 -1.08530000 -2.10650000
-3.04740000 -1.07140000 -1.86750000
-3.05560000 -1.08530000 -1.87250000
-1.12090000 0.83390000 -4.66900000
-0.74710000 0.81090000 -4.71690000
-0.75120000 0.83190000 -4.74260000
-1.48380000 0.83590000 -4.56670000
-1.11490000 0.81280000 -4.64380000
2.09560000 -1.05710000 -2.88430000
2.32120000 -1.07160000 -2.71780000
2.31540000 -1.05710000 -2.71100000
2.72730000 -1.08920000 -2.32940000
2.53410000 -1.08540000 -2.53410000
2.53620000 -1.08910000 -2.53620000
1.24450000 1.02550000 -5.18360000
1.67610000 0.98430000 -5.15850000
1.26840000 0.98030000 -5.28310000
1.26620000 0.98680000 -5.27410000
0.79300000 -0.77100000 -3.30310000
1.05480000 -0.77620000 -3.24630000
1.04970000 -0.77110000 -3.23070000
1.26420000 -0.75850000 -3.05200000
1.50870000 -0.76010000 -2.96090000
1.49970000 -0.75870000 -2.94340000
-4.61810000 0.80980000 -1.10870000
2.51260000 0.83150000 4.93130000
2.89150000 0.82450000 4.71850000
2.89180000 0.83030000 4.71900000
3.25280000 0.82290000 4.47710000
-3.40970000 -0.80220000 -0.54000000
2.81670000 -0.76170000 1.72610000
2.68850000 -0.76290000 1.95330000
2.67260000 -0.76150000 1.94170000
2.38970000 -0.76970000 2.38970000
0.80590000 -0.80300000 -3.35680000
0.53840000 -0.79230000 -3.39900000
0.54000000 -0.80290000 -3.40970000
-2.83400000 0.99360000 4.62470000
-2.40270000 1.03730000 4.71550000
-2.75680000 1.04270000 4.49870000
-0.31370000 0.10300000 3.98570000
-0.58230000 0.10350000 3.67620000
-0.62540000 0.10360000 3.94880000
-0.00010000 0.12950000 4.06930000
0.31920000 0.12890000 4.05680000
1.83750000 0.81790000 -4.43620000
2.16810000 0.79500000 -4.25520000
2.17990000 0.81570000 -4.27830000
2.40790000 0.63000000 -3.92940000
-0.83840000 -1.09360000 3.49210000
-1.11200000 -1.09860000 3.42240000
-1.10980000 -1.09360000 3.41550000
4.93050000 0.82370000 -2.51220000
5.11120000 0.82750000 -2.11710000
5.11240000 0.82080000 -2.11760000
5.26160000 0.82480000 -1.70960000
3.55800000 0.92670000 -4.16590000
3.86820000 0.93130000 -3.86820000
3.87390000 0.92380000 -3.87390000
4.15980000 0.92840000 -3.55280000
4.71580000 0.54700000 -2.40280000
4.63550000 0.73440000 -2.84060000
2.08280000 0.96820000 -5.02840000
1.69650000 0.92800000 -5.22130000
3.44160000 -0.80640000 -0.27090000
3.39900000 -0.79570000 -0.53830000
3.40970000 -0.80620000 -0.54000000
1.29200000 0.83980000 5.38160000
1.71030000 0.83300000 5.26370000
1.71020000 0.83920000 5.26360000
2.11800000 0.83230000 5.11330000
-2.43400000 -0.42490000 -3.97190000
-2.13600000 -0.36200000 -4.19220000
-2.11490000 -0.42510000 -4.15060000
-1.80050000 -0.36220000 -4.34680000
-1.55650000 -0.78270000 -3.05480000
-1.31690000 -0.79180000 -3.17940000
-1.31200000 -0.78280000 -3.16750000
-2.06560000 0.72830000 4.98690000
-1.66800000 0.72670000 5.13360000
5.38070000 0.81590000 -1.29180000
5.26360000 0.81150000 -1.71030000
5.26280000 0.81820000 -1.71000000
5.11320000 0.81410000 -2.11800000
-4.23970000 -0.63130000 1.37760000
-4.38480000 -0.48280000 1.42470000
0.00000000 -0.14420000 -4.84530000
3.91310000 0.81680000 -3.91310000
3.59340000 0.81450000 -4.20730000
3.59400000 0.81970000 -4.20810000
3.25220000 0.81720000 -4.47620000
3.50560000 0.71090000 -4.10450000
3.15530000 0.67450000 -4.34290000
3.17270000 0.71350000 -4.36690000
-5.19440000 0.99500000 1.68770000
-5.11740000 1.04930000 1.66270000
-1.80050000 -0.36290000 4.34680000
-1.43950000 -0.42600000 4.43040000
-1.45390000 -0.36310000 4.47470000
-1.08750000 -0.42610000 4.52970000
-5.49640000 0.94430000 -0.43260000
-5.52130000 0.93080000 0.00000000
-5.51340000 0.94330000 0.00000000
2.04070000 0.62850000 4.92680000
1.65880000 0.68030000 5.10540000
1.64790000 0.62940000 5.07170000
0.27330000 -0.85480000 3.47330000
0.54150000 -0.81530000 3.41890000
0.86570000 0.84700000 5.46550000
0.43410000 0.85420000 5.51530000
0.43420000 0.84770000 5.51660000
0.00000000 0.85510000 5.53240000
2.11800000 0.83860000 5.11320000
3.71060000 0.08580000 0.29200000
0.41250000 1.04310000 -5.24130000
0.41400000 1.04080000 -5.25990000
1.62470000 1.03560000 -5.00020000
1.23170000 1.03580000 -5.13040000
1.22730000 1.03810000 -5.11220000
-2.10730000 0.92900000 -5.08740000
-2.50300000 0.92160000 -4.91240000
-2.49990000 0.93170000 -4.90640000
-2.88070000 0.92430000 -4.70090000
-2.43340000 -0.79170000 -2.43340000
2.05720000 -1.06420000 3.35700000
2.29820000 -1.07480000 3.16320000
2.31420000 -1.06430000 3.18530000
4.46040000 0.87480000 -3.24070000
4.19840000 0.86590000 -3.58580000
4.19240000 0.87790000 -3.58060000
3.90420000 0.86890000 -3.90420000
-2.52100000 -1.05690000 -2.52100000
-2.32120000 -1.07150000 -2.71780000
-2.31540000 -1.05690000 -2.71100000
-2.52730000 -1.07140000 -2.52730000
-2.41490000 1.05250000 -4.73940000
-2.03070000 1.05220000 -4.90260000
-2.03560000 1.04960000 -4.91430000
-2.07230000 1.01330000 -5.00310000
-3.76870000 -0.42440000 -2.73810000
-3.57770000 -0.36120000 -3.05560000
4.08380000 0.99310000 -3.48790000
-5.43880000 0.95010000 0.86140000
-5.36100000 0.93730000 1.28710000
-5.35440000 0.94760000 1.28550000
-5.24350000 0.93450000 1.70370000
2.02920000 -0.80490000 2.79290000
-5.23310000 0.52750000 0.41180000
-5.40380000 0.78410000 0.42530000
2.69210000 1.01580000 -4.39310000
2.65350000 0.97840000 -4.33010000
-5.35720000 1.03610000 -0.84850000
-5.26570000 1.04160000 -1.26420000
-5.41700000 0.98350000 -0.85800000
2.04430000 1.00950000 4.93540000
2.42950000 1.00640000 4.76810000
2.42520000 1.00880000 4.75980000
2.46240000 0.97390000 4.83280000
4.09620000 -0.81350000 -0.64880000
0.84990000 0.97030000 5.36630000
1.25150000 1.00590000 5.21270000
-3.52870000 -1.05400000 -1.79800000
-3.63750000 -1.06380000 -1.50670000
-3.65890000 -1.05400000 -1.51560000
0.00000000 0.11800000 -4.03400000
-0.31920000 0.13240000 -4.05680000
-0.31650000 0.11870000 -4.02160000
-0.31370000 0.10510000 -3.98570000
0.00000000 0.10430000 -3.72210000
-0.00000000 0.10440000 -3.99800000
-0.86050000 0.92960000 -5.43300000
-0.43110000 0.93410000 -5.47830000
-0.43160000 0.92710000 -5.48370000
0.00000000 0.93160000 -5.49530000
2.91120000 -1.09880000 2.11510000
3.07710000 -1.10400000 1.88570000
3.20630000 -1.09890000 1.63370000
0.86370000 0.87950000 5.45330000
0.43260000 0.89190000 5.49640000
-1.28140000 0.80140000 -5.33750000
-2.51190000 0.83430000 4.92990000
-2.89150000 0.84180000 4.71850000
-1.62260000 -1.07150000 3.18460000
-1.36770000 -1.07150000 3.30210000
-1.62700000 -1.08530000 3.19310000
5.26710000 0.59800000 0.83420000
5.18540000 0.59950000 1.24490000
5.42160000 0.74900000 0.85870000
0.27680000 -0.97780000 -3.51670000
-0.00000000 -0.85420000 -3.48400000
-0.00000000 -0.97780000 -3.52760000
-0.27160000 -0.81450000 -3.45090000
3.14400000 0.14460000 2.68530000
3.36810000 0.15660000 2.44720000
3.34500000 0.14310000 2.43040000
3.45670000 0.24620000 2.51140000
5.38110000 0.79660000 1.29190000
5.46480000 0.78970000 0.86550000
5.46580000 0.79490000 0.86570000
5.51590000 0.78860000 0.43410000
-4.47470000 -0.36080000 -1.45390000
0.41840000 0.63150000 5.31630000
0.83420000 0.63080000 5.26700000
1.87650000 -1.09380000 3.06210000
4.57500000 -0.37690000 -1.09840000
5.01420000 0.32600000 -1.20380000
0.00000000 0.81770000 4.80170000
-0.37470000 0.79840000 4.76100000
-0.37670000 0.81890000 4.78690000
-0.74300000 0.77680000 4.69090000
0.00000000 1.02520000 -5.36080000
0.41990000 1.02530000 -5.33490000
0.42060000 1.02260000 -5.34430000
0.42220000 1.01560000 -5.36420000
-4.43040000 -0.42440000 1.43950000
0.84990000 0.98280000 -5.36630000
3.41800000 -0.78720000 0.26900000
4.04820000 0.15060000 0.97200000
3.93230000 0.13790000 1.27780000
3.95950000 0.15140000 1.28660000
3.98310000 0.16500000 1.29430000
3.84170000 -0.31150000 2.79120000
-4.92830000 0.89400000 2.51110000
-4.71610000 0.89080000 2.89000000
-3.47350000 -0.85660000 2.12860000
-3.45720000 -0.89010000 2.11850000
-3.08320000 -0.89010000 -2.63330000
-2.81270000 -1.04590000 -2.81270000
-3.01150000 -1.05400000 -2.57210000
-3.02470000 -1.04590000 -2.58340000
2.88060000 -0.85810000 -2.88060000
2.90970000 -0.82240000 -2.90970000
3.15360000 -0.81090000 -2.69340000
-5.06280000 1.03240000 -0.39840000
-5.05080000 1.02540000 -0.39750000
4.01920000 0.11030000 0.63660000
3.94880000 0.08400000 0.62540000
3.61920000 0.08620000 0.86890000
3.88760000 0.08440000 0.93330000
-4.31720000 -0.13940000 -2.19970000
1.12090000 0.82200000 -4.66900000
1.47580000 0.79920000 -4.54200000
1.48380000 0.82000000 -4.56670000
1.81750000 0.77400000 -4.38780000
3.89790000 -1.07510000 0.30680000
2.79160000 0.76760000 -3.84230000
3.13510000 0.82770000 -3.67070000
3.15160000 0.84490000 -3.69010000
3.59850000 -1.09890000 0.00000000
0.91910000 -1.06400000 3.82840000
1.20820000 -1.07470000 3.71860000
4.57500000 -0.37900000 1.09840000
0.00000000 0.84850000 5.53360000
-5.36810000 0.71810000 -0.00000000
-5.35150000 0.71710000 0.42120000
-5.39770000 0.75940000 0.00000000
-2.72510000 -1.08530000 2.32750000
-2.75540000 -1.10880000 2.35340000
-2.94750000 -1.11320000 2.14150000
-2.93160000 -1.10880000 2.12990000
-3.80100000 -0.63140000 2.32920000
2.80480000 0.67690000 -4.57710000
2.53950000 -1.09370000 -2.53950000
2.73630000 -1.09870000 -2.33700000
2.73090000 -1.09370000 -2.33240000
2.72510000 -1.08550000 -2.32750000
2.90170000 -1.08920000 -2.10820000
2.89930000 -1.08550000 -2.10650000
-3.28610000 -0.76610000 -0.78890000
-3.04130000 -0.77530000 -1.54960000
-3.13830000 -0.77020000 -1.29990000
-3.15350000 -0.77530000 -1.30620000
4.51240000 1.00650000 -2.76520000
4.23590000 1.01630000 -3.07750000
3.14540000 1.00740000 -4.32930000
3.46940000 1.00710000 -4.06210000
3.47540000 1.00470000 -4.06920000
3.50890000 0.98400000 -4.10850000
-4.45790000 -0.63120000 -0.00000000
-4.25660000 -0.77200000 0.33500000
3.15580000 -1.01100000 -1.60790000
3.42230000 -1.09880000 -1.11200000
3.31790000 -1.09380000 -1.37430000
3.32450000 -1.09880000 -1.37710000
4.02360000 -0.86110000 0.63730000
4.21720000 -0.77850000 0.66790000
-1.63980000 1.04930000 -5.04680000
-0.81910000 1.05290000 -5.17140000
-1.22730000 1.05360000 -5.11220000
-1.22230000 1.05560000 -5.09110000
1.10740000 -1.08530000 -3.40840000
-4.31420000 0.66030000 -3.13450000
-4.08190000 0.71240000 -3.48630000
-4.05500000 0.65880000 -3.46330000
-4.42690000 0.81180000 -3.21630000
-1.55900000 -0.85690000 3.76370000
-5.46630000 0.89010000 -0.86580000
-5.38070000 0.89710000 -1.29180000
2.59850000 -0.67010000 3.57650000
2.71000000 -0.48900000 3.72990000
-0.63730000 -0.85710000 4.02360000
3.16320000 -1.07470000 -2.29820000
-3.91350000 0.86230000 3.91350000
-3.59440000 0.85300000 4.20850000
-3.59440000 0.85940000 4.20850000
-3.25310000 0.85030000 4.47750000
4.19240000 0.87900000 3.58060000
4.46680000 0.86400000 3.24530000
4.46040000 0.87590000 3.24070000
4.70770000 0.86060000 2.88490000
-1.22540000 0.50570000 5.10420000
-0.75800000 -0.14430000 4.78570000
2.87720000 0.89900000 -4.69510000
2.50300000 0.89180000 -4.91240000
2.49990000 0.90160000 -4.90640000
2.10990000 0.89430000 -5.09370000
4.23170000 0.75370000 -2.15620000
4.25770000 0.61330000 -1.76360000
4.38780000 0.75150000 -1.81750000
4.45990000 0.81330000 -1.84730000
4.56670000 0.79270000 -1.48380000
4.59110000 0.81130000 -1.49170000
-0.92450000 -1.05410000 3.85090000
-3.91160000 -1.05400000 0.61950000
-5.01000000 1.06590000 1.20280000
-5.07290000 1.06160000 0.80350000
-5.08890000 1.06840000 0.80600000
-4.92640000 1.01900000 1.18270000
-4.86730000 0.94030000 0.77090000
-5.00400000 1.02130000 0.79260000
-3.11910000 1.06120000 -4.29300000
-3.15100000 1.04800000 -4.33700000
-4.02430000 1.07260000 -3.43710000
-3.81240000 1.04190000 -3.81240000
-2.01520000 -0.78280000 2.77370000
-2.64570000 -0.85670000 3.09770000
-2.89470000 -0.83290000 2.89470000
-2.88060000 -0.85670000 2.88060000
0.37260000 0.78190000 -4.73470000
-5.06700000 0.98150000 -2.09880000
-5.22130000 0.97660000 -1.69650000
-5.21610000 0.98270000 -1.69480000
-5.33830000 0.97730000 -1.28160000
-2.10080000 -0.96740000 3.42820000
-2.31420000 -1.06380000 3.18530000
3.40910000 0.49280000 3.99160000
3.77080000 0.61940000 3.77080000
2.00880000 0.50010000 -4.84970000
1.64790000 0.63200000 -5.07170000
-2.12620000 0.13610000 -3.46970000
-3.97120000 -0.96730000 -0.62900000
-3.86180000 -1.07440000 -0.61160000
-3.68290000 1.05510000 3.68290000
-3.68910000 1.05610000 3.68910000
-4.01200000 1.05640000 3.42660000
-3.99780000 1.05860000 3.41450000
-4.23170000 0.80780000 -2.15620000
-3.85250000 1.01650000 -3.29040000
-3.78210000 -0.83280000 1.56660000
-3.62980000 -0.85660000 1.84950000
-3.64750000 -0.83280000 1.85850000
4.30380000 -0.43920000 1.78270000
-4.09460000 -0.75860000 1.33040000
0.00000000 0.77430000 4.74940000
3.54250000 -1.08940000 -0.56110000
3.48470000 -1.08560000 -0.83660000
3.48760000 -1.08930000 -0.83730000
-4.85810000 0.99620000 2.47530000
-4.79430000 1.04230000 2.44280000
-1.37140000 -1.08530000 -3.31090000
-1.10840000 -1.08900000 -3.41110000
-1.10740000 -1.08530000 -3.40840000
-1.09920000 -1.04180000 -3.38290000
0.76700000 0.88220000 4.84260000
-5.38160000 0.87660000 1.29200000
-5.46630000 0.88550000 0.86580000
-5.46640000 0.87880000 0.86580000
-5.51740000 0.88740000 0.43420000
2.13260000 -0.75800000 -2.49690000
2.40200000 -0.77230000 -2.40200000
-1.85850000 -1.04180000 -3.03280000
-2.08620000 -1.02610000 -2.87130000
-2.09070000 -1.04180000 -2.87760000
-2.09560000 -1.05690000 -2.88430000
-1.86750000 -1.07150000 -3.04740000
-3.40280000 -0.77530000 0.26780000
-3.37130000 -0.77530000 0.53400000
-3.41800000 -0.78250000 -0.26900000
-3.41340000 -0.77530000 0.00000000
-3.42850000 -0.78250000 0.00000000
2.16980000 -1.11860000 2.98640000
2.38280000 -1.11680000 2.78980000
2.39740000 -1.11860000 2.80700000
2.59430000 -1.11690000 2.59430000
2.61020000 -1.11860000 2.61020000
4.92510000 0.99210000 2.04000000
5.08060000 0.98680000 1.65080000
5.07000000 0.98960000 1.64730000
0.28320000 -1.10380000 -3.59780000
-0.00000000 -1.09860000 -3.59850000
2.83740000 0.82690000 3.90540000
3.15160000 0.84230000 3.69000000
3.13510000 0.82510000 3.67070000
4.39550000 0.95610000 3.19350000
4.64070000 0.94590000 2.84380000
4.63250000 0.95300000 2.83880000
4.84950000 0.94270000 2.47090000
3.42120000 -0.78950000 2.48560000
3.01150000 -1.05440000 -2.57200000
-0.91280000 -1.07450000 -3.80190000
-0.89150000 -1.10350000 -3.71330000
-0.60210000 -1.09510000 -3.80180000
-0.59740000 -1.10350000 -3.77180000
3.23070000 -0.77500000 1.04970000
3.15350000 -0.78000000 1.30620000
3.13830000 -0.77490000 1.30000000
3.18940000 -0.80660000 1.32110000
3.08420000 -0.81810000 1.57150000
3.07590000 -0.80640000 1.56730000
-0.80600000 1.02030000 5.08890000
-0.40560000 1.02310000 5.15320000
-0.40420000 1.01850000 5.13640000
-1.18270000 0.97900000 4.92640000
-1.48380000 0.82350000 4.56670000
-2.68500000 -1.10860000 -2.68500000
-2.48020000 -1.10350000 -2.90390000
-2.46600000 -1.10860000 -2.88740000
-2.23190000 -1.10860000 -3.07190000
4.20070000 0.86110000 -3.58780000
4.46680000 0.86290000 -3.24530000
4.46930000 0.85810000 -3.24710000
4.70770000 0.85980000 -2.88490000
-4.71640000 0.86210000 -2.89020000
-4.71760000 0.86680000 -2.89090000
-4.92870000 0.86380000 -2.51130000
-1.51560000 -1.05410000 3.65890000
-1.50670000 -1.06390000 3.63750000
0.55640000 -1.04200000 3.51320000
0.27970000 -1.05710000 3.55420000
0.27910000 -1.04200000 3.54600000
0.28320000 -1.10380000 3.59780000
0.88640000 -1.10860000 3.69220000
0.59740000 -1.10350000 3.77180000
0.59400000 -1.10860000 3.75040000
-3.57270000 -1.08530000 0.28120000
3.80440000 -0.77590000 -1.93840000
1.81720000 -0.30270000 4.38720000
-3.30840000 -1.11890000 1.68570000
-3.50810000 -1.10860000 1.45310000
-3.63200000 -1.10350000 1.18010000
-3.61130000 -1.10860000 1.17340000
5.34430000 0.97700000 0.42060000
-3.90540000 0.85990000 2.83740000
-4.09410000 0.84290000 2.50890000
-4.11600000 0.86240000 2.52230000
-3.50860000 -0.82060000 -2.15010000
3.64630000 0.34170000 3.64630000
3.35780000 -0.30860000 3.35780000
3.29220000 0.11840000 -2.39180000
3.04010000 0.09310000 -2.59650000
3.01120000 0.09270000 -2.18780000
3.23450000 0.09180000 -2.35000000
-2.51260000 0.84540000 4.93130000
-2.11780000 0.83740000 5.11270000
-2.11800000 0.84320000 5.11330000
-1.71010000 0.83540000 5.26310000
-3.84170000 -0.29780000 2.79120000
-4.17180000 0.36550000 3.03100000
5.09320000 0.32340000 0.80670000
4.84950000 0.94270000 -2.47090000
5.01960000 0.94710000 -2.07920000
5.02840000 0.93990000 -2.08280000
5.16720000 0.94450000 -1.67890000
4.23110000 -0.31430000 2.15580000
5.44480000 0.91660000 -0.42850000
1.04070000 -0.63270000 -4.33470000
-3.88750000 0.11090000 0.93330000
-3.67620000 0.11070000 0.58230000
-3.94880000 0.11120000 0.62540000
-3.10430000 -0.85390000 1.58170000
-3.07590000 -0.80230000 1.56730000
0.00000000 0.75650000 5.43670000
-0.00000000 0.76610000 5.45410000
0.42650000 0.75570000 5.41990000
3.30130000 -0.76500000 -0.52290000
3.23130000 -0.76300000 -0.77580000
3.25010000 -0.76480000 -0.78030000
2.97820000 -0.76390000 -1.51750000
3.10540000 -0.76660000 -1.28630000
3.08800000 -0.76420000 -1.27910000
-3.18530000 -1.06380000 -2.31420000
-3.16320000 -1.07440000 -2.29820000
-3.20400000 -1.05400000 -2.32790000
1.35820000 -1.02630000 -3.27900000
1.10980000 -1.09360000 -3.41560000
1.37710000 -1.09860000 -3.32460000
1.37430000 -1.09360000 -3.31800000
3.57410000 -1.07200000 -0.00000000
3.57270000 -1.08570000 0.28120000
3.56310000 -1.07210000 0.28040000
3.55420000 -1.05770000 0.27970000
-2.64230000 -0.59640000 3.63680000
4.53100000 -0.57390000 0.00000000
-2.62510000 -0.80230000 -2.24200000
-2.44110000 -0.80240000 2.44110000
3.93110000 -0.49420000 2.40900000
3.69150000 -0.54160000 2.68200000
3.04740000 -1.07200000 1.86750000
3.17660000 -1.05770000 1.61860000
3.18460000 -1.07210000 1.62260000
3.29380000 -1.05770000 1.36430000
2.73320000 0.18910000 3.20020000
2.98650000 0.20070000 2.98650000
2.97590000 0.18750000 2.97590000
3.21160000 0.19910000 2.74300000
-1.37760000 -0.63170000 -4.23970000
-0.42490000 0.98530000 5.39860000
1.37760000 -0.63360000 4.23970000
1.76430000 -0.48660000 4.25950000
0.35270000 -0.59750000 4.48140000
-4.55370000 -0.48260000 0.72120000
-3.40890000 0.11100000 -2.08900000
-3.01120000 0.11030000 -2.18780000
-3.23450000 0.11070000 -2.35000000
-0.27680000 -0.97800000 3.51670000
-0.00000000 -0.85460000 3.48400000
0.00000000 -0.97800000 3.52760000
-1.49630000 -1.07450000 -3.61230000
-1.23820000 -1.00200000 -3.81070000
-5.26310000 0.86780000 1.71010000
-5.11180000 0.85950000 2.11740000
-5.11270000 0.86500000 2.11780000
-4.92990000 0.85660000 2.51190000
2.72510000 -1.08570000 2.32750000
2.89150000 -1.07200000 2.10080000
2.89930000 -1.08570000 2.10650000
3.67090000 -0.76230000 -2.24950000
3.45430000 -0.77500000 -2.50970000
3.48310000 -0.76180000 -2.53060000
3.29370000 -0.74720000 -2.81310000
-3.71180000 0.52290000 -3.71180000
-3.48630000 0.70880000 -4.08190000
-3.77080000 0.65720000 -3.77080000
-3.79580000 0.71060000 -3.79580000
1.33330000 -0.85460000 -3.21880000
1.32780000 -0.82770000 -3.20560000
1.06970000 -0.81490000 -3.29210000
1.07220000 -0.82760000 -3.29990000
3.16320000 -1.07500000 2.29820000
-3.59330000 0.85800000 -4.20730000
-0.35800000 -0.53360000 4.54890000
2.42520000 1.01510000 -4.75980000
2.04790000 1.01520000 -4.94400000
2.04430000 1.01770000 -4.93540000
2.78540000 1.01530000 -4.54530000
2.42020000 1.01790000 -4.74980000
0.43200000 0.91390000 -5.48960000
0.86140000 0.91150000 -5.43880000
-0.85600000 0.77730000 5.40450000
-1.27740000 0.77870000 5.32070000
4.20810000 0.81550000 3.59400000
3.91350000 0.82420000 3.91350000
3.91310000 0.81840000 3.91310000
3.59440000 0.82670000 4.20850000
-0.62900000 -0.96740000 -3.97120000
4.60100000 -0.44060000 0.72870000
4.43690000 -0.54490000 1.06520000
-0.85320000 0.78070000 -5.38690000
-1.27320000 0.78280000 -5.30340000
4.16330000 0.15010000 0.00010000
4.18810000 0.16360000 0.00010000
-3.61020000 1.02010000 3.61020000
-3.37700000 0.81480000 3.37700000
-3.11850000 0.83360000 3.65120000
-3.10160000 0.81260000 3.63150000
1.10450000 -1.07170000 3.39920000
2.53930000 -1.07490000 2.97310000
2.55700000 -1.06430000 2.99390000
2.76470000 -1.07490000 2.76470000
-4.39840000 0.77940000 3.19560000
-4.65040000 0.79210000 2.84970000
-4.63550000 0.78200000 2.84060000
-4.85960000 0.79480000 2.47610000
2.89150000 -1.07170000 -2.10080000
0.28040000 -1.07150000 -3.56310000
0.56060000 -1.08530000 -3.53960000
0.28230000 -1.09860000 -3.58740000
0.56460000 -1.10380000 -3.56450000
0.56290000 -1.09860000 -3.55420000
4.68680000 0.87280000 1.52280000
4.90020000 0.99090000 1.59220000
-2.96090000 -0.75890000 1.50870000
-3.28220000 -0.75880000 0.51990000
-3.21220000 -0.75740000 0.77120000
-3.23130000 -0.75880000 0.77580000
0.57390000 -1.11680000 3.62370000
0.28960000 -1.11860000 3.68000000
0.28790000 -1.11680000 3.65760000
0.85050000 -1.11330000 3.54270000
0.56990000 -1.11330000 3.59850000
-0.89860000 -1.09510000 3.74280000
-0.88150000 -1.11270000 3.67160000
-0.58740000 -1.11590000 3.70890000
-0.59070000 -1.11270000 3.72950000
-4.61810000 0.80550000 1.10870000
-4.79300000 0.89100000 0.75910000
-4.36640000 -0.66590000 -0.69160000
-4.25660000 -0.77200000 -0.33500000
-1.81750000 0.79310000 -4.38780000
-2.19160000 0.85920000 -4.30120000
-1.83750000 0.83790000 -4.43620000
-1.84730000 0.85720000 -4.45990000
-3.34630000 -0.79160000 0.80340000
-3.35680000 -0.80230000 0.80590000
-3.41890000 -0.81410000 0.54150000
-3.40970000 -0.80230000 0.54000000
4.10860000 0.96360000 2.98500000
3.94680000 1.01240000 3.37090000
4.20660000 1.01180000 3.05630000
4.19910000 1.01000000 3.05080000
0.00000000 -0.74480000 -4.33150000
-2.05430000 0.68920000 4.95950000
-2.45050000 0.73010000 4.80940000
-2.43710000 0.69090000 4.78300000
-2.82030000 0.73200000 4.60230000
-4.73470000 0.80960000 -0.37260000
-4.87790000 0.91060000 0.00000000
5.38110000 0.68670000 -0.42350000
5.30200000 0.64930000 -0.83980000
5.33130000 0.68790000 -0.84440000
5.21980000 0.65100000 -1.25320000
-5.07170000 0.65870000 1.64790000
-5.21980000 0.71410000 1.25320000
-5.18540000 0.66040000 1.24490000
-5.30200000 0.71580000 0.83980000
2.43710000 0.67840000 4.78300000
2.78630000 0.62600000 4.54690000
2.80480000 0.67700000 4.57710000
3.13450000 0.62420000 4.31420000
3.94680000 1.01430000 -3.37090000
3.67670000 1.01880000 -3.67670000
3.67020000 1.01700000 -3.67020000
-3.15530000 0.69460000 4.34290000
-2.78630000 0.64100000 4.54690000
-2.80480000 0.69270000 4.57710000
-2.42100000 0.63930000 4.75150000
2.63220000 -0.81610000 -2.24810000
2.80700000 -0.82900000 -2.03940000
2.80040000 -0.81630000 -2.03460000
-3.65510000 1.04710000 3.65510000
-3.88230000 1.02340000 3.31580000
-3.62070000 1.02820000 3.62070000
4.92680000 0.60490000 -2.04070000
5.10540000 0.65320000 -1.65880000
5.07170000 0.60250000 -1.64790000
-3.09770000 -0.85660000 -2.64570000
1.64760000 -0.76060000 3.97760000
1.99120000 -0.70060000 3.90800000
-1.27890000 0.95730000 -5.32720000
-1.69480000 0.95390000 -5.21610000
-1.69300000 0.96000000 -5.21040000
-2.09880000 0.95660000 -5.06700000
2.06560000 0.71830000 4.98690000
2.45050000 0.71720000 4.80940000
-3.04740000 -1.07150000 1.86750000
-2.88430000 -1.05690000 2.09560000
-2.89150000 -1.07150000 2.10080000
-2.71100000 -1.05690000 2.31540000
-4.95950000 0.71010000 2.05430000
-5.13360000 0.75300000 1.66800000
-5.10540000 0.71220000 1.65880000
-3.74990000 0.20750000 1.91060000
-3.60120000 0.22040000 2.20680000
-3.58840000 0.20690000 2.19890000
-3.41690000 0.21980000 2.48250000
-1.90360000 -1.11320000 3.10650000
-2.15650000 -1.11680000 2.96820000
-2.14150000 -1.11320000 2.94750000
-1.37710000 -1.09860000 3.32450000
-1.63840000 -1.10380000 3.21560000
-1.63370000 -1.09860000 3.20630000
-4.48140000 -0.59580000 -0.35270000
4.29870000 -0.67350000 -1.03200000
-5.39860000 1.04120000 -0.42490000
-5.41530000 1.04020000 -0.00000000
-5.38630000 1.04900000 -0.42390000
2.82030000 0.71590000 4.60230000
3.17270000 0.71410000 4.36690000
0.27090000 -0.80330000 3.44160000
0.53840000 -0.79290000 3.39900000
0.53400000 -0.77660000 3.37130000
0.40560000 1.03530000 -5.15320000
0.80860000 1.03280000 -5.10550000
-4.77570000 1.06480000 1.97810000
-4.90020000 1.06300000 1.59220000
-4.91610000 1.06810000 1.59730000
-3.39920000 -1.07140000 -1.10450000
-3.46670000 -1.05690000 -0.83230000
-3.47540000 -1.07140000 -0.83440000
-3.39070000 -1.05690000 -1.10170000
-3.56520000 -1.05690000 -0.00000000
2.49530000 0.79280000 -4.07200000
2.21450000 0.86800000 -4.34630000
-0.79260000 0.99330000 -5.00400000
-0.80860000 1.04290000 -5.10550000
5.36810000 0.64770000 -0.00000000
5.38110000 0.68640000 0.42350000
5.35150000 0.64790000 0.42120000
5.33130000 0.68730000 0.84440000
-1.29200000 0.85480000 -5.38160000
-1.71010000 0.85110000 -5.26310000
-0.55640000 -1.04180000 -3.51320000
-0.27970000 -1.05690000 -3.55420000
-0.27910000 -1.04180000 -3.54600000
4.34490000 0.98970000 3.15670000
4.58790000 0.98300000 2.81140000
4.57920000 0.98680000 2.80610000
4.51240000 1.00570000 2.76520000
4.26850000 1.01080000 3.10120000
-2.05430000 0.70120000 -4.95950000
-2.43710000 0.70310000 -4.78300000
-0.76660000 -0.75640000 -3.19290000
-1.28630000 -0.76330000 -3.10550000
-1.04430000 -0.76640000 -3.21410000
-1.03870000 -0.76330000 -3.19680000
3.65120000 0.80420000 -3.11840000
3.86360000 0.78120000 -2.80710000
3.88470000 0.80170000 -2.82240000
4.23170000 0.75200000 2.15620000
1.37140000 -1.08550000 3.31090000
1.10830000 -1.08920000 3.41110000
1.10740000 -1.08550000 3.40830000
-4.21050000 0.22340000 0.33140000
-4.20850000 0.20990000 -0.00000000
-4.22350000 0.22360000 -0.00000000
-1.86280000 -1.05690000 3.03990000
-2.10080000 -1.07150000 2.89150000
-3.46670000 -1.05690000 0.83230000
4.95950000 0.65510000 2.05430000
4.80940000 0.69690000 2.45050000
4.78300000 0.65810000 2.43710000
4.60230000 0.70020000 2.82030000
4.05500000 0.61560000 -3.46330000
4.34290000 0.66380000 -3.15530000
4.31420000 0.61290000 -3.13450000
4.57710000 0.66100000 -2.80480000
0.84440000 0.72710000 -5.33130000
0.42120000 0.68970000 -5.35160000
0.42350000 0.72920000 -5.38110000
0.00000000 0.69170000 -5.36810000
-3.77080000 0.64660000 3.77080000
-4.08190000 0.70100000 3.48630000
-4.05500000 0.64860000 3.46330000
-4.34290000 0.70330000 3.15530000
-4.36690000 0.75500000 -3.17270000
-4.57710000 0.71550000 -2.80480000
-4.60230000 0.75660000 -2.82030000
-4.78300000 0.71680000 -2.43710000
1.65370000 1.01780000 -5.08950000
1.67890000 0.97780000 -5.16720000
-4.95950000 0.71780000 -2.05430000
-5.07170000 0.66440000 -1.64790000
-5.10540000 0.71850000 -1.65880000
-5.18540000 0.66480000 -1.24490000
3.40480000 0.18630000 -2.47370000
3.16580000 0.16020000 -2.70380000
2.70380000 0.16130000 3.16580000
2.94380000 0.15980000 2.94390000
2.68520000 0.14770000 3.14410000
-4.75150000 0.65480000 2.42100000
-4.78300000 0.70790000 2.43710000
-4.54690000 0.65270000 2.78630000
1.07630000 -0.48560000 4.48310000
-3.63750000 -1.06380000 1.50670000
-3.48380000 -1.07440000 1.77510000
-3.50810000 -1.06380000 1.78750000
-3.71460000 -0.96740000 1.53860000
4.31420000 0.61340000 3.13450000
4.08190000 0.66770000 3.48630000
4.05500000 0.61650000 3.46330000
3.79580000 0.67050000 3.79580000
-5.30200000 0.71910000 -0.83970000
-5.24860000 0.76030000 -1.26010000
-2.64050000 -1.11800000 2.64050000
-2.85540000 -1.11590000 2.43870000
-2.83950000 -1.11800000 2.42520000
-2.88730000 -1.10860000 2.46600000
-3.84630000 0.18120000 -1.59330000
-3.98310000 0.19560000 -1.29430000
-3.95950000 0.18140000 -1.28660000
-4.07240000 0.19570000 -0.97780000
-4.30920000 -0.56200000 -1.40010000
2.07570000 0.97470000 5.01110000
2.04000000 1.01220000 4.92510000
0.30440000 -1.08520000 -3.86810000
0.59400000 -1.10860000 -3.75040000
0.29630000 -1.11270000 -3.76430000
0.29790000 -1.10860000 -3.78540000
-3.86330000 -0.56210000 -2.36740000
-5.24130000 1.08750000 -0.41250000
-5.11220000 1.08780000 -1.22730000
-5.21120000 1.08590000 -0.82540000
-5.19280000 1.08800000 -0.82240000
-2.48150000 0.78520000 4.04950000
-2.20310000 0.86340000 4.32380000
5.45330000 0.84720000 -0.86370000
5.37170000 0.84420000 -1.28960000
5.36880000 0.84900000 -1.28890000
5.25400000 0.84650000 -1.70710000
-3.88750000 0.11170000 -0.93330000
-3.53990000 0.11110000 -1.15020000
-3.80230000 0.11160000 -1.23550000
-4.05260000 0.15340000 -0.64200000
-4.12190000 0.16730000 -0.32450000
-4.09050000 0.15330000 -0.32200000
-2.94350000 -0.80230000 -1.80380000
4.74940000 0.74510000 -0.00000000
4.81250000 0.80720000 -0.37880000
4.80170000 0.78820000 -0.00000000
4.82730000 0.80670000 0.00000000
2.52730000 -1.07160000 -2.52730000
0.00000000 0.73120000 -5.39780000
-1.79810000 -0.79180000 -2.93420000
3.25910000 -0.97890000 -1.35000000
3.19800000 -0.81710000 -1.32470000
-3.45090000 -0.81410000 -0.27160000
3.39920000 -1.07190000 -1.10450000
3.40840000 -1.08560000 -1.10740000
3.30210000 -1.07180000 -1.36780000
4.62470000 0.95930000 -2.83400000
4.39550000 0.95590000 -3.19350000
4.00130000 -0.82480000 -0.96060000
4.02370000 -0.86040000 -0.63730000
3.96130000 -0.86020000 -0.95100000
-3.33520000 -0.69780000 -2.84850000
-3.45430000 -0.77200000 -2.50970000
3.24710000 0.86980000 -4.46930000
2.88770000 0.86830000 -4.71230000
2.88650000 0.87240000 -4.71030000
2.50910000 0.87090000 -4.92430000
2.88070000 0.88920000 -4.70090000
3.23670000 0.89630000 -4.45490000
3.24070000 0.88650000 -4.46040000
3.57630000 0.89360000 -4.18730000
-1.29150000 0.87480000 -5.37950000
-0.86530000 0.87790000 -5.46310000
5.21120000 0.99730000 -0.82540000
5.24130000 0.99860000 -0.41250000
5.25990000 0.99620000 -0.41400000
5.33490000 0.98000000 -0.41990000
-0.54000000 -0.80260000 -3.40970000
-0.53400000 -0.77570000 -3.37130000
-1.37140000 -1.08530000 3.31090000
-1.10450000 -1.07150000 3.39920000
-3.76370000 -0.85660000 1.55900000
-3.80170000 -0.82060000 1.57470000
-3.94430000 -0.80870000 1.28160000
-3.91350000 -0.82060000 1.27160000
-2.89180000 0.84770000 4.71900000
-2.51240000 0.83950000 4.93080000
5.18360000 0.98820000 -1.24450000
5.08060000 0.98750000 -1.65080000
5.07000000 0.99030000 -1.64730000
5.10770000 0.97900000 -1.65960000
1.25890000 -0.85720000 -3.87440000
1.56660000 -0.83360000 -3.78210000
1.55900000 -0.85730000 -3.76370000
3.48460000 0.88650000 3.48460000
3.43140000 0.84030000 3.43140000
3.41340000 0.82310000 3.41340000
0.42920000 0.95480000 -5.45360000
-0.00000000 0.94970000 -5.47850000
0.00000000 0.95730000 -5.47050000
-0.42980000 0.95220000 -5.46160000
-2.12630000 0.13350000 3.46960000
-1.81510000 0.10570000 3.56230000
-1.94480000 0.10620000 3.17360000
-2.08900000 0.10630000 3.40890000
-3.02120000 0.27190000 -3.02120000
-2.75710000 0.24270000 -3.22810000
-2.77490000 0.27130000 -3.24890000
-2.49530000 0.24210000 -3.43450000
-3.59110000 -1.11270000 -1.16680000
-3.65130000 -1.11590000 -0.87660000
-3.67160000 -1.11270000 -0.88150000
-3.56750000 -1.11680000 -0.85650000
-3.51070000 -1.11860000 -1.14070000
-3.48930000 -1.11680000 -1.13380000
-5.08200000 0.95010000 2.10500000
-4.90640000 0.93830000 2.49990000
3.59850000 -1.11330000 -0.56990000
3.65760000 -1.11690000 -0.28790000
3.63210000 -1.11330000 -0.28580000
3.56750000 -1.11690000 0.85650000
3.51070000 -1.11860000 1.14070000
3.48930000 -1.11690000 1.13380000
3.03830000 1.01790000 -4.18190000
2.70670000 1.02290000 -4.41700000
2.70090000 1.02050000 -4.40740000
-5.37490000 1.05240000 0.42300000
0.80810000 -0.81480000 -3.36590000
-3.93060000 1.06820000 -3.35710000
-3.64320000 1.06050000 -3.64320000
-3.65510000 1.06550000 -3.65510000
2.95840000 -0.82920000 -1.81290000
3.03990000 -1.05760000 1.86280000
3.51690000 0.97520000 4.11780000
3.17580000 0.98420000 4.37110000
3.18300000 0.97690000 4.38110000
2.82310000 0.98550000 4.60680000
-2.49690000 -0.75620000 2.13260000
-1.53270000 -0.80590000 1.53270000
-2.32190000 -0.75630000 2.32190000
-2.56980000 -0.76630000 2.19480000
-2.37680000 -0.76320000 2.37680000
-2.38970000 -0.76630000 2.38970000
-3.02620000 -1.02610000 1.85440000
-3.19310000 -1.08530000 1.62700000
-3.05560000 -1.08530000 1.87250000
1.00510000 -0.76000000 4.18640000
-4.15520000 1.05890000 -3.01890000
-2.79160000 0.78720000 3.84230000
-2.82240000 0.83140000 3.88460000
-4.48330000 0.88510000 1.85710000
-4.34630000 0.89950000 2.21450000
-4.32380000 0.88270000 2.20310000
-4.27830000 0.84520000 2.17990000
-3.76650000 -1.05400000 -1.22380000
-2.64720000 1.00620000 -4.31980000
-3.03830000 1.05980000 -4.18190000
3.83530000 0.96780000 3.83530000
4.13140000 0.95890000 3.52860000
4.12440000 0.96530000 3.52260000
4.36640000 -0.67510000 0.69160000
-1.91740000 0.21910000 -3.76320000
-1.61050000 0.20490000 -3.88820000
-1.61630000 0.21840000 -3.90200000
-1.30050000 0.20420000 -4.00260000
5.41640000 0.93940000 -0.42630000
5.37570000 0.93340000 -0.85140000
5.36630000 0.94060000 -0.84990000
0.55770000 -1.05690000 -3.52130000
1.64730000 0.29020000 3.97680000
1.97020000 0.32630000 3.86670000
1.95420000 0.28900000 3.83530000
2.26750000 0.32490000 3.70020000
2.71200000 1.01940000 4.42560000
0.00000000 -0.82100000 -4.11500000
-1.63510000 0.26840000 -3.94740000
-1.95420000 0.30310000 -3.83530000
-1.93980000 0.26920000 -3.80690000
-2.24910000 0.30390000 -3.67020000
1.38110000 -1.10380000 -3.33420000
1.11200000 -1.09860000 -3.42230000
1.11520000 -1.10380000 -3.43230000
0.84000000 -1.09860000 -3.49900000
2.32120000 -1.07190000 2.71780000
2.10650000 -1.08560000 2.89930000
2.10080000 -1.07180000 2.89150000
1.87250000 -1.08550000 3.05560000
1.66800000 0.72280000 -5.13360000
1.25320000 0.68570000 -5.21980000
1.26010000 0.72500000 -5.24860000
0.83980000 0.68770000 -5.30200000
-3.64060000 -0.77210000 2.23100000
4.25150000 0.27170000 0.67330000
4.15460000 0.23950000 0.99740000
4.18560000 0.27230000 1.00480000
4.06350000 0.24040000 1.32030000
5.39780000 0.68620000 0.00000000
5.35150000 0.64820000 -0.42120000
3.41890000 -0.81790000 -0.54150000
-3.24890000 0.26920000 2.77490000
-3.43450000 0.24150000 2.49530000
-3.45660000 0.26990000 2.51140000
-3.61970000 0.24210000 2.21820000
0.66410000 0.23390000 -4.19300000
0.33520000 0.26310000 -4.25950000
0.33310000 0.23490000 -4.23220000
-0.00000000 0.26410000 -4.27260000
-3.35780000 -0.29820000 3.35780000
5.13360000 0.69170000 -1.66800000
4.95950000 0.65560000 -2.05430000
4.98690000 0.69420000 -2.06560000
4.78300000 0.65830000 -2.43710000
-4.92680000 0.65680000 2.04070000
-1.10870000 0.77830000 4.61810000
-1.36460000 0.41670000 4.19970000
4.75150000 0.60710000 2.42100000
4.57710000 0.66130000 2.80480000
4.54690000 0.61020000 2.78630000
4.34290000 0.66450000 3.15530000
-3.93900000 -0.66590000 -2.00700000
-3.80440000 -0.77200000 -1.93840000
-3.45090000 -0.81410000 0.27160000
3.05480000 -1.11280000 -2.21950000
2.98640000 -1.11860000 -2.16980000
-1.27060000 0.97010000 5.29230000
-1.06970000 -0.81460000 3.29210000
4.20180000 0.88110000 -2.57490000
4.09880000 0.95880000 -2.97790000
4.07200000 0.77880000 -2.49530000
-4.40300000 -0.63120000 0.69740000
4.66900000 0.78980000 1.12090000
-2.74820000 -0.77030000 1.99670000
-2.58300000 -0.77030000 2.20610000
-2.82870000 -0.72480000 3.31200000
-2.50970000 -0.77230000 3.45430000
2.08720000 0.76540000 -5.03890000
-3.19800000 -0.81410000 1.32470000
-3.29990000 -0.82690000 1.07220000
-3.29210000 -0.81410000 1.06970000
-3.37380000 -0.82690000 0.81000000
3.80440000 -0.77790000 1.93840000
3.65120000 0.80230000 3.11840000
3.90540000 0.81860000 2.83740000
3.88460000 0.80000000 2.82240000
-4.14240000 -0.72460000 -1.34600000
-4.15180000 -0.77200000 -0.99680000
-0.50130000 0.14480000 1.54280000
-0.00000000 0.16580000 0.00000000
5.16440000 0.99420000 -0.40640000
5.18040000 0.99370000 -0.00000000
-4.93540000 1.07080000 -2.04430000
-4.98110000 1.05360000 -2.06320000
2.57200000 -1.05430000 -3.01150000
2.31420000 -1.06400000 -3.18530000
2.32780000 -1.05420000 -3.20400000
2.05720000 -1.06390000 -3.35700000
1.96640000 -0.74560000 -3.85940000
1.65760000 -0.74540000 -4.00170000
0.26900000 -0.78310000 -3.41800000
0.26780000 -0.77590000 -3.40280000
0.27000000 -0.79220000 -3.43070000
-1.69180000 -0.66650000 4.08430000
3.31370000 -1.08930000 -1.37260000
3.19580000 -1.08920000 -1.62830000
-2.30990000 -0.66640000 3.76940000
2.90970000 -0.82400000 2.90970000
4.94510000 1.00270000 -1.60680000
5.00020000 1.00340000 -1.62460000
5.01790000 1.00110000 -1.63040000
-3.54120000 0.38660000 -2.57290000
-3.30000000 0.34490000 -2.81840000
-3.32850000 0.38600000 -2.84280000
-3.06870000 0.34420000 -3.06860000
-0.74710000 0.79970000 4.71690000
3.23670000 0.89570000 4.45490000
3.58060000 0.88420000 4.19240000
3.57630000 0.89390000 4.18720000
3.89850000 0.88180000 3.89850000
-5.52990000 0.91330000 0.00000000
-5.51410000 0.90710000 0.43400000
-5.51290000 0.91180000 0.43390000
-5.46310000 0.90520000 0.86530000
-1.60790000 -1.01020000 -3.15580000
-1.36770000 -1.07150000 -3.30210000
-2.04070000 0.63780000 4.92680000
-1.64790000 0.63640000 5.07170000
0.42350000 0.72110000 5.38110000
0.42790000 0.76530000 5.43730000
3.35510000 -0.77510000 0.53140000
3.31900000 -0.78010000 0.79680000
3.30310000 -0.77510000 0.79300000
-2.71990000 0.19310000 -3.18470000
-2.97590000 0.20790000 -2.97590000
-2.96140000 0.19360000 -2.96150000
-3.20020000 0.20840000 -2.73330000
0.00010000 0.18680000 -4.18810000
-0.33020000 0.20180000 -4.19560000
-0.32850000 0.18770000 -4.17520000
-0.65830000 0.20270000 -4.15670000
-4.38780000 0.80190000 1.81750000
-3.13510000 0.86530000 -3.67070000
-2.82240000 0.84390000 -3.88460000
-2.83740000 0.86330000 -3.90540000
-3.79580000 0.69880000 3.79580000
-3.46330000 0.64460000 4.05500000
-3.48630000 0.69670000 4.08190000
-3.13450000 0.64270000 4.31420000
-5.31630000 0.66310000 0.41840000
-5.26700000 0.66190000 0.83420000
-4.33960000 -0.53210000 1.41000000
-0.37470000 0.80900000 -4.76100000
-2.82030000 0.74530000 -4.60230000
-3.15530000 0.70690000 -4.34290000
-3.17270000 0.74740000 -4.36690000
-4.92680000 0.66370000 -2.04070000
3.48630000 0.67200000 -4.08190000
3.81680000 0.70820000 -3.81680000
3.72700000 0.10120000 -1.54370000
3.75960000 0.11440000 -1.55720000
3.56230000 0.08920000 -1.81510000
3.43870000 0.08930000 -1.42440000
3.69370000 0.08800000 -1.53000000
-3.39070000 -1.05690000 1.10170000
-3.49210000 -1.09360000 0.83840000
-3.41120000 -1.08900000 1.10830000
-3.41550000 -1.09360000 1.10980000
-2.96340000 -0.53230000 -3.46970000
-0.57750000 -1.11860000 -3.64600000
-1.16040000 -1.11590000 -3.57130000
-1.42900000 -1.11800000 -3.45000000
-1.43700000 -1.11590000 -3.46920000
-2.76150000 -0.77530000 -2.00630000
-2.58300000 -0.77020000 -2.20610000
1.27160000 -0.82200000 3.91350000
0.96820000 -0.80990000 4.03270000
0.96060000 -0.82180000 4.00130000
0.64040000 -0.83370000 4.04330000
-2.92330000 -0.78260000 1.79140000
-2.89930000 -1.08530000 2.10650000
-2.71780000 -1.07150000 2.32120000
4.22000000 0.23890000 0.66840000
4.29120000 0.27140000 0.33770000
4.25950000 0.23870000 0.33520000
4.30450000 0.27150000 -0.00000000
4.80940000 0.69690000 -2.45050000
-3.70020000 0.34600000 -2.26750000
-3.90010000 0.38770000 -1.98720000
-3.86670000 0.34650000 -1.97020000
-4.04400000 0.38810000 -1.67510000
-3.02120000 0.26840000 3.02120000
-3.22810000 0.24080000 2.75710000
-0.62540000 0.10580000 -3.94880000
-0.94170000 0.12010000 -3.92260000
-0.93330000 0.10640000 -3.88760000
-1.24660000 0.12070000 -3.83660000
-1.25740000 0.13440000 -3.87020000
-0.00000000 0.23590000 -4.24530000
-0.33530000 0.26500000 -4.25950000
-2.24910000 0.29980000 3.67020000
-2.51140000 0.26690000 3.45660000
-2.53010000 0.30060000 3.48240000
-2.77480000 0.26770000 3.24890000
3.20580000 0.75860000 4.41240000
3.53080000 0.74690000 4.13410000
3.54210000 0.75650000 4.14730000
3.84430000 0.74430000 3.84430000
2.05430000 0.67950000 4.95950000
1.66800000 0.71910000 5.13360000
-1.98640000 -0.76640000 2.73410000
-2.22670000 -0.78280000 2.60710000
-2.00630000 -0.77560000 2.76150000
3.46920000 -1.11590000 -1.43700000
3.58470000 -1.08540000 -1.48480000
-1.65400000 -1.11320000 -3.24620000
-1.64510000 -1.10880000 -3.22870000
-1.26500000 -0.83290000 -3.89340000
-1.56660000 -0.83290000 -3.78210000
-1.55160000 -0.89010000 -3.74600000
-4.32630000 0.34670000 0.34050000
-4.32330000 0.38740000 0.68480000
-4.28630000 0.34620000 0.67890000
-2.65870000 -0.83280000 -3.11290000
-2.41870000 -0.82070000 -3.32910000
-2.40620000 -0.83280000 -3.31190000
-2.80040000 -1.05410000 2.80040000
-2.55700000 -1.06380000 2.99390000
-2.57210000 -1.05410000 3.01150000
1.46740000 -0.30190000 -4.51620000
1.10860000 -0.30140000 -4.61740000
1.00490000 0.29220000 4.18560000
0.66840000 0.25970000 4.22000000
0.67340000 0.29300000 4.25150000
0.33530000 0.26050000 4.25950000
4.51690000 0.74960000 -1.46760000
1.82760000 0.79710000 -4.41220000
-3.65760000 -1.11680000 -0.28790000
-3.64600000 -1.11860000 -0.57750000
-3.62370000 -1.11680000 -0.57390000
-2.04430000 1.04410000 -4.93540000
-1.64730000 1.04400000 -5.07000000
-1.65080000 1.04120000 -5.08060000
4.09230000 0.17790000 0.98250000
4.17150000 0.19050000 0.66070000
4.15670000 0.17740000 0.65840000
4.21050000 0.19030000 0.33140000
-1.68000000 0.77500000 -5.17060000
-1.26920000 0.77290000 -5.28640000
3.90200000 0.19290000 1.61630000
3.74980000 0.18110000 1.91070000
3.76320000 0.19430000 1.91740000
3.58840000 0.18260000 2.19900000
2.10730000 0.89900000 5.08740000
2.50300000 0.88860000 4.91240000
2.49990000 0.89830000 4.90640000
2.88070000 0.88750000 4.70090000
2.80100000 1.00290000 4.57090000
2.79610000 1.00550000 4.56280000
3.15100000 1.00160000 4.33700000
3.92940000 0.61560000 2.40790000
3.76510000 0.39500000 2.30730000
0.93540000 -1.00210000 -3.89610000
2.19900000 0.19340000 -3.58840000
1.91750000 0.20800000 -3.76320000
1.91070000 0.19470000 -3.74980000
1.61630000 0.20920000 -3.90200000
-4.36180000 1.04740000 -3.16900000
-4.63250000 1.02360000 -2.83880000
1.36780000 -1.07150000 -3.30210000
1.10170000 -1.05700000 -3.39070000
1.10450000 -1.07150000 -3.39920000
0.83230000 -1.05690000 -3.46670000
-2.45230000 -1.11270000 -2.87130000
-2.65530000 -1.11590000 -2.65530000
-2.67000000 -1.11270000 -2.67000000
-2.72180000 -1.09510000 -2.72180000
-2.90390000 -1.10350000 -2.48010000
-2.92690000 -1.09510000 -2.49980000
-2.30500000 -1.02610000 -2.69880000
-2.10080000 -1.07150000 -2.89150000
-2.00370000 1.06130000 -4.83730000
-2.38680000 1.06230000 -4.68440000
-2.37700000 1.06430000 -4.66510000
-2.02530000 1.05480000 -4.88950000
-1.63040000 1.05430000 -5.01790000
-1.63540000 1.05190000 -5.03330000
-2.18820000 0.19190000 -3.57100000
-2.47370000 0.20680000 -3.40480000
-2.46170000 0.19250000 -3.38830000
-2.73320000 0.20740000 -3.20020000
0.42560000 0.99180000 -5.40720000
0.42140000 1.01950000 -5.35400000
1.18270000 0.97060000 4.92640000
-3.31290000 -0.75880000 0.26070000
-3.34250000 -0.76060000 -0.00000000
-3.32310000 -0.75880000 0.00000000
-3.33790000 -0.76610000 0.52870000
-3.38640000 -0.77020000 0.26650000
-3.36910000 -0.76610000 0.26520000
-1.28160000 0.92790000 5.33830000
-0.85970000 0.92010000 5.42760000
-0.85880000 0.92620000 5.42240000
-0.43110000 0.91860000 5.47830000
-1.81720000 -0.29920000 4.38720000
-2.15580000 -0.29900000 4.23110000
3.90930000 0.80260000 3.90930000
4.19630000 0.78850000 3.58390000
4.20400000 0.79970000 3.59050000
2.24910000 0.28770000 3.67020000
2.55080000 0.32340000 3.51090000
2.53010000 0.28620000 3.48240000
2.81840000 0.32170000 3.29990000
0.99740000 0.26090000 -4.15460000
1.31180000 0.23170000 -4.03750000
1.32030000 0.25980000 -4.06350000
1.62460000 0.23050000 -3.92210000
-4.86640000 1.00220000 -2.47960000
-5.04590000 1.00380000 -2.09010000
3.34780000 -1.10890000 1.38670000
3.24620000 -1.11330000 1.65400000
3.22870000 -1.10890000 1.64510000
3.41040000 -1.11860000 1.41260000
-2.79120000 1.05010000 -4.55480000
-3.14550000 1.05060000 -4.32930000
-3.14000000 1.05310000 -4.32180000
-3.16270000 1.04090000 -4.35310000
-1.00490000 0.30060000 -4.18560000
-1.34110000 0.33930000 -4.12730000
-1.33020000 0.30140000 -4.09380000
-1.66080000 0.34020000 -4.00940000
0.66070000 0.21250000 -4.17150000
0.98600000 0.21140000 -4.10680000
-3.02850000 1.03570000 4.16830000
2.84850000 -0.70220000 3.33520000
-2.86720000 0.89800000 -3.94630000
-2.50890000 0.84190000 -4.09410000
-3.96130000 -0.85660000 -0.95100000
-3.89340000 -0.83280000 -1.26500000
-3.87440000 -0.85660000 -1.25890000
-3.86790000 -0.79680000 -1.60210000
-3.83160000 -0.80870000 -1.58710000
2.02280000 -0.79430000 2.78410000
1.78350000 -0.77780000 2.91040000
1.77490000 -0.77280000 2.89630000
4.69090000 0.74650000 -0.74300000
3.02670000 -0.77470000 1.54220000
-3.12650000 1.03820000 4.30330000
-3.44630000 1.04420000 4.03510000
-3.45450000 1.04150000 4.04470000
-3.50150000 1.01890000 4.09970000
2.88870000 0.80920000 -4.71390000
2.50990000 0.81170000 -4.92600000
-3.57270000 -1.08530000 -0.28120000
-3.59850000 -1.11320000 -0.56990000
-3.61250000 -1.10880000 -0.28430000
-3.63210000 -1.11320000 -0.28580000
-5.45050000 0.84840000 -0.86330000
-5.37580000 0.86020000 -1.29060000
-5.36600000 0.84830000 -1.28830000
-5.25800000 0.85960000 -1.70840000
-1.59330000 0.17360000 3.84630000
-1.29430000 0.18700000 3.98310000
-1.28660000 0.17300000 3.95950000
2.59650000 0.09560000 -3.04010000
2.63190000 0.09500000 -2.63190000
2.82700000 0.09440000 -2.82700000
2.41180000 0.13710000 -3.31940000
3.73160000 0.16730000 1.90140000
3.54970000 0.15510000 2.17540000
3.57090000 0.16880000 2.18840000
-3.98060000 -0.83280000 -0.95570000
-2.22660000 -0.78260000 -2.60710000
5.07280000 0.98230000 -0.80350000
5.08890000 0.98840000 -0.80600000
-5.43670000 0.79660000 -0.00000000
-3.83610000 -0.75870000 1.95460000
-2.84850000 -0.69790000 -3.33520000
3.98680000 0.88190000 2.89660000
4.11600000 0.81620000 2.52230000
0.00000000 1.03090000 5.23580000
0.41250000 1.02760000 5.24130000
0.41080000 1.02960000 5.21970000
0.82540000 1.02440000 5.21120000
-5.37870000 0.86670000 -1.29130000
-5.46200000 0.86300000 -0.86510000
-5.46350000 0.86690000 -0.86530000
-5.51300000 0.86270000 -0.43390000
4.66900000 0.79100000 -1.12090000
-3.52130000 -1.05690000 -0.55770000
-3.50920000 -1.10380000 -0.84250000
2.84070000 0.75090000 -4.63550000
-3.56750000 -1.11680000 0.85650000
-3.64600000 -1.11860000 0.57750000
-3.62370000 -1.11680000 0.57390000
-3.48930000 -1.11680000 1.13370000
-3.58940000 -1.11860000 0.86170000
-0.34410000 -0.69870000 4.37260000
0.50600000 -0.80630000 -2.10760000
0.33910000 -0.80620000 -2.14080000
0.76660000 -0.75700000 -3.19290000
1.04970000 -0.77200000 3.23070000
1.29330000 -0.76820000 3.12230000
1.29990000 -0.77220000 3.13830000
1.04430000 -0.76800000 3.21410000
3.12000000 0.13110000 2.66480000
2.96140000 0.17360000 2.96150000
-5.38690000 0.80410000 0.85320000
4.40720000 -0.67500000 0.34690000
4.30540000 -0.76520000 -0.00000000
-5.01790000 1.08500000 -1.63040000
-4.97950000 1.08900000 -1.61800000
-5.09110000 1.08960000 -1.22230000
0.51990000 -0.75960000 -3.28220000
0.78030000 -0.76150000 -3.25010000
0.77580000 -0.75970000 -3.23130000
0.78470000 -0.76390000 -3.26840000
1.04430000 -0.76710000 -3.21410000
1.03870000 -0.76400000 -3.19680000
-2.66320000 -0.56270000 3.66560000
-2.68200000 -0.53280000 3.69150000
-2.36740000 -0.56280000 3.86330000
1.45310000 -1.10860000 3.50810000
1.71420000 -1.11280000 3.36440000
1.72390000 -1.10860000 3.38330000
2.23190000 -1.10860000 3.07190000
1.99530000 -1.10360000 3.25610000
1.98400000 -1.10860000 3.23760000
-1.97810000 1.03170000 4.77570000
-1.60080000 1.03160000 4.92680000
-4.99420000 1.06640000 -1.19900000
-5.08890000 1.07340000 -0.80600000
-5.07290000 1.06650000 -0.80350000
-3.11290000 -0.83280000 -2.65870000
-3.31190000 -0.83280000 -2.40620000
-3.28030000 -0.89000000 -2.38330000
3.90790000 0.86000000 -3.90800000
-3.17660000 -1.05690000 1.61860000
-3.30210000 -1.07140000 1.36770000
-3.29380000 -1.05690000 1.36440000
-3.39920000 -1.07140000 1.10450000
-3.98060000 -0.83280000 0.95570000
-4.03270000 -0.80870000 0.96820000
-1.54220000 -0.77040000 -3.02670000
-1.76580000 -0.76630000 -2.88150000
-1.77490000 -0.77030000 -2.89640000
3.63110000 -1.11800000 -0.87170000
3.70890000 -1.11590000 -0.58740000
3.68830000 -1.11800000 -0.58420000
3.77180000 -1.10360000 -0.59740000
0.35270000 -0.59720000 -4.48140000
-2.38280000 -1.11680000 2.78980000
-2.61020000 -1.11860000 2.61020000
1.54220000 -0.77140000 -3.02670000
1.78350000 -0.77670000 -2.91040000
1.77490000 -0.77160000 -2.89630000
2.40620000 -0.83530000 3.31190000
2.64570000 -0.85920000 3.09770000
2.65870000 -0.83560000 3.11290000
3.91360000 -0.82580000 1.27160000
3.83160000 -0.81400000 1.58710000
3.80170000 -0.82560000 1.57470000
