2.74258300 0.73422300 -1.13601400
2.94315400 0.73422300 -0.38747300
2.94315500 0.73422300 0.38747400
2.74258400 0.73422300 1.13601600
2.35511000 0.73422300 1.80713900
1.80713900 0.73422300 2.35510900
1.13601500 0.73422300 2.74258300
0.38747400 0.73422300 2.94315400
-0.38747400 0.73422300 2.94315400
-1.13601500 0.73422300 2.74258300
-0.93030400 0.48694500 2.24595200
-1.47990000 0.48694500 1.92864300
-1.92864300 0.48694500 1.47990000
-2.24595200 0.48694500 0.93030400
-2.41020400 0.48694500 0.31731000
-2.41020400 0.48694500 -0.31730900
-2.24595200 0.48694500 -0.93030400
-1.92864200 0.48694500 -1.47990000
-1.47989900 0.48694500 -1.92864200
-0.93030400 0.48694500 -2.24595200
-0.31730900 0.48694500 -2.41020300
0.31731000 0.48694500 -2.41020300
0.93030400 0.48694500 -2.24595100
1.47990000 0.48694500 -1.92864200
1.92864300 0.48694500 -1.47989900
2.24595200 0.48694500 -0.93030400
2.41020400 0.48694500 -0.31730900
2.41020500 0.48694500 0.31731000
2.24595300 0.48694500 0.93030500
1.92864300 0.48694500 1.47990000
1.47990000 0.48694500 1.92864300
0.93030400 0.48694500 2.24595300
0.31731000 0.48694500 2.41020400
-0.31730900 0.48694500 2.41020400
-1.28164800 0.96466800 3.09417300
-2.03880800 0.96466800 2.65702700
-2.65702600 0.96466800 2.03880800
-3.09417300 0.96466800 1.28164800
-3.32045600 0.96466800 0.43714600
-3.32045600 0.96466800 -0.43714700
-3.09417300 0.96466800 -1.28164800
-2.65702600 0.96466800 -2.03880800
-2.03880700 0.96466800 -2.65702600
-1.28164800 0.96466800 -3.09417300
-0.43714600 0.96466800 -3.32045600
0.43714700 0.96466800 -3.32045500
1.28164900 0.96466800 -3.09417100
2.03880800 0.96466800 -2.65702600
2.65702600 0.96466800 -2.03880700
3.09417200 0.96466800 -1.28164800
3.32045700 0.96466800 -0.43714600
3.32045700 0.96466800 0.43714700
3.09417400 0.96466800 1.28164900
2.65702700 0.96466800 2.03880800
2.03880800 0.96466800 2.65702700
1.28164800 0.96466800 3.09417300
0.43714600 0.96466800 3.32045600
-0.43714700 0.96466800 3.32045600
3.23227900 1.10513900 -1.33885300
2.77562100 1.10513900 -2.12980800
2.12980900 1.10513900 -2.77562000
1.33885400 1.10513900 -3.23227800
0.45665900 1.10513900 -3.46866200
-0.45665800 1.10513900 -3.46866200
-1.33885300 1.10513900 -3.23227900
-2.12980900 1.10513900 -2.77562100
-2.77562100 1.10513900 -2.12980900
-3.23228000 1.10513900 -1.33885400
-3.46866400 1.10513900 -0.45665800
-3.46866400 1.10513900 0.45665800
-3.23228000 1.10513900 1.33885400
-2.77562100 1.10513900 2.12980900
-2.12980900 1.10513900 2.77562100
-1.33885400 1.10513900 3.23228000
-0.45665800 1.10513900 3.46866400
0.45665800 1.10513900 3.46866400
1.33885400 1.10513900 3.23228000
2.12981000 1.10513900 2.77562200
2.77562200 1.10513900 2.12981000
3.23228100 1.10513900 1.33885400
3.46866400 1.10513900 0.45665800
3.46866300 1.10513900 -0.45665800
3.15943900 1.08791700 -1.30868200
2.71307200 1.08791700 -2.08181300
2.08181300 1.08791700 -2.71307100
1.30868300 1.08791700 -3.15943900
0.44636800 1.08791700 -3.39049500
-0.44636700 1.08791700 -3.39049500
-1.30868200 1.08791700 -3.15943900
-2.08181300 1.08791700 -2.71307200
-2.71307200 1.08791700 -2.08181300
-3.15944000 1.08791700 -1.30868300
-3.39049700 1.08791700 -0.44636800
-3.39049700 1.08791700 0.44636700
-3.15944000 1.08791700 1.30868300
-2.71307200 1.08791700 2.08181300
-2.08181300 1.08791700 2.71307200
-1.30868300 1.08791700 3.15944000
-0.44636800 1.08791700 3.39049700
0.44636700 1.08791700 3.39049700
1.30868300 1.08791700 3.15944100
2.08181400 1.08791700 2.71307300
2.71307300 1.08791700 2.08181400
3.15944000 1.08791700 1.30868300
3.39049700 1.08791700 0.44636800
3.39049600 1.08791700 -0.44636700
2.62166800 0.73463700 -1.08593000
2.25127700 0.73463700 -1.72746500
1.72746600 0.73463700 -2.25127700
1.08593100 0.73463700 -2.62166800
0.37039100 0.73463700 -2.81339500
-0.37039000 0.73463700 -2.81339600
-1.08593000 0.73463700 -2.62166800
-1.72746600 0.73463700 -2.25127700
-2.25127700 0.73463700 -1.72746600
-2.62166900 0.73463700 -1.08593100
-2.81339700 0.73463700 -0.37039100
-2.81339700 0.73463700 0.37039100
-2.62166900 0.73463700 1.08593100
-2.25127700 0.73463700 1.72746600
-1.72746600 0.73463700 2.25127800
-1.08593100 0.73463700 2.62166900
-0.37039100 0.73463700 2.81339700
0.37039100 0.73463700 2.81339700
1.08593100 0.73463700 2.62166900
1.72746700 0.73463700 2.25127900
2.25127900 0.73463700 1.72746700
2.62167000 0.73463700 1.08593100
2.81339800 0.73463700 0.37039100
2.81339700 0.73463700 -0.37039000
2.12728200 0.48717000 -0.88114800
1.82673900 0.48717000 -1.40170500
1.40170600 0.48717000 -1.82673800
0.88114900 0.48717000 -2.12728100
0.30054400 0.48717000 -2.28285400
-0.30054300 0.48717000 -2.28285400
-0.88114900 0.48717000 -2.12728200
-1.40170600 0.48717000 -1.82673800
-1.82673800 0.48717000 -1.40170600
-2.12728200 0.48717000 -0.88114900
-2.28285500 0.48717000 -0.30054300
-2.28285500 0.48717000 0.30054400
-2.12728200 0.48717000 0.88114900
-1.82673800 0.48717000 1.40170600
-1.40170600 0.48717000 1.82673900
-0.88114900 0.48717000 2.12728300
-0.30054400 0.48717000 2.28285600
0.30054300 0.48717000 2.28285600
0.88114900 0.48717000 2.12728300
1.40170600 0.48717000 1.82674000
1.82674000 0.48717000 1.40170700
2.12728300 0.48717000 0.88115000
2.28285600 0.48717000 0.30054400
2.28285500 0.48717000 -0.30054300
1.59084800 0.31395200 -0.65895000
1.36609200 0.31395200 -1.04823900
1.04824000 0.31395200 -1.36609100
0.65895100 0.31395200 -1.59084700
0.22475600 0.31395200 -1.70718900
-0.22475500 0.31395200 -1.70719000
-0.65895000 0.31395200 -1.59084800
-1.04823900 0.31395200 -1.36609200
-1.36609200 0.31395200 -1.04823900
-1.59084800 0.31395200 -0.65895100
-1.70719100 0.31395200 -0.22475500
-1.70719100 0.31395200 0.22475600
-1.59084800 0.31395200 0.65895100
-1.36609200 0.31395200 1.04824000
-1.04823900 0.31395200 1.36609300
-0.65895100 0.31395200 1.59084900
-0.22475600 0.31395200 1.70719100
0.22475600 0.31395200 1.70719100
0.65895100 0.31395200 1.59084900
1.04824000 0.31395200 1.36609300
1.36609300 0.31395200 1.04824100
1.59084900 0.31395200 0.65895200
1.70719100 0.31395200 0.22475600
1.70719100 0.31395200 -0.22475500
3.25868300 1.08830700 1.34979000
2.79829400 1.08830700 2.14720600
2.14720600 1.08830700 2.79829400
1.34979000 1.08830700 3.25868200
0.46038800 1.08830700 3.49699600
-0.46038800 1.08830700 3.49699600
-1.34979000 1.08830700 3.25868200
-2.14720600 1.08830700 2.79829300
-2.79829300 1.08830700 2.14720600
-3.25868200 1.08830700 1.34979000
-3.49699600 1.08830700 0.46038800
-3.49699600 1.08830700 -0.46038900
-3.25868200 1.08830700 -1.34979000
-2.79829300 1.08830700 -2.14720600
-2.14720500 1.08830700 -2.79829300
-1.34979000 1.08830700 -3.25868200
-0.46038800 1.08830700 -3.49699500
0.46038900 1.08830700 -3.49699400
1.34979000 1.08830700 -3.25868000
2.14720600 1.08830700 -2.79829300
2.79829300 1.08830700 -2.14720500
3.25868100 1.08830700 -1.34979000
3.49699600 1.08830700 -0.46038800
3.49699700 1.08830700 0.46038800
3.20528500 0.96427800 0.42198400
2.98685100 0.96427800 1.23719400
2.56486700 0.96427800 1.96809200
1.96809100 0.96427800 2.56486700
1.23719400 0.96427800 2.98685000
0.42198400 0.96427800 3.20528500
-0.42198400 0.96427800 3.20528500
-1.23719400 0.96427800 2.98685000
-1.96809000 0.96427800 2.56486600
-2.56486500 0.96427800 1.96809100
-2.98685000 0.96427800 1.23719300
-3.20528500 0.96427800 0.42198400
-3.20528500 0.96427800 -0.42198400
-2.98685000 0.96427800 -1.23719400
-2.56486500 0.96427800 -1.96809000
-1.96809000 0.96427800 -2.56486500
-1.23719300 0.96427800 -2.98684900
-0.42198300 0.96427800 -3.20528300
0.42198400 0.96427800 -3.20528300
1.23719400 0.96427800 -2.98684900
1.96809000 0.96427800 -2.56486500
2.56486500 0.96427800 -1.96809000
2.98684900 0.96427800 -1.23719300
3.20528500 0.96427800 -0.42198300
1.63662700 0.24323400 0.21546700
1.52509400 0.24323400 0.63171500
1.30962700 0.24323400 1.00491300
1.00491200 0.24323400 1.30962700
0.63171500 0.24323400 1.52509400
0.21546600 0.24323400 1.63662700
-0.21546600 0.24323400 1.63662700
-0.63171400 0.24323400 1.52509400
-1.00491200 0.24323400 1.30962700
-1.30962700 0.24323400 1.00491200
-1.52509300 0.24323400 0.63171500
-1.63662700 0.24323400 0.21546600
-1.63662700 0.24323400 -0.21546600
-1.52509300 0.24323400 -0.63171400
-1.30962600 0.24323400 -1.00491200
-1.00491200 0.24323400 -1.30962600
-0.63171400 0.24323400 -1.52509300
-0.21546600 0.24323400 -1.63662600
0.21546700 0.24323400 -1.63662600
0.63171500 0.24323400 -1.52509200
1.00491200 0.24323400 -1.30962600
1.30962700 0.24323400 -1.00491200
1.52509300 0.24323400 -0.63171400
1.63662700 0.24323400 -0.21546600
1.13703000 0.10242000 0.14969300
1.05954300 0.10242000 0.43887800
0.90985000 0.10242000 0.69815300
0.69815300 0.10242000 0.90985000
0.43887800 0.10242000 1.05954300
0.14969300 0.10242000 1.13703000
-0.14969200 0.10242000 1.13703000
-0.43887700 0.10242000 1.05954300
-0.69815200 0.10242000 0.90985000
-0.90984900 0.10242000 0.69815200
-1.05954200 0.10242000 0.43887800
-1.13702900 0.10242000 0.14969300
-1.13702900 0.10242000 -0.14969200
-1.05954200 0.10242000 -0.43887700
-0.90984900 0.10242000 -0.69815200
-0.69815200 0.10242000 -0.90984900
-0.43887700 0.10242000 -1.05954200
-0.14969200 0.10242000 -1.13702900
0.14969300 0.10242000 -1.13702900
0.43887700 0.10242000 -1.05954200
0.69815200 0.10242000 -0.90984900
0.90985000 0.10242000 -0.69815200
1.05954300 0.10242000 -0.43887700
1.13703000 0.10242000 -0.14969200
0.81322200 0.15841900 -0.33684700
0.69832900 0.15841900 -0.53584600
0.53584700 0.15841900 -0.69832800
0.33684800 0.15841900 -0.81322100
0.11489300 0.15841900 -0.87269400
-0.11489200 0.15841900 -0.87269400
-0.33684700 0.15841900 -0.81322100
-0.53584600 0.15841900 -0.69832800
-0.69832900 0.15841900 -0.53584600
-0.81322100 0.15841900 -0.33684700
-0.87269400 0.15841900 -0.11489200
-0.87269400 0.15841900 0.11489300
-0.81322100 0.15841900 0.33684800
-0.69832900 0.15841900 0.53584700
-0.53584600 0.15841900 0.69832900
-0.33684700 0.15841900 0.81322200
-0.11489200 0.15841900 0.87269500
0.11489300 0.15841900 0.87269500
0.33684800 0.15841900 0.81322200
0.53584700 0.15841900 0.69833000
0.69833000 0.15841900 0.53584700
0.81322200 0.15841900 0.33684800
0.87269500 0.15841900 0.11489300
0.87269500 0.15841900 -0.11489200
0.91827700 0.13624900 -0.12089300
0.85569700 0.13624900 -0.35444100
0.73480300 0.13624900 -0.56383400
0.56383500 0.13624900 -0.73480200
0.35444200 0.13624900 -0.85569600
0.12089400 0.13624900 -0.91827500
-0.12089300 0.13624900 -0.91827500
-0.35444100 0.13624900 -0.85569600
-0.56383400 0.13624900 -0.73480300
-0.73480300 0.13624900 -0.56383400
-0.85569700 0.13624900 -0.35444100
-0.91827600 0.13624900 -0.12089300
-0.91827600 0.13624900 0.12089400
-0.85569700 0.13624900 0.35444200
-0.73480300 0.13624900 0.56383500
-0.56383400 0.13624900 0.73480400
-0.35444100 0.13624900 0.85569700
-0.12089300 0.13624900 0.91827700
0.12089400 0.13624900 0.91827700
0.35444200 0.13624900 0.85569700
0.56383500 0.13624900 0.73480400
0.73480400 0.13624900 0.56383500
0.85569800 0.13624900 0.35444200
0.91827700 0.13624900 0.12089400
0.60076500 0.16639100 -0.24884400
0.51588800 0.16639100 -0.39585400
0.39585500 0.16639100 -0.51588700
0.24884500 0.16639100 -0.60076400
0.08487700 0.16639100 -0.64469900
-0.08487600 0.16639100 -0.64469900
-0.24884500 0.16639100 -0.60076400
-0.39585500 0.16639100 -0.51588800
-0.51588800 0.16639100 -0.39585400
-0.60076400 0.16639100 -0.24884400
-0.64470000 0.16639100 -0.08487600
-0.64470000 0.16639100 0.08487700
-0.60076500 0.16639100 0.24884600
-0.51588800 0.16639100 0.39585600
-0.39585500 0.16639100 0.51588900
-0.24884500 0.16639100 0.60076600
-0.08487600 0.16639100 0.64470100
0.08487700 0.16639100 0.64470100
0.24884600 0.16639100 0.60076600
0.39585500 0.16639100 0.51588900
0.51588900 0.16639100 0.39585600
0.60076500 0.16639100 0.24884600
0.64470100 0.16639100 0.08487700
0.64470100 0.16639100 -0.08487600
1.03270700 0.24652400 -0.42776000
0.88680600 0.24652400 -0.68046900
0.68047000 0.24652400 -0.88680500
0.42776100 0.24652400 -1.03270600
0.14590200 0.24652400 -1.10823000
-0.14590100 0.24652400 -1.10823000
-0.42776100 0.24652400 -1.03270600
-0.68046900 0.24652400 -0.88680500
-0.88680500 0.24652400 -0.68046900
-1.03270700 0.24652400 -0.42776100
-1.10823100 0.24652400 -0.14590100
-1.10823100 0.24652400 0.14590200
-1.03270700 0.24652400 0.42776200
-0.88680500 0.24652400 0.68047100
-0.68047000 0.24652400 0.88680600
-0.42776100 0.24652400 1.03270800
-0.14590100 0.24652400 1.10823200
0.14590100 0.24652400 1.10823200
0.42776100 0.24652400 1.03270800
0.68047000 0.24652400 0.88680700
0.88680600 0.24652400 0.68047100
1.03270700 0.24652400 0.42776200
1.10823200 0.24652400 0.14590200
1.10823100 0.24652400 -0.14590100
1.01072800 0.00837200 -0.41865700
0.96893200 0.04440500 -0.55941300
1.05002200 0.08111200 -0.43493300
1.08070300 0.04440500 -0.28957300
0.86793200 0.00837200 -0.66598700
0.79112900 0.04440500 -0.79112800
0.90167400 0.08111200 -0.69187800
0.66598800 0.00837200 -0.86793100
0.55941300 0.04440500 -0.96893100
0.69187900 0.08111200 -0.90167300
0.41865800 0.00837200 -1.01072800
0.28957400 0.04440500 -1.08070300
0.43493400 0.08111200 -1.05002200
0.14279700 0.00837200 -1.08464500
0.00000100 0.04440500 -1.11882600
0.14834800 0.08111200 -1.12681200
-0.14279600 0.00837200 -1.08464500
-0.28957300 0.04440500 -1.08070300
-0.14834700 0.08111200 -1.12681200
-0.41865700 0.00837200 -1.01072800
-0.55941300 0.04440500 -0.96893100
-0.43493300 0.08111200 -1.05002200
-0.66598700 0.00837200 -0.86793100
-0.79112900 0.04440500 -0.79112900
-0.69187900 0.08111200 -0.90167400
-0.86793100 0.00837200 -0.66598700
-0.96893100 0.04440500 -0.55941300
-0.90167400 0.08111200 -0.69187900
-1.01072800 0.00837200 -0.41865700
-1.08070300 0.04440500 -0.28957300
-1.05002200 0.08111200 -0.43493300
-1.08464500 0.00837200 -0.14279600
-1.11882600 0.04440500 0.00000000
-1.12681300 0.08111200 -0.14834700
-1.08464500 0.00837200 0.14279700
-1.08070300 0.04440500 0.28957400
-1.12681300 0.08111200 0.14834800
-1.01072800 0.00837200 0.41865800
-0.96893100 0.04440500 0.55941300
-1.05002200 0.08111200 0.43493400
-0.86793100 0.00837200 0.66598800
-0.79112900 0.04440500 0.79112900
-0.90167400 0.08111200 0.69187900
-0.66598700 0.00837200 0.86793200
-0.55941300 0.04440500 0.96893200
-0.69187900 0.08111200 0.90167400
-0.41865700 0.00837200 1.01072900
-0.28957300 0.04440500 1.08070400
-0.43493300 0.08111200 1.05002300
-0.14279600 0.00837200 1.08464600
0.00000000 0.04440500 1.11882700
-0.14834700 0.08111200 1.12681400
0.14279700 0.00837200 1.08464600
0.28957400 0.04440500 1.08070400
0.14834800 0.08111200 1.12681400
0.41865800 0.00837200 1.01072900
0.55941400 0.04440500 0.96893200
0.43493400 0.08111200 1.05002300
0.66598800 0.00837200 0.86793200
0.79113000 0.04440500 0.79113000
0.69187900 0.08111200 0.90167500
0.86793200 0.00837200 0.66598800
0.96893200 0.04440500 0.55941400
0.90167500 0.08111200 0.69188000
1.01072900 0.00837200 0.41865800
1.08070400 0.04440500 0.28957400
1.05002300 0.08111200 0.43493400
1.08464600 0.00837200 0.14279700
1.11882700 0.04440500 0.00000000
1.12681400 0.08111200 0.14834800
1.08464600 0.00837200 -0.14279600
1.12681300 0.08111200 -0.14834700
0.43456200 0.17236900 -0.18000100
0.25983900 0.17436200 -0.06962300
0.23296500 0.17436200 -0.13450200
0.37316700 0.17236900 -0.28634000
0.19021600 0.17436200 -0.19021400
0.28634100 0.17236900 -0.37316600
0.13450300 0.17436200 -0.23296400
0.18000200 0.17236900 -0.43456100
0.06962400 0.17436200 -0.25983800
0.06139600 0.17236900 -0.46634200
0.00000000 0.17436200 -0.26900400
-0.06139500 0.17236900 -0.46634200
-0.06962300 0.17436200 -0.25983800
-0.18000100 0.17236900 -0.43456100
-0.13450200 0.17436200 -0.23296400
-0.28634100 0.17236900 -0.37316600
-0.19021500 0.17436200 -0.19021500
-0.37316600 0.17236900 -0.28634000
-0.23296500 0.17436200 -0.13450200
-0.43456200 0.17236900 -0.18000100
-0.25983900 0.17436200 -0.06962300
-0.46634200 0.17236900 -0.06139500
-0.26900500 0.17436200 0.00000100
-0.46634200 0.17236900 0.06139600
-0.25983900 0.17436200 0.06962400
-0.43456200 0.17236900 0.18000200
-0.23296500 0.17436200 0.13450300
-0.37316600 0.17236900 0.28634200
-0.19021500 0.17436200 0.19021600
-0.28634100 0.17236900 0.37316700
-0.13450200 0.17436200 0.23296600
-0.18000100 0.17236900 0.43456300
-0.06962300 0.17436200 0.25984000
-0.06139500 0.17236900 0.46634400
0.00000000 0.17436200 0.26900600
0.06139600 0.17236900 0.46634400
0.06962400 0.17436200 0.25984000
0.18000200 0.17236900 0.43456300
0.13450300 0.17436200 0.23296600
0.28634100 0.17236900 0.37316800
0.19021600 0.17436200 0.19021600
0.37316700 0.17236900 0.28634200
0.23296600 0.17436200 0.13450300
0.43456300 0.17236900 0.18000200
0.25984000 0.17436200 0.06962400
0.46634300 0.17236900 0.06139600
0.26900600 0.17436200 0.00000100
0.46634300 0.17236900 -0.06139500
0.44666000 0.21709800 -0.11968100
0.74700700 0.23049000 -0.30941900
0.40046400 0.21709800 -0.23120700
0.64146900 0.23049000 -0.49221600
0.32697800 0.21709800 -0.32697700
0.49221700 0.23049000 -0.64146800
0.23120800 0.21709800 -0.40046300
0.30942000 0.23049000 -0.74700600
0.11968200 0.21709800 -0.44665900
0.10553800 0.23049000 -0.80163600
0.00000000 0.21709800 -0.46241600
-0.10553700 0.23049000 -0.80163600
-0.11968200 0.21709800 -0.44665900
-0.30942000 0.23049000 -0.74700600
-0.23120800 0.21709800 -0.40046400
-0.49221600 0.23049000 -0.64146900
-0.32697700 0.21709800 -0.32697700
-0.64146900 0.23049000 -0.49221600
-0.40046400 0.21709800 -0.23120800
-0.74700700 0.23049000 -0.30942000
-0.44666000 0.21709800 -0.11968100
-0.80163700 0.23049000 -0.10553700
-0.46241600 0.21709800 0.00000100
-0.80163700 0.23049000 0.10553800
-0.44666000 0.21709800 0.11968300
-0.74700700 0.23049000 0.30942100
-0.40046400 0.21709800 0.23120900
-0.64146900 0.23049000 0.49221700
-0.32697800 0.21709800 0.32697800
-0.49221600 0.23049000 0.64147000
-0.23120800 0.21709800 0.40046500
-0.30942000 0.23049000 0.74700700
-0.11968200 0.21709800 0.44666100
-0.10553700 0.23049000 0.80163800
0.00000000 0.21709800 0.46241700
0.10553800 0.23049000 0.80163800
0.11968200 0.21709800 0.44666100
0.30942000 0.23049000 0.74700800
0.23120800 0.21709800 0.40046500
0.49221700 0.23049000 0.64147000
0.32697800 0.21709800 0.32697900
0.64147000 0.23049000 0.49221800
0.40046500 0.21709800 0.23120900
0.74700700 0.23049000 0.30942100
0.44666000 0.21709800 0.11968300
0.80163700 0.23049000 0.10553800
0.46241700 0.21709800 0.00000100
0.80163700 0.23049000 -0.10553700
-0.15079200 0.11351800 1.14538000
0.00000000 0.11959500 1.16740900
-0.16905500 0.15228800 1.28410300
-0.30214700 0.11959500 1.12763000
-0.44210000 0.11351800 1.06732400
-0.49564500 0.15228800 1.19659300
-0.58370400 0.11959500 1.01100500
-0.70327900 0.11351800 0.91653100
-0.78845700 0.15228800 1.02753700
-0.82548200 0.11959500 0.82548200
-0.91653100 0.11351800 0.70327900
-1.02753700 0.15228800 0.78845700
-1.01100400 0.11959500 0.58370400
-1.06732300 0.11351800 0.44210000
-1.19659200 0.15228800 0.49564500
-1.12762900 0.11959500 0.30214800
-1.14537900 0.11351800 0.15079300
-1.28410200 0.15228800 0.16905600
-1.16740800 0.11959500 0.00000000
-1.14537900 0.11351800 -0.15079200
-1.28410200 0.15228800 -0.16905500
-1.12762900 0.11959500 -0.30214700
-1.06732300 0.11351800 -0.44209900
-1.19659200 0.15228800 -0.49564500
-1.01100400 0.11959500 -0.58370400
-0.91653000 0.11351800 -0.70327900
-1.02753600 0.15228800 -0.78845600
-0.82548100 0.11959500 -0.82548100
-0.70327900 0.11351800 -0.91653000
-0.78845600 0.15228800 -1.02753600
-0.58370400 0.11959500 -1.01100400
-0.44210000 0.11351800 -1.06732300
-0.49564500 0.15228800 -1.19659200
-0.30214700 0.11959500 -1.12762900
-0.15079200 0.11351800 -1.14537900
-0.16905500 0.15228800 -1.28410100
0.00000100 0.11959500 -1.16740700
0.15079300 0.11351800 -1.14537900
0.16905600 0.15228800 -1.28410100
0.30214800 0.11959500 -1.12762900
0.44210000 0.11351800 -1.06732200
0.49564500 0.15228800 -1.19659200
0.58370400 0.11959500 -1.01100400
0.70327900 0.11351800 -0.91653000
0.78845700 0.15228800 -1.02753600
0.82548200 0.11959500 -0.82548100
0.91653100 0.11351800 -0.70327800
1.02753700 0.15228800 -0.78845600
1.01100500 0.11959500 -0.58370400
1.06732300 0.11351800 -0.44209900
1.19659200 0.15228800 -0.49564400
1.12763000 0.11959500 -0.30214700
1.14538000 0.11351800 -0.15079200
1.28410200 0.15228800 -0.16905500
1.16740900 0.11959500 0.00000000
1.14538000 0.11351800 0.15079300
1.28410300 0.15228800 0.16905600
1.12763100 0.11959500 0.30214800
1.06732400 0.11351800 0.44210100
1.19659300 0.15228800 0.49564600
1.01100500 0.11959500 0.58370500
0.91653100 0.11351800 0.70328000
1.02753700 0.15228800 0.78845700
0.82548200 0.11959500 0.82548200
0.70327900 0.11351800 0.91653100
0.78845700 0.15228800 1.02753700
0.58370400 0.11959500 1.01100500
0.44210000 0.11351800 1.06732400
0.49564500 0.15228800 1.19659300
0.30214800 0.11959500 1.12763000
0.15079300 0.11351800 1.14538000
0.16905600 0.15228800 1.28410300
1.02644200 -0.01091700 -0.27503400
0.95003200 -0.01637500 -0.39351600
0.92028300 -0.01091700 -0.53132500
0.81581100 -0.01637500 -0.62599300
0.75140700 -0.01091700 -0.75140700
0.62599400 -0.01637500 -0.81581000
0.53132600 -0.01091700 -0.92028200
0.39351700 -0.01637500 -0.95003100
0.27503500 -0.01091700 -1.02644200
0.13422200 -0.01637500 -1.01950900
0.00000100 -0.01091700 -1.06265000
-0.13422100 -0.01637500 -1.01950900
-0.27503400 -0.01091700 -1.02644200
-0.39351600 -0.01637500 -0.95003100
-0.53132500 -0.01091700 -0.92028200
-0.62599300 -0.01637500 -0.81581000
-0.75140700 -0.01091700 -0.75140700
-0.81581000 -0.01637500 -0.62599300
-0.92028200 -0.01091700 -0.53132500
-0.95003200 -0.01637500 -0.39351600
-1.02644200 -0.01091700 -0.27503400
-1.01951000 -0.01637500 -0.13422100
-1.06265100 -0.01091700 0.00000000
-1.01951000 -0.01637500 0.13422200
-1.02644200 -0.01091700 0.27503500
-0.95003200 -0.01637500 0.39351700
-0.92028200 -0.01091700 0.53132600
-0.81581000 -0.01637500 0.62599400
-0.75140700 -0.01091700 0.75140800
-0.62599300 -0.01637500 0.81581100
-0.53132500 -0.01091700 0.92028300
-0.39351600 -0.01637500 0.95003200
-0.27503400 -0.01091700 1.02644300
-0.13422100 -0.01637500 1.01951100
0.00000000 -0.01091700 1.06265200
0.13422200 -0.01637500 1.01951100
0.27503500 -0.01091700 1.02644300
0.39351700 -0.01637500 0.95003200
0.53132600 -0.01091700 0.92028300
0.62599400 -0.01637500 0.81581100
0.75140800 -0.01091700 0.75140800
0.81581100 -0.01637500 0.62599400
0.92028300 -0.01091700 0.53132600
0.95003300 -0.01637500 0.39351700
1.02644300 -0.01091700 0.27503500
1.01951100 -0.01637500 0.13422200
1.06265200 -0.01091700 0.00000100
1.01951100 -0.01637500 -0.13422100
0.89254900 0.01153100 -0.36970500
0.91401500 0.05704000 -0.24490900
0.86243500 0.10536200 -0.35723200
0.81948300 0.05704000 -0.47312800
0.76644900 0.01153100 -0.58811600
0.74058900 0.10536200 -0.56827400
0.66910500 0.05704000 -0.66910400
0.58811700 0.01153100 -0.76644800
0.56827500 0.10536200 -0.74058800
0.47312900 0.05704000 -0.81948100
0.36970700 0.01153100 -0.89254800
0.35723300 0.10536200 -0.86243400
0.24491000 0.05704000 -0.91401400
0.12610100 0.01153100 -0.95782300
0.12184600 0.10536200 -0.92550600
0.00000100 0.05704000 -0.94625600
-0.12609900 0.01153100 -0.95782300
-0.12184500 0.10536200 -0.92550600
-0.24490900 0.05704000 -0.91401400
-0.36970600 0.01153100 -0.89254900
-0.35723200 0.10536200 -0.86243400
-0.47312800 0.05704000 -0.81948200
-0.58811700 0.01153100 -0.76644800
-0.56827400 0.10536200 -0.74058900
-0.66910400 0.05704000 -0.66910400
-0.76644900 0.01153100 -0.58811700
-0.74058900 0.10536200 -0.56827400
-0.81948200 0.05704000 -0.47312800
-0.89254900 0.01153100 -0.36970600
-0.86243500 0.10536200 -0.35723200
-0.91401400 0.05704000 -0.24490900
-0.95782300 0.01153100 -0.12609900
-0.92550600 0.10536200 -0.12184500
-0.94625700 0.05704000 0.00000000
-0.95782300 0.01153100 0.12610100
-0.92550600 0.10536200 0.12184600
-0.91401400 0.05704000 0.24491000
-0.89254900 0.01153100 0.36970700
-0.86243500 0.10536200 0.35723300
-0.81948200 0.05704000 0.47312900
-0.76644900 0.01153100 0.58811700
-0.74058900 0.10536200 0.56827500
-0.66910400 0.05704000 0.66910500
-0.58811700 0.01153100 0.76644900
-0.56827400 0.10536200 0.74059000
-0.47312800 0.05704000 0.81948300
-0.36970600 0.01153100 0.89255000
-0.35723200 0.10536200 0.86243500
-0.24490900 0.05704000 0.91401500
-0.12610000 0.01153100 0.95782400
-0.12184500 0.10536200 0.92550700
0.00000000 0.05704000 0.94625800
0.12610000 0.01153100 0.95782400
0.12184600 0.10536200 0.92550800
0.24491000 0.05704000 0.91401500
0.36970700 0.01153100 0.89255000
0.35723300 0.10536200 0.86243500
0.47312900 0.05704000 0.81948300
0.58811800 0.01153100 0.76644900
0.56827500 0.10536200 0.74059000
0.66910500 0.05704000 0.66910500
0.76645000 0.01153100 0.58811800
0.74059000 0.10536200 0.56827500
0.81948300 0.05704000 0.47312900
0.89255000 0.01153100 0.36970700
0.86243600 0.10536200 0.35723300
0.91401500 0.05704000 0.24491000
0.95782400 0.01153100 0.12610100
0.92550800 0.10536200 0.12184600
0.94625800 0.05704000 0.00000100
0.95782400 0.01153100 -0.12609900
0.92550700 0.10536200 -0.12184500
0.49741500 -0.01091700 0.86154700
0.70345000 -0.01091700 0.70345000
0.86154700 -0.01091700 0.49741500
0.96093100 -0.01091700 0.25748100
0.99482900 -0.01091700 0.00000100
0.96093100 -0.01091700 -0.25748000
0.86154600 -0.01091700 -0.49741300
0.70345000 -0.01091700 -0.70344800
0.49741400 -0.01091700 -0.86154500
0.25748100 -0.01091700 -0.96093000
0.00000100 -0.01091700 -0.99482700
-0.25748000 -0.01091700 -0.96093000
-0.49741300 -0.01091700 -0.86154600
-0.70344900 -0.01091700 -0.70344900
-0.86154600 -0.01091700 -0.49741300
-0.96093000 -0.01091700 -0.25748000
-0.99482800 -0.01091700 0.00000000
-0.96093000 -0.01091700 0.25748100
-0.86154600 -0.01091700 0.49741500
-0.70344900 -0.01091700 0.70345000
-0.49741400 -0.01091700 0.86154600
-0.25748000 -0.01091700 0.96093100
0.00000000 -0.01091700 0.99482900
0.25748100 -0.01091700 0.96093100
-1.65631500 0.61058400 2.15855100
-1.48433000 0.73422300 2.57093500
-1.93407100 0.85365300 2.52053000
-2.09915900 0.73422300 2.09915900
-2.15855100 0.61058400 1.65631400
-2.52053000 0.85365300 1.93407000
-2.57093400 0.73422300 1.48433000
-2.51368600 0.61058400 1.04120300
-2.93521900 0.85365300 1.21580800
-2.86750500 0.73422300 0.76834600
-2.69751700 0.61058400 0.35513500
-3.14987800 0.85365300 0.41468900
-2.96866000 0.73422300 -0.00000000
-2.69751700 0.61058400 -0.35513500
-3.14987800 0.85365300 -0.41468900
-2.86750500 0.73422300 -0.76834600
-2.51368600 0.61058400 -1.04120300
-2.93521900 0.85365300 -1.21580800
-2.57093400 0.73422300 -1.48433000
-2.15855100 0.61058400 -1.65631400
-2.52053000 0.85365300 -1.93407000
-2.09915900 0.73422300 -2.09915900
-1.65631400 0.61058400 -2.15855100
-1.93407000 0.85365300 -2.52053000
-1.48432900 0.73422300 -2.57093400
-1.04120300 0.61058400 -2.51368600
-1.21580700 0.85365300 -2.93521900
-0.76834500 0.73422300 -2.86750500
-0.35513400 0.61058400 -2.69751700
-0.41468900 0.85365300 -3.14987800
0.00000000 0.73422300 -2.96865900
0.35513500 0.61058400 -2.69751700
0.41469000 0.85365300 -3.14987700
0.76834600 0.73422300 -2.86750400
1.04120300 0.61058400 -2.51368500
1.21580800 0.85365300 -2.93521800
1.48433000 0.73422300 -2.57093400
1.65631400 0.61058400 -2.15855000
1.93407000 0.85365300 -2.52052900
2.09915900 0.73422300 -2.09915900
2.15855100 0.61058400 -1.65631400
2.52053000 0.85365300 -1.93407000
2.57093400 0.73422300 -1.48432900
2.51368600 0.61058400 -1.04120200
2.93521900 0.85365300 -1.21580700
2.86750500 0.73422300 -0.76834500
2.69751800 0.61058400 -0.35513500
3.14987900 0.85365300 -0.41468900
2.96866100 0.73422300 0.00000000
2.69751800 0.61058400 0.35513500
3.14987900 0.85365300 0.41469000
2.86750600 0.73422300 0.76834600
2.51368700 0.61058400 1.04120300
2.93522000 0.85365300 1.21580800
2.57093500 0.73422300 1.48433000
2.15855200 0.61058400 1.65631500
2.52053000 0.85365300 1.93407100
2.09916000 0.73422300 2.09916000
1.65631500 0.61058400 2.15855100
1.93407100 0.85365300 2.52053000
1.48433000 0.73422300 2.57093500
1.04120300 0.61058400 2.51368600
1.21580800 0.85365300 2.93521900
0.76834600 0.73422300 2.86750500
0.35513500 0.61058400 2.69751800
0.41468900 0.85365300 3.14987800
0.00000000 0.73422300 2.96866000
-0.35513500 0.61058400 2.69751700
-0.41468900 0.85365300 3.14987800
-0.76834600 0.73422300 2.86750500
-1.04120300 0.61058400 2.51368600
-1.21580800 0.85365300 2.93521900
-0.79618500 0.36419800 1.92216200
-0.62921300 0.48694500 2.34825400
-1.21554600 0.48694500 2.10538700
-1.26654800 0.36419800 1.65059700
-1.71904100 0.48694500 1.71904100
-1.65059700 0.36419800 1.26654800
-2.10538600 0.48694500 1.21554600
-1.92216100 0.36419800 0.79618600
-2.34825300 0.48694500 0.62921300
-2.06273300 0.36419800 0.27156400
-2.43109100 0.48694500 0.00000000
-2.06273300 0.36419800 -0.27156400
-2.34825300 0.48694500 -0.62921300
-1.92216100 0.36419800 -0.79618500
-2.10538600 0.48694500 -1.21554500
-1.65059700 0.36419800 -1.26654700
-1.71904000 0.48694500 -1.71904000
-1.26654700 0.36419800 -1.65059700
-1.21554500 0.48694500 -2.10538600
-0.79618500 0.36419800 -1.92216100
-0.62921200 0.48694500 -2.34825300
-0.27156400 0.36419800 -2.06273300
0.00000000 0.48694500 -2.43109000
0.27156500 0.36419800 -2.06273200
0.62921300 0.48694500 -2.34825300
0.79618600 0.36419800 -1.92216000
1.21554600 0.48694500 -2.10538600
1.26654800 0.36419800 -1.65059600
1.71904100 0.48694500 -1.71904000
1.65059700 0.36419800 -1.26654700
2.10538600 0.48694500 -1.21554500
1.92216100 0.36419800 -0.79618500
2.34825300 0.48694500 -0.62921200
2.06273300 0.36419800 -0.27156400
2.43109200 0.48694500 0.00000000
2.06273400 0.36419800 0.27156500
2.34825500 0.48694500 0.62921300
1.92216200 0.36419800 0.79618600
2.10538700 0.48694500 1.21554600
1.65059800 0.36419800 1.26654800
1.71904100 0.48694500 1.71904100
1.26654800 0.36419800 1.65059800
1.21554600 0.48694500 2.10538700
0.79618600 0.36419800 1.92216200
0.62921300 0.48694500 2.34825400
0.27156400 0.36419800 2.06273400
0.00000000 0.48694500 2.43109200
-0.27156400 0.36419800 2.06273400
-0.86684500 0.96466800 3.23511000
-1.32811600 1.04898100 3.20635600
-1.67461600 0.96466800 2.90052000
-2.11272800 1.04898100 2.75336000
-2.36826500 0.96466800 2.36826500
-2.75336000 1.04898100 2.11272800
-2.90052000 0.96466800 1.67461600
-3.20635600 1.04898100 1.32811600
-3.23511000 0.96466800 0.86684500
-3.44084400 1.04898100 0.45299600
-3.34923200 0.96466800 -0.00000000
-3.44084400 1.04898100 -0.45299600
-3.23511000 0.96466800 -0.86684500
-3.20635600 1.04898100 -1.32811600
-2.90052000 0.96466800 -1.67461600
-2.75336000 1.04898100 -2.11272800
-2.36826400 0.96466800 -2.36826500
-2.11272700 1.04898100 -2.75336000
-1.67461500 0.96466800 -2.90052000
-1.32811600 1.04898100 -3.20635600
-0.86684500 0.96466800 -3.23510900
-0.45299500 1.04898100 -3.44084300
0.00000000 0.96466800 -3.34923100
0.45299600 1.04898100 -3.44084200
0.86684500 0.96466800 -3.23510800
1.32811600 1.04898100 -3.20635500
1.67461600 0.96466800 -2.90051900
2.11272800 1.04898100 -2.75335900
2.36826500 0.96466800 -2.36826400
2.75336000 1.04898100 -2.11272700
2.90052000 0.96466800 -1.67461500
3.20635600 1.04898100 -1.32811600
3.23510900 0.96466800 -0.86684500
3.44084400 1.04898100 -0.45299500
3.34923300 0.96466800 0.00000000
3.44084400 1.04898100 0.45299600
3.23511100 0.96466800 0.86684500
3.20635700 1.04898100 1.32811600
2.90052100 0.96466800 1.67461600
2.75336100 1.04898100 2.11272800
2.36826500 0.96466800 2.36826500
2.11272800 1.04898100 2.75336100
1.67461600 0.96466800 2.90052000
1.32811600 1.04898100 3.20635600
0.86684500 0.96466800 3.23511000
0.45299600 1.04898100 3.44084400
-0.00000000 0.96466800 3.34923200
-0.45299600 1.04898100 3.44084400
3.26327900 1.10093100 -1.35169400
3.02998300 1.10513900 -1.74936100
3.18967000 1.10083400 -1.32120400
3.37950700 1.10513900 -0.90553600
2.80224100 1.10093100 -2.15023500
2.47397000 1.10513900 -2.47397000
2.73903100 1.10083400 -2.10173200
2.15023600 1.10093100 -2.80224100
1.74936200 1.10513900 -3.02998200
2.10173300 1.10083400 -2.73903100
1.35169500 1.10093100 -3.26327800
0.90553700 1.10513900 -3.37950600
1.32120500 1.10083400 -3.18966900
0.46103800 1.10093100 -3.50192900
0.00000000 1.10513900 -3.49872200
0.45063900 1.10083400 -3.42293600
-0.46103700 1.10093100 -3.50192900
-0.90553600 1.10513900 -3.37950600
-0.45063800 1.10083400 -3.42293600
-1.35169400 1.10093100 -3.26327900
-1.74936100 1.10513900 -3.02998300
-1.32120400 1.10083400 -3.18967000
-2.15023500 1.10093100 -2.80224200
-2.47397000 1.10513900 -2.47397100
-2.10173200 1.10083400 -2.73903200
-2.80224200 1.10093100 -2.15023600
-3.02998300 1.10513900 -1.74936200
-2.73903100 1.10083400 -2.10173300
-3.26328000 1.10093100 -1.35169500
-3.37950800 1.10513900 -0.90553600
-3.18967000 1.10083400 -1.32120500
-3.50193100 1.10093100 -0.46103800
-3.49872400 1.10513900 -0.00000000
-3.42293800 1.10083400 -0.45063900
-3.50193100 1.10093100 0.46103800
-3.37950800 1.10513900 0.90553600
-3.42293800 1.10083400 0.45063800
-3.26328000 1.10093100 1.35169500
-3.02998300 1.10513900 1.74936200
-3.18967000 1.10083400 1.32120500
-2.80224200 1.10093100 2.15023600
-2.47397100 1.10513900 2.47397000
-2.73903200 1.10083400 2.10173300
-2.15023600 1.10093100 2.80224200
-1.74936200 1.10513900 3.02998300
-2.10173300 1.10083400 2.73903100
-1.35169500 1.10093100 3.26328000
-0.90553600 1.10513900 3.37950800
-1.32120500 1.10083400 3.18967000
-0.46103800 1.10093100 3.50193100
-0.00000000 1.10513900 3.49872400
-0.45063900 1.10083400 3.42293800
0.46103800 1.10093100 3.50193100
0.90553600 1.10513900 3.37950800
0.45063800 1.10083400 3.42293800
1.35169500 1.10093100 3.26328000
1.74936200 1.10513900 3.02998400
1.32120500 1.10083400 3.18967100
2.15023600 1.10093100 2.80224200
2.47397200 1.10513900 2.47397200
2.10173300 1.10083400 2.73903300
2.80224300 1.10093100 2.15023600
3.02998400 1.10513900 1.74936200
2.73903300 1.10083400 2.10173400
3.26328100 1.10093100 1.35169500
3.37950800 1.10513900 0.90553600
3.18967100 1.10083400 1.32120500
3.50193100 1.10093100 0.46103800
3.49872400 1.10513900 0.00000000
3.42293900 1.10083400 0.45063900
3.50193000 1.10093100 -0.46103800
3.42293800 1.10083400 -0.45063800
2.96170200 1.08791700 -1.70993900
3.10427100 1.04839600 -1.28583100
3.30334900 1.08791700 -0.88512900
2.41821900 1.08791700 -2.41821900
2.66569800 1.04839600 -2.04546200
1.70994000 1.08791700 -2.96170100
2.04546200 1.04839600 -2.66569800
0.88513000 1.08791700 -3.30334900
1.28583200 1.04839600 -3.10427100
0.00000000 1.08791700 -3.41987800
0.43857300 1.04839600 -3.33129300
-0.88512900 1.08791700 -3.30334900
-0.43857300 1.04839600 -3.33129300
-1.70993900 1.08791700 -2.96170200
-1.28583100 1.04839600 -3.10427100
-2.41821900 1.08791700 -2.41821900
-2.04546200 1.04839600 -2.66569800
-2.96170300 1.08791700 -1.70994000
-2.66569800 1.04839600 -2.04546200
-3.30335000 1.08791700 -0.88513000
-3.10427200 1.04839600 -1.28583200
-3.41987900 1.08791700 -0.00000000
-3.33129400 1.04839600 -0.43857300
-3.30335000 1.08791700 0.88513000
-3.33129400 1.04839600 0.43857300
-2.96170200 1.08791700 1.70994000
-3.10427200 1.04839600 1.28583100
-2.41821900 1.08791700 2.41821900
-2.66569800 1.04839600 2.04546200
-1.70994000 1.08791700 2.96170300
-2.04546200 1.04839600 2.66569800
-0.88513000 1.08791700 3.30335000
-1.28583200 1.04839600 3.10427200
-0.00000000 1.08791700 3.41988000
-0.43857300 1.04839600 3.33129400
0.88513000 1.08791700 3.30335000
0.43857300 1.04839600 3.33129500
1.70994000 1.08791700 2.96170300
1.28583200 1.04839600 3.10427200
2.41822100 1.08791700 2.41822100
2.04546300 1.04839600 2.66569900
2.96170300 1.08791700 1.70994000
2.66569900 1.04839600 2.04546300
3.30335100 1.08791700 0.88513000
3.10427300 1.04839600 1.28583200
3.41988000 1.08791700 0.00000000
3.33129500 1.04839600 0.43857300
3.33129400 1.04839600 -0.43857300
2.82128000 0.85366000 -1.16861100
2.45758800 0.73463700 -1.41888800
2.38975600 0.61115800 -0.98986900
2.74108400 0.73463700 -0.73447000
2.42268700 0.85366000 -1.85899300
2.00661200 0.73463700 -2.00661200
2.05213000 0.61115800 -1.57465400
1.85899300 0.85366000 -2.42268700
1.41888900 0.73463700 -2.45758800
1.57465500 0.61115800 -2.05212900
1.16861200 0.85366000 -2.82127900
0.73447100 0.73463700 -2.74108200
0.98986900 0.61115800 -2.38975500
0.39859200 0.85366000 -3.02760500
0.00000000 0.73463700 -2.83777700
0.33762600 0.61115800 -2.56452300
-0.39859100 0.85366000 -3.02760500
-0.73447000 0.73463700 -2.74108300
-0.33762600 0.61115800 -2.56452400
-1.16861200 0.85366000 -2.82128000
-1.41888800 0.73463700 -2.45758800
-0.98986900 0.61115800 -2.38975600
-1.85899300 0.85366000 -2.42268700
-2.00661200 0.73463700 -2.00661200
-1.57465400 0.61115800 -2.05213000
-2.42268700 0.85366000 -1.85899300
-2.45758800 0.73463700 -1.41888900
-2.05213000 0.61115800 -1.57465500
-2.82128000 0.85366000 -1.16861200
-2.74108400 0.73463700 -0.73447100
-2.38975600 0.61115800 -0.98986900
-3.02760600 0.85366000 -0.39859200
-2.83777900 0.73463700 0.00000000
-2.56452400 0.61115800 -0.33762600
-3.02760600 0.85366000 0.39859200
-2.74108400 0.73463700 0.73447100
-2.56452400 0.61115800 0.33762600
-2.82128000 0.85366000 1.16861200
-2.45758800 0.73463700 1.41888900
-2.38975600 0.61115800 0.98987000
-2.42268700 0.85366000 1.85899400
-2.00661200 0.73463700 2.00661200
-2.05213000 0.61115800 1.57465500
-1.85899300 0.85366000 2.42268800
-1.41888900 0.73463700 2.45758800
-1.57465500 0.61115800 2.05213000
-1.16861200 0.85366000 2.82128000
-0.73447100 0.73463700 2.74108400
-0.98986900 0.61115800 2.38975600
-0.39859200 0.85366000 3.02760600
-0.00000000 0.73463700 2.83777900
-0.33762600 0.61115800 2.56452500
0.39859200 0.85366000 3.02760700
0.73447100 0.73463700 2.74108400
0.33762600 0.61115800 2.56452500
1.16861200 0.85366000 2.82128000
1.41888900 0.73463700 2.45758900
0.98986900 0.61115800 2.38975700
1.85899400 0.85366000 2.42268900
2.00661300 0.73463700 2.00661400
1.57465500 0.61115800 2.05213100
2.42268900 0.85366000 1.85899400
2.45758900 0.73463700 1.41888900
2.05213100 0.61115800 1.57465600
2.82128100 0.85366000 1.16861200
2.74108400 0.73463700 0.73447100
2.38975700 0.61115800 0.98987000
3.02760700 0.85366000 0.39859200
2.83777900 0.73463700 0.00000000
2.56452500 0.61115800 0.33762600
3.02760600 0.85366000 -0.39859100
2.56452400 0.61115800 -0.33762500
1.99414400 0.48717000 -1.15131900
1.85429600 0.38174400 -0.76807400
2.22417800 0.48717000 -0.59596600
1.62821200 0.48717000 -1.62821100
1.59232000 0.38174400 -1.22183000
1.15132000 0.48717000 -1.99414300
1.22183100 0.38174400 -1.59231900
0.59596700 0.48717000 -2.22417700
0.76807500 0.38174400 -1.85429500
0.00000000 0.48717000 -2.30263800
0.26197600 0.38174400 -1.98990400
-0.59596600 0.48717000 -2.22417800
-0.26197600 0.38174400 -1.98990400
-1.15131900 0.48717000 -1.99414300
-0.76807400 0.38174400 -1.85429600
-1.62821100 0.48717000 -1.62821100
-1.22183000 0.38174400 -1.59232000
-1.99414400 0.48717000 -1.15131900
-1.59232000 0.38174400 -1.22183000
-2.22417800 0.48717000 -0.59596600
-1.85429600 0.38174400 -0.76807400
-2.30263900 0.48717000 0.00000000
-1.98990600 0.38174400 -0.26197600
-2.22417800 0.48717000 0.59596700
-1.98990500 0.38174400 0.26197600
-1.99414400 0.48717000 1.15132000
-1.85429600 0.38174400 0.76807500
-1.62821100 0.48717000 1.62821200
-1.59232000 0.38174400 1.22183100
-1.15131900 0.48717000 1.99414400
-1.22183000 0.38174400 1.59232100
-0.59596700 0.48717000 2.22417900
-0.76807500 0.38174400 1.85429700
-0.00000000 0.48717000 2.30263900
-0.26197600 0.38174400 1.98990600
0.59596700 0.48717000 2.22417900
0.26197600 0.38174400 1.98990600
1.15132000 0.48717000 1.99414400
0.76807500 0.38174400 1.85429700
1.62821200 0.48717000 1.62821300
1.22183100 0.38174400 1.59232100
1.99414400 0.48717000 1.15132000
1.59232100 0.38174400 1.22183200
2.22417900 0.48717000 0.59596700
1.85429700 0.38174400 0.76807500
2.30263900 0.48717000 0.00000000
1.98990600 0.38174400 0.26197600
1.98990600 0.38174400 -0.26197500
1.49128300 0.31395200 -0.86099200
1.32197300 0.27260700 -0.54757800
1.66331000 0.31395200 -0.44568200
1.21762800 0.31395200 -1.21762700
1.13520400 0.27260700 -0.87107200
0.86099300 0.31395200 -1.49128200
0.87107300 0.27260700 -1.13520300
0.44568300 0.31395200 -1.66330900
0.54757900 0.27260700 -1.32197200
0.00000000 0.31395200 -1.72198400
0.18676900 0.27260700 -1.41865100
-0.44568200 0.31395200 -1.66331000
-0.18676900 0.27260700 -1.41865100
-0.86099200 0.31395200 -1.49128300
-0.54757900 0.27260700 -1.32197300
-1.21762700 0.31395200 -1.21762700
-0.87107200 0.27260700 -1.13520400
-1.49128300 0.31395200 -0.86099200
-1.13520400 0.27260700 -0.87107200
-1.66331000 0.31395200 -0.44568200
-1.32197300 0.27260700 -0.54757900
-1.72198500 0.31395200 0.00000000
-1.41865200 0.27260700 -0.18676900
-1.66331000 0.31395200 0.44568300
-1.41865200 0.27260700 0.18677000
-1.49128300 0.31395200 0.86099300
-1.32197300 0.27260700 0.54758000
-1.21762700 0.31395200 1.21762800
-1.13520400 0.27260700 0.87107300
-0.86099300 0.31395200 1.49128400
-0.87107300 0.27260700 1.13520500
-0.44568300 0.31395200 1.66331100
-0.54757900 0.27260700 1.32197400
0.00000000 0.31395200 1.72198600
-0.18676900 0.27260700 1.41865300
0.44568300 0.31395200 1.66331100
0.18676900 0.27260700 1.41865300
0.86099300 0.31395200 1.49128400
0.54757900 0.27260700 1.32197400
1.21762800 0.31395200 1.21762900
0.87107300 0.27260700 1.13520500
1.49128400 0.31395200 0.86099300
1.13520500 0.27260700 0.87107400
1.66331100 0.31395200 0.44568300
1.32197400 0.27260700 0.54758000
1.72198600 0.31395200 0.00000100
1.41865300 0.27260700 0.18677000
1.41865200 0.27260700 -0.18676800
3.40711300 1.08830700 0.91293300
3.05473400 1.08830700 1.76365100
2.49418000 1.08830700 2.49418000
1.76365100 1.08830700 3.05473300
0.91293300 1.08830700 3.40711200
-0.00000000 1.08830700 3.52730200
-0.91293300 1.08830700 3.40711200
-1.76365100 1.08830700 3.05473300
-2.49417900 1.08830700 2.49417900
-3.05473300 1.08830700 1.76365100
-3.40711200 1.08830700 0.91293300
-3.52730200 1.08830700 -0.00000000
-3.40711200 1.08830700 -0.91293300
-3.05473300 1.08830700 -1.76365100
-2.49417900 1.08830700 -2.49417900
-1.76365000 1.08830700 -3.05473300
-0.91293200 1.08830700 -3.40711100
0.00000000 1.08830700 -3.52730000
0.91293300 1.08830700 -3.40711000
1.76365100 1.08830700 -3.05473200
2.49417900 1.08830700 -2.49417800
3.05473300 1.08830700 -1.76365000
3.40711100 1.08830700 -0.91293200
3.52730200 1.08830700 0.00000000
3.23306200 0.96427800 0.00000000
3.12289900 0.96427800 0.83677800
2.79991500 0.96427800 1.61653100
2.28612100 0.96427800 2.28612100
1.61653100 0.96427800 2.79991400
0.83677800 0.96427800 3.12289900
-0.00000000 0.96427800 3.23306200
-0.83677800 0.96427800 3.12289900
-1.61653100 0.96427800 2.79991400
-2.28612000 0.96427800 2.28612000
-2.79991400 0.96427800 1.61653100
-3.12289900 0.96427800 0.83677800
-3.23306200 0.96427800 -0.00000000
-3.12289900 0.96427800 -0.83677800
-2.79991400 0.96427800 -1.61653100
-2.28612000 0.96427800 -2.28612000
-1.61653000 0.96427800 -2.79991400
-0.83677700 0.96427800 -3.12289800
0.00000000 0.96427800 -3.23306100
0.83677800 0.96427800 -3.12289700
1.61653100 0.96427800 -2.79991300
2.28612000 0.96427800 -2.28611900
2.79991400 0.96427800 -1.61653000
3.12289800 0.96427800 -0.83677700
1.65081000 0.24323400 0.00000000
1.59456100 0.24323400 0.42726200
1.42964400 0.24323400 0.82540600
1.16729900 0.24323400 1.16729900
0.82540500 0.24323400 1.42964300
0.42726200 0.24323400 1.59456100
0.00000000 0.24323400 1.65081100
-0.42726100 0.24323400 1.59456100
-0.82540500 0.24323400 1.42964300
-1.16729900 0.24323400 1.16729800
-1.42964300 0.24323400 0.82540500
-1.59456000 0.24323400 0.42726200
-1.65081000 0.24323400 0.00000000
-1.59456000 0.24323400 -0.42726100
-1.42964300 0.24323400 -0.82540500
-1.16729800 0.24323400 -1.16729800
-0.82540500 0.24323400 -1.42964200
-0.42726100 0.24323400 -1.59456000
0.00000000 0.24323400 -1.65080900
0.42726200 0.24323400 -1.59455900
0.82540500 0.24323400 -1.42964200
1.16729800 0.24323400 -1.16729800
1.42964300 0.24323400 -0.82540400
1.59456000 0.24323400 -0.42726100
1.14688400 0.10242000 0.00000000
1.10780500 0.10242000 0.29683600
0.99323000 0.10242000 0.57344200
0.81096900 0.10242000 0.81096900
0.57344200 0.10242000 0.99323000
0.29683600 0.10242000 1.10780500
0.00000000 0.10242000 1.14688400
-0.29683500 0.10242000 1.10780500
-0.57344100 0.10242000 0.99323000
-0.81096800 0.10242000 0.81096800
-0.99322900 0.10242000 0.57344200
-1.10780400 0.10242000 0.29683600
-1.14688300 0.10242000 0.00000000
-1.10780400 0.10242000 -0.29683500
-0.99322900 0.10242000 -0.57344100
-0.81096800 0.10242000 -0.81096800
-0.57344100 0.10242000 -0.99322900
-0.29683500 0.10242000 -1.10780400
0.00000100 0.10242000 -1.14688200
0.29683600 0.10242000 -1.10780400
0.57344200 0.10242000 -0.99322900
0.81096800 0.10242000 -0.81096800
0.99323000 0.10242000 -0.57344100
1.10780400 0.10242000 -0.29683500
0.84296500 0.15287700 -0.34916700
0.85026400 0.15841900 -0.22782700
0.74098400 0.16041200 -0.30692500
0.76232500 0.15841900 -0.44012800
0.72387000 0.15287700 -0.55544400
0.63629700 0.16041200 -0.48824700
0.62243600 0.15841900 -0.62243500
0.55544500 0.15287700 -0.72386900
0.48824800 0.16041200 -0.63629600
0.44012900 0.15841900 -0.76232400
0.34916800 0.15287700 -0.84296400
0.30692600 0.16041200 -0.74098200
0.22782800 0.15841900 -0.85026300
0.11909500 0.15287700 -0.90461200
0.10468700 0.16041200 -0.79517200
0.00000100 0.15841900 -0.88025700
-0.11909400 0.15287700 -0.90461200
-0.10468600 0.16041200 -0.79517200
-0.22782700 0.15841900 -0.85026300
-0.34916700 0.15287700 -0.84296400
-0.30692500 0.16041200 -0.74098300
-0.44012800 0.15841900 -0.76232400
-0.55544500 0.15287700 -0.72386900
-0.48824700 0.16041200 -0.63629600
-0.62243500 0.15841900 -0.62243500
-0.72387000 0.15287700 -0.55544500
-0.63629600 0.16041200 -0.48824700
-0.76232500 0.15841900 -0.44012800
-0.84296400 0.15287700 -0.34916700
-0.74098300 0.16041200 -0.30692500
-0.85026300 0.15841900 -0.22782700
-0.90461200 0.15287700 -0.11909400
-0.79517300 0.16041200 -0.10468600
-0.88025700 0.15841900 0.00000100
-0.90461300 0.15287700 0.11909500
-0.79517300 0.16041200 0.10468700
-0.85026300 0.15841900 0.22782800
-0.84296400 0.15287700 0.34916800
-0.74098300 0.16041200 0.30692600
-0.76232500 0.15841900 0.44012900
-0.72387000 0.15287700 0.55544500
-0.63629600 0.16041200 0.48824800
-0.62243500 0.15841900 0.62243600
-0.55544500 0.15287700 0.72387000
-0.48824700 0.16041200 0.63629700
-0.44012800 0.15841900 0.76232500
-0.34916700 0.15287700 0.84296500
-0.30692500 0.16041200 0.74098400
-0.22782700 0.15841900 0.85026400
-0.11909400 0.15287700 0.90461300
-0.10468600 0.16041200 0.79517400
0.00000000 0.15841900 0.88025800
0.11909500 0.15287700 0.90461300
0.10468700 0.16041200 0.79517400
0.22782800 0.15841900 0.85026400
0.34916800 0.15287700 0.84296500
0.30692600 0.16041200 0.74098400
0.44012900 0.15841900 0.76232600
0.55544600 0.15287700 0.72387000
0.48824800 0.16041200 0.63629700
0.62243600 0.15841900 0.62243600
0.72387100 0.15287700 0.55544600
0.63629700 0.16041200 0.48824800
0.76232600 0.15841900 0.44012900
0.84296600 0.15287700 0.34916800
0.74098400 0.16041200 0.30692600
0.85026400 0.15841900 0.22782800
0.90461300 0.15287700 0.11909500
0.79517400 0.16041200 0.10468700
0.88025800 0.15841900 0.00000100
0.90461300 0.15287700 -0.11909400
0.79517400 0.16041200 -0.10468600
0.92623500 0.13624900 0.00000100
0.89467400 0.13624900 -0.23972700
0.80214200 0.13624900 -0.46311600
0.65494600 0.13624900 -0.65494500
0.46311700 0.13624900 -0.80214100
0.23972800 0.13624900 -0.89467300
0.00000100 0.13624900 -0.92623300
-0.23972700 0.13624900 -0.89467300
-0.46311600 0.13624900 -0.80214100
-0.65494500 0.13624900 -0.65494500
-0.80214100 0.13624900 -0.46311600
-0.89467300 0.13624900 -0.23972700
-0.92623400 0.13624900 0.00000000
-0.89467300 0.13624900 0.23972800
-0.80214100 0.13624900 0.46311700
-0.65494600 0.13624900 0.65494600
-0.46311700 0.13624900 0.80214200
-0.23972700 0.13624900 0.89467400
0.00000000 0.13624900 0.92623500
0.23972800 0.13624900 0.89467400
0.46311700 0.13624900 0.80214200
0.65494700 0.13624900 0.65494700
0.80214300 0.13624900 0.46311700
0.89467400 0.13624900 0.23972800
0.62813000 0.16639100 -0.16830600
0.56316500 0.16639100 -0.32514300
0.45982300 0.16639100 -0.45982100
0.32514400 0.16639100 -0.56316400
0.16830700 0.16639100 -0.62812900
0.00000000 0.16639100 -0.65028600
-0.16830600 0.16639100 -0.62812900
-0.32514300 0.16639100 -0.56316400
