64.11656952 38.65826035 -2.68960881
-33.65284348 -42.04758072 -2.33685160
-2.25692058 16.21421814 -2.48920465
40.52676773 -23.90567970 -2.49813628
-26.42993164 -28.98209381 -2.34039402
-58.73867798 -21.92968559 -2.24754429
9.72320938 65.18920898 -2.72130585
16.04828072 15.94852448 -2.57613945
-15.33520794 48.45185852 -2.62423754
49.68675232 0.84296840 -2.53479910
57.36439133 20.38538742 -2.60050273
71.34217072 -21.14276314 -2.39739060
51.79104233 52.03336334 -2.77989936
-71.65865326 22.43060112 -2.10409069
-0.55019486 56.00923920 -2.65690565
17.62997437 72.14977264 -2.75005865
-63.74036407 -10.73864651 -2.18118787
30.28190804 -13.37801075 -2.44719815
29.59051895 68.25440979 -2.76438308
25.30138969 -10.81118774 -2.38265014
-45.33076859 17.61816025 -2.52465248
-48.80519485 47.17929459 -2.64695168
-39.14373016 -65.97336578 -2.09916162
52.42961502 44.30885315 -2.73598695
58.95080566 -32.19145584 -2.44266653
-5.49681330 -32.22638702 -2.38509607
13.76922417 24.90887833 -2.58368564
-9.14079762 12.32801437 -2.47108054
30.21886635 35.49404526 -2.67192221
-35.11542130 -42.26846313 -2.47535992
69.12805939 17.57501602 -2.54380107
68.01317596 39.46908188 -2.46904063
-8.78829098 -69.55419159 -2.23264122
63.08198929 -32.57005692 -2.42799735
28.84585953 5.97325516 -2.40298295
-5.90586948 -25.50329781 -2.37538981
4.88897657 -32.87833786 -2.30545735
53.64450836 42.88781738 -2.74901104
-3.81227064 -49.96094894 -2.23331809
-38.69085693 -36.84473038 -2.33890462
11.03084564 -68.01812744 -2.22104478
-70.47196198 16.39097977 -2.20372367
-8.55338001 -31.45819855 -2.23951602
-67.91259003 8.19968128 -2.29984665
-32.19548416 -54.59115601 -2.32340693
-4.77006626 -11.45202351 -2.35089111
15.95044994 77.57855988 -1.70654738
43.88463211 18.00597000 -2.57947946
11.72486210 65.84763336 -2.76504040
74.37831116 15.57114506 -2.42788649
9.50390339 5.72733068 -2.39935327
-22.64690781 20.96753502 -2.52037430
71.96556854 28.96690941 -2.42529726
-0.70003211 5.12714243 -2.35888457
33.68782425 67.29444885 -2.70090938
-11.55722713 20.98562241 -2.50773978
27.57093048 60.35361099 -2.78097081
59.50618362 -29.40300751 -2.45840979
-39.88671875 -22.60507584 -2.38784456
37.77103424 4.28561068 -2.49179316
61.74745941 -12.39212513 -2.49791765
-24.71311188 54.59375763 -2.62878895
-78.65267181 1.53083003 -0.98629951
13.86089134 56.12424469 -2.66869950
8.06842327 10.72565079 -2.45537210
-19.95969963 -20.87693405 -2.35524750
-15.01460266 -20.26608658 -2.34693360
13.96192646 -65.99966431 -2.23643947
50.71712112 -49.63116074 -2.35410523
49.71537781 -51.62748337 -2.39207602
3.36708546 73.30054474 -2.75074601
-30.94211197 14.43019581 -2.46752691
-10.55479145 47.08460617 -2.63753986
-4.14676142 35.05069351 -2.60653973
-3.39817357 -10.20445251 -2.36193323
22.97531128 75.25818634 -1.69766152
59.59497070 -53.28420258 -2.48038816
-7.05517530 -76.32615662 -2.24623156
-58.68981552 22.43133354 -2.53783917
68.62027740 40.08636475 -1.43736947
-35.58497238 -62.72483826 -2.25215197
44.94645691 -51.81005859 -2.37404513
31.10900116 17.93597984 -2.62167978
12.50363731 58.91094589 -2.82732749
37.55872726 35.26877594 -2.68365908
-34.94482803 -34.26633453 -2.32743573
39.32862091 -21.81846428 -2.49756217
62.48148727 -20.07784653 -2.48079681
23.58353615 -69.23471069 -2.24376822
10.26920986 -34.20771408 -2.34280920
-71.06145477 11.41494942 -2.13673306
36.92912674 30.12689972 -2.63329601
28.79514313 67.16416931 -2.77669096
52.18626404 42.24812698 -2.73827362
6.66200542 -49.68857193 -2.29225016
-25.20662308 -56.56253815 -2.21826959
-3.44583011 55.32076645 -2.60666299
-27.84693718 -45.70564651 -2.28002858
66.01064301 15.45470810 -2.55099535
-4.23405075 -50.60659409 -2.23099709
61.92325974 49.19824219 -2.28500676
31.00747490 -45.10084915 -2.37454343
10.72922516 4.90269327 -2.46130967
30.72172165 37.13121033 -2.67322183
31.27453995 70.74674225 -2.67195439
2.66892958 -13.00301075 -2.40031385
56.54440308 50.02286911 -2.70987606
31.67194176 25.92329407 -2.57439446
9.05005455 6.93514633 -2.39700031
69.36880493 27.05629730 -2.56028700
25.70900726 56.11096191 -2.80706429
27.66663742 27.03290176 -2.59516096
-64.42102814 -6.45201731 -2.34155393
52.09723663 2.80669093 -2.52137280
0.36074650 -5.97381496 -2.38391709
-21.85609627 -76.59250641 -1.97232902
8.82240582 55.55183411 -2.66763616
8.64117622 5.41562700 -2.37132335
-48.95930099 -11.96068764 -2.49445057
37.42039871 30.83624458 -2.64514232
-50.32833862 23.62362099 -2.54641223
66.77196503 -28.82748985 -2.43099165
10.67138767 -51.43599701 -2.26410079
-38.92585754 1.24691331 -2.49633193
23.31772995 37.62807465 -2.65552497
59.30705643 35.36920166 -2.67975044
72.85826111 19.21306992 -2.49028087
37.81044769 52.39234161 -2.81294847
31.38910103 -31.56037903 -2.49639726
-11.67338657 -70.69666290 -2.22610736
40.03414917 53.13716125 -2.82143784
56.98832321 54.18687439 -2.53169084
-10.09503651 77.23087311 -2.51260114
-60.05200958 -52.99162674 -1.31106234
-39.49110413 -8.27778053 -2.54509711
48.75082397 -53.93670273 -2.33770728
60.32752228 17.11540222 -2.54081440
-34.78033829 -41.26647949 -2.15606308
-15.07029533 -4.12775993 -2.41302347
5.44075155 -49.53612518 -2.30784988
-35.36316299 -6.54901266 -2.43558669
0.97621709 62.73508453 -2.63454318
29.87389755 36.44817352 -2.68086457
29.29598999 -16.06752586 -2.44856930
-22.72023392 -32.72275925 -2.32269740
44.60846710 59.57289505 -2.76509166
-20.53089714 14.76867485 -2.48902440
32.30429840 -56.46489716 -2.32736611
-42.05932236 -63.35972214 -2.13710904
11.90148163 59.20945740 -2.82735538
-72.08093262 27.45257378 -2.03266954
38.63773727 62.53069305 -2.82990742
57.85684967 -42.02735138 -2.39879656
-7.80532169 23.22754097 -2.54726553
-24.23320389 19.67225075 -2.51454878
2.43880630 -61.74684143 -2.17831135
-65.58391571 41.93306351 -1.69596696
52.50354385 46.27841949 -2.77054834
-29.10579300 -54.48254395 -2.34630990
5.88095474 10.75892830 -2.47377324
24.60819435 -2.80320930 -2.39839816
-23.64530754 -36.59015656 -2.34255433
-0.32142380 -44.93552017 -2.27231431
2.47747898 64.15394592 -2.68000340
6.31189299 32.20830154 -2.60514832
-18.60971642 -38.47588348 -2.31101727
-49.21311951 -11.74842548 -2.50253534
48.16945267 -40.82138062 -2.39433217
-3.44484496 -50.74356842 -2.21669126
68.97988129 -18.80859756 -2.42246795
-37.91109467 32.54260635 -2.58009648
-7.96642828 -76.10416412 -2.23573327
-28.31541824 -52.73156738 -2.14111209
-19.84123802 14.45795059 -2.43534732
17.91948318 -74.40447235 -2.16801429
5.99357367 -13.44467545 -2.47498345
-49.82351303 -11.68370152 -2.51889396
61.84572601 -40.23524475 -2.40746689
74.85888672 12.91692829 -2.42908430
4.28977966 12.13963413 -2.43727875
23.53085136 -63.33504486 -2.26033878
-72.02782440 5.60154772 -1.97966909
73.64910889 22.01867867 -2.43369293
57.03211594 22.19971466 -2.61197329
-68.44861603 19.38754845 -2.27990389
57.00783157 19.61011505 -2.59204912
-14.46777439 36.82319641 -2.57798338
-4.10028887 -5.44207811 -2.38968349
15.78612423 71.69991302 -2.75318933
55.99351501 50.68138885 -2.69640470
-8.16718674 -17.96315002 -2.36610937
50.91654968 -51.49337006 -2.37080717
8.55414391 19.43647385 -2.54078507
53.53692627 -54.55899048 -2.35576415
-2.28892088 17.96243858 -2.49655867
20.46356583 56.00430298 -2.72763157
-6.56148052 -17.83095551 -2.34755445
-19.02098846 74.67895508 -1.79381526
25.66106796 -7.59525871 -2.46537805
-4.17806292 -50.90710068 -2.23076034
8.74415684 11.37110996 -2.45758367
-11.73191166 18.79347229 -2.42385340
-52.69078064 -59.59001160 -1.82533860
78.41571808 -4.22190285 -2.22921467
22.02292633 54.89788055 -2.78023982
-7.90416384 -2.33500957 -2.36259413
-2.92148876 5.67706871 -2.43102169
-0.03789343 -19.92838860 -2.36592150
18.97194672 59.32311249 -2.85618687
52.21568680 43.96200943 -2.76229787
32.71309280 -57.84807587 -2.29902077
-46.84309387 -9.14915371 -2.48040938
-59.39781189 -15.53223896 -2.32510757
-69.22380829 -3.61859179 -2.05990314
66.20040131 25.81217957 -2.62566662
-73.22724152 5.63380718 -1.96483600
20.98168182 -64.39368439 -2.23992157
-24.07984161 74.27575684 -1.54205537
-66.17318726 -8.08578491 -2.10675240
62.83440781 -10.71796894 -2.47056818
3.16651702 36.53315735 -2.64390182
-41.29491425 50.35268402 -2.66843724
-25.06921387 18.71528816 -2.50448751
-9.53364086 30.60692406 -2.57901978
54.75919724 18.74316978 -2.56769371
70.42343903 8.34015369 -2.52476716
58.66658783 29.79779625 -2.63245296
50.50971985 -55.50696182 -2.34272933
57.95592499 53.74150085 -2.17964101
-53.11183548 -17.28148651 -2.45983696
-33.27250290 -21.65984344 -2.39871216
24.58769989 -11.42387581 -2.41943455
-19.45774841 14.32502937 -2.44382596
-10.89153194 23.45642090 -2.53870320
61.24002457 9.20972824 -2.56837082
22.91922951 -10.80278206 -2.37295675
-5.88848305 -1.72711003 -2.18797445
-22.46318436 -70.56797028 -2.25779414
32.34957123 53.40388489 -2.78131366
77.01866150 10.93460560 -2.29217005
17.73403358 -56.14628220 -2.26045227
-5.68712711 -5.13410091 -2.36607385
-39.69558334 -42.34105301 -2.44328022
32.43032455 43.90094757 -2.79089928
-71.63014221 -4.82259178 -1.78186560
18.92592239 -12.15101814 -2.45020914
-52.97253418 59.38421631 -1.86346877
-43.92237473 -65.01276398 -1.97231734
15.16125965 27.96916962 -2.59817386
72.36653900 -22.27736282 -2.36078811
57.70063019 -39.72653580 -2.41299582
-0.81147677 42.48089981 -2.66875792
-34.68886185 53.60178757 -2.68868899
-61.61968231 -5.32207680 -2.38928413
-4.68627357 -52.12669373 -2.22587705
25.37272263 -22.35337257 -2.46056771
15.05886745 38.54600143 -2.62138104
69.77223969 4.87980461 -2.46052504
-69.79002380 -7.20691776 -1.86793363
31.85063553 21.15286064 -2.54348731
66.53378296 -11.22175694 -2.44997430
-3.98027325 -20.14533424 -2.31441808
-15.87009621 25.48035240 -2.52477455
25.44786072 -0.64697176 -2.39655471
-62.44525146 -10.30158138 -2.25975180
60.34465408 -19.33346558 -2.48856282
28.18462563 3.28771520 -2.44878602
74.46376801 23.72351837 -2.33252525
76.56638336 10.24226570 -2.32524371
48.43492508 -51.86313629 -2.34186816
59.87466049 -21.96432686 -2.47738981
-41.80476761 -25.38668442 -2.44780636
-5.93286657 -28.55014229 -2.35968447
-5.12621021 63.79071808 -2.69515443
15.11169434 -43.94542694 -2.33969593
62.03567886 37.77204132 -2.65227842
-42.30049515 16.23192215 -2.51523185
17.37641525 44.20594406 -2.66165996
-13.89958286 -73.58567047 -2.24081802
-10.72988796 -75.13554382 -2.24386859
-65.37406921 -14.82439041 -1.95518398
-8.44312286 3.08874893 -2.34509444
70.78947449 8.87126160 -2.47236419
17.77693939 -65.33086395 -2.24687076
53.56671524 47.85334778 -2.74377465
58.25592804 -37.47388840 -2.41846132
-9.26898956 -76.31553650 -2.23513246
-40.37230682 -61.47108841 -2.20235109
57.62730408 23.55390358 -2.56206346
-14.79643917 -58.60478592 -2.26630497
-7.95833445 -66.48101044 -2.22125268
-63.01795959 -15.50439644 -2.10750556
-67.14782715 -41.93817902 -1.21464086
67.49709320 13.36707020 -2.52397251
29.79907227 33.43817520 -2.66737103
15.16069889 -9.36631393 -2.34182525
58.70925522 49.58963394 -2.67400122
73.84179688 27.27855301 -2.09992385
-61.76147842 -15.44970989 -2.18951821
-9.57924080 5.43733406 -2.42127872
22.03878975 4.99813986 -2.41169000
-29.32117081 -37.25518036 -2.34274220
37.72305679 48.82114029 -2.78797650
18.99896049 32.52378845 -2.64790416
-38.90396881 14.73538780 -2.46615911
-36.11417770 -7.74374485 -2.48076200
-37.68157578 -57.55265808 -2.29630661
6.15364027 18.37887001 -2.50878501
-8.10755157 -23.50801468 -2.38729811
14.84396648 57.37019348 -2.68371296
-77.22291565 17.15501404 -1.46215630
-28.45616913 -27.53109169 -2.37214828
46.72290802 -23.57105446 -2.49339128
7.71507359 32.11012650 -2.60162663
-36.85632706 -48.81404114 -2.35062075
33.42649078 58.81199265 -2.81209040
46.29589462 -50.14775848 -2.36363173
10.04366207 -29.73143959 -2.35942149
37.19747925 31.52430916 -2.65169358
6.59097862 -44.28406906 -2.26444483
17.79477119 -68.06879425 -2.22283959
61.70049667 9.95558739 -2.59529662
60.13328171 22.93072891 -2.62943649
50.47315598 1.68978548 -2.54194760
-10.71968842 -38.34037018 -2.27063894
27.03133392 -30.73240280 -2.44462252
-29.68227386 -17.71626854 -2.38589787
10.38418198 52.61810684 -2.65275025
40.70967102 -4.63347483 -2.47393298
36.73376846 1.40878069 -2.51499367
54.23099899 3.77617693 -2.56858301
63.29830170 14.97815037 -2.56388140
-15.93890381 11.81827450 -2.50273681
25.76140594 -60.59286880 -2.25971985
45.88745499 -44.38373947 -2.40061688
44.69939423 32.36588287 -2.69840980
25.96823502 -71.92138672 -2.20680904
21.82705879 28.67011642 -2.68851948
-23.85415077 -58.94399261 -2.30124354
-44.85204315 17.32394218 -2.52896380
30.41093254 48.03590393 -2.75669360
50.58057404 1.09591937 -2.54696560
56.38436127 40.71006012 -2.72631216
21.21702385 67.02877808 -2.78378749
26.18942261 70.37490082 -2.73392773
-50.84468460 -43.94940186 -2.25294280
-2.73966074 -8.24421787 -2.34315753
29.57490158 9.49680901 -2.49458909
48.15932846 43.85783005 -2.75805330
-27.55307198 -59.60252380 -2.27030134
67.87792206 -22.51533699 -2.43412590
-10.49333763 23.25235176 -2.48404288
-27.48659515 -50.51600266 -2.35470557
-40.17679214 -3.57574677 -2.48620844
1.31038117 -35.43577957 -2.42970657
51.84580612 56.67130661 -2.70174265
12.53518486 12.89252472 -2.45296645
-40.33868027 -7.85998440 -2.43452382
-39.58277512 -66.60597992 -2.03158164
75.37351227 -21.60011292 -2.31925964
44.98671341 -41.74358368 -2.42045784
54.16701508 35.30446625 -2.69442821
32.01800156 -70.63092804 -2.24776983
-45.77795792 -33.83946228 -2.39187789
-9.69867992 -66.36997223 -2.22058177
7.54233360 -16.36958885 -2.48563170
-34.13086319 -70.17882538 -2.16039562
43.82606888 -23.39100266 -2.48545909
23.42638397 -19.12490082 -2.45862341
-37.26726913 -57.66508484 -2.30684423
37.73674011 28.94180489 -2.64520621
-34.87406921 -5.54352665 -2.42388248
-33.43015289 5.41944265 -2.44048142
38.03115463 29.26806259 -2.66502762
-0.65904981 -66.69766235 -2.22296953
63.41556931 23.53150749 -2.65173125
13.46998978 65.43347168 -2.74802589
19.17839050 64.72503662 -2.76157236
18.92254257 54.85586548 -2.72310996
14.22118187 24.55948448 -2.61279488
1.04829311 -3.96825409 -2.51385713
70.14218140 18.43810844 -2.52431798
-6.28503275 17.71002960 -2.47357607
58.03995514 53.61164474 -2.25468755
-3.52874351 47.55452728 -2.70786595
70.90328217 -21.06006241 -2.40535998
22.51600838 23.32122040 -2.64552712
27.44551849 25.14300346 -2.59353280
54.59851456 -52.85977173 -2.36276031
-49.73226547 43.38825989 -2.63160515
-16.22528267 16.60607719 -2.51408219
-71.69283295 14.06904602 -2.10900927
74.99029541 14.44341183 -2.33439541
8.72432995 68.62084198 -2.73496437
-76.03433228 21.71990013 -1.38553619
30.97974777 17.45732307 -2.48829985
-19.41789818 -27.50966263 -2.33552289
10.10448456 22.46733093 -2.58725834
-67.27377319 22.39484787 -2.37636876
42.29300308 -68.70622253 -2.19831038
17.08748817 -3.23190665 -2.35478139
76.31620789 12.83082008 -2.25049829
32.59944534 42.02050400 -2.72303867
16.31332588 72.11296082 -2.75863171
-34.22922516 -50.38064194 -2.33131933
40.95526123 46.16210175 -2.77608752
63.67737961 11.44937706 -2.55441523
33.09919739 42.00393295 -2.69171762
-33.71189880 7.20005131 -2.49408364
10.48283672 -3.44665694 -2.32533455
-17.07031059 -35.03266525 -2.31459165
24.98379326 -35.04849243 -2.40259075
-7.21234989 -1.90407157 -2.40055108
-5.81566000 -36.23795700 -2.31392670
37.25128174 40.95778275 -2.75067806
-22.60412598 9.30502224 -2.44430423
-40.16966629 -38.10511398 -2.34809852
22.66162109 -51.83336258 -2.30668163
47.92106247 -31.13115501 -2.46443176
-39.87936401 -65.93352509 -2.07295513
-2.84948993 -38.22844315 -2.36119056
8.34122658 17.25634193 -2.52791929
-4.27479887 -12.25325871 -2.35975385
-60.66573715 47.59628677 -2.46017385
-55.33324051 -57.65071106 -1.73754072
73.13365173 22.52479935 -2.45304227
-30.45886803 -13.70311069 -2.39494014
39.94512939 -5.19633770 -2.48128605
74.03233337 16.02836609 -2.45502114
-73.97416687 -12.92456055 -1.32128716
-25.93203545 -67.71185303 -2.25647616
75.92659760 13.75252628 -1.85960519
-4.35123873 21.50586319 -2.55349708
5.10504007 -72.06644440 -2.22650266
-24.94319916 -53.80936813 -2.36968517
12.98895359 -8.16975403 -2.38459778
19.40137291 17.49213028 -2.50047469
-29.20710564 -60.65581894 -2.33675742
-40.26900101 15.43490410 -2.50196099
-3.62191343 48.41831970 -2.71312380
-38.73291397 -8.51998997 -2.42954826
-46.71067047 18.07562447 -2.49265933
15.92230225 21.98614502 -2.53359962
17.37421227 -6.19076729 -2.35598469
-37.32207870 -4.94632292 -2.46087074
3.16455364 -62.89550018 -2.19688392
6.95856810 4.76265192 -2.40829182
49.60874939 59.67971802 -2.65940499
-30.38054085 -29.57002449 -2.36762524
23.50849342 19.73412895 -2.55638957
56.74073410 -38.59882355 -2.42068338
54.11772156 -53.87044907 -2.32703733
40.91913986 65.41912842 -1.91979015
59.74902344 -29.78309250 -2.45211887
-31.12287903 -57.44182587 -2.38333941
12.29979897 26.68181038 -2.59781170
36.66616440 27.43572617 -2.63329244
28.52319145 -41.76581955 -2.38437700
58.71761322 34.01208115 -2.70172572
12.88039207 -26.85970497 -2.33166361
-14.69073486 -72.80332947 -2.24821568
48.49890518 -49.50557327 -2.35935736
-51.19897461 -4.75970793 -2.51413178
-24.19604492 -54.25633240 -2.32591176
4.08590555 -79.03216553 -2.05160165
-8.97137260 17.50807571 -2.51611400
-10.58327866 69.82744598 -2.69632244
-3.30975747 -46.90301514 -2.24823809
13.25869751 48.35388565 -2.68233252
75.70069885 13.46879101 -2.03795433
-36.08679581 -62.71196365 -2.23536777
31.37307358 -47.88982773 -2.36019731
58.39247131 -30.68806076 -2.45752335
33.80361176 67.65958405 -2.67730379
-55.92290878 56.17672348 -2.34415889
18.06444168 14.03027916 -2.42901134
-68.57657623 -14.70825386 -1.72483599
22.65029907 43.63495255 -2.66795945
75.64350128 18.29934311 -1.99328864
8.55942059 -76.96977234 -2.20855212
38.11909866 37.26581573 -2.69985914
27.63016701 2.41736150 -2.42363620
37.03805923 66.47362518 -2.01670671
-29.93610382 -61.64175034 -2.32858109
78.10045624 -1.19652987 -2.26139688
49.42323685 -49.25764084 -2.38364244
-61.53284073 -40.88159943 -1.87005413
-35.03982544 -41.03679657 -2.29805279
1.48642969 18.03203773 -2.51271367
75.25560760 4.44797039 -2.40931678
-43.71928406 -0.67472386 -2.49172854
-29.36853790 -21.58656120 -2.38462639
9.25644398 -31.02092743 -2.34733033
34.82603455 -57.02215195 -2.31430960
8.28743839 32.01733780 -2.58683395
5.63581038 -48.89296722 -2.24839497
20.64738083 76.27367401 -1.57244527
60.10353851 37.33715057 -2.68514800
23.46245766 -74.18457031 -2.19096613
70.97431183 -4.30432606 -2.38769603
49.63644028 21.79648399 -2.62223697
18.04057693 -66.56435394 -2.23150897
79.16850281 -14.63236237 -2.05114818
-50.01393509 61.89539337 -1.84650588
32.29874039 -62.27328491 -2.28750944
-8.72322655 8.16101933 -2.35662079
-18.96274567 -33.80089569 -2.32112074
28.74404335 5.38060570 -2.45946169
2.45977664 67.48819733 -2.71290731
-14.53239155 -19.90729713 -2.33162475
24.20978546 7.08549118 -2.48502612
-58.62638474 6.66385651 -2.53246570
-5.86941433 -33.34625244 -2.25584936
3.18504834 2.52180910 -2.33678460
36.19360352 63.33269501 -2.76872945
-38.21512222 -10.85126400 -2.44242668
34.12133789 7.89019728 -2.46355486
-5.07627821 22.61479950 -2.53605890
-53.55007935 -13.35473633 -2.48147893
-73.02924347 5.27283955 -1.93246758
23.80581284 56.17053604 -2.76582503
75.52370453 8.42880154 -2.43847489
-33.81422424 -69.88456726 -2.16286469
13.96799088 0.45957500 -2.40992928
66.76157379 -5.25642109 -2.42203856
-19.34078979 22.81170845 -2.51116467
31.71360970 57.26797104 -2.78571486
68.92807770 38.97457123 -2.22988129
-32.34865570 0.03700478 -2.42000413
15.51180649 52.24035645 -2.66966057
66.48102570 26.03495216 -2.58963299
21.15457916 -74.95391083 -2.15206194
59.81967163 8.46571732 -2.56850886
-32.07735443 -4.40317535 -2.42351103
-22.65286636 -74.08024597 -2.21928406
-33.10118866 -15.71285820 -2.40184116
0.75018436 33.74419785 -2.61906528
-54.42336273 -56.68914413 -1.88334286
-56.97514725 -51.62889481 -1.87966561
75.75343323 18.82842827 -1.54362738
27.30529404 67.53100586 -2.74915242
-25.70667076 -54.50400925 -2.39051461
-10.52155876 35.96947098 -2.58505130
3.50561357 -44.43339920 -2.27776599
-22.28945541 16.50051689 -2.44578862
-18.88954353 -72.58143616 -2.26536632
15.38251114 -10.76880074 -2.40597963
10.47115135 69.64276886 -2.76103044
20.25016022 56.55595779 -2.74775290
-32.44438171 -60.41486740 -2.32831383
25.61083221 -39.68873215 -2.40594125
77.05731201 -19.79111862 -2.23724103
2.28958845 59.55278397 -2.68195844
26.40790749 -5.75278473 -2.39236498
-64.11721802 -0.28800604 -2.37887049
-14.18665218 -19.96332932 -2.31954288
22.87037849 -55.73404312 -2.28402495
10.46448040 -29.82492065 -2.37036014
48.65854263 -51.32075882 -2.36187434
-39.11648560 -37.22548676 -2.33482766
62.71221924 -10.11072540 -2.47557449
6.56351328 -49.40618896 -2.25991154
12.10741425 -27.92555809 -2.34348774
-60.79512405 51.25337601 -1.74110162
-48.86819839 -29.61944389 -2.42548156
-65.37000275 -2.62429881 -2.29944682
5.98937607 10.00799274 -2.40380120
-35.40538788 -62.39516449 -2.27149630
14.72380352 -72.37528229 -2.22764254
20.14685440 76.08492279 -1.94887233
23.09005547 -18.83496094 -2.51176548
40.34320831 -22.88643265 -2.47096658
33.28486252 -41.84685516 -2.40846062
-5.59241295 -1.92650437 -2.21875548
69.52186584 18.32781982 -2.51273346
48.52517700 59.47352600 -2.70736456
-61.41981506 -51.66987991 -1.22228980
76.48401642 -13.82270336 -2.33126378
44.47644806 21.87894440 -2.62001896
-12.00273418 31.18498039 -2.58781314
2.65581417 -73.75641632 -2.22497416
24.03848457 15.49118233 -2.53991508
67.43972015 26.30393600 -2.58705616
-13.32863522 75.49358368 -2.67979288
46.44929123 -41.21215820 -2.40185952
-55.84446716 56.89715195 -1.84939313
7.07175779 51.72326279 -2.74204040
27.15815353 70.86293793 -2.72268462
75.15895844 15.37461376 -2.39344168
4.74781370 -1.20385301 -2.38775444
13.61598682 57.95423126 -2.71626306
20.23313904 -75.31758881 -2.04561353
10.35090828 58.76359558 -2.71781301
-22.06575203 -32.36698532 -2.33233976
23.86131668 64.48480988 -2.76565218
26.78200340 -15.12897015 -2.41465425
31.88896561 -13.11471653 -2.47693920
33.89819336 52.27379227 -2.79016709
23.87792587 -25.74783707 -2.42575407
-5.68913746 -32.91217804 -2.33128595
17.20572090 72.27900696 -2.74974155
14.99862385 65.17472076 -2.76367140
0.50487411 -14.32026768 -2.45506668
72.47277832 31.78598213 -1.97247064
37.77589798 45.83352661 -2.72561836
31.41519737 -12.21269894 -2.47768331
-32.83554840 -54.62647247 -2.33716750
19.73662376 -5.97214413 -2.39708447
21.56851006 -21.14972115 -2.42628098
15.23480415 29.85704613 -2.57757497
26.76618767 -27.67340279 -2.48887396
24.30547142 11.37702942 -2.49713588
49.04393768 -32.05243683 -2.46168303
-21.43334007 21.78428078 -2.46305227
14.23754406 -41.19863129 -2.32965589
5.64629316 13.25726700 -2.47389174
15.71934986 65.56320953 -2.76956797
-18.93123436 62.61431503 -2.65598512
-8.35340214 10.83894157 -2.43305421
-24.30900764 20.04261971 -2.56485438
-0.00823880 6.98833179 -2.46587110
-62.69852829 -7.08086824 -2.42588353
-0.75934547 -16.26973343 -2.33528805
22.37318420 28.68119431 -2.61709762
45.65599823 -52.13895798 -2.34971881
3.27032781 49.14850235 -2.66077590
-13.93675232 0.16415040 -2.36121702
37.59708023 64.28022766 -2.60037851
2.80096340 -6.00016785 -2.41705728
10.54541969 15.57879162 -2.46958447
68.34526062 26.42718506 -2.59423685
-7.18951988 73.77299500 -2.75103545
-68.30826569 -21.74135590 -1.57245207
26.13624191 -18.04786110 -2.42488623
8.00973988 -42.67077637 -2.35748625
-65.61190796 -14.59679604 -1.95941579
53.42614365 34.95159531 -2.70647717
-19.29920197 65.70383453 -2.68201065
15.81686115 -11.18352699 -2.45563889
31.44383812 18.14048004 -2.55334473
-31.08711243 -73.24027252 -1.82415819
37.35590744 38.17793655 -2.68661690
-45.26078415 -43.24555969 -2.34489393
-42.02705383 -65.64553833 -1.96927953
-5.62297201 -23.84479141 -2.37756681
-3.85964417 35.10397720 -2.61130881
53.24088287 48.56305313 -2.74690056
51.77156067 -48.67389679 -2.39366031
-10.01179600 -77.84983826 -2.21067452
18.16966438 61.66035461 -2.86023331
39.92927551 -28.27387810 -2.46810269
29.95643806 14.59932995 -2.49889374
33.61003876 51.81929398 -2.78950214
-29.62803268 -57.63076019 -2.45637345
72.23796082 -21.34407425 -2.38042855
-13.42646885 -58.81266785 -2.26428676
47.92253494 -50.98577499 -2.35687542
32.80280304 43.63715363 -2.74624825
38.69961929 64.50395203 -2.64913511
42.32276154 60.07168198 -2.80950856
1.00758505 -29.84685135 -2.30837274
3.81132269 14.31777382 -2.49047709
1.66482008 14.08799553 -2.49263120
77.24369812 -18.44228554 -2.29357648
44.88768768 52.14147568 -2.83542466
11.58450699 -28.95885849 -2.34568644
-21.35634232 -73.84183502 -2.22521091
28.10140419 -0.24545430 -2.43835878
7.53717709 -31.29593277 -2.32932425
14.09413147 52.53017426 -2.64231515
33.76687241 -41.48642731 -2.36993432
12.74846554 71.38293457 -2.74767590
25.25019646 56.17729568 -2.76025248
-27.87690735 -59.13444901 -2.29815888
0.66214675 -67.44113922 -2.20999789
14.67241096 26.84276962 -2.58116436
18.04405975 53.25886154 -2.69055605
-75.07690430 7.56551313 -1.83688259
29.33323288 63.29330826 -2.79278898
-30.78887177 6.53275156 -2.45790982
-68.86513519 -7.41854715 -1.94990611
60.57946396 37.20895767 -2.67474699
67.65802765 39.20373917 -2.54016900
-73.41281128 -0.04856548 -1.80971038
-21.54372215 57.43908310 -2.68146515
28.23126411 60.52009964 -2.79974246
19.12145042 60.96479416 -2.86903954
74.46713257 18.02079391 -2.40446997
-70.90508270 -36.79826355 -0.74599743
2.16290569 -74.85265350 -2.22282505
37.74489975 49.55464935 -2.79240489
-24.77757263 -71.96307373 -2.25986385
-42.81241226 -9.87592030 -2.49546218
-49.63928223 -6.02949905 -2.52491450
58.76336288 32.56916809 -2.67384624
-37.34429169 -8.44569206 -2.45701551
-49.22202301 -22.51354408 -2.46154714
29.20779037 10.38061905 -2.52288175
50.45357513 -52.95660782 -2.35140276
32.94422531 42.25425339 -2.70472479
-24.48460388 -30.55320740 -2.33169985
-4.08091593 -33.56138992 -2.30227184
61.52607727 16.30087090 -2.56206131
60.79458237 50.56581116 -2.50994205
63.16154861 -34.26196289 -2.41362476
68.27278900 -19.13479233 -2.43180680
60.07932663 39.12830353 -2.66883469
-15.28997803 34.15277863 -2.59276628
16.54107857 25.27155685 -2.53766966
7.37769222 32.22331619 -2.59703732
-31.95421028 -64.47858429 -2.28505731
-67.35274506 25.40023041 -2.32486868
-43.53399658 -0.28869170 -2.54445076
-3.87848330 10.37285519 -2.45498371
57.22469330 54.26766205 -2.38275003
-4.88270903 -17.20436096 -2.35174966
61.69239807 -0.10006652 -2.50929904
-21.04241180 -77.16049194 -1.87870169
-14.43457985 -36.22147369 -2.28716922
17.43723869 29.99264526 -2.61999202
52.10460281 59.85800934 -1.78439856
52.81331253 -58.92087936 -2.30475068
-8.06742096 -39.71831512 -2.23954177
-61.70608139 3.15229082 -2.48641419
23.97232437 28.37715340 -2.66742158
66.04280853 10.49509716 -2.55471897
33.37588882 46.89309311 -2.72803378
-0.95149326 -57.94570541 -2.21318817
-29.00891113 -55.15997696 -2.32816601
12.10458183 -52.79499435 -2.25317717
-36.85773087 -59.48963165 -2.28065348
57.93473816 -32.44797516 -2.47267008
-5.25850105 -5.08525229 -2.37806344
65.88349152 -16.20963287 -2.45746088
79.79163361 4.71154737 -1.97009683
-25.51214409 -72.73552704 -2.23754764
-36.84012222 40.20469284 -2.62144685
37.82041931 43.15919113 -2.73967218
31.32942390 1.34115458 -2.41070771
30.16187859 54.01738358 -2.76128554
9.71214485 64.99277496 -2.71486378
69.84658813 31.13318443 -2.51040649
56.39209747 -51.21644974 -2.35349751
-68.61784363 4.28615522 -2.22634411
31.12252235 -47.10496140 -2.34588218
46.31561661 18.69478035 -2.58258367
31.46332550 45.94041443 -2.73453689
-7.84828281 7.42520714 -2.38384557
9.80162239 52.67993164 -2.67152238
60.26963043 38.79074860 -2.67246652
23.97695923 24.93618584 -2.59042549
-5.62498236 -34.16829300 -2.39108253
-42.70760345 16.53709793 -2.49537706
55.62229538 -37.70686722 -2.42312050
-77.45289612 3.35811925 -1.48919272
70.08830261 13.87149048 -2.56163311
-73.93223572 -15.02172470 -1.29414964
-0.86593294 -5.65998554 -2.34086847
-12.80612755 51.69198990 -2.65021276
-1.66463721 1.33336151 -2.51574779
9.14265156 55.29596329 -2.68621159
-27.92661667 -50.78660583 -2.34964275
28.40517044 70.20876312 -2.70276070
-3.98403025 41.83461380 -2.64178872
21.48806572 -74.91753387 -2.15758061
32.15444565 57.76732635 -2.79847789
-46.55726242 18.05323219 -2.48579478
10.33528709 -68.07543945 -2.21007562
47.55461884 -30.46712875 -2.46258235
-54.04679489 -59.13888931 -1.68897748
-13.80874252 -72.07643890 -2.23902941
56.96145630 -48.18645096 -2.38686919
53.11431885 14.21582794 -2.57568026
-62.49798965 23.83650589 -2.51134014
68.29177094 -4.46624947 -2.41643000
-8.96846962 -71.15302277 -2.23048902
-3.45941472 17.84006500 -2.49862123
49.82336426 20.10399628 -2.56714153
-7.13444757 78.27834320 -2.55389142
18.02159691 72.37246704 -2.78220582
27.65257454 61.48144913 -2.78845620
-5.72273636 -35.68851852 -2.34301233
25.26085472 -60.53623962 -2.26691699
-28.55523300 -8.95684528 -2.39186954
-35.39210129 -70.81052399 -1.95760512
36.39659500 50.33784103 -2.79509282
34.49492645 65.06517029 -2.78100157
5.47769785 -25.60796928 -2.33787608
-24.60157967 -48.52878189 -2.28529143
72.10298920 -16.57963943 -2.38603210
48.24821472 -31.08829498 -2.46598649
70.40634155 8.88370514 -2.47576952
-15.78009319 12.08993053 -2.47382712
-75.02344513 -10.49178314 -1.39738607
-46.37002563 17.57503319 -2.52176952
0.05249398 -27.70225525 -2.42757273
-35.52392960 -42.36112595 -2.54435682
16.48608017 -2.75677299 -2.36500669
52.14048386 9.47480488 -2.56662202
35.12400055 65.11737061 -2.74990463
-3.57208467 12.57464409 -2.43929052
-11.32936478 18.96917915 -2.45686126
15.92598534 29.81155205 -2.58444381
62.36460114 48.66293335 -2.30119610
2.06806755 -5.27733278 -2.32955599
-38.51125717 -53.87717819 -2.32308793
-23.97780991 -53.04609680 -2.20749974
25.70969009 -18.04169083 -2.42770720
-77.02755737 -3.78179049 -1.42429602
-1.09275997 -36.80463791 -2.33281612
7.84399462 -31.30306053 -2.33079147
53.20964813 56.59351349 -2.65756679
-34.92506409 -33.61848068 -2.33559299
-21.43376732 20.42259407 -2.55257893
41.84891129 7.65229654 -2.48039770
71.66625214 14.38335609 -2.51541662
-2.19104505 20.07501221 -2.49681735
-26.40727806 -48.08370209 -2.30510068
72.54696655 -4.24772024 -2.39709783
53.00255203 49.52184296 -2.76549602
10.68365097 59.99204254 -2.82076883
4.49441385 32.14952850 -2.58865809
-24.57981110 -43.87891006 -2.37587428
75.70419312 15.01606178 -1.65719581
-39.03641510 8.76726913 -2.44545054
-41.26223373 15.82404232 -2.45419431
-10.40839863 29.96245193 -2.59639621
-71.74225616 -4.54415607 -1.76563883
-0.04934832 -57.61719513 -2.19709420
-27.96384239 -28.72027779 -2.37140989
-26.06430244 -49.45880127 -2.09405541
15.28200245 27.01276016 -2.57478690
-47.57814407 -64.02614594 -1.63329649
-51.88197708 -33.70621872 -2.35628772
74.99224854 14.18548012 -2.23657131
23.31162071 -19.54862976 -2.46773005
43.76070023 -43.87519455 -2.40082598
-41.37878799 -62.91775894 -2.14476132
-30.18187523 -56.38070679 -2.22911596
-60.42192459 5.88785028 -2.50575972
70.77316284 35.86615372 -2.04019070
34.12360764 -69.64950562 -2.23834848
25.19050980 -12.27788448 -2.40951681
73.14859009 16.26648903 -2.46381903
74.61711121 10.38908482 -2.41750360
-4.02705383 -67.17185974 -2.23613191
44.77817154 -41.39956665 -2.42545605
21.15247345 -21.36483192 -2.39795327
25.80977821 63.39709854 -2.79111743
75.15335083 -23.51020241 -1.94275844
6.83337927 -44.31958008 -2.27632284
32.14648056 24.79235649 -2.62207961
-3.26605868 -6.08008242 -2.24451995
3.36842942 -62.52440643 -2.19460821
-30.94070244 -11.17829132 -2.39941764
-24.97642708 39.26799774 -2.63092661
-59.99155045 13.86307335 -2.52256298
-26.08342171 9.52819920 -2.41927028
-51.76300812 19.52003479 -2.53461313
-7.41286135 -40.19988632 -2.26936626
22.82849884 28.39585876 -2.61965084
14.53802395 29.24047279 -2.57237387
25.51198196 -13.79653835 -2.42570949
-3.82083607 -48.42909622 -2.23568940
69.12705994 3.58204126 -2.50199580
-52.67809296 40.25853729 -2.61493492
-54.04321289 -58.68598938 -1.74682474
-3.23307228 -67.18708038 -2.21074629
66.05790710 -35.84981537 -2.38047123
-22.40543556 18.71246147 -2.50242686
-12.17122364 28.01893806 -2.55103874
21.05917931 -7.71854115 -2.35766816
23.40357018 -9.62067890 -2.41861558
31.28892326 -51.85035706 -2.33127546
-62.82816696 -5.44965649 -2.34467459
-25.12336349 28.59337234 -2.54912329
72.78061676 29.72785568 -2.30166316
64.08988190 -38.30883026 -2.34076095
-1.95903683 -74.27381897 -2.23254085
25.04835892 -67.44925690 -2.24972796
-5.05904245 -23.90591240 -2.38829446
14.67169571 -61.08758926 -2.24247956
75.73212433 -4.51015377 -2.35406280
-47.89300919 -42.35300446 -2.34071302
1.36554587 -67.35773468 -2.20765901
-70.88930511 12.85693455 -2.16323256
79.24006653 -14.16263771 -2.11370492
-36.08841705 61.59135818 -2.70441198
41.49044037 51.49316025 -2.80508542
13.79096031 56.84366989 -2.74142623
6.53891325 14.08104801 -2.44221711
31.72739029 -63.45655823 -2.27927017
-42.19408417 5.44509411 -2.46372700
1.61103296 59.67998505 -2.67445159
11.41751575 5.01503038 -2.36175871
-61.43900681 -51.28112411 -1.38860977
-29.64105606 -61.29963303 -2.38872170
53.00845718 57.15817261 -2.61438203
-6.02171326 67.11668396 -2.68409443
37.40447617 64.52790070 -2.68670940
-11.07316875 -16.10838127 -2.34997320
-1.73318684 -3.10543513 -2.42172980
12.83308506 27.06538582 -2.56810308
30.51027489 36.87174606 -2.69025803
-17.94104958 -3.75739288 -2.35837674
-11.87133503 17.98456001 -2.44983959
-78.17922974 9.28404713 -1.49980366
-23.93781281 -52.92764664 -2.21037745
53.51005173 48.81190109 -2.72698712
-71.70605469 -18.98646545 -1.37686837
32.90068436 -30.15954399 -2.47064137
37.44653320 -6.83539057 -2.50014710
-12.99079800 22.51547813 -2.58458877
-64.63246918 40.75976181 -2.29860163
9.36052895 53.32360458 -2.72248173
8.67350769 77.14065552 -2.72149181
71.29873657 4.24107456 -2.43663454
-4.88215160 -67.18219757 -2.23939157
53.59947968 -55.20341492 -2.33762145
55.53149414 -21.53597641 -2.49637532
27.57555771 53.45796967 -2.78916812
-70.90648651 15.49166012 -2.17471695
25.80411148 -70.02729797 -2.24471593
71.58274841 -33.10136795 -1.83380067
-17.38462448 13.31330109 -2.49220133
-62.32965469 49.41464233 -1.83417690
17.92470169 -75.56631470 -1.76676428
-9.23082829 -66.08550262 -2.22972274
58.00732422 -34.20118332 -2.43901801
38.37101746 60.72480011 -2.80749869
7.03784037 27.08933830 -2.56435561
0.75784063 56.31492996 -2.66066313
-54.08636856 13.85668373 -2.54259181
-9.02714920 -39.00911331 -2.28981256
8.35570621 -31.76442719 -2.32585192
-28.78283119 13.12366772 -2.45007730
-34.56658554 22.11408043 -2.51307487
10.93231392 -67.54405212 -2.21983147
2.31096268 56.52240753 -2.72408581
-0.36305267 61.45996857 -2.65546465
56.91256714 3.62105179 -2.56331539
39.32825470 -41.75473404 -2.38253689
-31.42061043 -24.94022942 -2.40256667
-28.29346275 -28.12469292 -2.36641097
65.34782410 38.63417816 -2.64053249
61.66675186 -15.24137783 -2.49111843
-15.23697948 -70.55022430 -2.24724388
-27.19728279 46.56205368 -2.62822866
6.54756260 72.89948273 -2.74581718
75.15634918 18.48805428 -2.34740210
-35.82558060 1.80815053 -2.44230151
79.33638000 -2.97998238 -2.26682925
-4.39240313 -11.92060280 -2.37499475
-60.76525116 -6.87004375 -2.39679527
50.64734268 -52.71067047 -2.36421943
7.53436327 10.36214256 -2.45809340
26.61400032 -66.38388062 -2.25616693
37.35674667 63.67588425 -2.75033784
68.55697632 40.19843292 -1.87477469
-28.77794647 -25.03945160 -2.39711642
0.75173843 -58.78620529 -2.18671775
-65.99591064 13.29444122 -2.39959884
-77.56483459 -14.63205242 -0.74537092
65.36795044 44.22963333 -2.45031881
-14.57851696 -62.99684525 -2.25536346
74.03735352 -16.03055954 -2.37341928
3.35111952 32.97166824 -2.59440613
-16.81232071 -77.44309998 -2.21738768
-6.28250408 2.17704129 -2.37221575
-3.00147152 14.65684700 -2.39859724
9.50789928 62.77632141 -2.83069634
20.59983253 33.97518921 -2.62788677
48.03645706 -54.47599411 -2.36740375
17.35155487 14.53661251 -2.50968838
33.53182602 27.96774483 -2.62052011
42.75167847 -50.42690277 -2.34835434
35.59055710 65.34942627 -2.73788190
27.68123055 28.25312042 -2.61196947
76.71357727 -16.91496658 -2.27585721
32.78535461 53.43925476 -2.83418584
-32.17284775 -57.54021835 -2.36033964
71.42101288 19.62082291 -2.51523209
-60.94839478 4.93828678 -2.49678850
8.24161720 -68.32660675 -2.23070359
28.57145309 19.92326546 -2.51891947
45.19778442 51.89445496 -2.81964970
-44.24690628 -19.79248047 -2.47581482
62.18551254 23.23353195 -2.68958259
-75.57149506 -4.18087530 -1.53404021
60.17474747 36.36701965 -2.69486213
-38.95389938 -34.82812881 -2.45036530
6.60495710 14.47490311 -2.47681642
70.99285889 -13.61427784 -2.41148710
-21.81708908 -10.52848625 -2.22545075
-25.19112968 -51.78939438 -2.30954623
-22.32726097 65.10509491 -2.69450355
77.84191895 -16.89817238 -2.23384285
30.18911171 68.98412323 -2.75081182
32.68950272 -55.76875687 -2.33617520
11.39592457 26.69154167 -2.61931896
-69.95206451 12.43844604 -2.19252348
15.14949226 16.85341644 -2.47381330
-12.41172028 21.98774910 -2.32779026
-42.97608185 -65.55393982 -1.95350063
17.22131157 9.89713192 -2.42616940
-20.85407448 -5.04004765 -2.37113047
70.88024139 35.60203552 -1.98822641
23.60480881 15.52247143 -2.51681042
25.98666000 -14.36642456 -2.43157411
-57.08951950 21.82714462 -2.54782200
-29.14834595 -55.87559509 -2.26055908
80.20732880 -2.92999053 -2.12832236
11.55483532 4.29009104 -2.38861060
-2.97696495 -9.19715309 -2.37631845
33.42736435 50.38727188 -2.77778769
-5.69545746 -30.93256950 -2.41351271
-21.45820427 -58.78456116 -2.29270816
46.11850739 -44.19995880 -2.39310002
23.49733353 65.79990387 -2.79322934
27.16850662 58.24132919 -2.76692677
-64.67177582 0.58889806 -2.37420082
-64.37377167 -6.69090414 -2.33071971
-46.60477829 -59.02830124 -2.12891436
-9.03054142 -5.02044725 -2.32784653
-26.08538628 18.25141144 -2.51300192
-29.79407501 -19.77251434 -2.34852266
33.14293671 25.25775146 -2.60998631
70.62763977 -4.43695450 -2.42457795
54.79570007 41.31179047 -2.74197721
2.08741450 -75.97618866 -2.23674631
46.51935577 -41.77600098 -2.42353058
46.77092743 21.07049370 -2.56704092
59.39985657 51.36883926 -2.52700043
-63.89645386 -11.49532700 -2.14861012
-7.41845036 73.09568024 -2.73663712
9.61377716 21.06435776 -2.54286456
48.57279205 41.62830353 -2.74604821
8.26390553 8.63962173 -2.43957496
15.09575462 52.38575363 -2.67857981
14.55877781 58.00804901 -2.79060912
-4.15138292 -79.43153381 -2.15597296
-11.70105743 17.96305656 -2.44090796
15.91171074 -6.31836748 -2.41531372
8.03929615 -43.98603439 -2.34328723
79.24919128 6.62576962 -2.12940955
-31.64761162 14.23531532 -2.49920940
-38.03709793 37.99180222 -2.59901547
64.80518341 -3.98950195 -2.45434785
54.91275024 21.49399185 -2.65611362
37.43760681 39.48828888 -2.77718449
-32.68144226 -12.83773136 -2.40035868
58.34587479 46.15059280 -2.69211507
72.64410400 21.25737953 -2.44113684
31.48006439 42.73242188 -2.77146316
-0.57840711 61.51547241 -2.65765691
30.90625191 46.30484390 -2.74693012
-29.91239166 -52.27325821 -2.27390218
-67.86460114 -41.88687134 -0.76745313
29.45219231 -45.10758591 -2.33489203
-66.71188354 13.29076767 -2.37885356
53.78227234 18.95664978 -2.60125637
51.50963974 -34.99500656 -2.44139910
-59.04735565 3.81916237 -2.52933788
25.87420654 69.65093231 -2.74650621
78.17933655 -15.14746571 -2.27716589
35.48075485 -21.32251740 -2.47442770
45.73571014 58.37510681 -2.78812480
27.61040688 -68.69950104 -2.24879551
-11.63923550 -37.69070053 -2.30850720
-61.19603348 -7.18222904 -2.36216354
-12.86579227 -71.81187439 -2.24872565
44.76260376 -54.73261642 -2.34468246
7.78152657 9.01100254 -2.43615723
61.71589279 -13.91425991 -2.49586511
77.74645233 -10.32361317 -2.16524839
-6.83399057 -2.00581980 -2.35933161
-67.91145325 15.17090511 -2.36095881
-64.17614746 4.39422941 -2.42442393
-3.64578485 36.74706268 -2.63112736
-63.11383438 -6.62157965 -2.40754247
-17.63782692 -71.33123779 -2.25378895
-1.95359433 -14.19596195 -2.42725086
57.55596161 49.52184296 -2.68400097
55.28240585 -49.89511490 -2.34706140
34.52112198 55.35906601 -2.79225135
46.73102951 55.97779465 -2.80419755
17.98990822 -65.64420319 -2.23702931
33.58929825 52.68313599 -2.81492734
70.45046234 18.77542496 -2.52277637
52.10491562 34.20491791 -2.69919229
2.35918641 -37.13562012 -2.32227826
32.88491058 50.79884720 -2.78691077
-60.20698166 43.88800812 -2.51871061
-40.14939117 -37.89238739 -2.36590624
25.94079971 15.70389366 -2.47789264
-67.48353577 36.62318420 -2.10895109
38.01333618 48.61526871 -2.79041719
-6.31782246 -25.50205994 -2.31928825
19.97258186 -22.41022110 -2.39017010
75.13069153 12.40188217 -2.42324162
-70.94203949 -8.54467201 -1.74111712
-1.18175793 1.34249604 -2.36282039
32.51617050 -37.73681641 -2.40725136
7.11465168 52.95446396 -2.75408745
47.65438843 -41.14747620 -2.43416309
33.03962326 47.15638351 -2.74631071
-10.57497215 -77.46368408 -2.23366094
58.83477783 -29.89326477 -2.46384788
38.47343063 -46.28986359 -2.37267900
-36.60268021 -38.53034592 -2.43494964
39.09113693 46.30295563 -2.80768490
17.33620644 -65.91912079 -2.24359798
32.73824310 -70.15941620 -2.23209047
-21.44610405 -53.14412689 -2.25062633
27.35757065 -16.23936653 -2.48555493
-63.60202026 -15.08541489 -2.08233976
37.47284698 40.71603775 -2.74295282
19.17432976 1.40156817 -2.39097929
-9.02870941 -8.16797447 -2.38327336
69.56043243 38.41297531 -1.92760193
-2.64657259 7.14476967 -2.43804479
-61.75683594 -7.10893536 -2.46913958
16.53930092 25.05433083 -2.57024336
30.52788353 37.35370636 -2.70792675
-16.81263924 -34.88645935 -2.32337165
16.39893150 41.77775192 -2.64375210
42.27694702 45.76744080 -2.83602643
-69.35025024 0.90087497 -2.09760666
33.31795502 -0.64611626 -2.45164108
39.71395493 30.67537117 -2.68715501
31.55915070 65.67225647 -2.78710222
20.48645020 -16.78264999 -2.38477850
70.20561981 16.78472710 -2.57497120
61.42874908 13.87588692 -2.57381010
13.76323700 27.63716316 -2.54129219
10.21745682 3.09042358 -2.40409613
56.75624466 5.61107063 -2.57551241
47.76434708 19.46885490 -2.61258793
28.68873215 -71.49294281 -2.22686720
76.72651672 0.66365558 -2.33625627
11.11029434 4.35496330 -2.38383818
14.73752689 30.48795319 -2.59327245
21.48461914 26.55848503 -2.55682564
-44.37724686 31.25887108 -2.55243921
15.26491165 -0.49221060 -2.38043046
-6.87982130 8.41502762 -2.49523902
34.21207047 63.09279633 -2.79005289
17.67866516 -75.64273071 -1.79340899
49.04027557 -58.10900879 -2.33439112
34.87088013 14.21227360 -2.55145240
41.29125595 57.89913177 -2.80748224
-9.87886715 -74.22923279 -2.23083115
-46.89796066 -11.02388191 -2.48647451
18.75712967 19.42352867 -2.54410863
-27.88909149 -59.57302475 -2.27641749
9.38602734 53.93882751 -2.73128772
-0.73593348 -78.60049438 -2.18911695
78.89035034 6.71893549 -2.20958900
66.02562714 -35.18493271 -2.38863730
-26.38045692 -58.68651199 -2.31861758
47.08163834 -1.01390457 -2.51220441
73.47999573 17.66337585 -2.49176049
-6.70072365 51.86858368 -2.67509222
58.89172745 22.75861168 -2.58549500
10.28098106 31.91768265 -2.56969476
30.19465065 33.60367203 -2.65323210
-40.92609406 -63.12947464 -2.14859891
13.37227917 1.25444508 -2.40953422
-16.47064590 24.93053436 -2.55512309
24.19647598 -70.18944550 -2.23273087
-26.48418236 2.69600892 -2.48427987
36.42388535 24.62924576 -2.61152244
-78.47636414 5.71009970 -1.43016982
45.93136597 -43.37995529 -2.41139865
30.15750122 52.72559357 -2.78519678
67.61306763 13.18914795 -2.53054166
63.12615204 -34.86332703 -2.41566491
30.16460991 12.73981857 -2.48378682
31.53074837 25.69706345 -2.58793020
3.86964393 12.45217705 -2.51156020
60.98046875 -16.63558006 -2.50951695
-59.58356094 -49.88426971 -1.76520658
77.21430206 12.11959267 -1.98497880
45.57283401 58.13782501 -2.79256558
28.20909119 -63.83899307 -2.27262783
-35.65290833 -61.14542007 -2.29154944
58.37965393 7.28600502 -2.54180431
53.52571869 45.19221115 -2.74252605
-7.44155073 -61.83401489 -2.21785069
16.00770187 -59.10481262 -2.24954891
53.70232391 -53.81389999 -2.34990168
-7.72399282 -2.46423388 -2.37293792
-67.90283203 20.65468407 -2.31214356
72.20708466 14.58155727 -2.52093315
-12.62973785 -71.07509613 -2.23581910
-60.14477921 -15.96969509 -2.29438925
-33.65681839 -55.36545944 -2.31315303
25.73056412 -63.95770264 -2.25713205
48.86212158 -31.43210983 -2.45713854
36.94647598 62.30574036 -2.80126095
47.80963516 -64.64024353 -2.24766231
74.38157654 18.79665375 -2.39126706
41.78416061 29.32856941 -2.66362286
67.32455444 21.90649414 -2.56814218
-5.16081047 -35.36285400 -2.35904431
65.52587128 24.33679390 -2.59735394
6.36932039 -6.58950663 -2.34940577
-3.38388371 58.26691055 -2.63937187
69.87586212 -1.95195925 -2.44224834
29.37649727 10.57962227 -2.44734073
0.75681806 2.42656803 -2.16507006
53.49492264 54.41745758 -2.71567702
37.19074631 -52.07171631 -2.34326220
-8.02460289 -58.98043442 -2.22423339
-62.63557816 -15.21096897 -2.14222264
-5.60424566 -36.19875336 -2.31175113
15.40541077 30.38144493 -2.62602162
-65.80451202 -9.45160770 -2.09618711
-77.60858917 0.67173594 -1.44713342
-68.36996460 -27.39317894 -1.49662340
17.24407387 -23.25936508 -2.39592576
33.01718903 51.05828094 -2.76494336
53.41176224 -48.24837494 -2.37620425
-5.24652004 17.55392647 -2.49266934
77.34506226 -4.15163708 -2.32433391
-49.55212402 -3.39635348 -2.54097724
52.81960678 47.62839127 -2.75649834
-24.98076820 -1.85684204 -2.38482475
-76.63317108 -12.88119984 -1.16810834
40.77848053 31.14790726 -2.66318011
21.18504524 16.28086472 -2.55697775
31.02085686 56.00769424 -2.80995297
14.44305801 52.24199677 -2.68047309
-8.56314754 18.47320175 -2.53338003
21.08048630 -72.26591492 -2.20606828
-31.80513763 13.93831348 -2.44824791
-48.26158905 -63.53171921 -1.60585618
28.03290367 4.75057364 -2.40179968
77.47367859 -3.86136222 -2.27320838
16.51610184 29.98663902 -2.67564344
-3.69601965 -76.14788055 -2.22031546
38.77844238 30.39128304 -2.66787815
-71.41735840 -35.71693802 -0.70433861
-1.25931597 18.21243858 -2.50753307
36.52156830 -17.79184723 -2.48522067
-0.20904221 -57.12278748 -2.21025586
-61.81689835 -50.42913437 -1.51942229
7.14537001 -75.85183716 -2.22038078
50.53120422 -42.08539963 -2.40967870
-29.60792351 -16.54317474 -2.37813735
77.52530670 11.22198677 -2.16335607
19.74562454 17.53109169 -2.48949194
-72.56662750 6.88649368 -1.97736382
21.07911682 21.75396729 -2.55858326
-3.69153738 54.20426941 -2.67015338
41.32203674 -48.15289688 -2.36789083
-6.61784220 0.98674136 -2.34145713
-25.28965950 -1.73437357 -2.38176489
31.20378876 55.91614151 -2.80395937
58.96243286 50.59090424 -2.63877678
40.14902878 -0.42854387 -2.47625852
58.16036606 53.56298065 -2.14941573
-29.52367401 56.00323486 -2.71021247
36.18679428 42.75288773 -2.75706267
27.92881203 29.09858322 -2.63165212
-3.09111619 14.31642056 -2.44747329
71.39152527 10.10238075 -2.48453546
22.48087692 15.00368118 -2.50964665
71.42524719 27.64175606 -2.47619152
28.41378403 6.63641119 -2.43444705
8.04382610 0.76276726 -2.37157369
-63.66162872 9.93646526 -2.45400524
50.75641251 -2.04559946 -2.52589560
73.26605988 -21.36677742 -2.37350845
-4.76461744 -9.59809494 -2.39786339
48.83371353 24.59871674 -2.60856056
49.06456375 52.98806381 -2.79757595
75.13713074 9.71533108 -2.45309877
-48.89621735 53.95977020 -2.65862632
-22.42804527 51.67928696 -2.69423103
37.39313507 30.04273415 -2.63256502
73.41459656 16.64795876 -2.49551892
44.13645554 56.72347641 -2.78083658
53.12306976 45.51309967 -2.76667976
17.03897095 28.04534340 -2.58562875
4.94569254 59.32513428 -2.66994715
36.49892807 -71.44943237 -1.51267004
18.55392647 -74.22833252 -2.17421317
37.05728912 65.27223969 -2.62212086
20.50387001 57.96440887 -2.73471522
-17.75469780 13.27396107 -2.44889331
29.62801743 33.67975616 -2.64183426
45.85475159 -19.74186897 -2.50494599
-35.38046646 -1.67167306 -2.45656967
31.43107033 66.58187866 -2.75175285
-57.91079330 22.12511444 -2.55009460
-1.85388279 -77.21444702 -2.22554111
-4.52360487 22.25250435 -2.51502132
28.14918137 29.85466003 -2.61548114
63.90265656 -29.65982437 -2.43653989
-73.72933960 3.77649212 -1.88209367
-62.52699661 48.28437805 -2.04197860
8.15312290 3.27803087 -2.41053891
-6.53802681 71.00254822 -2.71322060
51.48876953 19.61350822 -2.56096244
25.80240822 30.01832581 -2.63088512
-9.79867744 -1.97201371 -2.37335992
-24.08530998 -30.78775215 -2.30404210
-5.15394783 -33.02807236 -2.38812470
30.34126663 37.13016129 -2.69350004
-5.31522512 -33.30392075 -2.33261204
1.41998732 -45.04191971 -2.28112388
51.99452591 -39.92115402 -2.43155289
